1.775849217176437378e+01 -1.339106190204620361e+01 8.902892131358441929e-01
8.743294417858123779e+00 -6.883737683296203613e+00 4.368742961436566929e-01
8.853584945201873779e+00 -6.782907605171203613e+00 4.404295939952191929e-01
8.947273910045623779e+00 -6.665598034858703613e+00 4.428404826670941929e-01
9.086373031139373779e+00 -6.591013073921203613e+00 4.483489055186566929e-01
1.323847264051437378e+01 -1.025092518329620361e+01 7.248381633311566929e-01
1.555878514051437378e+01 -1.209028065204620361e+01 8.754118937999066929e-01
1.591938084363937378e+01 -1.209736073017120361e+01 8.934935588389691929e-01
1.774469822645187378e+01 -1.338215076923370361e+01 1.008850004151469193e+00
8.839607894420623779e+00 -6.982858777046203613e+00 5.133513469249066929e-01
8.872078597545623779e+00 -6.803171277046203613e+00 5.110777873545941929e-01
8.968025863170623779e+00 -6.687692761421203613e+00 5.132292766124066929e-01
9.113350570201873779e+00 -6.618600964546203613e+00 5.194090861827191929e-01
1.322852391004562378e+01 -1.024421131610870361e+01 8.185881633311566929e-01
1.555335301160812378e+01 -1.208832752704620361e+01 9.830473918467816929e-01
1.590900486707687378e+01 -1.209101307392120361e+01 1.002578641846781693e+00
1.797901219129562378e+01 -1.359064686298370361e+01 1.145919706299906693e+00
8.897530257701873779e+00 -7.043283581733703613e+00 5.879668254405316929e-01
8.893135726451873779e+00 -6.825998425483703613e+00 5.818327922374066929e-01
8.984627425670623779e+00 -6.705637097358703613e+00 5.839385051280316929e-01
9.384163558483123779e+00 -6.877756237983703613e+00 6.108702678233441929e-01
1.344110935926437378e+01 -1.044477283954620361e+01 9.305724162608441929e-01
1.554523533582687378e+01 -1.208381092548370361e+01 1.091018583253031693e+00
1.582892674207687378e+01 -1.202228748798370361e+01 1.105483915284281693e+00
1.792591160535812378e+01 -1.354718983173370361e+01 1.263275052979594193e+00
7.230904281139373779e+00 -4.142770886421203613e+00 -6.292878132313433071e-01
7.278389632701873779e+00 -4.026193737983703613e+00 -6.257019978016558071e-01
7.320870101451873779e+00 -3.906320691108703613e+00 -6.222535114735308071e-01
7.363167464733123779e+00 -3.786813855171203613e+00 -6.188050251454058071e-01
7.405037581920623779e+00 -3.668649792671203613e+00 -6.154023151844683071e-01
7.445076644420623779e+00 -3.550119519233703613e+00 -6.119843464344683071e-01
7.467049300670623779e+00 -3.418161511421203613e+00 -6.079560261219683071e-01
7.484078109264373779e+00 -3.284738659858703613e+00 -6.041108112782183071e-01
7.539436995983123779e+00 -4.413889050483703613e+00 -5.836792927235308071e-01
8.195625960826873779e+00 -4.813181042671203613e+00 -5.990754108875933071e-01
8.388924300670623779e+00 -4.804147839546203613e+00 -5.995942097157183071e-01
8.410957992076873779e+00 -4.649973034858703613e+00 -5.952149372547808071e-01
8.440926253795623779e+00 -4.504831433296203613e+00 -5.911560993641558071e-01
8.490120589733123779e+00 -4.376535534858703613e+00 -5.876923542469683071e-01
8.532356917858123779e+00 -4.243478894233703613e+00 -5.843811970204058071e-01
8.558602035045623779e+00 -4.100046277046203613e+00 -5.803376179188433071e-01
7.580574691295623779e+00 -4.451242566108703613e+00 -5.275727253407183071e-01
8.242439925670623779e+00 -4.854807019233703613e+00 -5.395813923329058071e-01
9.012215316295623779e+00 -5.328928112983703613e+00 -5.536805134266558071e-01
9.844368636608123779e+00 -5.830515027046203613e+00 -5.686341267079058071e-01
9.895516097545623779e+00 -5.678659558296203613e+00 -5.647583942860308071e-01
9.946236312389373779e+00 -5.527902722358703613e+00 -5.608979206532183071e-01
9.996773421764373779e+00 -5.377756237983703613e+00 -5.570679645985308071e-01
1.004499119520187378e+01 -5.227975964546203613e+00 -5.532380085438433071e-01
7.621834456920623779e+00 -4.488840222358703613e+00 -4.712525349110308071e-01
8.289742171764373779e+00 -4.896799206733703613e+00 -4.795075397938433071e-01
9.068367660045623779e+00 -5.377634167671203613e+00 -4.896241169422808071e-01
9.963020980358123779e+00 -5.929880261421203613e+00 -5.012360554188433071e-01
1.100623387098312378e+01 -6.575754284858703613e+00 -5.148316364735308071e-01
1.160132664442062378e+01 -6.836862683296203613e+00 -5.200806599110308071e-01
1.157019871473312378e+01 -6.596872448921203613e+00 -5.145112019032183071e-01
1.150843113660812378e+01 -6.338815808296203613e+00 -5.089875202625933071e-01
8.615242660045623779e+00 -5.358835339546203613e+00 -4.263764362782183071e-01
8.763252913951873779e+00 -5.304147839546203613e+00 -4.245301228016558071e-01
9.124825179576873779e+00 -5.426706433296203613e+00 -4.252320270985308071e-01
1.002875584363937378e+01 -5.985666394233703613e+00 -4.321595173329058071e-01
1.113562840223312378e+01 -6.681955456733703613e+00 -4.408875446766558071e-01
1.234467381238937378e+01 -7.425974011421203613e+00 -4.500885944813433071e-01
1.391706150770187378e+01 -8.414987683296203613e+00 -4.624787312000933071e-01
1.420594090223312378e+01 -8.385568737983703613e+00 -4.604340534657183071e-01
1.383008641004562378e+01 -9.920480847358703613e+00 -3.985138874500933071e-01
1.616761082410812378e+01 -1.165155994892120361e+01 -4.083863239735308071e-01
1.647272557020187378e+01 -1.159992420673370361e+01 -4.048615437000933071e-01
1.121076267957687378e+01 -6.960275769233703613e+00 -3.684693317860308071e-01
1.141791599988937378e+01 -6.911447644233703613e+00 -3.658448200672808071e-01
1.244410008192062378e+01 -7.506540417671203613e+00 -3.675080280750933071e-01
1.404370945692062378e+01 -8.515085339546203613e+00 -3.715210895985308071e-01
1.613050144910812378e+01 -9.846994519233703613e+00 -3.775788288563433071e-01
1.388935154676437378e+01 -9.974924206733703613e+00 -3.028717976063433071e-01
1.618738621473312378e+01 -1.167133533954620361e+01 -2.998963337391558071e-01
1.651264256238937378e+01 -1.163617908954620361e+01 -2.954560261219683071e-01
2.152515476942062378e+01 -1.545258533954620361e+01 -2.906647663563433071e-01
2.313379734754562378e+01 -1.636322987079620361e+01 -2.845307331532183071e-01
2.514972752332687378e+01 -1.754950916767120361e+01 -2.774964313954058071e-01
1.565284031629562378e+01 -9.763132214546203613e+00 -2.784119587391558071e-01
1.639960545301437378e+01 -1.005353748798370361e+01 -2.736206989735308071e-01
1.394886082410812378e+01 -1.002936756610870361e+01 -2.069855671375933071e-01
1.621204441785812378e+01 -1.169513905048370361e+01 -1.911316853016558071e-01
1.657508152723312378e+01 -1.169147694110870361e+01 -1.847992878407183071e-01
2.147626560926437378e+01 -1.541572010517120361e+01 -1.516571979969683071e-01
2.319049900770187378e+01 -1.641254627704620361e+01 -1.364747028797808071e-01
2.496765965223312378e+01 -1.740937244892120361e+01 -1.203156452625933071e-01
2.607117527723312378e+01 -1.783246815204620361e+01 -1.088410358875933071e-01
2.660974949598312378e+01 -1.780048573017120361e+01 -1.000214558094683071e-01
1.599958103895187378e+01 -1.182612049579620361e+01 -8.694467358290580705e-02
1.627069920301437378e+01 -1.174823963642120361e+01 -8.103952221571830705e-02
2.057581394910812378e+01 -1.505634510517120361e+01 -2.746591381728080705e-02
2.141950291395187378e+01 -1.537238514423370361e+01 -1.403817944228080705e-02
2.329413670301437378e+01 -1.649970448017120361e+01 1.205434985459419295e-02
2.476581639051437378e+01 -1.725361073017120361e+01 3.370657153428169295e-02
2.611481541395187378e+01 -1.787006580829620361e+01 5.419912524521919295e-02
4.602619236707687378e+01 -3.253461658954620361e+01 3.075560588389691929e-01
1.602967137098312378e+01 -1.185529530048370361e+01 2.204885669053169295e-02
1.634430760145187378e+01 -1.181427967548370361e+01 2.947988696396919295e-02
2.058411473035812378e+01 -1.506659901142120361e+01 1.067656535655316929e-01
2.124359959363937378e+01 -1.523090565204620361e+01 1.208189982920941929e-01
2.338800877332687378e+01 -1.657917225360870361e+01 1.616820354014691929e-01
2.359473484754562378e+01 -1.633124744892120361e+01 1.678771037608441929e-01
2.522046726942062378e+01 -1.718122303485870361e+01 1.998747844249066929e-01
4.601239842176437378e+01 -3.253046619892120361e+01 5.824889201670941929e-01
1.606000584363937378e+01 -1.188471424579620361e+01 1.320494670420941929e-01
1.666053074598312378e+01 -1.208832752704620361e+01 1.472624797374066929e-01
2.074140232801437378e+01 -1.520221912860870361e+01 2.454070109874066929e-01
2.118586033582687378e+01 -1.518671619892120361e+01 2.571867961436566929e-01
2.336902683973312378e+01 -1.656745350360870361e+01 3.105620402842816929e-01
2.381714695692062378e+01 -1.651081287860870361e+01 3.225401896983441929e-01
2.509467381238937378e+01 -1.708747303485870361e+01 3.544768352061566929e-01
4.612043064832687378e+01 -3.261884510517120361e+01 8.617552775889691929e-01
1.618183201551437378e+01 -1.199408924579620361e+01 2.445830363780316929e-01
1.733808201551437378e+01 -1.267243397235870361e+01 2.790831584483441929e-01
2.080109471082687378e+01 -1.525580799579620361e+01 3.823546428233441929e-01
2.166376560926437378e+01 -1.558393299579620361e+01 4.081267375499066929e-01
2.339710301160812378e+01 -1.659369862079620361e+01 4.598540324717816929e-01
2.446857517957687378e+01 -1.702961170673370361e+01 4.918669719249066929e-01
2.500043553113937378e+01 -1.701813709735870361e+01 5.077818889170941929e-01
1.648755711317062378e+01 -1.226471912860870361e+01 3.658293742686566929e-01
1.765863865613937378e+01 -1.295051014423370361e+01 4.069670695811566929e-01
2.080292576551437378e+01 -1.526081287860870361e+01 5.179900187999066929e-01
2.191022557020187378e+01 -1.579047596454620361e+01 5.565184611827191929e-01
2.337818211317062378e+01 -1.658210194110870361e+01 6.078490275889691929e-01
2.438324803113937378e+01 -1.696576893329620361e+01 6.425627727061566929e-01
2.490638035535812378e+01 -1.694892323017120361e+01 6.608580607920941929e-01
2.633283299207687378e+01 -1.760920155048370361e+01 7.104796428233441929e-01
1.686975926160812378e+01 -1.260224354267120361e+01 4.934691447764691929e-01
1.851813572645187378e+01 -1.369123280048370361e+01 5.607298869639691929e-01
2.166364353895187378e+01 -1.598822987079620361e+01 6.903227824717816929e-01
2.195081394910812378e+01 -1.582734119892120361e+01 7.000578898936566929e-01
2.329566258192062378e+01 -1.651899158954620361e+01 7.538146037608441929e-01
2.423737400770187378e+01 -1.685407459735870361e+01 7.906188029795941929e-01
2.493708103895187378e+01 -1.697626698017120361e+01 8.172453898936566929e-01
3.036017674207687378e+01 -2.067096912860870361e+01 1.039169218018656693e+00
1.699317234754562378e+01 -1.271332752704620361e+01 6.139525432139691929e-01
2.035169285535812378e+01 -1.526825916767120361e+01 7.716521281749066929e-01
2.073316258192062378e+01 -1.520893299579620361e+01 7.866362590342816929e-01
2.246601170301437378e+01 -1.625556385517120361e+01 8.659972209483441929e-01
2.321363133192062378e+01 -1.645636951923370361e+01 8.980711955577191929e-01
2.391944187879562378e+01 -1.660614979267120361e+01 9.280241984874066929e-01
2.512293308973312378e+01 -1.712409412860870361e+01 9.813536662608441929e-01
3.028009861707687378e+01 -2.061457264423370361e+01 1.221725370362406693e+00
1.793848484754562378e+01 -1.354450428485870361e+01 7.799681682139691929e-01
2.027741307020187378e+01 -1.520795643329620361e+01 9.024352092295941929e-01
2.065973728895187378e+01 -1.515058338642120361e+01 9.186858195811566929e-01
2.169501560926437378e+01 -1.562348377704620361e+01 9.698637980967816929e-01
2.310883396863937378e+01 -1.637531483173370361e+01 1.040985013917094193e+00
2.375757664442062378e+01 -1.648163807392120361e+01 1.070876981690531693e+00
2.528687351942062378e+01 -1.725483143329620361e+01 1.147338773682719193e+00
3.020649021863937378e+01 -2.056293690204620361e+01 1.402755643799906693e+00
1.777350682020187378e+01 -1.340302479267120361e+01 8.911742229014691929e-01
2.020618504285812378e+01 -1.515021717548370361e+01 1.031844999268656693e+00
2.060279148817062378e+01 -1.510602772235870361e+01 1.050140287354594193e+00
2.146582859754562378e+01 -1.543793690204620361e+01 1.096130277588969193e+00
2.307740086317062378e+01 -1.635346424579620361e+01 1.186263944581156693e+00
2.354425877332687378e+01 -1.631635487079620361e+01 1.208022977784281693e+00
2.501557224988937378e+01 -1.704816639423370361e+01 1.288803007081156693e+00
3.017572849988937378e+01 -2.054389393329620361e+01 1.586501981690531693e+00
1.775287693738937378e+01 -1.338801014423370361e+01 1.009368802979594193e+00
2.014173191785812378e+01 -1.509821522235870361e+01 1.161575223878031693e+00
2.055115574598312378e+01 -1.506598865985870361e+01 1.182037260010844193e+00
2.116162937879562378e+01 -1.519050037860870361e+01 1.215530302003031693e+00
2.207526463270187378e+01 -1.554718983173370361e+01 1.268600370362406693e+00
2.351917332410812378e+01 -1.629999744892120361e+01 1.355743314698344193e+00
2.468970555067062378e+01 -1.679914295673370361e+01 1.424453641846781693e+00
3.023249119520187378e+01 -2.059125721454620361e+01 1.774581815674906693e+00
1.798236912488937378e+01 -1.359235584735870361e+01 1.146133329346781693e+00
2.006214207410812378e+01 -1.503327381610870361e+01 1.289474393799906693e+00
2.045813816785812378e+01 -1.499103748798370361e+01 1.309646512940531693e+00
2.111640232801437378e+01 -1.515656483173370361e+01 1.349121000245219193e+00
2.204389256238937378e+01 -1.552521717548370361e+01 1.407485868409281693e+00
2.350537937879562378e+01 -1.629267323017120361e+01 1.503204252198344193e+00
2.448200291395187378e+01 -1.664155018329620361e+01 1.564681913331156693e+00
2.973694676160812378e+01 -2.021894276142120361e+01 1.925567533448344193e+00
1.793000096082687378e+01 -1.354963123798370361e+01 1.263564969971781693e+00
1.995728367567062378e+01 -1.494660389423370361e+01 1.413757230713969193e+00
2.035871189832687378e+01 -1.491071522235870361e+01 1.436401273682719193e+00
2.108832615613937378e+01 -1.513678944110870361e+01 1.484283353760844193e+00
2.201239842176437378e+01 -1.550324451923370361e+01 1.546783353760844193e+00
2.349134129285812378e+01 -1.628510487079620361e+01 1.651336576417094193e+00
2.430231541395187378e+01 -1.650580799579620361e+01 1.703857328370219193e+00
2.956635349988937378e+01 -2.009345448017120361e+01 2.095565702393656693e+00
7.484078109264373779e+00 -3.284128308296203613e+00 -6.040955524891558071e-01
7.513619124889373779e+00 -3.161569714546203613e+00 -6.005097370594683071e-01
7.544136703014373779e+00 -3.040842175483703613e+00 -5.972748737782183071e-01
7.574532210826873779e+00 -2.920724987983703613e+00 -5.940400104969683071e-01
7.604561507701873779e+00 -2.801828503608703613e+00 -5.908509235829058071e-01
7.629097640514373779e+00 -2.680246472358703613e+00 -5.875245075672808071e-01
7.646309554576873779e+00 -2.554514050483703613e+00 -5.839844685047808071e-01
7.658089339733123779e+00 -2.427072644233703613e+00 -5.806122761219683071e-01
8.558540999889373779e+00 -4.099435925483703613e+00 -5.803223591297808071e-01
8.574654281139373779e+00 -3.950266003608703613e+00 -5.764161091297808071e-01
8.598396956920623779e+00 -3.808298230171203613e+00 -5.724488239735308071e-01
8.614205062389373779e+00 -3.661813855171203613e+00 -5.686036091297808071e-01
8.629769027233123779e+00 -3.517282605171203613e+00 -5.648194294422808071e-01
8.645149886608123779e+00 -3.374338269233703613e+00 -5.610810261219683071e-01
8.654305160045623779e+00 -3.228464245796203613e+00 -5.575104694813433071e-01
8.692879378795623779e+00 -3.104074597358703613e+00 -5.544434528797808071e-01
1.004474705457687378e+01 -5.227121472358703613e+00 -5.532074909657183071e-01
1.005231541395187378e+01 -5.048410534858703613e+00 -5.488892536610308071e-01
1.005982273817062378e+01 -4.872018933296203613e+00 -5.446167927235308071e-01
1.006720799207687378e+01 -4.697214245796203613e+00 -5.403901081532183071e-01
1.007447117567062378e+01 -4.525339245796203613e+00 -5.362397175282183071e-01
1.008167332410812378e+01 -4.355539441108703613e+00 -5.321198444813433071e-01
1.009461277723312378e+01 -4.191354870796203613e+00 -5.281678181141558071e-01
1.010041111707687378e+01 -4.024850964546203613e+00 -5.241394978016558071e-01
1.150812596082687378e+01 -6.337839245796203613e+00 -5.089570026844683071e-01
1.151337498426437378e+01 -6.134592175483703613e+00 -5.041504841297808071e-01
1.154413670301437378e+01 -5.952707409858703613e+00 -5.001984577625933071e-01
1.157465428113937378e+01 -5.771921277046203613e+00 -4.962616901844683071e-01
1.158313816785812378e+01 -5.578317761421203613e+00 -4.920655231922808071e-01
1.157776707410812378e+01 -5.377756237983703613e+00 -4.877167683094683071e-01
1.158869236707687378e+01 -5.190378308296203613e+00 -4.836426716297808071e-01
1.163062351942062378e+01 -5.026193737983703613e+00 -4.804688435047808071e-01
1.420484226942062378e+01 -8.383859753608703613e+00 -4.604035358875933071e-01
1.415882176160812378e+01 -8.100656628608703613e+00 -4.551850300282183071e-01
1.412879246473312378e+01 -7.833932995796203613e+00 -4.502259235829058071e-01
1.409919041395187378e+01 -7.570993542671203613e+00 -4.453278522938433071e-01
1.407019871473312378e+01 -7.313669323921203613e+00 -4.405365925282183071e-01
1.407892674207687378e+01 -7.086252331733703613e+00 -4.361725788563433071e-01
1.410273045301437378e+01 -6.871042370796203613e+00 -4.319764118641558071e-01
1.412616795301437378e+01 -6.658762097358703613e+00 -4.278412800282183071e-01
1.614612644910812378e+01 -9.857980847358703613e+00 -3.776398640125933071e-01
1.833710545301437378e+01 -1.120575916767120361e+01 -3.823548298329058071e-01
1.825891941785812378e+01 -1.083979237079620361e+01 -3.769532185047808071e-01
1.818213719129562378e+01 -1.048066151142120361e+01 -3.716584187000933071e-01
1.810724705457687378e+01 -1.013044178485870361e+01 -3.664856892079058071e-01
1.803400486707687378e+01 -9.787668347358703613e+00 -3.614197712391558071e-01
1.796204441785812378e+01 -9.450876355171203613e+00 -3.564606647938433071e-01
1.786975926160812378e+01 -9.107736706733703613e+00 -3.521119099110308071e-01
1.640931004285812378e+01 -1.005988514423370361e+01 -2.736054401844683071e-01
1.934424656629562378e+01 -1.195636951923370361e+01 -2.661438923329058071e-01
2.598877781629562378e+01 -1.646540272235870361e+01 -2.522126179188433071e-01
2.457331150770187378e+01 -1.503534901142120361e+01 -2.487183552235308071e-01
2.401660984754562378e+01 -1.425373280048370361e+01 -2.443238239735308071e-01
2.379920262098312378e+01 -1.372565662860870361e+01 -2.395478229969683071e-01
2.363349217176437378e+01 -1.324238026142120361e+01 -2.347870808094683071e-01
2.347260349988937378e+01 -1.277326405048370361e+01 -2.301789265125933071e-01
2.661280125379562378e+01 -1.780134022235870361e+01 -9.999093823134330705e-02
2.689991062879562378e+01 -1.757221424579620361e+01 -9.307870678603080705e-02
3.770978611707687378e+01 -2.499677479267120361e+01 -1.033029370009330705e-02
6.212610691785812378e+01 -4.179096424579620361e+01 1.743315715342816929e-01
6.294025486707687378e+01 -4.140546619892120361e+01 1.909789104014691929e-01
3.885138767957687378e+01 -2.400605213642120361e+01 1.802053637803169295e-02
3.693744724988937378e+01 -2.213532459735870361e+01 8.560087159281692948e-03
5.101361912488937378e+01 -3.078595936298370361e+01 1.260680217295941929e-01
4.602899998426437378e+01 -3.253425037860870361e+01 3.076170939952191929e-01
3.697974461317062378e+01 -2.447052967548370361e+01 2.043913859874066929e-01
3.554090183973312378e+01 -2.285651600360870361e+01 1.907805461436566929e-01
3.577924412488937378e+01 -2.246564686298370361e+01 1.986083049327191929e-01
3.630176609754562378e+01 -2.226972401142120361e+01 2.101744670420941929e-01
3.678339451551437378e+01 -2.203693592548370361e+01 2.212676066905316929e-01
5.102130955457687378e+01 -3.079694569110870361e+01 4.169310588389691929e-01
4.601508396863937378e+01 -3.252997791767120361e+01 5.825499553233441929e-01
6.058179539442062378e+01 -4.261091053485870361e+01 8.544920939952191929e-01
3.678125828504562378e+01 -2.433100330829620361e+01 4.206999797374066929e-01
3.552491062879562378e+01 -2.284980213642120361e+01 4.008177775889691929e-01
3.576532810926437378e+01 -2.246051990985870361e+01 4.085387248545941929e-01
3.608057469129562378e+01 -2.212311756610870361e+01 4.176482219249066929e-01
3.649243992567062378e+01 -2.184687244892120361e+01 4.286192912608441929e-01
5.094721287488937378e+01 -3.075446522235870361e+01 7.048491496592816929e-01
4.612372654676437378e+01 -3.261884510517120361e+01 8.618315715342816929e-01
6.185889500379562378e+01 -4.356830799579620361e+01 1.243636991456156693e+00
3.687842625379562378e+01 -2.440668690204620361e+01 6.431426066905316929e-01
3.554010838270187378e+01 -2.286518299579620361e+01 6.125945109874066929e-01
3.578748387098312378e+01 -2.248053944110870361e+01 6.203612346202191929e-01
3.611463230848312378e+01 -2.215082752704620361e+01 6.300658244639691929e-01
3.650635594129562378e+01 -2.186054432392120361e+01 6.413573283702191929e-01
6.134650486707687378e+01 -3.756440174579620361e+01 1.249084379151469193e+00
3.725415867567062378e+01 -2.468512928485870361e+01 8.738707561045941929e-01
3.559796971082687378e+01 -2.291108143329620361e+01 8.247527141124066929e-01
3.579230564832687378e+01 -2.248847401142120361e+01 8.308562297374066929e-01
3.611066502332687378e+01 -2.215265858173370361e+01 8.406523723155316929e-01
3.654181736707687378e+01 -2.188874256610870361e+01 8.538207072764691929e-01
6.086115330457687378e+01 -3.725385487079620361e+01 1.580642606690531693e+00
2.633081883192062378e+01 -1.760627186298370361e+01 7.104033488780316929e-01
6.203192967176437378e+01 -4.273322498798370361e+01 1.975479032471781693e+00
3.582538670301437378e+01 -2.307795155048370361e+01 1.043655302003031693e+00
6.341034764051437378e+01 -4.177289783954620361e+01 2.020278837159281693e+00
3.678479832410812378e+01 -2.261774647235870361e+01 1.075256254151469193e+00
6.263855808973312378e+01 -3.934687244892120361e+01 1.990814115479594193e+00
6.106812351942062378e+01 -3.739643299579620361e+01 1.933288480713969193e+00
3.038849705457687378e+01 -2.069086658954620361e+01 1.040328885987406693e+00
6.148542088270187378e+01 -4.234333240985870361e+01 2.317336942628031693e+00
3.626911228895187378e+01 -2.339899647235870361e+01 1.275207426026469193e+00
3.621094578504562378e+01 -2.278986561298370361e+01 1.270095731690531693e+00
3.647614353895187378e+01 -2.241144764423370361e+01 1.278289701417094193e+00
6.271527928113937378e+01 -3.940558826923370361e+01 2.349716093018656693e+00
6.451923435926437378e+01 -3.966266834735870361e+01 2.419021512940531693e+00
3.028833836317062378e+01 -2.061908924579620361e+01 1.222106840088969193e+00
6.193830174207687378e+01 -4.171259510517120361e+01 2.690826322510844193e+00
6.267438572645187378e+01 -4.127472889423370361e+01 2.718109037354594193e+00
6.080707615613937378e+01 -3.904877674579620361e+01 2.624114896729594193e+00
6.371241062879562378e+01 -4.008027088642120361e+01 2.752319242432719193e+00
6.415546482801437378e+01 -3.943195545673370361e+01 2.767822172120219193e+00
3.021466892957687378e+01 -2.056745350360870361e+01 1.403167631104594193e+00
6.250586766004562378e+01 -4.212543690204620361e+01 3.082061674073344193e+00
6.262177342176437378e+01 -4.124592030048370361e+01 3.078445341065531693e+00
6.074305027723312378e+01 -3.901239979267120361e+01 2.970886136963969193e+00
6.167047947645187378e+01 -3.872150623798370361e+01 3.009933378174906693e+00
6.250788182020187378e+01 -3.836054432392120361e+01 3.044204618409281693e+00
3.018189305067062378e+01 -2.054682362079620361e+01 1.586837675049906693e+00
6.390033787488937378e+01 -4.117890369892120361e+01 3.501113798096781693e+00
6.377832859754562378e+01 -4.013947498798370361e+01 3.481902982667094193e+00
6.488556736707687378e+01 -3.992511951923370361e+01 3.535400297120219193e+00
3.023859471082687378e+01 -2.059418690204620361e+01 1.774948026612406693e+00
6.343726414442062378e+01 -4.280610096454620361e+01 3.869186307862406693e+00
6.204541844129562378e+01 -3.991803944110870361e+01 3.751281644776469193e+00
6.206781834363937378e+01 -3.900214588642120361e+01 3.738372709229594193e+00
2.974146336317062378e+01 -2.022065174579620361e+01 1.925842191651469193e+00
6.178772801160812378e+01 -4.068647205829620361e+01 4.105865385010844193e+00
6.122126072645187378e+01 -3.936188709735870361e+01 4.049941923096781693e+00
6.146265476942062378e+01 -3.860444080829620361e+01 4.051818754151469193e+00
2.957087010145187378e+01 -2.009516346454620361e+01 2.095870878174906693e+00
6.104401463270187378e+01 -4.111384022235870361e+01 4.428161527588969193e+00
6.130902928113937378e+01 -4.035968983173370361e+01 4.428542997315531693e+00
6.087677830457687378e+01 -3.913361561298370361e+01 4.377105619385844193e+00
6.057886570692062378e+01 -3.801996815204620361e+01 4.336105253174906693e+00
6.264838474988937378e+01 -3.848176014423370361e+01 4.472381498292094193e+00
7.658028304576873779e+00 -2.426584362983703613e+00 -5.805970173329058071e-01
7.673653304576873779e+00 -2.303049206733703613e+00 -5.771790485829058071e-01
7.691658675670623779e+00 -2.182077527046203613e+00 -5.741272907704058071e-01
7.718331038951873779e+00 -2.067209362983703613e+00 -5.713654499500933071e-01
7.744759261608123779e+00 -1.953439831733703613e+00 -5.686188679188433071e-01
7.784920394420623779e+00 -1.848459362983703613e+00 -5.662842731922808071e-01
7.852669417858123779e+00 -1.759348034858703613e+00 -5.647278767079058071e-01
7.914925277233123779e+00 -1.667307019233703613e+00 -5.633088093250933071e-01
8.692879378795623779e+00 -3.103586316108703613e+00 -5.544281940907183071e-01
8.723702132701873779e+00 -2.975168347358703613e+00 -5.515290241688433071e-01
8.761116683483123779e+00 -2.851755261421203613e+00 -5.484925251454058071e-01
8.791695296764373779e+00 -2.724435925483703613e+00 -5.456238728016558071e-01
8.821907699108123779e+00 -2.598215222358703613e+00 -5.427704792469683071e-01
8.851998031139373779e+00 -2.472971081733703613e+00 -5.399476032704058071e-01
8.875191390514373779e+00 -2.344186902046203613e+00 -5.372620563954058071e-01
8.913704574108123779e+00 -2.225412487983703613e+00 -5.346680622547808071e-01
1.010010594129562378e+01 -4.024118542671203613e+00 -5.241242390125933071e-01
1.009784764051437378e+01 -3.854684948921203613e+00 -5.203248005360308071e-01
1.009565037488937378e+01 -3.687326550483703613e+00 -5.165711384266558071e-01
1.009345310926437378e+01 -3.521555066108703613e+00 -5.128632526844683071e-01
1.009131687879562378e+01 -3.358347058296203613e+00 -5.092011433094683071e-01
1.010895603895187378e+01 -3.208688855171203613e+00 -5.059510212391558071e-01
1.019782322645187378e+01 -3.100534558296203613e+00 -5.039673786610308071e-01
1.028839939832687378e+01 -2.993478894233703613e+00 -5.020295124500933071e-01
1.163074558973312378e+01 -5.025583386421203613e+00 -4.804535847157183071e-01
1.168067234754562378e+01 -4.867868542671203613e+00 -4.769593220204058071e-01
1.172321385145187378e+01 -4.706491589546203613e+00 -4.737854938954058071e-01
1.175666111707687378e+01 -4.539987683296203613e+00 -4.704895954579058071e-01
1.177729099988937378e+01 -4.367746472358703613e+00 -4.670716267079058071e-01
1.179767674207687378e+01 -4.196970105171203613e+00 -4.636994343250933071e-01
1.181800144910812378e+01 -4.027292370796203613e+00 -4.603272419422808071e-01
1.196509617567062378e+01 -3.930490612983703613e+00 -4.589234333485308071e-01
1.412592381238937378e+01 -6.657907605171203613e+00 -4.278260212391558071e-01
1.414002293348312378e+01 -6.441965222358703613e+00 -4.239960651844683071e-01
1.415692967176437378e+01 -6.230173230171203613e+00 -4.202118854969683071e-01
1.411127537488937378e+01 -5.981638073921203613e+00 -4.159852009266558071e-01
1.406385105848312378e+01 -5.736642956733703613e+00 -4.118195515125933071e-01
1.401734226942062378e+01 -5.496042370796203613e+00 -4.077301960438433071e-01
1.397144383192062378e+01 -5.258859753608703613e+00 -4.036866169422808071e-01
1.417035740613937378e+01 -5.162790417671203613e+00 -4.014130573719683071e-01
1.786866062879562378e+01 -9.106149792671203613e+00 -3.520966511219683071e-01
1.780909031629562378e+01 -8.790231823921203613e+00 -3.471375446766558071e-01
1.763318699598312378e+01 -8.406686902046203613e+00 -3.425141315907183071e-01
1.745673435926437378e+01 -8.030099987983703613e+00 -3.380127888172808071e-01
1.735022801160812378e+01 -7.704172253608703613e+00 -3.337861042469683071e-01
1.724610203504562378e+01 -7.385690808296203613e+00 -3.296662312000933071e-01
1.759009617567062378e+01 -7.328195691108703613e+00 -3.264313679188433071e-01
1.795093601942062378e+01 -7.274973034858703613e+00 -3.236847858875933071e-01
2.347095555067062378e+01 -1.277094471454620361e+01 -2.301636677235308071e-01
2.329834812879562378e+01 -1.230365955829620361e+01 -2.260437946766558071e-01
2.276612156629562378e+01 -1.162055408954620361e+01 -2.230378132313433071e-01
2.262311619520187378e+01 -1.119330799579620361e+01 -2.191163044422808071e-01
2.259149998426437378e+01 -1.084186756610870361e+01 -2.149506550282183071e-01
2.280304783582687378e+01 -1.063752186298370361e+01 -2.100373249500933071e-01
2.368463963270187378e+01 -1.081318104267120361e+01 -2.027436237782183071e-01
2.443866795301437378e+01 -1.089948475360870361e+01 -1.956940632313433071e-01
5.101593846082687378e+01 -3.078486073017120361e+01 1.261137980967816929e-01
6.137055271863937378e+01 -3.666376698017120361e+01 2.173460979014691929e-01
6.209809178113937378e+01 -3.623798573017120361e+01 2.343596477061566929e-01
4.726886814832687378e+01 -2.627912342548370361e+01 1.193694133311566929e-01
5.928614109754562378e+01 -3.280219471454620361e+01 2.287138957530316929e-01
4.326026219129562378e+01 -2.200544178485870361e+01 1.035155314952191929e-01
5.101245945692062378e+01 -3.078864490985870361e+01 4.168242473155316929e-01
6.078180760145187378e+01 -3.629401600360870361e+01 5.549925822764691929e-01
6.352381199598312378e+01 -3.713727772235870361e+01 5.994414348155316929e-01
4.726551121473312378e+01 -2.628229725360870361e+01 3.831328410655316929e-01
4.325684422254562378e+01 -2.200788319110870361e+01 3.426970500499066929e-01
5.091675633192062378e+01 -3.073188221454620361e+01 7.042845744639691929e-01
4.945777195692062378e+01 -2.905365955829620361e+01 6.808470744639691929e-01
4.817316502332687378e+01 -2.753425037860870361e+01 6.604460734874066929e-01
4.691864842176437378e+01 -2.607502186298370361e+01 6.403807658702191929e-01
4.568817967176437378e+01 -2.467499744892120361e+01 6.205138225108441929e-01
4.325342625379562378e+01 -2.201032459735870361e+01 5.806273479014691929e-01
6.134754246473312378e+01 -3.756196033954620361e+01 1.249114896729594193e+00
6.056568211317062378e+01 -3.616938221454620361e+01 1.232955839112406693e+00
4.695423191785812378e+01 -2.610199940204620361e+01 9.047240275889691929e-01
4.559101170301437378e+01 -2.462177479267120361e+01 8.734129924327191929e-01
4.426874607801437378e+01 -2.321015369892120361e+01 8.429564494639691929e-01
4.313062351942062378e+01 -2.194452869892120361e+01 8.169096965342816929e-01
4.190656346082687378e+01 -2.067011463642120361e+01 7.886199016124066929e-01
6.085743016004562378e+01 -3.724836170673370361e+01 1.580520536378031693e+00
6.647187107801437378e+01 -3.995746815204620361e+01 1.749145414307719193e+00
6.251886814832687378e+01 -3.652900135517120361e+01 1.631835843995219193e+00
6.107648533582687378e+01 -3.739887440204620361e+01 1.933563138917094193e+00
6.684626072645187378e+01 -4.020478260517120361e+01 2.136306669190531693e+00
6.266858738660812378e+01 -3.662970936298370361e+01 1.985381986573344193e+00
6.603070896863937378e+01 -3.779706776142120361e+01 2.102752592042094193e+00
6.452521580457687378e+01 -3.966327869892120361e+01 2.419250394776469193e+00
6.190931004285812378e+01 -3.616108143329620361e+01 2.305480863526469193e+00
6.550421971082687378e+01 -3.748163807392120361e+01 2.448425199463969193e+00
6.415601414442062378e+01 -3.942914783954620361e+01 2.767822172120219193e+00
6.196900242567062378e+01 -3.709577381610870361e+01 2.658920194581156693e+00
6.170764988660812378e+01 -3.604157459735870361e+01 2.641311552003031693e+00
6.229688328504562378e+01 -3.552350819110870361e+01 2.663009550049906693e+00
6.257569187879562378e+01 -3.481696522235870361e+01 2.670410062745219193e+00
6.329224461317062378e+01 -3.436982166767120361e+01 2.697936918213969193e+00
6.249994724988937378e+01 -3.835212147235870361e+01 3.043746854737406693e+00
6.158734959363937378e+01 -3.685834705829620361e+01 2.988708402588969193e+00
6.150318211317062378e+01 -3.592035877704620361e+01 2.976760770753031693e+00
6.262165135145187378e+01 -3.572931873798370361e+01 3.026824857667094193e+00
6.328858250379562378e+01 -3.525080311298370361e+01 3.053542997315531693e+00
6.330445164442062378e+01 -3.438349354267120361e+01 3.046813871338969193e+00
6.488990086317062378e+01 -3.992463123798370361e+01 3.535598661378031693e+00
6.185987156629562378e+01 -3.703998768329620361e+01 3.349990751221781693e+00
6.155786961317062378e+01 -3.596137440204620361e+01 3.323013212159281693e+00
6.167768162488937378e+01 -3.515754139423370361e+01 3.320190336182719193e+00
6.298975437879562378e+01 -3.507843983173370361e+01 3.385131742432719193e+00
6.251129978895187378e+01 -3.746454823017120361e+01 3.739959623292094193e+00
6.209528416395187378e+01 -3.630512440204620361e+01 3.701949979737406693e+00
6.189746922254562378e+01 -3.529889881610870361e+01 3.677795316651469193e+00
6.542096775770187378e+01 -3.933674061298370361e+01 4.291076566651469193e+00
6.166272801160812378e+01 -3.604084217548370361e+01 4.019103910401469193e+00
6.265906590223312378e+01 -3.577265369892120361e+01 4.072708036378031693e+00
6.264991062879562378e+01 -3.847956287860870361e+01 4.472412015870219193e+00
6.332184666395187378e+01 -3.799836170673370361e+01 4.503448392823344193e+00
6.219245213270187378e+01 -3.637995350360870361e+01 4.404083158448344193e+00
6.546839207410812378e+01 -3.750239002704620361e+01 4.627517606690531693e+00
7.915230453014373779e+00 -1.666940808296203613e+00 -5.633088093250933071e-01
7.981758773326873779e+00 -1.577097058296203613e+00 -5.617829304188433071e-01
8.043038070201873779e+00 -1.483957409858703613e+00 -5.603791218250933071e-01
8.104683578014373779e+00 -1.390207409858703613e+00 -5.589753132313433071e-01
8.187142074108123779e+00 -1.307321667671203613e+00 -5.581208210438433071e-01
8.282662093639373779e+00 -1.230051159858703613e+00 -5.575867634266558071e-01
8.432869613170623779e+00 -1.177560925483703613e+00 -5.584412556141558071e-01
8.579964339733123779e+00 -1.121652722358703613e+00 -5.594635944813433071e-01
8.914131820201873779e+00 -2.225168347358703613e+00 -5.346680622547808071e-01
9.010445296764373779e+00 -2.138498425483703613e+00 -5.337067585438433071e-01
9.112251937389373779e+00 -2.053659558296203613e+00 -5.325470905750933071e-01
9.238716781139373779e+00 -1.980051159858703613e+00 -5.321961384266558071e-01
9.368843734264373779e+00 -1.906931042671203613e+00 -5.318757038563433071e-01
9.500679671764373779e+00 -1.832956433296203613e+00 -5.315705280750933071e-01
9.628182113170623779e+00 -1.754465222358703613e+00 -5.314179401844683071e-01
9.842659652233123779e+00 -1.715524792671203613e+00 -5.327301960438433071e-01
1.028882664442062378e+01 -2.993234753608703613e+00 -5.020295124500933071e-01
1.037336033582687378e+01 -2.882272839546203613e+00 -5.002900104969683071e-01
1.045813816785812378e+01 -2.770944714546203613e+00 -4.985505085438433071e-01
1.054358738660812378e+01 -2.658762097358703613e+00 -4.968110065907183071e-01
1.074359959363937378e+01 -2.604684948921203613e+00 -4.969330769032183071e-01
1.094818943738937378e+01 -2.549509167671203613e+00 -4.970551472157183071e-01
1.116730564832687378e+01 -2.497263073921203613e+00 -4.973298054188433071e-01
1.143622654676437378e+01 -2.465158581733703613e+00 -4.983063679188433071e-01
1.196692723035812378e+01 -3.930856823921203613e+00 -4.589386921375933071e-01
1.228455418348312378e+01 -3.925119519233703613e+00 -4.590760212391558071e-01
1.253968113660812378e+01 -3.879953503608703613e+00 -4.587555866688433071e-01
1.274128025770187378e+01 -3.801584362983703613e+00 -4.577332478016558071e-01
1.294568699598312378e+01 -3.722116589546203613e+00 -4.566956501454058071e-01
1.318946141004562378e+01 -3.658762097358703613e+00 -4.560395222157183071e-01
1.362738865613937378e+01 -3.684274792671203613e+00 -4.573670368641558071e-01
1.389698094129562378e+01 -3.622507214546203613e+00 -4.571991901844683071e-01
1.417347019910812378e+01 -5.163766980171203613e+00 -4.014283161610308071e-01
1.458344334363937378e+01 -5.179758191108703613e+00 -4.008179645985308071e-01
1.501044529676437378e+01 -5.196481823921203613e+00 -4.001923542469683071e-01
1.534418553113937378e+01 -5.155222058296203613e+00 -3.988343220204058071e-01
1.567725437879562378e+01 -5.108224987983703613e+00 -3.973847370594683071e-01
1.601990574598312378e+01 -5.059763073921203613e+00 -3.958893757313433071e-01
1.648676365613937378e+01 -5.064279675483703613e+00 -3.949738483875933071e-01
1.705030125379562378e+01 -5.105783581733703613e+00 -3.944550495594683071e-01
1.795386570692062378e+01 -7.275705456733703613e+00 -3.236695270985308071e-01
1.837946385145187378e+01 -7.251169323921203613e+00 -3.201447468250933071e-01
1.883942478895187378e+01 -7.236642956733703613e+00 -3.170929890125933071e-01
1.939289158582687378e+01 -7.260812878608703613e+00 -3.139954548329058071e-01
2.008124607801437378e+01 -7.342966198921203613e+00 -3.108826618641558071e-01
2.061866062879562378e+01 -7.336008191108703613e+00 -3.074494343250933071e-01
2.121906346082687378e+01 -7.347971081733703613e+00 -3.038941364735308071e-01
2.202716892957687378e+01 -7.446603894233703613e+00 -3.009186726063433071e-01
2.444391697645187378e+01 -1.090131580829620361e+01 -1.956635456532183071e-01
2.540955418348312378e+01 -1.108698475360870361e+01 -1.879425983875933071e-01
2.615515965223312378e+01 -1.113422596454620361e+01 -1.808472614735308071e-01
2.740222996473312378e+01 -1.142560780048370361e+01 -1.714783649891558071e-01
2.885077732801437378e+01 -1.179255115985870361e+01 -1.609498005360308071e-01
3.050592869520187378e+01 -1.222919666767120361e+01 -1.491242390125933071e-01
3.260303562879562378e+01 -1.284076893329620361e+01 -1.348114948719683071e-01
3.480347508192062378e+01 -1.390522205829620361e+01 6.150808520615669295e-02
3.479944676160812378e+01 -1.390632069110870361e+01 2.487944621592816929e-01
3.479541844129562378e+01 -1.390741932392120361e+01 4.350890178233441929e-01
4.189789646863937378e+01 -2.066340076923370361e+01 7.884062785655316929e-01
4.073816746473312378e+01 -1.946259510517120361e+01 7.616423625499066929e-01
3.957636326551437378e+01 -1.829645740985870361e+01 7.347258586436566929e-01
3.834052342176437378e+01 -1.712519276142120361e+01 7.058409709483441929e-01
3.710279148817062378e+01 -1.599128162860870361e+01 6.767729777842816929e-01
3.577454441785812378e+01 -1.484858143329620361e+01 6.453246135264691929e-01
3.446949070692062378e+01 -1.375324451923370361e+01 6.143340129405316929e-01
3.313568943738937378e+01 -1.268244373798370361e+01 5.825041789561566929e-01
3.476483982801437378e+01 -1.389875233173370361e+01 8.079985637217816929e-01
3.326020115613937378e+01 -1.274384510517120361e+01 7.633360881358441929e-01
2.808808201551437378e+01 -8.884714245796203613e+00 4.577178020030316929e-01
2.588324803113937378e+01 -7.327341198921203613e+00 3.960570354014691929e-01
2.611267918348312378e+01 -7.436838269233703613e+00 6.099089641124066929e-01
3.482447117567062378e+01 -1.387568104267120361e+01 3.396147746592816929e-01
3.252063816785812378e+01 -1.206708729267120361e+01 2.895354289561566929e-01
3.017890232801437378e+01 -1.030365955829620361e+01 2.386931437999066929e-01
2.780628269910812378e+01 -8.587473034858703613e+00 1.872099895030316929e-01
2.544074314832687378e+01 -6.940134167671203613e+00 1.359251994639691929e-01
4.001496189832687378e+01 -1.873993885517120361e+01 7.470091838389691929e-01
3.825013035535812378e+01 -1.704963123798370361e+01 6.977385539561566929e-01
3.630170506238937378e+01 -1.531427967548370361e+01 6.436919230967816929e-01
3.417725437879562378e+01 -1.354206287860870361e+01 5.850829143077191929e-01
3.204877537488937378e+01 -1.183027088642120361e+01 5.265196818858441929e-01
2.985407322645187378e+01 -1.014533436298370361e+01 4.663695354014691929e-01
2.757752293348312378e+01 -8.479196667671203613e+00 4.041747111827191929e-01
2.531342381238937378e+01 -6.882150769233703613e+00 3.424986857920941929e-01
3.008826512098312378e+01 -1.026349842548370361e+01 7.098082561045941929e-01
2.756671971082687378e+01 -8.476022839546203613e+00 6.269835490733441929e-01
2.512329930067062378e+01 -6.794626355171203613e+00 5.469512004405316929e-01
3.251123875379562378e+01 -1.207892811298370361e+01 2.821043986827191929e-01
2.058466404676437378e+01 -3.587595105171203613e+00 -4.034433178603080705e-02
3.819410008192062378e+01 -1.701740467548370361e+01 8.224486369639691929e-01
3.536188572645187378e+01 -1.451081287860870361e+01 7.258299846202191929e-01
3.230109471082687378e+01 -1.196784412860870361e+01 6.228026408702191929e-01
2.833576267957687378e+01 -9.036813855171203613e+00 4.923857707530316929e-01
2.388922947645187378e+01 -5.965768933296203613e+00 3.479765910655316929e-01
1.958368748426437378e+01 -3.087717175483703613e+00 2.089385051280316929e-01
2.343573826551437378e+01 -5.018381237983703613e+00 6.212920207530316929e-01
1.409717625379562378e+01 -4.690622448921203613e+00 1.866897489503031693e+00
1.102594822645187378e+01 -2.875070691108703613e+00 1.895202543213969193e+00
1.119739598035812378e+01 -2.978342175483703613e+00 2.149337675049906693e+00
2.374085301160812378e+01 -5.813547253608703613e+00 5.503081340342816929e-01
1.117853611707687378e+01 -3.667673230171203613e+00 4.378508586436566929e-01
1.463489598035812378e+01 -5.083810925483703613e+00 1.928985502198344193e+00
1.391938084363937378e+01 -5.337717175483703613e+00 2.171096708253031693e+00
1.102906101942062378e+01 -2.935739636421203613e+00 1.937255765870219193e+00
1.429065769910812378e+01 -5.563913464546203613e+00 2.471404935792094193e+00
1.127710789442062378e+01 -3.083444714546203613e+00 2.210586454346781693e+00
1.164539402723312378e+01 -2.660715222358703613e+00 2.216445829346781693e+00
1.342536228895187378e+01 -5.036813855171203613e+00 2.671066190674906693e+00
1.212738865613937378e+01 -3.589914441108703613e+00 2.535980131104594193e+00
1.150849217176437378e+01 -2.580881237983703613e+00 2.460693265870219193e+00
1.428211277723312378e+01 -4.677560925483703613e+00 2.073562528565531693e+00
1.395038670301437378e+01 -5.880563855171203613e+00 2.369506742432719193e+00
1.459021824598312378e+01 -5.565256237983703613e+00 2.396484281495219193e+00
1.121997898817062378e+01 -2.861398816108703613e+00 2.116073514893656693e+00
1.410431736707687378e+01 -5.976877331733703613e+00 2.661056425049906693e+00
1.344452732801437378e+01 -4.870554089546203613e+00 2.581664945557719193e+00
1.181842869520187378e+01 -3.216989636421203613e+00 2.425826932862406693e+00
3.357343357801437378e+01 -1.304572498798370361e+01 5.807799357920941929e-01
2.975129002332687378e+01 -1.005488026142120361e+01 4.516753215342816929e-01
7.911629378795623779e+00 -2.637888073921203613e+00 9.030142016709419295e-02
8.078743636608123779e+00 -2.098093152046203613e+00 8.673086352646919295e-02
8.497627913951873779e+00 -1.713693737983703613e+00 9.248342700303169295e-02
7.848457992076873779e+00 -2.598459362983703613e+00 3.408812541514691929e-01
8.114998519420623779e+00 -2.121042370796203613e+00 3.409422893077191929e-01
8.581429183483123779e+00 -1.764841198921203613e+00 3.481291789561566929e-01
9.133797347545623779e+00 -3.412180066108703613e+00 6.544035930186566929e-01
1.441242283582687378e+01 -5.295114636421203613e+00 2.018966581299906693e+00
1.474384373426437378e+01 -4.772165417671203613e+00 2.020812894776469193e+00
1.436676853895187378e+01 -5.992502331733703613e+00 2.324111844971781693e+00
1.412366551160812378e+01 -5.120798230171203613e+00 2.281677152588969193e+00
1.153113621473312378e+01 -2.872018933296203613e+00 2.067108060792094193e+00
1.337793797254562378e+01 -6.100656628608703613e+00 2.556167509034281693e+00
1.471137303113937378e+01 -6.206247448921203613e+00 2.637527372315531693e+00
1.390284031629562378e+01 -4.987619519233703613e+00 2.548278715088969193e+00
1.119178074598312378e+01 -2.671457409858703613e+00 2.308792020753031693e+00
1.430066746473312378e+01 -5.024728894233703613e+00 2.163040067628031693e+00
1.426825779676437378e+01 -5.745309948921203613e+00 2.476196195557719193e+00
1.200745457410812378e+01 -3.641428112983703613e+00 2.276809598878031693e+00
1.150714939832687378e+01 -2.647653698921203613e+00 2.214157010987406693e+00
1.340137547254562378e+01 -5.945383191108703613e+00 2.724960233643656693e+00
1.339832371473312378e+01 -5.208322644233703613e+00 2.697189237549906693e+00
1.387574070692062378e+01 -4.767404675483703613e+00 2.709091093018656693e+00
1.147712010145187378e+01 -2.629465222358703613e+00 2.486266996338969193e+00
1.358026951551437378e+01 -6.377756237983703613e+00 2.856674100831156693e+00
1.341608494520187378e+01 -5.496652722358703613e+00 2.808090116456156693e+00
1.360956639051437378e+01 -4.851022839546203613e+00 2.789749052003031693e+00
1.129145115613937378e+01 -2.708200573921203613e+00 2.565902616456156693e+00
2.975166976451873779e+00 1.822072863578796387e+00 6.376638598740669295e-02
3.035957992076873779e+00 1.152273058891296387e+00 3.340758342295941929e-01
2.419869124889373779e+00 9.043482542037963867e-01 5.710753459483441929e-01
2.729744613170623779e+00 1.345876574516296387e+00 5.676268596202191929e-01
1.130249851942062378e+01 -7.095895886421203613e+00 1.421783353760844193e+00
1.167237156629562378e+01 -6.551218152046203613e+00 1.719604398682719193e+00
1.214002293348312378e+01 -6.859811902046203613e+00 2.056686307862406693e+00
1.173261326551437378e+01 -7.380075573921203613e+00 2.364837552979594193e+00
1.198346775770187378e+01 -3.656686902046203613e+00 2.222473051026469193e+00
1.156855076551437378e+01 -2.657297253608703613e+00 2.162643339112406693e+00
1.172449558973312378e+01 -7.371652722358703613e+00 2.670516874268656693e+00
1.335877293348312378e+01 -6.057565808296203613e+00 2.698089506104594193e+00
1.326837986707687378e+01 -5.213571667671203613e+00 2.656539823487406693e+00
1.187000340223312378e+01 -3.584299206733703613e+00 2.511596586182719193e+00
1.149073094129562378e+01 -2.607736706733703613e+00 2.448989774659281693e+00
2.340815037488937378e+01 -1.627558338642120361e+01 1.798278715088969193e+00
1.429390609264373779e+00 2.279104113578796387e+00 4.979552287608441929e-01
2.337983006238937378e+01 -1.625434315204620361e+01 2.174911405518656693e+00
1.186335057020187378e+01 -7.422067761421203613e+00 1.452789213135844193e+00
1.122748631238937378e+01 -7.802682995796203613e+00 1.751449491456156693e+00
1.214435642957687378e+01 -8.438913464546203613e+00 2.127609159424906693e+00
1.163709324598312378e+01 -7.265329480171203613e+00 2.062042142823344193e+00
1.420099705457687378e+01 -4.875192761421203613e+00 2.097686674073344193e+00
9.276558578014373779e+00 -6.443552136421203613e+00 2.223037626221781693e+00
1.415595310926437378e+01 -5.652902722358703613e+00 2.439651395753031693e+00
1.214911717176437378e+01 -3.621896862983703613e+00 2.261932279542094193e+00
9.194222152233123779e+00 -6.385080456733703613e+00 2.517394926026469193e+00
1.179871433973312378e+01 -7.372507214546203613e+00 2.698455717042094193e+00
1.303357762098312378e+01 -5.750192761421203613e+00 2.700347806885844193e+00
1.340216892957687378e+01 -5.181100964546203613e+00 2.697463895753031693e+00
1.214325779676437378e+01 -3.616647839546203613e+00 2.565109159424906693e+00
1.183771580457687378e+01 -7.411325573921203613e+00 2.564269926026469193e+00
1.402515476942062378e+01 -6.344797253608703613e+00 2.650863553956156693e+00
1.376197117567062378e+01 -5.347849011421203613e+00 2.603958036378031693e+00
1.377558201551437378e+01 -4.540720105171203613e+00 2.577300931885844193e+00
1.924732273817062378e+01 -1.438202869892120361e+01 3.585571195557719193e+00
9.061653792858123779e+00 -6.320871472358703613e+00 2.678298856690531693e+00
1.246259373426437378e+01 -7.838693737983703613e+00 2.937744047120219193e+00
1.294702976942062378e+01 -7.318552136421203613e+00 2.947830106690531693e+00
1.376471775770187378e+01 -6.179269909858703613e+00 2.955306913331156693e+00
1.341364353895187378e+01 -5.130807995796203613e+00 2.895965482667094193e+00
1.071112889051437378e+01 -2.668405652046203613e+00 2.645568754151469193e+00
1.174622410535812378e+01 -7.510812878608703613e+00 2.684188749268656693e+00
