1.292481285333633423e+01 -9.962340652942657471e+00 2.742210622876939397e-01
1.509925132989883423e+01 -1.171905452013015747e+01 3.587547536939439397e-01
1.536695152521133423e+01 -1.166534358263015747e+01 3.688865896314439397e-01
1.622956138849258423e+01 -1.213702327013015747e+01 4.022117849439439397e-01
1.784638267755508423e+01 -1.324395686388015747e+01 4.648643728345689397e-01
8.235848009586334229e+00 -6.067321121692657471e+00 1.527611013501939397e-01
1.138166099786758423e+01 -8.984313309192657471e+00 2.947593923658189397e-01
1.268213707208633423e+01 -9.999083817005157471e+00 3.528190847486314397e-01
1.495557457208633423e+01 -1.188934260606765747e+01 4.547935720533189397e-01
1.518958336114883423e+01 -1.180645686388015747e+01 4.641472097486314397e-01
1.561811119318008423e+01 -1.189739924669265747e+01 4.822746511548814397e-01
1.633673912286758423e+01 -1.223614436388015747e+01 5.134483572095689397e-01
1.968250328302383423e+01 -1.485333186388015747e+01 6.635032888501939397e-01
8.244820177555084229e+00 -6.078551590442657471e+00 2.138267751783189397e-01
1.136774498224258423e+01 -8.973571121692657471e+00 3.747612234205064397e-01
1.165271812677383423e+01 -9.006896317005157471e+00 3.877769704908189397e-01
1.483393150568008423e+01 -1.177764827013015747e+01 5.504356618970689397e-01
1.516468101739883423e+01 -1.178680354356765747e+01 5.653129812330064397e-01
1.563446861505508423e+01 -1.191583186388015747e+01 5.873008962720689397e-01
1.738190513849258423e+01 -1.317254573106765747e+01 6.747184988111314397e-01
1.960590416193008423e+01 -1.479046565294265747e+01 7.861076589673814397e-01
8.258369982242584229e+00 -6.094420731067657471e+00 2.756248708814439397e-01
1.135395103693008423e+01 -8.962828934192657471e+00 4.541984792798814397e-01
1.167737632989883423e+01 -9.033629715442657471e+00 4.705101247876939397e-01
1.474463707208633423e+01 -1.169659358263015747e+01 6.458946462720689397e-01
1.503705650568008423e+01 -1.167169123888015747e+01 6.597191091626939397e-01
1.553882652521133423e+01 -1.183233577013015747e+01 6.855522390455064397e-01
1.755439049005508423e+01 -1.333026057481765747e+01 7.981926199048814397e-01
1.953839927911758423e+01 -1.473565608263015747e+01 9.090172048658189397e-01
8.272530138492584229e+00 -6.110900223255157471e+00 3.373314138501939397e-01
1.134009605646133423e+01 -8.952086746692657471e+00 5.338951345533189397e-01
1.331916099786758423e+01 -1.062457209825515747e+01 6.585289236158189397e-01
1.472876793146133423e+01 -1.168499690294265747e+01 7.455345388501939397e-01
1.498188072443008423e+01 -1.162396174669265747e+01 7.577415701001939397e-01
1.539331871271133423e+01 -1.170330744981765747e+01 7.800194021314439397e-01
1.763440757989883423e+01 -1.340557795763015747e+01 9.185539480298814397e-01
1.947168785333633423e+01 -1.468133479356765747e+01 1.030507683381443940e+00
8.290596544742584229e+00 -6.131285965442657471e+00 3.998619314283189397e-01
1.132624107599258423e+01 -8.941344559192657471e+00 6.134392019361314397e-01
1.248041588068008423e+01 -9.816344559192657471e+00 6.909538503736314397e-01
1.471295982599258423e+01 -1.167352229356765747e+01 8.444572683423814397e-01
1.496344810724258423e+01 -1.161028987169265747e+01 8.571525808423814397e-01
1.534699302911758423e+01 -1.166448909044265747e+01 8.791099783033189397e-01
1.740119224786758423e+01 -1.320111018419265747e+01 1.018087029084568940e+00
1.941455894708633423e+01 -1.463555842638015747e+01 1.152562737092381440e+00
8.308907091617584229e+00 -6.152037918567657471e+00 4.626671072095689397e-01
1.132013756036758423e+01 -8.938170731067657471e+00 6.930137868970689397e-01
1.246515709161758423e+01 -9.804625809192657471e+00 7.768913503736314397e-01
1.470581871271133423e+01 -1.167022639513015747e+01 9.444328542798814397e-01
1.493463951349258423e+01 -1.158697444200515747e+01 9.561058279126939397e-01
1.533820396661758423e+01 -1.165997248888015747e+01 9.810539480298814397e-01
1.735651451349258423e+01 -1.316509944200515747e+01 1.128484367951756440e+00
1.933673912286758423e+01 -1.457159358263015747e+01 1.272390007600193940e+00
7.579720079898834229e+00 -4.245177567005157471e+00 -6.209663156419935603e-01
7.622383654117584229e+00 -4.131530106067657471e+00 -6.167396310716810603e-01
7.666084825992584229e+00 -4.019591629505157471e+00 -6.128638986498060603e-01
7.724434435367584229e+00 -3.920104324817657471e+00 -6.095680002123060603e-01
7.782356798648834229e+00 -3.821349442005157471e+00 -6.062873605638685603e-01
7.831551134586334229e+00 -3.716002762317657471e+00 -6.027015451341810603e-01
7.874031603336334229e+00 -3.605773270130157471e+00 -5.988868478685560603e-01
7.910530626773834229e+00 -3.492369949817657471e+00 -5.951789621263685603e-01
8.337959825992584229e+00 -4.908019363880157471e+00 -5.941108468919935603e-01
8.632271349430084229e+00 -4.996032059192657471e+00 -5.983375314623060603e-01
8.701851427555084229e+00 -4.888488113880157471e+00 -5.945686105638685603e-01
8.764717638492584229e+00 -4.775328934192657471e+00 -5.908912423998060603e-01
8.808296740055084229e+00 -4.647765457630157471e+00 -5.866492990404310603e-01
8.851509630680084229e+00 -4.521056473255157471e+00 -5.824226144701185603e-01
8.887459337711334229e+00 -4.389342606067657471e+00 -5.783180002123060603e-01
8.930061876773834229e+00 -4.264708817005157471e+00 -5.741523507982435603e-01
8.379158556461334229e+00 -4.945739090442657471e+00 -5.378211740404310603e-01
9.066292345523834229e+00 -5.368834793567657471e+00 -5.515388254076185603e-01
9.847115099430084229e+00 -5.849547684192657471e+00 -5.671333078294935603e-01
9.899422228336334229e+00 -5.708434402942657471e+00 -5.626777414232435603e-01
9.949837267398834229e+00 -5.567443192005157471e+00 -5.582069162279310603e-01
9.999886095523834229e+00 -5.427550613880157471e+00 -5.537818673998060603e-01
1.004969078302383423e+01 -5.288146317005157471e+00 -5.493720773607435603e-01
1.009906822443008423e+01 -5.150206863880157471e+00 -5.450080636888685603e-01
8.420479357242584229e+00 -4.983702957630157471e+00 -4.813178781419935603e-01
9.113838732242584229e+00 -5.411559402942657471e+00 -4.911597970873060603e-01
9.901985704898834229e+00 -5.897643387317657471e+00 -5.026954416185560603e-01
1.081690269708633423e+01 -6.463561356067657471e+00 -5.161384347826185603e-01
1.149384361505508423e+01 -6.811461746692657471e+00 -5.240424875169935603e-01
1.152466636896133423e+01 -6.631285965442657471e+00 -5.187324289232435603e-01
1.156244713068008423e+01 -6.457946121692657471e+00 -5.136207345873060603e-01
1.158747154474258423e+01 -6.277770340442657471e+00 -5.087226632982435603e-01
8.773384630680084229e+00 -5.293517410755157471e+00 -4.289649728685560603e-01
9.161629259586334229e+00 -5.454284012317657471e+00 -4.305213693529310603e-01
9.957100450992584229e+00 -5.945983231067657471e+00 -4.379523996263685603e-01
1.088422447443008423e+01 -6.521056473255157471e+00 -4.466499093919935603e-01
1.199475914239883423e+01 -7.216735184192657471e+00 -4.572547677904310603e-01
1.333582359552383423e+01 -8.061095535755157471e+00 -4.701637033373060603e-01
1.390717369318008423e+01 -8.270812332630157471e+00 -4.717658761888685603e-01
1.387696129083633423e+01 -8.011779129505157471e+00 -4.652503732591810603e-01
1.549860435724258423e+01 -1.116375666856765747e+01 -4.354346994310560603e-01
1.580854088068008423e+01 -1.114080744981765747e+01 -4.311774972826185603e-01
1.092401939630508423e+01 -6.758483231067657471e+00 -3.803962472826185603e-01
1.113410240411758423e+01 -6.728576004505157471e+00 -3.775428537279310603e-01
1.207611900568008423e+01 -7.284606277942657471e+00 -3.806709054857435603e-01
1.344141441583633423e+01 -8.147033035755157471e+00 -3.864997629076185603e-01
1.517694908380508423e+01 -9.254088699817657471e+00 -3.941596750169935603e-01
1.752222496271133423e+01 -1.077227717638015747e+01 -4.056037668138685603e-01
1.551630455255508423e+01 -1.118243342638015747e+01 -3.342384103685560603e-01
1.584565025568008423e+01 -1.117584162950515747e+01 -3.295387033373060603e-01
2.073889976739883423e+01 -1.498858577013015747e+01 -3.386634591966810603e-01
2.232618004083633423e+01 -1.592437678575515747e+01 -3.355506662279310603e-01
2.268701988458633423e+01 -1.582757502794265747e+01 -3.285926584154310603e-01
1.468079429864883423e+01 -9.127013504505157471e+00 -3.043464425951185603e-01
1.530988365411758423e+01 -9.359679520130157471e+00 -3.003181222826185603e-01
1.771405845880508423e+01 -1.092071467638015747e+01 -2.985023263841810603e-01
1.554419761896133423e+01 -1.121014338731765747e+01 -2.333015207201185603e-01
1.595362144708633423e+01 -1.127154475450515747e+01 -2.272437814623060603e-01
2.069232994318008423e+01 -1.495379573106765747e+01 -2.076667550951185603e-01
2.138336998224258423e+01 -1.515411311388015747e+01 -1.990760568529310603e-01
2.387903648614883423e+01 -1.679168635606765747e+01 -1.838477853685560603e-01
2.514319664239883423e+01 -1.738250666856765747e+01 -1.720069650560560603e-01
2.563892418146133423e+01 -1.734393244981765747e+01 -1.635230783373060603e-01
2.936328941583633423e+01 -1.974175959825515747e+01 -1.401160959154310603e-01
1.561023765802383423e+01 -1.127117854356765747e+01 -1.311439279466810603e-01
1.957172447443008423e+01 -1.437127619981765747e+01 -9.253919161855606035e-02
2.063996177911758423e+01 -1.491400080919265747e+01 -7.792127169668106035e-02
2.245447593927383423e+01 -1.603863459825515747e+01 -5.599439181386856035e-02
2.379944664239883423e+01 -1.673211604356765747e+01 -3.774488009511856035e-02
2.518232017755508423e+01 -1.741802912950515747e+01 -1.856458224355606035e-02
2.568396812677383423e+01 -1.738348323106765747e+01 -7.547736540431060348e-03
6.134156090021133423e+01 -4.395819026231765747e+01 3.589378591626939397e-01
1.567646080255508423e+01 -1.133233577013015747e+01 -2.866590060293106035e-02
1.981317955255508423e+01 -1.458196955919265747e+01 3.557360135019393965e-02
2.047803550958633423e+01 -1.478240901231765747e+01 4.959642849863143965e-02
2.218055015802383423e+01 -1.581780940294265747e+01 7.950365506113143965e-02
2.310334068536758423e+01 -1.617608577013015747e+01 9.804308377206893965e-02
2.432917076349258423e+01 -1.674957209825515747e+01 1.215568777173814397e-01
2.576660972833633423e+01 -1.745208674669265747e+01 1.487785574048814397e-01
6.108045250177383423e+01 -4.377117854356765747e+01 7.135215993970689397e-01
1.597766929864883423e+01 -1.159893733263015747e+01 8.002245388925643965e-02
1.978571373224258423e+01 -1.456256037950515747e+01 1.617332693189439397e-01
2.031763511896133423e+01 -1.465191584825515747e+01 1.759239431470689397e-01
2.221808677911758423e+01 -1.585308772325515747e+01 2.190910574048814397e-01
2.367212730646133423e+01 -1.663873225450515747e+01 2.532554861158189397e-01
2.420691734552383423e+01 -1.665765315294265747e+01 2.681328054517564397e-01
2.637268882989883423e+01 -1.792547541856765747e+01 3.181816335767564397e-01
6.076288658380508423e+01 -4.354144221544265747e+01 1.065892815217381440e+00
1.678870445489883423e+01 -1.231097346544265747e+01 2.055107351392564397e-01
2.005609947443008423e+01 -1.479827815294265747e+01 2.949272390455064397e-01
2.064441734552383423e+01 -1.493035823106765747e+01 3.128105398267564397e-01
2.228266197443008423e+01 -1.591058284044265747e+01 3.591514822095689397e-01
2.282276207208633423e+01 -1.595892268419265747e+01 3.759971853345689397e-01
2.411792808771133423e+01 -1.659185725450515747e+01 4.134422536939439397e-01
2.648328453302383423e+01 -1.801580744981765747e+01 4.803062673658189397e-01
1.693213707208633423e+01 -1.244000178575515747e+01 3.195854421705064397e-01
2.000495201349258423e+01 -1.475860530138015747e+01 4.215294118970689397e-01
2.114881187677383423e+01 -1.535784846544265747e+01 4.594932790845689397e-01
2.258991295099258423e+01 -1.616766291856765747e+01 5.080314870923814397e-01
2.345844322443008423e+01 -1.647564631700515747e+01 5.377861257642564397e-01
2.403180748224258423e+01 -1.652850276231765747e+01 5.578514333814439397e-01
2.540723472833633423e+01 -1.718829280138015747e+01 6.053215261548814397e-01
1.784900718927383423e+01 -1.324505549669265747e+01 4.649711843580064397e-01
2.005970054864883423e+01 -1.480963069200515747e+01 5.510002370923814397e-01
2.116327720880508423e+01 -1.537432795763015747e+01 5.939079519361314397e-01
2.251245933771133423e+01 -1.610845881700515747e+01 6.463981863111314397e-01
2.319788414239883423e+01 -1.627007991075515747e+01 6.730247732251939397e-01
2.394873863458633423e+01 -1.646734553575515747e+01 7.021995779126939397e-01
2.546326500177383423e+01 -1.723626643419265747e+01 7.610985036939439397e-01
1.968433433771133423e+01 -1.485369807481765747e+01 6.635948415845689397e-01
2.088251549005508423e+01 -1.551898127794265747e+01 7.157036062330064397e-01
2.122596031427383423e+01 -1.543121272325515747e+01 7.300010915845689397e-01
2.243543297052383423e+01 -1.604949885606765747e+01 7.831321951001939397e-01
2.294269615411758423e+01 -1.606878596544265747e+01 8.046928640455064397e-01
2.403260093927383423e+01 -1.653814631700515747e+01 8.523155447095689397e-01
2.546668297052383423e+01 -1.724359065294265747e+01 9.152275320142564397e-01
1.960767418146133423e+01 -1.479083186388015747e+01 7.861992117017564397e-01
1.996637779474258423e+01 -1.473797541856765747e+01 8.023735281080064397e-01
2.119989830255508423e+01 -1.541375666856765747e+01 8.630882497876939397e-01
2.234211021661758423e+01 -1.597711116075515747e+01 9.189354177564439397e-01
2.279370933771133423e+01 -1.595318537950515747e+01 9.395500417798814397e-01
2.419605308771133423e+01 -1.667181330919265747e+01 1.008275627717381440e+00
2.877185875177383423e+01 -1.980694514513015747e+01 1.237203240022068940e+00
1.954016929864883423e+01 -1.473602229356765747e+01 9.091087576001939397e-01
1.989606529474258423e+01 -1.468182307481765747e+01 9.255882497876939397e-01
2.080951744318008423e+01 -1.508990412950515747e+01 9.744316335767564397e-01
2.226648765802383423e+01 -1.591924983263015747e+01 1.053914665803318940e+00
2.269501549005508423e+01 -1.587786799669265747e+01 1.074773430451756440e+00
2.406238609552383423e+01 -1.657073909044265747e+01 1.148610710725193940e+00
2.539984947443008423e+01 -1.720123225450515747e+01 1.220418572053318940e+00
1.947345787286758423e+01 -1.468170100450515747e+01 1.030614494904881440e+00
1.984583336114883423e+01 -1.464300471544265747e+01 1.049932121858006440e+00
2.064496666193008423e+01 -1.495587092638015747e+01 1.096044182404881440e+00
2.121277672052383423e+01 -1.505596858263015747e+01 1.127385735139256440e+00
2.265155845880508423e+01 -1.584722834825515747e+01 1.213079094514256440e+00
2.380921226739883423e+01 -1.637518244981765747e+01 1.280767082795506440e+00
2.528846031427383423e+01 -1.711968928575515747e+01 1.368062615022068940e+00
1.941651207208633423e+01 -1.463604670763015747e+01 1.152684807404881440e+00
1.979718834161758423e+01 -1.460528498888015747e+01 1.173818230256443940e+00
2.033814293146133423e+01 -1.470220881700515747e+01 1.205220818147068940e+00
2.114978843927383423e+01 -1.500836116075515747e+01 1.255696892365818940e+00
2.263263756036758423e+01 -1.583636409044265747e+01 1.351857781037693940e+00
2.360498863458633423e+01 -1.621820002794265747e+01 1.412541985139256440e+00
2.531531578302383423e+01 -1.714520198106765747e+01 1.523854851350193940e+00
1.933857017755508423e+01 -1.457195979356765747e+01 1.272512077912693940e+00
1.970618492364883423e+01 -1.453131037950515747e+01 1.293279289826756440e+00
2.030390220880508423e+01 -1.467755061388015747e+01 1.331868767365818940e+00
2.110089927911758423e+01 -1.497222834825515747e+01 1.385060906037693940e+00
2.261853843927383423e+01 -1.582928401231765747e+01 1.491551994904881440e+00
2.325916343927383423e+01 -1.594915705919265747e+01 1.532247185334568940e+00
2.423664146661758423e+01 -1.631402522325515747e+01 1.597554802522068940e+00
7.910591661930084229e+00 -3.492003738880157471e+00 -5.951637033373060603e-01
7.951119005680084229e+00 -3.382628738880157471e+00 -5.914253000169935603e-01
7.985786974430084229e+00 -3.269713699817657471e+00 -5.877784494310560603e-01
8.020393908023834229e+00 -3.157164871692657471e+00 -5.841468576341810603e-01
8.054634630680084229e+00 -3.045714676380157471e+00 -5.805457834154310603e-01
8.088631212711334229e+00 -2.934996902942657471e+00 -5.769752267748060603e-01
8.122566759586334229e+00 -2.824645340442657471e+00 -5.734199289232435603e-01
8.160042345523834229e+00 -2.717833817005157471e+00 -5.702918771654310603e-01
8.930122911930084229e+00 -4.264098465442657471e+00 -5.741370920091810603e-01
8.972664415836334229e+00 -4.140441238880157471e+00 -5.703529123216810603e-01
9.025215685367584229e+00 -4.024840652942657471e+00 -5.665839914232435603e-01
9.072212755680084229e+00 -3.905333817005157471e+00 -5.629676584154310603e-01
9.118843615055084229e+00 -3.786803543567657471e+00 -5.593818429857435603e-01
9.148628771305084229e+00 -3.657653152942657471e+00 -5.553535226732435603e-01
9.171028673648834229e+00 -3.524108231067657471e+00 -5.514320138841810603e-01
9.199104845523834229e+00 -3.396300613880157471e+00 -5.474342111498060603e-01
1.009912925958633423e+01 -5.149596512317657471e+00 -5.449928048998060603e-01
1.014240318536758423e+01 -5.008361160755157471e+00 -5.408576730638685603e-01
1.018543297052383423e+01 -4.867858231067657471e+00 -5.367530588060560603e-01
1.022083336114883423e+01 -4.722594559192657471e+00 -5.324653390794935603e-01
1.025391441583633423e+01 -4.577575027942657471e+00 -5.282081369310560603e-01
1.030249840021133423e+01 -4.444396317005157471e+00 -5.243171457201185603e-01
1.035096031427383423e+01 -4.311583817005157471e+00 -5.204414132982435603e-01
1.039905601739883423e+01 -4.179869949817657471e+00 -5.165961984544935603e-01
1.158741050958633423e+01 -6.277037918567657471e+00 -5.087074045091810603e-01
1.162628990411758423e+01 -6.109313309192657471e+00 -5.036720041185560603e-01
1.168274742364883423e+01 -5.955870926380157471e+00 -4.993995431810560603e-01
1.176105552911758423e+01 -5.818297684192657471e+00 -4.955085519701185603e-01
1.175806480646133423e+01 -5.625304520130157471e+00 -4.902595285326185603e-01
1.173029381036758423e+01 -5.418151199817657471e+00 -4.846748117357435603e-01
1.175574547052383423e+01 -5.249205887317657471e+00 -4.800208810716810603e-01
1.176886802911758423e+01 -5.074645340442657471e+00 -4.756263498216810603e-01
1.387665611505508423e+01 -8.010680496692657471e+00 -4.652198556810560603e-01
1.384845787286758423e+01 -7.757750809192657471e+00 -4.591621164232435603e-01
1.389374595880508423e+01 -7.562194168567657471e+00 -4.541114572435560603e-01
1.393885093927383423e+01 -7.367492020130157471e+00 -4.490760568529310603e-01
1.398163658380508423e+01 -7.173888504505157471e+00 -4.440711740404310603e-01
1.399262291193008423e+01 -6.960387527942657471e+00 -4.387611154466810603e-01
1.400983482599258423e+01 -6.753112137317657471e+00 -4.335731271654310603e-01
1.406183677911758423e+01 -6.571715652942657471e+00 -4.288123849779310603e-01
1.754029136896133423e+01 -1.078497248888015747e+01 -4.057105783373060603e-01
1.757654625177383423e+01 -1.052276545763015747e+01 -3.990424875169935603e-01
1.756635338068008423e+01 -1.022991877794265747e+01 -3.927253488451185603e-01
1.755335289239883423e+01 -9.938292801380157471e+00 -3.864539865404310603e-01
1.751276451349258423e+01 -9.632872879505157471e+00 -3.801368478685560603e-01
1.750519615411758423e+01 -9.354918777942657471e+00 -3.741096261888685603e-01
1.749768882989883423e+01 -9.080016434192657471e+00 -3.681586984544935603e-01
1.747510582208633423e+01 -8.800109207630157471e+00 -3.627876047044935603e-01
1.773243004083633423e+01 -1.093365412950515747e+01 -2.985023263841810603e-01
2.134003502130508423e+01 -1.331536799669265747e+01 -2.968848947435560603e-01
2.305316978693008423e+01 -1.421563655138015747e+01 -2.916663888841810603e-01
2.275385338068008423e+01 -1.363738948106765747e+01 -2.844642404466810603e-01
2.259204918146133423e+01 -1.317022639513015747e+01 -2.775825265794935603e-01
2.247296959161758423e+01 -1.274163752794265747e+01 -2.708839181810560603e-01
2.242920738458633423e+01 -1.237042170763015747e+01 -2.643073800951185603e-01
2.234809166193008423e+01 -1.198187190294265747e+01 -2.578834298998060603e-01
2.932386070489883423e+01 -1.971026545763015747e+01 -1.402534250169935603e-01
2.261200767755508423e+01 -1.426214534044265747e+01 -1.632026437669935603e-01
3.582166343927383423e+01 -2.349017268419265747e+01 -9.203565157949356035e-02
3.784839683771133423e+01 -2.437188655138015747e+01 -7.235181368886856035e-02
3.632630211114883423e+01 -2.273297053575515747e+01 -7.088696993886856035e-02
3.530133873224258423e+01 -2.148553401231765747e+01 -6.751477755605606035e-02
3.408228355646133423e+01 -2.014410334825515747e+01 -6.690442599355606035e-02
3.400666099786758423e+01 -1.959271174669265747e+01 -5.901563204824356035e-02
6.134430748224258423e+01 -4.395684748888015747e+01 3.589988943189439397e-01
3.737628990411758423e+01 -2.521417170763015747e+01 1.250969167798814397e-01
3.569458824396133423e+01 -2.340399104356765747e+01 1.156059499830064397e-01
3.653955894708633423e+01 -2.344757014513015747e+01 1.324974294751939397e-01
3.651709800958633423e+01 -2.287176448106765747e+01 1.400963064283189397e-01
3.734607750177383423e+01 -2.288470393419265747e+01 1.570793386548814397e-01
5.825409752130508423e+01 -3.627081233263015747e+01 4.025932546705064397e-01
5.035071617364883423e+01 -3.026507502794265747e+01 3.230186697095689397e-01
6.106647545099258423e+01 -4.375726252794265747e+01 7.133232351392564397e-01
3.726770836114883423e+01 -2.514007502794265747e+01 3.427635427564439397e-01
3.555048424005508423e+01 -2.330535823106765747e+01 3.216148611158189397e-01
3.569574791193008423e+01 -2.285345393419265747e+01 3.302971120923814397e-01
3.597669273614883423e+01 -2.250140315294265747e+01 3.411613699048814397e-01
3.635327965021133423e+01 -2.221392756700515747e+01 3.536430593580064397e-01
5.138050132989883423e+01 -3.169451838731765747e+01 6.134544607251939397e-01
5.005298668146133423e+01 -3.007842952013015747e+01 5.993553396314439397e-01
6.076770836114883423e+01 -4.354168635606765747e+01 1.066014885529881440e+00
3.727442222833633423e+01 -2.515167170763015747e+01 5.629478689283189397e-01
3.555750328302383423e+01 -2.331646662950515747e+01 5.304619070142564397e-01
3.568201500177383423e+01 -2.284966975450515747e+01 5.380302663892564397e-01
3.596680504083633423e+01 -2.250042659044265747e+01 5.491081472486314397e-01
3.634168297052383423e+01 -2.221185237169265747e+01 5.622001882642564397e-01
5.899012047052383423e+01 -3.678008967638015747e+01 1.074697136506443940e+00
5.006122642755508423e+01 -3.009149104356765747e+01 8.808799978345689397e-01
3.562024742364883423e+01 -2.336810237169265747e+01 7.398735281080064397e-01
3.570771080255508423e+01 -2.287396174669265747e+01 7.456566091626939397e-01
3.602552086114883423e+01 -2.254717952013015747e+01 7.578026052564439397e-01
3.638312584161758423e+01 -2.224590998888015747e+01 7.710777517408189397e-01
5.953772789239883423e+01 -3.715460139513015747e+01 1.421117424592381440e+00
6.033643394708633423e+01 -3.680999690294265747e+01 1.448751091584568940e+00
3.596790367364883423e+01 -2.362689143419265747e+01 9.595237966626939397e-01
3.634748131036758423e+01 -2.333514338731765747e+01 9.740806814283189397e-01
3.731031090021133423e+01 -2.344830256700515747e+01 1.008107781037693940e+00
3.655115562677383423e+01 -2.236627131700515747e+01 9.846855398267564397e-01
6.226740318536758423e+01 -3.898614436388015747e+01 1.848531365022068940e+00
3.669043785333633423e+01 -2.415838557481765747e+01 1.198918938264256440e+00
3.605573326349258423e+01 -2.313360530138015747e+01 1.174642204865818940e+00
3.639948326349258423e+01 -2.281964045763015747e+01 1.188466667756443940e+00
6.189484459161758423e+01 -3.966302424669265747e+01 2.182698845490818940e+00
6.254071861505508423e+01 -3.917828303575515747e+01 2.208577751740818940e+00
6.240601402521133423e+01 -3.818060237169265747e+01 2.204030632600193940e+00
6.072467857599258423e+01 -4.164227229356765747e+01 2.485601067170506440e+00
6.109821373224258423e+01 -4.097051936388015747e+01 2.500508904084568940e+00
6.089661461114883423e+01 -3.990289241075515747e+01 2.489797234162693940e+00
6.118610435724258423e+01 -3.918914729356765747e+01 2.500981926545506440e+00
6.325293785333633423e+01 -3.966363459825515747e+01 2.591283440217381440e+00
6.141107994318008423e+01 -4.120342952013015747e+01 2.868520378693943940e+00
6.232410484552383423e+01 -4.090814143419265747e+01 2.910115837678318940e+00
6.018415123224258423e+01 -3.851495295763015747e+01 2.798650383576756440e+00
6.189295250177383423e+01 -3.786419612169265747e+01 2.876073479279881440e+00
6.279358726739883423e+01 -4.219842463731765747e+01 3.298055290803318940e+00
6.006855064630508423e+01 -3.844561702013015747e+01 3.132772087678318940e+00
6.097602134943008423e+01 -3.816192561388015747e+01 3.176824211701756440e+00
6.344934898614883423e+01 -3.889129573106765747e+01 3.309560417756443940e+00
6.275800377130508423e+01 -4.218340998888015747e+01 3.657964348420506440e+00
6.011988121271133423e+01 -3.849017268419265747e+01 3.477742790803318940e+00
6.081281334161758423e+01 -3.806231623888015747e+01 3.511357903108006440e+00
6.362934166193008423e+01 -3.901861506700515747e+01 3.674428581818943940e+00
6.105847984552383423e+01 -3.914080744981765747e+01 3.880864739045506440e+00
6.079566246271133423e+01 -3.806036311388015747e+01 3.853902458772068940e+00
6.050226646661758423e+01 -4.059625178575515747e+01 4.215749382600193940e+00
5.975659996271133423e+01 -3.915655452013015747e+01 4.147679924592381440e+00
6.050836998224258423e+01 -3.877471858263015747e+01 4.188603996858006440e+00
6.078571373224258423e+01 -3.806304866075515747e+01 4.195058464631443940e+00
8.159981310367584229e+00 -2.717345535755157471e+00 -5.702613595873060603e-01
8.207954943180084229e+00 -2.617858231067657471e+00 -5.672858957201185603e-01
8.250679552555084229e+00 -2.515441238880157471e+00 -5.644172433763685603e-01
8.293465197086334229e+00 -2.412902176380157471e+00 -5.615485910326185603e-01
8.335945665836334229e+00 -2.311095535755157471e+00 -5.586951974779310603e-01
8.378304064273834229e+00 -2.209533035755157471e+00 -5.558570627123060603e-01
8.438057482242584229e+00 -2.117858231067657471e+00 -5.535224679857435603e-01
8.490730822086334229e+00 -2.022521317005157471e+00 -5.512641672044935603e-01
9.198921740055084229e+00 -3.395690262317657471e+00 -5.474189523607435603e-01
9.220100939273834229e+00 -3.264464676380157471e+00 -5.436042550951185603e-01
9.247139513492584229e+00 -3.138121902942657471e+00 -5.396827463060560603e-01
9.268074572086334229e+00 -3.008605301380157471e+00 -5.359138254076185603e-01
9.288826525211334229e+00 -2.880431473255157471e+00 -5.321906808763685603e-01
9.320686876773834229e+00 -2.760070145130157471e+00 -5.287727121263685603e-01
9.396492540836334229e+00 -2.664855301380157471e+00 -5.267432931810560603e-01
9.484993517398834229e+00 -2.576964676380157471e+00 -5.247138742357435603e-01
1.039887291193008423e+01 -4.179259598255157471e+00 -5.165809396654310603e-01
1.044007164239883423e+01 -4.043883621692657471e+00 -5.129340890794935603e-01
1.048102623224258423e+01 -3.909240067005157471e+00 -5.093177560716810603e-01
1.052198082208633423e+01 -3.774840652942657471e+00 -5.057014230638685603e-01
1.056256920099258423e+01 -3.641539871692657471e+00 -5.021308664232435603e-01
1.060291343927383423e+01 -3.508849442005157471e+00 -4.985603097826185603e-01
1.064325767755508423e+01 -3.376525223255157471e+00 -4.950050119310560603e-01
1.068323570489883423e+01 -3.245177567005157471e+00 -4.914802316576185603e-01
1.176844078302383423e+01 -5.073668777942657471e+00 -4.755958322435560603e-01
1.179523521661758423e+01 -4.909850418567657471e+00 -4.710334543138685603e-01
1.182477623224258423e+01 -4.749205887317657471e+00 -4.669288400560560603e-01
1.190290123224258423e+01 -4.618956863880157471e+00 -4.635413888841810603e-01
1.198078209161758423e+01 -4.489074051380157471e+00 -4.601844552904310603e-01
1.207862144708633423e+01 -4.370909988880157471e+00 -4.570869211107435603e-01
1.220038658380508423e+01 -4.265197098255157471e+00 -4.543098215013685603e-01
1.231214195489883423e+01 -4.153502762317657471e+00 -4.517463449388685603e-01
1.406171470880508423e+01 -6.570861160755157471e+00 -4.287971261888685603e-01
1.408338218927383423e+01 -6.371398270130157471e+00 -4.240821603685560603e-01
1.408435875177383423e+01 -6.161071121692657471e+00 -4.192298654466810603e-01
1.408527427911758423e+01 -5.952452957630157471e+00 -4.144080881029310603e-01
1.410883384943008423e+01 -5.760558426380157471e+00 -4.098609689623060603e-01
1.424689537286758423e+01 -5.637267410755157471e+00 -4.063667062669935603e-01
1.438629966974258423e+01 -5.512755692005157471e+00 -4.028419259935560603e-01
1.464551597833633423e+01 -5.454406082630157471e+00 -4.002784494310560603e-01
1.747455650568008423e+01 -8.798888504505157471e+00 -3.627570871263685603e-01
1.747370201349258423e+01 -8.536925613880157471e+00 -3.567909006029310603e-01
1.745783287286758423e+01 -8.268859207630157471e+00 -3.513740304857435603e-01
1.744214683771133423e+01 -8.003478348255157471e+00 -3.460181955248060603e-01
1.747779136896133423e+01 -7.773131668567657471e+00 -3.409370187669935603e-01
1.770746666193008423e+01 -7.658019363880157471e+00 -3.365730050951185603e-01
1.794092613458633423e+01 -7.541076004505157471e+00 -3.321326974779310603e-01
1.816492515802383423e+01 -7.416564285755157471e+00 -3.281501535326185603e-01
2.234644371271133423e+01 -1.197967463731765747e+01 -2.578529123216810603e-01
2.209333091974258423e+01 -1.148797541856765747e+01 -2.520240548998060603e-01
2.189478355646133423e+01 -1.104144221544265747e+01 -2.463325265794935603e-01
2.185956627130508423e+01 -1.070294123888015747e+01 -2.405647043138685603e-01
2.189453941583633423e+01 -1.041216975450515747e+01 -2.347816232591810603e-01
2.218256431818008423e+01 -1.027178889513015747e+01 -2.285865548998060603e-01
2.307892662286758423e+01 -1.047320491075515747e+01 -2.210181955248060603e-01
2.385273033380508423e+01 -1.058746272325515747e+01 -2.133888009935560603e-01
3.400757652521133423e+01 -1.959161311388015747e+01 -5.896985568105606035e-02
3.337378746271133423e+01 -1.869244319200515747e+01 -5.506360568105606035e-02
3.546222740411758423e+01 -1.951690608263015747e+01 -3.273999728261856035e-02
5.901172691583633423e+01 -3.339288264513015747e+01 1.346946951001939397e-01
5.857978111505508423e+01 -3.231829768419265747e+01 1.447044607251939397e-01
4.251679283380508423e+01 -2.156182795763015747e+01 4.990160427988143965e-02
5.035291343927383423e+01 -3.026409846544265747e+01 3.230797048658189397e-01
5.966339927911758423e+01 -3.548382502794265747e+01 4.424492117017564397e-01
6.157538658380508423e+01 -3.583209162950515747e+01 4.767967458814439397e-01
5.891400963068008423e+01 -3.334161311388015747e+01 4.562431570142564397e-01
4.252814537286758423e+01 -2.157415705919265747e+01 2.812553640455064397e-01
5.004267174005508423e+01 -3.006915217638015747e+01 5.992027517408189397e-01
5.963227134943008423e+01 -3.547283869981765747e+01 7.722221609205064397e-01
6.456079918146133423e+01 -3.770611506700515747e+01 8.672538992017564397e-01
6.518555504083633423e+01 -3.718133479356765747e+01 8.883720632642564397e-01
4.253937584161758423e+01 -2.158636409044265747e+01 5.115562673658189397e-01
5.005005699396133423e+01 -3.008172541856765747e+01 8.806511159986314397e-01
4.862519127130508423e+01 -2.845037776231765747e+01 8.547264333814439397e-01
4.724793297052383423e+01 -2.689715510606765747e+01 8.294578786939439397e-01
4.598725181818008423e+01 -2.545941096544265747e+01 8.064628835767564397e-01
4.480060631036758423e+01 -2.411028987169265747e+01 7.847954031080064397e-01
4.364014488458633423e+01 -2.281610041856765747e+01 7.633720632642564397e-01
4.246924644708633423e+01 -2.155206233263015747e+01 7.413994070142564397e-01
4.130768638849258423e+01 -2.033306819200515747e+01 7.192741628736314397e-01
6.033533531427383423e+01 -3.680621272325515747e+01 1.448751091584568940e+00
5.987995201349258423e+01 -3.564886409044265747e+01 1.441548943147068940e+00
6.192017418146133423e+01 -3.607452327013015747e+01 1.504567741975193940e+00
6.569294029474258423e+01 -3.751019221544265747e+01 1.616933464631443940e+00
6.543262535333633423e+01 -4.014507991075515747e+01 1.957738518342381440e+00
6.186438804864883423e+01 -3.604864436388015747e+01 1.843511223420506440e+00
6.554535728693008423e+01 -3.742938166856765747e+01 1.970998406037693940e+00
6.240821129083633423e+01 -3.817889338731765747e+01 2.204122185334568940e+00
6.238037925958633423e+01 -3.726519709825515747e+01 2.204564690217381440e+00
6.512451988458633423e+01 -3.902899104356765747e+01 2.672200798615818940e+00
6.493811851739883423e+01 -3.798931819200515747e+01 2.663304924592381440e+00
6.211585289239883423e+01 -3.535052424669265747e+01 2.537236809358006440e+00
6.193451744318008423e+01 -3.438201838731765747e+01 2.528615593537693940e+00
6.237390953302383423e+01 -3.379144221544265747e+01 2.547582268342381440e+00
6.432538658380508423e+01 -3.945111018419265747e+01 2.997670769318943940e+00
6.130475670099258423e+01 -3.659588557481765747e+01 2.843968987092381440e+00
6.085468345880508423e+01 -3.544415217638015747e+01 2.818868279084568940e+00
6.155457359552383423e+01 -3.501605159044265747e+01 2.851155876740818940e+00
6.298627525568008423e+01 -3.501983577013015747e+01 2.919896721467381440e+00
6.233417564630508423e+01 -3.377679377794265747e+01 2.884801506623631440e+00
6.344983726739883423e+01 -3.888848811388015747e+01 3.309560417756443940e+00
6.080927330255508423e+01 -3.628802424669265747e+01 3.156453728303318940e+00
6.123828941583633423e+01 -3.569305354356765747e+01 3.175511955842381440e+00
6.185486656427383423e+01 -3.520867854356765747e+01 3.204915642365818940e+00
6.191516929864883423e+01 -3.438775569200515747e+01 3.203588127717381440e+00
6.252753502130508423e+01 -3.389849787950515747e+01 3.232747673615818940e+00
6.362940269708633423e+01 -3.901544123888015747e+01 3.674398064240818940e+00
6.057624107599258423e+01 -3.614800959825515747e+01 3.481404900178318940e+00
6.131952720880508423e+01 -3.575286799669265747e+01 3.519857048615818940e+00
6.129444175958633423e+01 -3.487445002794265747e+01 3.511602043733006440e+00
6.101831871271133423e+01 -3.644000178575515747e+01 3.848683952912693940e+00
6.127838951349258423e+01 -3.573614436388015747e+01 3.855275749787693940e+00
6.132953697443008423e+01 -3.490472346544265747e+01 3.849874138459568940e+00
6.302307945489883423e+01 -3.773236018419265747e+01 4.331319450959568940e+00
6.131324058771133423e+01 -3.576690608263015747e+01 4.197591423615818940e+00
6.484510093927383423e+01 -3.706634455919265747e+01 4.439138054475193940e+00
8.491097033023834229e+00 -2.022277176380157471e+00 -5.512641672044935603e-01
8.549446642398834229e+00 -1.930114090442657471e+00 -5.489753488451185603e-01
8.600410997867584229e+00 -1.833678543567657471e+00 -5.467170480638685603e-01
8.679573595523834229e+00 -1.751525223255157471e+00 -5.452522043138685603e-01
8.798470079898834229e+00 -1.689025223255157471e+00 -5.448707345873060603e-01
8.919075548648834229e+00 -1.625670731067657471e+00 -5.444892648607435603e-01
9.041817247867584229e+00 -1.561217606067657471e+00 -5.440925363451185603e-01
9.182747423648834229e+00 -1.503844559192657471e+00 -5.444129709154310603e-01
9.485298693180084229e+00 -2.576720535755157471e+00 -5.246986154466810603e-01
9.568733751773834229e+00 -2.485167801380157471e+00 -5.228523019701185603e-01
9.657723009586334229e+00 -2.395934402942657471e+00 -5.208228830248060603e-01
9.742317736148834229e+00 -2.303038895130157471e+00 -5.189613107591810603e-01
9.834419786930084229e+00 -2.213683426380157471e+00 -5.172370675951185603e-01
1.001111656427383423e+01 -2.165099442005157471e+00 -5.173743966966810603e-01
1.018543297052383423e+01 -2.111876785755157471e+00 -5.176643136888685603e-01
1.037000328302383423e+01 -2.061095535755157471e+00 -5.178169015794935603e-01
1.068347984552383423e+01 -3.244811356067657471e+00 -4.914649728685560603e-01
1.072113853693008423e+01 -3.112853348255157471e+00 -4.882301095873060603e-01
1.096546226739883423e+01 -3.091246902942657471e+00 -4.887336496263685603e-01
1.121833091974258423e+01 -3.068908035755157471e+00 -4.892524484544935603e-01
1.147834068536758423e+01 -3.045836746692657471e+00 -4.897865060716810603e-01
1.174677330255508423e+01 -3.022033035755157471e+00 -4.903358224779310603e-01
1.202497154474258423e+01 -2.997374832630157471e+00 -4.909156564623060603e-01
1.226532799005508423e+01 -2.950255692005157471e+00 -4.907478097826185603e-01
1.231281334161758423e+01 -4.153258621692657471e+00 -4.517463449388685603e-01
1.274518638849258423e+01 -4.214904129505157471e+00 -4.529212716966810603e-01
1.303931480646133423e+01 -4.193663895130157471e+00 -4.524940256029310603e-01
1.321637779474258423e+01 -4.105651199817657471e+00 -4.504646066576185603e-01
1.340723472833633423e+01 -4.022521317005157471e+00 -4.485419992357435603e-01
1.371253257989883423e+01 -3.992858231067657471e+00 -4.479163888841810603e-01
1.393708091974258423e+01 -3.918151199817657471e+00 -4.461921457201185603e-01
1.415436607599258423e+01 -3.836974442005157471e+00 -4.447425607591810603e-01
1.464673668146133423e+01 -5.454528152942657471e+00 -4.002631906419935603e-01
1.490149742364883423e+01 -5.389220535755157471e+00 -3.978828195482435603e-01
1.521900230646133423e+01 -5.352843582630157471e+00 -3.958839181810560603e-01
1.563172203302383423e+01 -5.359069168567657471e+00 -3.944190744310560603e-01
1.611841636896133423e+01 -5.395201981067657471e+00 -3.933357004076185603e-01
1.656629234552383423e+01 -5.402159988880157471e+00 -3.917640451341810603e-01
1.696057945489883423e+01 -5.373717606067657471e+00 -3.896430734544935603e-01
1.736689049005508423e+01 -5.344298660755157471e+00 -3.874458078294935603e-01
1.816584068536758423e+01 -7.416198074817657471e+00 -3.281348947435560603e-01
1.841956382989883423e+01 -7.304869949817657471e+00 -3.234199289232435603e-01
1.877533775568008423e+01 -7.243590652942657471e+00 -3.194068673998060603e-01
1.938898521661758423e+01 -7.308654129505157471e+00 -3.157905343919935603e-01
1.992224937677383423e+01 -7.321227371692657471e+00 -3.118079904466810603e-01
2.070545250177383423e+01 -7.446227371692657471e+00 -3.080238107591810603e-01
2.162226158380508423e+01 -7.617980301380157471e+00 -3.040717843919935603e-01
2.242615562677383423e+01 -7.718077957630157471e+00 -3.002723459154310603e-01
2.385743004083633423e+01 -1.058904963731765747e+01 -2.133582834154310603e-01
2.471399742364883423e+01 -1.073174983263015747e+01 -2.055457834154310603e-01
2.560346275568008423e+01 -1.087335139513015747e+01 -1.973060373216810603e-01
2.676715904474258423e+01 -1.113665705919265747e+01 -1.878913644701185603e-01
2.815570884943008423e+01 -1.148907405138015747e+01 -1.773170236498060603e-01
2.981659752130508423e+01 -1.194488459825515747e+01 -1.652625802904310603e-01
3.027417808771133423e+01 -1.178301936388015747e+01 -1.569465402513685603e-01
4.055970054864883423e+01 -1.936859065294265747e+01 4.881340261548814397e-01
4.129871422052383423e+01 -2.032623225450515747e+01 7.190910574048814397e-01
4.011676841974258423e+01 -1.913275080919265747e+01 6.962486501783189397e-01
3.892774254083633423e+01 -1.797149592638015747e+01 6.729179617017564397e-01
3.776026207208633423e+01 -1.685528498888015747e+01 6.497856374830064397e-01
3.657813316583633423e+01 -1.576812678575515747e+01 6.259819265455064397e-01
3.535028892755508423e+01 -1.469268733263015747e+01 6.007744070142564397e-01
3.415052086114883423e+01 -1.366424494981765747e+01 5.759483572095689397e-01
3.288098961114883423e+01 -1.263848811388015747e+01 5.491081472486314397e-01
3.673816734552383423e+01 -1.585369807481765747e+01 8.242393728345689397e-01
3.549756675958633423e+01 -1.476971369981765747e+01 7.914177175611314397e-01
3.426520591974258423e+01 -1.372357112169265747e+01 7.585960622876939397e-01
3.297565513849258423e+01 -1.268670588731765747e+01 7.238670583814439397e-01
2.541547447443008423e+01 -1.067681819200515747e+01 -2.019752267748060603e-01
2.666254478693008423e+01 -1.096820002794265747e+01 -1.926063302904310603e-01
2.811109215021133423e+01 -1.133514338731765747e+01 -1.820777658373060603e-01
2.976624351739883423e+01 -1.177178889513015747e+01 -1.702522043138685603e-01
3.186335045099258423e+01 -1.238336116075515747e+01 -1.559394601732435603e-01
3.406378990411758423e+01 -1.344781428575515747e+01 4.038011990488143965e-02
3.405976158380508423e+01 -1.344891291856765747e+01 2.276664968580064397e-01
3.405573326349258423e+01 -1.345001155138015747e+01 4.139610525220689397e-01
4.115821129083633423e+01 -2.020599299669265747e+01 7.672783132642564397e-01
3.999848228693008423e+01 -1.900518733263015747e+01 7.405143972486314397e-01
3.883667808771133423e+01 -1.783904963731765747e+01 7.135978933423814397e-01
3.760083824396133423e+01 -1.666778498888015747e+01 6.847130056470689397e-01
3.636310631036758423e+01 -1.553387385606765747e+01 6.556450124830064397e-01
3.503485924005508423e+01 -1.439117366075515747e+01 6.241966482251939397e-01
3.372980552911758423e+01 -1.329583674669265747e+01 5.932060476392564397e-01
3.239600425958633423e+01 -1.222503596544265747e+01 5.613762136548814397e-01
3.402515465021133423e+01 -1.344134455919265747e+01 7.868705984205064397e-01
3.252051597833633423e+01 -1.228643733263015747e+01 7.422081228345689397e-01
2.734839683771133423e+01 -8.427306473255157471e+00 4.365898367017564397e-01
2.514356285333633423e+01 -6.869933426380157471e+00 3.749290701001939397e-01
2.537299400568008423e+01 -6.979430496692657471e+00 5.887809988111314397e-01
3.408478599786758423e+01 -1.341827327013015747e+01 3.184868093580064397e-01
3.178095299005508423e+01 -1.160967952013015747e+01 2.684074636548814397e-01
2.943921715021133423e+01 -9.846251785755157471e+00 2.175651784986314397e-01
2.706659752130508423e+01 -8.130065262317657471e+00 1.660820242017564397e-01
2.470105797052383423e+01 -6.482726395130157471e+00 1.147972341626939397e-01
3.927527672052383423e+01 -1.828253108263015747e+01 7.258812185376939397e-01
3.751044517755508423e+01 -1.659222346544265747e+01 6.766105886548814397e-01
3.556201988458633423e+01 -1.485687190294265747e+01 6.225639577955064397e-01
3.343756920099258423e+01 -1.308465510606765747e+01 5.639549490064439397e-01
3.130909019708633423e+01 -1.137286311388015747e+01 5.053917165845689397e-01
2.911438804864883423e+01 -9.687926590442657471e+00 4.452415701001939397e-01
2.683783775568008423e+01 -8.021788895130157471e+00 3.830467458814439397e-01
2.457373863458633423e+01 -6.424742996692657471e+00 3.213707204908189397e-01
2.934857994318008423e+01 -9.806090652942657471e+00 6.886802908033189397e-01
2.682703453302383423e+01 -8.018615067005157471e+00 6.058555837720689397e-01
2.438361412286758423e+01 -6.337218582630157471e+00 5.258232351392564397e-01
3.177155357599258423e+01 -1.162152034044265747e+01 2.609764333814439397e-01
1.984497886896133423e+01 -3.130187332630157471e+00 -6.147229708730606035e-02
3.745441490411758423e+01 -1.655999690294265747e+01 8.013206716626939397e-01
3.462220054864883423e+01 -1.405340510606765747e+01 7.047020193189439397e-01
3.156140953302383423e+01 -1.151043635606765747e+01 6.016746755689439397e-01
2.759607750177383423e+01 -8.579406082630157471e+00 4.712578054517564397e-01
2.314954429864883423e+01 -5.508361160755157471e+00 3.268486257642564397e-01
1.884400230646133423e+01 -2.630309402942657471e+00 1.878105398267564397e-01
2.269605308771133423e+01 -4.560973465442657471e+00 6.001640554517564397e-01
1.335749107599258423e+01 -4.233214676380157471e+00 1.845769524201756440e+00
1.028626304864883423e+01 -2.417662918567657471e+00 1.874074577912693940e+00
1.045771080255508423e+01 -2.520934402942657471e+00 2.128209709748631440e+00
2.300116783380508423e+01 -5.356139481067657471e+00 5.291801687330064397e-01
1.043885093927383423e+01 -3.210265457630157471e+00 4.167228933423814397e-01
1.389521080255508423e+01 -4.626403152942657471e+00 1.907857536897068940e+00
1.317969566583633423e+01 -4.880309402942657471e+00 2.149968742951756440e+00
1.028937584161758423e+01 -2.478331863880157471e+00 1.916127800568943940e+00
1.355097252130508423e+01 -5.106505692005157471e+00 2.450276970490818940e+00
1.053742271661758423e+01 -2.626036942005157471e+00 2.189458489045506440e+00
1.090570884943008423e+01 -2.203307449817657471e+00 2.195317864045506440e+00
1.268567711114883423e+01 -4.579406082630157471e+00 2.649938225373631440e+00
1.138770347833633423e+01 -3.132506668567657471e+00 2.514852165803318940e+00
1.076880699396133423e+01 -2.123473465442657471e+00 2.439565300568943940e+00
1.354242759943008423e+01 -4.220153152942657471e+00 2.052434563264256440e+00
1.321070152521133423e+01 -5.423156082630157471e+00 2.348378777131443940e+00
1.385053306818008423e+01 -5.107848465442657471e+00 2.375356316193943940e+00
1.048029381036758423e+01 -2.403991043567657471e+00 2.094945549592381440e+00
1.336463218927383423e+01 -5.519469559192657471e+00 2.639928459748631440e+00
1.270484215021133423e+01 -4.413146317005157471e+00 2.560536980256443940e+00
1.107874351739883423e+01 -2.759581863880157471e+00 2.404698967561131440e+00
3.283374840021133423e+01 -1.258831721544265747e+01 5.596519704908189397e-01
2.901160484552383423e+01 -9.597472488880157471e+00 4.305473562330064397e-01
7.171944200992584229e+00 -2.180480301380157471e+00 6.917345486581893965e-02
7.339058458805084229e+00 -1.640685379505157471e+00 6.560289822519393965e-02
7.757942736148834229e+00 -1.256285965442657471e+00 7.135546170175643965e-02
7.108772814273834229e+00 -2.141051590442657471e+00 3.197532888501939397e-01
7.375313341617584229e+00 -1.663634598255157471e+00 3.198143240064439397e-01
7.841744005680084229e+00 -1.307433426380157471e+00 3.270012136548814397e-01
8.394112169742584229e+00 -2.954772293567657471e+00 6.332756277173814397e-01
1.367273765802383423e+01 -4.837706863880157471e+00 1.997838615998631440e+00
1.400415855646133423e+01 -4.314757645130157471e+00 1.999684929475193940e+00
1.362708336114883423e+01 -5.535094559192657471e+00 2.302983879670506440e+00
1.338398033380508423e+01 -4.663390457630157471e+00 2.260549187287693940e+00
1.079145103693008423e+01 -2.414611160755157471e+00 2.045980095490818940e+00
1.263825279474258423e+01 -5.643248856067657471e+00 2.535039543733006440e+00
1.397168785333633423e+01 -5.748839676380157471e+00 2.616399407014256440e+00
1.316315513849258423e+01 -4.530211746692657471e+00 2.527150749787693940e+00
1.045209556818008423e+01 -2.214049637317657471e+00 2.287664055451756440e+00
1.356098228693008423e+01 -4.567321121692657471e+00 2.141912102326756440e+00
1.352857261896133423e+01 -5.287902176380157471e+00 2.455068230256443940e+00
1.126776939630508423e+01 -3.184020340442657471e+00 2.255681633576756440e+00
1.076746422052383423e+01 -2.190245926380157471e+00 2.193029045686131440e+00
1.266169029474258423e+01 -5.487975418567657471e+00 2.703832268342381440e+00
1.265863853693008423e+01 -4.750914871692657471e+00 2.676061272248631440e+00
1.313605552911758423e+01 -4.309996902942657471e+00 2.687963127717381440e+00
1.073743492364883423e+01 -2.172057449817657471e+00 2.465139031037693940e+00
1.284058433771133423e+01 -5.920348465442657471e+00 2.835546135529881440e+00
1.267639976739883423e+01 -5.039244949817657471e+00 2.786962151154881440e+00
1.286988121271133423e+01 -4.393615067005157471e+00 2.768621086701756440e+00
1.055176597833633423e+01 -2.250792801380157471e+00 2.544774651154881440e+00
2.235481798648834229e+00 2.279480636119842529e+00 4.263842068613143965e-02
2.296272814273834229e+00 1.609680831432342529e+00 3.129478689283189397e-01
1.680183947086334229e+00 1.361756026744842529e+00 5.499473806470689397e-01
1.990059435367584229e+00 1.803284347057342529e+00 5.464988943189439397e-01
1.056281334161758423e+01 -6.638488113880157471e+00 1.400655388459568940e+00
1.093268638849258423e+01 -6.093810379505157471e+00 1.698476433381443940e+00
1.140033775568008423e+01 -6.402404129505157471e+00 2.035558342561131440e+00
1.099292808771133423e+01 -6.922667801380157471e+00 2.343709587678318940e+00
1.124378257989883423e+01 -3.199279129505157471e+00 2.201345085725193940e+00
1.082886558771133423e+01 -2.199889481067657471e+00 2.141515373811131440e+00
1.098481041193008423e+01 -6.914244949817657471e+00 2.649388908967381440e+00
1.261908775568008423e+01 -5.600158035755157471e+00 2.676961540803318940e+00
1.252869468927383423e+01 -4.756163895130157471e+00 2.635411858186131440e+00
1.113031822443008423e+01 -3.126891434192657471e+00 2.490468620881443940e+00
1.075104576349258423e+01 -2.150328934192657471e+00 2.427861809358006440e+00
