1.473303294181823730e+01 -1.106475809216499329e+01 -3.818879410624447246e-01
1.589923167228698730e+01 -1.184588602185249329e+01 -3.843140885233822246e-01
1.714794993400573730e+01 -1.266229227185249329e+01 -3.870148941874447246e-01
1.796911692619323730e+01 -1.306915262341499329e+01 -3.853822037577572246e-01
1.251178050041198730e+01 -9.998473912477493286e+00 -3.041749283671322246e-01
1.343090891838073730e+01 -1.064752176403999329e+01 -3.017640396952572246e-01
1.379071116447448730e+01 -1.072808817028999329e+01 -2.972779557108822246e-01
1.425982737541198730e+01 -1.090203836560249329e+01 -2.928376480936947246e-01
1.469433665275573730e+01 -1.103240945935249329e+01 -2.881074234843197246e-01
1.593994212150573730e+01 -1.188641336560249329e+01 -2.843079850077572246e-01
1.709472727775573730e+01 -1.261883524060249329e+01 -2.795930191874447246e-01
1.771624827384948730e+01 -1.285296609997749329e+01 -2.737946793436947246e-01
1.258136057853698730e+01 -1.007110574841499329e+01 -2.210145279765072246e-01
1.327099680900573730e+01 -1.049395731091499329e+01 -2.142548844218197246e-01
1.370568919181823730e+01 -1.064971902966499329e+01 -2.080903336405697246e-01
1.423162913322448730e+01 -1.087884500622749329e+01 -2.013306900858822246e-01
1.465582346916198730e+01 -1.100018289685249329e+01 -1.947846695780697246e-01
1.601940989494323730e+01 -1.196197488903999329e+01 -1.835999771952572246e-01
1.704211497306823730e+01 -1.257586649060249329e+01 -1.733613297343197246e-01
1.758783030509948730e+01 -1.274505594372749329e+01 -1.651521012186947246e-01
1.279412913322448730e+01 -1.028741434216499329e+01 -1.350922867655697246e-01
1.348718333244323730e+01 -1.070941141247749329e+01 -1.245942398905697246e-01
1.362646555900573730e+01 -1.057672098278999329e+01 -1.194215103983822246e-01
1.418518137931823730e+01 -1.083831766247749329e+01 -1.098389908671322246e-01
1.537408518791198730e+01 -1.166741922497749329e+01 -9.331372231244472459e-02
1.601190257072448730e+01 -1.195867899060249329e+01 -8.228161782025722459e-02
1.652563548088073730e+01 -1.212103250622749329e+01 -7.236340492963222459e-02
1.747699046134948730e+01 -1.265240457653999329e+01 -5.728772133588222459e-02
1.316009593009948730e+01 -1.065704324841499329e+01 -4.437878578900722459e-02
1.323425364494323730e+01 -1.046441629528999329e+01 -4.025891274213222459e-02
1.362701487541198730e+01 -1.058050516247749329e+01 -3.089001625775722459e-02
1.409613108634948730e+01 -1.075775125622749329e+01 -2.011731117963222459e-02
1.539453196525573730e+01 -1.168988016247749329e+01 4.830808937555275406e-03
1.608435130119323730e+01 -1.202801492810249329e+01 1.979968100786777541e-02
1.694665598869323730e+01 -1.249859598278999329e+01 3.800341635943027541e-02
1.741723704338073730e+01 -1.260418680310249329e+01 4.960009604693027541e-02
1.314172434806823730e+01 -1.064190652966499329e+01 4.290148764849277541e-02
1.343951487541198730e+01 -1.066925027966499329e+01 5.175158530474277541e-02
1.362762522697448730e+01 -1.058441141247749329e+01 5.767199546099277541e-02
1.416534495353698730e+01 -1.082635477185249329e+01 7.215258628130527541e-02
1.541540598869323730e+01 -1.171282938122749329e+01 1.032652571797427754e-01
1.607934641838073730e+01 -1.202703836560249329e+01 1.210112288594302754e-01
1.624212718009948730e+01 -1.187652567028999329e+01 1.276945784688052754e-01
1.736041331291198730e+01 -1.255841043591499329e+01 1.564116194844302754e-01
1.312353587150573730e+01 -1.062701395153999329e+01 1.294951155781802754e-01
1.344171214103698730e+01 -1.067462137341499329e+01 1.400389388203677754e-01
1.378436350822448730e+01 -1.073858621716499329e+01 1.513304427266177754e-01
1.437030100822448730e+01 -1.102313211560249329e+01 1.698088362813052754e-01
1.543658518791198730e+01 -1.173590067028999329e+01 2.025084212422427754e-01
1.619073557853698730e+01 -1.213177469372749329e+01 2.261595442891177754e-01
1.625982737541198730e+01 -1.189581277966499329e+01 2.296080306172427754e-01
1.730468821525573730e+01 -1.251361063122749329e+01 2.620329573750552754e-01
1.330737376213073730e+01 -1.081451395153999329e+01 2.235502913594302754e-01
1.344384837150573730e+01 -1.068011453747749329e+01 2.283568099141177754e-01
1.405084300041198730e+01 -1.099847391247749329e+01 2.504210188984927754e-01
1.475146555900573730e+01 -1.138616922497749329e+01 2.758574202656802754e-01
1.500323557853698730e+01 -1.133856180310249329e+01 2.853026106953677754e-01
1.613897776603698730e+01 -1.208843973278999329e+01 3.263334944844302754e-01
1.679467844963073730e+01 -1.237481668591499329e+01 3.502592757344302754e-01
1.724896311759948730e+01 -1.246893289685249329e+01 3.675780013203677754e-01
1.331366038322448730e+01 -1.082415750622749329e+01 3.120665267109927754e-01
1.349499583244323730e+01 -1.073370340466499329e+01 3.192839339375552754e-01
1.421447825431823730e+01 -1.115948465466499329e+01 3.491148665547427754e-01
1.466223216056823730e+01 -1.130548074841499329e+01 3.675017073750552754e-01
1.552313303947448730e+01 -1.182318094372749329e+01 4.032225325703677754e-01
1.608728098869323730e+01 -1.204510477185249329e+01 4.264464095234927754e-01
1.659930491447448730e+01 -1.220477274060249329e+01 4.474577620625552754e-01
1.719390940666198730e+01 -1.242462137341499329e+01 4.719176009297427754e-01
1.329644846916198730e+01 -1.081024149060249329e+01 4.000181868672427754e-01
1.369543528556823730e+01 -1.093402078747749329e+01 4.176573470234927754e-01
1.432965159416198730e+01 -1.127386453747749329e+01 4.470915511250552754e-01
1.462310862541198730e+01 -1.127191141247749329e+01 4.599699690938052754e-01
1.557232737541198730e+01 -1.187225320935249329e+01 5.044645980000552754e-01
1.603552317619323730e+01 -1.200176981091499329e+01 5.253996565938052754e-01
1.642193675041198730e+01 -1.205072000622749329e+01 5.425963118672427754e-01
1.718371653556823730e+01 -1.241949442028999329e+01 5.783476546406802754e-01
1.325262522697448730e+01 -1.076971414685249329e+01 4.858488753438052754e-01
1.420031809806823730e+01 -1.143365457653999329e+01 5.358519271016177754e-01
1.457891917228698730e+01 -1.151751688122749329e+01 5.544066146016177754e-01
1.467596507072448730e+01 -1.132537820935249329e+01 5.574888899922427754e-01
1.562194895744323730e+01 -1.192181375622749329e+01 6.068968489766177754e-01
1.598370432853698730e+01 -1.195843484997749329e+01 6.242766097188052754e-01
1.633429026603698730e+01 -1.197637918591499329e+01 6.410002425313052754e-01
1.724725413322448730e+01 -1.247857645153999329e+01 6.880888655781802754e-01
1.320495676994323730e+01 -1.072515848278999329e+01 5.713438704609927754e-01
1.401397776603698730e+01 -1.125396707653999329e+01 6.181425765156802754e-01
1.435949778556823730e+01 -1.130950906872749329e+01 6.357512190938052754e-01
1.486065745353698730e+01 -1.150323465466499329e+01 6.632475569844302754e-01
1.562677073478698730e+01 -1.192974832653999329e+01 7.067198470234927754e-01
1.593249583244323730e+01 -1.191546609997749329e+01 7.220396712422427754e-01
1.624749827384948730e+01 -1.190277078747749329e+01 7.383818343281802754e-01
1.715588450431823730e+01 -1.240264871716499329e+01 7.898955062031802754e-01
1.315808176994323730e+01 -1.068145731091499329e+01 6.563048079609927754e-01
1.339288401603698730e+01 -1.064642313122749329e+01 6.680235579609927754e-01
1.417083811759948730e+01 -1.113116434216499329e+01 7.168822005391177754e-01
1.455145335197448730e+01 -1.121453836560249329e+01 7.386107161641177754e-01
1.556622385978698730e+01 -1.187725809216499329e+01 8.027739241719302754e-01
1.586865305900573730e+01 -1.186114481091499329e+01 8.188719466328677754e-01
1.616729807853698730e+01 -1.183502176403999329e+01 8.346342757344302754e-01
1.713043284416198730e+01 -1.238421609997749329e+01 8.949675276875552754e-01
7.353211164474487305e+00 -3.824523717164993286e+00 -6.383576676249447246e-01
7.381287336349487305e+00 -3.716247349977493286e+00 -6.337647721171322246e-01
7.425110578536987305e+00 -3.622253209352493286e+00 -6.302247330546322246e-01
7.470032453536987305e+00 -3.529357701539993286e+00 -6.267609879374447246e-01
7.514649152755737305e+00 -3.437316685914993286e+00 -6.233125016093197246e-01
7.559021711349487305e+00 -3.345641881227493286e+00 -6.198792740702572246e-01
7.603394269943237305e+00 -3.254089146852493286e+00 -6.164460465311947246e-01
7.644226789474487305e+00 -3.160949498414993286e+00 -6.131501480936947246e-01
8.191834211349487305e+00 -4.554382115602493286e+00 -6.281190201640072246e-01
8.222168684005737305e+00 -4.433532506227493286e+00 -6.234956070780697246e-01
8.258118391036987305e+00 -4.318664342164993286e+00 -6.189027115702572246e-01
8.288086652755737305e+00 -4.199523717164993286e+00 -6.143403336405697246e-01
8.317627668380737305e+00 -4.081847935914993286e+00 -6.098542496561947246e-01
8.346924543380737305e+00 -3.965270787477493286e+00 -6.053986832499447246e-01
8.370301008224487305e+00 -3.845031529664993286e+00 -6.010194107890072246e-01
8.399048566818237305e+00 -3.730651646852493286e+00 -5.966553971171322246e-01
9.298767805099487305e+00 -5.517638951539993286e+00 -6.176362320780697246e-01
9.349304914474487305e+00 -5.394836217164993286e+00 -6.132722184061947246e-01
9.399597883224487305e+00 -5.272643834352493286e+00 -6.089387223124447246e-01
9.449707746505737305e+00 -5.150817662477493286e+00 -6.046204850077572246e-01
9.499390363693237305e+00 -5.030090123414993286e+00 -6.003480240702572246e-01
9.548706769943237305e+00 -4.910095006227493286e+00 -5.960908219218197246e-01
9.597962141036987305e+00 -4.790466099977493286e+00 -5.918488785624447246e-01
9.639466047286987305e+00 -4.666320592164993286e+00 -5.874085709452572246e-01
9.808716535568237305e+00 -5.962707310914993286e+00 -5.753999039530697246e-01
1.060803294181823730e+01 -6.468566685914993286e+00 -5.934357926249447246e-01
1.065197825431823730e+01 -6.319762974977493286e+00 -5.883393570780697246e-01
1.069567942619323730e+01 -6.171569615602493286e+00 -5.832886978983822246e-01
1.073889231681823730e+01 -6.025085240602493286e+00 -5.782838150858822246e-01
1.078173899650573730e+01 -5.879821568727493286e+00 -5.733247086405697246e-01
1.082434153556823730e+01 -5.735290318727493286e+00 -5.683808609843197246e-01
1.085284495353698730e+01 -5.582214146852493286e+00 -5.634827896952572246e-01
9.859741926193237305e+00 -6.009216099977493286e+00 -5.151124283671322246e-01
1.071478343009948730e+01 -6.561828404664993286e+00 -5.305085465311947246e-01
1.171655344963073730e+01 -7.210510045289993286e+00 -5.485902115702572246e-01
1.236169505119323730e+01 -7.536315709352493286e+00 -5.573334977030697246e-01
1.236779856681823730e+01 -7.332580357789993286e+00 -5.508790299296322246e-01
1.237378001213073730e+01 -7.132018834352493286e+00 -5.445313736796322246e-01
1.237970042228698730e+01 -6.933654576539993286e+00 -5.382447525858822246e-01
1.238549876213073730e+01 -6.738952428102493286e+00 -5.320802018046322246e-01
9.911072492599487305e+00 -6.055969029664993286e+00 -4.545350357890072246e-01
1.077508616447448730e+01 -6.615417271852493286e+00 -4.650788590311947246e-01
1.176422190666198730e+01 -7.252746373414993286e+00 -4.774384781718197246e-01
1.300891184806823730e+01 -8.068298131227493286e+00 -4.933839127421322246e-01
1.456762766838073730e+01 -9.098449498414993286e+00 -5.136018082499447246e-01
1.449694895744323730e+01 -8.801818639039993286e+00 -5.055146500468197246e-01
1.448468089103698730e+01 -8.555480748414993286e+00 -4.985108658671322246e-01
1.450195384025573730e+01 -8.336364537477493286e+00 -4.925751969218197246e-01
1.800042796134948730e+01 -1.309136942028999329e+01 -4.965577408671322246e-01
1.187255930900573730e+01 -7.552917271852493286e+00 -4.121613785624447246e-01
1.209954905509948730e+01 -7.535217076539993286e+00 -4.095368668436947246e-01
1.310186839103698730e+01 -8.147033482789993286e+00 -4.157471939921322246e-01
1.471063303947448730e+01 -9.216003209352493286e+00 -4.279694840311947246e-01
1.737402415275573730e+01 -1.106475809216499329e+01 -4.502320572733822246e-01
1.818353343009948730e+01 -1.140460184216499329e+01 -4.512543961405697246e-01
1.765936350822448730e+01 -1.071905496716499329e+01 -4.385743424296322246e-01
1.797332835197448730e+01 -1.307171609997749329e+01 -3.853974625468197246e-01
1.861529612541198730e+01 -1.330242899060249329e+01 -3.822541519999447246e-01
1.896496653556823730e+01 -1.327239969372749329e+01 -3.763642594218197246e-01
1.933850169181823730e+01 -1.325421121716499329e+01 -3.710389420390072246e-01
1.582989573478698730e+01 -1.011663797497749329e+01 -3.452515885233822246e-01
1.775000071525573730e+01 -1.136358621716499329e+01 -3.485932633280697246e-01
2.569714426994323730e+01 -1.719134500622749329e+01 -3.784852311015072246e-01
2.503497385978698730e+01 -1.628350809216499329e+01 -3.663544937968197246e-01
1.771862864494323730e+01 -1.285406473278999329e+01 -2.737641617655697246e-01
1.864202952384948730e+01 -1.332916238903999329e+01 -2.678590103983822246e-01
1.899530100822448730e+01 -1.330157449841499329e+01 -2.614045426249447246e-01
2.774517893791198730e+01 -2.014031961560249329e+01 -2.521882340311947246e-01
2.651123118400573730e+01 -1.868792703747749329e+01 -2.437196061015072246e-01
3.294964671134948730e+01 -2.331292703747749329e+01 -2.287812516093197246e-01
3.750415110588073730e+01 -2.628643777966499329e+01 -2.122407242655697246e-01
5.423315501213073730e+01 -3.830841043591499329e+01 -1.735291764140072246e-01
1.759021067619323730e+01 -1.274603250622749329e+01 -1.651215836405697246e-01
1.866876292228698730e+01 -1.335589578747749329e+01 -1.537232682108822246e-01
1.902575755119323730e+01 -1.333099344372749329e+01 -1.460633561015072246e-01
3.440924143791198730e+01 -2.503021219372749329e+01 -3.476574867963222459e-02
3.275933909416198730e+01 -2.316961649060249329e+01 -3.632214516400722459e-02
3.354724192619323730e+01 -2.324639871716499329e+01 -2.165844887494472459e-02
3.337634348869323730e+01 -2.258526590466499329e+01 -1.380017250775722459e-02
1.747888255119323730e+01 -1.265301492810249329e+01 -5.724194496869472459e-02
1.788519358634948730e+01 -1.269146707653999329e+01 -4.810193032025722459e-02
1.905645823478698730e+01 -1.336065652966499329e+01 -2.968457192181972459e-02
5.967639231681823730e+01 -4.630523660778999329e+01 4.701323226094302754e-01
3.427948069572448730e+01 -2.493292215466499329e+01 1.686491683125552754e-01
3.270971751213073730e+01 -2.313702371716499329e+01 1.567778304219302754e-01
3.286023020744323730e+01 -2.272369363903999329e+01 1.662535384297427754e-01
3.312988352775573730e+01 -2.240557840466499329e+01 1.772093489766177754e-01
1.741912913322448730e+01 -1.260479715466499329e+01 4.964587241411777541e-02
1.777844309806823730e+01 -1.260418680310249329e+01 5.950305014849277541e-02
1.913696360588073730e+01 -1.343194559216499329e+01 8.735034018755527541e-02
3.432800364494323730e+01 -2.497857645153999329e+01 3.727659896016177754e-01
3.271551585197448730e+01 -2.314801004528999329e+01 3.493437483906802754e-01
3.285156321525573730e+01 -2.272332742810249329e+01 3.578886702656802754e-01
3.312329173088073730e+01 -2.240679910778999329e+01 3.689360335469302754e-01
1.736224436759948730e+01 -1.255902078747749329e+01 1.564726546406802754e-01
1.771679759025573730e+01 -1.255548074841499329e+01 1.674895003438052754e-01
1.922180247306823730e+01 -1.350677469372749329e+01 2.054838851094302754e-01
3.464807200431823730e+01 -2.524237039685249329e+01 5.840697005391177754e-01
3.276294016838073730e+01 -2.319158914685249329e+01 5.430235579609927754e-01
3.287335276603698730e+01 -2.274639871716499329e+01 5.512480452656802754e-01
3.317327952384948730e+01 -2.245074442028999329e+01 5.630430892109927754e-01
1.730645823478698730e+01 -1.251422098278999329e+01 2.620939925313052754e-01
1.765594553947448730e+01 -1.250726297497749329e+01 2.742094710469302754e-01
1.947570872306823730e+01 -1.372320535778999329e+01 3.303465560078677754e-01
3.306713938713073730e+01 -2.343743875622749329e+01 7.461027815938052754e-01
3.346734690666198730e+01 -2.321051004528999329e+01 7.611937239766177754e-01
3.321301341056823730e+01 -2.248687723278999329e+01 7.564329817891177754e-01
1.725073313713073730e+01 -1.246942117810249329e+01 3.676390364766177754e-01
1.759545969963073730e+01 -1.245928934216499329e+01 3.802427962422427754e-01
1.886572337150573730e+01 -1.321685770153999329e+01 4.266447737813052754e-01
2.300378489494323730e+01 -1.628668192028999329e+01 5.762114241719302754e-01
3.385772776603698730e+01 -2.406610086560249329e+01 9.692778304219302754e-01
3.482751536369323730e+01 -2.426556375622749329e+01 1.005715818703180275e+00
1.719567942619323730e+01 -1.242510965466499329e+01 4.719938948750552754e-01
1.753595042228698730e+01 -1.241217020153999329e+01 4.861845687031802754e-01
1.885064768791198730e+01 -1.320819070935249329e+01 5.412077620625552754e-01
2.277948069572448730e+01 -1.610748270153999329e+01 7.057585433125552754e-01
1.718554759025573730e+01 -1.242010477185249329e+01 5.784239485859927754e-01
1.754339671134948730e+01 -1.242230203747749329e+01 5.940642073750552754e-01
1.815936350822448730e+01 -1.263336160778999329e+01 6.226134017109927754e-01
2.252838206291198730e+01 -1.590618875622749329e+01 8.306364730000552754e-01
1.724914622306823730e+01 -1.247918680310249329e+01 6.881956771016177754e-01
1.765716624259948730e+01 -1.252325418591499329e+01 7.083983138203677754e-01
1.814721751213073730e+01 -1.262701395153999329e+01 7.329497054219302754e-01
2.234466624259948730e+01 -1.575994852185249329e+01 9.569182112813052754e-01
1.716522288322448730e+01 -1.240972879528999329e+01 7.904448226094302754e-01
1.776586985588073730e+01 -1.261993387341499329e+01 8.238157942891177754e-01
1.823083567619323730e+01 -1.270086649060249329e+01 8.483366683125552754e-01
2.235797190666198730e+01 -1.577545145153999329e+01 1.092111082375055275e+00
1.713440012931823730e+01 -1.238653543591499329e+01 8.952116683125552754e-01
1.786566233634948730e+01 -1.270892313122749329e+01 9.394163802266177754e-01
1.878088450431823730e+01 -1.316546609997749329e+01 9.960722640156802754e-01
2.240161204338073730e+01 -1.581585672497749329e+01 1.230203123390680275e+00
7.644409894943237305e+00 -3.160583287477493286e+00 -6.131348893046322246e-01
7.687439680099487305e+00 -3.069640904664993286e+00 -6.097779557108822246e-01
7.727234601974487305e+00 -2.976745396852493286e+00 -6.065430924296322246e-01
7.767029523849487305e+00 -2.883849889039993286e+00 -6.033082291483822246e-01
7.806458234786987305e+00 -2.791808873414993286e+00 -6.000886246561947246e-01
7.848023176193237305e+00 -2.701476842164993286e+00 -5.969758316874447246e-01
7.910279035568237305e+00 -2.625060826539993286e+00 -5.947175309061947246e-01
7.968262434005737305e+00 -2.545959264039993286e+00 -5.925355240702572246e-01
8.399048566818237305e+00 -3.730163365602493286e+00 -5.966248795390072246e-01
8.447266340255737305e+00 -3.631286412477493286e+00 -5.933442398905697246e-01
8.505371809005737305e+00 -3.539977818727493286e+00 -5.901704117655697246e-01
8.555420637130737305e+00 -3.442687779664993286e+00 -5.869660660624447246e-01
8.571717023849487305e+00 -3.322814732789993286e+00 -5.825562760233822246e-01
8.587830305099487305e+00 -3.204162389039993286e+00 -5.781922623515072246e-01
8.599549055099487305e+00 -3.083434849977493286e+00 -5.739655777811947246e-01
8.615357160568237305e+00 -2.967223912477493286e+00 -5.696931168436947246e-01
9.639282941818237305e+00 -4.665710240602493286e+00 -5.873780533671322246e-01
9.658081769943237305e+00 -4.525939732789993286e+00 -5.825410172343197246e-01
9.676697492599487305e+00 -4.387634068727493286e+00 -5.777497574686947246e-01
9.695191144943237305e+00 -4.250304967164993286e+00 -5.729890152811947246e-01
9.713379621505737305e+00 -4.114806920289993286e+00 -5.683045670390072246e-01
9.731446027755737305e+00 -3.980651646852493286e+00 -5.636506363749447246e-01
9.749390363693237305e+00 -3.847472935914993286e+00 -5.590424820780697246e-01
9.767029523849487305e+00 -3.716125279664993286e+00 -5.544953629374447246e-01
1.085272288322448730e+01 -5.581481724977493286e+00 -5.634522721171322246e-01
1.088971018791198730e+01 -5.436340123414993286e+00 -5.584321305155697246e-01
1.092034983634948730e+01 -5.287902623414993286e+00 -5.536408707499447246e-01
1.095074534416198730e+01 -5.140197545289993286e+00 -5.488648697733822246e-01
1.098083567619323730e+01 -4.994201451539993286e+00 -5.441346451640072246e-01
1.101068186759948730e+01 -4.849548131227493286e+00 -5.394654557108822246e-01
1.104034495353698730e+01 -4.705627232789993286e+00 -5.348115250468197246e-01
1.106353831291198730e+01 -4.559509068727493286e+00 -5.304017350077572246e-01
1.238507151603698730e+01 -6.737975865602493286e+00 -5.320496842265072246e-01
1.238324046134948730e+01 -6.540466099977493286e+00 -5.260834977030697246e-01
1.238147044181823730e+01 -6.345763951539993286e+00 -5.202088639140072246e-01
1.237970042228698730e+01 -6.153136998414993286e+00 -5.143952652811947246e-01
1.237793040275573730e+01 -5.963928014039993286e+00 -5.086884781718197246e-01
1.237622141838073730e+01 -5.777404576539993286e+00 -5.030579850077572246e-01
1.239630198478698730e+01 -5.607360631227493286e+00 -4.978852555155697246e-01
1.242810130119323730e+01 -5.447326451539993286e+00 -4.930177018046322246e-01
1.450177073478698730e+01 -8.335387974977493286e+00 -4.925446793436947246e-01
1.453112864494323730e+01 -8.127990514039993286e+00 -4.862275406718197246e-01
1.451495432853698730e+01 -7.890075474977493286e+00 -4.797578141093197246e-01
1.446936106681823730e+01 -7.634338170289993286e+00 -4.729523941874447246e-01
1.449743723869323730e+01 -7.434631139039993286e+00 -4.673066422343197246e-01
1.452526926994323730e+01 -7.237121373414993286e+00 -4.617219254374447246e-01
1.455291819572448730e+01 -7.040954381227493286e+00 -4.561677262186947246e-01
1.456811594963073730e+01 -6.839416295289993286e+00 -4.509644791483822246e-01
1.765777659416198730e+01 -1.071685770153999329e+01 -4.385285660624447246e-01
1.754669260978698730e+01 -1.035699442028999329e+01 -4.305482193827572246e-01
1.748608469963073730e+01 -1.004083231091499329e+01 -4.232087418436947246e-01
1.742645335197448730e+01 -9.730163365602493286e+00 -4.159913346171322246e-01
1.736804270744323730e+01 -9.426696568727493286e+00 -4.089570328593197246e-01
1.732946848869323730e+01 -9.142028599977493286e+00 -4.021973893046322246e-01
1.734295725822448730e+01 -8.895690709352493286e+00 -3.959412857890072246e-01
1.735620188713073730e+01 -8.653259068727493286e+00 -3.897767350077572246e-01
2.502978587150573730e+01 -1.627825906872749329e+01 -3.663087174296322246e-01
2.441510081291198730e+01 -1.543206766247749329e+01 -3.552155777811947246e-01
2.417254710197448730e+01 -1.487945535778999329e+01 -3.452210709452572246e-01
2.375140452384948730e+01 -1.421173074841499329e+01 -3.356843277811947246e-01
2.343450999259948730e+01 -1.363507059216499329e+01 -3.268494889140072246e-01
2.318969798088073730e+01 -1.312152078747749329e+01 -3.185029312968197246e-01
2.278411936759948730e+01 -1.251202371716499329e+01 -3.107514664530697246e-01
2.258850169181823730e+01 -1.205621317028999329e+01 -3.030610367655697246e-01
5.423754954338073730e+01 -3.830877664685249329e+01 -1.734681412577572246e-01
5.453680491447448730e+01 -3.768511942028999329e+01 -1.563020035624447246e-01
4.927703928947448730e+01 -3.304302957653999329e+01 -1.514649674296322246e-01
5.142053294181823730e+01 -3.381207254528999329e+01 -1.313844010233822246e-01
5.188330149650573730e+01 -3.336505106091499329e+01 -1.149964615702572246e-01
5.140869212150573730e+01 -3.227886942028999329e+01 -1.014466568827572246e-01
5.414679026603698730e+01 -3.334832742810249329e+01 -7.750561684369472459e-02
5.379364085197448730e+01 -3.234332254528999329e+01 -6.355908364056972459e-02
3.337780833244323730e+01 -2.258453348278999329e+01 -1.375439614056972459e-02
3.401330637931823730e+01 -2.253228738903999329e+01 -5.200356244472459366e-05
4.929376292228698730e+01 -3.306402567028999329e+01 1.290373519063052754e-01
5.557470774650573730e+01 -3.676409891247749329e+01 1.928038313984927754e-01
5.242736887931823730e+01 -3.375140359997749329e+01 1.805662825703677754e-01
5.171160960197448730e+01 -3.249334695935249329e+01 1.875242903828677754e-01
5.300354075431823730e+01 -3.259783914685249329e+01 2.118162825703677754e-01
5.986041331291198730e+01 -3.629656961560249329e+01 2.872099593281802754e-01
3.313116526603698730e+01 -2.240472391247749329e+01 1.772551253438052754e-01
3.348663401603698730e+01 -2.214935281872749329e+01 1.894316390156802754e-01
4.924346995353698730e+01 -3.303655984997749329e+01 4.103941634297427754e-01
4.786547923088073730e+01 -3.131121805310249329e+01 4.021696761250552754e-01
5.649096751213073730e+01 -3.657965067028999329e+01 5.330595687031802754e-01
5.234442210197448730e+01 -3.293194559216499329e+01 4.861693099141177754e-01
5.282092356681823730e+01 -3.248541238903999329e+01 5.039915755391177754e-01
5.411718821525573730e+01 -3.257147195935249329e+01 5.337919905781802754e-01
3.312445139884948730e+01 -2.240582254528999329e+01 3.689665511250552754e-01
3.346325755119323730e+01 -2.213824442028999329e+01 3.814940169453677754e-01
5.435644602775573730e+01 -3.674664285778999329e+01 7.889342024922427754e-01
4.784741282463073730e+01 -3.130694559216499329e+01 6.724333480000552754e-01
4.642382884025573730e+01 -2.960382059216499329e+01 6.529783919453677754e-01
4.506579661369323730e+01 -2.799688699841499329e+01 6.342100813984927754e-01
4.386254954338073730e+01 -2.653924539685249329e+01 6.179747298359927754e-01
4.272100901603698730e+01 -2.516729715466499329e+01 6.024412825703677754e-01
3.317456126213073730e+01 -2.244988992810249329e+01 5.630736067891177754e-01
3.350390696525573730e+01 -2.217449930310249329e+01 5.759520247578677754e-01
5.515551829338073730e+01 -3.733502176403999329e+01 1.118142576515680275e+00
5.457421946525573730e+01 -3.608428934216499329e+01 1.111245603859430275e+00
5.558691477775573730e+01 -3.597186258435249329e+01 1.144128294289117775e+00
5.264862132072448730e+01 -3.315655496716499329e+01 1.077310056984430275e+00
5.285394358634948730e+01 -3.252520731091499329e+01 1.091073484718805275e+00
5.316723704338073730e+01 -3.197137430310249329e+01 1.105981321632867775e+00
3.321429514884948730e+01 -2.248614481091499329e+01 7.564787581563052754e-01
3.485199046134948730e+01 -2.317755106091499329e+01 8.097166731953677754e-01
5.584399485588073730e+01 -3.784356668591499329e+01 1.454797239601617775e+00
5.423632884025573730e+01 -3.585443094372749329e+01 1.410989256203180275e+00
5.451464915275573730e+01 -3.523712137341499329e+01 1.424783201515680275e+00
5.508538889884948730e+01 -3.482159402966499329e+01 1.447579832375055275e+00
5.364489817619323730e+01 -3.306011942028999329e+01 1.408196897804742775e+00
5.377026438713073730e+01 -3.237261942028999329e+01 1.417046995460992775e+00
3.385809397697448730e+01 -2.244879129528999329e+01 9.742064192891177754e-01
5.493988108634948730e+01 -3.719866922497749329e+01 1.739953489601617775e+00
5.595544505119323730e+01 -3.708343484997749329e+01 1.780007810890680275e+00
5.439263987541198730e+01 -3.516180399060249329e+01 1.726403684914117775e+00
5.556390452384948730e+01 -3.515618875622749329e+01 1.772103758156305275e+00
5.611358714103698730e+01 -3.390692117810249329e+01 1.799966306984430275e+00
5.426562571525573730e+01 -3.755462625622749329e+01 2.025262327492242775e+00
5.459161448478698730e+01 -3.695635965466499329e+01 2.039910764992242775e+00
5.626794505119323730e+01 -3.731512430310249329e+01 2.111184568703180275e+00
5.381689524650573730e+01 -3.477142313122749329e+01 2.009332151710992775e+00
5.476318430900573730e+01 -3.462139871716499329e+01 2.049996824562555275e+00
5.608239817619323730e+01 -3.470013406872749329e+01 2.106332273781305275e+00
5.612121653556823730e+01 -3.392120340466499329e+01 2.108895750343805275e+00
5.417352366447448730e+01 -3.749639871716499329e+01 2.332192869484430275e+00
5.452362132072448730e+01 -3.691680887341499329e+01 2.347650022804742775e+00
5.425256419181823730e+01 -3.589483621716499329e+01 2.333535642921930275e+00
5.447155833244323730e+01 -3.523565652966499329e+01 2.342767210304742775e+00
5.575012278556823730e+01 -3.530194070935249329e+01 2.402368040382867775e+00
5.681103587150573730e+01 -3.519451883435249329e+01 2.451577635109430275e+00
5.482635569572448730e+01 -3.714617899060249329e+01 2.676095457375055275e+00
5.645837473869323730e+01 -3.747027567028999329e+01 2.759545774757867775e+00
5.424682688713073730e+01 -3.428887918591499329e+01 2.635217161476617775e+00
5.675280833244323730e+01 -3.516546609997749329e+01 2.764901609718805275e+00
5.520129466056823730e+01 -3.334051492810249329e+01 2.679345579445367775e+00
5.621612620353698730e+01 -3.816387918591499329e+01 3.070504637062555275e+00
5.655474925041198730e+01 -3.754864481091499329e+01 3.084664793312555275e+00
5.657721018791198730e+01 -3.671844461560249329e+01 3.080285520851617775e+00
5.556353831291198730e+01 -3.438299539685249329e+01 3.011392088234430275e+00
5.519311594963073730e+01 -3.334429910778999329e+01 2.984338255226617775e+00
5.620166087150573730e+01 -3.816351297497749329e+01 3.391702146828180275e+00
5.444311594963073730e+01 -3.524444559216499329e+01 3.262567014992242775e+00
5.537640452384948730e+01 -3.507635477185249329e+01 3.314980955421930275e+00
5.683422923088073730e+01 -3.523883035778999329e+01 3.400842161476617775e+00
5.501825022697448730e+01 -3.323956277966499329e+01 3.278634519875055275e+00
7.968628644943237305e+00 -2.545837193727493286e+00 -5.925355240702572246e-01
8.018616437911987305e+00 -2.461608678102493286e+00 -5.898499771952572246e-01
8.062622785568237305e+00 -2.373595982789993286e+00 -5.871644303202572246e-01
8.106629133224487305e+00 -2.285583287477493286e+00 -5.844636246561947246e-01
8.150452375411987305e+00 -2.197814732789993286e+00 -5.817933365702572246e-01
8.194214582443237305e+00 -2.110290318727493286e+00 -5.791230484843197246e-01
8.238037824630737305e+00 -2.022521764039993286e+00 -5.764527603983822246e-01
8.275574445724487305e+00 -1.931823521852493286e+00 -5.737977311015072246e-01
8.615418195724487305e+00 -2.966857701539993286e+00 -5.696931168436947246e-01
8.626343488693237305e+00 -2.848693639039993286e+00 -5.655732437968197246e-01
8.641358137130737305e+00 -2.734313756227493286e+00 -5.613923355936947246e-01
8.693909406661987305e+00 -2.643371373414993286e+00 -5.587373062968197246e-01
8.757630109786987305e+00 -2.559509068727493286e+00 -5.564637467265072246e-01
8.825989484786987305e+00 -2.478088170289993286e+00 -5.543275162577572246e-01
8.910767316818237305e+00 -2.405212193727493286e+00 -5.529389664530697246e-01
9.000305891036987305e+00 -2.334533482789993286e+00 -5.514283463358822246e-01
9.767273664474487305e+00 -3.715881139039993286e+00 -5.544801041483822246e-01
9.799683332443237305e+00 -3.595153599977493286e+00 -5.506806656718197246e-01
9.832886457443237305e+00 -3.475768834352493286e+00 -5.469422623515072246e-01
9.866028547286987305e+00 -3.356628209352493286e+00 -5.432038590311947246e-01
9.898865461349487305e+00 -3.238464146852493286e+00 -5.394959732890072246e-01
9.931519269943237305e+00 -3.121032506227493286e+00 -5.358186051249447246e-01
9.964112043380737305e+00 -3.003845006227493286e+00 -5.321412369608822246e-01
1.000146555900573730e+01 -2.890563756227493286e+00 -5.286164566874447246e-01
1.106347727775573730e+01 -4.558898717164993286e+00 -5.303712174296322246e-01
1.109350657463073730e+01 -4.418395787477493286e+00 -5.257935807108822246e-01
1.111724925041198730e+01 -4.275207310914993286e+00 -5.214143082499447246e-01
1.114093089103698730e+01 -4.132629185914993286e+00 -5.170655533671322246e-01
1.118713450431823730e+01 -4.005187779664993286e+00 -5.132813736796322246e-01
1.126275706291198730e+01 -3.895446568727493286e+00 -5.101380631327572246e-01
1.133874583244323730e+01 -3.785095006227493286e+00 -5.069794937968197246e-01
1.142608714103698730e+01 -3.681457310914993286e+00 -5.043854996561947246e-01
1.242810130119323730e+01 -5.446716099977493286e+00 -4.930024430155697246e-01
1.245318675041198730e+01 -5.283996373414993286e+00 -4.883179947733822246e-01
1.247808909416198730e+01 -5.122497349977493286e+00 -4.836640641093197246e-01
1.250286936759948730e+01 -4.961852818727493286e+00 -4.790406510233822246e-01
1.252734446525573730e+01 -4.803039342164993286e+00 -4.744782730936947246e-01
1.259106516838073730e+01 -4.668395787477493286e+00 -4.705872818827572246e-01
1.271106028556823730e+01 -4.565490514039993286e+00 -4.675813004374447246e-01
1.284228587150573730e+01 -4.468200474977493286e+00 -4.647279068827572246e-01
1.456811594963073730e+01 -6.838683873414993286e+00 -4.509492203593197246e-01
1.461181712150573730e+01 -6.657653599977493286e+00 -4.455628678202572246e-01
1.466821360588073730e+01 -6.485778599977493286e+00 -4.407868668436947246e-01
1.472448801994323730e+01 -6.314147740602493286e+00 -4.360261246561947246e-01
1.478033518791198730e+01 -6.143737584352493286e+00 -4.312959000468197246e-01
1.483593821525573730e+01 -5.974181920289993286e+00 -4.265809342265072246e-01
1.489148020744323730e+01 -5.804870396852493286e+00 -4.218812271952572246e-01
1.508776926994323730e+01 -5.715148717164993286e+00 -4.190888687968197246e-01
1.735601878166198730e+01 -8.652282506227493286e+00 -3.897614762186947246e-01
1.736303782463073730e+01 -8.408630162477493286e+00 -3.838563248515072246e-01
1.741668772697448730e+01 -8.196838170289993286e+00 -3.783326432108822246e-01
1.754058909416198730e+01 -8.028381139039993286e+00 -3.732667252421322246e-01
1.766430735588073730e+01 -7.860168248414993286e+00 -3.682160660624447246e-01
1.780194163322448730e+01 -7.699645787477493286e+00 -3.632264420390072246e-01
1.865869212150573730e+01 -7.945617467164993286e+00 -3.620362564921322246e-01
1.897204661369323730e+01 -7.871520787477493286e+00 -3.576722428202572246e-01
2.258380198478698730e+01 -1.205206277966499329e+01 -3.030305191874447246e-01
2.226391673088073730e+01 -1.152703836560249329e+01 -2.955842301249447246e-01
2.227380442619323730e+01 -1.122003152966499329e+01 -2.881684586405697246e-01
2.284368968009948730e+01 -1.125579813122749329e+01 -2.819733902811947246e-01
2.415924143791198730e+01 -1.172418192028999329e+01 -2.760224625468197246e-01
2.487811350822448730e+01 -1.181439188122749329e+01 -2.691712662577572246e-01
2.535742259025573730e+01 -1.175213602185249329e+01 -2.626862809061947246e-01
2.665802073478698730e+01 -1.213812234997749329e+01 -2.551636978983822246e-01
5.379522776603698730e+01 -3.234173563122749329e+01 -6.349804848431972459e-02
4.185498118400573730e+01 -2.398846414685249329e+01 -9.567883461713222459e-02
5.460003733634948730e+01 -3.133026102185249329e+01 -3.104260414838222459e-02
5.211682200431823730e+01 -2.906390359997749329e+01 -2.754834145306972459e-02
5.201489329338073730e+01 -2.829254129528999329e+01 -1.436474770306972459e-02
5.986627268791198730e+01 -3.629742410778999329e+01 2.873167708516177754e-01
4.185070872306823730e+01 -2.399249246716499329e+01 1.331419661641177754e-01
5.504516673088073730e+01 -3.161590555310249329e+01 2.694945052266177754e-01
5.247949290275573730e+01 -2.929278543591499329e+01 2.571654036641177754e-01
5.343182444572448730e+01 -2.914349344372749329e+01 2.788176253438052754e-01
5.411700510978698730e+01 -3.256878641247749329e+01 5.338377669453677754e-01
4.184643626213073730e+01 -2.399664285778999329e+01 3.631834700703677754e-01
5.811157298088073730e+01 -3.353301981091499329e+01 6.158690169453677754e-01
4.271240305900573730e+01 -2.515960672497749329e+01 6.023039534688052754e-01
4.162457346916198730e+01 -2.386224344372749329e+01 5.876249983906802754e-01
4.055059885978698730e+01 -2.261114481091499329e+01 5.727781966328677754e-01
3.946881175041198730e+01 -2.138983133435249329e+01 5.573363021016177754e-01
3.840167307853698730e+01 -2.021527078747749329e+01 5.417570784688052754e-01
3.738037180900573730e+01 -1.910235574841499329e+01 5.266966536641177754e-01
3.637640452384948730e+01 -1.803082254528999329e+01 5.116209700703677754e-01
3.540667796134948730e+01 -1.701226785778999329e+01 4.968657210469302754e-01
5.316552805900573730e+01 -3.196759012341499329e+01 1.105950804054742775e+00
6.002673411369323730e+01 -3.558270242810249329e+01 1.289681883156305275e+00
3.652703928947448730e+01 -1.812200906872749329e+01 7.100004866719302754e-01
3.553863596916198730e+01 -1.709075906872749329e+01 6.885008528828677754e-01
5.376928782463073730e+01 -3.236932352185249329e+01 1.417031736671930275e+00
5.963702464103698730e+01 -3.534429910778999329e+01 1.605401487648492775e+00
5.534619212150573730e+01 -3.183868387341499329e+01 1.477487058937555275e+00
5.919732737541198730e+01 -3.341705301403999329e+01 1.603890867531305275e+00
5.611315989494323730e+01 -3.390399149060249329e+01 1.799966306984430275e+00
5.526843333244323730e+01 -3.257183817028999329e+01 1.771417112648492775e+00
5.887793040275573730e+01 -3.323175027966499329e+01 1.911691160500055275e+00
5.610803294181823730e+01 -3.390985086560249329e+01 2.108346433937555275e+00
5.790881419181823730e+01 -3.426275613903999329e+01 2.186181516945367775e+00
5.477423167228698730e+01 -3.149993875622749329e+01 2.056420774757867775e+00
5.665130686759948730e+01 -3.188433817028999329e+01 2.137490721046930275e+00
5.454809641838073730e+01 -3.213079813122749329e+01 2.343163938820367775e+00
5.835455393791198730e+01 -3.374029520153999329e+01 2.524148435890680275e+00
5.796063303947448730e+01 -3.269122293591499329e+01 2.505670042335992775e+00
5.551574778556823730e+01 -3.044317606091499329e+01 2.389779539406305275e+00
5.569433665275573730e+01 -2.979827859997749329e+01 2.398477049171930275e+00
5.520471262931823730e+01 -3.334002664685249329e+01 2.679513426125055275e+00
5.523846507072448730e+01 -3.257977274060249329e+01 2.679666014015680275e+00
5.499920725822448730e+01 -3.165789774060249329e+01 2.665399046242242775e+00
5.502746653556823730e+01 -3.091229227185249329e+01 2.665307493507867775e+00
5.533587718009948730e+01 -3.034466531872749329e+01 2.680032224953180275e+00
5.577484202384948730e+01 -2.985369852185249329e+01 2.701669187843805275e+00
5.519592356681823730e+01 -3.334344461560249329e+01 2.984475584328180275e+00
5.524481272697448730e+01 -3.259283426403999329e+01 2.983849973976617775e+00
5.435424876213073730e+01 -3.126446512341499329e+01 2.926843138039117775e+00
5.551318430900573730e+01 -3.121710184216499329e+01 2.991021604835992775e+00
5.535461497306823730e+01 -3.036431863903999329e+01 2.978417845070367775e+00
5.599530100822448730e+01 -2.999066141247749329e+01 3.012338133156305275e+00
5.502343821525573730e+01 -3.324017313122749329e+01 3.278954954445367775e+00
5.428277659416198730e+01 -3.198834207653999329e+01 3.224694700539117775e+00
5.428997874259948730e+01 -3.123309305310249329e+01 3.219964475929742775e+00
5.547686839103698730e+01 -3.120379617810249329e+01 3.290414305031305275e+00
8.275635480880737305e+00 -1.931579381227493286e+00 -5.737824723124447246e-01
8.317749738693237305e+00 -1.843566685914993286e+00 -5.711274430155697246e-01
8.353638410568237305e+00 -1.752380162477493286e+00 -5.685029312968197246e-01
8.424744367599487305e+00 -1.679260045289993286e+00 -5.670991227030697246e-01
8.528565168380737305e+00 -1.622253209352493286e+00 -5.668244644999447246e-01
8.633850812911987305e+00 -1.564391881227493286e+00 -5.665345475077572246e-01
8.759217023849487305e+00 -1.514343053102493286e+00 -5.668702408671322246e-01
8.898621320724487305e+00 -1.469299107789993286e+00 -5.678620621561947246e-01
9.000733137130737305e+00 -2.334411412477493286e+00 -5.514283463358822246e-01
9.086060285568237305e+00 -2.260436803102493286e+00 -5.500397965311947246e-01
9.176575422286987305e+00 -2.188293248414993286e+00 -5.485291764140072246e-01
9.288635969161987305e+00 -2.125671178102493286e+00 -5.478577896952572246e-01
9.459778547286987305e+00 -2.091735631227493286e+00 -5.488953873515072246e-01
9.635315656661987305e+00 -2.056823521852493286e+00 -5.499635025858822246e-01
9.809754133224487305e+00 -2.017883092164993286e+00 -5.511689469218197246e-01
9.966492414474487305e+00 -1.968078404664993286e+00 -5.514893814921322246e-01
1.000207591056823730e+01 -2.890441685914993286e+00 -5.286164566874447246e-01
1.012762522697448730e+01 -2.825256139039993286e+00 -5.276704117655697246e-01
1.025500559806823730e+01 -2.759216099977493286e+00 -5.266938492655697246e-01
1.039575266838073730e+01 -2.697814732789993286e+00 -5.259919449686947246e-01
1.057074046134948730e+01 -2.651794224977493286e+00 -5.260682389140072246e-01
1.074969553947448730e+01 -2.604797154664993286e+00 -5.261292740702572246e-01
1.093335032463073730e+01 -2.556579381227493286e+00 -5.262055680155697246e-01
1.112060618400573730e+01 -2.507262974977493286e+00 -5.262818619608822246e-01
1.142681956291198730e+01 -3.681335240602493286e+00 -5.043854996561947246e-01
1.155688548088073730e+01 -3.600280553102493286e+00 -5.022797867655697246e-01
1.168316721916198730e+01 -3.515319615602493286e+00 -5.003724381327572246e-01
1.181128001213073730e+01 -3.429260045289993286e+00 -4.984345719218197246e-01
1.198309397697448730e+01 -3.363952428102493286e+00 -4.972901627421322246e-01
1.215814280509948730e+01 -3.297424107789993286e+00 -4.961457535624447246e-01
1.233929514884948730e+01 -3.230651646852493286e+00 -4.950166031718197246e-01
1.261773753166198730e+01 -3.206725865602493286e+00 -4.959321305155697246e-01
1.284332346916198730e+01 -4.468200474977493286e+00 -4.647279068827572246e-01
1.302972483634948730e+01 -4.399230748414993286e+00 -4.629426285624447246e-01
1.321948313713073730e+01 -4.329040318727493286e+00 -4.611268326640072246e-01
1.344061350822448730e+01 -4.271301060914993286e+00 -4.596619889140072246e-01
1.377777171134948730e+01 -4.268737584352493286e+00 -4.597382828593197246e-01
1.412823557853698730e+01 -4.266174107789993286e+00 -4.598298355936947246e-01
1.444891428947448730e+01 -4.241760045289993286e+00 -4.593110367655697246e-01
1.475293040275573730e+01 -4.204162389039993286e+00 -4.584260269999447246e-01
1.508941721916198730e+01 -5.715392857789993286e+00 -4.190888687968197246e-01
1.537323069572448730e+01 -5.670104771852493286e+00 -4.164948746561947246e-01
1.565484690666198730e+01 -5.618469029664993286e+00 -4.141755387186947246e-01
1.601287913322448730e+01 -5.600402623414993286e+00 -4.124055191874447246e-01
1.647216868400573730e+01 -5.627136021852493286e+00 -4.113984391093197246e-01
1.693444895744323730e+01 -5.645934849977493286e+00 -4.101929947733822246e-01
1.744946360588073730e+01 -5.679992467164993286e+00 -4.091706559061947246e-01
1.796655344963073730e+01 -5.705261021852493286e+00 -4.084077164530697246e-01
1.897515940666198730e+01 -7.872497349977493286e+00 -3.576569840311947246e-01
1.943768382072448730e+01 -7.873718053102493286e+00 -3.541169449686947246e-01
1.991784739494323730e+01 -7.874938756227493286e+00 -3.504395768046322246e-01
2.041845774650573730e+01 -7.876403599977493286e+00 -3.465943619608822246e-01
2.093731760978698730e+01 -7.877746373414993286e+00 -3.426118180155697246e-01
2.167950510978698730e+01 -7.978698521852493286e+00 -3.391938492655697246e-01
2.271185374259948730e+01 -8.201843053102493286e+00 -3.363557144999447246e-01
2.359613108634948730e+01 -8.334411412477493286e+00 -3.325715348124447246e-01
2.666272044181823730e+01 -1.213946512341499329e+01 -2.551331803202572246e-01
2.784002757072448730e+01 -1.242852762341499329e+01 -2.472749039530697246e-01
2.914538645744323730e+01 -1.275872781872749329e+01 -2.379365250468197246e-01
3.165838694572448730e+01 -1.368157938122749329e+01 -2.274842545390072246e-01
3.397406077384948730e+01 -1.531768777966499329e+01 -5.654004067181972459e-02
3.397009348869323730e+01 -1.532049539685249329e+01 1.210875228047427754e-01
3.396612620353698730e+01 -1.532330301403999329e+01 2.996763899922427754e-01
3.539929270744323730e+01 -1.700653055310249329e+01 4.967283919453677754e-01
3.444738841056823730e+01 -1.602813699841499329e+01 4.821715071797427754e-01
3.353094553947448730e+01 -1.509771707653999329e+01 4.680113509297427754e-01
3.263433909416198730e+01 -1.420379617810249329e+01 4.539427474141177754e-01
3.179522776603698730e+01 -1.336724832653999329e+01 4.407896712422427754e-01
3.091052317619323730e+01 -1.253326395153999329e+01 4.263090804219302754e-01
3.005792307853698730e+01 -1.173931863903999329e+01 4.122404769063052754e-01
2.919177317619323730e+01 -1.096490457653999329e+01 3.975462630391177754e-01
3.553100657463073730e+01 -1.708502176403999329e+01 6.883177474141177754e-01
3.455365061759948730e+01 -1.609088113903999329e+01 6.671385481953677754e-01
3.360900950431823730e+01 -1.514385965466499329e+01 6.455931380391177754e-01
3.265869212150573730e+01 -1.422100809216499329e+01 6.245665267109927754e-01
3.177197337150573730e+01 -1.335992410778999329e+01 6.049589827656802754e-01
3.089062571525573730e+01 -1.252777078747749329e+01 5.852293685078677754e-01
3.004687571525573730e+01 -1.173809793591499329e+01 5.670714095234927754e-01
2.919201731681823730e+01 -1.096881082653999329e+01 5.475096419453677754e-01
3.187695384025573730e+01 -1.327203348278999329e+01 2.329191878438052754e-01
3.533441233634948730e+01 -1.691839578747749329e+01 4.542326644063052754e-01
3.438440012931823730e+01 -1.592156961560249329e+01 4.408354476094302754e-01
3.344305491447448730e+01 -1.495855692028999329e+01 4.272551253438052754e-01
3.250494456291198730e+01 -1.402447488903999329e+01 4.133848860859927754e-01
3.162109446525573730e+01 -1.314739969372749329e+01 4.002775862813052754e-01
3.067187571525573730e+01 -1.226446512341499329e+01 3.854613021016177754e-01
2.978100657463073730e+01 -1.143572977185249329e+01 3.715452864766177754e-01
2.882092356681823730e+01 -1.060174539685249329e+01 3.557982161641177754e-01
3.531768870353698730e+01 -1.691461160778999329e+01 6.493468001484927754e-01
3.430584788322448730e+01 -1.588409402966499329e+01 6.283659651875552754e-01
3.335980296134948730e+01 -1.491937234997749329e+01 6.077818587422427754e-01
3.243414378166198730e+01 -1.399249246716499329e+01 5.884489730000552754e-01
3.155542063713073730e+01 -1.311871317028999329e+01 5.700316146016177754e-01
3.062011790275573730e+01 -1.224334695935249329e+01 5.498442366719302754e-01
2.973974680900573730e+01 -1.142010477185249329e+01 5.316862776875552754e-01
2.878985667228698730e+01 -1.059124734997749329e+01 5.105223372578677754e-01
1.800427317619323730e+01 -2.356261998414993286e+00 1.421751692891177754e-01
2.277911448478698730e+01 -5.737609654664993286e+00 5.094847396016177754e-01
2.025756907463073730e+01 -3.950134068727493286e+00 4.266600325703677754e-01
1.781414866447448730e+01 -2.268737584352493286e+00 3.466276839375552754e-01
2.520208811759948730e+01 -7.553039342164993286e+00 8.178088217974277541e-02
1.327551341056823730e+01 9.382936656475067139e-01 -2.406678482890072246e-01
3.088494944572448730e+01 -1.249151590466499329e+01 6.221251204609927754e-01
2.805273509025573730e+01 -9.984924107789993286e+00 5.255064681172427754e-01
2.499194407463073730e+01 -7.441955357789993286e+00 4.224791243672427754e-01
2.102661204338073730e+01 -4.510925084352493286e+00 2.920622542500552754e-01
1.658007884025573730e+01 -1.439880162477493286e+00 1.476530745625552754e-01
1.227453684806823730e+01 1.438171595335006714e+00 8.614988625055275406e-03
1.612658762931823730e+01 -4.924924671649932861e-01 4.209685042500552754e-01
6.788025617599487305e+00 -1.647336781024932861e-01 1.666573973000055275e+00
3.716797590255737305e+00 1.650818079710006714e+00 1.694879026710992775e+00
3.888245344161987305e+00 1.547546595335006714e+00 1.949014158546930275e+00
1.643170237541198730e+01 -1.287658482789993286e+00 3.499846175313052754e-01
3.869385480880737305e+00 8.582155406475067139e-01 2.375273421406802754e-01
7.325745344161987305e+00 -5.579221546649932861e-01 1.728661985695367775e+00
6.610230207443237305e+00 -8.118284046649932861e-01 1.970773191750055275e+00
3.719910383224487305e+00 1.590149134397506714e+00 1.736932249367242775e+00
6.981507062911987305e+00 -1.038024693727493286e+00 2.271081419289117775e+00
3.967957258224487305e+00 1.442444056272506714e+00 2.010262937843805275e+00
4.336243391036987305e+00 1.865173548460006714e+00 2.016122312843805275e+00
6.116211652755737305e+00 -5.109250843524932861e-01 2.470742674171930275e+00
4.818238019943237305e+00 9.359743297100067139e-01 2.335656614601617775e+00
4.199341535568237305e+00 1.945007532835006714e+00 2.260369749367242775e+00
6.972962141036987305e+00 -1.516721546649932861e-01 1.873239012062555275e+00
6.641236066818237305e+00 -1.354675084352493286e+00 2.169183225929742775e+00
7.281067609786987305e+00 -1.039367467164993286e+00 2.196160764992242775e+00
3.910828351974487305e+00 1.664489954710006714e+00 1.915749998390680275e+00
