1.002596110105514526e+01 -6.142705172300338745e+00 -5.224550593644323726e-01
1.077907389402389526e+01 -6.628667086362838745e+00 -5.389498103409948726e-01
1.315199869871139526e+01 -1.035413095355033875e+01 -5.823763240128698726e-01
1.357143229246139526e+01 -1.051501962542533875e+01 -5.857027400284948726e-01
1.398348063230514526e+01 -1.065723153948783875e+01 -5.884950984269323726e-01
1.489803141355514526e+01 -1.126123544573783875e+01 -6.036318171769323726e-01
9.528158366680145264e+00 -6.032597750425338745e+00 -4.623201716691198726e-01
9.674947917461395264e+00 -5.999394625425338745e+00 -4.607027400284948726e-01
1.007124918699264526e+01 -6.184819430112838745e+00 -4.648989070206823726e-01
1.086903971433639526e+01 -6.708989351987838745e+00 -4.780214656144323726e-01
1.314919108152389526e+01 -1.035437509417533875e+01 -5.000398982316198726e-01
1.354665201902389526e+01 -1.049377939105033875e+01 -5.005892146378698726e-01
1.394954508543014526e+01 -1.062769052386283875e+01 -5.013674128800573726e-01
1.505556315183639526e+01 -1.141284677386283875e+01 -5.151918757706823726e-01
1.527150553464889526e+01 -1.134033700823783875e+01 -5.115755427628698726e-01
1.677681559324264526e+01 -1.243225595355033875e+01 -5.310457576066198726e-01
1.134914225339889526e+01 -7.320927828550338745e+00 -4.279878962784948726e-01
1.153072184324264526e+01 -7.286626070737838745e+00 -4.260500300675573726e-01
1.314644449949264526e+01 -1.035461923480033875e+01 -4.172914851456823726e-01
1.352205485105514526e+01 -1.047266122698783875e+01 -4.162081111222448726e-01
1.391597574949264526e+01 -1.059851571917533875e+01 -4.151094783097448726e-01
1.509004801511764526e+01 -1.144861337542533875e+01 -4.236696589738073726e-01
1.527852457761764526e+01 -1.134998056292533875e+01 -4.191988337784948726e-01
1.665358561277389526e+01 -1.232410165667533875e+01 -4.286745417863073726e-01
1.739168375730514526e+01 -1.268726083636283875e+01 -4.298036921769323726e-01
1.792262858152389526e+01 -1.285034677386283875e+01 -4.281710017472448726e-01
1.308864420652389526e+01 -1.029968759417533875e+01 -3.345735896378698726e-01
1.349757975339889526e+01 -1.045166513323783875e+01 -3.321321833878698726e-01
1.388240641355514526e+01 -1.056921884417533875e+01 -3.288057673722448726e-01
1.512496012449264526e+01 -1.148474618792533875e+01 -3.311861384659948726e-01
1.530513590574264526e+01 -1.137781259417533875e+01 -3.263338435441198726e-01
1.657863444089889526e+01 -1.225964853167533875e+01 -3.275392878800573726e-01
1.736372965574264526e+01 -1.266589853167533875e+01 -3.258608210831823726e-01
1.794704264402389526e+01 -1.287512704730033875e+01 -3.221987117081823726e-01
1.301613444089889526e+01 -1.023010751605033875e+01 -2.521303523331823726e-01
1.347304362058639526e+01 -1.043054696917533875e+01 -2.478884089738073726e-01
1.384914225339889526e+01 -1.054028818011283875e+01 -2.433718074113073726e-01
1.518038004636764526e+01 -1.154028818011283875e+01 -2.387331355363073726e-01
1.607478922605514526e+01 -1.209253427386283875e+01 -2.334078181534948726e-01
1.654048746824264526e+01 -1.222839853167533875e+01 -2.278078425675573726e-01
1.700655192136764526e+01 -1.235217782855033875e+01 -2.219789851456823726e-01
1.797170084714889526e+01 -1.290015146136283875e+01 -2.153414119034948726e-01
1.294472330808639526e+01 -1.016162607073783875e+01 -1.710298884659948726e-01
1.343086832761764526e+01 -1.039221689105033875e+01 -1.644838679581823726e-01
1.381606119871139526e+01 -1.051147958636283875e+01 -1.583193171769323726e-01
1.525215739011764526e+01 -1.161121103167533875e+01 -1.454561579972448726e-01
1.545693033933639526e+01 -1.152454110980033875e+01 -1.398714412003698726e-01
1.650606364011764526e+01 -1.220068857073783875e+01 -1.285036433488073726e-01
1.689064615964889526e+01 -1.225269052386283875e+01 -1.213167537003698726e-01
1.799635905027389526e+01 -1.292517587542533875e+01 -1.087129939347448726e-01
1.291347330808639526e+01 -1.013318368792533875e+01 -8.991416580974487260e-02
1.335506266355514526e+01 -1.032080575823783875e+01 -8.156760819255737260e-02
1.450850504636764526e+01 -1.118115732073783875e+01 -6.427940018474487260e-02
1.496120280027389526e+01 -1.134009286761283875e+01 -5.530723221599487260e-02
1.544118326902389526e+01 -1.151318857073783875e+01 -4.584678299724487260e-02
1.647041910886764526e+01 -1.217175790667533875e+01 -2.907737381755737260e-02
1.681105631589889526e+01 -1.218542978167533875e+01 -2.102073319255737260e-02
1.716139811277389526e+01 -1.220166513323783875e+01 -1.275046952068237260e-02
1.291402262449264526e+01 -1.013672372698783875e+01 -9.042583778494872604e-03
1.328053873777389526e+01 -1.025049325823783875e+01 -9.380653494872603915e-06
1.452528971433639526e+01 -1.120044443011283875e+01 2.551857344806762740e-02
1.498030680418014526e+01 -1.136133310198783875e+01 3.656593672931762740e-02
1.542818278074264526e+01 -1.150439950823783875e+01 4.756752364338012740e-02
1.557784098386764526e+01 -1.136572763323783875e+01 5.295387618244262740e-02
1.675679606199264526e+01 -1.214050790667533875e+01 7.828346602619262740e-02
1.708675211668014526e+01 -1.214001962542533875e+01 8.736244551838012740e-02
1.291457194089889526e+01 -1.014026376605033875e+01 7.228676192463012740e-02
1.347261637449264526e+01 -1.044226571917533875e+01 8.769813887775512740e-02
1.454207438230514526e+01 -1.121973153948783875e+01 1.155606877058801274e-01
1.501717203855514526e+01 -1.139929696917533875e+01 1.291410099715051274e-01
1.544417399168014526e+01 -1.152246591448783875e+01 1.415616642683801274e-01
1.577272623777389526e+01 -1.154578134417533875e+01 1.515714298933801274e-01
1.670381754636764526e+01 -1.209692880511283875e+01 1.775113712996301274e-01
1.703090494871139526e+01 -1.209473153948783875e+01 1.876126896590051274e-01
1.314223307371139526e+01 -1.037134286761283875e+01 1.603299748152551274e-01
1.363063639402389526e+01 -1.060046884417533875e+01 1.763974796980676274e-01
1.428841227293014526e+01 -1.097864267230033875e+01 1.978208195418176274e-01
1.506325358152389526e+01 -1.144604989886283875e+01 2.229825627058801274e-01
1.560506266355514526e+01 -1.167468759417533875e+01 2.408658634871301274e-01
1.631184977293014526e+01 -1.203809091448783875e+01 2.640134464949426274e-01
1.665321940183639526e+01 -1.205518075823783875e+01 2.756406437605676274e-01
1.697566813230514526e+01 -1.204993173480033875e+01 2.867032658308801274e-01
1.335048502683639526e+01 -1.058313485980033875e+01 2.510739933699426274e-01
1.386842936277389526e+01 -1.083728525042533875e+01 2.701627384871301274e-01
1.415285319089889526e+01 -1.085107919573783875e+01 2.808438908308801274e-01
1.527809733152389526e+01 -1.165222665667533875e+01 3.233396183699426274e-01
1.554323405027389526e+01 -1.162073251605033875e+01 3.332883488386926274e-01
1.625191324949264526e+01 -1.198706552386283875e+01 3.600064884871301274e-01
1.660286539793014526e+01 -1.201379892230033875e+01 3.732053410261926274e-01
1.692055338621139526e+01 -1.200525400042533875e+01 3.856717716902551274e-01
1.349074381589889526e+01 -1.072693368792533875e+01 3.411008488386926274e-01
1.387734049558639526e+01 -1.084912607073783875e+01 3.573362004011926274e-01
1.411482828855514526e+01 -1.081763193011283875e+01 3.669644962996301274e-01
1.523225992918014526e+01 -1.161218759417533875e+01 4.154111515730676274e-01
1.549556559324264526e+01 -1.157983896136283875e+01 4.260923039168176274e-01
1.618428629636764526e+01 -1.192908212542533875e+01 4.554807316511926274e-01
1.655251139402389526e+01 -1.197241708636283875e+01 4.707090031355676274e-01
1.686598795652389526e+01 -1.196106454730033875e+01 4.835111271590051274e-01
1.359084147214889526e+01 -1.083044931292533875e+01 4.313718449324426274e-01
1.389479655027389526e+01 -1.086938974261283875e+01 4.446317326277551274e-01
1.465053385496139526e+01 -1.133716318011283875e+01 4.811765324324426274e-01
1.518697184324264526e+01 -1.157263681292533875e+01 5.064756046980676274e-01
1.544844645261764526e+01 -1.153955575823783875e+01 5.178434025496301274e-01
1.606105631589889526e+01 -1.182056161761283875e+01 5.468198429793176274e-01
1.655794352293014526e+01 -1.198059579730033875e+01 5.698758732527551274e-01
1.690511149168014526e+01 -1.199854013323783875e+01 5.859128605574426274e-01
1.385610026121139526e+01 -1.109973642230033875e+01 5.320035587996301274e-01
1.394295328855514526e+01 -1.091992685198783875e+01 5.343991886824426274e-01
1.469277018308639526e+01 -1.138098642230033875e+01 5.746060978621301274e-01
1.514113444089889526e+01 -1.153259775042533875e+01 5.974485050886926274e-01
1.540138834714889526e+01 -1.149915048480033875e+01 6.095334660261926274e-01
1.587032145261764526e+01 -1.165063974261283875e+01 6.333524357527551274e-01
1.661641520261764526e+01 -1.203601571917533875e+01 6.726590763777551274e-01
1.700813883543014526e+01 -1.209180185198783875e+01 6.918698918074426274e-01
1.363606852293014526e+01 -1.088196298480033875e+01 6.055509220808801274e-01
1.404799479246139526e+01 -1.102637216448783875e+01 6.284391056746301274e-01
1.473494547605514526e+01 -1.142493173480033875e+01 6.681272160261926274e-01
1.508705729246139526e+01 -1.148474618792533875e+01 6.868497502058801274e-01
1.535481852293014526e+01 -1.145923349261283875e+01 7.002011906355676274e-01
1.579317301511764526e+01 -1.158386728167533875e+01 7.241574894636926274e-01
1.669569987058639526e+01 -1.210999032855033875e+01 7.774869572371301274e-01
1.710738199949264526e+01 -1.218176767230033875e+01 7.994138371199426274e-01
1.347170084714889526e+01 -1.072009775042533875e+01 6.801816593855676274e-01
1.380641764402389526e+01 -1.079187509417533875e+01 6.990872990340051274e-01
1.475758951902389526e+01 -1.145007821917533875e+01 7.613278996199426274e-01
1.502968424558639526e+01 -1.143372079730033875e+01 7.758695255965051274e-01
1.530830973386764526e+01 -1.141931650042533875e+01 7.907926212996301274e-01
1.571639078855514526e+01 -1.151733896136283875e+01 8.145658146590051274e-01
1.659120768308639526e+01 -1.202026864886283875e+01 8.701688420027551274e-01
1.719869059324264526e+01 -1.226489755511283875e+01 9.076749455183801274e-01
8.683126628398895264e+00 -4.800786226987838745e+00 -6.281069148331823726e-01
8.733358561992645264e+00 -4.700932711362838745e+00 -6.242922175675573726e-01
8.778768718242645264e+00 -4.597783297300338745e+00 -6.205385554581823726e-01
8.824117839336395264e+00 -4.494878023862838745e+00 -6.168001521378698726e-01
8.869039714336395264e+00 -4.392705172300338745e+00 -6.130922663956823726e-01
8.913717448711395264e+00 -4.291264742612838745e+00 -6.094148982316198726e-01
8.946615397930145264e+00 -4.180913180112838745e+00 -6.052187312394323726e-01
8.970297038555145264e+00 -4.065190523862838745e+00 -6.009615290909948726e-01
9.579244792461395264e+00 -5.581181734800338745e+00 -6.149690974503698726e-01
9.620809733867645264e+00 -5.458379000425338745e+00 -6.105745662003698726e-01
9.667013347148895264e+00 -5.340825289487838745e+00 -6.061189997941198726e-01
9.708090007305145264e+00 -5.219365328550338745e+00 -6.017702449113073726e-01
9.748678386211395264e+00 -5.099248141050338745e+00 -5.974672663956823726e-01
9.788961589336395264e+00 -4.979985445737838745e+00 -5.931948054581823726e-01
9.824178874492645264e+00 -4.857426851987838745e+00 -5.890444148331823726e-01
9.863973796367645264e+00 -4.739995211362838745e+00 -5.848482478409948726e-01
1.065749186277389526e+01 -6.520268648862838745e+00 -5.972994197159948726e-01
1.067659586668014526e+01 -6.359624117612838745e+00 -5.916689265519323726e-01
1.070509928464889526e+01 -6.209233492612838745e+00 -5.864351619034948726e-01
1.074654215574264526e+01 -6.070561617612838745e+00 -5.816896785050573726e-01
1.078359049558639526e+01 -5.930546969175338745e+00 -5.768679011613073726e-01
1.079927653074264526e+01 -5.775151461362838745e+00 -5.714052546769323726e-01
1.081484049558639526e+01 -5.621220797300338745e+00 -5.659883845597448726e-01
1.083009928464889526e+01 -5.469731539487838745e+00 -5.606783259659948726e-01
1.078426188230514526e+01 -6.632573336362838745e+00 -5.390871394425573726e-01
1.164815348386764526e+01 -7.189580172300338745e+00 -5.575807917863073726e-01
1.222499674558639526e+01 -7.480473726987838745e+00 -5.675142634659948726e-01
1.220137614011764526e+01 -7.263066500425338745e+00 -5.603884089738073726e-01
1.223030680418014526e+01 -7.092412203550338745e+00 -5.548342097550573726e-01
1.224043864011764526e+01 -6.909062594175338745e+00 -5.488527644425573726e-01
1.225044840574264526e+01 -6.727788180112838745e+00 -5.429323542863073726e-01
1.225130289793014526e+01 -6.542851656675338745e+00 -5.372560847550573726e-01
1.087825602293014526e+01 -6.716313570737838745e+00 -4.782198298722448726e-01
1.171321696043014526e+01 -7.247197359800338745e+00 -4.916780818253698726e-01
1.279427164793014526e+01 -7.958256930112838745e+00 -5.097902644425573726e-01
1.403676432371139526e+01 -8.767461031675338745e+00 -5.303896296769323726e-01
1.394167155027389526e+01 -8.466923922300338745e+00 -5.217073787003698726e-01
1.388808268308639526e+01 -8.205815523862838745e+00 -5.140779841691198726e-01
1.391457194089889526e+01 -8.010747164487838745e+00 -5.081880915909948726e-01
1.394069498777389526e+01 -7.818730562925338745e+00 -5.023897517472448726e-01
1.153169840574264526e+01 -7.286870211362838745e+00 -4.260500300675573726e-01
1.177937906980514526e+01 -7.305913180112838745e+00 -4.246157038956823726e-01
1.287331217527389526e+01 -8.026616305112838745e+00 -4.369753230363073726e-01
1.427596110105514526e+01 -8.965825289487838745e+00 -4.532411921769323726e-01
1.625990885496139526e+01 -1.032898446917533875e+01 -4.771822322159948726e-01
1.667128580808639526e+01 -1.039551278948783875e+01 -4.763277400284948726e-01
1.654494303464889526e+01 -1.003821298480033875e+01 -4.675234187394323726e-01
1.643648356199264526e+01 -9.703252047300338745e+00 -4.597109187394323726e-01
1.792427653074264526e+01 -1.285071298480033875e+01 -4.281557429581823726e-01
1.824623697996139526e+01 -1.282239267230033875e+01 -4.242647517472448726e-01
1.430745524168014526e+01 -9.227421969175338745e+00 -3.772676814347448726e-01
1.458302897214889526e+01 -9.219853609800338745e+00 -3.743379939347448726e-01
1.651601237058639526e+01 -1.053748056292533875e+01 -3.866823542863073726e-01
2.233516520261764526e+01 -1.485071298480033875e+01 -4.321688044816198726e-01
2.213564127683639526e+01 -1.434619638323783875e+01 -4.220522273331823726e-01
2.187044352293014526e+01 -1.380493661761283875e+01 -4.117067683488073726e-01
1.794875162839889526e+01 -1.287549325823783875e+01 -3.221834529191198726e-01
1.827406901121139526e+01 -1.284961435198783875e+01 -3.172396052628698726e-01
1.862245768308639526e+01 -1.283679696917533875e+01 -3.116701472550573726e-01
2.447963541746139526e+01 -1.732788583636283875e+01 -3.270357478409948726e-01
1.990511149168014526e+01 -1.326025888323783875e+01 -3.032167781144323726e-01
3.089821451902389526e+01 -2.158752939105033875e+01 -3.299196589738073726e-01
3.038161295652389526e+01 -2.070117685198783875e+01 -3.191469538956823726e-01
2.991036051511764526e+01 -1.987463876605033875e+01 -3.080690730363073726e-01
1.797340983152389526e+01 -1.290063974261283875e+01 -2.153108943253698726e-01
1.830214518308639526e+01 -1.287708017230033875e+01 -2.092684138566198726e-01
3.467842692136764526e+01 -2.568726083636283875e+01 -1.622560847550573726e-01
3.288912028074264526e+01 -2.368579599261283875e+01 -1.564424861222448726e-01
5.365785807371139526e+01 -3.780115243792533875e+01 -5.802329666911987260e-02
1.799800699949264526e+01 -1.292554208636283875e+01 -1.086977351456823726e-01
1.833016031980514526e+01 -1.290454599261283875e+01 -1.014955867081823726e-01
3.453047770261764526e+01 -2.557251474261283875e+01 3.937355391681762740e-02
3.280635660886764526e+01 -2.362549325823783875e+01 3.355995528400512740e-02
3.283583658933639526e+01 -2.312292978167533875e+01 4.187599532306762740e-02
3.309975260496139526e+01 -2.280652353167533875e+01 5.217567794025512740e-02
3.343465250730514526e+01 -2.254541513323783875e+01 6.310097090900512740e-02
1.716359537839889526e+01 -1.220251962542533875e+01 -1.271995194255737260e-02
1.838149088621139526e+01 -1.295203134417533875e+01 7.528461143380127396e-03
6.061604899168014526e+01 -4.797156259417533875e+01 5.972043644636926274e-01
3.448579996824264526e+01 -2.554248544573783875e+01 2.418424259871301274e-01
3.275990885496139526e+01 -2.359424325823783875e+01 2.241727482527551274e-01
3.284084147214889526e+01 -2.313281747698783875e+01 2.318631779402551274e-01
3.313039225339889526e+01 -2.283606454730033875e+01 2.425748478621301274e-01
3.344130533933639526e+01 -2.255627939105033875e+01 2.535916935652551274e-01
1.708858317136764526e+01 -1.214050790667533875e+01 8.740822188556762740e-02
1.845833414793014526e+01 -1.302112314105033875e+01 1.171170841902551274e-01
3.453407877683639526e+01 -2.558862802386283875e+01 4.446164738386926274e-01
3.279866617918014526e+01 -2.363147470355033875e+01 4.149839054793176274e-01
3.288802164793014526e+01 -2.317590829730033875e+01 4.218045841902551274e-01
3.317378824949264526e+01 -2.287549325823783875e+01 4.326230656355676274e-01
3.349239176511764526e+01 -2.260071298480033875e+01 4.441129337996301274e-01
1.703267496824264526e+01 -1.209534189105033875e+01 1.876737248152551274e-01
1.875270670652389526e+01 -1.327612802386283875e+01 2.338620793074426274e-01
2.240364664793014526e+01 -1.601868173480033875e+01 3.296414982527551274e-01
3.425508707761764526e+01 -2.536633798480033875e+01 6.395169865340051274e-01
3.297585123777389526e+01 -2.377991220355033875e+01 6.099149357527551274e-01
3.289491862058639526e+01 -2.318738290667533875e+01 6.113034855574426274e-01
3.316768473386764526e+01 -2.287671396136283875e+01 6.229459416121301274e-01
3.348647135496139526e+01 -2.260217782855033875e+01 6.347715031355676274e-01
1.697743815183639526e+01 -1.205054208636283875e+01 2.867643009871301274e-01
1.876119059324264526e+01 -1.328699228167533875e+01 3.445188175886926274e-01
2.226814860105514526e+01 -1.590955087542533875e+01 4.573423039168176274e-01
3.387532633543014526e+01 -2.450891610980033875e+01 8.310910832136926274e-01
3.349153727293014526e+01 -2.366309091448783875e+01 8.208219181746301274e-01
3.483315104246139526e+01 -2.362549325823783875e+01 8.678800236433801274e-01
1.692232340574264526e+01 -1.200586435198783875e+01 3.857480656355676274e-01
1.816036051511764526e+01 -1.277734872698783875e+01 4.322568546980676274e-01
2.206392496824264526e+01 -1.574292489886283875e+01 5.801602970808801274e-01
3.390938395261764526e+01 -2.454260751605033875e+01 1.029119647666817627e+00
3.316225260496139526e+01 -2.340979501605033875e+01 1.001287616416817627e+00
3.345412272214889526e+01 -2.310950204730033875e+01 1.012792743369942627e+00
3.380098551511764526e+01 -2.285156747698783875e+01 1.027395404502755127e+00
1.686775797605514526e+01 -1.196167489886283875e+01 4.835721623152551274e-01
1.813869303464889526e+01 -1.276245614886283875e+01 5.387479435652551274e-01
2.184743326902389526e+01 -1.556580087542533875e+01 7.007047306746301274e-01
1.690743082761764526e+01 -1.199963876605033875e+01 5.860196720808801274e-01
1.814082926511764526e+01 -1.276782724261283875e+01 6.456205021590051274e-01
2.162215250730514526e+01 -1.538135263323783875e+01 8.175717961043176274e-01
1.701051920652389526e+01 -1.209277841448783875e+01 6.919919621199426274e-01
1.747725504636764526e+01 -1.220398446917533875e+01 7.158567082136926274e-01
2.149159830808639526e+01 -1.527612802386283875e+01 9.377347599715051274e-01
2.248543375730514526e+01 -1.573694345355033875e+01 9.903165470808801274e-01
1.710976237058639526e+01 -1.218286630511283875e+01 7.995511662215051274e-01
1.903554362058639526e+01 -1.353992196917533875e+01 9.159299504011926274e-01
2.151173990964889526e+01 -1.529712411761283875e+01 1.065023578330880127e+00
2.244124430418014526e+01 -1.570483896136283875e+01 1.118490375205880127e+00
1.720113199949264526e+01 -1.226599618792533875e+01 9.078275334090051274e-01
1.808321207761764526e+01 -1.272913095355033875e+01 9.633542668074426274e-01
2.153664225339889526e+01 -1.532214853167533875e+01 1.193563617393380127e+00
2.241365641355514526e+01 -1.568640634417533875e+01 1.248006976768380127e+00
8.970419108867645264e+00 -4.064824312925338745e+00 -6.009462703019323726e-01
8.997762858867645264e+00 -3.953129976987838745e+00 -5.967043269425573726e-01
9.019735515117645264e+00 -3.838505953550338745e+00 -5.925386775284948726e-01
9.041586101055145264e+00 -3.724614351987838745e+00 -5.883882869034948726e-01
9.063131511211395264e+00 -3.612065523862838745e+00 -5.842836726456823726e-01
9.084554851055145264e+00 -3.500493258237838745e+00 -5.802248347550573726e-01
9.105795085430145264e+00 -3.389531344175338745e+00 -5.761965144425573726e-01
9.121664226055145264e+00 -3.276616305112838745e+00 -5.722597468644323726e-01
9.864034831523895264e+00 -4.739506930112838745e+00 -5.848177302628698726e-01
9.897970378398895264e+00 -4.618901461362838745e+00 -5.807588923722448726e-01
9.936666667461395264e+00 -4.502568453550338745e+00 -5.766237605363073726e-01
9.970236003398895264e+00 -4.383061617612838745e+00 -5.726106990128698726e-01
1.000350016355514526e+01 -4.264775484800338745e+00 -5.686281550675573726e-01
1.003652018308639526e+01 -4.147343844175338745e+00 -5.646913874894323726e-01
1.006441324949264526e+01 -4.026982516050338745e+00 -5.608614314347448726e-01
1.009694498777389526e+01 -3.911259859800338745e+00 -5.569704402238073726e-01
1.083016031980514526e+01 -5.469243258237838745e+00 -5.606478083878698726e-01
1.083949869871139526e+01 -5.315434664487838745e+00 -5.555208552628698726e-01
1.086214274168014526e+01 -5.173100680112838745e+00 -5.508669245988073726e-01
1.089076822996139526e+01 -5.036137789487838745e+00 -5.464266169816198726e-01
1.091902750730514526e+01 -4.900639742612838745e+00 -5.420320857316198726e-01
1.094704264402389526e+01 -4.766484469175338745e+00 -5.376680720597448726e-01
1.097493571043014526e+01 -4.632817476987838745e+00 -5.333345759659948726e-01
1.100246256589889526e+01 -4.500859469175338745e+00 -5.290468562394323726e-01
1.225124186277389526e+01 -6.542241305112838745e+00 -5.372255671769323726e-01
1.226235026121139526e+01 -6.367558687925338745e+00 -5.314730037003698726e-01
1.226448649168014526e+01 -6.188725680112838745e+00 -5.259340632706823726e-01
1.226656168699264526e+01 -6.011723726987838745e+00 -5.204561579972448726e-01
1.226869791746139526e+01 -5.837773531675338745e+00 -5.150545466691198726e-01
1.227071207761764526e+01 -5.666142672300338745e+00 -5.097444880753698726e-01
1.227272623777389526e+01 -5.496220797300338745e+00 -5.044649470597448726e-01
1.226619547605514526e+01 -5.323491305112838745e+00 -4.994448054581823726e-01
1.394063395261764526e+01 -7.817876070737838745e+00 -5.023592341691198726e-01
1.396114176511764526e+01 -7.624028414487838745e+00 -4.968355525284948726e-01
1.398146647214889526e+01 -7.432378023862838745e+00 -4.913576472550573726e-01
1.396529215574264526e+01 -7.216435641050338745e+00 -4.852541316300573726e-01
1.399269694089889526e+01 -7.034795016050338745e+00 -4.800508845597448726e-01
1.401979655027389526e+01 -6.854863375425338745e+00 -4.748934138566198726e-01
1.404677408933639526e+01 -6.676030367612838745e+00 -4.697664607316198726e-01
1.407332438230514526e+01 -6.499638766050338745e+00 -4.647158015519323726e-01
1.643550699949264526e+01 -9.701543062925338745e+00 -4.596651423722448726e-01
1.638667887449264526e+01 -9.417851656675338745e+00 -4.521425593644323726e-01
1.634651774168014526e+01 -9.145390719175338745e+00 -4.453523982316198726e-01
1.634090250730514526e+01 -8.901128023862838745e+00 -4.390962947159948726e-01
1.635671061277389526e+01 -8.676152437925338745e+00 -4.332216609269323726e-01
1.637233561277389526e+01 -8.453740328550338745e+00 -4.274080622941198726e-01
1.638783854246139526e+01 -8.233281344175338745e+00 -4.216554988175573726e-01
1.639204996824264526e+01 -8.008916109800338745e+00 -4.163149226456823726e-01
2.186806315183639526e+01 -1.380188485980033875e+01 -4.116609919816198726e-01
2.158565348386764526e+01 -1.326135751605033875e+01 -4.017885554581823726e-01
2.131447428464889526e+01 -1.274231454730033875e+01 -3.923128474503698726e-01
2.105299967527389526e+01 -1.224170419573783875e+01 -3.831880915909948726e-01
2.072481364011764526e+01 -1.170813485980033875e+01 -3.739107478409948726e-01
2.045503824949264526e+01 -1.122791025042533875e+01 -3.653200495988073726e-01
2.046181315183639526e+01 -1.094238778948783875e+01 -3.586519587784948726e-01
2.037349528074264526e+01 -1.059985849261283875e+01 -3.515718806534948726e-01
2.990730875730514526e+01 -1.987073251605033875e+01 -3.080232966691198726e-01
2.915859049558639526e+01 -1.886096689105033875e+01 -2.971285212784948726e-01
2.847963541746139526e+01 -1.793103525042533875e+01 -2.860964167863073726e-01
2.793739908933639526e+01 -1.712305185198783875e+01 -2.766512263566198726e-01
2.729482096433639526e+01 -1.626892587542533875e+01 -2.675875056534948726e-01
2.693178385496139526e+01 -1.562903329730033875e+01 -2.592409480363073726e-01
2.681624430418014526e+01 -1.516833993792533875e+01 -2.520998347550573726e-01
2.702327555418014526e+01 -1.492725107073783875e+01 -2.444551814347448726e-01
5.366200846433639526e+01 -3.780139657855033875e+01 -5.794700272380737260e-02
3.417684000730514526e+01 -2.257495614886283875e+01 -1.143587458878698726e-01
4.864613932371139526e+01 -3.253271982073783875e+01 -4.842551834880737260e-02
5.301631754636764526e+01 -3.490112802386283875e+01 -1.711448319255737260e-02
5.449452799558639526e+01 -3.514575693011283875e+01 3.393329307442627396e-03
5.065779703855514526e+01 -3.174792978167533875e+01 -5.892146378698726039e-04
5.282082194089889526e+01 -3.245764657855033875e+01 2.315346114338012740e-02
5.346419352293014526e+01 -3.212964364886283875e+01 3.983131758869262740e-02
3.343636149168014526e+01 -2.254492685198783875e+01 6.314674727619262740e-02
3.390382975339889526e+01 -2.237903329730033875e+01 7.529274336994262740e-02
4.864162272214889526e+01 -3.253760263323783875e+01 2.242490421980676274e-01
5.373006266355514526e+01 -3.541589853167533875e+01 2.852536808699426274e-01
5.170644205808639526e+01 -3.321973153948783875e+01 2.769681584090051274e-01
5.159084147214889526e+01 -3.238989755511283875e+01 2.871915470808801274e-01
5.680733317136764526e+01 -3.511646005511283875e+01 3.531247746199426274e-01
5.323341959714889526e+01 -3.198779794573783875e+01 3.271085392683801274e-01
3.344063395261764526e+01 -2.255396005511283875e+01 2.536069523543176274e-01
3.390999430418014526e+01 -2.238940927386283875e+01 2.670957218855676274e-01
4.824477213621139526e+01 -3.225854989886283875e+01 4.924222599715051274e-01
4.682405680418014526e+01 -3.052820321917533875e+01 4.795285832136926274e-01
4.546950358152389526e+01 -2.889856454730033875e+01 4.669705998152551274e-01
4.421156901121139526e+01 -2.738391610980033875e+01 4.553434025496301274e-01
4.305879801511764526e+01 -2.598242685198783875e+01 4.448453556746301274e-01
4.194801920652389526e+01 -2.465198251605033875e+01 4.344846379011926274e-01
3.349397867918014526e+01 -2.260010263323783875e+01 4.441587101668176274e-01
3.394869059324264526e+01 -2.242383310198783875e+01 4.586850773543176274e-01
5.335927408933639526e+01 -3.597131845355033875e+01 8.700467716902551274e-01
5.375990885496139526e+01 -3.545496103167533875e+01 8.864347111433801274e-01
5.494746989011764526e+01 -3.548694345355033875e+01 9.195005070418176274e-01
5.158107584714889526e+01 -3.239990732073783875e+01 8.554746281355676274e-01
4.319734781980514526e+01 -2.608130380511283875e+01 6.824247013777551274e-01
4.198360270261764526e+01 -2.468164560198783875e+01 6.621762882918176274e-01
3.348805826902389526e+01 -2.260156747698783875e+01 6.348325382918176274e-01
5.417421549558639526e+01 -3.739258310198783875e+01 1.187002338096505127e+00
5.434261149168014526e+01 -3.669275400042533875e+01 1.195821918174630127e+00
5.387904947996139526e+01 -3.554846689105033875e+01 1.189382709190255127e+00
5.387514322996139526e+01 -3.475122568011283875e+01 1.195058978721505127e+00
5.439473551511764526e+01 -3.432092782855033875e+01 1.214742816612130127e+00
5.293324869871139526e+01 -3.256580087542533875e+01 1.182500995323067627e+00
5.247054117918014526e+01 -3.151587411761283875e+01 1.175359882041817627e+00
3.483412760496139526e+01 -2.362427255511283875e+01 8.679258000105676274e-01
5.377223795652389526e+01 -3.628870126605033875e+01 1.484289325401192627e+00
5.337746256589889526e+01 -3.520154306292533875e+01 1.475256122276192627e+00
5.372359293699264526e+01 -3.465479013323783875e+01 1.490133441612130127e+00
5.447328776121139526e+01 -3.438318368792533875e+01 1.518102801963692627e+00
5.226686686277389526e+01 -3.213062021136283875e+01 1.449896014854317627e+00
5.308046549558639526e+01 -3.192114755511283875e+01 1.479864276573067627e+00
3.380263346433639526e+01 -2.285095712542533875e+01 1.027471698448067627e+00
5.373433512449264526e+01 -3.708557626605033875e+01 1.783331073448067627e+00
5.533510416746139526e+01 -3.743066903948783875e+01 1.845724261924630127e+00
5.380348795652389526e+01 -3.551270028948783875e+01 1.789205707237130127e+00
5.324880045652389526e+01 -3.433362314105033875e+01 1.769704974815255127e+00
5.449709147214889526e+01 -3.440808603167533875e+01 1.818731464073067627e+00
5.278279703855514526e+01 -3.248230478167533875e+01 1.755041278526192627e+00
5.538527506589889526e+01 -3.343066903948783875e+01 1.857290424034005127e+00
5.444069498777389526e+01 -3.761792489886283875e+01 2.119924701377755127e+00
5.462331217527389526e+01 -3.692395517230033875e+01 2.127355731651192627e+00
5.370339030027389526e+01 -3.545068857073783875e+01 2.086675800010567627e+00
5.312691324949264526e+01 -3.425769540667533875e+01 2.061010516807442627e+00
5.539528483152389526e+01 -3.423010751605033875e+01 2.158926166221505127e+00
5.542220133543014526e+01 -3.346326181292533875e+01 2.159597552940255127e+00
5.358815592527389526e+01 -3.699597665667533875e+01 2.386053241416817627e+00
5.416469401121139526e+01 -3.660071298480033875e+01 2.411825336143380127e+00
5.574782389402389526e+01 -3.691125985980033875e+01 2.487142718955880127e+00
5.276167887449264526e+01 -3.401245614886283875e+01 2.337469257041817627e+00
5.508144205808639526e+01 -3.482324716448783875e+01 2.449011005088692627e+00
5.485243815183639526e+01 -3.387732431292533875e+01 2.435156024619942627e+00
5.628767985105514526e+01 -3.403601571917533875e+01 2.504675067588692627e+00
5.418575114011764526e+01 -3.662512704730033875e+01 2.719167865440255127e+00
5.501137369871139526e+01 -3.639758798480033875e+01 2.759695209190255127e+00
5.279836100339889526e+01 -3.404651376605033875e+01 2.633505023643380127e+00
5.603316324949264526e+01 -3.467249032855033875e+01 2.801275409385567627e+00
5.449538248777389526e+01 -3.287634775042533875e+01 2.712621844932442627e+00
5.552217692136764526e+01 -3.760400888323783875e+01 3.105032123252755127e+00
5.270100992918014526e+01 -3.398755380511283875e+01 2.920370258018380127e+00
5.553499430418014526e+01 -3.514978525042533875e+01 3.084707416221505127e+00
5.605861490964889526e+01 -3.469836923480033875e+01 3.110998309776192627e+00
5.457057780027389526e+01 -3.293384286761283875e+01 3.014776385948067627e+00
5.564723795652389526e+01 -3.770410653948783875e+01 3.427435077354317627e+00
5.277083414793014526e+01 -3.404468271136283875e+01 3.218816913291817627e+00
5.558089274168014526e+01 -3.518994638323783875e+01 3.395361102744942627e+00
5.613857096433639526e+01 -3.476038095355033875e+01 3.423025287315255127e+00
5.433406656980514526e+01 -3.278809091448783875e+01 3.297369159385567627e+00
9.121481120586395264e+00 -3.276005953550338745e+00 -5.722444880753698726e-01
9.155294597148895264e+00 -3.175664156675338745e+00 -5.688417781144323726e-01
9.185568034648895264e+00 -3.073613375425338745e+00 -5.655763972550573726e-01
9.215780436992645264e+00 -2.971684664487838745e+00 -5.623262751847448726e-01
9.245748698711395264e+00 -2.870732516050338745e+00 -5.590914119034948726e-01
9.275594890117645264e+00 -2.770146578550338745e+00 -5.558870662003698726e-01
9.305319011211395264e+00 -2.669926851987838745e+00 -5.526827204972448726e-01
9.330160319805145264e+00 -2.567754000425338745e+00 -5.495851863175573726e-01
1.009682291746139526e+01 -3.910649508237838745e+00 -5.569551814347448726e-01
1.012007731199264526e+01 -3.789799898862838745e+00 -5.530947078019323726e-01
1.014790934324264526e+01 -3.672856539487838745e+00 -5.491426814347448726e-01
1.017122477293014526e+01 -3.553593844175338745e+00 -5.453432429581823726e-01
1.019435709714889526e+01 -3.435429781675338745e+00 -5.415895808488073726e-01
1.023659342527389526e+01 -3.329472750425338745e+00 -5.384462703019323726e-01
1.030708903074264526e+01 -3.239506930112838745e+00 -5.364321101456823726e-01
1.040749186277389526e+01 -3.166264742612838745e+00 -5.350435603409948726e-01
1.100209635496139526e+01 -4.500127047300338745e+00 -5.290163386613073726e-01
1.102431315183639526e+01 -4.365849703550338745e+00 -5.249269831925573726e-01
1.104634684324264526e+01 -4.232793062925338745e+00 -5.208681453019323726e-01
1.111574381589889526e+01 -4.129033297300338745e+00 -5.180757869034948726e-01
1.121065348386764526e+01 -4.040776461362838745e+00 -5.159548152238073726e-01
1.130611246824264526e+01 -3.952031344175338745e+00 -5.138338435441198726e-01
1.140248697996139526e+01 -3.862553805112838745e+00 -5.116823542863073726e-01
1.149904459714889526e+01 -3.772832125425338745e+00 -5.095156062394323726e-01
1.226527994871139526e+01 -5.322270601987838745e+00 -4.994142878800573726e-01
1.232472819089889526e+01 -5.193974703550338745e+00 -4.954927790909948726e-01
1.240590494871139526e+01 -5.079472750425338745e+00 -4.923952449113073726e-01
1.248750895261764526e+01 -4.964482516050338745e+00 -4.892824519425573726e-01
1.256899088621139526e+01 -4.849736422300338745e+00 -4.861849177628698726e-01
1.265053385496139526e+01 -4.734746187925338745e+00 -4.830721247941198726e-01
1.272017496824264526e+01 -4.612187594175338745e+00 -4.796999324113073726e-01
1.275118082761764526e+01 -4.468754976987838745e+00 -4.759462703019323726e-01
1.407308024168014526e+01 -6.498784273862838745e+00 -4.647005427628698726e-01
1.409230631589889526e+01 -6.319462984800338745e+00 -4.598482478409948726e-01
1.413319987058639526e+01 -6.155400484800338745e+00 -4.554079402238073726e-01
1.418251627683639526e+01 -5.996953219175338745e+00 -4.511049617081823726e-01
1.423146647214889526e+01 -5.839726656675338745e+00 -4.468325007706823726e-01
1.428011149168014526e+01 -5.683354586362838745e+00 -4.425905574113073726e-01
1.432875651121139526e+01 -5.527226656675338745e+00 -4.383486140519323726e-01
1.449684733152389526e+01 -5.438847750425338745e+00 -4.358309138566198726e-01
1.639156168699264526e+01 -8.007817476987838745e+00 -4.162996638566198726e-01
1.641127604246139526e+01 -7.796147555112838745e+00 -4.105471003800573726e-01
1.642458170652389526e+01 -7.582646578550338745e+00 -4.052370417863073726e-01
1.652773112058639526e+01 -7.425297945737838745e+00 -4.008882869034948726e-01
1.663167399168014526e+01 -7.269047945737838745e+00 -3.965700495988073726e-01
1.682460612058639526e+01 -7.164311617612838745e+00 -3.930757869034948726e-01
1.702046793699264526e+01 -7.057988375425338745e+00 -3.895357478409948726e-01
1.736305826902389526e+01 -7.031254976987838745e+00 -3.877199519425573726e-01
2.037184733152389526e+01 -1.059778329730033875e+01 -3.515261042863073726e-01
2.027449625730514526e+01 -1.025562021136283875e+01 -3.447969783097448726e-01
2.017928141355514526e+01 -9.920903414487838745e+00 -3.382051814347448726e-01
2.008577555418014526e+01 -9.592290133237838745e+00 -3.317354548722448726e-01
1.994362467527389526e+01 -9.241337984800338745e+00 -3.251894343644323726e-01
2.043019694089889526e+01 -9.262944430112838745e+00 -3.214357722550573726e-01
2.138509196043014526e+01 -9.539799898862838745e+00 -3.192842829972448726e-01
2.208229655027389526e+01 -9.652714937925338745e+00 -3.157289851456823726e-01
2.702413004636764526e+01 -1.492651864886283875e+01 -2.444246638566198726e-01
2.756819742918014526e+01 -1.489868661761283875e+01 -2.370241511613073726e-01
2.914528483152389526e+01 -1.550317880511283875e+01 -2.282656062394323726e-01
5.148402994871139526e+01 -2.870105478167533875e+01 -2.071779597550573726e-01
5.230458658933639526e+01 -2.849683114886283875e+01 -1.927736628800573726e-01
5.174623697996139526e+01 -2.747705575823783875e+01 -1.796511042863073726e-01
3.528865641355514526e+01 -1.698730966448783875e+01 -1.809786189347448726e-01
5.346394938230514526e+01 -3.212695810198783875e+01 3.987709395588012740e-02
4.114400309324264526e+01 -2.354150888323783875e+01 -1.459678299724487260e-02
5.425484293699264526e+01 -3.113635751605033875e+01 7.024208419025512740e-02
5.171303385496139526e+01 -2.884790536761283875e+01 6.801430098713012740e-02
5.117915934324264526e+01 -2.783459970355033875e+01 7.681862227619262740e-02
3.528505533933639526e+01 -1.699011728167533875e+01 2.508319541817627396e-03
5.323628824949264526e+01 -3.198706552386283875e+01 3.271848332136926274e-01
4.114009684324264526e+01 -2.354529306292533875e+01 2.064267765730676274e-01
5.559328287839889526e+01 -3.197778818011283875e+01 3.756314884871301274e-01
5.608919352293014526e+01 -3.151965829730033875e+01 3.926908146590051274e-01
3.528139322996139526e+01 -1.699292489886283875e+01 1.850339543074426274e-01
4.193965739011764526e+01 -2.464453622698783875e+01 4.343778263777551274e-01
4.088338297605514526e+01 -2.338806650042533875e+01 4.244901310652551274e-01
3.984169596433639526e+01 -2.217712900042533875e+01 4.143888127058801274e-01
3.883833903074264526e+01 -2.102319833636283875e+01 4.045011173933801274e-01
3.527779215574264526e+01 -1.699573251605033875e+01 3.685514103621301274e-01
4.197456949949264526e+01 -2.467371103167533875e+01 6.620084416121301274e-01
4.082430094480514526e+01 -2.335669443011283875e+01 6.429502140730676274e-01
3.970107096433639526e+01 -2.209546396136283875e+01 6.241056095808801274e-01
3.869624918699264526e+01 -2.094226571917533875e+01 6.074887882918176274e-01
3.773372477293014526e+01 -1.984985849261283875e+01 5.914518009871301274e-01
3.681569498777389526e+01 -1.881531259417533875e+01 5.760709416121301274e-01
3.589961832761764526e+01 -1.781055185198783875e+01 5.604459416121301274e-01
3.503389567136764526e+01 -1.686499521136283875e+01 5.456449162215051274e-01
5.247316569089889526e+01 -3.151501962542533875e+01 1.175451434776192627e+00
5.892690104246139526e+01 -3.489319345355033875e+01 1.357259906455880127e+00
5.460469645261764526e+01 -3.138672372698783875e+01 1.243826068565255127e+00
5.841982096433639526e+01 -3.296436044573783875e+01 1.354528583213692627e+00
5.308504313230514526e+01 -3.192151376605033875e+01 1.480032123252755127e+00
5.703670328855514526e+01 -3.369788095355033875e+01 1.613409198448067627e+00
5.848647135496139526e+01 -3.301355478167533875e+01 1.669790424034005127e+00
5.539027994871139526e+01 -3.343127939105033875e+01 1.857488788291817627e+00
5.444820231199264526e+01 -3.205701181292533875e+01 1.822424091026192627e+00
5.800642985105514526e+01 -3.272949716448783875e+01 1.963277972862130127e+00
5.540932291746139526e+01 -3.345227548480033875e+01 2.159032977744942627e+00
5.713509196043014526e+01 -3.377795907855033875e+01 2.234945453330880127e+00
5.361989420652389526e+01 -3.079724618792533875e+01 2.082250751182442627e+00
5.757857340574264526e+01 -3.247729989886283875e+01 2.255605853721505127e+00
5.478175944089889526e+01 -3.003394052386283875e+01 2.134176410362130127e+00
5.628786295652389526e+01 -3.403333017230033875e+01 2.504675067588692627e+00
5.381392496824264526e+01 -3.166919443011283875e+01 2.380468524619942627e+00
5.379884928464889526e+01 -3.091687509417533875e+01 2.378591693565255127e+00
5.509413737058639526e+01 -3.097058603167533875e+01 2.440954364463692627e+00
5.458559244871139526e+01 -2.992480966448783875e+01 2.414892352744942627e+00
5.496370524168014526e+01 -2.941833993792533875e+01 2.432302631065255127e+00
5.449544352293014526e+01 -3.287378427386283875e+01 2.712621844932442627e+00
5.382173746824264526e+01 -3.168237802386283875e+01 2.672903217002755127e+00
5.372572916746139526e+01 -3.087939950823783875e+01 2.664770282432442627e+00
5.426332682371139526e+01 -3.047192880511283875e+01 2.691137469932442627e+00
5.459889811277389526e+01 -2.994067880511283875e+01 2.706518329307442627e+00
5.514638346433639526e+01 -2.953271982073783875e+01 2.733419574424630127e+00
5.456557291746139526e+01 -3.292798349261283875e+01 3.014440692588692627e+00
5.374513834714889526e+01 -3.164172860980033875e+01 2.960424579307442627e+00
5.362386149168014526e+01 -3.082385751605033875e+01 2.946951068565255127e+00
5.480208414793014526e+01 -3.080859872698783875e+01 3.012792743369942627e+00
5.461336344480514526e+01 -2.995728036761283875e+01 2.996877826377755127e+00
5.505263346433639526e+01 -2.948584482073783875e+01 3.018499530479317627e+00
5.433907145261764526e+01 -3.278882333636283875e+01 3.297659076377755127e+00
5.366530436277389526e+01 -3.159900400042533875e+01 3.245412982627755127e+00
5.356154459714889526e+01 -3.079309579730033875e+01 3.232214130088692627e+00
5.402962321043014526e+01 -3.034534189105033875e+01 3.256384051963692627e+00
5.568782633543014526e+01 -3.060632821917533875e+01 3.358007587119942627e+00
9.330160319805145264e+00 -2.567387789487838745e+00 -5.495699275284948726e-01
9.392965495586395264e+00 -2.486577242612838745e+00 -5.476320613175573726e-01
9.485189616680145264e+00 -2.420781344175338745e+00 -5.469301570206823726e-01
9.578756511211395264e+00 -2.354130953550338745e+00 -5.462129939347448726e-01
9.672872722148895264e+00 -2.286992281675338745e+00 -5.454958308488073726e-01
9.793905436992645264e+00 -2.231816500425338745e+00 -5.456179011613073726e-01
9.929037272930145264e+00 -2.181279391050338745e+00 -5.461366999894323726e-01
1.006148356199264526e+01 -2.127568453550338745e+00 -5.467623103409948726e-01
1.040791910886764526e+01 -3.166020601987838745e+00 -5.350435603409948726e-01
1.050502604246139526e+01 -3.089726656675338745e+00 -5.338381160050573726e-01
1.060689371824264526e+01 -3.014897555112838745e+00 -5.324343074113073726e-01
1.070619791746139526e+01 -2.936894625425338745e+00 -5.311983454972448726e-01
1.080605143308639526e+01 -2.858525484800338745e+00 -5.299471247941198726e-01
1.090682047605514526e+01 -2.779301851987838745e+00 -5.286806453019323726e-01
1.100472086668014526e+01 -2.697148531675338745e+00 -5.275820124894323726e-01
1.111098307371139526e+01 -2.618291109800338745e+00 -5.263918269425573726e-01
1.149959391355514526e+01 -3.772587984800338745e+00 -5.095156062394323726e-01
1.158821696043014526e+01 -3.677617281675338745e+00 -5.074404109269323726e-01
1.167732828855514526e+01 -3.582158297300338745e+00 -5.053499568253698726e-01
1.176729410886764526e+01 -3.485722750425338745e+00 -5.032442439347448726e-01
1.185744303464889526e+01 -3.389165133237838745e+00 -5.011385310441198726e-01
1.194808024168014526e+01 -3.291997164487838745e+00 -4.990175593644323726e-01
1.210085123777389526e+01 -3.223149508237838745e+00 -4.982393611222448726e-01
1.232680338621139526e+01 -3.186772555112838745e+00 -4.990175593644323726e-01
1.275130289793014526e+01 -4.468266695737838745e+00 -4.759310115128698726e-01
1.280025309324264526e+01 -4.335576266050338745e+00 -4.721468318253698726e-01
1.289949625730514526e+01 -4.229985445737838745e+00 -4.696596492081823726e-01
1.309810465574264526e+01 -4.174077242612838745e+00 -4.689424861222448726e-01
1.334633463621139526e+01 -4.140385836362838745e+00 -4.690492976456823726e-01
1.358547037839889526e+01 -4.097539156675338745e+00 -4.688509333878698726e-01
1.383193033933639526e+01 -4.053471773862838745e+00 -4.686678279191198726e-01
1.407564371824264526e+01 -4.004277437925338745e+00 -4.686830867081823726e-01
1.449794596433639526e+01 -5.438847750425338745e+00 -4.358309138566198726e-01
1.467891520261764526e+01 -5.355107516050338745e+00 -4.337099421769323726e-01
1.486195963621139526e+01 -5.269658297300338745e+00 -4.315584529191198726e-01
1.510426920652389526e+01 -5.211308687925338745e+00 -4.300936091691198726e-01
1.547225016355514526e+01 -5.212773531675338745e+00 -4.301393855363073726e-01
1.585176676511764526e+01 -5.212529391050338745e+00 -4.301546443253698726e-01
1.623219889402389526e+01 -5.204716891050338745e+00 -4.299715388566198726e-01
1.664357584714889526e+01 -5.204594820737838745e+00 -4.299867976456823726e-01
1.736592692136764526e+01 -7.031987398862838745e+00 -3.877352107316198726e-01
1.787148112058639526e+01 -7.087041109800338745e+00 -3.864839900284948726e-01
1.831313151121139526e+01 -7.097539156675338745e+00 -3.849428523331823726e-01
1.868569010496139526e+01 -7.062627047300338745e+00 -3.826235163956823726e-01
1.908003824949264526e+01 -7.032353609800338745e+00 -3.803194392472448726e-01
1.948750895261764526e+01 -7.001103609800338745e+00 -3.779390681534948726e-01
1.991036051511764526e+01 -6.968754976987838745e+00 -3.754671443253698726e-01
2.053041666746139526e+01 -7.021245211362838745e+00 -3.747042048722448726e-01
2.208522623777389526e+01 -9.653447359800338745e+00 -3.157289851456823726e-01
2.315669840574264526e+01 -9.954106539487838745e+00 -3.133638728409948726e-01
2.398366373777389526e+01 -1.010083505511283875e+01 -3.097475398331823726e-01
2.444209879636764526e+01 -1.003809091448783875e+01 -3.046816218644323726e-01
2.494454020261764526e+01 -9.990117281675338745e+00 -2.995699275284948726e-01
2.538039225339889526e+01 -9.900029391050338745e+00 -2.941225398331823726e-01
2.703890055418014526e+01 -1.038696786761283875e+01 -2.909334529191198726e-01
3.529012125730514526e+01 -1.698657724261283875e+01 -1.809633601456823726e-01
3.528645914793014526e+01 -1.698938485980033875e+01 2.538837119942627396e-03
3.528285807371139526e+01 -1.699219247698783875e+01 1.850797306746301274e-01
3.527925699949264526e+01 -1.699500009417533875e+01 3.685819279402551274e-01
3.502699869871139526e+01 -1.685962411761283875e+01 5.454923283308801274e-01
3.412837809324264526e+01 -1.592395517230033875e+01 5.298368107527551274e-01
3.312990397214889526e+01 -1.496301767230033875e+01 5.115872990340051274e-01
3.235829752683639526e+01 -1.414783212542533875e+01 4.982663761824426274e-01
3.151210612058639526e+01 -1.331995126605033875e+01 4.829465519636926274e-01
3.069258707761764526e+01 -1.253027841448783875e+01 4.679929386824426274e-01
2.984621256589889526e+01 -1.175061532855033875e+01 4.521543156355676274e-01
2.905641764402389526e+01 -1.102295419573783875e+01 4.373685490340051274e-01
3.243697184324264526e+01 -1.419263193011283875e+01 6.652738224715051274e-01
3.156966227293014526e+01 -1.335303232073783875e+01 6.441861759871301274e-01
3.073592203855514526e+01 -1.255542489886283875e+01 6.238309513777551274e-01
2.987282389402389526e+01 -1.176709482073783875e+01 6.032315861433801274e-01
2.906587809324264526e+01 -1.103088876605033875e+01 5.831967961043176274e-01
3.194252604246139526e+01 -1.377832528948783875e+01 6.046964298933801274e-01
3.105580729246139526e+01 -1.291724130511283875e+01 5.850888859480676274e-01
3.017445963621139526e+01 -1.208508798480033875e+01 5.653592716902551274e-01
2.933070963621139526e+01 -1.129541513323783875e+01 5.472013127058801274e-01
2.847585123777389526e+01 -1.052612802386283875e+01 5.276395451277551274e-01
3.116078776121139526e+01 -1.282935068011283875e+01 2.130490910261926274e-01
3.461824625730514526e+01 -1.647571298480033875e+01 4.343625675886926274e-01
3.366823405027389526e+01 -1.547888681292533875e+01 4.209653507918176274e-01
3.272688883543014526e+01 -1.451587411761283875e+01 4.073850285261926274e-01
3.178877848386764526e+01 -1.358179208636283875e+01 3.935147892683801274e-01
3.090492838621139526e+01 -1.270471689105033875e+01 3.804074894636926274e-01
2.995570963621139526e+01 -1.182178232073783875e+01 3.655912052840051274e-01
2.906484049558639526e+01 -1.099304696917533875e+01 3.516751896590051274e-01
2.810475748777389526e+01 -1.015906259417533875e+01 3.359281193465051274e-01
3.460152262449264526e+01 -1.647192880511283875e+01 6.294767033308801274e-01
3.358968180418014526e+01 -1.544141122698783875e+01 6.084958683699426274e-01
3.264363688230514526e+01 -1.447668954730033875e+01 5.879117619246301274e-01
3.171797770261764526e+01 -1.354980966448783875e+01 5.685788761824426274e-01
3.083925455808639526e+01 -1.267603036761283875e+01 5.501615177840051274e-01
2.990395182371139526e+01 -1.180066415667533875e+01 5.299741398543176274e-01
2.902358072996139526e+01 -1.097742196917533875e+01 5.118161808699426274e-01
2.807369059324264526e+01 -1.014856454730033875e+01 4.906522404402551274e-01
1.728810709714889526e+01 -1.913579195737838745e+00 1.223050724715051274e-01
