1.457018935680389404e+01 -1.091262593865394592e+01 -4.358717020600977321e-01
1.594525039196014404e+01 -1.188674703240394592e+01 -4.453474100679102321e-01
1.668334853649139404e+01 -1.224990621209144592e+01 -4.464765604585352321e-01
1.721429336071014404e+01 -1.241299214959144592e+01 -4.448438700288477321e-01
1.238030898571014404e+01 -9.862332969903945923e+00 -3.512464579194727321e-01
1.278924453258514404e+01 -1.001431050896644592e+01 -3.488050516694727321e-01
1.317407119274139404e+01 -1.013186421990394592e+01 -3.454786356538477321e-01
1.441662490367889404e+01 -1.104739156365394592e+01 -3.478590067475977321e-01
1.459680068492889404e+01 -1.094045796990394592e+01 -3.430067118257227321e-01
1.587029922008514404e+01 -1.182229390740394592e+01 -3.442121561616602321e-01
1.665539443492889404e+01 -1.222854390740394592e+01 -3.425336893647852321e-01
1.723870742321014404e+01 -1.243777242302894592e+01 -3.388715799897852321e-01
1.230779922008514404e+01 -9.792752891778945923e+00 -2.688032206147852321e-01
1.276470839977264404e+01 -9.993192344903945923e+00 -2.645612772554102321e-01
1.314080703258514404e+01 -1.010293355584144592e+01 -2.600446756929102321e-01
1.447204482555389404e+01 -1.110293355584144592e+01 -2.554060038179102321e-01
1.536645400524139404e+01 -1.165517964959144592e+01 -2.500806864350977321e-01
1.583215224742889404e+01 -1.179104390740394592e+01 -2.444807108491602321e-01
1.629821670055389404e+01 -1.191482320427894592e+01 -2.386518534272852321e-01
1.726336562633514404e+01 -1.246279683709144592e+01 -2.320142801850977321e-01
1.223638808727264404e+01 -9.724271446466445923e+00 -1.877027567475977321e-01
1.272253310680389404e+01 -9.954862266778945923e+00 -1.811567362397852321e-01
1.310772597789764404e+01 -1.007412496209144592e+01 -1.749921854585352321e-01
1.454382216930389404e+01 -1.117385640740394592e+01 -1.621290262788477321e-01
1.474859511852264404e+01 -1.108718648552894592e+01 -1.565443094819727321e-01
1.579772841930389404e+01 -1.176333394646644592e+01 -1.451765116304102321e-01
1.618231093883514404e+01 -1.181533589959144592e+01 -1.379896219819727321e-01
1.728802382946014404e+01 -1.248782125115394592e+01 -1.253858622163477321e-01
1.220513808727264404e+01 -9.695829063653945923e+00 -1.065870340913477321e-01
1.264672744274139404e+01 -9.883451133966445923e+00 -9.824047647416023210e-02
1.380016982555389404e+01 -1.074380269646644592e+01 -8.095226846634773210e-02
1.425286757946014404e+01 -1.090273824334144592e+01 -7.198010049759773210e-02
1.473284804821014404e+01 -1.107583394646644592e+01 -6.251965127884773210e-02
1.576208388805389404e+01 -1.173440328240394592e+01 -4.575024209916023210e-02
1.610272109508514404e+01 -1.174807515740394592e+01 -3.769360147416023210e-02
1.645306289196014404e+01 -1.176431050896644592e+01 -2.942333780228523210e-02
1.220568740367889404e+01 -9.699369102716445923e+00 -2.571545206009773210e-02
1.257220351696014404e+01 -9.813138633966445923e+00 -1.668224893509773210e-02
1.381695449352264404e+01 -1.076308980584144592e+01 8.845705166464767899e-03
1.427197158336639404e+01 -1.092397847771644592e+01 1.989306844771476790e-02
1.471984755992889404e+01 -1.106704488396644592e+01 3.089465536177726790e-02
1.486950576305389404e+01 -1.092837300896644592e+01 3.628100790083976790e-02
1.604846084117889404e+01 -1.170315328240394592e+01 6.161059774458976790e-02
1.637841689586639404e+01 -1.170266500115394592e+01 7.068957723677726790e-02
1.220623672008514404e+01 -9.702909141778945923e+00 5.561389364302726790e-02
1.276428115367889404e+01 -1.000491109490394592e+01 7.102527059615226790e-02
1.383373916149139404e+01 -1.078237691521644592e+01 9.888781942427726790e-02
1.430883681774139404e+01 -1.096194234490394592e+01 1.124681416899022679e-01
1.473583877086639404e+01 -1.108511129021644592e+01 1.248887959867772679e-01
1.506439101696014404e+01 -1.110842671990394592e+01 1.348985616117772679e-01
1.599548232555389404e+01 -1.165957418084144592e+01 1.608385030180272679e-01
1.632256972789764404e+01 -1.165737691521644592e+01 1.709398213774022679e-01
1.243389785289764404e+01 -9.933988243341445923e+00 1.436571065336522679e-01
1.292230117321014404e+01 -1.016311421990394592e+01 1.597246114164647679e-01
1.358007705211639404e+01 -1.054128804802894592e+01 1.811479512602147679e-01
1.435491836071014404e+01 -1.100869527459144592e+01 2.063096944242772679e-01
1.489672744274139404e+01 -1.123733296990394592e+01 2.241929952055272679e-01
1.560351455211639404e+01 -1.160073629021644592e+01 2.473405782133397679e-01
1.594488418102264404e+01 -1.161782613396644592e+01 2.589677754789647679e-01
1.626733291149139404e+01 -1.161257711052894592e+01 2.700303975492772679e-01
1.264214980602264404e+01 -1.014578023552894592e+01 2.344011250883397679e-01
1.316009414196014404e+01 -1.039993062615394592e+01 2.534898702055272679e-01
1.344451797008514404e+01 -1.041372457146644592e+01 2.641710225492772679e-01
1.456976211071014404e+01 -1.121487203240394592e+01 3.066667500883397679e-01
1.483489882946014404e+01 -1.118337789177894592e+01 3.166154805570897679e-01
1.554357802867889404e+01 -1.154971089959144592e+01 3.433336202055272679e-01
1.589453017711639404e+01 -1.157644429802894592e+01 3.565324727445897679e-01
1.621221816539764404e+01 -1.156789937615394592e+01 3.689989034086522679e-01
1.278240859508514404e+01 -1.028957906365394592e+01 3.244279805570897679e-01
1.316900527477264404e+01 -1.041177144646644592e+01 3.406633321195897679e-01
1.340649306774139404e+01 -1.038027730584144592e+01 3.502916280180272679e-01
1.452392470836639404e+01 -1.117483296990394592e+01 3.987382832914647679e-01
1.478723037242889404e+01 -1.114248433709144592e+01 4.094194356352147679e-01
1.547595107555389404e+01 -1.149172750115394592e+01 4.388078633695897679e-01
1.584417617321014404e+01 -1.153506246209144592e+01 4.540361348539647679e-01
1.615765273571014404e+01 -1.152370992302894592e+01 4.668382588774022679e-01
1.288250625133514404e+01 -1.039309468865394592e+01 4.146989766508397679e-01
1.318646132946014404e+01 -1.043203511834144592e+01 4.279588643461522679e-01
1.394219863414764404e+01 -1.089980855584144592e+01 4.645036641508397679e-01
1.447863662242889404e+01 -1.113528218865394592e+01 4.898027364164647679e-01
1.474011123180389404e+01 -1.110220113396644592e+01 5.011705342680272679e-01
1.535272109508514404e+01 -1.138320699334144592e+01 5.301469746977147679e-01
1.584960830211639404e+01 -1.154324117302894592e+01 5.532030049711522679e-01
1.619677627086639404e+01 -1.156118550896644592e+01 5.692399922758397679e-01
1.314776504039764404e+01 -1.066238179802894592e+01 5.153306905180272679e-01
1.323461806774139404e+01 -1.048257222771644592e+01 5.177263204008397679e-01
1.398443496227264404e+01 -1.094363179802894592e+01 5.579332295805272679e-01
1.443279922008514404e+01 -1.109524312615394592e+01 5.807756368070897679e-01
1.469305312633514404e+01 -1.106179586052894592e+01 5.928605977445897679e-01
1.516198623180389404e+01 -1.121328511834144592e+01 6.166795674711522679e-01
1.590807998180389404e+01 -1.159866109490394592e+01 6.559862080961522679e-01
1.629980361461639404e+01 -1.165444722771644592e+01 6.751970235258397679e-01
1.292773330211639404e+01 -1.044460836052894592e+01 5.888780537992772679e-01
1.333965957164764404e+01 -1.058901754021644592e+01 6.117662373930272679e-01
1.402661025524139404e+01 -1.098757711052894592e+01 6.514543477445897679e-01
1.437872207164764404e+01 -1.104739156365394592e+01 6.701768819242772679e-01
1.464648330211639404e+01 -1.102187886834144592e+01 6.835283223539647679e-01
1.508483779430389404e+01 -1.114651265740394592e+01 7.074846211820897679e-01
1.598736464977264404e+01 -1.167263570427894592e+01 7.608140889555272679e-01
1.639904677867889404e+01 -1.174441304802894592e+01 7.827409688383397679e-01
1.276336562633514404e+01 -1.028274312615394592e+01 6.635087911039647679e-01
1.309808242321014404e+01 -1.035452046990394592e+01 6.824144307524022679e-01
1.404925429821014404e+01 -1.101272359490394592e+01 7.446550313383397679e-01
1.432134902477264404e+01 -1.099636617302894592e+01 7.591966573149022679e-01
1.459997451305389404e+01 -1.098196187615394592e+01 7.741197530180272679e-01
1.500805556774139404e+01 -1.107998433709144592e+01 7.978929463774022679e-01
1.588287246227264404e+01 -1.158291402459144592e+01 8.534959737211522679e-01
1.649035537242889404e+01 -1.182754293084144592e+01 8.910020772367772679e-01
7.974791407585144043e+00 -4.363431602716445923e+00 -6.447797831147852321e-01
8.025023341178894043e+00 -4.263578087091445923e+00 -6.409650858491602321e-01
8.070433497428894043e+00 -4.160428673028945923e+00 -6.372114237397852321e-01
8.115782618522644043e+00 -4.057523399591445923e+00 -6.334730204194727321e-01
8.160704493522644043e+00 -3.955350548028945923e+00 -6.297651346772852321e-01
8.205382227897644043e+00 -3.853910118341445923e+00 -6.260877665132227321e-01
8.238280177116394043e+00 -3.743558555841445923e+00 -6.218915995210352321e-01
8.261961817741394043e+00 -3.627835899591445923e+00 -6.176343973725977321e-01
8.870909571647644043e+00 -5.143827110528945923e+00 -6.316419657319727321e-01
8.912474513053894043e+00 -5.021024376153945923e+00 -6.272474344819727321e-01
8.958678126335144043e+00 -4.903470665216445923e+00 -6.227918680757227321e-01
8.999754786491394043e+00 -4.782010704278945923e+00 -6.184431131929102321e-01
9.040343165397644043e+00 -4.661893516778945923e+00 -6.141401346772852321e-01
9.080626368522644043e+00 -4.542630821466445923e+00 -6.098676737397852321e-01
9.115843653678894043e+00 -4.420072227716445923e+00 -6.057172831147852321e-01
9.155638575553894043e+00 -4.302640587091445923e+00 -6.015211161225977321e-01
9.949156641960144043e+00 -6.082914024591445923e+00 -6.139722879975977321e-01
9.968260645866394043e+00 -5.922269493341445923e+00 -6.083417948335352321e-01
9.996764063835144043e+00 -5.771878868341445923e+00 -6.031080301850977321e-01
1.003820693492889404e+01 -5.633206993341445923e+00 -5.983625467866602321e-01
1.007525527477264404e+01 -5.493192344903945923e+00 -5.935407694429102321e-01
1.009094130992889404e+01 -5.337796837091445923e+00 -5.880781229585352321e-01
1.010650527477264404e+01 -5.183866173028945923e+00 -5.826612528413477321e-01
1.012176406383514404e+01 -5.032376915216445923e+00 -5.773511942475977321e-01
1.007592666149139404e+01 -6.195218712091445923e+00 -5.557600077241602321e-01
1.093981826305389404e+01 -6.752225548028945923e+00 -5.742536600679102321e-01
1.151666152477264404e+01 -7.043119102716445923e+00 -5.841871317475977321e-01
1.149304091930389404e+01 -6.825711876153945923e+00 -5.770612772554102321e-01
1.152197158336639404e+01 -6.655057579278945923e+00 -5.715070780366602321e-01
1.153210341930389404e+01 -6.471707969903945923e+00 -5.655256327241602321e-01
1.154211318492889404e+01 -6.290433555841445923e+00 -5.596052225679102321e-01
1.154296767711639404e+01 -6.105497032403945923e+00 -5.539289530366602321e-01
1.016992080211639404e+01 -6.278958946466445923e+00 -4.948926981538477321e-01
1.100488173961639404e+01 -6.809842735528945923e+00 -5.083509501069727321e-01
1.208593642711639404e+01 -7.520902305841445923e+00 -5.264631327241602321e-01
1.332842910289764404e+01 -8.330106407403945923e+00 -5.470624979585352321e-01
1.323333632946014404e+01 -8.029569298028945923e+00 -5.383802469819727321e-01
1.317974746227264404e+01 -7.768460899591445923e+00 -5.307508524507227321e-01
1.320623672008514404e+01 -7.573392540216445923e+00 -5.248609598725977321e-01
1.323235976696014404e+01 -7.381375938653945923e+00 -5.190626200288477321e-01
1.082336318492889404e+01 -6.849515587091445923e+00 -4.427228983491602321e-01
1.107104384899139404e+01 -6.868558555841445923e+00 -4.412885721772852321e-01
1.216497695446014404e+01 -7.589261680841445923e+00 -4.536481913179102321e-01
1.356762588024139404e+01 -8.528470665216445923e+00 -4.699140604585352321e-01
1.555157363414764404e+01 -9.891629844903945923e+00 -4.938551004975977321e-01
1.596295058727264404e+01 -9.958158165216445923e+00 -4.930006083100977321e-01
1.583660781383514404e+01 -9.600858360528945923e+00 -4.841962870210352321e-01
1.572814834117889404e+01 -9.265897423028945923e+00 -4.763837870210352321e-01
1.721594130992889404e+01 -1.241335836052894592e+01 -4.448286112397852321e-01
1.753790175914764404e+01 -1.238503804802894592e+01 -4.409376200288477321e-01
1.359912002086639404e+01 -8.790067344903945923e+00 -3.939405497163477321e-01
1.387469375133514404e+01 -8.782498985528945923e+00 -3.910108622163477321e-01
1.580767714977264404e+01 -1.010012593865394592e+01 -4.033552225679102321e-01
2.162682998180389404e+01 -1.441335836052894592e+01 -4.488416727632227321e-01
2.142730605602264404e+01 -1.390884175896644592e+01 -4.387250956147852321e-01
2.116210830211639404e+01 -1.336758199334144592e+01 -4.283796366304102321e-01
1.724041640758514404e+01 -1.243813863396644592e+01 -3.388563212007227321e-01
1.756573379039764404e+01 -1.241225972771644592e+01 -3.339124735444727321e-01
1.791412246227264404e+01 -1.239944234490394592e+01 -3.283430155366602321e-01
2.377130019664764404e+01 -1.689053121209144592e+01 -3.437086161225977321e-01
1.919677627086639404e+01 -1.282290425896644592e+01 -3.198896463960352321e-01
3.018987929821014404e+01 -2.115017476677894592e+01 -3.465925272554102321e-01
2.967327773571014404e+01 -2.026382222771644592e+01 -3.358198221772852321e-01
2.920202529430389404e+01 -1.943728414177894592e+01 -3.247419413179102321e-01
1.726507461071014404e+01 -1.246328511834144592e+01 -2.319837626069727321e-01
1.759380996227264404e+01 -1.243972554802894592e+01 -2.259412821382227321e-01
3.397009170055389404e+01 -2.524990621209144592e+01 -1.789289530366602321e-01
3.218078505992889404e+01 -2.324844136834144592e+01 -1.731153544038477321e-01
5.294952285289764404e+01 -3.736379781365394592e+01 -7.469616495072273210e-02
1.728967177867889404e+01 -1.248818746209144592e+01 -1.253706034272852321e-01
1.762182509899139404e+01 -1.246719136834144592e+01 -1.181684549897852321e-01
3.382214248180389404e+01 -2.513516011834144592e+01 2.270068563521476790e-02
3.209802138805389404e+01 -2.318813863396644592e+01 1.688708700240226790e-02
3.212750136852264404e+01 -2.268557515740394592e+01 2.520312704146476790e-02
3.239141738414764404e+01 -2.236916890740394592e+01 3.550280965865226790e-02
3.272631728649139404e+01 -2.210806050896644592e+01 4.642810262740226790e-02
1.645526015758514404e+01 -1.176516500115394592e+01 -2.939282022416023210e-02
1.767315566539764404e+01 -1.251467671990394592e+01 -9.144407138222732101e-03
5.990771377086639404e+01 -4.753420796990394592e+01 5.805314961820897679e-01
3.377746474742889404e+01 -2.510513082146644592e+01 2.251695577055272679e-01
3.205157363414764404e+01 -2.315688863396644592e+01 2.074998799711522679e-01
3.213250625133514404e+01 -2.269546285271644592e+01 2.151903096586522679e-01
3.242205703258514404e+01 -2.239870992302894592e+01 2.259019795805272679e-01
3.273297011852264404e+01 -2.211892476677894592e+01 2.369188252836522679e-01
1.638024795055389404e+01 -1.170315328240394592e+01 7.073535360396476790e-02
1.774999892711639404e+01 -1.258376851677894592e+01 1.004442159086522679e-01
3.382574355602264404e+01 -2.515127339959144592e+01 4.279436055570897679e-01
3.209033095836639404e+01 -2.319412007927894592e+01 3.983110371977147679e-01
3.217968642711639404e+01 -2.273855367302894592e+01 4.051317159086522679e-01
3.246545302867889404e+01 -2.243813863396644592e+01 4.159501973539647679e-01
3.278405654430389404e+01 -2.216335836052894592e+01 4.274400655180272679e-01
1.632433974742889404e+01 -1.165798726677894592e+01 1.710008565336522679e-01
1.804437148571014404e+01 -1.283877339959144592e+01 2.171892110258397679e-01
2.169531142711639404e+01 -1.558132711052894592e+01 3.129686299711522679e-01
3.354675185680389404e+01 -2.492898336052894592e+01 6.228441182524022679e-01
3.226751601696014404e+01 -2.334255757927894592e+01 5.932420674711522679e-01
3.218658339977264404e+01 -2.275002828240394592e+01 5.946306172758397679e-01
3.245934951305389404e+01 -2.243935933709144592e+01 6.062730733305272679e-01
3.277813613414764404e+01 -2.216482320427894592e+01 6.180986348539647679e-01
1.626910293102264404e+01 -1.161318746209144592e+01 2.700914327055272679e-01
1.805285537242889404e+01 -1.284963765740394592e+01 3.278459493070897679e-01
2.155981338024139404e+01 -1.547219625115394592e+01 4.406694356352147679e-01
3.316699111461639404e+01 -2.407156148552894592e+01 8.144182149320897679e-01
3.278320205211639404e+01 -2.322573629021644592e+01 8.041490498930272679e-01
3.412481582164764404e+01 -2.318813863396644592e+01 8.512071553617772679e-01
1.621398818492889404e+01 -1.156850972771644592e+01 3.690751973539647679e-01
1.745202529430389404e+01 -1.233999410271644592e+01 4.155839864164647679e-01
2.135558974742889404e+01 -1.530557027459144592e+01 5.634874287992772679e-01
3.320104873180389404e+01 -2.410525289177894592e+01 1.012446779385214768e+00
3.245391738414764404e+01 -2.297244039177894592e+01 9.846147481352147679e-01
3.274578750133514404e+01 -2.267214742302894592e+01 9.961198750883397679e-01
3.309265029430389404e+01 -2.241421285271644592e+01 1.010722536221152268e+00
1.615942275524139404e+01 -1.152432027459144592e+01 4.668992940336522679e-01
1.743035781383514404e+01 -1.232510152459144592e+01 5.220750752836522679e-01
2.113909804821014404e+01 -1.512844625115394592e+01 6.840318623930272679e-01
1.619909560680389404e+01 -1.156228414177894592e+01 5.693468037992772679e-01
1.743249404430389404e+01 -1.233047261834144592e+01 6.289476338774022679e-01
2.091381728649139404e+01 -1.494399800896644592e+01 8.008989278227147679e-01
1.630218398571014404e+01 -1.165542379021644592e+01 6.753190938383397679e-01
1.676891982555389404e+01 -1.176662984490394592e+01 6.991838399320897679e-01
2.078326308727264404e+01 -1.483877339959144592e+01 9.210618916899022679e-01
2.177709853649139404e+01 -1.529958882927894592e+01 9.736436787992772679e-01
1.640142714977264404e+01 -1.174551168084144592e+01 7.828782979399022679e-01
1.832720839977264404e+01 -1.310256734490394592e+01 8.992570821195897679e-01
2.080340468883514404e+01 -1.485976949334144592e+01 1.048350710049277268e+00
2.173290908336639404e+01 -1.526748433709144592e+01 1.101817506924277268e+00
1.649279677867889404e+01 -1.182864156365394592e+01 8.911546651274022679e-01
1.737487685680389404e+01 -1.229177632927894592e+01 9.466813985258397679e-01
2.082830703258514404e+01 -1.488479390740394592e+01 1.176890749111777268e+00
2.170532119274139404e+01 -1.524905171990394592e+01 1.231334108486777268e+00
8.262083888053894043e+00 -3.627469688653945923e+00 -6.176191385835352321e-01
8.289427638053894043e+00 -3.515775352716445923e+00 -6.133771952241602321e-01
8.311400294303894043e+00 -3.401151329278945923e+00 -6.092115458100977321e-01
8.333250880241394043e+00 -3.287259727716445923e+00 -6.050611551850977321e-01
8.354796290397644043e+00 -3.174710899591445923e+00 -6.009565409272852321e-01
8.376219630241394043e+00 -3.063138633966445923e+00 -5.968977030366602321e-01
8.397459864616394043e+00 -2.952176719903945923e+00 -5.928693827241602321e-01
8.413329005241394043e+00 -2.839261680841445923e+00 -5.889326151460352321e-01
9.155699610710144043e+00 -4.302152305841445923e+00 -6.014905985444727321e-01
9.189635157585144043e+00 -4.181546837091445923e+00 -5.974317606538477321e-01
9.228331446647644043e+00 -4.065213829278945923e+00 -5.932966288179102321e-01
9.261900782585144043e+00 -3.945706993341445923e+00 -5.892835672944727321e-01
9.295164942741394043e+00 -3.827420860528945923e+00 -5.853010233491602321e-01
9.328184962272644043e+00 -3.709989219903945923e+00 -5.813642557710352321e-01
9.356078028678894043e+00 -3.589627891778945923e+00 -5.775342997163477321e-01
9.388609766960144043e+00 -3.473905235528945923e+00 -5.736433085054102321e-01
1.012182509899139404e+01 -5.031888633966445923e+00 -5.773206766694727321e-01
1.013116347789764404e+01 -4.878080040216445923e+00 -5.721937235444727321e-01
1.015380752086639404e+01 -4.735746055841445923e+00 -5.675397928804102321e-01
1.018243300914764404e+01 -4.598783165216445923e+00 -5.630994852632227321e-01
1.021069228649139404e+01 -4.463285118341445923e+00 -5.587049540132227321e-01
1.023870742321014404e+01 -4.329129844903945923e+00 -5.543409403413477321e-01
1.026660048961639404e+01 -4.195462852716445923e+00 -5.500074442475977321e-01
1.029412734508514404e+01 -4.063504844903945923e+00 -5.457197245210352321e-01
1.154290664196014404e+01 -6.104886680841445923e+00 -5.538984354585352321e-01
1.155401504039764404e+01 -5.930204063653945923e+00 -5.481458719819727321e-01
1.155615127086639404e+01 -5.751371055841445923e+00 -5.426069315522852321e-01
1.155822646617889404e+01 -5.574369102716445923e+00 -5.371290262788477321e-01
1.156036269664764404e+01 -5.400418907403945923e+00 -5.317274149507227321e-01
1.156237685680389404e+01 -5.228788048028945923e+00 -5.264173563569727321e-01
1.156439101696014404e+01 -5.058866173028945923e+00 -5.211378153413477321e-01
1.155786025524139404e+01 -4.886136680841445923e+00 -5.161176737397852321e-01
1.323229873180389404e+01 -7.380521446466445923e+00 -5.190321024507227321e-01
1.325280654430389404e+01 -7.186673790216445923e+00 -5.135084208100977321e-01
1.327313125133514404e+01 -6.995023399591445923e+00 -5.080305155366602321e-01
1.325695693492889404e+01 -6.779081016778945923e+00 -5.019269999116602321e-01
1.328436172008514404e+01 -6.597440391778945923e+00 -4.967237528413477321e-01
1.331146132946014404e+01 -6.417508751153945923e+00 -4.915662821382227321e-01
1.333843886852264404e+01 -6.238675743341445923e+00 -4.864393290132227321e-01
1.336498916149139404e+01 -6.062284141778945923e+00 -4.813886698335352321e-01
1.572717177867889404e+01 -9.264188438653945923e+00 -4.763380106538477321e-01
1.567834365367889404e+01 -8.980497032403945923e+00 -4.688154276460352321e-01
1.563818252086639404e+01 -8.708036094903945923e+00 -4.620252665132227321e-01
1.563256728649139404e+01 -8.463773399591445923e+00 -4.557691629975977321e-01
1.564837539196014404e+01 -8.238797813653945923e+00 -4.498945292085352321e-01
1.566400039196014404e+01 -8.016385704278945923e+00 -4.440809305757227321e-01
1.567950332164764404e+01 -7.795926719903945923e+00 -4.383283670991602321e-01
1.568371474742889404e+01 -7.571561485528945923e+00 -4.329877909272852321e-01
2.115972793102264404e+01 -1.336453023552894592e+01 -4.283338602632227321e-01
2.087731826305389404e+01 -1.282400289177894592e+01 -4.184614237397852321e-01
2.060613906383514404e+01 -1.230495992302894592e+01 -4.089857157319727321e-01
2.034466445446014404e+01 -1.180434957146644592e+01 -3.998609598725977321e-01
2.001647841930389404e+01 -1.127078023552894592e+01 -3.905836161225977321e-01
1.974670302867889404e+01 -1.079055562615394592e+01 -3.819929178804102321e-01
1.975347793102264404e+01 -1.050503316521644592e+01 -3.753248270600977321e-01
1.966516005992889404e+01 -1.016250386834144592e+01 -3.682447489350977321e-01
2.919897353649139404e+01 -1.943337789177894592e+01 -3.246961649507227321e-01
2.845025527477264404e+01 -1.842361226677894592e+01 -3.138013895600977321e-01
2.777130019664764404e+01 -1.749368062615394592e+01 -3.027692850679102321e-01
2.722906386852264404e+01 -1.668569722771644592e+01 -2.933240946382227321e-01
2.658648574352264404e+01 -1.583157125115394592e+01 -2.842603739350977321e-01
2.622344863414764404e+01 -1.519167867302894592e+01 -2.759138163179102321e-01
2.610790908336639404e+01 -1.473098531365394592e+01 -2.687727030366602321e-01
2.631494033336639404e+01 -1.448989644646644592e+01 -2.611280497163477321e-01
5.295367324352264404e+01 -3.736404195427894592e+01 -7.461987100541023210e-02
3.346850478649139404e+01 -2.213760152459144592e+01 -1.310316141694727321e-01
4.793780410289764404e+01 -3.209536519646644592e+01 -6.509838663041023210e-02
5.230798232555389404e+01 -3.446377339959144592e+01 -3.378735147416023210e-02
5.378619277477264404e+01 -3.470840230584144592e+01 -1.327953897416023210e-02
4.994946181774139404e+01 -3.131057515740394592e+01 -1.726208291947273210e-02
5.211248672008514404e+01 -3.202029195427894592e+01 6.480592861777267899e-03
5.275585830211639404e+01 -3.169228902459144592e+01 2.315844930708976790e-02
3.272802627086639404e+01 -2.210757222771644592e+01 4.647387899458976790e-02
3.319549453258514404e+01 -2.194167867302894592e+01 5.861987508833976790e-02
4.793328750133514404e+01 -3.210024800896644592e+01 2.075761739164647679e-01
5.302172744274139404e+01 -3.497854390740394592e+01 2.685808125883397679e-01
5.099810683727264404e+01 -3.278237691521644592e+01 2.602952901274022679e-01
5.088250625133514404e+01 -3.195254293084144592e+01 2.705186787992772679e-01
5.609899795055389404e+01 -3.467910543084144592e+01 3.364519063383397679e-01
5.252508437633514404e+01 -3.155044332146644592e+01 3.104356709867772679e-01
3.273229873180389404e+01 -2.211660543084144592e+01 2.369340840727147679e-01
3.320165908336639404e+01 -2.195205464959144592e+01 2.504228536039647679e-01
4.753643691539764404e+01 -3.182119527459144592e+01 4.757493916899022679e-01
4.611572158336639404e+01 -3.009084859490394592e+01 4.628557149320897679e-01
4.476116836071014404e+01 -2.846120992302894592e+01 4.502977315336522679e-01
4.350323379039764404e+01 -2.694656148552894592e+01 4.386705342680272679e-01
4.235046279430389404e+01 -2.554507222771644592e+01 4.281724873930272679e-01
4.123968398571014404e+01 -2.421462789177894592e+01 4.178117696195897679e-01
3.278564345836639404e+01 -2.216274800896644592e+01 4.274858418852147679e-01
3.324035537242889404e+01 -2.198647847771644592e+01 4.420122090727147679e-01
5.265093886852264404e+01 -3.553396382927894592e+01 8.533739034086522679e-01
5.305157363414764404e+01 -3.501760640740394592e+01 8.697618428617772679e-01
5.423913466930389404e+01 -3.504958882927894592e+01 9.028276387602147679e-01
5.087274062633514404e+01 -3.196255269646644592e+01 8.388017598539647679e-01
4.248901259899139404e+01 -2.564394918084144592e+01 6.657518330961522679e-01
4.127526748180389404e+01 -2.424429097771644592e+01 6.455034200102147679e-01
3.277972304821014404e+01 -2.216421285271644592e+01 6.181596700102147679e-01
5.346588027477264404e+01 -3.695522847771644592e+01 1.170329469814902268e+00
5.363427627086639404e+01 -3.625539937615394592e+01 1.179149049893027268e+00
5.317071425914764404e+01 -3.511111226677894592e+01 1.172709840908652268e+00
5.316680800914764404e+01 -3.431387105584144592e+01 1.178386110439902268e+00
5.368640029430389404e+01 -3.388357320427894592e+01 1.198069948330527268e+00
5.222491347789764404e+01 -3.212844625115394592e+01 1.165828127041464768e+00
5.176220595836639404e+01 -3.107851949334144592e+01 1.158687013760214768e+00
3.412579238414764404e+01 -2.318691793084144592e+01 8.512529317289647679e-01
5.306390273571014404e+01 -3.585134664177894592e+01 1.467616457119589768e+00
5.266912734508514404e+01 -3.476418843865394592e+01 1.458583253994589768e+00
5.301525771617889404e+01 -3.421743550896644592e+01 1.473460573330527268e+00
5.376495254039764404e+01 -3.394582906365394592e+01 1.501429933682089768e+00
5.155853164196014404e+01 -3.169326558709144592e+01 1.433223146572714768e+00
5.237213027477264404e+01 -3.148379293084144592e+01 1.463191408291464768e+00
3.309429824352264404e+01 -2.241360250115394592e+01 1.010798830166464768e+00
5.302599990367889404e+01 -3.664822164177894592e+01 1.766658205166464768e+00
5.462676894664764404e+01 -3.699331441521644592e+01 1.829051393643027268e+00
5.309515273571014404e+01 -3.507534566521644592e+01 1.772532838955527268e+00
5.254046523571014404e+01 -3.389626851677894592e+01 1.753032106533652268e+00
5.378875625133514404e+01 -3.397073140740394592e+01 1.802058595791464768e+00
5.207446181774139404e+01 -3.204495015740394592e+01 1.738368410244589768e+00
5.467693984508514404e+01 -3.299331441521644592e+01 1.840617555752402268e+00
5.373235976696014404e+01 -3.718057027459144592e+01 2.103251833096152268e+00
5.391497695446014404e+01 -3.648660054802894592e+01 2.110682863369589768e+00
5.299505507946014404e+01 -3.501333394646644592e+01 2.070002931728964768e+00
5.241857802867889404e+01 -3.382034078240394592e+01 2.044337648525839768e+00
5.468694961071014404e+01 -3.379275289177894592e+01 2.142253297939902268e+00
5.471386611461639404e+01 -3.302590718865394592e+01 2.142924684658652268e+00
5.287982070446014404e+01 -3.655862203240394592e+01 2.369380373135214768e+00
5.345635879039764404e+01 -3.616335836052894592e+01 2.395152467861777268e+00
5.503948867321014404e+01 -3.647390523552894592e+01 2.470469850674277268e+00
5.205334365367889404e+01 -3.357510152459144592e+01 2.320796388760214768e+00
5.437310683727264404e+01 -3.438589254021644592e+01 2.432338136807089768e+00
5.414410293102264404e+01 -3.343996968865394592e+01 2.418483156338339768e+00
5.557934463024139404e+01 -3.359866109490394592e+01 2.488002199307089768e+00
5.347741591930389404e+01 -3.618777242302894592e+01 2.702494997158652268e+00
5.430303847789764404e+01 -3.596023336052894592e+01 2.743022340908652268e+00
5.209002578258514404e+01 -3.360915914177894592e+01 2.616832155361777268e+00
5.532482802867889404e+01 -3.423513570427894592e+01 2.784602541103964768e+00
5.378704726696014404e+01 -3.243899312615394592e+01 2.695948976650839768e+00
5.481384170055389404e+01 -3.716665425896644592e+01 3.088359254971152268e+00
5.199267470836639404e+01 -3.355019918084144592e+01 2.903697389736777268e+00
5.482665908336639404e+01 -3.471243062615394592e+01 3.068034547939902268e+00
5.535027968883514404e+01 -3.426101461052894592e+01 3.094325441494589768e+00
5.386224257946014404e+01 -3.249648824334144592e+01 2.998103517666464768e+00
5.493890273571014404e+01 -3.726675191521644592e+01 3.410762209072714768e+00
5.206249892711639404e+01 -3.360732808709144592e+01 3.202144045010214768e+00
5.487255752086639404e+01 -3.475259175896644592e+01 3.378688234463339768e+00
5.543023574352264404e+01 -3.432302632927894592e+01 3.406352419033652268e+00
5.362573134899139404e+01 -3.235073629021644592e+01 3.280696291103964768e+00
8.413145899772644043e+00 -2.838651329278945923e+00 -5.889173563569727321e-01
8.446959376335144043e+00 -2.738309532403945923e+00 -5.855146463960352321e-01
8.477232813835144043e+00 -2.636258751153945923e+00 -5.822492655366602321e-01
8.507445216178894043e+00 -2.534330040216445923e+00 -5.789991434663477321e-01
8.537413477897644043e+00 -2.433377891778945923e+00 -5.757642801850977321e-01
8.567259669303894043e+00 -2.332791954278945923e+00 -5.725599344819727321e-01
8.596983790397644043e+00 -2.232572227716445923e+00 -5.693555887788477321e-01
8.621825098991394043e+00 -2.130399376153945923e+00 -5.662580545991602321e-01
9.388487696647644043e+00 -3.473294883966445923e+00 -5.736280497163477321e-01
9.411742091178894043e+00 -3.352445274591445923e+00 -5.697675760835352321e-01
9.439574122428894043e+00 -3.235501915216445923e+00 -5.658155497163477321e-01
9.462889552116394043e+00 -3.116239219903945923e+00 -5.620161112397852321e-01
9.486021876335144043e+00 -2.998075157403945923e+00 -5.582624491304102321e-01
9.528258204460144043e+00 -2.892118126153945923e+00 -5.551191385835352321e-01
9.598753809928894043e+00 -2.802152305841445923e+00 -5.531049784272852321e-01
9.699156641960144043e+00 -2.728910118341445923e+00 -5.517164286225977321e-01
1.029376113414764404e+01 -4.062772423028945923e+00 -5.456892069429102321e-01
1.031597793102264404e+01 -3.928495079278945923e+00 -5.415998514741602321e-01
1.033801162242889404e+01 -3.795438438653945923e+00 -5.375410135835352321e-01
1.040740859508514404e+01 -3.691678673028945923e+00 -5.347486551850977321e-01
1.050231826305389404e+01 -3.603421837091445923e+00 -5.326276835054102321e-01
1.059777724742889404e+01 -3.514676719903945923e+00 -5.305067118257227321e-01
1.069415175914764404e+01 -3.425199180841445923e+00 -5.283552225679102321e-01
1.079070937633514404e+01 -3.335477501153945923e+00 -5.261884745210352321e-01
1.155694472789764404e+01 -4.884915977716445923e+00 -5.160871561616602321e-01
1.161639297008514404e+01 -4.756620079278945923e+00 -5.121656473725977321e-01
1.169756972789764404e+01 -4.642118126153945923e+00 -5.090681131929102321e-01
1.177917373180389404e+01 -4.527127891778945923e+00 -5.059553202241602321e-01
1.186065566539764404e+01 -4.412381798028945923e+00 -5.028577860444727321e-01
1.194219863414764404e+01 -4.297391563653945923e+00 -4.997449930757227321e-01
1.201183974742889404e+01 -4.174832969903945923e+00 -4.963728006929102321e-01
1.204284560680389404e+01 -4.031400352716445923e+00 -4.926191385835352321e-01
1.336474502086639404e+01 -6.061429649591445923e+00 -4.813734110444727321e-01
1.338397109508514404e+01 -5.882108360528945923e+00 -4.765211161225977321e-01
1.342486464977264404e+01 -5.718045860528945923e+00 -4.720808085054102321e-01
1.347418105602264404e+01 -5.559598594903945923e+00 -4.677778299897852321e-01
1.352313125133514404e+01 -5.402372032403945923e+00 -4.635053690522852321e-01
1.357177627086639404e+01 -5.245999962091445923e+00 -4.592634256929102321e-01
1.362042129039764404e+01 -5.089872032403945923e+00 -4.550214823335352321e-01
1.378851211071014404e+01 -5.001493126153945923e+00 -4.525037821382227321e-01
1.568322646617889404e+01 -7.570462852716445923e+00 -4.329725321382227321e-01
1.570294082164764404e+01 -7.358792930841445923e+00 -4.272199686616602321e-01
1.571624648571014404e+01 -7.145291954278945923e+00 -4.219099100679102321e-01
1.581939589977264404e+01 -6.987943321466445923e+00 -4.175611551850977321e-01
1.592333877086639404e+01 -6.831693321466445923e+00 -4.132429178804102321e-01
1.611627089977264404e+01 -6.726956993341445923e+00 -4.097486551850977321e-01
1.631213271617889404e+01 -6.620633751153945923e+00 -4.062086161225977321e-01
1.665472304821014404e+01 -6.593900352716445923e+00 -4.043928202241602321e-01
1.966351211071014404e+01 -1.016042867302894592e+01 -3.681989725679102321e-01
1.956616103649139404e+01 -9.818265587091445923e+00 -3.614698465913477321e-01
1.947094619274139404e+01 -9.483548790216445923e+00 -3.548780497163477321e-01
1.937744033336639404e+01 -9.154935508966445923e+00 -3.484083231538477321e-01
1.923528945446014404e+01 -8.803983360528945923e+00 -3.418623026460352321e-01
1.972186172008514404e+01 -8.825589805841445923e+00 -3.381086405366602321e-01
2.067675673961639404e+01 -9.102445274591445923e+00 -3.359571512788477321e-01
2.137396132946014404e+01 -9.215360313653945923e+00 -3.324018534272852321e-01
2.631579482555389404e+01 -1.448916402459144592e+01 -2.610975321382227321e-01
2.685986220836639404e+01 -1.446133199334144592e+01 -2.536970194429102321e-01
2.843694961071014404e+01 -1.506582418084144592e+01 -2.449384745210352321e-01
5.077569472789764404e+01 -2.826370015740394592e+01 -2.238508280366602321e-01
5.159625136852264404e+01 -2.805947652459144592e+01 -2.094465311616602321e-01
5.103790175914764404e+01 -2.703970113396644592e+01 -1.963239725679102321e-01
3.458032119274139404e+01 -1.654995504021644592e+01 -1.976514872163477321e-01
5.275561416149139404e+01 -3.168960347771644592e+01 2.320422567427726790e-02
4.043566787242889404e+01 -2.310415425896644592e+01 -3.126965127884773210e-02
5.354650771617889404e+01 -3.069900289177894592e+01 5.356921590865226790e-02
5.100469863414764404e+01 -2.841055074334144592e+01 5.134143270552726790e-02
5.047082412242889404e+01 -2.739724507927894592e+01 6.014575399458976790e-02
3.457672011852264404e+01 -1.655276265740394592e+01 -1.416454873978523210e-02
5.252795302867889404e+01 -3.154971089959144592e+01 3.105119649320897679e-01
4.043176162242889404e+01 -2.310793843865394592e+01 1.897539082914647679e-01
5.488494765758514404e+01 -3.154043355584144592e+01 3.589586202055272679e-01
5.538085830211639404e+01 -3.108230367302894592e+01 3.760179463774022679e-01
3.457305800914764404e+01 -1.655557027459144592e+01 1.683610860258397679e-01
4.123132216930389404e+01 -2.420718160271644592e+01 4.177049580961522679e-01
4.017504775524139404e+01 -2.295071187615394592e+01 4.078172627836522679e-01
3.913336074352264404e+01 -2.173977437615394592e+01 3.977159444242772679e-01
3.813000380992889404e+01 -2.058584371209144592e+01 3.878282491117772679e-01
3.456945693492889404e+01 -1.655837789177894592e+01 3.518785420805272679e-01
4.126623427867889404e+01 -2.423635640740394592e+01 6.453355733305272679e-01
4.011596572399139404e+01 -2.291933980584144592e+01 6.262773457914647679e-01
3.899273574352264404e+01 -2.165810933709144592e+01 6.074327412992772679e-01
3.798791396617889404e+01 -2.050491109490394592e+01 5.908159200102147679e-01
3.702538955211639404e+01 -1.941250386834144592e+01 5.747789327055272679e-01
3.610735976696014404e+01 -1.837795796990394592e+01 5.593980733305272679e-01
3.519128310680389404e+01 -1.737319722771644592e+01 5.437730733305272679e-01
3.432556045055389404e+01 -1.642764058709144592e+01 5.289720479399022679e-01
5.176483047008514404e+01 -3.107766500115394592e+01 1.158778566494589768e+00
5.821856582164764404e+01 -3.445583882927894592e+01 1.340587038174277268e+00
5.389636123180389404e+01 -3.094936910271644592e+01 1.227153200283652268e+00
5.771148574352264404e+01 -3.252700582146644592e+01 1.337855714932089768e+00
5.237670791149139404e+01 -3.148415914177894592e+01 1.463359254971152268e+00
5.632836806774139404e+01 -3.326052632927894592e+01 1.596736330166464768e+00
5.777813613414764404e+01 -3.257620015740394592e+01 1.653117555752402268e+00
5.468194472789764404e+01 -3.299392476677894592e+01 1.840815920010214768e+00
5.373986709117889404e+01 -3.161965718865394592e+01 1.805751222744589768e+00
5.729809463024139404e+01 -3.229214254021644592e+01 1.946605104580527268e+00
5.470098769664764404e+01 -3.301492086052894592e+01 2.142360109463339768e+00
5.642675673961639404e+01 -3.334060445427894592e+01 2.218272585049277268e+00
5.291155898571014404e+01 -3.035989156365394592e+01 2.065577882900839768e+00
5.687023818492889404e+01 -3.203994527459144592e+01 2.238932985439902268e+00
5.407342422008514404e+01 -2.959658589959144592e+01 2.117503542080527268e+00
5.557952773571014404e+01 -3.359597554802894592e+01 2.488002199307089768e+00
5.310558974742889404e+01 -3.123183980584144592e+01 2.363795656338339768e+00
5.309051406383514404e+01 -3.047952046990394592e+01 2.361918825283652268e+00
5.438580214977264404e+01 -3.053323140740394592e+01 2.424281496182089768e+00
5.387725722789764404e+01 -2.948745504021644592e+01 2.398219484463339768e+00
5.425537002086639404e+01 -2.898098531365394592e+01 2.415629762783652268e+00
5.378710830211639404e+01 -3.243642964959144592e+01 2.695948976650839768e+00
5.311340224742889404e+01 -3.124502339959144592e+01 2.656230348721152268e+00
5.301739394664764404e+01 -3.044204488396644592e+01 2.648097414150839768e+00
5.355499160289764404e+01 -3.003457418084144592e+01 2.674464601650839768e+00
5.389056289196014404e+01 -2.950332418084144592e+01 2.689845461025839768e+00
5.443804824352264404e+01 -2.909536519646644592e+01 2.716746706143027268e+00
5.385723769664764404e+01 -3.249062886834144592e+01 2.997767824307089768e+00
5.303680312633514404e+01 -3.120437398552894592e+01 2.943751711025839768e+00
5.291552627086639404e+01 -3.038650289177894592e+01 2.930278200283652268e+00
5.409374892711639404e+01 -3.037124410271644592e+01 2.996119875088339768e+00
5.390502822399139404e+01 -2.951992574334144592e+01 2.980204958096152268e+00
5.434429824352264404e+01 -2.904849019646644592e+01 3.001826662197714768e+00
5.363073623180389404e+01 -3.235146871209144592e+01 3.280986208096152268e+00
5.295696914196014404e+01 -3.116164937615394592e+01 3.228740114346152268e+00
5.285320937633514404e+01 -3.035574117302894592e+01 3.215541261807089768e+00
5.332128798961639404e+01 -2.990798726677894592e+01 3.239711183682089768e+00
5.497949111461639404e+01 -3.016897359490394592e+01 3.341334718838339768e+00
8.621825098991394043e+00 -2.130033165216445923e+00 -5.662427958100977321e-01
8.684630274772644043e+00 -2.049222618341445923e+00 -5.643049295991602321e-01
8.776854395866394043e+00 -1.983426719903945923e+00 -5.636030253022852321e-01
8.870421290397644043e+00 -1.916776329278945923e+00 -5.628858622163477321e-01
8.964537501335144043e+00 -1.849637657403945923e+00 -5.621686991304102321e-01
9.085570216178894043e+00 -1.794461876153945923e+00 -5.622907694429102321e-01
9.220702052116394043e+00 -1.743924766778945923e+00 -5.628095682710352321e-01
9.353148341178894043e+00 -1.690213829278945923e+00 -5.634351786225977321e-01
9.699583888053894043e+00 -2.728665977716445923e+00 -5.517164286225977321e-01
9.796690821647644043e+00 -2.652372032403945923e+00 -5.505109842866602321e-01
9.898558497428894043e+00 -2.577542930841445923e+00 -5.491071756929102321e-01
9.997862696647644043e+00 -2.499540001153945923e+00 -5.478712137788477321e-01
1.009771621227264404e+01 -2.421170860528945923e+00 -5.466199930757227321e-01
1.019848525524139404e+01 -2.341947227716445923e+00 -5.453535135835352321e-01
1.029638564586639404e+01 -2.259793907403945923e+00 -5.442548807710352321e-01
1.040264785289764404e+01 -2.180936485528945923e+00 -5.430646952241602321e-01
1.079125869274139404e+01 -3.335233360528945923e+00 -5.261884745210352321e-01
1.087988173961639404e+01 -3.240262657403945923e+00 -5.241132792085352321e-01
1.096899306774139404e+01 -3.144803673028945923e+00 -5.220228251069727321e-01
1.105895888805389404e+01 -3.048368126153945923e+00 -5.199171122163477321e-01
1.114910781383514404e+01 -2.951810508966445923e+00 -5.178113993257227321e-01
1.123974502086639404e+01 -2.854642540216445923e+00 -5.156904276460352321e-01
1.139251601696014404e+01 -2.785794883966445923e+00 -5.149122294038477321e-01
1.161846816539764404e+01 -2.749417930841445923e+00 -5.156904276460352321e-01
1.204296767711639404e+01 -4.030912071466445923e+00 -4.926038797944727321e-01
1.209191787242889404e+01 -3.898221641778945923e+00 -4.888197001069727321e-01
1.219116103649139404e+01 -3.792630821466445923e+00 -4.863325174897852321e-01
1.238976943492889404e+01 -3.736722618341445923e+00 -4.856153544038477321e-01
1.263799941539764404e+01 -3.703031212091445923e+00 -4.857221659272852321e-01
1.287713515758514404e+01 -3.660184532403945923e+00 -4.855238016694727321e-01
1.312359511852264404e+01 -3.616117149591445923e+00 -4.853406962007227321e-01
1.336730849742889404e+01 -3.566922813653945923e+00 -4.853559549897852321e-01
1.378961074352264404e+01 -5.001493126153945923e+00 -4.525037821382227321e-01
1.397057998180389404e+01 -4.917752891778945923e+00 -4.503828104585352321e-01
1.415362441539764404e+01 -4.832303673028945923e+00 -4.482313212007227321e-01
1.439593398571014404e+01 -4.773954063653945923e+00 -4.467664774507227321e-01
1.476391494274139404e+01 -4.775418907403945923e+00 -4.468122538179102321e-01
1.514343154430389404e+01 -4.775174766778945923e+00 -4.468275126069727321e-01
1.552386367321014404e+01 -4.767362266778945923e+00 -4.466444071382227321e-01
1.593524062633514404e+01 -4.767240196466445923e+00 -4.466596659272852321e-01
1.665759170055389404e+01 -6.594632774591445923e+00 -4.044080790132227321e-01
1.716314589977264404e+01 -6.649686485528945923e+00 -4.031568583100977321e-01
1.760479629039764404e+01 -6.660184532403945923e+00 -4.016157206147852321e-01
1.797735488414764404e+01 -6.625272423028945923e+00 -3.992963846772852321e-01
1.837170302867889404e+01 -6.594998985528945923e+00 -3.969923075288477321e-01
1.877917373180389404e+01 -6.563748985528945923e+00 -3.946119364350977321e-01
1.920202529430389404e+01 -6.531400352716445923e+00 -3.921400126069727321e-01
1.982208144664764404e+01 -6.583890587091445923e+00 -3.913770731538477321e-01
2.137689101696014404e+01 -9.216092735528945923e+00 -3.324018534272852321e-01
2.244836318492889404e+01 -9.516751915216445923e+00 -3.300367411225977321e-01
2.327532851696014404e+01 -9.663480430841445923e+00 -3.264204081147852321e-01
2.373376357555389404e+01 -9.600736290216445923e+00 -3.213544901460352321e-01
2.423620498180389404e+01 -9.552762657403945923e+00 -3.162427958100977321e-01
2.467205703258514404e+01 -9.462674766778945923e+00 -3.107954081147852321e-01
2.633056533336639404e+01 -9.949613243341445923e+00 -3.076063212007227321e-01
3.458178603649139404e+01 -1.654922261834144592e+01 -1.976362284272852321e-01
3.457812392711639404e+01 -1.655203023552894592e+01 -1.413403116166023210e-02
3.457452285289764404e+01 -1.655483785271644592e+01 1.684068623930272679e-01
3.457092177867889404e+01 -1.655764546990394592e+01 3.519090596586522679e-01
3.431866347789764404e+01 -1.642226949334144592e+01 5.288194600492772679e-01
3.342004287242889404e+01 -1.548660054802894592e+01 5.131639424711522679e-01
3.242156875133514404e+01 -1.452566304802894592e+01 4.949144307524022679e-01
3.164996230602264404e+01 -1.371047750115394592e+01 4.815935079008397679e-01
3.080377089977264404e+01 -1.288259664177894592e+01 4.662736836820897679e-01
2.998425185680389404e+01 -1.209292379021644592e+01 4.513200704008397679e-01
2.913787734508514404e+01 -1.131326070427894592e+01 4.354814473539647679e-01
2.834808242321014404e+01 -1.058559957146644592e+01 4.206956807524022679e-01
3.172863662242889404e+01 -1.375527730584144592e+01 6.486009541899022679e-01
3.086132705211639404e+01 -1.291567769646644592e+01 6.275133077055272679e-01
3.002758681774139404e+01 -1.211807027459144592e+01 6.071580830961522679e-01
2.916448867321014404e+01 -1.132974019646644592e+01 5.865587178617772679e-01
2.835754287242889404e+01 -1.059353414177894592e+01 5.665239278227147679e-01
3.123419082164764404e+01 -1.334097066521644592e+01 5.880235616117772679e-01
3.034747207164764404e+01 -1.247988668084144592e+01 5.684160176664647679e-01
2.946612441539764404e+01 -1.164773336052894592e+01 5.486864034086522679e-01
2.862237441539764404e+01 -1.085806050896644592e+01 5.305284444242772679e-01
2.776751601696014404e+01 -1.008877339959144592e+01 5.109666768461522679e-01
3.045245254039764404e+01 -1.239199605584144592e+01 1.963762227445897679e-01
3.390991103649139404e+01 -1.603835836052894592e+01 4.176896993070897679e-01
3.295989882946014404e+01 -1.504153218865394592e+01 4.042924825102147679e-01
3.201855361461639404e+01 -1.407851949334144592e+01 3.907121602445897679e-01
3.108044326305389404e+01 -1.314443746209144592e+01 3.768419209867772679e-01
3.019659316539764404e+01 -1.226736226677894592e+01 3.637346211820897679e-01
2.924737441539764404e+01 -1.138442769646644592e+01 3.489183370024022679e-01
2.835650527477264404e+01 -1.055569234490394592e+01 3.350023213774022679e-01
2.739642226696014404e+01 -9.721707969903945923e+00 3.192552510649022679e-01
3.389318740367889404e+01 -1.603457418084144592e+01 6.128038350492772679e-01
3.288134658336639404e+01 -1.500405660271644592e+01 5.918230000883397679e-01
3.193530166149139404e+01 -1.403933492302894592e+01 5.712388936430272679e-01
3.100964248180389404e+01 -1.311245504021644592e+01 5.519060079008397679e-01
3.013091933727264404e+01 -1.223867574334144592e+01 5.334886495024022679e-01
2.919561660289764404e+01 -1.136330953240394592e+01 5.133012715727147679e-01
2.831524550914764404e+01 -1.054006734490394592e+01 4.951433125883397679e-01
2.736535537242889404e+01 -9.711209923028945923e+00 4.739793721586522679e-01
1.657977187633514404e+01 -1.476224571466445923e+00 1.056322041899022679e-01
2.135461318492889404e+01 -4.857572227716445923e+00 4.729417745024022679e-01
1.883306777477264404e+01 -3.070096641778945923e+00 3.901170674711522679e-01
1.638964736461639404e+01 -1.388700157403945923e+00 3.100847188383397679e-01
2.377758681774139404e+01 -6.673001915216445923e+00 4.523791708052726790e-02
1.185101211071014404e+01 1.818331092596054077e+00 -2.772108133882227321e-01
2.946044814586639404e+01 -1.161147847771644592e+01 5.855821553617772679e-01
2.662823379039764404e+01 -9.104886680841445923e+00 4.889635030180272679e-01
2.356744277477264404e+01 -6.561917930841445923e+00 3.859361592680272679e-01
1.960211074352264404e+01 -3.630887657403945923e+00 2.555192891508397679e-01
1.515557754039764404e+01 -5.598427355289459229e-01 1.111101094633397679e-01
1.085003554821014404e+01 2.318209022283554077e+00 -2.792797647416023210e-02
1.470208632946014404e+01 3.875449597835540771e-01 3.844255391508397679e-01
5.363524317741394043e+00 7.153037488460540771e-01 1.630031007900839768e+00
2.292296290397644043e+00 2.530855506658554077e+00 1.658336061611777268e+00
2.463744044303894043e+00 2.427584022283554077e+00 1.912471193447714768e+00
1.500720107555389404e+01 -4.076210558414459229e-01 3.134416524320897679e-01
2.444884181022644043e+00 1.738252967596054077e+00 2.009843770414647679e-01
5.901244044303894043e+00 3.221152722835540771e-01 1.692119020596152268e+00
5.185728907585144043e+00 6.820902228355407715e-02 1.934230226650839768e+00
2.295409083366394043e+00 2.470186561346054077e+00 1.700389284268027268e+00
5.557005763053894043e+00 -1.579872667789459229e-01 2.234538454189902268e+00
2.543455958366394043e+00 2.322481483221054077e+00 1.973719972744589768e+00
