8.382590830326080322e+00 -4.521982729434967041e+00 -6.351987984031381984e-01
7.126182138919830322e+00 -4.300303041934967041e+00 -5.685789253562631984e-01
7.515342295169830322e+00 -4.550303041934967041e+00 -5.821439888328256984e-01
7.944297373294830322e+00 -4.825937807559967041e+00 -5.968534614890756984e-01
8.420859873294830322e+00 -5.132090151309967041e+00 -6.134397652000131984e-01
8.949729502201080322e+00 -5.471933901309967041e+00 -6.318723823875131984e-01
9.055991709232330322e+00 -5.413218080997467041e+00 -6.300718452781381984e-01
9.099509775638580322e+00 -5.297495424747467041e+00 -6.256315376609506984e-01
9.148887217044830322e+00 -5.188730776309967041e+00 -6.212522652000131984e-01
7.148215830326080322e+00 -4.323984682559967041e+00 -5.263273384422006984e-01
7.539878427982330322e+00 -4.576059877872467041e+00 -5.378935005515756984e-01
7.971519052982330322e+00 -4.853891909122467041e+00 -5.506345894187631984e-01
8.451499521732330322e+00 -5.162729799747467041e+00 -5.647947456687631984e-01
8.984397470951080322e+00 -5.505747377872467041e+00 -5.805265571922006984e-01
9.587974131107330322e+00 -5.895884096622467041e+00 -5.984098579734506984e-01
1.013875538110733032e+01 -6.219858705997467041e+00 -6.134245064109506984e-01
1.017159229516983032e+01 -6.078379213809967041e+00 -6.078550484031381984e-01
7.684409677982330322e+00 -4.861094057559967041e+00 -5.031950142234506984e-01
7.800559580326080322e+00 -4.833017885684967041e+00 -5.019437935203256984e-01
7.999167978763580322e+00 -4.882212221622467041e+00 -5.038053657859506984e-01
8.482566416263580322e+00 -5.193857729434967041e+00 -5.154935982078256984e-01
9.019492685794830322e+00 -5.540049135684967041e+00 -5.284635689109506984e-01
9.616721689701080322e+00 -5.923960268497467041e+00 -5.428526069968881984e-01
1.030495411157608032e+01 -6.369150698184967041e+00 -5.595304634422006984e-01
1.111928516626358032e+01 -6.903208315372467041e+00 -5.798856880515756984e-01
1.262441211938858032e+01 -9.797373354434967041e+00 -6.085874702781381984e-01
1.362404590845108032e+01 -1.053724151849746704e+01 -6.306059028953256984e-01
8.847495615482330322e+00 -5.698252260684967041e+00 -4.810850288718881984e-01
8.983237802982330322e+00 -5.666880190372467041e+00 -4.796049263328256984e-01
9.120322763919830322e+00 -5.635019838809967041e+00 -4.780943062156381984e-01
9.646384775638580322e+00 -5.952768862247467041e+00 -4.872495796531381984e-01
1.035347706079483032e+01 -6.414316713809967041e+00 -5.007383491843881984e-01
1.117610889673233032e+01 -6.954844057559967041e+00 -5.165311958640756984e-01
1.259481006860733032e+01 -9.770884096622467041e+00 -5.292722847312631984e-01
1.363478809595108032e+01 -1.055091339349746704e+01 -5.461485054343881984e-01
1.382741504907608032e+01 -1.048169952630996704e+01 -5.427763130515756984e-01
1.408132129907608032e+01 -1.046668487787246704e+01 -5.406553413718881984e-01
1.570101124048233032e+01 -1.170789581537246704e+01 -5.684263374656381984e-01
1.057460743188858032e+01 -6.794199526309967041e+00 -4.501859810203256984e-01
1.075044971704483032e+01 -6.768320620059967041e+00 -4.482481148093881984e-01
1.123323780298233032e+01 -7.006723940372467041e+00 -4.528257515281381984e-01
1.256520801782608032e+01 -9.744272768497467041e+00 -4.498960640281381984e-01
1.366554981470108032e+01 -1.058423858880996704e+01 -4.623319771140756984e-01
1.383345752954483032e+01 -1.049073272943496704e+01 -4.580900337547006984e-01
1.502645069360733032e+01 -1.135962921380996704e+01 -4.704191353172006984e-01
1.567989307641983032e+01 -1.169178253412246704e+01 -4.731962349265756984e-01
1.627706104516983032e+01 -1.195423370599746704e+01 -4.746000435203256984e-01
1.661318165063858032e+01 -1.196778351068496704e+01 -4.716703560203256984e-01
1.284383350610733032e+01 -8.408457338809967041e+00 -4.101621773093881984e-01
1.253591114282608032e+01 -9.718027651309967041e+00 -3.712980415672006984e-01
1.369637256860733032e+01 -1.061768585443496704e+01 -3.781034614890756984e-01
1.386019092798233032e+01 -1.051954132318496704e+01 -3.730833198875131984e-01
1.498378711938858032e+01 -1.132288604974746704e+01 -3.779661323875131984e-01
1.555062061548233032e+01 -1.157593780755996704e+01 -3.766843941062631984e-01
1.624672657251358032e+01 -1.193030792474746704e+01 -3.761961128562631984e-01
1.663527637720108032e+01 -1.199097687005996704e+01 -3.730833198875131984e-01
1.693868213891983032e+01 -1.196998077630996704e+01 -3.685667183250131984e-01
1.250655323266983032e+01 -9.691660463809967041e+00 -2.926542427390756984e-01
1.373818165063858032e+01 -1.066187530755996704e+01 -2.930509712547006984e-01
1.391750293970108032e+01 -1.057776886224746704e+01 -2.882749702781381984e-01
1.494161182641983032e+01 -1.128650909662246704e+01 -2.865049507468881984e-01
1.544655567407608032e+01 -1.148328644037246704e+01 -2.823545601218881984e-01
1.621657520532608032e+01 -1.190662628412246704e+01 -2.786771919578256984e-01
1.665755420923233032e+01 -1.201429229974746704e+01 -2.736723091453256984e-01
1.696407276391983032e+01 -1.199561554193496704e+01 -2.681944038718881984e-01
1.247750049829483032e+01 -9.665659487247467041e+00 -2.147733833640756984e-01
1.380190235376358032e+01 -1.072754913568496704e+01 -2.078306343406381984e-01
1.402809864282608032e+01 -1.068726593255996704e+01 -2.025968696922006984e-01
1.489968067407608032e+01 -1.125037628412246704e+01 -1.955473091453256984e-01
1.534383350610733032e+01 -1.139197784662246704e+01 -1.892912056297006984e-01
1.569350391626358032e+01 -1.143665558099746704e+01 -1.831419136375131984e-01
1.667983204126358032e+01 -1.203760772943496704e+01 -1.744901802390756984e-01
1.698940235376358032e+01 -1.202112823724746704e+01 -1.680357124656381984e-01
1.312264209985733032e+01 -1.031397491693496704e+01 -1.313688423484506984e-01
1.351753956079483032e+01 -1.045203644037246704e+01 -1.242582466453256984e-01
1.401375538110733032e+01 -1.067676788568496704e+01 -1.161100532859506984e-01
1.440303760766983032e+01 -1.078577667474746704e+01 -1.086942818015756984e-01
1.527626758813858032e+01 -1.133289581537246704e+01 -9.665509723126319841e-02
1.558785206079483032e+01 -1.134437042474746704e+01 -8.957501910626319841e-02
1.670253711938858032e+01 -1.206128937005996704e+01 -7.448407672345069841e-02
1.704598194360733032e+01 -1.207386261224746704e+01 -6.667157672345069841e-02
1.313747364282608032e+01 -1.033204132318496704e+01 -4.918500445782569841e-02
1.353359180688858032e+01 -1.047083526849746704e+01 -4.030438922345069841e-02
1.399947315454483032e+01 -1.066626983880996704e+01 -3.024884723126319841e-02
1.412160450220108032e+01 -1.052381378412246704e+01 -2.528974078595069841e-02
1.522945362329483032e+01 -1.129310089349746704e+01 -5.026068910950698410e-03
1.552541309595108032e+01 -1.129126983880996704e+01 2.877983823424301590e-03
1.583718067407608032e+01 -1.129676300287246704e+01 1.111772991717430159e-02
1.711519581079483032e+01 -1.213770538568496704e+01 3.505876995623680159e-02
1.315169483423233032e+01 -1.034937530755996704e+01 3.362444378436180159e-02
1.354976612329483032e+01 -1.049000030755996704e+01 4.432085491717430159e-02
1.399819141626358032e+01 -1.066822296380996704e+01 5.573442913592430159e-02
1.435518604516983032e+01 -1.074720245599746704e+01 6.574419476092430159e-02
1.518392139673233032e+01 -1.125440460443496704e+01 8.608416058123680159e-02
1.547585254907608032e+01 -1.124964386224746704e+01 9.488848187029930159e-02
1.577913624048233032e+01 -1.124866729974746704e+01 1.044862601906118016e-01
1.744692188501358032e+01 -1.242994171380996704e+01 1.440523002296743016e-01
1.316579395532608032e+01 -1.036658722162246704e+01 1.162050101906118016e-01
1.358632618188858032e+01 -1.052894073724746704e+01 1.292970512062368016e-01
1.401259571313858032e+01 -1.068531280755996704e+01 1.426179740577993016e-01
1.415059620141983032e+01 -1.055750519037246704e+01 1.479585502296743016e-01
1.513845020532608032e+01 -1.121570831537246704e+01 1.771333549171743016e-01
1.542629200220108032e+01 -1.120826202630996704e+01 1.867921683937368016e-01
1.572835499048233032e+01 -1.120691925287246704e+01 1.968782279640493016e-01
1.751393848657608032e+01 -1.249195343255996704e+01 2.490632865577993016e-01
1.286861377954483032e+01 -1.007227569818496704e+01 1.888063285499868016e-01
1.362502247095108032e+01 -1.057020050287246704e+01 2.148530814796743016e-01
1.411348682641983032e+01 -1.078565460443496704e+01 2.322175834327993016e-01
1.471334034204483032e+01 -1.109156280755996704e+01 2.534425590187368016e-01
1.509340626001358032e+01 -1.117750030755996704e+01 2.671754691749868016e-01
1.537740284204483032e+01 -1.116724640130996704e+01 2.776277396827993016e-01
1.569033008813858032e+01 -1.117652374505996704e+01 2.890870902687368016e-01
1.759175831079483032e+01 -1.256336456537246704e+01 3.558442924171743016e-01
1.279683643579483032e+01 -1.000342804193496704e+01 2.662904594093618016e-01
1.366414600610733032e+01 -1.061182647943496704e+01 3.013856742531118016e-01
1.407143360376358032e+01 -1.074854522943496704e+01 3.177888724952993016e-01
1.465212208032608032e+01 -1.103711944818496704e+01 3.412263724952993016e-01
1.504848438501358032e+01 -1.113917022943496704e+01 3.571565482765493016e-01
1.533113819360733032e+01 -1.112867218255996704e+01 3.684938285499868016e-01
1.568080860376358032e+01 -1.117139679193496704e+01 3.825319144874868016e-01
1.688912159204483032e+01 -1.195521026849746704e+01 4.313905570656118016e-01
1.272554737329483032e+01 -9.935068666934967041e+00 3.433168265968618016e-01
1.379189258813858032e+01 -1.074048858880996704e+01 3.921602103859243016e-01
1.402938038110733032e+01 -1.071119171380996704e+01 4.023835990577993016e-01
1.449513965845108032e+01 -1.089222198724746704e+01 4.232728812843618016e-01
1.500398975610733032e+01 -1.110145050287246704e+01 4.461458060890493016e-01
1.528542286157608032e+01 -1.109058624505996704e+01 4.583375785499868016e-01
1.567134815454483032e+01 -1.116626983880996704e+01 4.753816459327993016e-01
1.676900440454483032e+01 -1.185413604974746704e+01 5.261171195656118016e-01
1.326424366235733032e+01 -1.047791534662246704e+01 4.517305228859243016e-01
1.375136524438858032e+01 -1.070398956537246704e+01 4.760682914406118016e-01
1.398726612329483032e+01 -1.067383819818496704e+01 4.869020316749868016e-01
1.435042530298233032e+01 -1.075892120599746704e+01 5.044954154640493016e-01
1.501473194360733032e+01 -1.111475616693496704e+01 5.380189750343618016e-01
1.530739551782608032e+01 -1.111377960443496704e+01 5.517061088234243016e-01
1.566390186548233032e+01 -1.116309601068496704e+01 5.687349174171743016e-01
1.698171192407608032e+01 -1.204297882318496704e+01 6.364229056984243016e-01
1.329982715845108032e+01 -1.051685577630996704e+01 5.373475883156118016e-01
1.371071583032608032e+01 -1.066724640130996704e+01 5.594728324562368016e-01
1.394557911157608032e+01 -1.063697296380996704e+01 5.704896781593618016e-01
1.428438526391983032e+01 -1.069983917474746704e+01 5.881135795265493016e-01
1.501699024438858032e+01 -1.112012726068496704e+01 6.290529105812368016e-01
1.537978321313858032e+01 -1.118287140130996704e+01 6.478822562843618016e-01
1.575801807641983032e+01 -1.125013214349746704e+01 6.680238578468618016e-01
1.693917042016983032e+01 -1.200953155755996704e+01 7.348573539406118016e-01
1.333553272485733032e+01 -1.055579620599746704e+01 6.234681937843618016e-01
1.366158252954483032e+01 -1.062220245599746704e+01 6.413514945656118016e-01
1.390389209985733032e+01 -1.060010772943496704e+01 6.540315482765493016e-01
1.421852833032608032e+01 -1.064087921380996704e+01 6.714113090187368016e-01
1.488021045923233032e+01 -1.099683624505996704e+01 7.114961478859243016e-01
1.546791797876358032e+01 -1.126624542474746704e+01 7.464998099952993016e-01
1.584743458032608032e+01 -1.133301788568496704e+01 7.676942680031118016e-01
1.777254444360733032e+01 -1.273951202630996704e+01 8.897340629249868016e-01
8.382468760013580322e+00 -4.521372377872467041e+00 -6.351682808250131984e-01
8.428672373294830322e+00 -4.424082338809967041e+00 -6.311704780906381984e-01
8.470847666263580322e+00 -4.323984682559967041e+00 -6.272794868797006984e-01
8.513022959232330322e+00 -4.224131166934967041e+00 -6.233732368797006984e-01
8.554709970951080322e+00 -4.125254213809967041e+00 -6.195280220359506984e-01
8.596213877201080322e+00 -4.026987612247467041e+00 -6.156828071922006984e-01
8.637595713138580322e+00 -3.928843080997467041e+00 -6.118681099265756984e-01
8.674827158451080322e+00 -3.828745424747467041e+00 -6.081449653953256984e-01
9.148765146732330322e+00 -5.188120424747467041e+00 -6.212217476218881984e-01
9.192954599857330322e+00 -5.075693666934967041e+00 -6.169645454734506984e-01
9.241294443607330322e+00 -4.967783510684967041e+00 -6.126615669578256984e-01
9.267966806888580322e+00 -4.842417299747467041e+00 -6.077177193015756984e-01
9.292686045169830322e+00 -4.717417299747467041e+00 -6.027738716453256984e-01
9.317100107669830322e+00 -4.593760073184967041e+00 -5.978758003562631984e-01
9.336997568607330322e+00 -4.467539370059967041e+00 -5.931150581687631984e-01
9.366538584232330322e+00 -4.350718080997467041e+00 -5.885374214500131984e-01
1.017128711938858032e+01 -6.077402651309967041e+00 -6.078245308250131984e-01
1.019771534204483032e+01 -5.932261049747467041e+00 -6.023771431297006984e-01
1.022383838891983032e+01 -5.788706362247467041e+00 -5.969907905906381984e-01
1.024977833032608032e+01 -5.646128237247467041e+00 -5.916502144187631984e-01
1.027535206079483032e+01 -5.505747377872467041e+00 -5.864011909812631984e-01
1.030068165063858032e+01 -5.366709291934967041e+00 -5.811826851218881984e-01
1.032576709985733032e+01 -5.228769838809967041e+00 -5.760099556297006984e-01
1.035048633813858032e+01 -5.092783510684967041e+00 -5.709135200828256984e-01
1.112496143579483032e+01 -6.907480776309967041e+00 -5.800535347312631984e-01
1.150539356470108032e+01 -7.047007143497467041e+00 -5.852720405906381984e-01
1.149440723657608032e+01 -6.850107729434967041e+00 -5.782682564109506984e-01
1.148360401391983032e+01 -6.656260073184967041e+00 -5.713560249656381984e-01
1.147304493188858032e+01 -6.466440737247467041e+00 -5.645963814109506984e-01
1.149410206079483032e+01 -6.304819643497467041e+00 -5.588895943015756984e-01
1.153310352563858032e+01 -6.158335268497467041e+00 -5.537626411765756984e-01
1.156563526391983032e+01 -6.009287416934967041e+00 -5.488493110984506984e-01
1.118184620141983032e+01 -6.959116518497467041e+00 -5.166685249656381984e-01
1.217012745141983032e+01 -7.615000307559967041e+00 -5.361387398093881984e-01
1.319808155298233032e+01 -8.273447573184967041e+00 -5.556242134422006984e-01
1.320796924829483032e+01 -8.067759096622467041e+00 -5.488798286765756984e-01
1.321425586938858032e+01 -7.863047182559967041e+00 -5.421964790672006984e-01
1.306502491235733032e+01 -7.539438784122467041e+00 -5.319273140281381984e-01
1.303029590845108032e+01 -7.311167299747467041e+00 -5.245420601218881984e-01
1.308376270532608032e+01 -7.154306948184967041e+00 -5.193235542625131984e-01
1.123903614282608032e+01 -7.011118471622467041e+00 -4.529173042625131984e-01
1.221913868188858032e+01 -7.659189760684967041e+00 -4.664213325828256984e-01
1.352053028345108032e+01 -8.545054018497467041e+00 -4.855558540672006984e-01
1.537636524438858032e+01 -9.842905580997467041e+00 -5.138761665672006984e-01
1.539333301782608032e+01 -9.610971987247467041e+00 -5.068876411765756984e-01
1.528505665063858032e+01 -9.284067690372467041e+00 -4.977628853172006984e-01
1.522573047876358032e+01 -9.001352846622467041e+00 -4.896909859031381984e-01
1.519026905298233032e+01 -8.742929995059967041e+00 -4.826566841453256984e-01
1.284511524438858032e+01 -8.408823549747467041e+00 -4.101621773093881984e-01
1.308241993188858032e+01 -8.396860659122467041e+00 -4.076749946922006984e-01
1.361910206079483032e+01 -8.630014955997467041e+00 -4.090482857078256984e-01
1.557222706079483032e+01 -1.000611358880996704e+01 -4.282285835593881984e-01
1.997646290063858032e+01 -1.328577667474746704e+01 -4.762174751609506984e-01
1.979860645532608032e+01 -1.282996612787246704e+01 -4.655973579734506984e-01
1.962606006860733032e+01 -1.238782745599746704e+01 -4.552976753562631984e-01
1.945992237329483032e+01 -1.196180206537246704e+01 -4.453794624656381984e-01
1.694039112329483032e+01 -1.197034698724746704e+01 -3.685514595359506984e-01
2.717391163110733032e+01 -2.040137726068496704e+01 -4.410154487937631984e-01
2.388509327173233032e+01 -1.720154815912246704e+01 -4.052335884422006984e-01
1.724416309595108032e+01 -1.137659698724746704e+01 -3.499509956687631984e-01
2.772084766626358032e+01 -1.949598175287246704e+01 -4.115354683250131984e-01
2.663179737329483032e+01 -1.819886261224746704e+01 -3.942930366843881984e-01
2.621517139673233032e+01 -1.745936065912246704e+01 -3.826658394187631984e-01
2.559047657251358032e+01 -1.658423858880996704e+01 -3.696043159812631984e-01
1.696572071313858032e+01 -1.199598175287246704e+01 -2.681791450828256984e-01
4.006539112329483032e+01 -3.138953644037246704e+01 -3.013975288718881984e-01
3.406520801782608032e+01 -2.570557647943496704e+01 -2.791502144187631984e-01
3.228078418970108032e+01 -2.368104034662246704e+01 -2.655088569968881984e-01
5.442110401391983032e+01 -4.090381866693496704e+01 -2.685911323875131984e-01
5.260860401391983032e+01 -3.860499054193496704e+01 -2.496091987937631984e-01
3.358467823266983032e+01 -2.261353546380996704e+01 -2.218534614890756984e-01
1.699105030298233032e+01 -1.202161651849746704e+01 -1.680051948875131984e-01
3.392067676782608032e+01 -2.559192901849746704e+01 -7.930585406720069841e-02
3.220497852563858032e+01 -2.362549835443496704e+01 -7.755109332501319841e-02
3.288735157251358032e+01 -2.364917999505996704e+01 -6.447431109845069841e-02
3.268764454126358032e+01 -2.296631866693496704e+01 -5.600568316876319841e-02
3.348458057641983032e+01 -2.306336456537246704e+01 -4.199811480938819841e-02
3.330348926782608032e+01 -2.240784698724746704e+01 -3.366681598126319841e-02
1.704842334985733032e+01 -1.207508331537246704e+01 -6.664105914532569841e-02
6.053719288110733032e+01 -4.885535675287246704e+01 3.888795707374868016e-01
3.381862598657608032e+01 -2.551368194818496704e+01 1.203859183937368016e-01
3.210335499048233032e+01 -2.354871612787246704e+01 1.102846000343618016e-01
3.220815235376358032e+01 -2.311109405755996704e+01 1.194093558937368016e-01
3.246578174829483032e+01 -2.279834991693496704e+01 1.302125785499868016e-01
3.280355030298233032e+01 -2.254554229974746704e+01 1.419771049171743016e-01
3.321950489282608032e+01 -2.235071808099746704e+01 1.546724174171743016e-01
1.711769825220108032e+01 -1.213880401849746704e+01 3.510454632342430159e-02
3.381612354516983032e+01 -2.551844269037246704e+01 3.194978568702993016e-01
3.211824756860733032e+01 -2.356739288568496704e+01 2.979066703468618016e-01
3.220095020532608032e+01 -2.311158233880996704e+01 3.057802055031118016e-01
3.246022754907608032e+01 -2.280030304193496704e+01 3.166139457374868016e-01
3.278121143579483032e+01 -2.253455597162246704e+01 3.285615775734243016e-01
3.323128467798233032e+01 -2.236585479974746704e+01 3.427827689796743016e-01
1.745284229516983032e+01 -1.243409210443496704e+01 1.442048881202993016e-01
3.217543751001358032e+01 -2.362073761224746704e+01 4.867189262062368016e-01
3.222060352563858032e+01 -2.313379913568496704e+01 4.927156303077993016e-01
3.250948292016983032e+01 -2.284522491693496704e+01 5.042665336281118016e-01
3.282772022485733032e+01 -2.257667022943496704e+01 5.175416801124868016e-01
3.327986866235733032e+01 -2.240870147943496704e+01 5.329377982765493016e-01
1.752040821313858032e+01 -1.249659210443496704e+01 2.492463920265493016e-01
2.092208057641983032e+01 -1.510254913568496704e+01 3.480775687843618016e-01
3.257228809595108032e+01 -2.395215851068496704e+01 6.870057914406118016e-01
3.279372364282608032e+01 -2.360010772943496704e+01 6.968782279640493016e-01
3.253877979516983032e+01 -2.287464386224746704e+01 6.929719779640493016e-01
3.342696338891983032e+01 -2.304444366693496704e+01 7.221315238624868016e-01
1.759688526391983032e+01 -1.256678253412246704e+01 3.560121390968618016e-01
2.076680713891983032e+01 -1.497437530755996704e+01 4.659364555031118016e-01
3.318141895532608032e+01 -2.445789581537246704e+01 8.984010551124868016e-01
3.408675342798233032e+01 -2.464466339349746704e+01 9.318025443702993016e-01
3.414333301782608032e+01 -2.360279327630996704e+01 9.377992484718618016e-01
1.688777881860733032e+01 -1.195313507318496704e+01 4.313295219093618016e-01
2.058071094751358032e+01 -1.481995636224746704e+01 5.813691947609243016e-01
3.337148243188858032e+01 -2.354236847162246704e+01 1.101983818784361802e+00
5.188906055688858032e+01 -3.647620636224746704e+01 1.855447563901549302e+00
1.676961475610733032e+01 -1.185364776849746704e+01 5.261323783546743016e-01
2.037776905298233032e+01 -1.465101104974746704e+01 6.931398246437368016e-01
5.193959766626358032e+01 -3.652417999505996704e+01 2.154763970151549302e+00
1.698165088891983032e+01 -1.204200226068496704e+01 6.364076469093618016e-01
2.017293506860733032e+01 -1.448035675287246704e+01 8.030336234718618016e-01
2.106655079126358032e+01 -1.489185577630996704e+01 8.483369681984243016e-01
1.693910938501358032e+01 -1.200843292474746704e+01 7.348573539406118016e-01
2.007955127954483032e+01 -1.440479522943496704e+01 9.170167777687368016e-01
2.099037891626358032e+01 -1.483240753412246704e+01 9.670808646827993016e-01
1.777742725610733032e+01 -1.274268585443496704e+01 8.900392387062368016e-01
2.010195118188858032e+01 -1.442811065912246704e+01 1.036767754331236802e+00
2.094655567407608032e+01 -1.479993683099746704e+01 1.087701592221861802e+00
8.675193369388580322e+00 -3.828623354434967041e+00 -6.081449653953256984e-01
8.711875498294830322e+00 -3.728891909122467041e+00 -6.042539741843881984e-01
8.744102060794830322e+00 -3.626596987247467041e+00 -6.004392769187631984e-01
8.776206552982330322e+00 -3.524668276309967041e+00 -5.966245796531381984e-01
8.808066904544830322e+00 -3.423594057559967041e+00 -5.928709175437631984e-01
8.839622080326080322e+00 -3.323252260684967041e+00 -5.891172554343881984e-01
8.871116220951080322e+00 -3.223154604434967041e+00 -5.853788521140756984e-01
8.898948252201080322e+00 -3.121836245059967041e+00 -5.817930366843881984e-01
9.366843760013580322e+00 -4.350473940372467041e+00 -5.885374214500131984e-01
9.399619638919830322e+00 -4.237070620059967041e+00 -5.844328071922006984e-01
9.436179697513580322e+00 -4.127451479434967041e+00 -5.802518989890756984e-01
9.468589365482330322e+00 -4.015268862247467041e+00 -5.762083198875131984e-01
9.500632822513580322e+00 -3.904184877872467041e+00 -5.721952583640756984e-01
9.532554209232330322e+00 -3.793833315372467041e+00 -5.681974556297006984e-01
9.560325205326080322e+00 -3.681162416934967041e+00 -5.643522407859506984e-01
9.591758310794830322e+00 -3.572397768497467041e+00 -5.604307319968881984e-01
1.035091358423233032e+01 -5.092539370059967041e+00 -5.709135200828256984e-01
1.036946827173233032e+01 -4.953501284122467041e+00 -5.659696724265756984e-01
1.038777881860733032e+01 -4.815928041934967041e+00 -5.610563423484506984e-01
1.040596729516983032e+01 -4.679209291934967041e+00 -5.561887886375131984e-01
1.042391163110733032e+01 -4.544443666934967041e+00 -5.513975288718881984e-01
1.044167286157608032e+01 -4.411020815372467041e+00 -5.466367866843881984e-01
1.047609668970108032e+01 -4.289682924747467041e+00 -5.424406196922006984e-01
1.051216846704483032e+01 -4.170786440372467041e+00 -5.383512642234506984e-01
1.156594043970108032e+01 -6.008921205997467041e+00 -5.488340523093881984e-01
1.160512501001358032e+01 -5.866221010684967041e+00 -5.437833931297006984e-01
1.163796192407608032e+01 -5.720224916934967041e+00 -5.389310982078256984e-01
1.167073780298233032e+01 -5.574961245059967041e+00 -5.341093208640756984e-01
1.170571094751358032e+01 -5.433115541934967041e+00 -5.294096138328256984e-01
1.174538379907608032e+01 -5.295908510684967041e+00 -5.248777534812631984e-01
1.176467090845108032e+01 -5.145517885684967041e+00 -5.198423530906381984e-01
1.177187305688858032e+01 -4.989634096622467041e+00 -5.149137642234506984e-01
1.308437305688858032e+01 -7.154062807559967041e+00 -5.193082954734506984e-01
1.312972217798233032e+01 -6.992441713809967041e+00 -5.142271187156381984e-01
1.317482715845108032e+01 -6.831919252872467041e+00 -5.091764595359506984e-01
1.321968799829483032e+01 -6.672129213809967041e+00 -5.041410591453256984e-01
1.326418262720108032e+01 -6.513804018497467041e+00 -4.991666939109506984e-01
1.329769092798233032e+01 -6.349497377872467041e+00 -4.940092232078256984e-01
1.330202442407608032e+01 -6.166758120059967041e+00 -4.882871773093881984e-01
1.330623584985733032e+01 -5.987070620059967041e+00 -4.826719429343881984e-01
1.519039112329483032e+01 -8.742197573184967041e+00 -4.826261665672006984e-01
1.519057422876358032e+01 -8.514658510684967041e+00 -4.756834175437631984e-01
1.517684131860733032e+01 -8.280283510684967041e+00 -4.690458443015756984e-01
1.516329151391983032e+01 -8.048838198184967041e+00 -4.624845650047006984e-01
1.517000538110733032e+01 -7.835581362247467041e+00 -4.563657905906381984e-01
1.519710499048233032e+01 -7.639048159122467041e+00 -4.506132271140756984e-01
1.522408252954483032e+01 -7.443735659122467041e+00 -4.449064400047006984e-01
1.524105030298233032e+01 -7.244883120059967041e+00 -4.395811226218881984e-01
1.945980030298233032e+01 -1.196058136224746704e+01 -4.453489448875131984e-01
1.928615528345108032e+01 -1.153870636224746704e+01 -4.358579780906381984e-01
1.911812549829483032e+01 -1.113025909662246704e+01 -4.266721870750131984e-01
1.895473438501358032e+01 -1.073328644037246704e+01 -4.177457954734506984e-01
1.879756885766983032e+01 -1.035022979974746704e+01 -4.091245796531381984e-01
1.876601368188858032e+01 -1.006080108880996704e+01 -4.018919136375131984e-01
1.872042042016983032e+01 -9.765757143497467041e+00 -3.946134712547006984e-01
1.867586475610733032e+01 -9.477182924747467041e+00 -3.875028755515756984e-01
2.558687549829483032e+01 -1.658021026849746704e+01 -3.695432808250131984e-01
2.517977100610733032e+01 -1.589100128412246704e+01 -3.584348823875131984e-01
2.486983448266983032e+01 -1.529004913568496704e+01 -3.474638130515756984e-01
2.439565235376358032e+01 -1.458619171380996704e+01 -3.368436958640756984e-01
2.402669483423233032e+01 -1.397571808099746704e+01 -3.271085884422006984e-01
2.362386280298233032e+01 -1.335792022943496704e+01 -3.176176216453256984e-01
2.346718555688858032e+01 -1.291858917474746704e+01 -3.099729683250131984e-01
2.335616260766983032e+01 -1.251917511224746704e+01 -3.020078804343881984e-01
3.358620411157608032e+01 -2.261292511224746704e+01 -2.218076851218881984e-01
4.535213428735733032e+01 -2.942139679193496704e+01 -1.748716499656381984e-01
5.311897999048233032e+01 -3.413672882318496704e+01 -1.484586860984506984e-01
5.183016163110733032e+01 -3.249207550287246704e+01 -1.350156929343881984e-01
4.158126026391983032e+01 -2.494556671380996704e+01 -1.424924995750131984e-01
5.850783497095108032e+01 -3.535401397943496704e+01 -8.765241168438819841e-02
3.331111866235733032e+01 -2.241175323724746704e+01 -3.359052203595069841e-02
5.380580860376358032e+01 -3.621937042474746704e+01 1.212098930031118016e-01
4.534749561548233032e+01 -2.942627960443496704e+01 7.708147503436180159e-02
5.091664844751358032e+01 -3.261976104974746704e+01 1.292207572609243016e-01
4.950118213891983032e+01 -3.092103058099746704e+01 1.319825980812368016e-01
4.158248096704483032e+01 -2.495337921380996704e+01 8.358171917498680159e-02
5.182173877954483032e+01 -3.102002960443496704e+01 1.759279105812368016e-01
3.322377735376358032e+01 -2.235218292474746704e+01 1.547639701515493016e-01
4.790108448266983032e+01 -3.268335968255996704e+01 3.403871390968618016e-01
5.197396045923233032e+01 -3.490442901849746704e+01 4.018342826515493016e-01
4.534285694360733032e+01 -2.943104034662246704e+01 3.303926322609243016e-01
5.020571094751358032e+01 -3.213587433099746704e+01 4.029481742531118016e-01
5.071199756860733032e+01 -3.175123077630996704e+01 4.207551810890493016e-01
4.159566456079483032e+01 -2.496924835443496704e+01 3.110902640968618016e-01
5.676021534204483032e+01 -3.423792511224746704e+01 5.245149467140493016e-01
3.323500782251358032e+01 -2.236683136224746704e+01 3.428743217140493016e-01
4.789705616235733032e+01 -3.268921905755996704e+01 6.105287406593618016e-01
4.643257862329483032e+01 -3.090540558099746704e+01 5.934083793312368016e-01
4.504250293970108032e+01 -2.922645050287246704e+01 5.769746635109243016e-01
4.379250293970108032e+01 -2.769776397943496704e+01 5.624330375343618016e-01
4.262178760766983032e+01 -2.626880890130996704e+01 5.487916801124868016e-01
4.151448780298233032e+01 -2.492237335443496704e+01 5.358064506202993016e-01
4.044155079126358032e+01 -2.364014679193496704e+01 5.229585502296743016e-01
3.328639942407608032e+01 -2.241187530755996704e+01 5.331056449562368016e-01
5.183834034204483032e+01 -3.560999542474746704e+01 9.750154349952993016e-01
5.318837696313858032e+01 -3.580188995599746704e+01 1.013345513120299302e+00
5.304268604516983032e+01 -3.490186554193496704e+01 1.017953667417174302e+00
5.088545948266983032e+01 -3.262488800287246704e+01 9.741609428077993016e-01
5.023274952173233032e+01 -3.144324737787246704e+01 9.659059379249868016e-01
5.188216358423233032e+01 -3.181788116693496704e+01 1.014764580503111802e+00
5.112429004907608032e+01 -3.059253937005996704e+01 1.003656182065611802e+00
5.226338917016983032e+01 -3.593360382318496704e+01 1.280221733823424302e+00
5.399971729516983032e+01 -3.639881378412246704e+01 1.337137017026549302e+00
5.224587208032608032e+01 -3.434681183099746704e+01 1.291513237729674302e+00
5.223970752954483032e+01 -3.357337433099746704e+01 1.297082695737486802e+00
5.178945118188858032e+01 -3.250916534662246704e+01 1.289407524839049302e+00
5.160762745141983032e+01 -3.164429718255996704e+01 1.289560112729674302e+00
5.639107471704483032e+01 -3.402625519037246704e+01 1.438073906674986802e+00
5.342232471704483032e+01 -3.679993683099746704e+01 1.616006645932799302e+00
5.408480030298233032e+01 -3.647022491693496704e+01 1.643136772885924302e+00
5.201650196313858032e+01 -3.419361358880996704e+01 1.574502739682799302e+00
5.240236622095108032e+01 -3.369544464349746704e+01 1.591790947690611802e+00
5.323250538110733032e+01 -3.349830108880996704e+01 1.624749932065611802e+00
5.128774219751358032e+01 -3.144031769037246704e+01 1.559808525815611802e+00
5.533449512720108032e+01 -3.334839874505996704e+01 1.708093437924986802e+00
5.189491993188858032e+01 -3.647791534662246704e+01 1.855691704526549302e+00
5.260854297876358032e+01 -3.620813995599746704e+01 1.886483940854674302e+00
5.399575001001358032e+01 -3.641565948724746704e+01 1.944726738706236802e+00
5.220796924829483032e+01 -3.433863312005996704e+01 1.873681816831236802e+00
5.319472461938858032e+01 -3.425464874505996704e+01 1.915628227964049302e+00
5.323134571313858032e+01 -3.350672394037246704e+01 1.918832573667174302e+00
5.609572559595108032e+01 -3.464612823724746704e+01 2.037515434995299302e+00
5.405489307641983032e+01 -3.252503448724746704e+01 1.955850395932799302e+00
5.194252735376358032e+01 -3.652369171380996704e+01 2.154901299253111802e+00
5.226650196313858032e+01 -3.596497589349746704e+01 2.168023857846861802e+00
5.283223682641983032e+01 -3.558277374505996704e+01 2.193933281674986802e+00
5.319460254907608032e+01 -3.504761749505996704e+01 2.210397515073424302e+00
5.181569629907608032e+01 -3.330652862787246704e+01 2.146142754331236802e+00
5.451387745141983032e+01 -3.438758331537246704e+01 2.270913872495299302e+00
5.395540577173233032e+01 -3.246937042474746704e+01 2.245950493589049302e+00
5.229250293970108032e+01 -3.599390655755996704e+01 2.466470513120299302e+00
5.379286915063858032e+01 -3.628834015130996704e+01 2.542184624448424302e+00
5.380312305688858032e+01 -3.548877960443496704e+01 2.540246758237486802e+00
5.457686573266983032e+01 -3.523316437005996704e+01 2.578027519956236802e+00
5.468135792016983032e+01 -3.372425323724746704e+01 2.578622612729674302e+00
5.489681202173233032e+01 -3.309119659662246704e+01 2.587426934018736802e+00
5.344313770532608032e+01 -3.604456573724746704e+01 2.824136528745299302e+00
5.089302784204483032e+01 -3.343372589349746704e+01 2.672555718198424302e+00
5.147353321313858032e+01 -3.308704620599746704e+01 2.701700005307799302e+00
5.227449756860733032e+01 -3.288367706537246704e+01 2.743493828549986802e+00
5.528060108423233032e+01 -3.413233429193496704e+01 2.913385185971861802e+00
5.316017872095108032e+01 -3.196961456537246704e+01 2.787301811948424302e+00
5.419667774438858032e+01 -3.660059601068496704e+01 3.173791680112486802e+00
5.249214893579483032e+01 -3.380396515130996704e+01 3.052652153745299302e+00
5.433235889673233032e+01 -3.429236847162246704e+01 3.162332329526549302e+00
5.469374805688858032e+01 -3.375110870599746704e+01 3.178567681089049302e+00
5.305330616235733032e+01 -3.190882354974746704e+01 3.070581230893736802e+00
8.898765146732330322e+00 -3.121347963809967041e+00 -5.817625191062631984e-01
8.929038584232330322e+00 -3.022348940372467041e+00 -5.781156685203256984e-01
8.955710947513580322e+00 -2.921640932559967041e+00 -5.745908882468881984e-01
8.982261240482330322e+00 -2.821177065372467041e+00 -5.710813667625131984e-01
9.008628427982330322e+00 -2.721689760684967041e+00 -5.675871040672006984e-01
9.064048349857330322e+00 -2.639658510684967041e+00 -5.652525093406381984e-01
9.120078623294830322e+00 -2.557505190372467041e+00 -5.629179146140756984e-01
9.172141611576080322e+00 -2.473398745059967041e+00 -5.606901314109506984e-01
9.591697275638580322e+00 -3.571909487247467041e+00 -5.604002144187631984e-01
9.618552744388580322e+00 -3.460947573184967041e+00 -5.566312935203256984e-01
9.651084482669830322e+00 -3.354380190372467041e+00 -5.528318550437631984e-01
9.721763193607330322e+00 -3.271128237247467041e+00 -5.506040718406381984e-01
9.803977549076080322e+00 -3.194712221622467041e+00 -5.487730171531381984e-01
9.886741220951080322e+00 -3.117929995059967041e+00 -5.469114448875131984e-01
9.964072763919830322e+00 -3.036875307559967041e+00 -5.451261665672006984e-01
1.004769092798233032e+01 -2.959238588809967041e+00 -5.432493355125131984e-01
1.051174122095108032e+01 -4.170054018497467041e+00 -5.383207466453256984e-01
1.054225879907608032e+01 -4.048594057559967041e+00 -5.343687202781381984e-01
1.057265430688858032e+01 -3.927744448184967041e+00 -5.304472114890756984e-01
1.060286670923233032e+01 -3.807261049747467041e+00 -5.265257027000131984e-01
1.063283497095108032e+01 -3.687876284122467041e+00 -5.226499702781381984e-01
1.066268116235733032e+01 -3.569346010684967041e+00 -5.188047554343881984e-01
1.069777637720108032e+01 -3.454111635684967041e+00 -5.151121284812631984e-01
1.078536182641983032e+01 -3.368906557559967041e+00 -5.128690864890756984e-01
1.177120167016983032e+01 -4.988657534122467041e+00 -5.148832466453256984e-01
1.179195362329483032e+01 -4.843271791934967041e+00 -5.099699165672006984e-01
1.180080372095108032e+01 -4.691660463809967041e+00 -5.051328804343881984e-01
1.180959278345108032e+01 -4.541269838809967041e+00 -5.003416206687631984e-01
1.182106739282608032e+01 -4.394663393497467041e+00 -4.956724312156381984e-01
1.192824512720108032e+01 -4.304941713809967041e+00 -4.932310249656381984e-01
1.203646045923233032e+01 -4.214365541934967041e+00 -4.907591011375131984e-01
1.213777881860733032e+01 -4.119272768497467041e+00 -4.884397652000131984e-01
1.330525928735733032e+01 -5.985849916934967041e+00 -4.826414253562631984e-01
1.329738575220108032e+01 -5.800669252872467041e+00 -4.771330025047006984e-01
1.332607227563858032e+01 -5.640513002872467041e+00 -4.723722603172006984e-01
1.335463672876358032e+01 -5.481089174747467041e+00 -4.676267769187631984e-01
1.339504200220108032e+01 -5.330576479434967041e+00 -4.631559517234506984e-01
1.344869190454483032e+01 -5.188852846622467041e+00 -4.589445259422006984e-01
1.360616260766983032e+01 -5.105967104434967041e+00 -4.564878609031381984e-01
1.385536915063858032e+01 -5.072275698184967041e+00 -4.555112984031381984e-01
1.524068409204483032e+01 -7.243906557559967041e+00 -4.395506050437631984e-01
1.527101856470108032e+01 -7.055796205997467041e+00 -4.338590767234506984e-01
1.534603077173233032e+01 -6.896982729434967041e+00 -4.292204048484506984e-01
1.545058399438858032e+01 -6.755991518497467041e+00 -4.249479439109506984e-01
1.555495411157608032e+01 -6.615000307559967041e+00 -4.206907417625131984e-01
1.565956836938858032e+01 -6.473887026309967041e+00 -4.164182808250131984e-01
1.607924610376358032e+01 -6.510263979434967041e+00 -4.157926704734506984e-01
1.658760792016983032e+01 -6.587900698184967041e+00 -4.164030220359506984e-01
1.867464405298233032e+01 -9.475473940372467041e+00 -3.874570991843881984e-01
1.862184864282608032e+01 -9.186289370059967041e+00 -3.806516792625131984e-01
1.857002979516983032e+01 -8.902109682559967041e+00 -3.739378120750131984e-01
1.851894336938858032e+01 -8.622080385684967041e+00 -3.673460152000131984e-01
1.842867237329483032e+01 -8.323984682559967041e+00 -3.605863716453256984e-01
1.874227100610733032e+01 -8.265635073184967041e+00 -3.566801216453256984e-01
1.934932667016983032e+01 -8.367441713809967041e+00 -3.544828560203256984e-01
2.011043506860733032e+01 -8.542368471622467041e+00 -3.529264595359506984e-01
2.335427051782608032e+01 -1.251685577630996704e+01 -3.019773628562631984e-01
2.349568897485733032e+01 -1.228516632318496704e+01 -2.950803902000131984e-01
2.391756397485733032e+01 -1.222779327630996704e+01 -2.881376411765756984e-01
2.519234424829483032e+01 -1.267969757318496704e+01 -2.833768989890756984e-01
2.620857959985733032e+01 -1.294837433099746704e+01 -2.775175239890756984e-01
2.735616260766983032e+01 -1.327002960443496704e+01 -2.712919380515756984e-01
2.921492725610733032e+01 -1.396753937005996704e+01 -2.660276558250131984e-01
3.383901172876358032e+01 -1.615467315912246704e+01 -2.612821724265756984e-01
5.850923877954483032e+01 -3.535206085443496704e+01 -8.759137652813819841e-02
5.048885303735733032e+01 -2.944031769037246704e+01 -9.358808062970069841e-02
5.406526905298233032e+01 -3.096851593255996704e+01 -6.845685504376319841e-02
4.997707325220108032e+01 -2.774622589349746704e+01 -6.728192828595069841e-02
4.990096241235733032e+01 -2.702991729974746704e+01 -5.396100543438819841e-02
5.176381641626358032e+01 -2.744983917474746704e+01 -3.323956988751319841e-02
3.383522754907608032e+01 -1.615772491693496704e+01 -8.565351031720069841e-02
5.182344776391983032e+01 -3.101856476068496704e+01 1.759889457374868016e-01
5.191481739282608032e+01 -3.035474640130996704e+01 1.896608207374868016e-01
5.416988331079483032e+01 -3.104224640130996704e+01 2.215974662452993016e-01
5.035414844751358032e+01 -2.798328644037246704e+01 2.015168998390493016e-01
5.126186329126358032e+01 -2.784656769037246704e+01 2.217805717140493016e-01
3.383150440454483032e+01 -1.616065460443496704e+01 8.904436565936180159e-02
5.676558643579483032e+01 -3.423865753412246704e+01 5.246370170265493016e-01
5.149849659204483032e+01 -3.009864288568496704e+01 4.647767875343618016e-01
5.601399952173233032e+01 -3.219776397943496704e+01 5.386140678077993016e-01
3.382772022485733032e+01 -1.616358429193496704e+01 2.646730277687368016e-01
4.043355518579483032e+01 -2.363306671380996704e+01 5.228212211281118016e-01
3.939992481470108032e+01 -2.241370636224746704e+01 5.104616019874868016e-01
3.833913379907608032e+01 -2.121314483880996704e+01 4.970949027687368016e-01
3.731423145532608032e+01 -2.006824737787246704e+01 4.839876029640493016e-01
3.633052784204483032e+01 -1.898365265130996704e+01 4.712159965187368016e-01
3.539693409204483032e+01 -1.796045929193496704e+01 4.590089652687368016e-01
3.447090870141983032e+01 -1.697046905755996704e+01 4.465730521827993016e-01
3.359902149438858032e+01 -1.604163604974746704e+01 4.348237846046743016e-01
5.112685352563858032e+01 -3.059168487787246704e+01 1.003747734799986802e+00
5.752474170923233032e+01 -3.394861847162246704e+01 1.168771538510924302e+00
3.552223926782608032e+01 -1.803870636224746704e+01 6.473634574562368016e-01
3.457363086938858032e+01 -1.703394562005996704e+01 6.293733451515493016e-01
3.376656299829483032e+01 -1.613965851068496704e+01 6.136415336281118016e-01
5.638735157251358032e+01 -3.402112823724746704e+01 1.437982353940611802e+00
5.433870655298233032e+01 -3.193104034662246704e+01 1.383111748471861802e+00
5.320449024438858032e+01 -3.047645050287246704e+01 1.355233940854674302e+00
5.706471973657608032e+01 -3.209900909662246704e+01 1.478174004331236802e+00
5.533467823266983032e+01 -3.334583526849746704e+01 1.708108696714049302e+00
5.312911182641983032e+01 -3.117017608880996704e+01 1.632974419370299302e+00
5.688307911157608032e+01 -3.199756866693496704e+01 1.775583061948424302e+00
5.405983692407608032e+01 -3.252564483880996704e+01 1.956064018979674302e+00
5.436617237329483032e+01 -3.047425323724746704e+01 1.976907524839049302e+00
5.394295459985733032e+01 -3.245862823724746704e+01 2.245370659604674302e+00
5.235396534204483032e+01 -3.069410187005996704e+01 2.171136650815611802e+00
5.613741260766983032e+01 -3.232898956537246704e+01 2.347589287534361802e+00
5.347261768579483032e+01 -2.993860870599746704e+01 2.224954399839049302e+00
5.344069629907608032e+01 -2.920020538568496704e+01 2.224435601010924302e+00
5.354970508813858032e+01 -2.855311065912246704e+01 2.230447563901549302e+00
5.489699512720108032e+01 -3.308863312005996704e+01 2.587426934018736802e+00
5.226613575220108032e+01 -3.064686065912246704e+01 2.450265679135924302e+00
5.238954883813858032e+01 -3.000330597162246704e+01 2.455896172299986802e+00
5.344692188501358032e+01 -2.993152862787246704e+01 2.509927544370299302e+00
5.330825001001358032e+01 -2.912964874505996704e+01 2.501992974057799302e+00
5.354116016626358032e+01 -2.855640655755996704e+01 2.513314995542174302e+00
5.448574024438858032e+01 -2.838782745599746704e+01 2.561471733823424302e+00
5.316286426782608032e+01 -3.196876007318496704e+01 2.787454399839049302e+00
5.234133106470108032e+01 -3.070337921380996704e+01 2.737832817807799302e+00
5.230208545923233032e+01 -2.995728546380996704e+01 2.731622490659361802e+00
5.280696827173233032e+01 -2.955005890130996704e+01 2.758050713315611802e+00
5.372127491235733032e+01 -2.938404327630996704e+01 2.807870659604674302e+00
5.364046436548233032e+01 -2.862244659662246704e+01 2.800821099057799302e+00
5.305825001001358032e+01 -3.190943390130996704e+01 3.070871147885924302e+00
5.213729053735733032e+01 -3.058191925287246704e+01 3.007272515073424302e+00
5.221944385766983032e+01 -2.991419464349746704e+01 3.008249077573424302e+00
5.274959522485733032e+01 -2.952356964349746704e+01 3.037301811948424302e+00
5.316921192407608032e+01 -2.906348663568496704e+01 3.059427056089049302e+00
9.172385752201080322e+00 -2.473154604434967041e+00 -5.606748726218881984e-01
9.229514658451080322e+00 -2.391611635684967041e+00 -5.584470894187631984e-01
9.313560068607330322e+00 -2.324106752872467041e+00 -5.574400093406381984e-01
9.398643076419830322e+00 -2.255625307559967041e+00 -5.564024116843881984e-01
9.484214365482330322e+00 -2.186777651309967041e+00 -5.553648140281381984e-01
9.570579111576080322e+00 -2.117319643497467041e+00 -5.543272163718881984e-01
9.657981455326080322e+00 -2.047007143497467041e+00 -5.532743599265756984e-01
9.757224619388580322e+00 -1.981577455997467041e+00 -5.528471138328256984e-01
1.004817920923233032e+01 -2.958994448184967041e+00 -5.432493355125131984e-01
1.012538868188858032e+01 -2.877085268497467041e+00 -5.414487984031381984e-01
1.020943409204483032e+01 -2.797983705997467041e+00 -5.395567085593881984e-01
1.028792530298233032e+01 -2.714731752872467041e+00 -5.377256538718881984e-01
1.036659961938858032e+01 -2.631357729434967041e+00 -5.358945991843881984e-01
1.044570118188858032e+01 -2.547495424747467041e+00 -5.340482857078256984e-01
1.051900440454483032e+01 -2.459604799747467041e+00 -5.322630073875131984e-01
1.061067920923233032e+01 -2.380137026309967041e+00 -5.307371284812631984e-01
1.078627735376358032e+01 -3.369028627872467041e+00 -5.128843452781381984e-01
1.091298633813858032e+01 -3.304209291934967041e+00 -5.119383003562631984e-01
1.104146534204483032e+01 -3.238535463809967041e+00 -5.109769966453256984e-01
1.117220264673233032e+01 -3.171640932559967041e+00 -5.100156929343881984e-01
1.130446583032608032e+01 -3.104013979434967041e+00 -5.090238716453256984e-01
1.148207813501358032e+01 -3.056772768497467041e+00 -5.091154243797006984e-01
1.170003467798233032e+01 -3.025278627872467041e+00 -5.100767280906381984e-01
1.192372852563858032e+01 -2.992929995059967041e+00 -5.110685493797006984e-01
1.213838917016983032e+01 -4.119150698184967041e+00 -4.884245064109506984e-01
1.224886280298233032e+01 -4.028086245059967041e+00 -4.859068062156381984e-01
1.240743213891983032e+01 -3.961191713809967041e+00 -4.846708443015756984e-01
1.259877735376358032e+01 -3.908213198184967041e+00 -4.840299751609506984e-01
1.287435108423233032e+01 -3.894785463809967041e+00 -4.849912788718881984e-01
1.320424610376358032e+01 -3.902597963809967041e+00 -4.868833687156381984e-01
1.340700489282608032e+01 -3.842661440372467041e+00 -4.860899116843881984e-01
1.360677295923233032e+01 -3.778330385684967041e+00 -4.854948189109506984e-01
1.385762745141983032e+01 -5.073008120059967041e+00 -4.555265571922006984e-01
1.412941700220108032e+01 -5.046885073184967041e+00 -4.550535347312631984e-01
1.437068897485733032e+01 -4.999643862247467041e+00 -4.539396431297006984e-01
1.461891895532608032e+01 -4.950937807559967041e+00 -4.527952339500131984e-01
1.487245899438858032e+01 -4.901133120059967041e+00 -4.516203071922006984e-01
1.513259083032608032e+01 -4.849985659122467041e+00 -4.504301216453256984e-01
1.549440723657608032e+01 -4.842295229434967041e+00 -4.505369331687631984e-01
1.587221485376358032e+01 -4.835581362247467041e+00 -4.507047798484506984e-01
1.659194141626358032e+01 -6.589609682559967041e+00 -4.164182808250131984e-01
1.677327686548233032e+01 -6.479258120059967041e+00 -4.125120308250131984e-01
1.711061817407608032e+01 -6.448862612247467041e+00 -4.106504585593881984e-01
1.745980030298233032e+01 -6.417490541934967041e+00 -4.087125923484506984e-01
1.781887012720108032e+01 -6.385019838809967041e+00 -4.067289497703256984e-01
1.818947559595108032e+01 -6.351572573184967041e+00 -4.046842720359506984e-01
1.857363086938858032e+01 -6.316904604434967041e+00 -4.025480415672006984e-01
1.907765918970108032e+01 -6.331553041934967041e+00 -4.018308784812631984e-01
2.011556202173233032e+01 -8.544321596622467041e+00 -3.529264595359506984e-01
2.082112842798233032e+01 -8.672129213809967041e+00 -3.508665230125131984e-01
2.147109180688858032e+01 -8.755137026309967041e+00 -3.481504585593881984e-01
2.246071583032608032e+01 -8.998545229434967041e+00 -3.468076851218881984e-01
2.291670948266983032e+01 -8.952158510684967041e+00 -3.423673775047006984e-01
2.343740040063858032e+01 -8.929087221622467041e+00 -3.380338814109506984e-01
2.391298633813858032e+01 -8.873423159122467041e+00 -3.332426216453256984e-01
2.423274952173233032e+01 -8.737314760684967041e+00 -3.276426460593881984e-01
3.384041553735733032e+01 -1.615394073724746704e+01 -2.612363960593881984e-01
2.970668751001358032e+01 -1.200940948724746704e+01 -2.164213325828256984e-01
3.383663135766983032e+01 -1.615699249505996704e+01 -8.560773395001319841e-02
2.971486622095108032e+01 -1.201746612787246704e+01 -6.714459918438819841e-02
3.383290821313858032e+01 -1.615992218255996704e+01 8.909014202654930159e-02
2.972304493188858032e+01 -1.202552276849746704e+01 8.222368694842430159e-02
3.382912403345108032e+01 -1.616285187005996704e+01 2.647188041359243016e-01
2.973128467798233032e+01 -1.203370147943496704e+01 2.325227592140493016e-01
3.359218555688858032e+01 -1.603638702630996704e+01 4.347169730812368016e-01
3.273110157251358032e+01 -1.514112335443496704e+01 4.229982230812368016e-01
3.193550831079483032e+01 -1.430701690912246704e+01 4.122712943702993016e-01
3.111861377954483032e+01 -1.348487335443496704e+01 4.007814262062368016e-01
3.033559376001358032e+01 -1.270569854974746704e+01 3.896577689796743016e-01
2.960750538110733032e+01 -1.197693878412246704e+01 3.793580863624868016e-01
2.881197315454483032e+01 -1.123633819818496704e+01 3.673646781593618016e-01
2.806618458032608032e+01 -1.054310089349746704e+01 3.561036918312368016e-01
3.374880176782608032e+01 -1.612830597162246704e+01 6.131990287452993016e-01
