1.293089997768402100e+01 -1.014092865586280823e+01 1.975650113076028447e-01
1.341936433315277100e+01 -1.035638275742530823e+01 2.149295132607278447e-01
1.401921784877777100e+01 -1.066229096055030823e+01 2.361544888466653447e-01
1.439928376674652100e+01 -1.074822846055030823e+01 2.498873990029153447e-01
1.468328034877777100e+01 -1.073797455430030823e+01 2.603396695107278447e-01
1.499620759487152100e+01 -1.074725189805030823e+01 2.717990200966653447e-01
1.689763581752777100e+01 -1.213409271836280823e+01 3.385562222451028447e-01
1.210271394252777100e+01 -9.574156194925308228e+00 2.490023892372903447e-01
1.297002351284027100e+01 -1.018255463242530823e+01 2.840976040810403447e-01
1.337731111049652100e+01 -1.031927338242530823e+01 3.005008023232278447e-01
1.395799958705902100e+01 -1.060784760117530823e+01 3.239383023232278447e-01
1.435436189174652100e+01 -1.070989838242530823e+01 3.398684781044778447e-01
1.463701570034027100e+01 -1.069940033555030823e+01 3.512057583779153447e-01
1.498668611049652100e+01 -1.074212494492530823e+01 3.652438443154153447e-01
1.619499909877777100e+01 -1.152593842148780823e+01 4.141024868935403447e-01
1.203142488002777100e+01 -9.505796819925308228e+00 3.260287564247903447e-01
1.309777009487152100e+01 -1.031121674180030823e+01 3.748721402138528447e-01
1.333525788784027100e+01 -1.028191986680030823e+01 3.850955288857278447e-01
1.380101716518402100e+01 -1.046295014023780823e+01 4.059848111122903447e-01
1.430986726284027100e+01 -1.067217865586280823e+01 4.288577359169778447e-01
1.459130036830902100e+01 -1.066131439805030823e+01 4.410495083779153447e-01
1.497722566127777100e+01 -1.073699799180030823e+01 4.580935757607278447e-01
1.607488191127777100e+01 -1.142486420273780823e+01 5.088290493935403447e-01
1.257012116909027100e+01 -1.004864349961280823e+01 4.344424527138528447e-01
1.305724275112152100e+01 -1.027471771836280823e+01 4.587802212685403447e-01
1.329314363002777100e+01 -1.024456635117530823e+01 4.696139615029153447e-01
1.365630280971527100e+01 -1.032964935898780823e+01 4.872073452919778447e-01
1.432060945034027100e+01 -1.068548431992530823e+01 5.207309048622903447e-01
1.461327302455902100e+01 -1.068450775742530823e+01 5.344180386513528447e-01
1.496977937221527100e+01 -1.073382416367530823e+01 5.514468472451028447e-01
1.628758943080902100e+01 -1.161370697617530823e+01 6.191348355263528447e-01
1.260570466518402100e+01 -1.008758392930030823e+01 5.200595181435403447e-01
1.301659333705902100e+01 -1.023797455430030823e+01 5.421847622841653447e-01
1.325145661830902100e+01 -1.020770111680030823e+01 5.532016079872903447e-01
1.359026277065277100e+01 -1.027056732773780823e+01 5.708255093544778447e-01
1.432286775112152100e+01 -1.069085541367530823e+01 6.117648404091653447e-01
1.468566071987152100e+01 -1.075359955430030823e+01 6.305941861122903447e-01
1.506389558315277100e+01 -1.082086029648780823e+01 6.507357876747903447e-01
1.624504792690277100e+01 -1.158025971055030823e+01 7.175692837685403447e-01
1.264141023159027100e+01 -1.012652435898780823e+01 6.061801236122903447e-01
1.296746003627777100e+01 -1.019293060898780823e+01 6.240634243935403447e-01
1.320976960659027100e+01 -1.017083588242530823e+01 6.367434781044778447e-01
1.352440583705902100e+01 -1.021160736680030823e+01 6.541232388466653447e-01
1.418608796596527100e+01 -1.056756439805030823e+01 6.942080777138528447e-01
1.477379548549652100e+01 -1.083697357773780823e+01 7.292117398232278447e-01
1.515331208705902100e+01 -1.090374603867530823e+01 7.504061978310403447e-01
1.707842195034027100e+01 -1.231024017930030823e+01 8.724459927529153447e-01
7.688346266746520996e+00 -4.092100530862808228e+00 -6.524563509970846553e-01
7.734549880027770996e+00 -3.994810491800308228e+00 -6.484585482627096553e-01
7.776725172996520996e+00 -3.894712835550308228e+00 -6.445675570517721553e-01
7.818900465965270996e+00 -3.794859319925308228e+00 -6.406613070517721553e-01
7.860587477684020996e+00 -3.695982366800308228e+00 -6.368160922080221553e-01
7.902091383934020996e+00 -3.597715765237808228e+00 -6.329708773642721553e-01
7.943473219871520996e+00 -3.499571233987808228e+00 -6.291561800986471553e-01
7.980704665184020996e+00 -3.399473577737808228e+00 -6.254330355673971553e-01
8.454642653465270996e+00 -4.758848577737808228e+00 -6.385098177939596553e-01
8.498832106590270996e+00 -4.646421819925308228e+00 -6.342526156455221553e-01
8.547171950340270996e+00 -4.538511663675308228e+00 -6.299496371298971553e-01
8.573844313621520996e+00 -4.413145452737808228e+00 -6.250057894736471553e-01
8.598563551902770996e+00 -4.288145452737808228e+00 -6.200619418173971553e-01
8.622977614402770996e+00 -4.164488226175308228e+00 -6.151638705283346553e-01
8.642875075340270996e+00 -4.038267523050308228e+00 -6.104031283408346553e-01
8.672416090965270996e+00 -3.921446233987808228e+00 -6.058254916220846553e-01
9.477164626121520996e+00 -5.648130804300308228e+00 -6.251126009970846553e-01
9.503592848777770996e+00 -5.502989202737808228e+00 -6.196652133017721553e-01
9.529715895652770996e+00 -5.359434515237808228e+00 -6.142788607627096553e-01
9.555655837059020996e+00 -5.216856390237808228e+00 -6.089382845908346553e-01
9.581229567527770996e+00 -5.076475530862808228e+00 -6.036892611533346553e-01
9.606559157371520996e+00 -4.937437444925308228e+00 -5.984707552939596553e-01
9.631644606590270996e+00 -4.799497991800308228e+00 -5.932980258017721553e-01
9.656363844871520996e+00 -4.663511663675308228e+00 -5.882015902548971553e-01
1.043083894252777100e+01 -6.478208929300308228e+00 -5.973416049033346553e-01
1.081127107143402100e+01 -6.617735296487808228e+00 -6.025601107627096553e-01
1.080028474330902100e+01 -6.420835882425308228e+00 -5.955563265830221553e-01
1.078948152065277100e+01 -6.226988226175308228e+00 -5.886440951377096553e-01
1.077892243862152100e+01 -6.037168890237808228e+00 -5.818844515830221553e-01
1.079997956752777100e+01 -5.875547796487808228e+00 -5.761776644736471553e-01
1.083898103237152100e+01 -5.729063421487808228e+00 -5.710507113486471553e-01
1.087151277065277100e+01 -5.580015569925308228e+00 -5.661373812705221553e-01
1.048772370815277100e+01 -6.529844671487808228e+00 -5.339565951377096553e-01
1.147600495815277100e+01 -7.185728460550308228e+00 -5.534268099814596553e-01
1.250395905971527100e+01 -7.844175726175308228e+00 -5.729122836142721553e-01
1.251384675502777100e+01 -7.638487249612808228e+00 -5.661678988486471553e-01
1.252013337612152100e+01 -7.433775335550308228e+00 -5.594845492392721553e-01
1.237090241909027100e+01 -7.110166937112808228e+00 -5.492153842002096553e-01
1.233617341518402100e+01 -6.881895452737808228e+00 -5.418301302939596553e-01
1.238964021205902100e+01 -6.725035101175308228e+00 -5.366116244345846553e-01
1.054491364955902100e+01 -6.581846624612808228e+00 -4.702053744345846553e-01
1.152501618862152100e+01 -7.229917913675308228e+00 -4.837094027548971553e-01
1.282640779018402100e+01 -8.115782171487808228e+00 -5.028439242392721553e-01
1.468224275112152100e+01 -9.413633733987808228e+00 -5.311642367392721553e-01
1.469921052455902100e+01 -9.181700140237808228e+00 -5.241757113486471553e-01
1.459093415737152100e+01 -8.854795843362808228e+00 -5.150509554892721553e-01
1.453160798549652100e+01 -8.572080999612808228e+00 -5.069790560752096553e-01
1.449614655971527100e+01 -8.313658148050308228e+00 -4.999447543173971553e-01
1.215099275112152100e+01 -7.979551702737808228e+00 -4.274502474814596553e-01
1.238829743862152100e+01 -7.967588812112808228e+00 -4.249630648642721553e-01
1.292497956752777100e+01 -8.200743108987808228e+00 -4.263363558798971553e-01
1.487810456752777100e+01 -9.576841741800308228e+00 -4.455166537314596553e-01
1.928234040737152100e+01 -1.285650482773780823e+01 -4.935055453330221553e-01
1.910448396205902100e+01 -1.240069428086280823e+01 -4.828854281455221553e-01
1.893193757534027100e+01 -1.195855560898780823e+01 -4.725857455283346553e-01
1.876579988002777100e+01 -1.153253021836280823e+01 -4.626675326377096553e-01
1.624626863002777100e+01 -1.154107514023780823e+01 -3.858395297080221553e-01
2.647978913784027100e+01 -1.997210541367530823e+01 -4.583035189658346553e-01
2.319097077846527100e+01 -1.677227631211280823e+01 -4.225216586142721553e-01
1.655004060268402100e+01 -1.094732514023780823e+01 -3.672390658408346553e-01
2.702672517299652100e+01 -1.906670990586280823e+01 -4.288235384970846553e-01
2.593767488002777100e+01 -1.776959076523780823e+01 -4.115811068564596553e-01
2.552104890346527100e+01 -1.703008881211280823e+01 -3.999539095908346553e-01
2.489635407924652100e+01 -1.615496674180030823e+01 -3.868923861533346553e-01
1.627159821987152100e+01 -1.156670990586280823e+01 -2.854672152548971553e-01
3.937126863002777100e+01 -3.096026459336280823e+01 -3.186855990439596553e-01
3.337108552455902100e+01 -2.527630463242530823e+01 -2.964382845908346553e-01
3.158666169643402100e+01 -2.325176849961280823e+01 -2.827969271689596553e-01
5.372698152065277100e+01 -4.047454681992530823e+01 -2.858792025595846553e-01
5.191448152065277100e+01 -3.817571869492530823e+01 -2.668972689658346553e-01
3.289055573940277100e+01 -2.218426361680030823e+01 -2.391415316611471553e-01
1.629692780971527100e+01 -1.159234467148780823e+01 -1.852932650595846553e-01
3.322655427455902100e+01 -2.516265717148780823e+01 -9.659392423927215532e-02
3.151085603237152100e+01 -2.319622650742530823e+01 -9.483916349708465532e-02
3.219322907924652100e+01 -2.321990814805030823e+01 -8.176238127052215532e-02
3.199352204799652100e+01 -2.253704681992530823e+01 -7.329375334083465532e-02
3.279045808315277100e+01 -2.263409271836280823e+01 -5.928618498145965532e-02
3.260936677455902100e+01 -2.197857514023780823e+01 -5.095488615333465532e-02
1.635430085659027100e+01 -1.164581146836280823e+01 -8.392912931739715532e-02
5.984307038784027100e+01 -4.842608490586280823e+01 3.715915005654153447e-01
3.312450349330902100e+01 -2.508441010117530823e+01 1.030978482216653447e-01
3.140923249721527100e+01 -2.311944428086280823e+01 9.299652986229034468e-02
3.151402986049652100e+01 -2.268182221055030823e+01 1.021212857216653447e-01
3.177165925502777100e+01 -2.236907806992530823e+01 1.129245083779153447e-01
3.210942780971527100e+01 -2.211627045273780823e+01 1.246890347451028447e-01
3.252538239955902100e+01 -2.192144623398780823e+01 1.373843472451028447e-01
1.642357575893402100e+01 -1.170953217148780823e+01 1.781647615135284468e-02
3.312200105190277100e+01 -2.508917084336280823e+01 3.022097866982278447e-01
3.142412507534027100e+01 -2.313812103867530823e+01 2.806186001747903447e-01
3.150682771205902100e+01 -2.268231049180030823e+01 2.884921353310403447e-01
3.176610505580902100e+01 -2.237103119492530823e+01 2.993258755654153447e-01
3.208708894252777100e+01 -2.210528412461280823e+01 3.112735074013528447e-01
3.253716218471527100e+01 -2.193658295273780823e+01 3.254946988076028447e-01
1.675871980190277100e+01 -1.200482025742530823e+01 1.269168179482278447e-01
3.148131501674652100e+01 -2.319146576523780823e+01 4.694308560341653447e-01
3.152648103237152100e+01 -2.270452728867530823e+01 4.754275601357278447e-01
3.181536042690277100e+01 -2.241595306992530823e+01 4.869784634560403447e-01
3.213359773159027100e+01 -2.214739838242530823e+01 5.002536099404153447e-01
3.258574616909027100e+01 -2.197942963242530823e+01 5.156497281044778447e-01
1.682628571987152100e+01 -1.206732025742530823e+01 2.319583218544778447e-01
2.022795808315277100e+01 -1.467327728867530823e+01 3.307894986122903447e-01
3.187816560268402100e+01 -2.352288666367530823e+01 6.697177212685403447e-01
3.209960114955902100e+01 -2.317083588242530823e+01 6.795901577919778447e-01
3.184465730190277100e+01 -2.244537201523780823e+01 6.756839077919778447e-01
3.273284089565277100e+01 -2.261517181992530823e+01 7.048434536904153447e-01
1.690276277065277100e+01 -1.213751068711280823e+01 3.387240689247903447e-01
2.007268464565277100e+01 -1.454510346055030823e+01 4.486483853310403447e-01
3.248729646205902100e+01 -2.402862396836280823e+01 8.811129849404153447e-01
3.339263093471527100e+01 -2.421539154648780823e+01 9.145144741982278447e-01
3.344921052455902100e+01 -2.317352142930030823e+01 9.205111782997903447e-01
1.619365632534027100e+01 -1.152386322617530823e+01 4.140414517372903447e-01
1.988658845424652100e+01 -1.439068451523780823e+01 5.640811245888528447e-01
3.267735993862152100e+01 -2.311309662461280823e+01 1.084695748612290345e+00
5.119493806362152100e+01 -3.604693451523780823e+01 1.838159493729477845e+00
1.607549226284027100e+01 -1.142437592148780823e+01 5.088443081826028447e-01
1.968364655971527100e+01 -1.422173920273780823e+01 6.758517544716653447e-01
5.124547517299652100e+01 -3.609490814805030823e+01 2.137475899979477845e+00
1.628752839565277100e+01 -1.161273041367530823e+01 6.191195767372903447e-01
1.947881257534027100e+01 -1.405108490586280823e+01 7.857455532997903447e-01
2.037242829799652100e+01 -1.446258392930030823e+01 8.310488980263528447e-01
1.624498689174652100e+01 -1.157916107773780823e+01 7.175692837685403447e-01
1.938542878627777100e+01 -1.397552338242530823e+01 8.997287075966653447e-01
2.029625642299652100e+01 -1.440313568711280823e+01 9.497927945107278447e-01
1.708330476284027100e+01 -1.231341400742530823e+01 8.727511685341653447e-01
1.940782868862152100e+01 -1.399883881211280823e+01 1.019479684159165345e+00
2.025243318080902100e+01 -1.437066498398780823e+01 1.070413522049790345e+00
7.981070876121520996e+00 -3.399351507425308228e+00 -6.254330355673971553e-01
8.017753005027770996e+00 -3.299620062112808228e+00 -6.215420443564596553e-01
8.049979567527770996e+00 -3.197325140237808228e+00 -6.177273470908346553e-01
8.082084059715270996e+00 -3.095396429300308228e+00 -6.139126498252096553e-01
8.113944411277770996e+00 -2.994322210550308228e+00 -6.101589877158346553e-01
8.145499587059020996e+00 -2.893980413675308228e+00 -6.064053256064596553e-01
8.176993727684020996e+00 -2.793882757425308228e+00 -6.026669222861471553e-01
8.204825758934020996e+00 -2.692564398050308228e+00 -5.990811068564596553e-01
8.672721266746520996e+00 -3.921202093362808228e+00 -6.058254916220846553e-01
8.705497145652770996e+00 -3.807798773050308228e+00 -6.017208773642721553e-01
8.742057204246520996e+00 -3.698179632425308228e+00 -5.975399691611471553e-01
8.774466872215270996e+00 -3.585997015237808228e+00 -5.934963900595846553e-01
8.806510329246520996e+00 -3.474913030862808228e+00 -5.894833285361471553e-01
8.838431715965270996e+00 -3.364561468362808228e+00 -5.854855258017721553e-01
8.866202712059020996e+00 -3.251890569925308228e+00 -5.816403109580221553e-01
8.897635817527770996e+00 -3.143125921487808228e+00 -5.777188021689596553e-01
9.656791090965270996e+00 -4.663267523050308228e+00 -5.882015902548971553e-01
9.675345778465270996e+00 -4.524229437112808228e+00 -5.832577425986471553e-01
9.693656325340270996e+00 -4.386656194925308228e+00 -5.783444125205221553e-01
9.711844801902770996e+00 -4.249937444925308228e+00 -5.734768588095846553e-01
9.729789137840270996e+00 -4.115171819925308228e+00 -5.686855990439596553e-01
9.747550368309020996e+00 -3.981748968362808228e+00 -5.639248568564596553e-01
9.781974196434020996e+00 -3.860411077737808228e+00 -5.597286898642721553e-01
9.818045973777770996e+00 -3.741514593362808228e+00 -5.556393343955221553e-01
1.087181794643402100e+01 -5.579649358987808228e+00 -5.661221224814596553e-01
1.091100251674652100e+01 -5.436949163675308228e+00 -5.610714633017721553e-01
1.094383943080902100e+01 -5.290953069925308228e+00 -5.562191683798971553e-01
1.097661530971527100e+01 -5.145689398050308228e+00 -5.513973910361471553e-01
1.101158845424652100e+01 -5.003843694925308228e+00 -5.466976840048971553e-01
1.105126130580902100e+01 -4.866636663675308228e+00 -5.421658236533346553e-01
1.107054841518402100e+01 -4.716246038675308228e+00 -5.371304232627096553e-01
1.107775056362152100e+01 -4.560362249612808228e+00 -5.322018343955221553e-01
1.239025056362152100e+01 -6.724790960550308228e+00 -5.365963656455221553e-01
1.243559968471527100e+01 -6.563169866800308228e+00 -5.315151888877096553e-01
1.248070466518402100e+01 -6.402647405862808228e+00 -5.264645297080221553e-01
1.252556550502777100e+01 -6.242857366800308228e+00 -5.214291293173971553e-01
1.257006013393402100e+01 -6.084532171487808228e+00 -5.164547640830221553e-01
1.260356843471527100e+01 -5.920225530862808228e+00 -5.112972933798971553e-01
1.260790193080902100e+01 -5.737486273050308228e+00 -5.055752474814596553e-01
1.261211335659027100e+01 -5.557798773050308228e+00 -4.999600131064596553e-01
1.449626863002777100e+01 -8.312925726175308228e+00 -4.999142367392721553e-01
1.449645173549652100e+01 -8.085386663675308228e+00 -4.929714877158346553e-01
1.448271882534027100e+01 -7.851011663675308228e+00 -4.863339144736471553e-01
1.446916902065277100e+01 -7.619566351175308228e+00 -4.797726351767721553e-01
1.447588288784027100e+01 -7.406309515237808228e+00 -4.736538607627096553e-01
1.450298249721527100e+01 -7.209776312112808228e+00 -4.679012972861471553e-01
1.452996003627777100e+01 -7.014463812112808228e+00 -4.621945101767721553e-01
1.454692780971527100e+01 -6.815611273050308228e+00 -4.568691927939596553e-01
1.876567780971527100e+01 -1.153130951523780823e+01 -4.626370150595846553e-01
1.859203279018402100e+01 -1.110943451523780823e+01 -4.531460482627096553e-01
1.842400300502777100e+01 -1.070098724961280823e+01 -4.439602572470846553e-01
1.826061189174652100e+01 -1.030401459336280823e+01 -4.350338656455221553e-01
1.810344636440277100e+01 -9.920957952737808228e+00 -4.264126498252096553e-01
1.807189118862152100e+01 -9.631529241800308228e+00 -4.191799838095846553e-01
1.802629792690277100e+01 -9.336485296487808228e+00 -4.119015414267721553e-01
1.798174226284027100e+01 -9.047911077737808228e+00 -4.047909457236471553e-01
2.489275300502777100e+01 -1.615093842148780823e+01 -3.868313509970846553e-01
2.448564851284027100e+01 -1.546172943711280823e+01 -3.757229525595846553e-01
2.417571198940277100e+01 -1.486077728867530823e+01 -3.647518832236471553e-01
2.370152986049652100e+01 -1.415691986680030823e+01 -3.541317660361471553e-01
2.333257234096527100e+01 -1.354644623398780823e+01 -3.443966586142721553e-01
2.292974030971527100e+01 -1.292864838242530823e+01 -3.349056918173971553e-01
2.277306306362152100e+01 -1.248931732773780823e+01 -3.272610384970846553e-01
2.266204011440277100e+01 -1.208990326523780823e+01 -3.192959506064596553e-01
3.289208161830902100e+01 -2.218365326523780823e+01 -2.390957552939596553e-01
4.465801179409027100e+01 -2.899212494492530823e+01 -1.921597201377096553e-01
5.242485749721527100e+01 -3.370745697617530823e+01 -1.657467562705221553e-01
5.113603913784027100e+01 -3.206280365586280823e+01 -1.523037631064596553e-01
4.088713777065277100e+01 -2.451629486680030823e+01 -1.597805697470846553e-01
5.781371247768402100e+01 -3.492474213242530823e+01 -1.049404818564596553e-01
3.261699616909027100e+01 -2.198248139023780823e+01 -5.087859220802215532e-02
5.311168611049652100e+01 -3.579009857773780823e+01 1.039218228310403447e-01
4.465337312221527100e+01 -2.899700775742530823e+01 5.979340486229034468e-02
5.022252595424652100e+01 -3.219048920273780823e+01 1.119326870888528447e-01
4.880705964565277100e+01 -3.049175873398780823e+01 1.146945279091653447e-01
4.088835847377777100e+01 -2.452410736680030823e+01 6.629364900291534468e-02
5.112761628627777100e+01 -3.059075775742530823e+01 1.586398404091653447e-01
3.252965486049652100e+01 -2.192291107773780823e+01 1.374758999794778447e-01
4.720696198940277100e+01 -3.225408783555030823e+01 3.230990689247903447e-01
5.127983796596527100e+01 -3.447515717148780823e+01 3.845462124794778447e-01
4.464873445034027100e+01 -2.900176849961280823e+01 3.131045620888528447e-01
4.951158845424652100e+01 -3.170660248398780823e+01 3.856601040810403447e-01
5.001787507534027100e+01 -3.132195892930030823e+01 4.034671109169778447e-01
4.090154206752777100e+01 -2.453997650742530823e+01 2.938021939247903447e-01
5.606609284877777100e+01 -3.380865326523780823e+01 5.072268765419778447e-01
3.254088532924652100e+01 -2.193755951523780823e+01 3.255862515419778447e-01
4.720293366909027100e+01 -3.225994721055030823e+01 5.932406704872903447e-01
4.573845613002777100e+01 -3.047613373398780823e+01 5.761203091591653447e-01
4.434838044643402100e+01 -2.879717865586280823e+01 5.596865933388528447e-01
4.309838044643402100e+01 -2.726849213242530823e+01 5.451449673622903447e-01
4.192766511440277100e+01 -2.583953705430030823e+01 5.315036099404153447e-01
4.082036530971527100e+01 -2.449310150742530823e+01 5.185183804482278447e-01
3.974742829799652100e+01 -2.321087494492530823e+01 5.056704800576028447e-01
3.259227693080902100e+01 -2.198260346055030823e+01 5.158175747841653447e-01
5.114421784877777100e+01 -3.518072357773780823e+01 9.577273648232278447e-01
5.249425446987152100e+01 -3.537261810898780823e+01 9.960574429482278447e-01
5.234856355190277100e+01 -3.447259369492530823e+01 1.000665597245102845e+00
5.019133698940277100e+01 -3.219561615586280823e+01 9.568728726357278447e-01
4.953862702846527100e+01 -3.101397553086280823e+01 9.486178677529153447e-01
5.118804109096527100e+01 -3.138860931992530823e+01 9.974765103310403447e-01
5.043016755580902100e+01 -3.016326752305030823e+01 9.863681118935403447e-01
5.156926667690277100e+01 -3.550433197617530823e+01 1.262933663651352845e+00
5.330559480190277100e+01 -3.596954193711280823e+01 1.319848946854477845e+00
5.155174958705902100e+01 -3.391753998398780823e+01 1.274225167557602845e+00
5.154558503627777100e+01 -3.314410248398780823e+01 1.279794625565415345e+00
5.109532868862152100e+01 -3.207989349961280823e+01 1.272119454666977845e+00
5.091350495815277100e+01 -3.121502533555030823e+01 1.272272042557602845e+00
5.569695222377777100e+01 -3.359698334336280823e+01 1.420785836502915345e+00
5.272820222377777100e+01 -3.637066498398780823e+01 1.598718575760727845e+00
5.339067780971527100e+01 -3.604095306992530823e+01 1.625848702713852845e+00
5.132237946987152100e+01 -3.376434174180030823e+01 1.557214669510727845e+00
5.170824372768402100e+01 -3.326617279648780823e+01 1.574502877518540345e+00
5.253838288784027100e+01 -3.306902924180030823e+01 1.607461861893540345e+00
5.059361970424652100e+01 -3.101104584336280823e+01 1.542520455643540345e+00
5.464037263393402100e+01 -3.291912689805030823e+01 1.690805367752915345e+00
5.120079743862152100e+01 -3.604864349961280823e+01 1.838403634354477845e+00
5.191442048549652100e+01 -3.577886810898780823e+01 1.869195870682602845e+00
5.330162751674652100e+01 -3.598638764023780823e+01 1.927438668534165345e+00
5.151384675502777100e+01 -3.390936127305030823e+01 1.856393746659165345e+00
5.250060212612152100e+01 -3.382537689805030823e+01 1.898340157791977845e+00
5.253722321987152100e+01 -3.307745209336280823e+01 1.901544503495102845e+00
5.540160310268402100e+01 -3.421685639023780823e+01 2.020227364823227845e+00
5.336077058315277100e+01 -3.209576264023780823e+01 1.938562325760727845e+00
5.124840486049652100e+01 -3.609441986680030823e+01 2.137613229081040345e+00
5.157237946987152100e+01 -3.553570404648780823e+01 2.150735787674790345e+00
5.213811433315277100e+01 -3.515350189805030823e+01 2.176645211502915345e+00
5.250048005580902100e+01 -3.461834564805030823e+01 2.193109444901352845e+00
5.112157380580902100e+01 -3.287725678086280823e+01 2.128854684159165345e+00
5.381975495815277100e+01 -3.395831146836280823e+01 2.253625802323227845e+00
5.326128327846527100e+01 -3.204009857773780823e+01 2.228662423416977845e+00
5.159838044643402100e+01 -3.556463471055030823e+01 2.449182442948227845e+00
5.309874665737152100e+01 -3.585906830430030823e+01 2.524896554276352845e+00
5.310900056362152100e+01 -3.505950775742530823e+01 2.522958688065415345e+00
5.388274323940277100e+01 -3.480389252305030823e+01 2.560739449784165345e+00
5.398723542690277100e+01 -3.329498139023780823e+01 2.561334542557602845e+00
5.420268952846527100e+01 -3.266192474961280823e+01 2.570138863846665345e+00
5.274901521205902100e+01 -3.561529389023780823e+01 2.806848458573227845e+00
5.019890534877777100e+01 -3.300445404648780823e+01 2.655267648026352845e+00
5.077941071987152100e+01 -3.265777435898780823e+01 2.684411935135727845e+00
5.158037507534027100e+01 -3.245440521836280823e+01 2.726205758377915345e+00
5.458647859096527100e+01 -3.370306244492530823e+01 2.896097115799790345e+00
5.246605622768402100e+01 -3.154034271836280823e+01 2.770013741776352845e+00
5.350255525112152100e+01 -3.617132416367530823e+01 3.156503609940415345e+00
5.179802644252777100e+01 -3.337469330430030823e+01 3.035364083573227845e+00
5.363823640346527100e+01 -3.386309662461280823e+01 3.145044259354477845e+00
5.399962556362152100e+01 -3.332183685898780823e+01 3.161279610916977845e+00
5.235918366909027100e+01 -3.147955170273780823e+01 3.053293160721665345e+00
8.204642653465270996e+00 -2.692076116800308228e+00 -5.990505892783346553e-01
8.234916090965270996e+00 -2.593077093362808228e+00 -5.954037386923971553e-01
8.261588454246520996e+00 -2.492369085550308228e+00 -5.918789584189596553e-01
8.288138747215270996e+00 -2.391905218362808228e+00 -5.883694369345846553e-01
8.314505934715270996e+00 -2.292417913675308228e+00 -5.848751742392721553e-01
8.369925856590270996e+00 -2.210386663675308228e+00 -5.825405795127096553e-01
8.425956130027770996e+00 -2.128233343362808228e+00 -5.802059847861471553e-01
8.478019118309020996e+00 -2.044126898050308228e+00 -5.779782015830221553e-01
8.897574782371520996e+00 -3.142637640237808228e+00 -5.776882845908346553e-01
8.924430251121520996e+00 -3.031675726175308228e+00 -5.739193636923971553e-01
8.956961989402770996e+00 -2.925108343362808228e+00 -5.701199252158346553e-01
9.027640700340270996e+00 -2.841856390237808228e+00 -5.678921420127096553e-01
9.109855055809020996e+00 -2.765440374612808228e+00 -5.660610873252096553e-01
9.192618727684020996e+00 -2.688658148050308228e+00 -5.641995150595846553e-01
9.269950270652770996e+00 -2.607603460550308228e+00 -5.624142367392721553e-01
9.353568434715270996e+00 -2.529966741800308228e+00 -5.605374056845846553e-01
9.817618727684020996e+00 -3.740782171487808228e+00 -5.556088168173971553e-01
9.848136305809020996e+00 -3.619322210550308228e+00 -5.516567904502096553e-01
9.878531813621520996e+00 -3.498472601175308228e+00 -5.477352816611471553e-01
9.908744215965270996e+00 -3.377989202737808228e+00 -5.438137728720846553e-01
9.938712477684020996e+00 -3.258604437112808228e+00 -5.399380404502096553e-01
9.968558669090270996e+00 -3.140074163675308228e+00 -5.360928256064596553e-01
1.000365388393402100e+01 -3.024839788675308228e+00 -5.324001986533346553e-01
1.009123933315277100e+01 -2.939634710550308228e+00 -5.301571566611471553e-01
1.107707917690277100e+01 -4.559385687112808228e+00 -5.321713168173971553e-01
1.109783113002777100e+01 -4.413999944925308228e+00 -5.272579867392721553e-01
1.110668122768402100e+01 -4.262388616800308228e+00 -5.224209506064596553e-01
1.111547029018402100e+01 -4.111997991800308228e+00 -5.176296908408346553e-01
1.112694489955902100e+01 -3.965391546487808228e+00 -5.129605013877096553e-01
1.123412263393402100e+01 -3.875669866800308228e+00 -5.105190951377096553e-01
1.134233796596527100e+01 -3.785093694925308228e+00 -5.080471713095846553e-01
1.144365632534027100e+01 -3.690000921487808228e+00 -5.057278353720846553e-01
1.261113679409027100e+01 -5.556578069925308228e+00 -4.999294955283346553e-01
1.260326325893402100e+01 -5.371397405862808228e+00 -4.944210726767721553e-01
1.263194978237152100e+01 -5.211241155862808228e+00 -4.896603304892721553e-01
1.266051423549652100e+01 -5.051817327737808228e+00 -4.849148470908346553e-01
1.270091950893402100e+01 -4.901304632425308228e+00 -4.804440218955221553e-01
1.275456941127777100e+01 -4.759580999612808228e+00 -4.762325961142721553e-01
1.291204011440277100e+01 -4.676695257425308228e+00 -4.737759310752096553e-01
1.316124665737152100e+01 -4.643003851175308228e+00 -4.727993685752096553e-01
1.454656159877777100e+01 -6.814634710550308228e+00 -4.568386752158346553e-01
1.457689607143402100e+01 -6.626524358987808228e+00 -4.511471468955221553e-01
1.465190827846527100e+01 -6.467710882425308228e+00 -4.465084750205221553e-01
1.475646150112152100e+01 -6.326719671487808228e+00 -4.422360140830221553e-01
1.486083161830902100e+01 -6.185728460550308228e+00 -4.379788119345846553e-01
1.496544587612152100e+01 -6.044615179300308228e+00 -4.337063509970846553e-01
1.538512361049652100e+01 -6.080992132425308228e+00 -4.330807406455221553e-01
1.589348542690277100e+01 -6.158628851175308228e+00 -4.336910922080221553e-01
1.798052155971527100e+01 -9.046202093362808228e+00 -4.047451693564596553e-01
1.792772614955902100e+01 -8.757017523050308228e+00 -3.979397494345846553e-01
1.787590730190277100e+01 -8.472837835550308228e+00 -3.912258822470846553e-01
1.782482087612152100e+01 -8.192808538675308228e+00 -3.846340853720846553e-01
1.773454988002777100e+01 -7.894712835550308228e+00 -3.778744418173971553e-01
1.804814851284027100e+01 -7.836363226175308228e+00 -3.739681918173971553e-01
1.865520417690277100e+01 -7.938169866800308228e+00 -3.717709261923971553e-01
1.941631257534027100e+01 -8.113096624612808228e+00 -3.702145297080221553e-01
2.266014802455902100e+01 -1.208758392930030823e+01 -3.192654330283346553e-01
2.280156648159027100e+01 -1.185589447617530823e+01 -3.123684603720846553e-01
2.322344148159027100e+01 -1.179852142930030823e+01 -3.054257113486471553e-01
2.449822175502777100e+01 -1.225042572617530823e+01 -3.006649691611471553e-01
2.551445710659027100e+01 -1.251910248398780823e+01 -2.948055941611471553e-01
2.666204011440277100e+01 -1.284075775742530823e+01 -2.885800082236471553e-01
2.852080476284027100e+01 -1.353826752305030823e+01 -2.833157259970846553e-01
3.314488923549652100e+01 -1.572540131211280823e+01 -2.785702425986471553e-01
5.781511628627777100e+01 -3.492278900742530823e+01 -1.048794467002096553e-01
4.979473054409027100e+01 -2.901104584336280823e+01 -1.108761508017721553e-01
5.337114655971527100e+01 -3.053924408555030823e+01 -8.574492521583465532e-02
4.928295075893402100e+01 -2.731695404648780823e+01 -8.456999845802215532e-02
4.920683991909027100e+01 -2.660064545273780823e+01 -7.124907560645965532e-02
5.106969392299652100e+01 -2.702056732773780823e+01 -5.052764005958465532e-02
3.314110505580902100e+01 -1.572845306992530823e+01 -1.029415804892721553e-01
5.112932527065277100e+01 -3.058929291367530823e+01 1.587008755654153447e-01
5.122069489955902100e+01 -2.992547455430030823e+01 1.723727505654153447e-01
5.347576081752777100e+01 -3.061297455430030823e+01 2.043093960732278447e-01
4.966002595424652100e+01 -2.755401459336280823e+01 1.842288296669778447e-01
5.056774079799652100e+01 -2.741729584336280823e+01 2.044925015419778447e-01
3.313738191127777100e+01 -1.573138275742530823e+01 7.175629548729034468e-02
5.607146394252777100e+01 -3.380938568711280823e+01 5.073489468544778447e-01
5.080437409877777100e+01 -2.966937103867530823e+01 4.474887173622903447e-01
5.531987702846527100e+01 -3.176849213242530823e+01 5.213259976357278447e-01
3.313359773159027100e+01 -1.573431244492530823e+01 2.473849575966653447e-01
3.973943269252777100e+01 -2.320379486680030823e+01 5.055331509560403447e-01
3.870580232143402100e+01 -2.198443451523780823e+01 4.931735318154153447e-01
3.764501130580902100e+01 -2.078387299180030823e+01 4.798068325966653447e-01
3.662010896205902100e+01 -1.963897553086280823e+01 4.666995327919778447e-01
3.563640534877777100e+01 -1.855438080430030823e+01 4.539279263466653447e-01
3.470281159877777100e+01 -1.753118744492530823e+01 4.417208950966653447e-01
3.377678620815277100e+01 -1.654119721055030823e+01 4.292849820107278447e-01
3.290489900112152100e+01 -1.561236420273780823e+01 4.175357144326028447e-01
5.043273103237152100e+01 -3.016241303086280823e+01 9.864596646279153447e-01
5.683061921596527100e+01 -3.351934662461280823e+01 1.151483468338852845e+00
3.482811677455902100e+01 -1.760943451523780823e+01 6.300753872841653447e-01
3.387950837612152100e+01 -1.660467377305030823e+01 6.120852749794778447e-01
3.307244050502777100e+01 -1.571038666367530823e+01 5.963534634560403447e-01
5.569322907924652100e+01 -3.359185639023780823e+01 1.420694283768540345e+00
5.364458405971527100e+01 -3.150176849961280823e+01 1.365823678299790345e+00
5.251036775112152100e+01 -3.004717865586280823e+01 1.337945870682602845e+00
5.637059724330902100e+01 -3.166973724961280823e+01 1.460885934159165345e+00
5.464055573940277100e+01 -3.291656342148780823e+01 1.690820626541977845e+00
5.243498933315277100e+01 -3.074090424180030823e+01 1.615686349198227845e+00
5.618895661830902100e+01 -3.156829681992530823e+01 1.758294991776352845e+00
5.336571443080902100e+01 -3.209637299180030823e+01 1.938775948807602845e+00
5.367204988002777100e+01 -3.004498139023780823e+01 1.959619454666977845e+00
5.324883210659027100e+01 -3.202935639023780823e+01 2.228082589432602845e+00
5.165984284877777100e+01 -3.026483002305030823e+01 2.153848580643540345e+00
5.544329011440277100e+01 -3.189971771836280823e+01 2.330301217362290345e+00
5.277849519252777100e+01 -2.950933685898780823e+01 2.207666329666977845e+00
5.274657380580902100e+01 -2.877093353867530823e+01 2.207147530838852845e+00
5.285558259487152100e+01 -2.812383881211280823e+01 2.213159493729477845e+00
5.420287263393402100e+01 -3.265936127305030823e+01 2.570138863846665345e+00
5.157201325893402100e+01 -3.021758881211280823e+01 2.432977608963852845e+00
5.169542634487152100e+01 -2.957403412461280823e+01 2.438608102127915345e+00
5.275279939174652100e+01 -2.950225678086280823e+01 2.492639474198227845e+00
5.261412751674652100e+01 -2.870037689805030823e+01 2.484704903885727845e+00
5.284703767299652100e+01 -2.812713471055030823e+01 2.496026925370102845e+00
5.379161775112152100e+01 -2.795855560898780823e+01 2.544183663651352845e+00
5.246874177455902100e+01 -3.153948822617530823e+01 2.770166329666977845e+00
5.164720857143402100e+01 -3.027410736680030823e+01 2.720544747635727845e+00
5.160796296596527100e+01 -2.952801361680030823e+01 2.714334420487290345e+00
5.211284577846527100e+01 -2.912078705430030823e+01 2.740762643143540345e+00
5.302715241909027100e+01 -2.895477142930030823e+01 2.790582589432602845e+00
5.294634187221527100e+01 -2.819317474961280823e+01 2.783533028885727845e+00
5.236412751674652100e+01 -3.148016205430030823e+01 3.053583077713852845e+00
5.144316804409027100e+01 -3.015264740586280823e+01 2.989984444901352845e+00
5.152532136440277100e+01 -2.948492279648780823e+01 2.990961007401352845e+00
5.205547273159027100e+01 -2.909429779648780823e+01 3.020013741776352845e+00
5.247508943080902100e+01 -2.863421478867530823e+01 3.042138985916977845e+00
8.478263258934020996e+00 -2.043882757425308228e+00 -5.779629427939596553e-01
8.535392165184020996e+00 -1.962339788675308228e+00 -5.757351595908346553e-01
8.619437575340270996e+00 -1.894834905862808228e+00 -5.747280795127096553e-01
8.704520583152770996e+00 -1.826353460550308228e+00 -5.736904818564596553e-01
8.790091872215270996e+00 -1.757505804300308228e+00 -5.726528842002096553e-01
8.876456618309020996e+00 -1.688047796487808228e+00 -5.716152865439596553e-01
8.963858962059020996e+00 -1.617735296487808228e+00 -5.705624300986471553e-01
9.063102126121520996e+00 -1.552305608987808228e+00 -5.701351840048971553e-01
9.354056715965270996e+00 -2.529722601175308228e+00 -5.605374056845846553e-01
9.431266188621520996e+00 -2.447813421487808228e+00 -5.587368685752096553e-01
9.515311598777770996e+00 -2.368711858987808228e+00 -5.568447787314596553e-01
9.593802809715270996e+00 -2.285459905862808228e+00 -5.550137240439596553e-01
9.672477126121520996e+00 -2.202085882425308228e+00 -5.531826693564596553e-01
9.751578688621520996e+00 -2.118223577737808228e+00 -5.513363558798971553e-01
9.824881911277770996e+00 -2.030332952737808228e+00 -5.495510775595846553e-01
9.916556715965270996e+00 -1.950865179300308228e+00 -5.480251986533346553e-01
1.009215486049652100e+01 -2.939756780862808228e+00 -5.301724154502096553e-01
1.021886384487152100e+01 -2.874937444925308228e+00 -5.292263705283346553e-01
1.034734284877777100e+01 -2.809263616800308228e+00 -5.282650668173971553e-01
1.047808015346527100e+01 -2.742369085550308228e+00 -5.273037631064596553e-01
1.061034333705902100e+01 -2.674742132425308228e+00 -5.263119418173971553e-01
1.078795564174652100e+01 -2.627500921487808228e+00 -5.264034945517721553e-01
1.100591218471527100e+01 -2.596006780862808228e+00 -5.273647982627096553e-01
1.122960603237152100e+01 -2.563658148050308228e+00 -5.283566195517721553e-01
1.144426667690277100e+01 -3.689878851175308228e+00 -5.057125765830221553e-01
1.155474030971527100e+01 -3.598814398050308228e+00 -5.031948763877096553e-01
1.171330964565277100e+01 -3.531919866800308228e+00 -5.019589144736471553e-01
1.190465486049652100e+01 -3.478941351175308228e+00 -5.013180453330221553e-01
1.218022859096527100e+01 -3.465513616800308228e+00 -5.022793490439596553e-01
1.251012361049652100e+01 -3.473326116800308228e+00 -5.041714388877096553e-01
1.271288239955902100e+01 -3.413389593362808228e+00 -5.033779818564596553e-01
1.291265046596527100e+01 -3.349058538675308228e+00 -5.027828890830221553e-01
1.316350495815277100e+01 -4.643736273050308228e+00 -4.728146273642721553e-01
1.343529450893402100e+01 -4.617613226175308228e+00 -4.723416049033346553e-01
1.367656648159027100e+01 -4.570372015237808228e+00 -4.712277133017721553e-01
1.392479646205902100e+01 -4.521665960550308228e+00 -4.700833041220846553e-01
1.417833650112152100e+01 -4.471861273050308228e+00 -4.689083773642721553e-01
1.443846833705902100e+01 -4.420713812112808228e+00 -4.677181918173971553e-01
1.480028474330902100e+01 -4.413023382425308228e+00 -4.678250033408346553e-01
1.517809236049652100e+01 -4.406309515237808228e+00 -4.679928500205221553e-01
1.589781892299652100e+01 -6.160337835550308228e+00 -4.337063509970846553e-01
1.607915437221527100e+01 -6.049986273050308228e+00 -4.298001009970846553e-01
1.641649568080902100e+01 -6.019590765237808228e+00 -4.279385287314596553e-01
1.676567780971527100e+01 -5.988218694925308228e+00 -4.260006625205221553e-01
1.712474763393402100e+01 -5.955747991800308228e+00 -4.240170199423971553e-01
1.749535310268402100e+01 -5.922300726175308228e+00 -4.219723422080221553e-01
1.787950837612152100e+01 -5.887632757425308228e+00 -4.198361117392721553e-01
1.838353669643402100e+01 -5.902281194925308228e+00 -4.191189486533346553e-01
1.942143952846527100e+01 -8.115049749612808228e+00 -3.702145297080221553e-01
2.012700593471527100e+01 -8.242857366800308228e+00 -3.681545931845846553e-01
2.077696931362152100e+01 -8.325865179300308228e+00 -3.654385287314596553e-01
2.176659333705902100e+01 -8.569273382425308228e+00 -3.640957552939596553e-01
2.222258698940277100e+01 -8.522886663675308228e+00 -3.596554476767721553e-01
2.274327790737152100e+01 -8.499815374612808228e+00 -3.553219515830221553e-01
2.321886384487152100e+01 -8.444151312112808228e+00 -3.505306918173971553e-01
2.353862702846527100e+01 -8.308042913675308228e+00 -3.449307162314596553e-01
3.314629304409027100e+01 -1.572466889023780823e+01 -2.785244662314596553e-01
2.901256501674652100e+01 -1.158013764023780823e+01 -2.337094027548971553e-01
3.314250886440277100e+01 -1.572772064805030823e+01 -1.028958041220846553e-01
2.902074372768402100e+01 -1.158819428086280823e+01 -8.443266935645965532e-02
3.313878571987152100e+01 -1.573065033555030823e+01 7.180207185447784468e-02
2.902892243862152100e+01 -1.159625092148780823e+01 6.493561677635284468e-02
3.313500154018402100e+01 -1.573358002305030823e+01 2.474307339638528447e-01
2.903716218471527100e+01 -1.160442963242530823e+01 2.152346890419778447e-01
3.289806306362152100e+01 -1.560711517930030823e+01 4.174289029091653447e-01
3.203697907924652100e+01 -1.471185150742530823e+01 4.057101529091653447e-01
3.124138581752777100e+01 -1.387774506211280823e+01 3.949832241982278447e-01
3.042449128627777100e+01 -1.305560150742530823e+01 3.834933560341653447e-01
2.964147126674652100e+01 -1.227642670273780823e+01 3.723696988076028447e-01
2.891338288784027100e+01 -1.154766693711280823e+01 3.620700161904153447e-01
2.811785066127777100e+01 -1.080706635117530823e+01 3.500766079872903447e-01
2.737206208705902100e+01 -1.011382904648780823e+01 3.388156216591653447e-01
3.305467927455902100e+01 -1.569903412461280823e+01 5.959109585732278447e-01
3.208226716518402100e+01 -1.474127045273780823e+01 5.759677212685403447e-01
3.123509919643402100e+01 -1.387896576523780823e+01 5.580233853310403447e-01
3.040941560268402100e+01 -1.305218353867530823e+01 5.412539761513528447e-01
2.963524568080902100e+01 -1.227752533555030823e+01 5.255374234169778447e-01
2.890972077846527100e+01 -1.154998627305030823e+01 5.108279507607278447e-01
2.812840974330902100e+01 -1.081597748398780823e+01 4.951724331826028447e-01
2.739147126674652100e+01 -1.012664642930030823e+01 4.796237271279153447e-01
3.251512849330902100e+01 -1.517608490586280823e+01 3.843631070107278447e-01
3.156511628627777100e+01 -1.417925873398780823e+01 3.709658902138528447e-01
3.062377107143402100e+01 -1.321624603867530823e+01 3.573855679482278447e-01
2.968566071987152100e+01 -1.228216400742530823e+01 3.435153286904153447e-01
2.880181062221527100e+01 -1.140508881211280823e+01 3.304080288857278447e-01
2.785259187221527100e+01 -1.052215424180030823e+01 3.155917447060403447e-01
2.696172273159027100e+01 -9.693418890237808228e+00 3.016757290810403447e-01
2.600163972377777100e+01 -8.859434515237808228e+00 2.859286587685403447e-01
3.249840486049652100e+01 -1.517230072617530823e+01 5.794772427529153447e-01
3.148656404018402100e+01 -1.414178314805030823e+01 5.584964077919778447e-01
3.054051911830902100e+01 -1.317706146836280823e+01 5.379123013466653447e-01
2.961485993862152100e+01 -1.225018158555030823e+01 5.185794156044778447e-01
2.873613679409027100e+01 -1.137640228867530823e+01 5.001620572060403447e-01
2.780083405971527100e+01 -1.050103607773780823e+01 4.799746792763528447e-01
2.692046296596527100e+01 -9.677793890237808228e+00 4.618167202919778447e-01
2.597057282924652100e+01 -8.848936468362808228e+00 4.406527798622903447e-01
1.518498933315277100e+01 -6.139511168003082275e-01 7.230561189354034468e-02
1.995983064174652100e+01 -3.995298773050308228e+00 4.396151822060403447e-01
1.743828523159027100e+01 -2.207823187112808228e+00 3.567904751747903447e-01
1.499486482143402100e+01 -5.264267027378082275e-01 2.767581265419778447e-01
2.238280427455902100e+01 -5.810728460550308228e+00 1.191132478416534468e-02
1.045622956752777100e+01 2.680604547262191772e+00 -3.105374056845846553e-01
2.806566560268402100e+01 -1.074920502305030823e+01 5.522555630654153447e-01
2.523345124721527100e+01 -8.242613226175308228e+00 4.556369107216653447e-01
2.217266023159027100e+01 -5.699644476175308228e+00 3.526095669716653447e-01
1.820732820034027100e+01 -2.768614202737808228e+00 2.221926968544778447e-01
1.376079499721527100e+01 3.024307191371917725e-01 7.778351716697784468e-02
9.455253005027770996e+00 3.180482476949691772e+00 -6.125456877052215532e-02
1.330730378627777100e+01 1.249818414449691772e+00 3.510989468544778447e-01
3.968741774559020996e+00 1.577577203512191772e+00 1.596704415604477845e+00
1.361241853237152100e+01 4.546523988246917725e-01 2.801150601357278447e-01
4.506461501121520996e+00 1.184388726949691772e+00 1.658792428299790345e+00
3.790946364402770996e+00 9.304824769496917725e-01 1.900903634354477845e+00
4.162223219871520996e+00 7.042861878871917725e-01 2.201211861893540345e+00
3.296927809715270996e+00 1.231385797262191772e+00 2.400873116776352845e+00
1.998954176902770996e+00 2.678285211324691772e+00 2.265787057206040345e+00
4.153678297996520996e+00 1.590638726949691772e+00 1.803369454666977845e+00
3.821952223777770996e+00 3.876357972621917725e-01 2.099313668534165345e+00
4.461783766746520996e+00 7.029434144496917725e-01 2.126291207596665345e+00
3.975882887840270996e+00 2.913223206996917725e-01 2.390863351151352845e+00
3.316092848777770996e+00 1.397645562887191772e+00 2.311471871659165345e+00
2.344499909877777100e+01 -6.777525335550308228e+00 3.105868618935403447e-01
1.962285554409027100e+01 -3.786680608987808228e+00 1.814822476357278447e-01
4.283988356590270996e+00 9.730850160121917725e-01 1.748773507401352845e+00
4.615409255027770996e+00 1.496034234762191772e+00 1.750619820877915345e+00
4.238334059715270996e+00 2.756973206996917725e-01 2.053918771073227845e+00
3.995231032371520996e+00 1.147401422262191772e+00 2.011484078690415345e+00
3.249503493309020996e+00 1.675430238246917725e-01 2.285974435135727845e+00
4.582938551902770996e+00 6.195220351219177246e-02 2.367334298416977845e+00
3.774405837059020996e+00 1.280580133199691772e+00 2.278085641190415345e+00
4.172232985496520996e+00 1.243470758199691772e+00 1.892846993729477845e+00
4.139823317527770996e+00 5.228897035121917725e-01 2.206003121659165345e+00
1.879020094871520996e+00 2.626771539449691772e+00 2.006616524979477845e+00
3.272940993309020996e+00 3.228164613246917725e-01 2.454767159745102845e+00
3.269889235496520996e+00 1.059877008199691772e+00 2.426996163651352845e+00
3.747306227684020996e+00 1.500794976949691772e+00 2.438898019120102845e+00
3.451835036277770996e+00 -1.095565855503082275e-01 2.586481026932602845e+00
3.287650465965270996e+00 7.715469300746917725e-01 2.537897042557602845e+00
3.481131911277770996e+00 1.417176812887191772e+00 2.519555978104477845e+00
1.174064040184020996e+00 -8.276962339878082275e-01 1.151590279862290345e+00
1.543937087059020996e+00 -2.830184996128082275e-01 1.449411324784165345e+00
2.011588454246520996e+00 -5.916122496128082275e-01 1.786493233963852845e+00
1.604178786277770996e+00 -1.111875921487808228e+00 2.094644479081040345e+00
1.855033278465270996e+00 2.611512750387191772e+00 1.952279977127915345e+00
1.596061110496520996e+00 -1.103453069925308228e+00 2.400323800370102845e+00
3.230338454246520996e+00 2.106338441371917725e-01 2.427896432206040345e+00
3.139945387840270996e+00 1.054627984762191772e+00 2.386346749588852845e+00
1.741568922996520996e+00 2.683900445699691772e+00 2.241403512284165345e+00
1.327971589565277100e+01 -1.000738373398780823e+01 1.528085641190415345e+00
1.325139558315277100e+01 -9.986143499612808228e+00 1.904718331620102845e+00
1.734916090965270996e+00 -1.153868108987808228e+00 1.182596139237290345e+00
1.099051833152770996e+00 -1.534483343362808228e+00 1.481256417557602845e+00
2.015921950340270996e+00 -2.170713812112808228e+00 1.857416085526352845e+00
1.508658766746520996e+00 -9.971298277378082275e-01 1.791849068924790345e+00
4.072562575340270996e+00 1.393006891012191772e+00 1.827493600174790345e+00
4.027518630027770996e+00 6.152969300746917725e-01 2.169458321854477845e+00
2.020682692527770996e+00 2.646302789449691772e+00 1.991739205643540345e+00
1.670279860496520996e+00 -1.104307562112808228e+00 2.428262643143540345e+00
2.905143141746520996e+00 5.180068910121917725e-01 2.430154732987290345e+00
3.273734450340270996e+00 1.087098687887191772e+00 2.427270821854477845e+00
2.014823317527770996e+00 2.651551812887191772e+00 2.294916085526352845e+00
1.709281325340270996e+00 -1.143125921487808228e+00 2.294076852127915345e+00
3.896720290184020996e+00 -7.659760117530822754e-02 2.380670480057602845e+00
3.633536696434020996e+00 9.203506410121917725e-01 2.333764962479477845e+00
3.647147536277770996e+00 1.727479547262191772e+00 2.307107857987290345e+00
9.118888258934020996e+00 -8.113829046487808228e+00 3.315378121659165345e+00
2.334159255027770996e+00 -1.570494085550308228e+00 2.667550973221665345e+00
2.818595290184020996e+00 -1.050352483987808228e+00 2.677637032791977845e+00
3.636283278465270996e+00 8.892974257469177246e-02 2.685113839432602845e+00
3.285209059715270996e+00 1.137391656637191772e+00 2.625772408768540345e+00
1.617789626121520996e+00 -1.242613226175308228e+00 2.413995675370102845e+00
3.271964430809020996e+00 1.053163141012191772e+00 2.437387399002915345e+00
-6.198812723159790039e-01 -1.381407171487808228e+00 2.606546334549790345e+00
1.949332594871520996e+00 -1.472471624612808228e+00 2.769845895096665345e+00
3.042716383934020996e+00 -1.351744085550308228e+00 2.833703927323227845e+00
2.422843337059020996e+00 -8.477631211280822754e-02 2.750360421463852845e+00
2.983146071434020996e+00 3.970352113246917725e-01 2.768258981034165345e+00
3.377005934715270996e+00 9.851699769496917725e-01 2.773782662674790345e+00
2.102774977684020996e+00 -5.010834336280822754e-02 2.637216500565415345e+00
2.468253493309020996e+00 5.678115785121917725e-01 2.640405587479477845e+00
1.046935212612152100e+01 -8.606138616800308228e+00 3.815530709549790345e+00
