1.225998353958129883e+01 -9.497059255838394165e+00 -3.966612428426685710e-01
1.242868471145629883e+01 -9.428944021463394165e+00 -3.926176637411060710e-01
1.260178041458129883e+01 -9.362903982400894165e+00 -3.885893434286060710e-01
1.284842348098754883e+01 -9.363392263650894165e+00 -3.853697389364185710e-01
1.605563783645629883e+01 -1.209996452927589417e+01 -4.165129274129810710e-01
1.632663393020629883e+01 -1.205943718552589417e+01 -4.118742555379810710e-01
1.793283510208129883e+01 -1.320067253708839417e+01 -4.213347047567310710e-01
1.934341859817504883e+01 -1.412071648240089417e+01 -4.274534791707935710e-01
1.227658510208129883e+01 -9.516712576150894165e+00 -3.200163453817310710e-01
1.244388246536254883e+01 -9.447010427713394165e+00 -3.156065553426685710e-01
1.262625551223754883e+01 -9.389637380838394165e+00 -3.108305543661060710e-01
1.288632631301879883e+01 -9.402332693338394165e+00 -3.068480104207935710e-01
1.612949037551879883e+01 -1.217210808396339417e+01 -3.187651246786060710e-01
1.733249330520629883e+01 -1.297606316208839417e+01 -3.179106324911060710e-01
1.789670228958129883e+01 -1.317259636521339417e+01 -3.138212770223560710e-01
1.844229555130004883e+01 -1.333946648240089417e+01 -3.087858766317310710e-01
1.229520082473754883e+01 -9.538563162088394165e+00 -2.427153199911060710e-01
1.246286439895629883e+01 -9.468738943338394165e+00 -2.379545778036060710e-01
1.267136049270629883e+01 -9.436146169900894165e+00 -2.331480592489185710e-01
1.292435121536254883e+01 -9.441273123025894165e+00 -2.282347291707935710e-01
1.622073793411254883e+01 -1.226048699021339417e+01 -2.205748170614185710e-01
1.714462709426879883e+01 -1.280955925583839417e+01 -2.134947389364185710e-01
1.786056947708129883e+01 -1.314452019333839417e+01 -2.061552613973560710e-01
1.839279603958129883e+01 -1.330040398240089417e+01 -1.987852662801685710e-01
1.231375551223754883e+01 -9.560413748025894165e+00 -1.655516237020435710e-01
1.248184633255004883e+01 -9.490467458963394165e+00 -1.604551881551685710e-01
1.271677064895629883e+01 -9.483021169900894165e+00 -1.548704713582935710e-01
1.407553529739379883e+01 -1.053221550583839417e+01 -1.415648072957935710e-01
1.640250062942504883e+01 -1.243272820115089417e+01 -1.205687135457935710e-01
1.720901918411254883e+01 -1.287193718552589417e+01 -1.094908326864185710e-01
1.782474184036254883e+01 -1.311668816208839417e+01 -9.946580827235607103e-02
1.912253236770629883e+01 -1.394102898240089417e+01 -8.367296159266857103e-02
1.233249330520629883e+01 -9.582386404275894165e+00 -8.771654069423107103e-02
1.252145814895629883e+01 -9.532703787088394165e+00 -8.199449479579357103e-02
1.276865053176879883e+01 -9.536243826150894165e+00 -7.549425065516857103e-02
1.415573549270629883e+01 -1.061143913865089417e+01 -5.391832292079357103e-02
1.683804750442504883e+01 -1.284019890427589417e+01 -1.432176530360607103e-02
1.720962953567504883e+01 -1.287657585740089417e+01 -4.983386397356071029e-03
1.773196840286254883e+01 -1.303819695115089417e+01 6.598034501081428971e-03
1.914908266067504883e+01 -1.396849480271339417e+01 3.102735579014392897e-02
1.235123109817504883e+01 -9.604236990213394165e+00 -1.003404557704357103e-02
1.257266664505004883e+01 -9.586170583963394165e+00 -3.213366866106071029e-03
1.299258852005004883e+01 -9.755360037088394165e+00 7.483044266706428971e-03
1.423294496536254883e+01 -1.068785515427589417e+01 3.424696028233142897e-02
1.699692201614379883e+01 -1.299132195115089417e+01 9.142164289951892897e-02
1.721023988723754883e+01 -1.288109245896339417e+01 9.902051985264392897e-02
1.761514711380004883e+01 -1.293809929490089417e+01 1.104951292276439290e-01
1.917563295364379883e+01 -1.399583855271339417e+01 1.454682737588939290e-01
1.238022279739379883e+01 -9.636585623025894165e+00 6.860975325108142897e-02
1.264993715286254883e+01 -9.665394216775894165e+00 7.735303938389392897e-02
1.356784486770629883e+01 -1.031358757615089417e+01 1.023164182901439290e-01
1.431113100051879883e+01 -1.076524773240089417e+01 1.234498411417064290e-01
1.679416322708129883e+01 -1.280748406052589417e+01 1.898255735635814290e-01
1.721085023880004883e+01 -1.288560906052589417e+01 2.030702024698314290e-01
1.788101625442504883e+01 -1.317894402146339417e+01 2.235932737588939290e-01
1.920236635208129883e+01 -1.402354851365089417e+01 2.608857542276439290e-01
1.245621156692504883e+01 -9.716053396463394165e+00 1.487183958292064290e-01
1.289127016067504883e+01 -9.906116873025894165e+00 1.637483030557689290e-01
1.363473939895629883e+01 -1.038145866990089417e+01 1.886964231729564290e-01
1.500449037551879883e+01 -1.142467156052589417e+01 2.338776975870189290e-01
1.700198793411254883e+01 -1.300413933396339417e+01 2.994904905557689290e-01
1.721152162551879883e+01 -1.289024773240089417e+01 3.076997190713939290e-01
1.843088197708129883e+01 -1.367284050583839417e+01 3.486237913370189290e-01
1.926382875442504883e+01 -1.408153191208839417e+01 3.771729856729564290e-01
1.253384828567504883e+01 -9.797230154275894165e+00 2.303376585245189290e-01
1.315610170364379883e+01 -1.017015495896339417e+01 2.541718870401439290e-01
1.370370912551879883e+01 -1.045140495896339417e+01 2.755952268838939290e-01
1.501871156692504883e+01 -1.144163933396339417e+01 3.265443235635814290e-01
1.700455141067504883e+01 -1.301048699021339417e+01 4.033418089151439290e-01
1.769565248489379883e+01 -1.333433952927589417e+01 4.304261595010814290e-01
1.830612611770629883e+01 -1.356590691208839417e+01 4.544587522745189290e-01
1.933047914505004883e+01 -1.414403191208839417e+01 4.950623899698314290e-01
1.274399232864379883e+01 -1.001158562302589417e+01 3.185029417276439290e-01
1.332346010208129883e+01 -1.033836784958839417e+01 3.441224485635814290e-01
1.412924623489379883e+01 -1.086571159958839417e+01 3.798432737588939290e-01
1.664206361770629883e+01 -1.298180046677589417e+01 4.919343382120189290e-01
1.702450990676879883e+01 -1.303306999802589417e+01 5.085816770792064290e-01
1.790671205520629883e+01 -1.353050652146339417e+01 5.475831419229564290e-01
1.825558900833129883e+01 -1.352501335740089417e+01 5.626893430948314290e-01
1.939719057083129883e+01 -1.420665398240089417e+01 6.131959348917064290e-01
1.294406557083129883e+01 -1.021605339646339417e+01 4.093537718057689290e-01
1.339511537551879883e+01 -1.041234245896339417e+01 4.308991819620189290e-01
1.468045473098754883e+01 -1.140160027146339417e+01 4.955048948526439290e-01
1.669107484817504883e+01 -1.303221550583839417e+01 5.969605833292064290e-01
1.697397279739379883e+01 -1.299022331833839417e+01 6.099763303995189290e-01
1.811386537551879883e+01 -1.372301140427589417e+01 6.666016966104564290e-01
1.831766176223754883e+01 -1.358446159958839417e+01 6.754670530557689290e-01
1.940829896926879883e+01 -1.422069206833839417e+01 7.299714475870189290e-01
1.305698060989379883e+01 -1.033275261521339417e+01 4.973664671182689290e-01
1.359170961380004883e+01 -1.060936394333839417e+01 5.262818723917064290e-01
1.471091127395629883e+01 -1.143468132615089417e+01 5.887513548135814290e-01
1.663235902786254883e+01 -1.298070183396339417e+01 6.969972044229564290e-01
1.691763734817504883e+01 -1.294200554490089417e+01 7.109742552042064290e-01
1.784213685989379883e+01 -1.347996941208839417e+01 7.614503294229564290e-01
1.837088441848754883e+01 -1.363621941208839417e+01 7.891297727823314290e-01
1.933054018020629883e+01 -1.415697136521339417e+01 8.412385374307689290e-01
1.313315248489379883e+01 -1.041283074021339417e+01 5.849366575479564290e-01
1.421683168411254883e+01 -1.122911491990089417e+01 6.517701536417064290e-01
1.476657533645629883e+01 -1.149205437302589417e+01 6.835389524698314290e-01
1.658096742630004883e+01 -1.293602409958839417e+01 7.962403684854564290e-01
1.686026430130004883e+01 -1.289268913865089417e+01 8.106751829385814290e-01
1.764383363723754883e+01 -1.330369988083839417e+01 8.570161253213939290e-01
1.802792787551879883e+01 -1.333446159958839417e+01 8.784547239542064290e-01
1.927103090286254883e+01 -1.410936394333839417e+01 9.533601194620189290e-01
1.322433900833129883e+01 -1.050780144333839417e+01 6.745973020792064290e-01
1.420242738723754883e+01 -1.121849480271339417e+01 7.397065550088939290e-01
1.491244935989379883e+01 -1.163670769333839417e+01 7.859101682901439290e-01
1.645718812942504883e+01 -1.282274284958839417e+01 8.903260618448314290e-01
1.680832338333129883e+01 -1.284849968552589417e+01 9.106202512979564290e-01
1.716360902786254883e+01 -1.287059441208839417e+01 9.311128050088939290e-01
1.785586977005004883e+01 -1.318504753708839417e+01 9.748444944620189290e-01
1.836453676223754883e+01 -1.332091179490089417e+01 1.006231823563581429e+00
8.268711566925048828e+00 -4.457142263650894165e+00 -6.012510865926685710e-01
8.310642719268798828e+00 -4.356922537088394165e+00 -5.970396608114185710e-01
8.348850727081298828e+00 -4.254383474588394165e+00 -5.929350465536060710e-01
8.386936664581298828e+00 -4.152088552713394165e+00 -5.888456910848560710e-01
8.424595355987548828e+00 -4.050892263650894165e+00 -5.848173707723560710e-01
8.471531391143798828e+00 -3.957874685525894165e+00 -5.812010377645435710e-01
8.515049457550048828e+00 -3.862293630838394165e+00 -5.774626344442310710e-01
8.557835102081298828e+00 -3.767200857400894165e+00 -5.739836305379810710e-01
9.190220355987548828e+00 -5.260975271463394165e+00 -5.908445924520435710e-01
9.232639789581298828e+00 -5.145252615213394165e+00 -5.864042848348560710e-01
9.272617816925048828e+00 -5.028309255838394165e+00 -5.816130250692310710e-01
9.313755512237548828e+00 -4.913074880838394165e+00 -5.771879762411060710e-01
9.376621723175048828e+00 -4.816761404275894165e+00 -5.736326783895435710e-01
9.450291156768798828e+00 -4.729236990213394165e+00 -5.705046266317310710e-01
9.503635883331298828e+00 -4.625477224588394165e+00 -5.668882936239185710e-01
9.561008930206298828e+00 -4.525867849588394165e+00 -5.631804078817310710e-01
1.011349916458129883e+01 -6.066883474588394165e+00 -5.692686647176685710e-01
1.024515199661254883e+01 -6.011097341775894165e+00 -5.674223512411060710e-01
1.029959535598754883e+01 -5.889027029275894165e+00 -5.629515260457935710e-01
1.034634828567504883e+01 -5.760975271463394165e+00 -5.582365602254810710e-01
1.039255189895629883e+01 -5.634266287088394165e+00 -5.535673707723560710e-01
1.043851137161254883e+01 -5.508411794900894165e+00 -5.489286988973560710e-01
1.048428773880004883e+01 -5.383045583963394165e+00 -5.443205446004810710e-01
1.052957582473754883e+01 -5.258778005838394165e+00 -5.397429078817310710e-01
1.014108705520629883e+01 -6.093006521463394165e+00 -5.112394899129810710e-01
1.087192201614379883e+01 -6.548206716775894165e+00 -5.254301637411060710e-01
1.161136293411254883e+01 -6.988392263650894165e+00 -5.394224733114185710e-01
1.164200258255004883e+01 -6.825062185525894165e+00 -5.337156862020435710e-01
1.166544008255004883e+01 -6.658558279275894165e+00 -5.279173463582935710e-01
1.168857240676879883e+01 -6.494129568338394165e+00 -5.221800416707935710e-01
1.171152162551879883e+01 -6.330921560525894165e+00 -5.165037721395435710e-01
1.172324037551879883e+01 -6.162098318338394165e+00 -5.109953492879810710e-01
1.017294740676879883e+01 -6.123035818338394165e+00 -4.526304811239185710e-01
1.092429018020629883e+01 -6.595325857400894165e+00 -4.636625856161060710e-01
1.181595277786254883e+01 -7.161976248025894165e+00 -4.769682496786060710e-01
1.287442445755004883e+01 -7.837879568338394165e+00 -4.928373903036060710e-01
1.371829652786254883e+01 -8.309925466775894165e+00 -5.033812135457935710e-01
1.376602602005004883e+01 -8.131458669900894165e+00 -4.974760621786060710e-01
1.381351137161254883e+01 -7.953846365213394165e+00 -4.916014283895435710e-01
1.386044740676879883e+01 -7.778431326150894165e+00 -4.857878297567310710e-01
1.074277162551879883e+01 -6.621693044900894165e+00 -4.027189821004810710e-01
1.097751283645629883e+01 -6.643055349588394165e+00 -4.009184449911060710e-01
1.187820863723754883e+01 -7.216663748025894165e+00 -4.094938844442310710e-01
1.295358705520629883e+01 -7.905384451150894165e+00 -4.198546022176685710e-01
1.428519105911254883e+01 -8.768299490213394165e+00 -4.329619020223560710e-01
1.589157533645629883e+01 -9.807484060525894165e+00 -4.487089723348560710e-01
1.632657289505004883e+01 -9.894642263650894165e+00 -4.473814576864185710e-01
1.629367494583129883e+01 -9.619251638650894165e+00 -4.402403444051685710e-01
1.934445619583129883e+01 -1.412047234177589417e+01 -4.274382203817310710e-01
1.962002992630004883e+01 -1.402745476365089417e+01 -4.216093629598560710e-01
1.321439027786254883e+01 -8.337635427713394165e+00 -3.534941285848560710e-01
1.347220277786254883e+01 -8.333485037088394165e+00 -3.501982301473560710e-01
1.438229799270629883e+01 -8.849232107400894165e+00 -3.522886842489185710e-01
1.602335023880004883e+01 -9.914417654275894165e+00 -3.595671266317310710e-01
1.834799623489379883e+01 -1.145714226365089417e+01 -3.707670778036060710e-01
2.003934144973754883e+01 -1.245286980271339417e+01 -3.756193727254810710e-01
1.844534730911254883e+01 -1.334105339646339417e+01 -3.087706178426685710e-01
1.962906312942504883e+01 -1.403941765427589417e+01 -3.059782594442310710e-01
2.149887514114379883e+01 -1.527696648240089417e+01 -3.039946168661060710e-01
2.225870180130004883e+01 -1.554503288865089417e+01 -2.980284303426685710e-01
2.266714906692504883e+01 -1.551256218552589417e+01 -2.907652467489185710e-01
1.785776185989379883e+01 -1.136253777146339417e+01 -2.720579713582935710e-01
1.858115053176879883e+01 -1.164061394333839417e+01 -2.674650758504810710e-01
2.982022523880004883e+01 -1.984959831833839417e+01 -2.772764772176685710e-01
1.839578676223754883e+01 -1.330199089646339417e+01 -1.987700074911060710e-01
1.967044496536254883e+01 -1.407909050583839417e+01 -1.895079225301685710e-01
2.127719545364379883e+01 -1.509593620896339417e+01 -1.785978883504810710e-01
2.228982973098754883e+01 -1.557530632615089417e+01 -1.684813112020435710e-01
2.270273256301879883e+01 -1.554588738083839417e+01 -1.598295778036060710e-01
3.697983217239379883e+01 -2.584447136521339417e+01 -8.829637467860607103e-02
3.515219545364379883e+01 -2.388658562302589417e+01 -8.458848893641857103e-02
1.912631654739379883e+01 -1.394310417771339417e+01 -8.362718522548107103e-02
1.982211732864379883e+01 -1.421300163865089417e+01 -7.221361100673107103e-02
2.112424135208129883e+01 -1.497240105271339417e+01 -5.523057878016857103e-02
2.232107973098754883e+01 -1.560570183396339417e+01 -3.852220475673107103e-02
2.273843812942504883e+01 -1.557921257615089417e+01 -2.843614518641857103e-02
3.619601869583129883e+01 -2.524669304490089417e+01 1.156678587198314290e-01
3.483603334426879883e+01 -2.365440788865089417e+01 1.117005735635814290e-01
1.915286684036254883e+01 -1.397056999802589417e+01 3.108839094639392897e-02
2.009988832473754883e+01 -1.445482292771339417e+01 4.939893782139392897e-02
2.101950502395629883e+01 -1.488914909958839417e+01 6.770948469639392897e-02
2.146847963333129883e+01 -1.491026726365089417e+01 7.936719954014392897e-02
2.281638002395629883e+01 -1.564671745896339417e+01 1.047578245401439290e-01
6.049307680130004883e+01 -4.498167839646339417e+01 6.892609983682689290e-01
3.600827455520629883e+01 -2.510899773240089417e+01 3.209901243448314290e-01
3.482968568801879883e+01 -2.365648308396339417e+01 3.103547483682689290e-01
1.917941713333129883e+01 -1.399803581833839417e+01 1.455598264932689290e-01
2.006583070755004883e+01 -1.443016472458839417e+01 1.674104124307689290e-01
2.095212221145629883e+01 -1.483714714646339417e+01 1.895356565713939290e-01
2.136880922317504883e+01 -1.483299675583839417e+01 2.021851927042064290e-01
2.326700258255004883e+01 -1.601402702927589417e+01 2.460542112588939290e-01
3.610544252395629883e+01 -2.519127312302589417e+01 5.291963011026439290e-01
3.484183168411254883e+01 -2.367247429490089417e+01 5.083527952432689290e-01
1.920615053176879883e+01 -1.402562370896339417e+01 2.609925657510814290e-01
1.970846986770629883e+01 -1.412889519333839417e+01 2.770905882120189290e-01
2.088553285598754883e+01 -1.478587761521339417e+01 3.106294065713939290e-01
2.129599428176879883e+01 -1.477769890427589417e+01 3.245606809854564290e-01
2.338156557083129883e+01 -1.611107292771339417e+01 3.836274534463939290e-01
3.652316713333129883e+01 -2.552122917771339417e+01 7.484040647745189290e-01
3.489780092239379883e+01 -2.372166863083839417e+01 7.087922483682689290e-01
1.926852846145629883e+01 -1.408446159958839417e+01 3.773408323526439290e-01
1.994522523880004883e+01 -1.433580437302589417e+01 4.012055784463939290e-01
2.081900453567504883e+01 -1.473460808396339417e+01 4.316010862588939290e-01
2.122324037551879883e+01 -1.472240105271339417e+01 4.467683225870189290e-01
2.346078920364379883e+01 -1.617967644333839417e+01 5.221772581338939290e-01
3.510648012161254883e+01 -2.388658562302589417e+01 9.139314085245189290e-01
1.933517885208129883e+01 -1.414696159958839417e+01 4.952454954385814290e-01
1.987778139114379883e+01 -1.428233757615089417e+01 5.164704710245189290e-01
2.075326967239379883e+01 -1.468394890427589417e+01 5.511994749307689290e-01
2.115268373489379883e+01 -1.466881218552589417e+01 5.675874143838939290e-01
2.251523256301879883e+01 -1.542296257615089417e+01 6.212830930948314290e-01
3.539828920364379883e+01 -2.411449089646339417e+01 1.125830212235456429e+00
1.940201234817504883e+01 -1.420958366990089417e+01 6.134095579385814290e-01
1.981393861770629883e+01 -1.423216667771339417e+01 6.317506223917064290e-01
2.072757387161254883e+01 -1.466685906052589417e+01 6.724763303995189290e-01
2.114255189895629883e+01 -1.466502800583839417e+01 6.909547239542064290e-01
2.251773500442504883e+01 -1.542967644333839417e+01 7.522797971963939290e-01
1.941025209426879883e+01 -1.422118034958839417e+01 7.300630003213939290e-01
1.975088930130004883e+01 -1.418248406052589417e+01 7.456880003213939290e-01
2.057840394973754883e+01 -1.454613152146339417e+01 7.865815550088939290e-01
2.127389955520629883e+01 -1.477745476365089417e+01 8.207307249307689290e-01
2.269388246536254883e+01 -1.557628288865089417e+01 8.914246946573314290e-01
2.670462465286254883e+01 -1.837974968552589417e+01 1.092825451493268929e+00
1.933243227005004883e+01 -1.415758171677589417e+01 8.413300901651439290e-01
1.968790102005004883e+01 -1.413280144333839417e+01 8.595490843057689290e-01
2.035001039505004883e+01 -1.435875359177589417e+01 8.950868040323314290e-01
2.140048646926879883e+01 -1.488609734177589417e+01 9.525056272745189290e-01
2.571921205520629883e+01 -1.801952019333839417e+01 1.194281139969831429e+00
2.664304018020629883e+01 -1.833665886521339417e+01 1.243902722001081429e+00
1.927267885208129883e+01 -1.410960808396339417e+01 9.534516721963939290e-01
1.961807680130004883e+01 -1.407738152146339417e+01 9.722352415323314290e-01
2.021286439895629883e+01 -1.424803581833839417e+01 1.005972424149518929e+00
2.151968812942504883e+01 -1.498875847458839417e+01 1.084692516922956429e+00
2.244424867630004883e+01 -1.538451042771339417e+01 1.139242687821393929e+00
2.659140443801879883e+01 -1.830125847458839417e+01 1.394094982743268929e+00
1.837149477005004883e+01 -1.332591667771339417e+01 1.006689587235456429e+00
1.958249330520629883e+01 -1.405113640427589417e+01 1.085852184891706429e+00
2.002951478958129883e+01 -1.409837761521339417e+01 1.112692394852643929e+00
2.112418031692504883e+01 -1.466771355271339417e+01 1.183752575516706429e+00
2.235300111770629883e+01 -1.531554070115089417e+01 1.263632336258893929e+00
2.657986879348754883e+01 -1.829759636521339417e+01 1.547277966141706429e+00
8.557896137237548828e+00 -3.766834646463394165e+00 -5.739683717489185710e-01
8.603916645050048828e+00 -3.674793630838394165e+00 -5.704435914754810710e-01
8.645237445831298828e+00 -3.579700857400894165e+00 -5.670103639364185710e-01
8.686497211456298828e+00 -3.484608083963394165e+00 -5.635771363973560710e-01
8.727512836456298828e+00 -3.390247732400894165e+00 -5.601744264364185710e-01
8.768345355987548828e+00 -3.296375662088394165e+00 -5.567717164754810710e-01
8.809116840362548828e+00 -3.202503591775894165e+00 -5.533842653036060710e-01
8.844944477081298828e+00 -3.106190115213394165e+00 -5.500883668661060710e-01
9.561069965362548828e+00 -4.525501638650894165e+00 -5.631498903036060710e-01
9.613377094268798828e+00 -4.422474294900894165e+00 -5.595945924520435710e-01
9.670017719268798828e+00 -4.322986990213394165e+00 -5.559172242879810710e-01
9.722202777862548828e+00 -4.220203787088394165e+00 -5.523466676473560710e-01
9.774082660675048828e+00 -4.118030935525894165e+00 -5.488066285848560710e-01
9.825779438018798828e+00 -4.016102224588394165e+00 -5.452818483114185710e-01
9.858738422393798828e+00 -3.901722341775894165e+00 -5.414213746786060710e-01
9.879368305206298828e+00 -3.780628591775894165e+00 -5.369352906942310710e-01
1.052957582473754883e+01 -5.258289724588394165e+00 -5.397276490926685710e-01
1.056869935989379883e+01 -5.130482107400894165e+00 -5.353026002645435710e-01
1.060751771926879883e+01 -5.003528982400894165e+00 -5.309233278036060710e-01
1.065738344192504883e+01 -4.884876638650894165e+00 -5.268644899129810710e-01
1.071292543411254883e+01 -4.771351248025894165e+00 -5.230192750692310710e-01
1.076834535598754883e+01 -4.658192068338394165e+00 -5.191740602254810710e-01
1.082376527786254883e+01 -4.545032888650894165e+00 -5.153288453817310710e-01
1.087881898880004883e+01 -4.432484060525894165e+00 -5.115141481161060710e-01
1.172299623489379883e+01 -6.161365896463394165e+00 -5.109648317098560710e-01
1.174710512161254883e+01 -6.003895193338394165e+00 -5.054258912801685710e-01
1.180252504348754883e+01 -5.870960623025894165e+00 -5.010161012411060710e-01
1.187387514114379883e+01 -5.749378591775894165e+00 -4.969877809286060710e-01
1.194485902786254883e+01 -5.628528982400894165e+00 -4.929747194051685710e-01
1.200857973098754883e+01 -5.502918630838394165e+00 -4.888090699911060710e-01
1.201718568801879883e+01 -5.340565115213394165e+00 -4.834532350301685710e-01
1.201846742630004883e+01 -5.176136404275894165e+00 -4.783720582723560710e-01
1.386032533645629883e+01 -7.777698904275894165e+00 -4.857573121786060710e-01
1.389938783645629883e+01 -7.598133474588394165e+00 -4.801573365926685710e-01
1.393808412551879883e+01 -7.420154958963394165e+00 -4.746031373739185710e-01
1.397665834426879883e+01 -7.243030935525894165e+00 -4.690794557332935710e-01
1.401474428176879883e+01 -7.067982107400894165e+00 -4.636168092489185710e-01
1.405258607864379883e+01 -6.894398123025894165e+00 -4.581999391317310710e-01
1.409024477005004883e+01 -6.721790701150894165e+00 -4.528135865926685710e-01
1.412747621536254883e+01 -6.551014333963394165e+00 -4.474730104207935710e-01
1.629306459426879883e+01 -9.618030935525894165e+00 -4.401945680379810710e-01
1.628513002395629883e+01 -9.365955740213394165e+00 -4.328093141317310710e-01
1.626022768020629883e+01 -9.105335623025894165e+00 -4.258055299520435710e-01
1.623563051223754883e+01 -8.848255544900894165e+00 -4.188932985067310710e-01
1.621158266067504883e+01 -8.596424490213394165e+00 -4.121183961629810710e-01
1.618790102005004883e+01 -8.348743826150894165e+00 -4.054503053426685710e-01
1.616458559036254883e+01 -8.104481130838394165e+00 -3.988890260457935710e-01
1.614987611770629883e+01 -7.870472341775894165e+00 -3.929991334676685710e-01
2.003720521926879883e+01 -1.245018425583839417e+01 -3.755735963582935710e-01
1.987247133255004883e+01 -1.202391472458839417e+01 -3.668455690145435710e-01
1.980319643020629883e+01 -1.167625847458839417e+01 -3.589567750692310710e-01
1.974954652786254883e+01 -1.134483757615089417e+01 -3.512968629598560710e-01
1.974844789505004883e+01 -1.105675163865089417e+01 -3.440947145223560710e-01
1.976987123489379883e+01 -1.078783074021339417e+01 -3.371214479207935710e-01
1.979105043411254883e+01 -1.052122917771339417e+01 -3.302092164754810710e-01
1.981204652786254883e+01 -1.025853386521339417e+01 -3.233885377645435710e-01
2.980588197708129883e+01 -1.983714714646339417e+01 -2.772307008504810710e-01
2.868790102005004883e+01 -1.855357781052589417e+01 -2.657713502645435710e-01
2.799148988723754883e+01 -1.761632195115089417e+01 -2.547239869832935710e-01
2.764505434036254883e+01 -1.695311394333839417e+01 -2.452635377645435710e-01
2.713589906692504883e+01 -1.619432488083839417e+01 -2.361692994832935710e-01
2.685257387161254883e+01 -1.560973015427589417e+01 -2.274870485067310710e-01
2.626016664505004883e+01 -1.483165398240089417e+01 -2.200102418661060710e-01
2.577286195755004883e+01 -1.414549675583839417e+01 -2.121824830770435710e-01
5.845590639114379883e+01 -4.060142937302589417e+01 3.375867903233142897e-02
3.802634096145629883e+01 -2.489854851365089417e+01 -4.927965104579357103e-02
3.636197328567504883e+01 -2.314744988083839417e+01 -4.673143327235607103e-02
5.541806459426879883e+01 -3.585985222458839417e+01 6.888441145420642897e-02
5.611563539505004883e+01 -3.552769890427589417e+01 8.885816633701892897e-02
5.754263734817504883e+01 -3.566954460740089417e+01 1.135011106729564290e-01
5.519894838333129883e+01 -3.332701531052589417e+01 1.146455198526439290e-01
3.483554506301879883e+01 -2.365221062302589417e+01 1.117310911417064290e-01
3.504507875442504883e+01 -2.327318230271339417e+01 1.230225950479564290e-01
3.535141420364379883e+01 -2.296544304490089417e+01 1.353211790323314290e-01
3.574222230911254883e+01 -2.271410027146339417e+01 1.485963255167064290e-01
5.587643861770629883e+01 -3.618870964646339417e+01 3.810029417276439290e-01
5.615158510208129883e+01 -3.556224480271339417e+01 3.980317503213939290e-01
5.658481264114379883e+01 -3.504161491990089417e+01 4.168916136026439290e-01
5.744986391067504883e+01 -3.480394402146339417e+01 4.408326536417064290e-01
3.482919740676879883e+01 -2.365428581833839417e+01 3.103852659463939290e-01
3.504648256301879883e+01 -2.328099480271339417e+01 3.215852171182689290e-01
3.534738588333129883e+01 -2.296922722458839417e+01 3.341432005167064290e-01
3.570889711380004883e+01 -2.269713249802589417e+01 3.477540403604564290e-01
5.062564516067504883e+01 -3.254686394333839417e+01 6.045899778604564290e-01
4.920877504348754883e+01 -3.084544792771339417e+01 5.912537962198314290e-01
4.786465883255004883e+01 -2.924119988083839417e+01 5.784669309854564290e-01
4.664322328567504883e+01 -2.776744499802589417e+01 5.670686155557689290e-01
3.484225893020629883e+01 -2.367100945115089417e+01 5.083833128213939290e-01
3.507730531692504883e+01 -2.331053581833839417e+01 5.198121458292064290e-01
3.538644838333129883e+01 -2.300426140427589417e+01 5.328584104776439290e-01
3.574283266067504883e+01 -2.272777214646339417e+01 5.469880491495189290e-01
5.788455629348754883e+01 -3.760631218552589417e+01 1.046881237626081429e+00
5.570041322708129883e+01 -3.527525749802589417e+01 1.007757702469831429e+00
5.591855287551879883e+01 -3.461766472458839417e+01 1.022177258133893929e+00
5.676889467239379883e+01 -3.437987175583839417e+01 1.050924816727643929e+00
3.489731264114379883e+01 -2.371959343552589417e+01 7.087922483682689290e-01
3.507309389114379883e+01 -2.331419792771339417e+01 7.185273557901439290e-01
3.538101625442504883e+01 -2.300706902146339417e+01 7.308411985635814290e-01
3.575833559036254883e+01 -2.274547234177589417e+01 7.461762815713939290e-01
5.795938539505004883e+01 -3.766893425583839417e+01 1.370031872391706429e+00
5.857571840286254883e+01 -3.724400749802589417e+01 1.395041027665143929e+00
5.626730775833129883e+01 -3.486009636521339417e+01 1.339453259110456429e+00
5.683115053176879883e+01 -3.443040886521339417e+01 1.362722912430768929e+00
3.510348939895629883e+01 -2.388243523240089417e+01 9.138398557901439290e-01
3.603903627395629883e+01 -2.349156609177589417e+01 9.519868284463939290e-01
3.598776674270629883e+01 -2.291527214646339417e+01 9.537873655557689290e-01
5.788272523880004883e+01 -3.762633171677589417e+01 1.690756359696393929e+00
5.840799379348754883e+01 -3.714024773240089417e+01 1.713903942704206429e+00
5.967703676223754883e+01 -3.714390984177589417e+01 1.762152233719831429e+00
6.264133119583129883e+01 -3.823180046677589417e+01 1.867819347977643929e+00
3.538724184036254883e+01 -2.410423699021339417e+01 1.125418224930768929e+00
3.535940980911254883e+01 -2.354002800583839417e+01 1.125357189774518929e+00
3.569144105911254883e+01 -2.324596062302589417e+01 1.140387097001081429e+00
5.979221010208129883e+01 -3.985081902146339417e+01 2.083212414383893929e+00
5.705246400833129883e+01 -3.705882683396339417e+01 1.979544201493268929e+00
5.747690248489379883e+01 -3.651622429490089417e+01 1.999380627274518929e+00
6.070627260208129883e+01 -3.784093132615089417e+01 2.129217663407331429e+00
6.244650697708129883e+01 -3.811558952927589417e+01 2.202688732743268929e+00
5.826553773880004883e+01 -4.053953972458839417e+01 2.348928967118268929e+00
5.805655336380004883e+01 -3.950120964646339417e+01 2.340689221024518929e+00
5.862772035598754883e+01 -3.903355827927589417e+01 2.367285290360456429e+00
5.781766176223754883e+01 -3.760228386521339417e+01 2.332129040360456429e+00
5.776334047317504883e+01 -3.672191277146339417e+01 2.330740490555768929e+00
5.946481752395629883e+01 -3.702342644333839417e+01 2.407904186844831429e+00
5.807230043411254883e+01 -3.952367058396339417e+01 2.668432751297956429e+00
5.866214418411254883e+01 -3.906908074021339417e+01 2.696890392899518929e+00
5.972690248489379883e+01 -3.894286003708839417e+01 2.749228039383893929e+00
5.761276674270629883e+01 -3.662962761521339417e+01 2.641684094071393929e+00
5.972055482864379883e+01 -3.720457878708839417e+01 2.746466198563581429e+00
6.056473207473754883e+01 -3.690843620896339417e+01 2.789450207352643929e+00
5.876688051223754883e+01 -3.915465202927589417e+01 3.032660046219831429e+00
5.833444643020629883e+01 -3.713231316208839417e+01 3.001486340165143929e+00
5.868198060989379883e+01 -3.568895378708839417e+01 3.014090099930768929e+00
5.986630678176879883e+01 -3.994835320115089417e+01 3.429266491532331429e+00
5.713455629348754883e+01 -3.715806999802589417e+01 3.255240002274518929e+00
5.738315248489379883e+01 -3.649376335740089417e+01 3.264929333329206429e+00
6.044437074661254883e+01 -3.770921745896339417e+01 3.448904553055768929e+00
6.065658998489379883e+01 -3.698949089646339417e+01 3.456137219071393929e+00
5.978201723098754883e+01 -4.080040398240089417e+01 3.768927136063581429e+00
5.785678529739379883e+01 -3.852855339646339417e+01 3.630941906571393929e+00
5.733115053176879883e+01 -3.730565300583839417e+01 3.587637463212018929e+00
6.041464662551879883e+01 -3.770006218552589417e+01 3.778296032547956429e+00
6.090213441848754883e+01 -3.716063347458839417e+01 3.804586926102643929e+00
8.845066547393798828e+00 -3.105945974588394165e+00 -5.500731080770435710e-01
8.884312152862548828e+00 -3.012440115213394165e+00 -5.467314332723560710e-01
8.928867816925048828e+00 -2.922474294900894165e+00 -5.438475221395435710e-01
8.987095355987548828e+00 -2.840809255838394165e+00 -5.414518922567310710e-01
9.045261859893798828e+00 -2.759266287088394165e+00 -5.390562623739185710e-01
9.103489398956298828e+00 -2.677479177713394165e+00 -5.366453737020435710e-01
9.172886371612548828e+00 -2.601551443338394165e+00 -5.346159547567310710e-01
9.245945453643798828e+00 -2.527576833963394165e+00 -5.329374879598560710e-01
9.879429340362548828e+00 -3.780140310525894165e+00 -5.369200319051685710e-01
9.893772602081298828e+00 -3.656238943338394165e+00 -5.326017946004810710e-01
9.913486957550048828e+00 -3.536854177713394165e+00 -5.282072633504810710e-01
9.932102680206298828e+00 -3.417469412088394165e+00 -5.240721315145435710e-01
9.967991352081298828e+00 -3.309803396463394165e+00 -5.205015748739185710e-01
1.000375795364379883e+01 -3.202625662088394165e+00 -5.169615358114185710e-01
1.003360414505004883e+01 -3.092274099588394165e+00 -5.135283082723560710e-01
1.006900453567504883e+01 -2.986072927713394165e+00 -5.100187867879810710e-01
1.087906312942504883e+01 -4.432239919900894165e+00 -5.114988893270435710e-01
1.091159486770629883e+01 -4.305775076150894165e+00 -5.074095338582935710e-01
1.093887758255004883e+01 -4.176990896463394165e+00 -5.032133668661060710e-01
1.096603822708129883e+01 -4.048572927713394165e+00 -4.990324586629810710e-01
1.101285219192504883e+01 -3.933338552713394165e+00 -4.953856080770435710e-01
1.110910463333129883e+01 -3.847401052713394165e+00 -4.929442018270435710e-01
1.120627260208129883e+01 -3.760609060525894165e+00 -4.904722779989185710e-01
1.130374574661254883e+01 -3.673450857400894165e+00 -4.880156129598560710e-01
1.201822328567504883e+01 -5.175403982400894165e+00 -4.783567994832935710e-01
1.202774477005004883e+01 -5.018177419900894165e+00 -4.731230348348560710e-01
1.208432435989379883e+01 -4.892078787088394165e+00 -4.692320436239185710e-01
1.217331361770629883e+01 -4.785633474588394165e+00 -4.659666627645435710e-01
1.226224184036254883e+01 -4.679066091775894165e+00 -4.627165406942310710e-01
1.235147523880004883e+01 -4.572254568338394165e+00 -4.594359010457935710e-01
1.244131898880004883e+01 -4.464710623025894165e+00 -4.561552613973560710e-01
1.256729555130004883e+01 -4.377308279275894165e+00 -4.538511842489185710e-01
1.412759828567504883e+01 -6.550526052713394165e+00 -4.474577516317310710e-01
1.415713930130004883e+01 -6.376331716775894165e+00 -4.423460572957935710e-01
1.418167543411254883e+01 -6.200672537088394165e+00 -4.372038453817310710e-01
1.416934633255004883e+01 -6.003528982400894165e+00 -4.315580934286060710e-01
1.419430971145629883e+01 -5.831776052713394165e+00 -4.265379518270435710e-01
1.431125307083129883e+01 -5.715198904275894165e+00 -4.227995485067310710e-01
1.456741762161254883e+01 -5.676136404275894165e+00 -4.208464235067310710e-01
1.480490541458129883e+01 -5.622913748025894165e+00 -4.185576051473560710e-01
1.614981508255004883e+01 -7.869617849588394165e+00 -3.929686158895435710e-01
1.618716859817504883e+01 -7.671986013650894165e+00 -3.870176881551685710e-01
1.621054506301879883e+01 -7.467274099588394165e+00 -3.814329713582935710e-01
1.623379945755004883e+01 -7.263782888650894165e+00 -3.758940309286060710e-01
1.625674867630004883e+01 -7.062855154275894165e+00 -3.704161256551685710e-01
1.634659242630004883e+01 -6.902698904275894165e+00 -3.655333131551685710e-01
1.655087709426879883e+01 -6.807117849588394165e+00 -3.615507692098560710e-01
1.681802797317504883e+01 -6.744373708963394165e+00 -3.584379762411060710e-01
1.981198549270629883e+01 -1.025755730271339417e+01 -3.233732789754810710e-01
1.982352113723754883e+01 -9.991932302713394165e+00 -3.168425172567310710e-01
1.975687074661254883e+01 -9.680530935525894165e+00 -3.100828737020435710e-01
1.968234682083129883e+01 -9.368397146463394165e+00 -3.033995240926685710e-01
1.976852846145629883e+01 -9.158314138650894165e+00 -2.973875612020435710e-01
2.036185121536254883e+01 -9.244373708963394165e+00 -2.928709596395435710e-01
2.098660707473754883e+01 -9.334705740213394165e+00 -2.881254762411060710e-01
2.131326723098754883e+01 -9.246937185525894165e+00 -2.823881715536060710e-01
2.576474428176879883e+01 -1.413902702927589417e+01 -2.121672242879810710e-01
2.557321596145629883e+01 -1.366014519333839417e+01 -2.046446412801685710e-01
2.558700990676879883e+01 -1.331883659958839417e+01 -1.962980836629810710e-01
2.590530824661254883e+01 -1.316576042771339417e+01 -1.881956666707935710e-01
2.772787904739379883e+01 -1.390611687302589417e+01 -1.768431276082935710e-01
2.864737367630004883e+01 -1.407555046677589417e+01 -1.666960328817310710e-01
2.925156068801879883e+01 -1.404405632615089417e+01 -1.577391237020435710e-01
3.130783510208129883e+01 -1.481016960740089417e+01 -1.434874147176685710e-01
5.519382143020629883e+01 -3.332115593552589417e+01 1.146607786417064290e-01
5.744699525833129883e+01 -3.398619499802589417e+01 1.445374876260814290e-01
5.987820863723754883e+01 -3.470897331833839417e+01 1.766877561807689290e-01
5.605490541458129883e+01 -3.155711784958839417e+01 1.650910764932689290e-01
5.603354310989379883e+01 -3.078880730271339417e+01 1.795258909463939290e-01
5.745163393020629883e+01 -3.480247917771339417e+01 4.408936887979564290e-01
5.717270326614379883e+01 -3.382115593552589417e+01 4.511628538370189290e-01
5.866666078567504883e+01 -3.396324577927589417e+01 4.829469114542064290e-01
4.663388490676879883e+01 -2.775914421677589417e+01 5.669465452432689290e-01
4.545792055130004883e+01 -2.635789909958839417e+01 5.558076292276439290e-01
4.430289125442504883e+01 -2.501024284958839417e+01 5.444398313760814290e-01
4.318484926223754883e+01 -2.372240105271339417e+01 5.332093626260814290e-01
4.209494447708129883e+01 -2.249119988083839417e+01 5.219025999307689290e-01
5.676913881301879883e+01 -3.437730827927589417e+01 1.050970593094831429e+00
4.553958559036254883e+01 -2.641771355271339417e+01 8.025880247354564290e-01
4.429044008255004883e+01 -2.500987663865089417e+01 7.813325315713939290e-01
4.307962465286254883e+01 -2.366527214646339417e+01 7.604890257120189290e-01
4.192239809036254883e+01 -2.239500847458839417e+01 7.403932005167064290e-01
4.088101625442504883e+01 -2.123021355271339417e+01 7.225709348917064290e-01
3.985910463333129883e+01 -2.010899773240089417e+01 7.048097044229564290e-01
3.885110902786254883e+01 -1.903038445115089417e+01 6.869569212198314290e-01
5.682767152786254883e+01 -3.442540398240089417e+01 1.362646618485456429e+00
5.693826723098754883e+01 -3.370079460740089417e+01 1.373602429032331429e+00
6.276279115676879883e+01 -3.568956413865089417e+01 1.554510632157331429e+00
6.246194887161254883e+01 -3.811180534958839417e+01 1.861776867508893929e+00
6.252261781692504883e+01 -3.727574577927589417e+01 1.870367565751081429e+00
5.884354066848754883e+01 -3.411314812302589417e+01 1.751745739579206429e+00
6.193680238723754883e+01 -3.778001824021339417e+01 2.182684460282331429e+00
6.076016664505004883e+01 -3.616099968552589417e+01 2.139013805985456429e+00
6.011496400833129883e+01 -3.409288445115089417e+01 2.122061291337018929e+00
5.929349184036254883e+01 -3.523460808396339417e+01 2.403524914383893929e+00
5.812363100051879883e+01 -3.368321648240089417e+01 2.353292980790143929e+00
6.305112123489379883e+01 -3.589696159958839417e+01 2.576590099930768929e+00
5.897714662551879883e+01 -3.261119499802589417e+01 2.395910778641706429e+00
5.933798646926879883e+01 -3.203490105271339417e+01 2.414267101883893929e+00
6.056515932083129883e+01 -3.690587273240089417e+01 2.789480724930768929e+00
5.827927064895629883e+01 -3.459666863083839417e+01 2.673132458329206429e+00
5.858304262161254883e+01 -3.398009148240089417e+01 2.688665905594831429e+00
5.866580629348754883e+01 -3.322703972458839417e+01 2.693106213212018929e+00
6.015543031692504883e+01 -3.332494011521339417e+01 2.768240490555768929e+00
5.940372133255004883e+01 -3.208287468552589417e+01 2.730734387040143929e+00
5.868491029739379883e+01 -3.568809929490089417e+01 3.014242687821393929e+00
6.088754701614379883e+01 -3.627367058396339417e+01 3.135305920243268929e+00
5.788400697708129883e+01 -3.355296745896339417e+01 2.966284313797956429e+00
5.847208070755004883e+01 -3.311839714646339417e+01 2.997396984696393929e+00
5.946683168411254883e+01 -3.292308464646339417e+01 3.051138439774518929e+00
6.065768861770629883e+01 -3.698741570115089417e+01 3.456182995438581429e+00
5.804654359817504883e+01 -3.446788445115089417e+01 3.292624035477643929e+00
5.789651918411254883e+01 -3.357054558396339417e+01 3.278219738602643929e+00
5.872562074661254883e+01 -3.328306999802589417e+01 3.325323620438581429e+00
5.965433168411254883e+01 -3.304491081833839417e+01 3.378469982743268929e+00
6.090213441848754883e+01 -3.715782585740089417e+01 3.804556408524518929e+00
5.767160463333129883e+01 -3.423802605271339417e+01 3.581671276688581429e+00
5.781796693801879883e+01 -3.353123894333839417e+01 3.585974255204206429e+00
5.837241029739379883e+01 -3.307677116990089417e+01 3.617437878251081429e+00
9.246250629425048828e+00 -2.527332693338394165e+00 -5.329374879598560710e-01
9.323093891143798828e+00 -2.454822927713394165e+00 -5.311674684286060710e-01
9.396030902862548828e+00 -2.379383474588394165e+00 -5.295042604207935710e-01
9.503208637237548828e+00 -2.320545583963394165e+00 -5.289091676473560710e-01
9.670322895050048828e+00 -2.290882498025894165e+00 -5.301909059286060710e-01
9.841831684112548828e+00 -2.260242849588394165e+00 -5.315031617879810710e-01
1.001865053176879883e+01 -2.228748708963394165e+00 -5.328611940145435710e-01
1.018820619583129883e+01 -2.191151052713394165e+00 -5.341581910848560710e-01
1.006894350051879883e+01 -2.985584646463394165e+00 -5.100035279989185710e-01
1.016049623489379883e+01 -2.910389333963394165e+00 -5.083860963582935710e-01
1.027811098098754883e+01 -2.847889333963394165e+00 -5.071806520223560710e-01
1.039426088333129883e+01 -2.782459646463394165e+00 -5.061277955770435710e-01
1.055685853958129883e+01 -2.739246755838394165e+00 -5.062956422567310710e-01
1.075687074661254883e+01 -2.711658865213394165e+00 -5.073484987020435710e-01
1.095700502395629883e+01 -2.680164724588394165e+00 -5.085539430379810710e-01
1.115933656692504883e+01 -2.646351248025894165e+00 -5.094389528036060710e-01
1.130423402786254883e+01 -3.673328787088394165e+00 -4.880003541707935710e-01
1.139871644973754883e+01 -3.583607107400894165e+00 -4.857267946004810710e-01
1.152450990676879883e+01 -3.509632498025894165e+00 -4.841398805379810710e-01
1.168075990676879883e+01 -3.449085623025894165e+00 -4.831480592489185710e-01
1.183920717239379883e+01 -3.387684255838394165e+00 -4.821409791707935710e-01
1.203348207473754883e+01 -3.341297537088394165e+00 -4.818052858114185710e-01
1.223935365676879883e+01 -3.296741873025894165e+00 -4.816069215536060710e-01
1.244974184036254883e+01 -3.251087576150894165e+00 -4.813932985067310710e-01
1.256808900833129883e+01 -4.377186208963394165e+00 -4.538511842489185710e-01
1.270602846145629883e+01 -4.294788748025894165e+00 -4.513334840536060710e-01
1.293698549270629883e+01 -4.259754568338394165e+00 -4.506926149129810710e-01
1.322916078567504883e+01 -4.251453787088394165e+00 -4.509520143270435710e-01
1.351443910598754883e+01 -4.234608083963394165e+00 -4.509520143270435710e-01
1.376553773880004883e+01 -4.195423513650894165e+00 -4.502348512411060710e-01
1.402463197708129883e+01 -4.155018240213394165e+00 -4.495024293661060710e-01
1.428024721145629883e+01 -4.108753591775894165e+00 -4.489531129598560710e-01
1.480569887161254883e+01 -5.622791677713394165e+00 -4.185423463582935710e-01
1.497452211380004883e+01 -5.528065115213394165e+00 -4.155668824911060710e-01
1.514554262161254883e+01 -5.432117849588394165e+00 -4.125456422567310710e-01
1.531943178176879883e+01 -5.334583669900894165e+00 -4.094786256551685710e-01
1.551407289505004883e+01 -5.245716482400894165e+00 -4.065947145223560710e-01
1.581314516067504883e+01 -5.205433279275894165e+00 -4.047789186239185710e-01
1.624191713333129883e+01 -5.221058279275894165e+00 -4.041990846395435710e-01
1.663766908645629883e+01 -5.213489919900894165e+00 -4.030546754598560710e-01
1.681967592239379883e+01 -6.744617849588394165e+00 -3.584227174520435710e-01
1.711429262161254883e+01 -6.692127615213394165e+00 -3.547453492879810710e-01
1.758829164505004883e+01 -6.729481130838394165e+00 -3.526091188192310710e-01
1.801755189895629883e+01 -6.733021169900894165e+00 -3.499235719442310710e-01
1.844034242630004883e+01 -6.725452810525894165e+00 -3.470091432332935710e-01
1.926273012161254883e+01 -6.906361013650894165e+00 -3.462462037801685710e-01
1.982150697708129883e+01 -6.941883474588394165e+00 -3.435301393270435710e-01
2.029080629348754883e+01 -6.925037771463394165e+00 -3.406157106161060710e-01
2.131497621536254883e+01 -9.247059255838394165e+00 -2.823729127645435710e-01
2.183762025833129883e+01 -9.260242849588394165e+00 -2.771544069051685710e-01
2.244345521926879883e+01 -9.306873708963394165e+00 -2.718443483114185710e-01
2.330276918411254883e+01 -9.471180349588394165e+00 -2.665800660848560710e-01
2.395431947708129883e+01 -9.512684255838394165e+00 -2.606749147176685710e-01
2.492013978958129883e+01 -9.695789724588394165e+00 -2.547087281942310710e-01
2.641934633255004883e+01 -1.011314812302589417e+01 -2.485441774129810710e-01
2.698941469192504883e+01 -1.006322136521339417e+01 -2.413725465536060710e-01
3.132016420364379883e+01 -1.481566277146339417e+01 -1.434111207723560710e-01
3.306546449661254883e+01 -1.536351433396339417e+01 -1.293882936239185710e-01
3.884347963333129883e+01 -1.902440300583839417e+01 6.868043333292064290e-01
3.786215639114379883e+01 -1.799242058396339417e+01 6.694093137979564290e-01
3.687009096145629883e+01 -1.698509636521339417e+01 6.513734251260814290e-01
3.590207338333129883e+01 -1.601866570115089417e+01 6.335511595010814290e-01
3.491360902786254883e+01 -1.507262077927589417e+01 6.148591428995189290e-01
3.390866518020629883e+01 -1.414757195115089417e+01 5.953736692667064290e-01
3.291171693801879883e+01 -1.325401726365089417e+01 5.757508665323314290e-01
3.189273500442504883e+01 -1.238011589646339417e+01 5.551972776651439290e-01
3.301150941848754883e+01 -1.330662956833839417e+01 7.449708372354564290e-01
3.196664857864379883e+01 -1.241917839646339417e+01 7.176270872354564290e-01
3.074808168411254883e+01 -1.139183464646339417e+01 4.187074095010814290e-01
3.845480775833129883e+01 -1.862010613083839417e+01 7.678285032510814290e-01
3.730838441848754883e+01 -1.746507683396339417e+01 7.415681272745189290e-01
3.614249086380004883e+01 -1.633458366990089417e+01 7.145448118448314290e-01
3.508530092239379883e+01 -1.529369011521339417e+01 6.901460081338939290e-01
3.399100160598754883e+01 -1.426720085740089417e+01 6.645112425088939290e-01
3.290915346145629883e+01 -1.327891960740089417e+01 6.389527708292064290e-01
3.178122377395629883e+01 -1.229832878708839417e+01 6.119141966104564290e-01
3.067013978958129883e+01 -1.135899773240089417e+01 5.850892454385814290e-01
2.958389711380004883e+01 -1.046605339646339417e+01 6.637940794229564290e-01
2.441177797317504883e+01 -6.606922537088394165e+00 3.581757932901439290e-01
2.220694398880004883e+01 -5.049549490213394165e+00 2.965150266885814290e-01
2.243637514114379883e+01 -5.159046560525894165e+00 5.103669553995189290e-01
3.114816713333129883e+01 -1.159788933396339417e+01 2.400727659463939290e-01
2.884433412551879883e+01 -9.789295583963394165e+00 1.899934202432689290e-01
2.650259828567504883e+01 -8.025867849588394165e+00 1.391511350870189290e-01
2.412997865676879883e+01 -6.309681326150894165e+00 8.766798079014392897e-02
2.176443910598754883e+01 -4.662342458963394165e+00 3.638319075108142897e-02
3.633865785598754883e+01 -1.646214714646339417e+01 6.474671751260814290e-01
3.457382631301879883e+01 -1.477183952927589417e+01 5.981965452432689290e-01
3.262540102005004883e+01 -1.303648796677589417e+01 5.441499143838939290e-01
3.050095033645629883e+01 -1.126427116990089417e+01 4.855409055948314290e-01
2.837247133255004883e+01 -9.552479177713394165e+00 4.269776731729564290e-01
2.617776918411254883e+01 -7.867542654275894165e+00 3.668275266885814290e-01
2.390121889114379883e+01 -6.201404958963394165e+00 3.046327024698314290e-01
2.163711977005004883e+01 -4.604359060525894165e+00 2.429566770792064290e-01
2.641196107864379883e+01 -7.985706716775894165e+00 6.102662473917064290e-01
2.389041566848754883e+01 -6.198231130838394165e+00 5.274415403604564290e-01
2.144699525833129883e+01 -4.516834646463394165e+00 4.474091917276439290e-01
2.883493471145629883e+01 -9.801136404275894165e+00 1.825623899698314290e-01
1.690836000442504883e+01 -1.309803396463394165e+00 -1.398863404989185710e-01
3.451779603958129883e+01 -1.473961296677589417e+01 7.229066282510814290e-01
3.168558168411254883e+01 -1.223302116990089417e+01 6.262879759073314290e-01
2.862479066848754883e+01 -9.690052419900894165e+00 5.232606321573314290e-01
2.465945863723754883e+01 -6.759022146463394165e+00 3.928437620401439290e-01
2.021292543411254883e+01 -3.687977224588394165e+00 2.484345823526439290e-01
1.590738344192504883e+01 -8.099254667758941650e-01 1.093964964151439290e-01
1.975943422317504883e+01 -2.740589529275894165e+00 5.217500120401439290e-01
1.042087221145629883e+01 -2.412830740213394165e+00 1.767355480790143929e+00
7.349644184112548828e+00 -5.972789824008941650e-01 1.795660534501081429e+00
7.521091938018798828e+00 -7.005504667758941650e-01 2.049795666337018929e+00
2.006454896926879883e+01 -3.535755544900894165e+00 4.507661253213939290e-01
7.502232074737548828e+00 -1.389881521463394165e+00 3.383088499307689290e-01
1.095859193801879883e+01 -2.806019216775894165e+00 1.829443493485456429e+00
