1.290502762794494629e+01 -9.928620755672454834e+00 1.693541869521197896e-01
1.427477860450744629e+01 -1.097183364629745483e+01 2.145354613661822896e-01
1.627227616310119629e+01 -1.255130141973495483e+01 2.801482543349322896e-01
1.648180985450744629e+01 -1.243740981817245483e+01 2.883574828505572896e-01
1.770117020606994629e+01 -1.322000259160995483e+01 3.292815551161822896e-01
1.853411698341369629e+01 -1.362869399785995483e+01 3.578307494521197896e-01
1.180413651466369629e+01 -9.344392240047454834e+00 2.109954223036822896e-01
1.242638993263244629e+01 -9.717317044734954834e+00 2.348296508193072896e-01
1.297399735450744629e+01 -9.998567044734954834e+00 2.562529906630572896e-01
1.428899979591369629e+01 -1.098880141973495483e+01 3.072020873427447896e-01
1.627483963966369629e+01 -1.255764907598495483e+01 3.839995726943072896e-01
1.696594071388244629e+01 -1.288150161504745483e+01 4.110839232802447896e-01
1.757641434669494629e+01 -1.311306899785995483e+01 4.351165160536822896e-01
1.860076737403869629e+01 -1.369119399785995483e+01 4.757201537489947896e-01
1.201428055763244629e+01 -9.558747708797454834e+00 2.991607055068072896e-01
1.259374833106994629e+01 -9.885529935359954834e+00 3.247802123427447896e-01
1.339953446388244629e+01 -1.041287368535995483e+01 3.605010375380572896e-01
1.591235184669494629e+01 -1.252896255254745483e+01 4.725921019911822896e-01
1.629479813575744629e+01 -1.258023208379745483e+01 4.892394408583697896e-01
1.717700028419494629e+01 -1.307766860723495483e+01 5.282409057021197896e-01
1.752587723731994629e+01 -1.307217544317245483e+01 5.433471068739947896e-01
1.866747879981994629e+01 -1.375381606817245483e+01 5.938536986708697896e-01
1.221435379981994629e+01 -9.763215482234954834e+00 3.900115355849322896e-01
1.266540360450744629e+01 -9.959504544734954834e+00 4.115569457411822896e-01
1.395074295997619629e+01 -1.094876235723495483e+01 4.761626586318072896e-01
1.596136307716369629e+01 -1.257937759160995483e+01 5.776183471083697896e-01
1.624426102638244629e+01 -1.253738540410995483e+01 5.906340941786822896e-01
1.738415360450744629e+01 -1.327017349004745483e+01 6.472594603896197896e-01
1.758794999122619629e+01 -1.313162368535995483e+01 6.561248168349322896e-01
1.867858719825744629e+01 -1.376785415410995483e+01 7.106292113661822896e-01
1.232726883888244629e+01 -9.879914700984954834e+00 4.780242308974322896e-01
1.286199784278869629e+01 -1.015652602910995483e+01 5.069396361708697896e-01
1.398119950294494629e+01 -1.098184341192245483e+01 5.694091185927447896e-01
1.590264725685119629e+01 -1.252786391973495483e+01 6.776549682021197896e-01
1.618792557716369629e+01 -1.248916763067245483e+01 6.916320189833697896e-01
1.711242508888244629e+01 -1.302713149785995483e+01 7.421080932021197896e-01
1.764117264747619629e+01 -1.318338149785995483e+01 7.697875365614947896e-01
1.860082840919494629e+01 -1.370413345098495483e+01 8.218963012099322896e-01
1.240344071388244629e+01 -9.959992825984954834e+00 5.655944213271197896e-01
1.348711991310119629e+01 -1.077627700567245483e+01 6.324279174208697896e-01
1.403686356544494629e+01 -1.103921645879745483e+01 6.641967162489947896e-01
1.585125565528869629e+01 -1.248318618535995483e+01 7.768981322646197896e-01
1.613055253028869629e+01 -1.243985122442245483e+01 7.913329467177447896e-01
1.691412186622619629e+01 -1.285086196660995483e+01 8.376738891005572896e-01
1.729821610450744629e+01 -1.288162368535995483e+01 8.591124877333697896e-01
1.854131913185119629e+01 -1.365652602910995483e+01 9.340178832411822896e-01
1.249462723731994629e+01 -1.005496352910995483e+01 6.552550658583697896e-01
1.347271561622619629e+01 -1.076565688848495483e+01 7.203643187880572896e-01
1.418273758888244629e+01 -1.118386977910995483e+01 7.665679320693072896e-01
1.572747635841369629e+01 -1.236990493535995483e+01 8.709838256239947896e-01
1.607861161231994629e+01 -1.239566177129745483e+01 8.912780150771197896e-01
1.643389725685119629e+01 -1.241775649785995483e+01 9.117705687880572896e-01
1.712615799903869629e+01 -1.273220962285995483e+01 9.555022582411822896e-01
1.763482499122619629e+01 -1.286807388067245483e+01 9.868895873427447896e-01
7.538999795913696289e+00 -4.004304349422454834e+00 -6.205933228135052104e-01
7.580930948257446289e+00 -3.904084622859954834e+00 -6.163818970322552104e-01
7.619138956069946289e+00 -3.801545560359954834e+00 -6.122772827744427104e-01
7.657224893569946289e+00 -3.699250638484954834e+00 -6.081879273056927104e-01
7.694883584976196289e+00 -3.598054349422454834e+00 -6.041596069931927104e-01
7.741819620132446289e+00 -3.505036771297454834e+00 -6.005432739853802104e-01
7.785337686538696289e+00 -3.409455716609954834e+00 -5.968048706650677104e-01
7.828123331069946289e+00 -3.314362943172454834e+00 -5.933258667588177104e-01
8.460508584976196289e+00 -4.808137357234954834e+00 -6.101868286728802104e-01
8.502928018569946289e+00 -4.692414700984954834e+00 -6.057465210556927104e-01
8.542906045913696289e+00 -4.575471341609954834e+00 -6.009552612900677104e-01
8.584043741226196289e+00 -4.460236966609954834e+00 -5.965302124619427104e-01
8.646909952163696289e+00 -4.363923490047454834e+00 -5.929749146103802104e-01
8.720579385757446289e+00 -4.276399075984954834e+00 -5.898468628525677104e-01
8.773924112319946289e+00 -4.172639310359954834e+00 -5.862305298447552104e-01
8.831297159194946289e+00 -4.073029935359954834e+00 -5.825226441025677104e-01
9.383787393569946289e+00 -5.614045560359954834e+00 -5.886109009385052104e-01
9.515440225601196289e+00 -5.558259427547454834e+00 -5.867645874619427104e-01
9.569883584976196289e+00 -5.436189115047454834e+00 -5.822937622666302104e-01
9.616636514663696289e+00 -5.308137357234954834e+00 -5.775787964463177104e-01
9.662840127944946289e+00 -5.181428372859954834e+00 -5.729096069931927104e-01
9.708799600601196289e+00 -5.055573880672454834e+00 -5.682709351181927104e-01
9.754575967788696289e+00 -4.930207669734954834e+00 -5.636627808213177104e-01
9.799864053726196289e+00 -4.805940091609954834e+00 -5.590851441025677104e-01
9.411375284194946289e+00 -5.640168607234954834e+00 -5.305817261338177104e-01
1.014221024513244629e+01 -6.095368802547454834e+00 -5.447723999619427104e-01
1.088165116310119629e+01 -6.535554349422454834e+00 -5.587647095322552104e-01
1.091229081153869629e+01 -6.372224271297454834e+00 -5.530579224228802104e-01
1.093572831153869629e+01 -6.205720365047454834e+00 -5.472595825791302104e-01
1.095886063575744629e+01 -6.041291654109954834e+00 -5.415222778916302104e-01
1.098180985450744629e+01 -5.878083646297454834e+00 -5.358460083603802104e-01
1.099352860450744629e+01 -5.709260404109954834e+00 -5.303375855088177104e-01
9.443235635757446289e+00 -5.670197904109954834e+00 -4.719727173447552104e-01
1.019457840919494629e+01 -6.142487943172454834e+00 -4.830048218369427104e-01
1.108624100685119629e+01 -6.709138333797454834e+00 -4.963104858994427104e-01
1.214471268653869629e+01 -7.385041654109954834e+00 -5.121796265244427104e-01
1.298858475685119629e+01 -7.857087552547454834e+00 -5.227234497666302104e-01
1.303631424903869629e+01 -7.678620755672454834e+00 -5.168182983994427104e-01
1.308379960060119629e+01 -7.501008450984954834e+00 -5.109436646103802104e-01
1.313073563575744629e+01 -7.325593411922454834e+00 -5.051300659775677104e-01
1.001305985450744629e+01 -6.168855130672454834e+00 -4.220612183213177104e-01
1.024780106544494629e+01 -6.190217435359954834e+00 -4.202606812119427104e-01
1.114849686622619629e+01 -6.763825833797454834e+00 -4.288361206650677104e-01
1.222387528419494629e+01 -7.452546536922454834e+00 -4.391968384385052104e-01
1.355547928810119629e+01 -8.315461575984954834e+00 -4.523041382431927104e-01
1.516186356544494629e+01 -9.354646146297454834e+00 -4.680512085556927104e-01
1.559686112403869629e+01 -9.441804349422454834e+00 -4.667236939072552104e-01
1.556396317481994629e+01 -9.166413724422454834e+00 -4.595825806260052104e-01
1.861474442481994629e+01 -1.366763442754745483e+01 -4.467804566025677104e-01
1.889031815528869629e+01 -1.357461684942245483e+01 -4.409515991806927104e-01
1.248467850685119629e+01 -7.884797513484954834e+00 -3.728363648056927104e-01
1.274249100685119629e+01 -7.880647122859954834e+00 -3.695404663681927104e-01
1.365258622169494629e+01 -8.396394193172454834e+00 -3.716309204697552104e-01
1.529363846778869629e+01 -9.461579740047454834e+00 -3.789093628525677104e-01
1.761828446388244629e+01 -1.100430434942245483e+01 -3.901093140244427104e-01
1.930962967872619629e+01 -1.200003188848495483e+01 -3.949616089463177104e-01
1.771563553810119629e+01 -1.288821548223495483e+01 -3.281128540635052104e-01
1.889935135841369629e+01 -1.358657974004745483e+01 -3.253204956650677104e-01
2.076916337013244629e+01 -1.482412856817245483e+01 -3.233368530869427104e-01
2.152899003028869629e+01 -1.509219497442245483e+01 -3.173706665635052104e-01
2.193743729591369629e+01 -1.505972427129745483e+01 -3.101074829697552104e-01
1.712805008888244629e+01 -1.090969985723495483e+01 -2.914002075791302104e-01
1.785143876075744629e+01 -1.118777602910995483e+01 -2.868073120713177104e-01
2.909051346778869629e+01 -1.939676040410995483e+01 -2.966187134385052104e-01
1.766607499122619629e+01 -1.284915298223495483e+01 -2.181122437119427104e-01
1.894073319435119629e+01 -1.362625259160995483e+01 -2.088501587510052104e-01
2.054748368263244629e+01 -1.464309829473495483e+01 -1.979401245713177104e-01
2.156011795997619629e+01 -1.512246841192245483e+01 -1.878235474228802104e-01
2.197302079200744629e+01 -1.509304946660995483e+01 -1.791718140244427104e-01
3.625012040138244629e+01 -2.539163345098495483e+01 -1.076386108994427104e-01
3.442248368263244629e+01 -2.343374770879745483e+01 -1.039307251572552104e-01
1.839660477638244629e+01 -1.349026626348495483e+01 -1.029694214463177104e-01
1.909240555763244629e+01 -1.376016372442245483e+01 -9.155584722756771043e-02
2.039452958106994629e+01 -1.451956313848495483e+01 -7.457281500100521043e-02
2.159136795997619629e+01 -1.515286391973495483e+01 -5.786444097756771043e-02
2.200872635841369629e+01 -1.512637466192245483e+01 -4.777838140725521043e-02
3.546630692481994629e+01 -2.479385513067245483e+01 9.632562249899478957e-02
3.410632157325744629e+01 -2.320156997442245483e+01 9.235833734274478957e-02
1.842315506935119629e+01 -1.351773208379745483e+01 1.174615472555728957e-02
1.937017655372619629e+01 -1.400198501348495483e+01 3.005670160055728957e-02
2.028979325294494629e+01 -1.443631118535995483e+01 4.836724847555728957e-02
2.073876786231994629e+01 -1.445742934942245483e+01 6.002496331930728957e-02
2.208666825294494629e+01 -1.519387954473495483e+01 8.541558831930728957e-02
5.976336503028869629e+01 -4.452884048223495483e+01 6.699187621474322896e-01
3.527856278419494629e+01 -2.465615981817245483e+01 3.016478881239947896e-01
3.409997391700744629e+01 -2.320364516973495483e+01 2.910125121474322896e-01
1.844970536231994629e+01 -1.354519790410995483e+01 1.262175902724322896e-01
1.933611893653869629e+01 -1.397732681035995483e+01 1.480681762099322896e-01
2.022241044044494629e+01 -1.438430923223495483e+01 1.701934203505572896e-01
2.063909745216369629e+01 -1.438015884160995483e+01 1.828429564833697896e-01
2.253729081153869629e+01 -1.556118911504745483e+01 2.267119750380572896e-01
3.537573075294494629e+01 -2.473843520879745483e+01 5.098540648818072896e-01
3.411211991310119629e+01 -2.321963638067245483e+01 4.890105590224322896e-01
1.847643876075744629e+01 -1.357278579473495483e+01 2.416503295302447896e-01
1.897875809669494629e+01 -1.367605727910995483e+01 2.577483519911822896e-01
2.015582108497619629e+01 -1.433303970098495483e+01 2.912871703505572896e-01
2.056628251075744629e+01 -1.432486099004745483e+01 3.052184447646197896e-01
2.265185379981994629e+01 -1.565823501348495483e+01 3.642852172255572896e-01
3.579345536231994629e+01 -2.506839126348495483e+01 7.290618285536822896e-01
3.416808915138244629e+01 -2.326883071660995483e+01 6.894500121474322896e-01
1.853881669044494629e+01 -1.363162368535995483e+01 3.579985961318072896e-01
1.921551346778869629e+01 -1.388296645879745483e+01 3.818633422255572896e-01
2.008929276466369629e+01 -1.428177016973495483e+01 4.122588500380572896e-01
2.049352860450744629e+01 -1.426956313848495483e+01 4.274260863661822896e-01
2.273107743263244629e+01 -1.572683852910995483e+01 5.028350219130572896e-01
3.437676835060119629e+01 -2.343374770879745483e+01 8.945891723036822896e-01
1.860546708106994629e+01 -1.369412368535995483e+01 4.759032592177447896e-01
1.914806962013244629e+01 -1.382949966192245483e+01 4.971282348036822896e-01
2.002355790138244629e+01 -1.423111099004745483e+01 5.318572387099322896e-01
2.042297196388244629e+01 -1.421597427129745483e+01 5.482451781630572896e-01
2.178552079200744629e+01 -1.497012466192245483e+01 6.019408568739947896e-01
3.466857743263244629e+01 -2.366165298223495483e+01 1.106487976014619790e+00
1.867230057716369629e+01 -1.375674575567245483e+01 5.940673217177447896e-01
1.908422684669494629e+01 -1.377932876348495483e+01 6.124083861708697896e-01
1.999786210060119629e+01 -1.421402114629745483e+01 6.531340941786822896e-01
2.041284012794494629e+01 -1.421219009160995483e+01 6.716124877333697896e-01
2.178802323341369629e+01 -1.497683852910995483e+01 7.329375609755572896e-01
1.868054032325744629e+01 -1.376834243535995483e+01 7.107207641005572896e-01
1.902117753028869629e+01 -1.372964614629745483e+01 7.263457641005572896e-01
1.984869217872619629e+01 -1.409329360723495483e+01 7.672393187880572896e-01
2.054418778419494629e+01 -1.432461684942245483e+01 8.013884887099322896e-01
2.196417069435119629e+01 -1.512344497442245483e+01 8.720824584364947896e-01
2.597491288185119629e+01 -1.792691177129745483e+01 1.073483215272432290e+00
1.860272049903869629e+01 -1.370474380254745483e+01 8.219878539443072896e-01
1.895818924903869629e+01 -1.367996352910995483e+01 8.402068480849322896e-01
1.962029862403869629e+01 -1.390591567754745483e+01 8.757445678114947896e-01
2.067077469825744629e+01 -1.443325942754745483e+01 9.331633910536822896e-01
2.498950028419494629e+01 -1.756668227910995483e+01 1.174938903748994790e+00
2.591332840919494629e+01 -1.788382095098495483e+01 1.224560485780244790e+00
1.854296708106994629e+01 -1.365677016973495483e+01 9.341094359755572896e-01
1.888836503028869629e+01 -1.362454360723495483e+01 9.528930053114947896e-01
1.948315262794494629e+01 -1.379519790410995483e+01 9.866301879286822896e-01
2.078997635841369629e+01 -1.453592056035995483e+01 1.065350280702119790e+00
2.171453690528869629e+01 -1.493167251348495483e+01 1.119900451600557290e+00
2.586169266700744629e+01 -1.784842056035995483e+01 1.374752746522432290e+00
1.764178299903869629e+01 -1.287307876348495483e+01 9.873473510146197896e-01
1.885278153419494629e+01 -1.359829849004745483e+01 1.066509948670869790e+00
1.929980301856994629e+01 -1.364553970098495483e+01 1.093350158631807290e+00
2.039446854591369629e+01 -1.421487563848495483e+01 1.164410339295869790e+00
2.162328934669494629e+01 -1.486270278692245483e+01 1.244290100038057290e+00
2.585015702247619629e+01 -1.784475845098495483e+01 1.527935729920869790e+00
7.828184366226196289e+00 -3.313996732234954834e+00 -5.933106079697552104e-01
7.874204874038696289e+00 -3.221955716609954834e+00 -5.897858276963177104e-01
7.915525674819946289e+00 -3.126862943172454834e+00 -5.863526001572552104e-01
7.956785440444946289e+00 -3.031770169734954834e+00 -5.829193726181927104e-01
7.997801065444946289e+00 -2.937409818172454834e+00 -5.795166626572552104e-01
8.038633584976196289e+00 -2.843537747859954834e+00 -5.761139526963177104e-01
8.079405069351196289e+00 -2.749665677547454834e+00 -5.727265015244427104e-01
8.115232706069946289e+00 -2.653352200984954834e+00 -5.694306030869427104e-01
8.831358194351196289e+00 -4.072663724422454834e+00 -5.824921265244427104e-01
8.883665323257446289e+00 -3.969636380672454834e+00 -5.789368286728802104e-01
8.940305948257446289e+00 -3.870149075984954834e+00 -5.752594605088177104e-01
8.992491006851196289e+00 -3.767365872859954834e+00 -5.716889038681927104e-01
9.044370889663696289e+00 -3.665193021297454834e+00 -5.681488648056927104e-01
9.096067667007446289e+00 -3.563264310359954834e+00 -5.646240845322552104e-01
9.129026651382446289e+00 -3.448884427547454834e+00 -5.607636108994427104e-01
9.149656534194946289e+00 -3.327790677547454834e+00 -5.562775269150677104e-01
9.799864053726196289e+00 -4.805451810359954834e+00 -5.590698853135052104e-01
9.838987588882446289e+00 -4.677644193172454834e+00 -5.546448364853802104e-01
9.877805948257446289e+00 -4.550691068172454834e+00 -5.502655640244427104e-01
9.927671670913696289e+00 -4.432038724422454834e+00 -5.462067261338177104e-01
9.983213663101196289e+00 -4.318513333797454834e+00 -5.423615112900677104e-01
1.003863358497619629e+01 -4.205354154109954834e+00 -5.385162964463177104e-01
1.009405350685119629e+01 -4.092194974422454834e+00 -5.346710816025677104e-01
1.014910721778869629e+01 -3.979646146297454834e+00 -5.308563843369427104e-01
1.099328446388244629e+01 -5.708527982234954834e+00 -5.303070679306927104e-01
1.101739335060119629e+01 -5.551057279109954834e+00 -5.247681275010052104e-01
1.107281327247619629e+01 -5.418122708797454834e+00 -5.203583374619427104e-01
1.114416337013244629e+01 -5.296540677547454834e+00 -5.163300171494427104e-01
1.121514725685119629e+01 -5.175691068172454834e+00 -5.123169556260052104e-01
1.127886795997619629e+01 -5.050080716609954834e+00 -5.081513062119427104e-01
1.128747391700744629e+01 -4.887727200984954834e+00 -5.027954712510052104e-01
1.128875565528869629e+01 -4.723298490047454834e+00 -4.977142944931927104e-01
1.313061356544494629e+01 -7.324860990047454834e+00 -5.050995483994427104e-01
1.316967606544494629e+01 -7.145295560359954834e+00 -4.994995728135052104e-01
1.320837235450744629e+01 -6.967317044734954834e+00 -4.939453735947552104e-01
1.324694657325744629e+01 -6.790193021297454834e+00 -4.884216919541302104e-01
1.328503251075744629e+01 -6.615144193172454834e+00 -4.829590454697552104e-01
1.332287430763244629e+01 -6.441560208797454834e+00 -4.775421753525677104e-01
1.336053299903869629e+01 -6.268952786922454834e+00 -4.721558228135052104e-01
1.339776444435119629e+01 -6.098176419734954834e+00 -4.668152466416302104e-01
1.556335282325744629e+01 -9.165193021297454834e+00 -4.595368042588177104e-01
1.555541825294494629e+01 -8.913117825984954834e+00 -4.521515503525677104e-01
1.553051590919494629e+01 -8.652497708797454834e+00 -4.451477661728802104e-01
1.550591874122619629e+01 -8.395417630672454834e+00 -4.382355347275677104e-01
1.548187088966369629e+01 -8.143586575984954834e+00 -4.314606323838177104e-01
1.545818924903869629e+01 -7.895905911922454834e+00 -4.247925415635052104e-01
1.543487381935119629e+01 -7.651643216609954834e+00 -4.182312622666302104e-01
1.542016434669494629e+01 -7.417634427547454834e+00 -4.123413696885052104e-01
1.930749344825744629e+01 -1.199734634160995483e+01 -3.949158325791302104e-01
1.914275956153869629e+01 -1.157107681035995483e+01 -3.861878052353802104e-01
1.907348465919494629e+01 -1.122342056035995483e+01 -3.782990112900677104e-01
1.901983475685119629e+01 -1.089199966192245483e+01 -3.706390991806927104e-01
1.901873612403869629e+01 -1.060391372442245483e+01 -3.634369507431927104e-01
1.904015946388244629e+01 -1.033499282598495483e+01 -3.564636841416302104e-01
1.906133866310119629e+01 -1.006839126348495483e+01 -3.495514526963177104e-01
1.908233475685119629e+01 -9.805695950984954834e+00 -3.427307739853802104e-01
2.907617020606994629e+01 -1.938430923223495483e+01 -2.965729370713177104e-01
2.795818924903869629e+01 -1.810073989629745483e+01 -2.851135864853802104e-01
2.726177811622619629e+01 -1.716348403692245483e+01 -2.740662232041302104e-01
2.691534256935119629e+01 -1.650027602910995483e+01 -2.646057739853802104e-01
2.640618729591369629e+01 -1.574148696660995483e+01 -2.555115357041302104e-01
2.612286210060119629e+01 -1.515689224004745483e+01 -2.468292847275677104e-01
2.553045487403869629e+01 -1.437881606817245483e+01 -2.393524780869427104e-01
2.504315018653869629e+01 -1.369265884160995483e+01 -2.315247192978802104e-01
5.772619462013244629e+01 -4.014859145879745483e+01 1.441644281149478957e-02
3.729662919044494629e+01 -2.444571059942245483e+01 -6.862188726663021043e-02
3.563226151466369629e+01 -2.269461196660995483e+01 -6.607366949319271043e-02
5.468835282325744629e+01 -3.540701431035995483e+01 4.954217523336978957e-02
5.538592362403869629e+01 -3.507486099004745483e+01 6.951593011618228957e-02
5.681292557716369629e+01 -3.521670669317245483e+01 9.415887445211978957e-02
5.446923661231994629e+01 -3.287417739629745483e+01 9.530328363180728957e-02
3.410583329200744629e+01 -2.319937270879745483e+01 9.238885492086978957e-02
3.431536698341369629e+01 -2.282034438848495483e+01 1.036803588271197896e-01
3.462170243263244629e+01 -2.251260513067245483e+01 1.159789428114947896e-01
3.501251053810119629e+01 -2.226126235723495483e+01 1.292540892958697896e-01
5.514672684669494629e+01 -3.573587173223495483e+01 3.616607055068072896e-01
5.542187333106994629e+01 -3.510940688848495483e+01 3.786895141005572896e-01
5.585510087013244629e+01 -3.458877700567245483e+01 3.975493773818072896e-01
5.672015213966369629e+01 -3.435110610723495483e+01 4.214904174208697896e-01
3.409948563575744629e+01 -2.320144790410995483e+01 2.910430297255572896e-01
3.431677079200744629e+01 -2.282815688848495483e+01 3.022429808974322896e-01
3.461767411231994629e+01 -2.251638931035995483e+01 3.148009642958697896e-01
3.497918534278869629e+01 -2.224429458379745483e+01 3.284118041396197896e-01
4.989593338966369629e+01 -3.209402602910995483e+01 5.852477416396197896e-01
4.847906327247619629e+01 -3.039261001348495483e+01 5.719115599989947896e-01
4.713494706153869629e+01 -2.878836196660995483e+01 5.591246947646197896e-01
4.591351151466369629e+01 -2.731460708379745483e+01 5.477263793349322896e-01
3.411254715919494629e+01 -2.321817153692245483e+01 4.890410766005572896e-01
3.434759354591369629e+01 -2.285769790410995483e+01 5.004699096083697896e-01
3.465673661231994629e+01 -2.255142349004745483e+01 5.135161742568072896e-01
3.501312088966369629e+01 -2.227493423223495483e+01 5.276458129286822896e-01
5.715484452247619629e+01 -3.715347427129745483e+01 1.027539001405244790e+00
5.497070145606994629e+01 -3.482241958379745483e+01 9.884154662489947896e-01
5.518884110450744629e+01 -3.416482681035995483e+01 1.002835021913057290e+00
5.603918290138244629e+01 -3.392703384160995483e+01 1.031582580506807290e+00
3.416760087013244629e+01 -2.326675552129745483e+01 6.894500121474322896e-01
3.434338212013244629e+01 -2.286136001348495483e+01 6.991851195693072896e-01
3.465130448341369629e+01 -2.255423110723495483e+01 7.114989623427447896e-01
3.502862381935119629e+01 -2.229263442754745483e+01 7.268340453505572896e-01
5.722967362403869629e+01 -3.721609634160995483e+01 1.350689636170869790e+00
5.784600663185119629e+01 -3.679116958379745483e+01 1.375698791444307290e+00
5.553759598731994629e+01 -3.440725845098495483e+01 1.320111022889619790e+00
5.610143876075744629e+01 -3.397757095098495483e+01 1.343380676209932290e+00
3.437377762794494629e+01 -2.342959731817245483e+01 8.944976195693072896e-01
3.530932450294494629e+01 -2.303872817754745483e+01 9.326445922255572896e-01
3.525805497169494629e+01 -2.246243423223495483e+01 9.344451293349322896e-01
5.715301346778869629e+01 -3.717349380254745483e+01 1.671414123475557290e+00
5.767828202247619629e+01 -3.668740981817245483e+01 1.694561706483369790e+00
5.894732499122619629e+01 -3.669107192754745483e+01 1.742809997498994790e+00
6.191161942481994629e+01 -3.777896255254745483e+01 1.848477111756807290e+00
3.465753006935119629e+01 -2.365139907598495483e+01 1.106075988709932290e+00
3.462969803810119629e+01 -2.308719009160995483e+01 1.106014953553682290e+00
3.496172928810119629e+01 -2.279312270879745483e+01 1.121044860780244790e+00
5.906249833106994629e+01 -3.939798110723495483e+01 2.063870178163057290e+00
5.632275223731994629e+01 -3.660598891973495483e+01 1.960201965272432290e+00
5.674719071388244629e+01 -3.606338638067245483e+01 1.980038391053682290e+00
5.997656083106994629e+01 -3.738809341192245483e+01 2.109875427186494790e+00
6.171679520606994629e+01 -3.766275161504745483e+01 2.183346496522432290e+00
5.753582596778869629e+01 -4.008670181035995483e+01 2.329586730897432290e+00
5.732684159278869629e+01 -3.904837173223495483e+01 2.321346984803682290e+00
5.789800858497619629e+01 -3.858072036504745483e+01 2.347943054139619790e+00
5.708794999122619629e+01 -3.714944595098495483e+01 2.312786804139619790e+00
5.703362870216369629e+01 -3.626907485723495483e+01 2.311398254334932290e+00
5.873510575294494629e+01 -3.657058852910995483e+01 2.388561950623994790e+00
5.734258866310119629e+01 -3.907083266973495483e+01 2.649090515077119790e+00
5.793243241310119629e+01 -3.861624282598495483e+01 2.677548156678682290e+00
5.899719071388244629e+01 -3.849002212285995483e+01 2.729885803163057290e+00
5.688305497169494629e+01 -3.617678970098495483e+01 2.622341857850557290e+00
5.899084305763244629e+01 -3.675174087285995483e+01 2.727123962342744790e+00
5.983502030372619629e+01 -3.645559829473495483e+01 2.770107971131807290e+00
5.803716874122619629e+01 -3.870181411504745483e+01 3.013317809998994790e+00
5.760473465919494629e+01 -3.667947524785995483e+01 2.982144103944307290e+00
5.795226883888244629e+01 -3.523611587285995483e+01 2.994747863709932290e+00
5.913659501075744629e+01 -3.949551528692245483e+01 3.409924255311494790e+00
5.640484452247619629e+01 -3.670523208379745483e+01 3.235897766053682290e+00
5.665344071388244629e+01 -3.604092544317245483e+01 3.245587097108369790e+00
5.971465897560119629e+01 -3.725637954473495483e+01 3.429562316834932290e+00
5.992687821388244629e+01 -3.653665298223495483e+01 3.436794982850557290e+00
5.905230545997619629e+01 -4.034756606817245483e+01 3.749584899842744790e+00
5.712707352638244629e+01 -3.807571548223495483e+01 3.611599670350557290e+00
5.660143876075744629e+01 -3.685281509160995483e+01 3.568295226991182290e+00
5.968493485450744629e+01 -3.724722427129745483e+01 3.758953796327119790e+00
6.017242264747619629e+01 -3.670779556035995483e+01 3.785244689881807290e+00
8.115354776382446289e+00 -2.653108060359954834e+00 -5.694153442978802104e-01
8.154600381851196289e+00 -2.559602200984954834e+00 -5.660736694931927104e-01
8.199156045913696289e+00 -2.469636380672454834e+00 -5.631897583603802104e-01
8.257383584976196289e+00 -2.387971341609954834e+00 -5.607941284775677104e-01
8.315550088882446289e+00 -2.306428372859954834e+00 -5.583984985947552104e-01
8.373777627944946289e+00 -2.224641263484954834e+00 -5.559876099228802104e-01
8.443174600601196289e+00 -2.148713529109954834e+00 -5.539581909775677104e-01
8.516233682632446289e+00 -2.074738919734954834e+00 -5.522797241806927104e-01
9.149717569351196289e+00 -3.327302396297454834e+00 -5.562622681260052104e-01
9.164060831069946289e+00 -3.203401029109954834e+00 -5.519440308213177104e-01
9.183775186538696289e+00 -3.084016263484954834e+00 -5.475494995713177104e-01
9.202390909194946289e+00 -2.964631497859954834e+00 -5.434143677353802104e-01
9.238279581069946289e+00 -2.856965482234954834e+00 -5.398438110947552104e-01
9.274046182632446289e+00 -2.749787747859954834e+00 -5.363037720322552104e-01
9.303892374038696289e+00 -2.639436185359954834e+00 -5.328705444931927104e-01
9.339292764663696289e+00 -2.533235013484954834e+00 -5.293610230088177104e-01
1.014935135841369629e+01 -3.979402005672454834e+00 -5.308411255478802104e-01
1.018188309669494629e+01 -3.852937161922454834e+00 -5.267517700791302104e-01
1.020916581153869629e+01 -3.724152982234954834e+00 -5.225556030869427104e-01
1.023632645606994629e+01 -3.595735013484954834e+00 -5.183746948838177104e-01
1.028314042091369629e+01 -3.480500638484954834e+00 -5.147278442978802104e-01
1.037939286231994629e+01 -3.394563138484954834e+00 -5.122864380478802104e-01
1.047656083106994629e+01 -3.307771146297454834e+00 -5.098145142197552104e-01
1.057403397560119629e+01 -3.220612943172454834e+00 -5.073578491806927104e-01
1.128851151466369629e+01 -4.722566068172454834e+00 -4.976990357041302104e-01
1.129803299903869629e+01 -4.565339505672454834e+00 -4.924652710556927104e-01
1.135461258888244629e+01 -4.439240872859954834e+00 -4.885742798447552104e-01
1.144360184669494629e+01 -4.332795560359954834e+00 -4.853088989853802104e-01
1.153253006935119629e+01 -4.226228177547454834e+00 -4.820587769150677104e-01
1.162176346778869629e+01 -4.119416654109954834e+00 -4.787781372666302104e-01
1.171160721778869629e+01 -4.011872708797454834e+00 -4.754974976181927104e-01
1.183758378028869629e+01 -3.924470365047454834e+00 -4.731934204697552104e-01
1.339788651466369629e+01 -6.097688138484954834e+00 -4.667999878525677104e-01
1.342742753028869629e+01 -5.923493802547454834e+00 -4.616882935166302104e-01
1.345196366310119629e+01 -5.747834622859954834e+00 -4.565460816025677104e-01
1.343963456153869629e+01 -5.550691068172454834e+00 -4.509003296494427104e-01
1.346459794044494629e+01 -5.378938138484954834e+00 -4.458801880478802104e-01
1.358154129981994629e+01 -5.262360990047454834e+00 -4.421417847275677104e-01
1.383770585060119629e+01 -5.223298490047454834e+00 -4.401886597275677104e-01
1.407519364356994629e+01 -5.170075833797454834e+00 -4.378998413681927104e-01
1.542010331153869629e+01 -7.416779935359954834e+00 -4.123108521103802104e-01
1.545745682716369629e+01 -7.219148099422454834e+00 -4.063599243760052104e-01
1.548083329200744629e+01 -7.014436185359954834e+00 -4.007752075791302104e-01
1.550408768653869629e+01 -6.810944974422454834e+00 -3.952362671494427104e-01
1.552703690528869629e+01 -6.610017240047454834e+00 -3.897583618760052104e-01
1.561688065528869629e+01 -6.449860990047454834e+00 -3.848755493760052104e-01
1.582116532325744629e+01 -6.354279935359954834e+00 -3.808930054306927104e-01
1.608831620216369629e+01 -6.291535794734954834e+00 -3.777802124619427104e-01
1.908227372169494629e+01 -9.804719388484954834e+00 -3.427155151963177104e-01
1.909380936622619629e+01 -9.539094388484954834e+00 -3.361847534775677104e-01
1.902715897560119629e+01 -9.227693021297454834e+00 -3.294251099228802104e-01
1.895263504981994629e+01 -8.915559232234954834e+00 -3.227417603135052104e-01
1.903881669044494629e+01 -8.705476224422454834e+00 -3.167297974228802104e-01
1.963213944435119629e+01 -8.791535794734954834e+00 -3.122131958603802104e-01
2.025689530372619629e+01 -8.881867825984954834e+00 -3.074677124619427104e-01
2.058355545997619629e+01 -8.794099271297454834e+00 -3.017304077744427104e-01
2.503503251075744629e+01 -1.368618911504745483e+01 -2.315094605088177104e-01
2.484350419044494629e+01 -1.320730727910995483e+01 -2.239868775010052104e-01
2.485729813575744629e+01 -1.286599868535995483e+01 -2.156403198838177104e-01
2.517559647560119629e+01 -1.271292251348495483e+01 -2.075379028916302104e-01
2.699816727638244629e+01 -1.345327895879745483e+01 -1.961853638291302104e-01
2.791766190528869629e+01 -1.362271255254745483e+01 -1.860382691025677104e-01
2.852184891700744629e+01 -1.359121841192245483e+01 -1.770813599228802104e-01
3.057812333106994629e+01 -1.435733169317245483e+01 -1.628296509385052104e-01
5.446410965919494629e+01 -3.286831802129745483e+01 9.531854242086978957e-02
5.671728348731994629e+01 -3.353335708379745483e+01 1.251952514052447896e-01
5.914849686622619629e+01 -3.425613540410995483e+01 1.573455199599322896e-01
5.532519364356994629e+01 -3.110427993535995483e+01 1.457488402724322896e-01
5.530383133888244629e+01 -3.033596938848495483e+01 1.601836547255572896e-01
5.672192215919494629e+01 -3.434964126348495483e+01 4.215514525771197896e-01
5.644299149513244629e+01 -3.336831802129745483e+01 4.318206176161822896e-01
5.793694901466369629e+01 -3.351040786504745483e+01 4.636046752333697896e-01
4.590417313575744629e+01 -2.730630630254745483e+01 5.476043090224322896e-01
4.472820878028869629e+01 -2.590506118535995483e+01 5.364653930068072896e-01
4.357317948341369629e+01 -2.455740493535995483e+01 5.250975951552447896e-01
4.245513749122619629e+01 -2.326956313848495483e+01 5.138671264052447896e-01
4.136523270606994629e+01 -2.203836196660995483e+01 5.025603637099322896e-01
5.603942704200744629e+01 -3.392447036504745483e+01 1.031628356873994790e+00
4.480987381935119629e+01 -2.596487563848495483e+01 7.832457885146197896e-01
4.356072831153869629e+01 -2.455703872442245483e+01 7.619902953505572896e-01
4.234991288185119629e+01 -2.321243423223495483e+01 7.411467894911822896e-01
4.119268631935119629e+01 -2.194217056035995483e+01 7.210509642958697896e-01
4.015130448341369629e+01 -2.077737563848495483e+01 7.032286986708697896e-01
3.912939286231994629e+01 -1.965615981817245483e+01 6.854674682021197896e-01
3.812139725685119629e+01 -1.857754653692245483e+01 6.676146849989947896e-01
5.609795975685119629e+01 -3.397256606817245483e+01 1.343304382264619790e+00
5.620855545997619629e+01 -3.324795669317245483e+01 1.354260192811494790e+00
6.203307938575744629e+01 -3.523672622442245483e+01 1.535168395936494790e+00
6.173223710060119629e+01 -3.765896743535995483e+01 1.842434631288057290e+00
6.179290604591369629e+01 -3.682290786504745483e+01 1.851025329530244790e+00
5.811382889747619629e+01 -3.366031020879745483e+01 1.732403503358369790e+00
6.120709061622619629e+01 -3.732718032598495483e+01 2.163342224061494790e+00
6.003045487403869629e+01 -3.570816177129745483e+01 2.119671569764619790e+00
5.938525223731994629e+01 -3.364004653692245483e+01 2.102719055116182290e+00
5.856378006935119629e+01 -3.478177016973495483e+01 2.384182678163057290e+00
5.739391922950744629e+01 -3.323037856817245483e+01 2.333950744569307290e+00
6.232140946388244629e+01 -3.544412368535995483e+01 2.557247863709932290e+00
5.824743485450744629e+01 -3.215835708379745483e+01 2.376568542420869790e+00
5.860827469825744629e+01 -3.158206313848495483e+01 2.394924865663057290e+00
5.983544754981994629e+01 -3.645303481817245483e+01 2.770138488709932290e+00
5.754955887794494629e+01 -3.414383071660995483e+01 2.653790222108369790e+00
5.785333085060119629e+01 -3.352725356817245483e+01 2.669323669373994790e+00
5.793609452247619629e+01 -3.277420181035995483e+01 2.673763976991182290e+00
5.942571854591369629e+01 -3.287210220098495483e+01 2.748898254334932290e+00
5.867400956153869629e+01 -3.163003677129745483e+01 2.711392150819307290e+00
5.795519852638244629e+01 -3.523526138067245483e+01 2.994900451600557290e+00
6.015783524513244629e+01 -3.582083266973495483e+01 3.115963684022432290e+00
5.715429520606994629e+01 -3.310012954473495483e+01 2.946942077577119790e+00
5.774236893653869629e+01 -3.266555923223495483e+01 2.978054748475557290e+00
5.873711991310119629e+01 -3.247024673223495483e+01 3.031796203553682290e+00
5.992797684669494629e+01 -3.653457778692245483e+01 3.436840759217744790e+00
5.731683182716369629e+01 -3.401504653692245483e+01 3.273281799256807290e+00
5.716680741310119629e+01 -3.311770766973495483e+01 3.258877502381807290e+00
5.799590897560119629e+01 -3.283023208379745483e+01 3.305981384217744790e+00
5.892461991310119629e+01 -3.259207290410995483e+01 3.359127746522432290e+00
6.017242264747619629e+01 -3.670498794317245483e+01 3.785214172303682290e+00
5.694189286231994629e+01 -3.378518813848495483e+01 3.562329040467744790e+00
5.708825516700744629e+01 -3.307840102910995483e+01 3.566632018983369790e+00
5.764269852638244629e+01 -3.262393325567245483e+01 3.598095642030244790e+00
8.516538858413696289e+00 -2.074494779109954834e+00 -5.522797241806927104e-01
8.593382120132446289e+00 -2.001985013484954834e+00 -5.505097046494427104e-01
8.666319131851196289e+00 -1.926545560359954834e+00 -5.488464966416302104e-01
8.773496866226196289e+00 -1.867707669734954834e+00 -5.482514038681927104e-01
8.940611124038696289e+00 -1.838044583797454834e+00 -5.495331421494427104e-01
9.112119913101196289e+00 -1.807404935359954834e+00 -5.508453980088177104e-01
9.288938760757446289e+00 -1.775910794734954834e+00 -5.522034302353802104e-01
9.458494424819946289e+00 -1.738313138484954834e+00 -5.535004273056927104e-01
9.339231729507446289e+00 -2.532746732234954834e+00 -5.293457642197552104e-01
9.430784463882446289e+00 -2.457551419734954834e+00 -5.277283325791302104e-01
9.548399209976196289e+00 -2.395051419734954834e+00 -5.265228882431927104e-01
9.664549112319946289e+00 -2.329621732234954834e+00 -5.254700317978802104e-01
9.827146768569946289e+00 -2.286408841609954834e+00 -5.256378784775677104e-01
1.002715897560119629e+01 -2.258820950984954834e+00 -5.266907349228802104e-01
1.022729325294494629e+01 -2.227326810359954834e+00 -5.278961792588177104e-01
1.042962479591369629e+01 -2.193513333797454834e+00 -5.287811890244427104e-01
1.057452225685119629e+01 -3.220490872859954834e+00 -5.073425903916302104e-01
1.066900467872619629e+01 -3.130769193172454834e+00 -5.050690308213177104e-01
1.079479813575744629e+01 -3.056794583797454834e+00 -5.034821167588177104e-01
1.095104813575744629e+01 -2.996247708797454834e+00 -5.024902954697552104e-01
1.110949540138244629e+01 -2.934846341609954834e+00 -5.014832153916302104e-01
1.130377030372619629e+01 -2.888459622859954834e+00 -5.011475220322552104e-01
1.150964188575744629e+01 -2.843903958797454834e+00 -5.009491577744427104e-01
1.172003006935119629e+01 -2.798249661922454834e+00 -5.007355347275677104e-01
1.183837723731994629e+01 -3.924348294734954834e+00 -4.731934204697552104e-01
1.197631669044494629e+01 -3.841950833797454834e+00 -4.706757202744427104e-01
1.220727372169494629e+01 -3.806916654109954834e+00 -4.700348511338177104e-01
1.249944901466369629e+01 -3.798615872859954834e+00 -4.702942505478802104e-01
1.278472733497619629e+01 -3.781770169734954834e+00 -4.702942505478802104e-01
1.303582596778869629e+01 -3.742585599422454834e+00 -4.695770874619427104e-01
1.329492020606994629e+01 -3.702180325984954834e+00 -4.688446655869427104e-01
1.355053544044494629e+01 -3.655915677547454834e+00 -4.682953491806927104e-01
1.407598710060119629e+01 -5.169953763484954834e+00 -4.378845825791302104e-01
1.424481034278869629e+01 -5.075227200984954834e+00 -4.349091187119427104e-01
1.441583085060119629e+01 -4.979279935359954834e+00 -4.318878784775677104e-01
1.458972001075744629e+01 -4.881745755672454834e+00 -4.288208618760052104e-01
1.478436112403869629e+01 -4.792878568172454834e+00 -4.259369507431927104e-01
1.508343338966369629e+01 -4.752595365047454834e+00 -4.241211548447552104e-01
1.551220536231994629e+01 -4.768220365047454834e+00 -4.235413208603802104e-01
1.590795731544494629e+01 -4.760652005672454834e+00 -4.223969116806927104e-01
1.608996415138244629e+01 -6.291779935359954834e+00 -3.777649536728802104e-01
1.638458085060119629e+01 -6.239289700984954834e+00 -3.740875855088177104e-01
1.685857987403869629e+01 -6.276643216609954834e+00 -3.719513550400677104e-01
1.728784012794494629e+01 -6.280183255672454834e+00 -3.692658081650677104e-01
1.771063065528869629e+01 -6.272614896297454834e+00 -3.663513794541302104e-01
1.853301835060119629e+01 -6.453523099422454834e+00 -3.655884400010052104e-01
1.909179520606994629e+01 -6.489045560359954834e+00 -3.628723755478802104e-01
1.956109452247619629e+01 -6.472199857234954834e+00 -3.599579468369427104e-01
2.058526444435119629e+01 -8.794221341609954834e+00 -3.017151489853802104e-01
2.110790848731994629e+01 -8.807404935359954834e+00 -2.964966431260052104e-01
2.171374344825744629e+01 -8.854035794734954834e+00 -2.911865845322552104e-01
2.257305741310119629e+01 -9.018342435359954834e+00 -2.859223023056927104e-01
2.322460770606994629e+01 -9.059846341609954834e+00 -2.800171509385052104e-01
2.419042801856994629e+01 -9.242951810359954834e+00 -2.740509644150677104e-01
2.568963456153869629e+01 -9.660310208797454834e+00 -2.678864136338177104e-01
2.625970292091369629e+01 -9.610383450984954834e+00 -2.607147827744427104e-01
3.059045243263244629e+01 -1.436282485723495483e+01 -1.627533569931927104e-01
3.233575272560119629e+01 -1.491067641973495483e+01 -1.487305298447552104e-01
3.811376786231994629e+01 -1.857156509160995483e+01 6.674620971083697896e-01
3.713244462013244629e+01 -1.753958266973495483e+01 6.500670775771197896e-01
3.614037919044494629e+01 -1.653225845098495483e+01 6.320311889052447896e-01
3.517236161231994629e+01 -1.556582778692245483e+01 6.142089232802447896e-01
3.418389725685119629e+01 -1.461978286504745483e+01 5.955169066786822896e-01
3.317895340919494629e+01 -1.369473403692245483e+01 5.760314330458697896e-01
3.218200516700744629e+01 -1.280117934942245483e+01 5.564086303114947896e-01
3.116302323341369629e+01 -1.192727798223495483e+01 5.358550414443072896e-01
3.228179764747619629e+01 -1.285379165410995483e+01 7.256286010146197896e-01
3.123693680763244629e+01 -1.196634048223495483e+01 6.982848510146197896e-01
3.001836991310119629e+01 -1.093899673223495483e+01 3.993651732802447896e-01
3.772509598731994629e+01 -1.816726821660995483e+01 7.484862670302447896e-01
3.657867264747619629e+01 -1.701223891973495483e+01 7.222258910536822896e-01
3.541277909278869629e+01 -1.588174575567245483e+01 6.952025756239947896e-01
3.435558915138244629e+01 -1.484085220098495483e+01 6.708037719130572896e-01
3.326128983497619629e+01 -1.381436294317245483e+01 6.451690062880572896e-01
3.217944169044494629e+01 -1.282608169317245483e+01 6.196105346083697896e-01
3.105151200294494629e+01 -1.184549087285995483e+01 5.925719603896197896e-01
2.994042801856994629e+01 -1.090615981817245483e+01 5.657470092177447896e-01
2.885418534278869629e+01 -1.001321548223495483e+01 6.444518432021197896e-01
2.368206620216369629e+01 -6.154084622859954834e+00 3.388335570693072896e-01
2.147723221778869629e+01 -4.596711575984954834e+00 2.771727904677447896e-01
2.170666337013244629e+01 -4.706208646297454834e+00 4.910247191786822896e-01
3.041845536231994629e+01 -1.114505141973495483e+01 2.207305297255572896e-01
2.811462235450744629e+01 -9.336457669734954834e+00 1.706511840224322896e-01
2.577288651466369629e+01 -7.573029935359954834e+00 1.198088988661822896e-01
2.340026688575744629e+01 -5.856843411922454834e+00 6.832574456930728957e-02
2.103472733497619629e+01 -4.209504544734954834e+00 1.704095453024478957e-02
3.560894608497619629e+01 -1.600930923223495483e+01 6.281249389052447896e-01
3.384411454200744629e+01 -1.431900161504745483e+01 5.788543090224322896e-01
3.189568924903869629e+01 -1.258365005254745483e+01 5.248076781630572896e-01
2.977123856544494629e+01 -1.081143325567245483e+01 4.661986693739947896e-01
2.764275956153869629e+01 -9.099641263484954834e+00 4.076354369521197896e-01
2.544805741310119629e+01 -7.414704740047454834e+00 3.474852904677447896e-01
2.317150712013244629e+01 -5.748567044734954834e+00 2.852904662489947896e-01
2.090740799903869629e+01 -4.151521146297454834e+00 2.236144408583697896e-01
2.568224930763244629e+01 -7.532868802547454834e+00 5.909240111708697896e-01
2.316070389747619629e+01 -5.745393216609954834e+00 5.080993041396197896e-01
2.071728348731994629e+01 -4.063996732234954834e+00 4.280669555068072896e-01
2.810522294044494629e+01 -9.348298490047454834e+00 1.632201537489947896e-01
1.617864823341369629e+01 -8.569654822349548340e-01 -1.592285767197552104e-01
3.378808426856994629e+01 -1.428677505254745483e+01 7.035643920302447896e-01
3.095586991310119629e+01 -1.178018325567245483e+01 6.069457396864947896e-01
2.789507889747619629e+01 -9.237214505672454834e+00 5.039183959364947896e-01
2.392974686622619629e+01 -6.306184232234954834e+00 3.735015258193072896e-01
1.948321366310119629e+01 -3.235139310359954834e+00 2.290923461318072896e-01
1.517767167091369629e+01 -3.570875525474548340e-01 9.005426019430728957e-02
1.902972245216369629e+01 -2.287751615047454834e+00 5.024077758193072896e-01
9.691160440444946289e+00 -1.959992825984954834e+00 1.748013244569307290e+00
6.619932413101196289e+00 -1.444410681724548340e-01 1.776318298280244790e+00
6.791380167007446289e+00 -2.477125525474548340e-01 2.030453430116182290e+00
1.933483719825744629e+01 -3.082917630672454834e+00 4.314238891005572896e-01
6.772520303726196289e+00 -9.370436072349548340e-01 3.189666137099322896e-01
1.022888016700744629e+01 -2.353181302547454834e+00 1.810101257264619790e+00
9.513365030288696289e+00 -2.607087552547454834e+00 2.052212463319307290e+00
6.623045206069946289e+00 -2.051100134849548340e-01 1.818371520936494790e+00
9.884641885757446289e+00 -2.833283841609954834e+00 2.352520690858369790e+00
6.871092081069946289e+00 -3.528150916099548340e-01 2.091702209413057290e+00
7.239378213882446289e+00 6.991440057754516602e-02 2.097561584413057290e+00
9.019346475601196289e+00 -2.306184232234954834e+00 2.552181945741182290e+00
7.721372842788696289e+00 -8.592848181724548340e-01 2.417095886170869790e+00
7.102476358413696289e+00 1.497483849525451660e-01 2.341809020936494790e+00
9.876096963882446289e+00 -1.946931302547454834e+00 1.954678283631807290e+00
9.544370889663696289e+00 -3.149934232234954834e+00 2.250622497498994790e+00
1.018420243263244629e+01 -2.834626615047454834e+00 2.277600036561494790e+00
6.813963174819946289e+00 -1.307691931724548340e-01 1.997189269959932290e+00
9.698301553726196289e+00 -3.246247708797454834e+00 2.542172180116182290e+00
9.038511514663696289e+00 -2.139924466609954834e+00 2.462780700623994790e+00
7.412412881851196289e+00 -4.863600134849548340e-01 2.306942687928682290e+00
2.916741776466369629e+01 -1.031509536504745483e+01 4.618956908583697896e-01
2.534527420997619629e+01 -7.324250638484954834e+00 3.327910766005572896e-01
3.505613565444946289e+00 9.274154901504516602e-02 -2.858282476663021043e-02
3.672727823257446289e+00 6.325364708900451660e-01 -3.215338140725521043e-02
4.091612100601196289e+00 1.016935884952545166e+00 -2.640081793069271043e-02
3.442442178726196289e+00 1.321702599525451660e-01 2.219970092177447896e-01
3.708982706069946289e+00 6.095872521400451660e-01 2.220580443739947896e-01
4.175413370132446289e+00 9.657884240150451660e-01 2.292449340224322896e-01
4.727781534194946289e+00 -6.815504431724548340e-01 5.355193480849322896e-01
1.000640702247619629e+01 -2.564485013484954834e+00 1.900082336366182290e+00
1.033782792091369629e+01 -2.041535794734954834e+00 1.901928649842744790e+00
9.960752725601196289e+00 -3.261872708797454834e+00 2.205227600038057290e+00
9.717649698257446289e+00 -2.390168607234954834e+00 2.162792907655244790e+00
7.125120401382446289e+00 -1.413893103599548340e-01 1.948223815858369790e+00
8.971922159194946289e+00 -3.370027005672454834e+00 2.437283264100557290e+00
1.030535721778869629e+01 -3.475617825984954834e+00 2.518643127381807290e+00
9.496824502944946289e+00 -2.256989896297454834e+00 2.429394470155244790e+00
6.785764932632446289e+00 5.917221307754516602e-02 2.189907775819307290e+00
9.894651651382446289e+00 -2.294099271297454834e+00 2.044155822694307290e+00
9.862241983413696289e+00 -3.014680325984954834e+00 2.357311950623994790e+00
7.601438760757446289e+00 -9.107984900474548340e-01 2.157925353944307290e+00
7.101133584976196289e+00 8.297592401504516602e-02 2.095272766053682290e+00
8.995359659194946289e+00 -3.214753568172454834e+00 2.606075988709932290e+00
8.992307901382446289e+00 -2.477693021297454834e+00 2.578304992616182290e+00
9.469724893569946289e+00 -2.036775052547454834e+00 2.590206848084932290e+00
7.071104288101196289e+00 1.011644005775451660e-01 2.367382751405244790e+00
9.174253702163696289e+00 -3.647126615047454834e+00 2.737789855897432290e+00
9.010069131851196289e+00 -2.766023099422454834e+00 2.689205871522432290e+00
9.203550577163696289e+00 -2.120393216609954834e+00 2.670864807069307290e+00
6.885435342788696289e+00 2.242904901504516602e-02 2.447018371522432290e+00
6.896482706069946289e+00 -4.365266263484954834e+00 1.302899108827119790e+00
7.266355752944946289e+00 -3.820588529109954834e+00 1.600720153748994790e+00
7.734007120132446289e+00 -4.129182279109954834e+00 1.937802062928682290e+00
7.326597452163696289e+00 -4.649445950984954834e+00 2.245953308045869790e+00
7.577451944351196289e+00 -9.260572791099548340e-01 2.103588806092744790e+00
7.162534952163696289e+00 7.333236932754516602e-02 2.043759094178682290e+00
7.318479776382446289e+00 -4.641023099422454834e+00 2.551632629334932290e+00
8.952757120132446289e+00 -3.326936185359954834e+00 2.579205261170869790e+00
8.862364053726196289e+00 -2.482942044734954834e+00 2.537655578553682290e+00
7.463987588882446289e+00 -8.536695837974548340e-01 2.392712341248994790e+00
7.084715127944946289e+00 1.228929162025451660e-01 2.330105529725557290e+00
1.900213456153869629e+01 -1.354495376348495483e+01 1.679394470155244790e+00
1.897381424903869629e+01 -1.352371352910995483e+01 2.056027160584932290e+00
7.457334756851196289e+00 -4.691438138484954834e+00 1.333904968202119790e+00
