1.656278735399246216e+01 -1.259299659729003906e+01 5.234760284423884968e-01
1.683128100633621216e+01 -1.254087257385253906e+01 5.348133087158259968e-01
1.807993823289871216e+01 -1.335654640197753906e+01 5.923999786377009968e-01
1.839207202196121216e+01 -1.331662940979003906e+01 6.062702178955134968e-01
1.323545581102371216e+01 -1.049765968322753906e+01 4.540943145752009968e-01
1.515775805711746216e+01 -1.213681983947753906e+01 5.560993194580134968e-01
1.541831713914871216e+01 -1.210227394104003906e+01 5.679553985595759968e-01
1.640458422899246216e+01 -1.274875831604003906e+01 6.187976837158259968e-01
1.684025317430496216e+01 -1.285398292541503906e+01 6.398700714111384968e-01
1.746067553758621216e+01 -1.311667823791503906e+01 6.707538604736384968e-01
1.802354174852371216e+01 -1.331003761291503906e+01 6.984180450439509968e-01
1.833451586961746216e+01 -1.327024269104003906e+01 7.125782012939509968e-01
1.326005297899246216e+01 -1.052549171447753906e+01 5.392993927002009968e-01
1.510654956102371216e+01 -1.208994483947753906e+01 6.483692169189509968e-01
1.536503344774246216e+01 -1.205430030822753906e+01 6.603626251220759968e-01
1.619425708055496216e+01 -1.255332374572753906e+01 7.071155548095759968e-01
1.657847338914871216e+01 -1.261472511291503906e+01 7.269367218017634968e-01
1.751585131883621216e+01 -1.317051124572753906e+01 7.797016143798884968e-01
1.795310717821121216e+01 -1.325107765197753906e+01 8.029560089111384968e-01
1.827702075242996216e+01 -1.322373390197753906e+01 8.188098907470759968e-01
1.330949145555496216e+01 -1.057822608947753906e+01 6.265338897705134968e-01
1.506095629930496216e+01 -1.204856300354003906e+01 7.398761749267634968e-01
1.531480151414871216e+01 -1.200925636291503906e+01 7.528308868408259968e-01
1.557352954149246216e+01 -1.196933937072753906e+01 7.660449981689509968e-01
1.636436206102371216e+01 -1.241977882385253906e+01 8.144458770752009968e-01
1.680521899461746216e+01 -1.252793312072753906e+01 8.394245147705134968e-01
1.788718920946121216e+01 -1.319602394104003906e+01 9.063648223877009968e-01
1.821885424852371216e+01 -1.317673683166503906e+01 9.243244171142634968e-01
7.932904541492462158e+00 -4.159524917602539062e+00 -6.185985565185490032e-01
7.976117432117462158e+00 -4.066263198852539062e+00 -6.148601531982365032e-01
8.023053467273712158e+00 -3.976907730102539062e+00 -6.115642547607365032e-01
8.071759521961212158e+00 -3.888895034790039062e+00 -6.083599090576115032e-01
8.120160400867462158e+00 -3.801614761352539062e+00 -6.051860809326115032e-01
8.168378174304962158e+00 -3.714700698852539062e+00 -6.020122528076115032e-01
8.216595947742462158e+00 -3.627664566040039062e+00 -5.988536834716740032e-01
8.261151611804962158e+00 -3.538797378540039062e+00 -5.958019256591740032e-01
8.666302978992462158e+00 -4.799051284790039062e+00 -6.052928924560490032e-01
8.706708252429962158e+00 -4.690652847290039062e+00 -6.012798309326115032e-01
8.751141846179962158e+00 -4.586771011352539062e+00 -5.971904754638615032e-01
8.791180908679962158e+00 -4.479471206665039062e+00 -5.932079315185490032e-01
8.830792725086212158e+00 -4.373147964477539062e+00 -5.892711639404240032e-01
8.870160400867462158e+00 -4.267679214477539062e+00 -5.853496551513615032e-01
8.905072510242462158e+00 -4.159158706665039062e+00 -5.815349578857365032e-01
8.943707764148712158e+00 -4.055032730102539062e+00 -5.776744842529240032e-01
9.551862061023712158e+00 -5.571268081665039062e+00 -5.888439178466740032e-01
9.571393311023712158e+00 -5.429788589477539062e+00 -5.836254119872990032e-01
9.590680420398712158e+00 -5.290018081665039062e+00 -5.784832000732365032e-01
9.609784424304962158e+00 -5.151468276977539062e+00 -5.733715057372990032e-01
9.637311279773712158e+00 -5.021951675415039062e+00 -5.686565399169865032e-01
9.685895264148712158e+00 -4.910623550415039062e+00 -5.647350311279240032e-01
9.734357178211212158e+00 -4.799417495727539062e+00 -5.608135223388615032e-01
9.782330811023712158e+00 -4.689188003540039062e+00 -5.569377899169865032e-01
1.025065356492996216e+01 -6.181253433227539062e+00 -5.559154510497990032e-01
1.084068042039871216e+01 -6.514261245727539062e+00 -5.682445526122990032e-01
1.089024096727371216e+01 -6.378152847290039062e+00 -5.636058807372990032e-01
1.093961840867996216e+01 -6.242410659790039062e+00 -5.589977264404240032e-01
1.098850756883621216e+01 -6.108133316040039062e+00 -5.544353485107365032e-01
1.101987963914871216e+01 -5.961282730102539062e+00 -5.493999481201115032e-01
1.103965502977371216e+01 -5.806619644165039062e+00 -5.440593719482365032e-01
1.105003100633621216e+01 -5.647439956665039062e+00 -5.388866424560490032e-01
1.029746752977371216e+01 -6.224100112915039062e+00 -4.971996307372990032e-01
1.108390551805496216e+01 -6.723978042602539062e+00 -5.117565155029240032e-01
1.203367358446121216e+01 -7.336160659790039062e+00 -5.296245574951115032e-01
1.254746752977371216e+01 -7.561746597290039062e+00 -5.359264373779240032e-01
1.258830004930496216e+01 -7.394388198852539062e+00 -5.305400848388615032e-01
1.262882739305496216e+01 -7.228738784790039062e+00 -5.251995086669865032e-01
1.266904956102371216e+01 -7.063943862915039062e+00 -5.198894500732365032e-01
1.270872241258621216e+01 -6.901346206665039062e+00 -5.146556854247990032e-01
1.034446460008621216e+01 -6.267068862915039062e+00 -4.382244110107365032e-01
1.118320971727371216e+01 -6.810892105102539062e+00 -4.491954803466740032e-01
1.210221606492996216e+01 -7.395853042602539062e+00 -4.612499237060490032e-01
1.324363452196121216e+01 -8.134622573852539062e+00 -4.765850067138615032e-01
1.460374194383621216e+01 -9.015115737915039062e+00 -4.948497772216740032e-01
1.469645434617996216e+01 -8.857645034790039062e+00 -4.898143768310490032e-01
1.468461352586746216e+01 -8.619607925415039062e+00 -4.829936981201115032e-01
1.465916186571121216e+01 -8.375955581665039062e+00 -4.765239715576115032e-01
1.163157397508621216e+01 -7.390115737915039062e+00 -3.954692840576115032e-01
1.183140307664871216e+01 -7.366312026977539062e+00 -3.930889129638615032e-01
1.217118579149246216e+01 -7.456033706665039062e+00 -3.924175262451115032e-01
1.332633715867996216e+01 -8.204935073852539062e+00 -4.016948699951115032e-01
1.471275073289871216e+01 -9.105447769165039062e+00 -4.128643035888615032e-01
1.654838305711746216e+01 -1.031760597229003906e+01 -4.281841278076115032e-01
1.768089038133621216e+01 -1.093186378479003906e+01 -4.341503143310490032e-01
1.764408618211746216e+01 -1.063254737854003906e+01 -4.266887664794865032e-01
1.820621997117996216e+01 -1.311972999572753906e+01 -3.783489227294865032e-01
2.003825122117996216e+01 -1.437534523010253906e+01 -3.846660614013615032e-01
2.074870043992996216e+01 -1.463511085510253906e+01 -3.812175750732365032e-01
1.493955737352371216e+01 -9.530130386352539062e+00 -3.353954315185490032e-01
1.524070483446121216e+01 -9.532327651977539062e+00 -3.317028045654240032e-01
1.669968920946121216e+01 -1.043979835510253906e+01 -3.345561981201115032e-01
2.066074877977371216e+01 -1.323276710510253906e+01 -3.505474090576115032e-01
2.358891040086746216e+01 -1.512571144104003906e+01 -3.580089569091740032e-01
1.821861010789871216e+01 -1.313425636291503906e+01 -2.697978973388615032e-01
1.987351733446121216e+01 -1.423874855041503906e+01 -2.656932830810490032e-01
2.077769213914871216e+01 -1.466343116760253906e+01 -2.598339080810490032e-01
2.115775805711746216e+01 -1.463218116760253906e+01 -2.531200408935490032e-01
2.884153491258621216e+01 -2.046384620666503906e+01 -2.482677459716740032e-01
2.111045581102371216e+01 -1.391538429260253906e+01 -2.393871307372990032e-01
2.192912036180496216e+01 -1.421470069885253906e+01 -2.323680877685490032e-01
3.473142749071121216e+01 -2.354770851135253906e+01 -2.165294647216740032e-01
1.910520678758621216e+01 -1.391074562072753906e+01 -1.577678680419865032e-01
1.973283129930496216e+01 -1.412253761291503906e+01 -1.491771697997990032e-01
2.080674487352371216e+01 -1.469187355041503906e+01 -1.380535125732365032e-01
2.119090014696121216e+01 -1.466355323791503906e+01 -1.300579071044865032e-01
3.584892016649246216e+01 -2.552524757385253906e+01 -3.189811706542400316e-02
3.432133227586746216e+01 -2.377805519104003906e+01 -3.147087097167400316e-02
3.618235522508621216e+01 -2.465049171447753906e+01 -1.023063659667400316e-02
1.868021899461746216e+01 -1.354416847229003906e+01 -4.813346862792400316e-02
1.960001879930496216e+01 -1.401304054260253906e+01 -3.362236022948650316e-02
2.005283862352371216e+01 -1.406479835510253906e+01 -2.390251159667400316e-02
2.122434741258621216e+01 -1.469504737854003906e+01 -5.912399291986503158e-03
6.040580493211746216e+01 -4.584995460510253906e+01 4.505542755127009968e-01
3.564652758836746216e+01 -2.537265968322753906e+01 1.735004425048884968e-01
3.412833911180496216e+01 -2.363559913635253906e+01 1.634449005127009968e-01
3.428306323289871216e+01 -2.322153663635253906e+01 1.729969024658259968e-01
1.835545092821121216e+01 -1.326474952697753906e+01 5.742683410645099684e-02
1.953605395555496216e+01 -1.396238136291503906e+01 8.087959289551349684e-02
1.992405444383621216e+01 -1.396091651916503906e+01 9.125556945801349684e-02
2.129649096727371216e+01 -1.475840187072753906e+01 1.186756134033259968e-01
3.560264331102371216e+01 -2.534482765197753906e+01 3.782581329345759968e-01
3.412577563524246216e+01 -2.363987159729003906e+01 3.585132598877009968e-01
3.427409106492996216e+01 -2.322092628479003906e+01 3.673023223877009968e-01
1.835661059617996216e+01 -1.326963233947753906e+01 1.670612335205134968e-01
1.947465258836746216e+01 -1.391379737854003906e+01 1.953357696533259968e-01
1.985728198289871216e+01 -1.390891456604003906e+01 2.063220977783259968e-01
2.138926440477371216e+01 -1.483872413635253906e+01 2.446216583252009968e-01
3.583848315477371216e+01 -2.553733253479003906e+01 5.891193389892634968e-01
3.414964038133621216e+01 -2.366465187072753906e+01 5.552753448486384968e-01
3.432432299852371216e+01 -2.326523780822753906e+01 5.639881134033259968e-01
1.837583667039871216e+01 -1.329014015197753906e+01 2.766651153564509968e-01
1.941392260789871216e+01 -1.386582374572753906e+01 3.084644317627009968e-01
1.979063159227371216e+01 -1.385691261291503906e+01 3.212512969970759968e-01
2.166685229539871216e+01 -1.507077980041503906e+01 3.777545928955134968e-01
3.574473315477371216e+01 -2.547019386291503906e+01 7.942279815673884968e-01
3.437815600633621216e+01 -2.384739112854003906e+01 7.573169708252009968e-01
3.439188891649246216e+01 -2.332248878479003906e+01 7.607959747314509968e-01
1.858701831102371216e+01 -1.347825050354003906e+01 3.938220977783259968e-01
1.935361987352371216e+01 -1.381809425354003906e+01 4.209217071533259968e-01
1.972471362352371216e+01 -1.380564308166503906e+01 4.348224639892634968e-01
2.102122241258621216e+01 -1.454477882385253906e+01 4.811786651611384968e-01
3.468137866258621216e+01 -2.408799171447753906e+01 9.646991729736384968e-01
3.626987963914871216e+01 -2.474961280822753906e+01 1.023292922973638497e+00
1.845188647508621216e+01 -1.336411476135253906e+01 4.987873077392634968e-01
1.929331713914871216e+01 -1.377048683166503906e+01 5.332721710205134968e-01
1.966160327196121216e+01 -1.375669288635253906e+01 5.483631134033259968e-01
2.031962329149246216e+01 -1.397251319885253906e+01 5.753253936767634968e-01
2.512528735399246216e+01 -1.751133155822753906e+01 7.724079132080134968e-01
3.504099780321121216e+01 -2.382627296447753906e+01 1.178978347778325997e+00
1.839365893602371216e+01 -1.331699562072753906e+01 6.063465118408259968e-01
1.928873950242996216e+01 -1.377048683166503906e+01 6.469501495361384968e-01
1.967149096727371216e+01 -1.376877784729003906e+01 6.639789581298884968e-01
2.030637866258621216e+01 -1.396555519104003906e+01 6.928333282470759968e-01
2.485941821336746216e+01 -1.730210304260253906e+01 9.054187774658259968e-01
1.833610278367996216e+01 -1.327060890197753906e+01 7.126697540283259968e-01
1.917234545946121216e+01 -1.367478370666503906e+01 7.552570343017634968e-01
1.979307299852371216e+01 -1.387473487854003906e+01 7.862934112548884968e-01
2.029850512742996216e+01 -1.396311378479003906e+01 8.111194610595759968e-01
2.478959399461746216e+01 -1.725071144104003906e+01 1.046440505981450997e+00
1.827860766649246216e+01 -1.322410011291503906e+01 8.189014434814509968e-01
1.896104174852371216e+01 -1.349778175354003906e+01 8.565753936767634968e-01
1.990842944383621216e+01 -1.397544288635253906e+01 9.090961456298884968e-01
2.041642504930496216e+01 -1.406394386291503906e+01 9.361194610595759968e-01
2.472147876024246216e+01 -1.720054054260253906e+01 1.186012649536138497e+00
1.822062426805496216e+01 -1.317722511291503906e+01 9.244312286377009968e-01
1.881107836961746216e+01 -1.337314796447753906e+01 9.587635040283259968e-01
2.001847583055496216e+01 -1.407163429260253906e+01 1.033607864379888497e+00
2.093180590867996216e+01 -1.449167823791503906e+01 1.088966751098638497e+00
2.476395922899246216e+01 -1.723948097229003906e+01 1.332741165161138497e+00
8.261212646961212158e+00 -3.538431167602539062e+00 -5.957714080810490032e-01
8.308148682117462158e+00 -3.451761245727539062e+00 -5.926586151122990032e-01
8.351666748523712158e+00 -3.362894058227539062e+00 -5.896526336669865032e-01
8.395123779773712158e+00 -3.273904800415039062e+00 -5.866313934326115032e-01
8.438336670398712158e+00 -3.185525894165039062e+00 -5.836406707763615032e-01
8.481366455554962158e+00 -3.097513198852539062e+00 -5.806499481201115032e-01
8.513165771961212158e+00 -3.001932144165039062e+00 -5.772014617919865032e-01
8.529401123523712158e+00 -2.897317886352539062e+00 -5.733867645263615032e-01
8.943707764148712158e+00 -4.054544448852539062e+00 -5.776439666747990032e-01
8.989911377429962158e+00 -3.956766128540039062e+00 -5.743938446044865032e-01
9.039960205554962158e+00 -3.862161636352539062e+00 -5.710369110107365032e-01
9.086041748523712158e+00 -3.764627456665039062e+00 -5.678020477294865032e-01
9.131818115711212158e+00 -3.667825698852539062e+00 -5.645671844482365032e-01
9.177411377429962158e+00 -3.571268081665039062e+00 -5.613628387451115032e-01
9.218976318836212158e+00 -3.472146987915039062e+00 -5.582653045654240032e-01
9.264264404773712158e+00 -3.376321792602539062e+00 -5.550762176513615032e-01
9.782391846179962158e+00 -4.688699722290039062e+00 -5.569225311279240032e-01
9.826031982898712158e+00 -4.576028823852539062e+00 -5.531993865966740032e-01
9.869489014148712158e+00 -4.463968276977539062e+00 -5.495067596435490032e-01
9.912885010242462158e+00 -4.351907730102539062e+00 -5.457988739013615032e-01
9.955914795398712158e+00 -4.240945816040039062e+00 -5.421367645263615032e-01
1.000291186571121216e+01 -4.133279800415039062e+00 -5.386272430419865032e-01
1.005100756883621216e+01 -4.026468276977539062e+00 -5.351482391357365032e-01
1.012443286180496216e+01 -3.937112808227539062e+00 -5.324626922607365032e-01
1.104966479539871216e+01 -5.646585464477539062e+00 -5.388561248779240032e-01
1.107047778367996216e+01 -5.497415542602539062e+00 -5.336681365966740032e-01
1.108195239305496216e+01 -5.343118667602539062e+00 -5.286022186279240032e-01
1.109330493211746216e+01 -5.190042495727539062e+00 -5.235820770263615032e-01
1.110740405321121216e+01 -5.041360855102539062e+00 -5.187297821044865032e-01
1.114652758836746216e+01 -4.911478042602539062e+00 -5.145488739013615032e-01
1.116544848680496216e+01 -4.768655776977539062e+00 -5.098949432372990032e-01
1.116788989305496216e+01 -4.617288589477539062e+00 -5.052257537841740032e-01
1.270860034227371216e+01 -6.900491714477539062e+00 -5.146251678466740032e-01
1.274174243211746216e+01 -6.734598159790039062e+00 -5.095592498779240032e-01
1.277451831102371216e+01 -6.570169448852539062e+00 -5.045391082763615032e-01
1.280717211961746216e+01 -6.406717300415039062e+00 -4.995494842529240032e-01
1.283939868211746216e+01 -6.245096206665039062e+00 -4.946208953857365032e-01
1.287138110399246216e+01 -6.084939956665039062e+00 -4.897380828857365032e-01
1.290318042039871216e+01 -5.925760269165039062e+00 -4.848705291747990032e-01
1.293467456102371216e+01 -5.768289566040039062e+00 -4.800640106201115032e-01
1.465842944383621216e+01 -8.374612808227539062e+00 -4.764934539794865032e-01
1.465281420946121216e+01 -8.149881362915039062e+00 -4.698406219482365032e-01
1.463371020555496216e+01 -7.918680191040039062e+00 -4.635082244872990032e-01
1.461497241258621216e+01 -7.690530776977539062e+00 -4.572673797607365032e-01
1.459660083055496216e+01 -7.466897964477539062e+00 -4.511333465576115032e-01
1.457829028367996216e+01 -7.246805191040039062e+00 -4.451213836669865032e-01
1.456583911180496216e+01 -7.033304214477539062e+00 -4.392467498779240032e-01
1.458103686571121216e+01 -6.841653823852539062e+00 -4.342723846435490032e-01
1.764317065477371216e+01 -1.063083839416503906e+01 -4.266582489013615032e-01
1.733976489305496216e+01 -1.013950538635253906e+01 -4.167858123779240032e-01
1.728721362352371216e+01 -9.842874526977539062e+00 -4.097667694091740032e-01
1.731071215867996216e+01 -9.604593276977539062e+00 -4.035869598388615032e-01
1.733384448289871216e+01 -9.369729995727539062e+00 -3.975139617919865032e-01
1.735673266649246216e+01 -9.137552261352539062e+00 -3.914867401122990032e-01
1.731773120164871216e+01 -8.865945816040039062e+00 -3.849864959716740032e-01
1.730222827196121216e+01 -8.615091323852539062e+00 -3.788219451904240032e-01
2.358463793992996216e+01 -1.512119483947753906e+01 -3.579631805419865032e-01
2.319907885789871216e+01 -1.447690773010253906e+01 -3.480754852294865032e-01
2.274693042039871216e+01 -1.380112648010253906e+01 -3.375926971435490032e-01
2.252207690477371216e+01 -1.330393409729003906e+01 -3.291088104247990032e-01
2.245658618211746216e+01 -1.293003273010253906e+01 -3.214946746826115032e-01
2.223759204149246216e+01 -1.245823097229003906e+01 -3.134990692138615032e-01
2.194028979539871216e+01 -1.194407081604003906e+01 -3.061290740966740032e-01
2.129154711961746216e+01 -1.121494483947753906e+01 -2.974620819091740032e-01
3.472001391649246216e+01 -2.353733253479003906e+01 -2.164989471435490032e-01
3.358433276414871216e+01 -2.216501808166503906e+01 -2.070995330810490032e-01
3.292838793992996216e+01 -2.118271827697753906e+01 -1.978984832763615032e-01
3.182859545946121216e+01 -1.991062355041503906e+01 -1.899333953857365032e-01
3.131046801805496216e+01 -1.908384132385253906e+01 -1.816631317138615032e-01
3.046153002977371216e+01 -1.805381202697753906e+01 -1.745525360107365032e-01
2.997135668992996216e+01 -1.729184913635253906e+01 -1.671215057372990032e-01
3.000242358446121216e+01 -1.689072608947753906e+01 -1.586833953857365032e-01
3.616776782274246216e+01 -2.463755226135253906e+01 -1.029167175292400316e-02
3.539133960008621216e+01 -2.350840187072753906e+01 -5.958175659174003158e-03
5.656614428758621216e+01 -3.747117042541503906e+01 1.655200958252009968e-01
5.387046557664871216e+01 -3.476340675354003906e+01 1.596912384033259968e-01
4.777262622117996216e+01 -2.983249855041503906e+01 1.259540557861384968e-01
5.506364184617996216e+01 -3.399827003479003906e+01 1.960376739502009968e-01
5.888187915086746216e+01 -3.570591163635253906e+01 2.408832550048884968e-01
3.428385668992996216e+01 -2.322031593322753906e+01 1.730274200439509968e-01
3.455607348680496216e+01 -2.289634132385253906e+01 1.840595245361384968e-01
3.490220385789871216e+01 -2.262522315979003906e+01 1.960376739502009968e-01
5.826304370164871216e+01 -3.868552589416503906e+01 5.046619415283259968e-01
5.851969653367996216e+01 -3.800364112854003906e+01 5.205310821533259968e-01
4.776792651414871216e+01 -2.983725929260253906e+01 3.897632598877009968e-01
5.470945483446121216e+01 -3.377158546447753906e+01 4.936450958252009968e-01
5.623435717821121216e+01 -3.399057960510253906e+01 5.258563995361384968e-01
3.427488452196121216e+01 -2.321970558166503906e+01 3.673328399658259968e-01
3.455173999071121216e+01 -2.289927101135253906e+01 3.786243438720759968e-01
3.491257983446121216e+01 -2.263877296447753906e+01 3.914569854736384968e-01
5.024754077196121216e+01 -3.300461769104003906e+01 6.814960479736384968e-01
4.889426928758621216e+01 -3.132273292541503906e+01 6.650318145752009968e-01
4.764744311571121216e+01 -2.976328468322753906e+01 6.499866485595759968e-01
4.636765795946121216e+01 -2.822544288635253906e+01 6.337970733642634968e-01
4.516111499071121216e+01 -2.678354835510253906e+01 6.184314727783259968e-01
3.432548266649246216e+01 -2.326426124572753906e+01 5.640338897705134968e-01
3.463145190477371216e+01 -2.296457862854003906e+01 5.762256622314509968e-01
3.496836596727371216e+01 -2.268540382385253906e+01 5.881122589111384968e-01
5.666050463914871216e+01 -3.756760597229003906e+01 1.116447830200200997e+00
5.661869555711746216e+01 -3.670188331604003906e+01 1.123192214965825997e+00
5.477085620164871216e+01 -3.461960792541503906e+01 1.085747146606450997e+00
5.494712573289871216e+01 -3.394797706604003906e+01 1.098991775512700997e+00
5.630241137742996216e+01 -3.405320167541503906e+01 1.139686965942388497e+00
3.439274340867996216e+01 -2.332139015197753906e+01 7.608264923095759968e-01
3.467936450242996216e+01 -2.300620460510253906e+01 7.728046417236384968e-01
3.502561694383621216e+01 -2.273313331604003906e+01 7.865528106689509968e-01
5.767466479539871216e+01 -3.829783058166503906e+01 1.464699172973638497e+00
5.702622729539871216e+01 -3.699497413635253906e+01 1.450951004028325997e+00
5.733622485399246216e+01 -3.637522315979003906e+01 1.465752029418950997e+00
5.543522387742996216e+01 -3.428220558166503906e+01 1.414039993286138497e+00
5.531767016649246216e+01 -3.342026710510253906e+01 1.415703201293950997e+00
3.627207690477371216e+01 -2.474936866760253906e+01 1.023369216918950997e+00
3.588371020555496216e+01 -2.390488624572753906e+01 1.010780715942388497e+00
3.527384692430496216e+01 -2.291929054260253906e+01 9.913867950439509968e-01
5.693186694383621216e+01 -3.778000831604003906e+01 1.760506057739263497e+00
5.769254809617996216e+01 -3.746811866760253906e+01 1.790840530395513497e+00
5.711069995164871216e+01 -3.623130226135253906e+01 1.773521804809575997e+00
5.823875170946121216e+01 -3.533420753479003906e+01 1.821937942504888497e+00
3.503983813524246216e+01 -2.382346534729003906e+01 1.178932571411138497e+00
3.526426440477371216e+01 -2.345212745666503906e+01 1.188850784301763497e+00
5.668229418992996216e+01 -3.846494483947753906e+01 2.068840408325200997e+00
5.869761401414871216e+01 -3.904490089416503906e+01 2.152748489379888497e+00
5.572550708055496216e+01 -3.610935401916503906e+01 2.031776809692388497e+00
5.715403491258621216e+01 -3.627048683166503906e+01 2.091591262817388497e+00
5.974912768602371216e+01 -3.632883644104003906e+01 2.200569534301763497e+00
5.629478198289871216e+01 -3.904941749572753906e+01 2.370781326293950997e+00
5.678648120164871216e+01 -3.855063819885253906e+01 2.392631912231450997e+00
5.751127368211746216e+01 -3.821177101135253906e+01 2.425377273559575997e+00
5.558500415086746216e+01 -3.602097511291503906e+01 2.334343338012700997e+00
5.645310717821121216e+01 -3.580246925354003906e+01 2.373802566528325997e+00
5.825925952196121216e+01 -3.619248390197753906e+01 2.456993484497075997e+00
5.914445239305496216e+01 -3.594407081604003906e+01 2.498909378051763497e+00
5.763364917039871216e+01 -3.917588233947753906e+01 2.758354568481450997e+00
5.741691333055496216e+01 -3.815464210510253906e+01 2.743584060668950997e+00
5.549955493211746216e+01 -3.597104835510253906e+01 2.639946365356450997e+00
5.623454028367996216e+01 -3.566294288635253906e+01 2.675148391723638497e+00
5.762449389696121216e+01 -3.577878761291503906e+01 2.744484329223638497e+00
5.728806811571121216e+01 -3.474204444885253906e+01 2.723717117309575997e+00
5.734702807664871216e+01 -3.897776222229003906e+01 3.066200637817388497e+00
5.737431079149246216e+01 -3.813425636291503906e+01 3.062096023559575997e+00
5.539829760789871216e+01 -3.591001319885253906e+01 2.942100906372075997e+00
5.705228930711746216e+01 -3.622983741760253906e+01 3.032387161254888497e+00
5.760789233446121216e+01 -3.577732276916503906e+01 3.060707473754888497e+00
5.728086596727371216e+01 -3.474668312072753906e+01 3.036461257934575997e+00
5.834513598680496216e+01 -3.971323585510253906e+01 3.454536819458013497e+00
5.635673266649246216e+01 -3.658701515197753906e+01 3.312141799926763497e+00
5.733695727586746216e+01 -3.643345069885253906e+01 3.366691970825200997e+00
5.681907397508621216e+01 -3.526035499572753906e+01 3.326286697387700997e+00
5.925382739305496216e+01 -3.604429054260253906e+01 3.474251174926763497e+00
8.529279053211212158e+00 -2.896829605102539062e+00 -5.733562469482365032e-01
8.548444092273712158e+00 -2.795145034790039062e+00 -5.695262908935490032e-01
8.563397705554962158e+00 -2.691629409790039062e+00 -5.657878875732365032e-01
8.586468994617462158e+00 -2.593606948852539062e+00 -5.624004364013615032e-01
8.617169678211212158e+00 -2.501199722290039062e+00 -5.593486785888615032e-01
8.647748291492462158e+00 -2.409280776977539062e+00 -5.563121795654240032e-01
8.678326904773712158e+00 -2.317483901977539062e+00 -5.532756805419865032e-01
8.704449951648712158e+00 -2.223978042602539062e+00 -5.503307342529240032e-01
9.264325439929962158e+00 -3.375955581665039062e+00 -5.550609588622990032e-01
9.293744385242462158e+00 -3.270364761352539062e+00 -5.516124725341740032e-01
9.322125732898712158e+00 -3.164896011352539062e+00 -5.479045867919865032e-01
9.346539795398712158e+00 -3.057229995727539062e+00 -5.443187713622990032e-01
9.421368896961212158e+00 -2.980813980102539062e+00 -5.424724578857365032e-01
9.498456299304962158e+00 -2.905008316040039062e+00 -5.406719207763615032e-01
9.573346436023712158e+00 -2.827127456665039062e+00 -5.390392303466740032e-01
9.651166260242462158e+00 -2.750589370727539062e+00 -5.372234344482365032e-01
1.012467700242996216e+01 -3.936746597290039062e+00 -5.324474334716740032e-01
1.019590502977371216e+01 -3.845682144165039062e+00 -5.299755096435490032e-01
1.024430590867996216e+01 -3.740091323852539062e+00 -5.268169403076115032e-01
1.029282885789871216e+01 -3.634378433227539062e+00 -5.236583709716740032e-01
1.034104663133621216e+01 -3.529275894165039062e+00 -5.205150604247990032e-01
1.038920336961746216e+01 -3.424417495727539062e+00 -5.173717498779240032e-01
1.043736010789871216e+01 -3.319314956665039062e+00 -5.142436981201115032e-01
1.048527270555496216e+01 -3.214944839477539062e+00 -5.111156463622990032e-01
1.116788989305496216e+01 -4.616678237915039062e+00 -5.051952362060490032e-01
1.118339282274246216e+01 -4.475442886352539062e+00 -5.005413055419865032e-01
1.118742114305496216e+01 -4.328592300415039062e+00 -4.959484100341740032e-01
1.119138842821121216e+01 -4.182718276977539062e+00 -4.914165496826115032e-01
1.120689135789871216e+01 -4.045999526977539062e+00 -4.872051239013615032e-01
1.131986743211746216e+01 -3.967142105102539062e+00 -4.852214813232365032e-01
1.143424731492996216e+01 -3.887430191040039062e+00 -4.832073211669865032e-01
1.154288989305496216e+01 -3.803689956665039062e+00 -4.813610076904240032e-01
1.293461352586746216e+01 -5.767679214477539062e+00 -4.800487518310490032e-01
1.295963793992996216e+01 -5.607645034790039062e+00 -4.754253387451115032e-01
1.298447924852371216e+01 -5.448953628540039062e+00 -4.708477020263615032e-01
1.300578051805496216e+01 -5.288919448852539062e+00 -4.662242889404240032e-01
1.302641040086746216e+01 -5.130472183227539062e+00 -4.616466522216740032e-01
1.312309008836746216e+01 -5.017801284790039062e+00 -4.584270477294865032e-01
1.326817065477371216e+01 -4.931497573852539062e+00 -4.559856414794865032e-01
1.341428881883621216e+01 -4.844583511352539062e+00 -4.535137176513615032e-01
1.458097583055496216e+01 -6.840921401977539062e+00 -4.342571258544865032e-01
1.461185961961746216e+01 -6.661478042602539062e+00 -4.289623260497990032e-01
1.463132983446121216e+01 -6.476419448852539062e+00 -4.239879608154240032e-01
1.465067797899246216e+01 -6.292337417602539062e+00 -4.190288543701115032e-01
1.466978198289871216e+01 -6.110818862915039062e+00 -4.141460418701115032e-01
1.476994067430496216e+01 -5.978128433227539062e+00 -4.102550506591740032e-01
1.490665942430496216e+01 -5.865213394165039062e+00 -4.067607879638615032e-01
1.506834155321121216e+01 -5.765359878540039062e+00 -4.039379119872990032e-01
1.730198413133621216e+01 -8.614114761352539062e+00 -3.787914276122990032e-01
1.731162768602371216e+01 -8.382669448852539062e+00 -3.731304168701115032e-01
1.732114917039871216e+01 -8.153909683227539062e+00 -3.675304412841740032e-01
1.735844165086746216e+01 -7.943704605102539062e+00 -3.621593475341740032e-01
1.741544848680496216e+01 -7.747903823852539062e+00 -3.570018768310490032e-01
1.747215014696121216e+01 -7.553079605102539062e+00 -3.518596649169865032e-01
1.773850756883621216e+01 -7.478006362915039062e+00 -3.480297088622990032e-01
1.806901293992996216e+01 -7.434915542602539062e+00 -3.445049285888615032e-01
2.128678637742996216e+01 -1.121079444885253906e+01 -2.974315643310490032e-01
2.130216723680496216e+01 -1.092698097229003906e+01 -2.910686492919865032e-01
2.150559741258621216e+01 -1.076340675354003906e+01 -2.845531463622990032e-01
2.169749194383621216e+01 -1.058970069885253906e+01 -2.785717010497990032e-01
2.188987475633621216e+01 -1.041562843322753906e+01 -2.725597381591740032e-01
2.212937670946121216e+01 -1.026719093322753906e+01 -2.665782928466740032e-01
2.264646655321121216e+01 -1.027280616760253906e+01 -2.613750457763615032e-01
2.326664477586746216e+01 -1.032639503479003906e+01 -2.554393768310490032e-01
3.000352221727371216e+01 -1.688999366760253906e+01 -1.586528778076115032e-01
3.181327563524246216e+01 -1.762644386291503906e+01 -1.450572967529240032e-01
5.671647387742996216e+01 -3.270823097229003906e+01 -5.400810241698650316e-02
5.739884692430496216e+01 -3.234800148010253906e+01 -3.647575378417400316e-02
5.523539477586746216e+01 -3.028562355041503906e+01 -2.977714538573650316e-02
5.889603930711746216e+01 -3.571225929260253906e+01 2.410511016845759968e-01
4.399705249071121216e+01 -2.539512062072753906e+01 1.287769317627009968e-01
5.716489917039871216e+01 -3.299656105041503906e+01 2.538837432861384968e-01
5.463206225633621216e+01 -3.067038917541503906e+01 2.445606231689509968e-01
5.556669360399246216e+01 -3.049131202697753906e+01 2.657093048095759968e-01
5.623417407274246216e+01 -3.398764991760253906e+01 5.258869171142634968e-01
4.401005297899246216e+01 -2.541037940979003906e+01 3.670124053955134968e-01
5.919389086961746216e+01 -3.427060890197753906e+01 5.907062530517634968e-01
5.457700854539871216e+01 -3.064524269104003906e+01 5.363544464111384968e-01
4.515159350633621216e+01 -2.677512550354003906e+01 6.182788848877009968e-01
4.393644458055496216e+01 -2.537046241760253906e+01 6.024860382080134968e-01
4.274802905321121216e+01 -2.402390480041503906e+01 5.867084503173884968e-01
4.159885913133621216e+01 -2.273923683166503906e+01 5.712360382080134968e-01
4.049265795946121216e+01 -2.152048683166503906e+01 5.561298370361384968e-01
3.947025805711746216e+01 -2.038681983947753906e+01 5.422595977783259968e-01
3.848215991258621216e+01 -1.930454444885253906e+01 5.286792755127009968e-01
3.751633960008621216e+01 -1.826841163635253906e+01 5.151447296142634968e-01
5.631089526414871216e+01 -3.405600929260253906e+01 1.139915847778325997e+00
6.179148608446121216e+01 -3.676352882385253906e+01 1.283897781372075997e+00
4.069138842821121216e+01 -2.164512062072753906e+01 7.750629425048884968e-01
3.960490161180496216e+01 -2.047117042541503906e+01 7.528919219970759968e-01
3.853764086961746216e+01 -1.934177589416503906e+01 7.319568634033259968e-01
3.750010424852371216e+01 -1.826474952697753906e+01 7.103046417236384968e-01
5.531437426805496216e+01 -3.341538429260253906e+01 1.415611648559575997e+00
5.985184985399246216e+01 -3.553611183166503906e+01 1.558876419067388497e+00
6.133530932664871216e+01 -3.479392433166503906e+01 1.616569900512700997e+00
5.824387866258621216e+01 -3.533469581604003906e+01 1.822136306762700997e+00
5.785587817430496216e+01 -3.427219581604003906e+01 1.810814285278325997e+00
5.746177417039871216e+01 -3.322666358947753906e+01 1.800865554809575997e+00
6.104356127977371216e+01 -3.462534523010253906e+01 1.933433914184575997e+00
5.975376635789871216e+01 -3.632895851135253906e+01 2.200767898559575997e+00
5.693156176805496216e+01 -3.290476417541503906e+01 2.089088821411138497e+00
5.881590014696121216e+01 -3.327500343322753906e+01 2.169060134887700997e+00
5.914457446336746216e+01 -3.594126319885253906e+01 2.498924636840825997e+00
5.680729418992996216e+01 -3.362131690979003906e+01 2.388573074340825997e+00
5.669456225633621216e+01 -3.276572608947753906e+01 2.383675003051763497e+00
5.771525317430496216e+01 -3.261191749572753906e+01 2.431633377075200997e+00
5.750834399461746216e+01 -3.170957374572753906e+01 2.422340774536138497e+00
5.786948901414871216e+01 -3.115354347229003906e+01 2.439537429809575997e+00
5.729093676805496216e+01 -3.474118995666503906e+01 2.723869705200200997e+00
5.675950366258621216e+01 -3.359995460510253906e+01 2.694618606567388497e+00
5.647770434617996216e+01 -3.263913917541503906e+01 2.678444290161138497e+00
5.717802172899246216e+01 -3.229282569885253906e+01 2.713402175903325997e+00
5.769859057664871216e+01 -3.183188819885253906e+01 2.738991165161138497e+00
5.794975024461746216e+01 -3.120908546447753906e+01 2.750572586059575997e+00
5.728379565477371216e+01 -3.474582862854003906e+01 3.036613845825200997e+00
5.656040698289871216e+01 -3.348179054260253906e+01 2.991508865356450997e+00
5.651145678758621216e+01 -3.266904640197753906e+01 2.983696365356450997e+00
5.747471362352371216e+01 -3.248288917541503906e+01 3.035698318481450997e+00
5.752409106492996216e+01 -3.173642921447753906e+01 3.035194778442388497e+00
5.816056567430496216e+01 -3.134079933166503906e+01 3.068367385864263497e+00
5.925492602586746216e+01 -3.604209327697753906e+01 3.474281692504888497e+00
5.651316577196121216e+01 -3.346067237854003906e+01 3.294227981567388497e+00
5.643485766649246216e+01 -3.263010597229003906e+01 3.284080886840825997e+00
5.691367846727371216e+01 -3.214890480041503906e+01 3.308998489379888497e+00
5.859055835008621216e+01 -3.238242530822753906e+01 3.409080886840825997e+00
8.704449951648712158e+00 -2.223611831665039062e+00 -5.503154754638615032e-01
8.733685791492462158e+00 -2.132425308227539062e+00 -5.473400115966740032e-01
8.768475830554962158e+00 -2.044412612915039062e+00 -5.448070526122990032e-01
8.859418213367462158e+00 -1.985208511352539062e+00 -5.442882537841740032e-01
8.951093018054962158e+00 -1.925638198852539062e+00 -5.437694549560490032e-01
9.077863037586212158e+00 -1.882059097290039062e+00 -5.444408416747990032e-01
9.226910889148712158e+00 -1.846658706665039062e+00 -5.457836151122990032e-01
9.374371826648712158e+00 -1.808450698852539062e+00 -5.472484588622990032e-01
9.651532471179962158e+00 -2.750345230102539062e+00 -5.372234344482365032e-01
9.726666748523712158e+00 -2.671731948852539062e+00 -5.355907440185490032e-01
9.805096924304962158e+00 -2.594095230102539062e+00 -5.337749481201115032e-01
9.881390869617462158e+00 -2.514261245727539062e+00 -5.321117401122990032e-01
9.957806885242462158e+00 -2.434061050415039062e+00 -5.304485321044865032e-01
1.006199389696121216e+01 -2.366922378540039062e+00 -5.295787811279240032e-01
1.017777758836746216e+01 -2.303445816040039062e+00 -5.292736053466740032e-01
1.031852465867996216e+01 -2.250467300415039062e+00 -5.293956756591740032e-01
1.048539477586746216e+01 -3.214578628540039062e+00 -5.111003875732365032e-01
1.052384692430496216e+01 -3.105203628540039062e+00 -5.080181121826115032e-01
1.061179858446121216e+01 -3.022439956665039062e+00 -5.062175750732365032e-01
1.074558764696121216e+01 -2.962015151977539062e+00 -5.055767059326115032e-01
1.088889819383621216e+01 -2.904642105102539062e+00 -5.051036834716740032e-01
1.107298022508621216e+01 -2.865213394165039062e+00 -5.055919647216740032e-01
1.128159838914871216e+01 -2.833841323852539062e+00 -5.065532684326115032e-01
1.149558764696121216e+01 -2.801614761352539062e+00 -5.075450897216740032e-01
1.154356127977371216e+01 -3.803567886352539062e+00 -4.813610076904240032e-01
1.166465502977371216e+01 -3.725320816040039062e+00 -4.793773651122990032e-01
1.189805346727371216e+01 -3.704935073852539062e+00 -4.800029754638615032e-01
1.211289721727371216e+01 -3.669900894165039062e+00 -4.801097869872990032e-01
1.231687670946121216e+01 -3.626077651977539062e+00 -4.798961639404240032e-01
1.252598315477371216e+01 -3.581155776977539062e+00 -4.796672821044865032e-01
1.274107104539871216e+01 -3.534891128540039062e+00 -4.794384002685490032e-01
1.295261889696121216e+01 -3.483865737915039062e+00 -4.793926239013615032e-01
1.341514331102371216e+01 -4.844461441040039062e+00 -4.535137176513615032e-01
1.355851489305496216e+01 -4.754129409790039062e+00 -4.512096405029240032e-01
1.370353442430496216e+01 -4.662698745727539062e+00 -4.488750457763615032e-01
1.385081225633621216e+01 -4.569803237915039062e+00 -4.465099334716740032e-01
1.400364428758621216e+01 -4.478372573852539062e+00 -4.441905975341740032e-01
1.420976001024246216e+01 -4.410989761352539062e+00 -4.425884246826115032e-01
1.448905688524246216e+01 -4.374734878540039062e+00 -4.419322967529240032e-01
1.484214526414871216e+01 -4.368509292602539062e+00 -4.421764373779240032e-01
1.506962329149246216e+01 -5.765481948852539062e+00 -4.039379119872990032e-01
1.530552417039871216e+01 -5.703836441040039062e+00 -4.012828826904240032e-01
1.553422290086746216e+01 -5.634256362915039062e+00 -3.988567352294865032e-01
1.592899829149246216e+01 -5.646097183227539062e+00 -3.980022430419865032e-01
1.635996752977371216e+01 -5.668802261352539062e+00 -3.973308563232365032e-01
1.671366626024246216e+01 -5.644876480102539062e+00 -3.956829071044865032e-01
1.714347583055496216e+01 -5.649881362915039062e+00 -3.945690155029240032e-01
1.775962573289871216e+01 -5.734354019165039062e+00 -3.953624725341740032e-01
1.807432299852371216e+01 -7.437112808227539062e+00 -3.445201873779240032e-01
1.867527514696121216e+01 -7.534646987915039062e+00 -3.425670623779240032e-01
1.910392504930496216e+01 -7.527811050415039062e+00 -3.394084930419865032e-01
1.959299975633621216e+01 -7.543069839477539062e+00 -3.363414764404240032e-01
2.027659350633621216e+01 -7.647317886352539062e+00 -3.339763641357365032e-01
2.080351001024246216e+01 -7.659769058227539062e+00 -3.305736541747990032e-01
2.144639331102371216e+01 -7.716653823852539062e+00 -3.273998260497990032e-01
2.214451342821121216e+01 -7.787088394165039062e+00 -3.241344451904240032e-01
2.327091723680496216e+01 -1.032773780822753906e+01 -2.554088592529240032e-01
2.410819751024246216e+01 -1.048642921447753906e+01 -2.494884490966740032e-01
2.544852954149246216e+01 -1.089316749572753906e+01 -2.425151824951115032e-01
2.645481616258621216e+01 -1.109519386291503906e+01 -2.356029510497990032e-01
2.786662036180496216e+01 -1.148081398010253906e+01 -2.280651092529240032e-01
2.835532885789871216e+01 -1.138022804260253906e+01 -2.205120086669865032e-01
2.874119311571121216e+01 -1.122043800354003906e+01 -2.136302947997990032e-01
3.405967456102371216e+01 -1.461106300354003906e+01 -5.255851745604900316e-02
3.405558520555496216e+01 -1.461362648010253906e+01 1.201099395752009968e-01
3.405149585008621216e+01 -1.461618995666503906e+01 2.936939239502009968e-01
3.750895434617996216e+01 -1.826255226135253906e+01 5.150074005127009968e-01
3.655894213914871216e+01 -1.726572608947753906e+01 5.016101837158259968e-01
3.561759692430496216e+01 -1.630271339416503906e+01 4.880298614502009968e-01
3.467948657274246216e+01 -1.536863136291503906e+01 4.741596221923884968e-01
3.379563647508621216e+01 -1.449155616760253906e+01 4.610523223877009968e-01
3.284641772508621216e+01 -1.360862159729003906e+01 4.462360382080134968e-01
3.195554858446121216e+01 -1.277988624572753906e+01 4.323200225830134968e-01
3.099546557664871216e+01 -1.194590187072753906e+01 4.165729522705134968e-01
3.749223071336746216e+01 -1.825876808166503906e+01 7.101215362548884968e-01
3.648038989305496216e+01 -1.722825050354003906e+01 6.891407012939509968e-01
3.553434497117996216e+01 -1.626352882385253906e+01 6.685565948486384968e-01
3.460868579149246216e+01 -1.533664894104003906e+01 6.492237091064509968e-01
3.372996264696121216e+01 -1.446286964416503906e+01 6.308063507080134968e-01
3.279465991258621216e+01 -1.358750343322753906e+01 6.106189727783259968e-01
3.191428881883621216e+01 -1.276426124572753906e+01 5.924610137939509968e-01
3.096439868211746216e+01 -1.193540382385253906e+01 5.712970733642634968e-01
2.017881518602371216e+01 -3.700418472290039062e+00 2.029499053955134968e-01
2.495365649461746216e+01 -7.081766128540039062e+00 5.702594757080134968e-01
2.243211108446121216e+01 -5.294290542602539062e+00 4.874347686767634968e-01
1.998869067430496216e+01 -3.612894058227539062e+00 4.074024200439509968e-01
2.737663012742996216e+01 -8.897195816040039062e+00 1.425556182861384968e-01
1.545005542039871216e+01 -4.058628082275390625e-01 -1.798931121826115032e-01
3.305949145555496216e+01 -1.383567237854003906e+01 6.828998565673884968e-01
3.022727710008621216e+01 -1.132908058166503906e+01 5.862812042236384968e-01
2.716648608446121216e+01 -8.786111831665039062e+00 4.832538604736384968e-01
2.320115405321121216e+01 -5.855081558227539062e+00 3.528369903564509968e-01
1.875462085008621216e+01 -2.784036636352539062e+00 2.084278106689509968e-01
1.444907885789871216e+01 9.401512145996093750e-02 6.938972473145099684e-02
1.830112963914871216e+01 -1.836648941040039062e+00 4.817432403564509968e-01
8.962567627429962158e+00 -1.508890151977539062e+00 1.727348709106450997e+00
5.891339600086212158e+00 3.066616058349609375e-01 1.755653762817388497e+00
6.062787353992462158e+00 2.033901214599609375e-01 2.009788894653325997e+00
1.860624438524246216e+01 -2.631814956665039062e+00 4.107593536377009968e-01
6.043927490711212158e+00 -4.859409332275390625e-01 2.983020782470759968e-01
9.500287353992462158e+00 -1.902078628540039062e+00 1.789436721801763497e+00
8.784772217273712158e+00 -2.155984878540039062e+00 2.031547927856450997e+00
5.894452393054962158e+00 2.459926605224609375e-01 1.797706985473638497e+00
9.156049072742462158e+00 -2.382181167602539062e+00 2.331856155395513497e+00
6.142499268054962158e+00 9.828758239746093750e-02 2.071037673950200997e+00
6.510785400867462158e+00 5.210170745849609375e-01 2.076897048950200997e+00
8.290753662586212158e+00 -1.855081558227539062e+00 2.531517410278325997e+00
6.992780029773712158e+00 -4.081821441650390625e-01 2.396431350708013497e+00
6.373883545398712158e+00 6.008510589599609375e-01 2.321144485473638497e+00
9.147504150867462158e+00 -1.495828628540039062e+00 1.934013748168950997e+00
8.815778076648712158e+00 -2.698831558227539062e+00 2.229957962036138497e+00
9.455609619617462158e+00 -2.383523941040039062e+00 2.256935501098638497e+00
6.085370361804962158e+00 3.203334808349609375e-01 1.976524734497075997e+00
8.969708740711212158e+00 -2.795145034790039062e+00 2.521507644653325997e+00
8.309918701648712158e+00 -1.688821792602539062e+00 2.442116165161138497e+00
6.683820068836212158e+00 -3.525733947753906250e-02 2.286278152465825997e+00
2.843882495164871216e+01 -9.863992691040039062e+00 4.412311553955134968e-01
2.461668139696121216e+01 -6.873147964477539062e+00 3.121265411377009968e-01
2.777020752429962158e+00 5.438442230224609375e-01 -4.924736022948650316e-02
2.944135010242462158e+00 1.083639144897460938e+00 -5.281791687011150316e-02
3.363019287586212158e+00 1.468038558959960938e+00 -4.706535339354900316e-02
2.713849365711212158e+00 5.832729339599609375e-01 2.013324737548884968e-01
2.980389893054962158e+00 1.060689926147460938e+00 2.013935089111384968e-01
3.446820557117462158e+00 1.416891098022460938e+00 2.085803985595759968e-01
3.999188721179962158e+00 -2.304477691650390625e-01 5.148548126220759968e-01
9.277814209461212158e+00 -2.113382339477539062e+00 1.879417800903325997e+00
9.609235107898712158e+00 -1.590433120727539062e+00 1.881264114379888497e+00
9.232159912586212158e+00 -2.810770034790039062e+00 2.184563064575200997e+00
8.989056885242462158e+00 -1.939065933227539062e+00 2.142128372192388497e+00
6.396527588367462158e+00 3.097133636474609375e-01 1.927559280395513497e+00
8.243329346179962158e+00 -2.918924331665039062e+00 2.416618728637700997e+00
9.576764404773712158e+00 -3.024515151977539062e+00 2.497978591918950997e+00
8.768231689929962158e+00 -1.805887222290039062e+00 2.408729934692388497e+00
6.057172119617462158e+00 5.102748870849609375e-01 2.169243240356450997e+00
9.166058838367462158e+00 -1.842996597290039062e+00 2.023491287231450997e+00
9.133649170398712158e+00 -2.563577651977539062e+00 2.336647415161138497e+00
6.872845947742462158e+00 -4.596958160400390625e-01 2.137260818481450997e+00
6.372540771961212158e+00 5.340785980224609375e-01 2.074608230590825997e+00
8.266766846179962158e+00 -2.763650894165039062e+00 2.585411453247075997e+00
8.263715088367462158e+00 -2.026590347290039062e+00 2.557640457153325997e+00
8.741132080554962158e+00 -1.585672378540039062e+00 2.569542312622075997e+00
6.342511475086212158e+00 5.522670745849609375e-01 2.346718215942388497e+00
8.445660889148712158e+00 -3.196023941040039062e+00 2.717125320434575997e+00
8.281476318836212158e+00 -2.314920425415039062e+00 2.668541336059575997e+00
8.474957764148712158e+00 -1.669290542602539062e+00 2.650200271606450997e+00
6.156842529773712158e+00 4.735317230224609375e-01 2.426353836059575997e+00
6.167889893054962158e+00 -3.914163589477539062e+00 1.282234573364263497e+00
6.537762939929962158e+00 -3.369485855102539062e+00 1.580055618286138497e+00
7.005414307117462158e+00 -3.678079605102539062e+00 1.917137527465825997e+00
6.598004639148712158e+00 -4.198343276977539062e+00 2.225288772583013497e+00
6.848859131336212158e+00 -4.749546051025390625e-01 2.082924270629888497e+00
6.433942139148712158e+00 5.244350433349609375e-01 2.023094558715825997e+00
6.589886963367462158e+00 -4.189920425415039062e+00 2.530968093872075997e+00
8.224164307117462158e+00 -2.875833511352539062e+00 2.558540725708013497e+00
8.133771240711212158e+00 -2.031839370727539062e+00 2.516991043090825997e+00
6.735394775867462158e+00 -4.025669097900390625e-01 2.372047805786138497e+00
6.356122314929962158e+00 5.739955902099609375e-01 2.309440994262700997e+00
1.827354174852371216e+01 -1.309385108947753906e+01 1.658729934692388497e+00
1.824522143602371216e+01 -1.307261085510253906e+01 2.035362625122075997e+00
6.728741943836212158e+00 -4.240335464477539062e+00 1.313240432739263497e+00
6.092877686023712158e+00 -4.620950698852539062e+00 1.611900711059575997e+00
7.009747803211212158e+00 -5.257181167602539062e+00 1.988060379028325997e+00
6.502484619617462158e+00 -4.083597183227539062e+00 1.922493362426763497e+00
9.066388428211212158e+00 -1.693460464477539062e+00 1.958137893676763497e+00
4.141949951648712158e+00 -3.261819839477539062e+00 2.083488845825200997e+00
9.021344482898712158e+00 -2.471170425415039062e+00 2.300102615356450997e+00
7.014508545398712158e+00 -4.401645660400390625e-01 2.122383499145513497e+00
4.059613525867462158e+00 -3.203348159790039062e+00 2.377846145629888497e+00
6.664105713367462158e+00 -4.190774917602539062e+00 2.558906936645513497e+00
7.898968994617462158e+00 -2.568460464477539062e+00 2.560799026489263497e+00
8.267560303211212158e+00 -1.999368667602539062e+00 2.557915115356450997e+00
7.008649170398712158e+00 -4.349155426025390625e-01 2.425560379028325997e+00
6.703107178211212158e+00 -4.229593276977539062e+00 2.424721145629888497e+00
8.890546143054962158e+00 -3.163064956665039062e+00 2.511314773559575997e+00
8.627362549304962158e+00 -2.166116714477539062e+00 2.464409255981450997e+00
8.640973389148712158e+00 -1.358987808227539062e+00 2.437752151489263497e+00
1.411271411180496216e+01 -1.120029640197753906e+01 3.446022415161138497e+00
3.927045166492462158e+00 -3.139139175415039062e+00 2.538750076293950997e+00
7.327985107898712158e+00 -4.656961441040039062e+00 2.798195266723638497e+00
7.812421143054962158e+00 -4.136819839477539062e+00 2.808281326293950997e+00
8.630109131336212158e+00 -2.997537612915039062e+00 2.815758132934575997e+00
8.279034912586212158e+00 -1.949075698852539062e+00 2.756416702270513497e+00
5.576520264148712158e+00 5.133266448974609375e-01 2.506019973754888497e+00
6.611615478992462158e+00 -4.329080581665039062e+00 2.544639968872075997e+00
8.265790283679962158e+00 -2.033304214477539062e+00 2.568031692504888497e+00
4.373944580554962158e+00 -4.467874526977539062e+00 2.737190628051763497e+00
