1.673383265733718872e+01 -1.266690340638160706e+01 6.501525748521146397e-01
1.729669886827468872e+01 -1.286026278138160706e+01 6.778167594224271397e-01
1.760767298936843872e+01 -1.282046785950660706e+01 6.919769156724271397e-01
1.253321009874343872e+01 -1.007571688294410706e+01 5.186981070786771397e-01
1.437970668077468872e+01 -1.164017000794410706e+01 6.277679312974271397e-01
1.463819056749343872e+01 -1.160452547669410706e+01 6.397613395005521397e-01
1.546741420030593872e+01 -1.210354891419410706e+01 6.865142691880521397e-01
1.585163050889968872e+01 -1.216495028138160706e+01 7.063354361802396397e-01
1.678900843858718872e+01 -1.272073641419410706e+01 7.591003287583646397e-01
1.722626429796218872e+01 -1.280130282044410706e+01 7.823547232896146397e-01
1.755017787218093872e+01 -1.277395907044410706e+01 7.982086051255521397e-01
1.258264857530593872e+01 -1.012845125794410706e+01 6.059326041489896397e-01
1.433411341905593872e+01 -1.159878817200660706e+01 7.192748893052396397e-01
1.458795863389968872e+01 -1.155948153138160706e+01 7.322296012193021397e-01
1.484668666124343872e+01 -1.151956453919410706e+01 7.454437125474271397e-01
1.563751918077468872e+01 -1.197000399231910706e+01 7.938445914536771397e-01
1.607837611436843872e+01 -1.207815828919410706e+01 8.188232291489896397e-01
1.716034632921218872e+01 -1.274624910950660706e+01 8.857635367661771397e-01
1.749201136827468872e+01 -1.272696200013160706e+01 9.037231314927396397e-01
7.206061661243438721e+00 -3.709750086069107056e+00 -6.391998421400728603e-01
7.249274551868438721e+00 -3.616488367319107056e+00 -6.354614388197603603e-01
7.296210587024688721e+00 -3.527132898569107056e+00 -6.321655403822603603e-01
7.344916641712188721e+00 -3.439120203256607056e+00 -6.289611946791353603e-01
7.393317520618438721e+00 -3.351839929819107056e+00 -6.257873665541353603e-01
7.441535294055938721e+00 -3.264925867319107056e+00 -6.226135384291353603e-01
7.489753067493438721e+00 -3.177889734506607056e+00 -6.194549690931978603e-01
7.534308731555938721e+00 -3.089022547006607056e+00 -6.164032112806978603e-01
7.939460098743438721e+00 -4.349276453256607056e+00 -6.258941780775728603e-01
7.979865372180938721e+00 -4.240878015756607056e+00 -6.218811165541353603e-01
8.024298965930938721e+00 -4.136996179819107056e+00 -6.177917610853853603e-01
8.064338028430938721e+00 -4.029696375131607056e+00 -6.138092171400728603e-01
8.103949844837188721e+00 -3.923373132944107056e+00 -6.098724495619478603e-01
8.143317520618438721e+00 -3.817904382944107056e+00 -6.059509407728853603e-01
8.178229629993438721e+00 -3.709383875131607056e+00 -6.021362435072603603e-01
8.216864883899688721e+00 -3.605257898569107056e+00 -5.982757698744478603e-01
8.825019180774688721e+00 -5.121493250131607056e+00 -6.094452034681978603e-01
8.844550430774688721e+00 -4.980013757944107056e+00 -6.042266976088228603e-01
8.863837540149688721e+00 -4.840243250131607056e+00 -5.990844856947603603e-01
8.882941544055938721e+00 -4.701693445444107056e+00 -5.939727913588228603e-01
8.910468399524688721e+00 -4.572176843881607056e+00 -5.892578255385103603e-01
8.959052383899688721e+00 -4.460848718881607056e+00 -5.853363167494478603e-01
9.007514297962188721e+00 -4.349642664194107056e+00 -5.814148079603853603e-01
9.055487930774688721e+00 -4.239413172006607056e+00 -5.775390755385103603e-01
9.523810684680938721e+00 -5.731478601694107056e+00 -5.765167366713228603e-01
1.011383754014968872e+01 -6.064486414194107056e+00 -5.888458382338228603e-01
1.016339808702468872e+01 -5.928378015756607056e+00 -5.842071663588228603e-01
1.021277552843093872e+01 -5.792635828256607056e+00 -5.795990120619478603e-01
1.026166468858718872e+01 -5.658358484506607056e+00 -5.750366341322603603e-01
1.029303675889968872e+01 -5.511507898569107056e+00 -5.700012337416353603e-01
1.031281214952468872e+01 -5.356844812631607056e+00 -5.646606575697603603e-01
1.032318812608718872e+01 -5.197665125131607056e+00 -5.594879280775728603e-01
9.570624649524688721e+00 -5.774325281381607056e+00 -5.178009163588228603e-01
1.035706263780593872e+01 -6.274203211069107056e+00 -5.323578011244478603e-01
1.130683070421218872e+01 -6.886385828256607056e+00 -5.502258431166353603e-01
1.182062464952468872e+01 -7.111971765756607056e+00 -5.565277229994478603e-01
1.186145716905593872e+01 -6.944613367319107056e+00 -5.511413704603853603e-01
1.190198451280593872e+01 -6.778963953256607056e+00 -5.458007942885103603e-01
1.194220668077468872e+01 -6.614169031381607056e+00 -5.404907356947603603e-01
1.198187953233718872e+01 -6.451571375131607056e+00 -5.352569710463228603e-01
9.617621719837188721e+00 -5.817294031381607056e+00 -4.588256966322603603e-01
1.045636683702468872e+01 -6.361117273569107056e+00 -4.697967659681978603e-01
1.137537318468093872e+01 -6.946078211069107056e+00 -4.818512093275728603e-01
1.251679164171218872e+01 -7.684847742319107056e+00 -4.971862923353853603e-01
1.387689906358718872e+01 -8.565340906381607056e+00 -5.154510628431978603e-01
1.396961146593093872e+01 -8.407870203256607056e+00 -5.104156624525728603e-01
1.395777064561843872e+01 -8.169833093881607056e+00 -5.035949837416353603e-01
1.393231898546218872e+01 -7.926180750131607056e+00 -4.971252571791353603e-01
1.090473109483718872e+01 -6.940340906381607056e+00 -4.160705696791353603e-01
1.110456019639968872e+01 -6.916537195444107056e+00 -4.136901985853853603e-01
1.144434291124343872e+01 -7.006258875131607056e+00 -4.130188118666353603e-01
1.259949427843093872e+01 -7.755160242319107056e+00 -4.222961556166353603e-01
1.398590785264968872e+01 -8.655672937631607056e+00 -4.334655892103853603e-01
1.582154017686843872e+01 -9.867831140756607056e+00 -4.487854134291353603e-01
1.695404750108718872e+01 -1.048208895325660706e+01 -4.547515999525728603e-01
1.691724330186843872e+01 -1.018277254700660706e+01 -4.472900521010103603e-01
1.747937709093093872e+01 -1.266995516419410706e+01 -3.989502083510103603e-01
1.931140834093093872e+01 -1.392557039856910706e+01 -4.052673470228853603e-01
2.002185755968093872e+01 -1.418533602356910706e+01 -4.018188606947603603e-01
1.421271449327468872e+01 -9.080355554819107056e+00 -3.559967171400728603e-01
1.451386195421218872e+01 -9.082552820444107056e+00 -3.523040901869478603e-01
1.597284632921218872e+01 -9.990023523569107056e+00 -3.551574837416353603e-01
1.993390589952468872e+01 -1.278299227356910706e+01 -3.711486946791353603e-01
2.286206752061843872e+01 -1.467593660950660706e+01 -3.786102425306978603e-01
1.749176722764968872e+01 -1.268448153138160706e+01 -2.903991829603853603e-01
1.914667445421218872e+01 -1.378897371888160706e+01 -2.862945687025728603e-01
2.005084925889968872e+01 -1.421365633606910706e+01 -2.804351937025728603e-01
2.043091517686843872e+01 -1.418240633606910706e+01 -2.737213265150728603e-01
2.811469203233718872e+01 -2.001407137513160706e+01 -2.688690315931978603e-01
2.038361293077468872e+01 -1.346560946106910706e+01 -2.599884163588228603e-01
2.120227748155593872e+01 -1.376492586731910706e+01 -2.529693733900728603e-01
3.400458461046218872e+01 -2.309793367981910706e+01 -2.371307503431978603e-01
1.837836390733718872e+01 -1.346097078919410706e+01 -1.783691536635103603e-01
1.900598841905593872e+01 -1.367276278138160706e+01 -1.697784554213228603e-01
2.007990199327468872e+01 -1.424209871888160706e+01 -1.586547981947603603e-01
2.046405726671218872e+01 -1.421377840638160706e+01 -1.506591927260103603e-01
3.512207728624343872e+01 -2.507547274231910706e+01 -5.249940268694786027e-02
3.359448939561843872e+01 -2.332828035950660706e+01 -5.207215659319786027e-02
3.545551234483718872e+01 -2.420071688294410706e+01 -3.083192221819786027e-02
1.795337611436843872e+01 -1.309439364075660706e+01 -6.873475424944786027e-02
1.887317591905593872e+01 -1.356326571106910706e+01 -5.422364585101036027e-02
1.932599574327468872e+01 -1.361502352356910706e+01 -4.450379721819786027e-02
2.049750453233718872e+01 -1.424527254700660706e+01 -2.651368491351036027e-02
5.967896205186843872e+01 -4.540017977356910706e+01 4.299529898911771397e-01
3.491968470811843872e+01 -2.492288485169410706e+01 1.528991568833646397e-01
3.340149623155593872e+01 -2.318582430481910706e+01 1.428436148911771397e-01
3.355622035264968872e+01 -2.277176180481910706e+01 1.523956168443021397e-01
1.762860804796218872e+01 -1.281497469544410706e+01 3.682554848492713973e-02
1.880921107530593872e+01 -1.351260653138160706e+01 6.027830727398963973e-02
1.919721156358718872e+01 -1.351114168763160706e+01 7.065428383648963973e-02
2.056964808702468872e+01 -1.430862703919410706e+01 9.807432778180213973e-02
3.487580043077468872e+01 -2.489505282044410706e+01 3.576568473130521397e-01
3.339893275499343872e+01 -2.319009676575660706e+01 3.379119742661771397e-01
3.354724818468093872e+01 -2.277115145325660706e+01 3.467010367661771397e-01
1.762976771593093872e+01 -1.281985750794410706e+01 1.464599478989896397e-01
1.874780970811843872e+01 -1.346402254700660706e+01 1.747344840318021397e-01
1.913043910264968872e+01 -1.345913973450660706e+01 1.857208121568021397e-01
2.066242152452468872e+01 -1.438894930481910706e+01 2.240203727036771397e-01
3.511164027452468872e+01 -2.508755770325660706e+01 5.685180533677396397e-01
3.342279750108718872e+01 -2.321487703919410706e+01 5.346740592271146397e-01
3.359748011827468872e+01 -2.281546297669410706e+01 5.433868277818021397e-01
1.764899379014968872e+01 -1.284036532044410706e+01 2.560638297349271397e-01
1.868707972764968872e+01 -1.341604891419410706e+01 2.878631461411771397e-01
1.906378871202468872e+01 -1.340713778138160706e+01 3.006500113755521397e-01
2.094000941514968872e+01 -1.462100496888160706e+01 3.571533072739896397e-01
3.501789027452468872e+01 -2.502041903138160706e+01 7.736266959458646397e-01
3.365131312608718872e+01 -2.339761629700660706e+01 7.367156852036771397e-01
3.366504603624343872e+01 -2.287271395325660706e+01 7.401946891099271397e-01
1.786017543077468872e+01 -1.302847567200660706e+01 3.732208121568021397e-01
1.862677699327468872e+01 -1.336831942200660706e+01 4.003204215318021397e-01
1.899787074327468872e+01 -1.335586825013160706e+01 4.142211783677396397e-01
2.029437953233718872e+01 -1.409500399231910706e+01 4.605773795396146397e-01
3.395453578233718872e+01 -2.363821688294410706e+01 9.440978873521146397e-01
3.554303675889968872e+01 -2.429983797669410706e+01 1.002691637352114640e+00
1.772504359483718872e+01 -1.291433992981910706e+01 4.781860221177396397e-01
1.856647425889968872e+01 -1.332071200013160706e+01 5.126708853989896397e-01
1.893476039171218872e+01 -1.330691805481910706e+01 5.277618277818021397e-01
1.959278041124343872e+01 -1.352273836731910706e+01 5.547241080552396397e-01
2.439844447374343872e+01 -1.706155672669410706e+01 7.518066275864896397e-01
3.431415492296218872e+01 -2.337649813294410706e+01 1.158377062156802140e+00
1.766681605577468872e+01 -1.286722078919410706e+01 5.857452262193021397e-01
1.856189662218093872e+01 -1.332071200013160706e+01 6.263488639146146397e-01
1.894464808702468872e+01 -1.331900301575660706e+01 6.433776725083646397e-01
1.957953578233718872e+01 -1.351578035950660706e+01 6.722320426255521397e-01
2.413257533311843872e+01 -1.685232821106910706e+01 8.848174918443021397e-01
1.760925990343093872e+01 -1.282083407044410706e+01 6.920684684068021397e-01
1.844550257921218872e+01 -1.322500887513160706e+01 7.346557486802396397e-01
1.906623011827468872e+01 -1.342496004700660706e+01 7.656921256333646397e-01
1.957166224718093872e+01 -1.351333895325660706e+01 7.905181754380521397e-01
2.406275111436843872e+01 -1.680093660950660706e+01 1.025839220359927140e+00
1.755176478624343872e+01 -1.277432528138160706e+01 7.983001578599271397e-01
1.823419886827468872e+01 -1.304800692200660706e+01 8.359741080552396397e-01
1.918158656358718872e+01 -1.352566805481910706e+01 8.884948600083646397e-01
1.968958216905593872e+01 -1.361416903138160706e+01 9.155181754380521397e-01
2.399463587999343872e+01 -1.675076571106910706e+01 1.165411363914614640e+00
1.749378138780593872e+01 -1.272745028138160706e+01 9.038299430161771397e-01
1.808423548936843872e+01 -1.292337313294410706e+01 9.381622184068021397e-01
1.929163295030593872e+01 -1.362185946106910706e+01 1.013006578758364640e+00
2.020496302843093872e+01 -1.404190340638160706e+01 1.068365465477114640e+00
2.403711634874343872e+01 -1.678970614075660706e+01 1.312139879539614640e+00
7.534369766712188721e+00 -3.088656336069107056e+00 -6.163726937025728603e-01
7.581305801868438721e+00 -3.001986414194107056e+00 -6.132599007338228603e-01
7.624823868274688721e+00 -2.913119226694107056e+00 -6.102539192885103603e-01
7.668280899524688721e+00 -2.824129968881607056e+00 -6.072326790541353603e-01
7.711493790149688721e+00 -2.735751062631607056e+00 -6.042419563978853603e-01
7.754523575305938721e+00 -2.647738367319107056e+00 -6.012512337416353603e-01
7.786322891712188721e+00 -2.552157312631607056e+00 -5.978027474135103603e-01
7.802558243274688721e+00 -2.447543054819107056e+00 -5.939880501478853603e-01
8.216864883899688721e+00 -3.604769617319107056e+00 -5.982452522963228603e-01
8.263068497180938721e+00 -3.506991297006607056e+00 -5.949951302260103603e-01
8.313117325305938721e+00 -3.412386804819107056e+00 -5.916381966322603603e-01
8.359198868274688721e+00 -3.314852625131607056e+00 -5.884033333510103603e-01
8.404975235462188721e+00 -3.218050867319107056e+00 -5.851684700697603603e-01
8.450568497180938721e+00 -3.121493250131607056e+00 -5.819641243666353603e-01
8.492133438587188721e+00 -3.022372156381607056e+00 -5.788665901869478603e-01
8.537421524524688721e+00 -2.926546961069107056e+00 -5.756775032728853603e-01
9.055548965930938721e+00 -4.238924890756607056e+00 -5.775238167494478603e-01
9.099189102649688721e+00 -4.126253992319107056e+00 -5.738006722181978603e-01
9.142646133899688721e+00 -4.014193445444107056e+00 -5.701080452650728603e-01
9.186042129993438721e+00 -3.902132898569107056e+00 -5.664001595228853603e-01
9.229071915149688721e+00 -3.791170984506607056e+00 -5.627380501478853603e-01
9.276068985462188721e+00 -3.683504968881607056e+00 -5.592285286635103603e-01
9.324164688587188721e+00 -3.576693445444107056e+00 -5.557495247572603603e-01
9.397589981555938721e+00 -3.487337976694107056e+00 -5.530639778822603603e-01
1.032282191514968872e+01 -5.196810632944107056e+00 -5.594574104994478603e-01
1.034363490343093872e+01 -5.047640711069107056e+00 -5.542694222181978603e-01
1.035510951280593872e+01 -4.893343836069107056e+00 -5.492035042494478603e-01
1.036646205186843872e+01 -4.740267664194107056e+00 -5.441833626478853603e-01
1.038056117296218872e+01 -4.591586023569107056e+00 -5.393310677260103603e-01
1.041968470811843872e+01 -4.461703211069107056e+00 -5.351501595228853603e-01
1.043860560655593872e+01 -4.318880945444107056e+00 -5.304962288588228603e-01
1.044104701280593872e+01 -4.167513757944107056e+00 -5.258270394056978603e-01
1.198175746202468872e+01 -6.450716882944107056e+00 -5.352264534681978603e-01
1.201489955186843872e+01 -6.284823328256607056e+00 -5.301605354994478603e-01
1.204767543077468872e+01 -6.120394617319107056e+00 -5.251403938978853603e-01
1.208032923936843872e+01 -5.956942468881607056e+00 -5.201507698744478603e-01
1.211255580186843872e+01 -5.795321375131607056e+00 -5.152221810072603603e-01
1.214453822374343872e+01 -5.635165125131607056e+00 -5.103393685072603603e-01
1.217633754014968872e+01 -5.475985437631607056e+00 -5.054718147963228603e-01
1.220783168077468872e+01 -5.318514734506607056e+00 -5.006652962416353603e-01
1.393158656358718872e+01 -7.924837976694107056e+00 -4.970947396010103603e-01
1.392597132921218872e+01 -7.700106531381607056e+00 -4.904419075697603603e-01
1.390686732530593872e+01 -7.468905359506607056e+00 -4.841095101088228603e-01
1.388812953233718872e+01 -7.240755945444107056e+00 -4.778686653822603603e-01
1.386975795030593872e+01 -7.017123132944107056e+00 -4.717346321791353603e-01
1.385144740343093872e+01 -6.797030359506607056e+00 -4.657226692885103603e-01
1.383899623155593872e+01 -6.583529382944107056e+00 -4.598480354994478603e-01
1.385419398546218872e+01 -6.391878992319107056e+00 -4.548736702650728603e-01
1.691632777452468872e+01 -1.018106356263160706e+01 -4.472595345228853603e-01
1.661292201280593872e+01 -9.689730554819107056e+00 -4.373870979994478603e-01
1.656037074327468872e+01 -9.393099695444107056e+00 -4.303680550306978603e-01
1.658386927843093872e+01 -9.154818445444107056e+00 -4.241882454603853603e-01
1.660700160264968872e+01 -8.919955164194107056e+00 -4.181152474135103603e-01
1.662988978624343872e+01 -8.687777429819107056e+00 -4.120880257338228603e-01
1.659088832139968872e+01 -8.416170984506607056e+00 -4.055877815931978603e-01
1.657538539171218872e+01 -8.165316492319107056e+00 -3.994232308119478603e-01
2.285779505968093872e+01 -1.467142000794410706e+01 -3.785644661635103603e-01
2.247223597764968872e+01 -1.402713289856910706e+01 -3.686767708510103603e-01
2.202008754014968872e+01 -1.335135164856910706e+01 -3.581939827650728603e-01
2.179523402452468872e+01 -1.285415926575660706e+01 -3.497100960463228603e-01
2.172974330186843872e+01 -1.248025789856910706e+01 -3.420959603041353603e-01
2.151074916124343872e+01 -1.200845614075660706e+01 -3.341003548353853603e-01
2.121344691514968872e+01 -1.149429598450660706e+01 -3.267303597181978603e-01
2.056470423936843872e+01 -1.076517000794410706e+01 -3.180633675306978603e-01
3.399317103624343872e+01 -2.308755770325660706e+01 -2.371002327650728603e-01
3.285748988389968872e+01 -2.171524325013160706e+01 -2.277008187025728603e-01
3.220154505968093872e+01 -2.073294344544410706e+01 -2.184997688978853603e-01
3.110175257921218872e+01 -1.946084871888160706e+01 -2.105346810072603603e-01
3.058362513780593872e+01 -1.863406649231910706e+01 -2.022644173353853603e-01
2.973468714952468872e+01 -1.760403719544410706e+01 -1.951538216322603603e-01
2.924451380968093872e+01 -1.684207430481910706e+01 -1.877227913588228603e-01
2.927558070421218872e+01 -1.644095125794410706e+01 -1.792846810072603603e-01
3.544092494249343872e+01 -2.418777742981910706e+01 -3.089295737444786027e-02
3.466449671983718872e+01 -2.305862703919410706e+01 -2.655946128069786027e-02
5.583930140733718872e+01 -3.702139559388160706e+01 1.449188102036771397e-01
5.314362269639968872e+01 -3.431363192200660706e+01 1.390899527818021397e-01
4.704578334093093872e+01 -2.938272371888160706e+01 1.053527701646146397e-01
5.433679896593093872e+01 -3.354849520325660706e+01 1.754363883286771397e-01
5.815503627061843872e+01 -3.525613680481910706e+01 2.202819693833646397e-01
3.355701380968093872e+01 -2.277054110169410706e+01 1.524261344224271397e-01
3.382923060655593872e+01 -2.244656649231910706e+01 1.634582389146146397e-01
3.417536097764968872e+01 -2.217544832825660706e+01 1.754363883286771397e-01
5.753620082139968872e+01 -3.823575106263160706e+01 4.840606559068021397e-01
5.779285365343093872e+01 -3.755386629700660706e+01 4.999297965318021397e-01
4.704108363389968872e+01 -2.938748446106910706e+01 3.691619742661771397e-01
5.398261195421218872e+01 -3.332181063294410706e+01 4.730438102036771397e-01
5.550751429796218872e+01 -3.354080477356910706e+01 5.052551139146146397e-01
3.354804164171218872e+01 -2.276993075013160706e+01 3.467315543443021397e-01
3.382489711046218872e+01 -2.244949617981910706e+01 3.580230582505521397e-01
3.418573695421218872e+01 -2.218899813294410706e+01 3.708556998521146397e-01
4.952069789171218872e+01 -3.255484285950660706e+01 6.608947623521146397e-01
4.816742640733718872e+01 -3.087295809388160706e+01 6.444305289536771397e-01
4.692060023546218872e+01 -2.931350985169410706e+01 6.293853629380521397e-01
4.564081507921218872e+01 -2.777566805481910706e+01 6.131957877427396397e-01
4.443427211046218872e+01 -2.633377352356910706e+01 5.978301871568021397e-01
3.359863978624343872e+01 -2.281448641419410706e+01 5.434326041489896397e-01
3.390460902452468872e+01 -2.251480379700660706e+01 5.556243766099271397e-01
3.424152308702468872e+01 -2.223562899231910706e+01 5.675109732896146397e-01
5.593366175889968872e+01 -3.711783114075660706e+01 1.095846544578677140e+00
5.589185267686843872e+01 -3.625210848450660706e+01 1.102590929344302140e+00
5.404401332139968872e+01 -3.416983309388160706e+01 1.065145860984927140e+00
5.422028285264968872e+01 -3.349820223450660706e+01 1.078390489891177140e+00
5.557556849718093872e+01 -3.360342684388160706e+01 1.119085680320864640e+00
3.366590052843093872e+01 -2.287161532044410706e+01 7.402252066880521397e-01
3.395252162218093872e+01 -2.255642977356910706e+01 7.522033561021146397e-01
3.429877406358718872e+01 -2.228335848450660706e+01 7.659515250474271397e-01
5.694782191514968872e+01 -3.784805575013160706e+01 1.444097887352114640e+00
5.629938441514968872e+01 -3.654519930481910706e+01 1.430349718406802140e+00
5.660938197374343872e+01 -3.592544832825660706e+01 1.445150743797427140e+00
5.470838099718093872e+01 -3.383243075013160706e+01 1.393438707664614640e+00
5.459082728624343872e+01 -3.297049227356910706e+01 1.395101915672427140e+00
3.554523402452468872e+01 -2.429959383606910706e+01 1.002767931297427140e+00
3.515686732530593872e+01 -2.345511141419410706e+01 9.901794303208646397e-01
3.454700404405593872e+01 -2.246951571106910706e+01 9.707855094224271397e-01
5.620502406358718872e+01 -3.733023348450660706e+01 1.739904772117739640e+00
5.696570521593093872e+01 -3.701834383606910706e+01 1.770239244773989640e+00
5.638385707139968872e+01 -3.578152742981910706e+01 1.752920519188052140e+00
5.751190882921218872e+01 -3.488443270325660706e+01 1.801336656883364640e+00
3.431299525499343872e+01 -2.337369051575660706e+01 1.158331285789614640e+00
3.453742152452468872e+01 -2.300235262513160706e+01 1.168249498680239640e+00
5.595545130968093872e+01 -3.801517000794410706e+01 2.048239122703677140e+00
5.797077113389968872e+01 -3.859512606263160706e+01 2.132147203758364640e+00
5.499866420030593872e+01 -3.565957918763160706e+01 2.011175524070864640e+00
5.642719203233718872e+01 -3.582071200013160706e+01 2.070989977195864640e+00
5.902228480577468872e+01 -3.587906160950660706e+01 2.179968248680239640e+00
5.556793910264968872e+01 -3.859964266419410706e+01 2.350180040672427140e+00
5.605963832139968872e+01 -3.810086336731910706e+01 2.372030626609927140e+00
5.678443080186843872e+01 -3.776199617981910706e+01 2.404775987938052140e+00
5.485816127061843872e+01 -3.557120028138160706e+01 2.313742052391177140e+00
5.572626429796218872e+01 -3.535269442200660706e+01 2.353201280906802140e+00
5.753241664171218872e+01 -3.574270907044410706e+01 2.436392198875552140e+00
5.841760951280593872e+01 -3.549429598450660706e+01 2.478308092430239640e+00
5.690680629014968872e+01 -3.872610750794410706e+01 2.737753282859927140e+00
5.669007045030593872e+01 -3.770486727356910706e+01 2.722982775047427140e+00
5.477271205186843872e+01 -3.552127352356910706e+01 2.619345079734927140e+00
5.550769740343093872e+01 -3.521316805481910706e+01 2.654547106102114640e+00
5.689765101671218872e+01 -3.532901278138160706e+01 2.723883043602114640e+00
5.656122523546218872e+01 -3.429226961731910706e+01 2.703115831688052140e+00
5.662018519639968872e+01 -3.852798739075660706e+01 3.045599352195864640e+00
5.664746791124343872e+01 -3.768448153138160706e+01 3.041494737938052140e+00
5.467145472764968872e+01 -3.546023836731910706e+01 2.921499620750552140e+00
5.632544642686843872e+01 -3.578006258606910706e+01 3.011785875633364640e+00
5.688104945421218872e+01 -3.532754793763160706e+01 3.040106188133364640e+00
5.655402308702468872e+01 -3.429690828919410706e+01 3.015859972313052140e+00
5.761829310655593872e+01 -3.926346102356910706e+01 3.433935533836489640e+00
5.562988978624343872e+01 -3.613724032044410706e+01 3.291540514305239640e+00
5.661011439561843872e+01 -3.598367586731910706e+01 3.346090685203677140e+00
5.609223109483718872e+01 -3.481058016419410706e+01 3.305685411766177140e+00
5.852698451280593872e+01 -3.559451571106910706e+01 3.453649889305239640e+00
7.802436172962188721e+00 -2.447054773569107056e+00 -5.939575325697603603e-01
7.821601212024688721e+00 -2.345370203256607056e+00 -5.901275765150728603e-01
7.836554825305938721e+00 -2.241854578256607056e+00 -5.863891731947603603e-01
7.859626114368438721e+00 -2.143832117319107056e+00 -5.830017220228853603e-01
7.890326797962188721e+00 -2.051424890756607056e+00 -5.799499642103853603e-01
7.920905411243438721e+00 -1.959505945444107056e+00 -5.769134651869478603e-01
7.951484024524688721e+00 -1.867709070444107056e+00 -5.738769661635103603e-01
7.977607071399688721e+00 -1.774203211069107056e+00 -5.709320198744478603e-01
8.537482559680938721e+00 -2.926180750131607056e+00 -5.756622444838228603e-01
8.566901504993438721e+00 -2.820589929819107056e+00 -5.722137581556978603e-01
8.595282852649688721e+00 -2.715121179819107056e+00 -5.685058724135103603e-01
8.619696915149688721e+00 -2.607455164194107056e+00 -5.649200569838228603e-01
8.694526016712188721e+00 -2.531039148569107056e+00 -5.630737435072603603e-01
8.771613419055938721e+00 -2.455233484506607056e+00 -5.612732063978853603e-01
8.846503555774688721e+00 -2.377352625131607056e+00 -5.596405159681978603e-01
8.924323379993438721e+00 -2.300814539194107056e+00 -5.578247200697603603e-01
9.397834122180938721e+00 -3.486971765756607056e+00 -5.530487190931978603e-01
9.469062149524688721e+00 -3.395907312631607056e+00 -5.505767952650728603e-01
9.517463028430938721e+00 -3.290316492319107056e+00 -5.474182259291353603e-01
9.565985977649688721e+00 -3.184603601694107056e+00 -5.442596565931978603e-01
9.614203751087188721e+00 -3.079501062631607056e+00 -5.411163460463228603e-01
9.662360489368438721e+00 -2.974642664194107056e+00 -5.379730354994478603e-01
9.710517227649688721e+00 -2.869540125131607056e+00 -5.348449837416353603e-01
9.758429825305938721e+00 -2.765170007944107056e+00 -5.317169319838228603e-01
1.044104701280593872e+01 -4.166903406381607056e+00 -5.257965218275728603e-01
1.045654994249343872e+01 -4.025668054819107056e+00 -5.211425911635103603e-01
1.046057826280593872e+01 -3.878817468881607056e+00 -5.165496956556978603e-01
1.046454554796218872e+01 -3.732943445444107056e+00 -5.120178353041353603e-01
1.048004847764968872e+01 -3.596224695444107056e+00 -5.078064095228853603e-01
1.059302455186843872e+01 -3.517367273569107056e+00 -5.058227669447603603e-01
1.070740443468093872e+01 -3.437655359506607056e+00 -5.038086067885103603e-01
1.081604701280593872e+01 -3.353915125131607056e+00 -5.019622933119478603e-01
1.220777064561843872e+01 -5.317904382944107056e+00 -5.006500374525728603e-01
1.223279505968093872e+01 -5.157870203256607056e+00 -4.960266243666353603e-01
1.225763636827468872e+01 -4.999178797006607056e+00 -4.914489876478853603e-01
1.227893763780593872e+01 -4.839144617319107056e+00 -4.868255745619478603e-01
1.229956752061843872e+01 -4.680697351694107056e+00 -4.822479378431978603e-01
1.239624720811843872e+01 -4.568026453256607056e+00 -4.790283333510103603e-01
1.254132777452468872e+01 -4.481722742319107056e+00 -4.765869271010103603e-01
1.268744593858718872e+01 -4.394808679819107056e+00 -4.741150032728853603e-01
1.385413295030593872e+01 -6.391146570444107056e+00 -4.548584114760103603e-01
1.388501673936843872e+01 -6.211703211069107056e+00 -4.495636116713228603e-01
1.390448695421218872e+01 -6.026644617319107056e+00 -4.445892464369478603e-01
1.392383509874343872e+01 -5.842562586069107056e+00 -4.396301399916353603e-01
1.394293910264968872e+01 -5.661044031381607056e+00 -4.347473274916353603e-01
1.404309779405593872e+01 -5.528353601694107056e+00 -4.308563362806978603e-01
1.417981654405593872e+01 -5.415438562631607056e+00 -4.273620735853853603e-01
1.434149867296218872e+01 -5.315585047006607056e+00 -4.245391976088228603e-01
1.657514125108718872e+01 -8.164339929819107056e+00 -3.993927132338228603e-01
1.658478480577468872e+01 -7.932894617319107056e+00 -3.937317024916353603e-01
1.659430629014968872e+01 -7.704134851694107056e+00 -3.881317269056978603e-01
1.663159877061843872e+01 -7.493929773569107056e+00 -3.827606331556978603e-01
1.668860560655593872e+01 -7.298128992319107056e+00 -3.776031624525728603e-01
1.674530726671218872e+01 -7.103304773569107056e+00 -3.724609505385103603e-01
1.701166468858718872e+01 -7.028231531381607056e+00 -3.686309944838228603e-01
1.734217005968093872e+01 -6.985140711069107056e+00 -3.651062142103853603e-01
2.055994349718093872e+01 -1.076101961731910706e+01 -3.180328499525728603e-01
2.057532435655593872e+01 -1.047720614075660706e+01 -3.116699349135103603e-01
2.077875453233718872e+01 -1.031363192200660706e+01 -3.051544319838228603e-01
2.097064906358718872e+01 -1.013992586731910706e+01 -2.991729866713228603e-01
2.116303187608718872e+01 -9.965853601694107056e+00 -2.931610237806978603e-01
2.140253382921218872e+01 -9.817416101694107056e+00 -2.871795784681978603e-01
2.191962367296218872e+01 -9.823031336069107056e+00 -2.819763313978853603e-01
2.253980189561843872e+01 -9.876620203256607056e+00 -2.760406624525728603e-01
2.927667933702468872e+01 -1.644021883606910706e+01 -1.792541634291353603e-01
3.108643275499343872e+01 -1.717666903138160706e+01 -1.656585823744478603e-01
5.598963099718093872e+01 -3.225845614075660706e+01 -7.460938803851036027e-02
5.667200404405593872e+01 -3.189822664856910706e+01 -5.707703940569786027e-02
5.450855189561843872e+01 -2.983584871888160706e+01 -5.037843100726036027e-02
5.816919642686843872e+01 -3.526248446106910706e+01 2.204498160630521397e-01
4.327020961046218872e+01 -2.494534578919410706e+01 1.081756461411771397e-01
5.643805629014968872e+01 -3.254678621888160706e+01 2.332824576646146397e-01
5.390521937608718872e+01 -3.022061434388160706e+01 2.239593375474271397e-01
5.483985072374343872e+01 -3.004153719544410706e+01 2.451080191880521397e-01
5.550733119249343872e+01 -3.353787508606910706e+01 5.052856314927396397e-01
4.328321009874343872e+01 -2.496060457825660706e+01 3.464111197739896397e-01
5.846704798936843872e+01 -3.382083407044410706e+01 5.701049674302396397e-01
5.385016566514968872e+01 -3.019546785950660706e+01 5.157531607896146397e-01
4.442475062608718872e+01 -2.632535067200660706e+01 5.976775992661771397e-01
4.320960170030593872e+01 -2.492068758606910706e+01 5.818847525864896397e-01
4.202118617296218872e+01 -2.357412996888160706e+01 5.661071646958646397e-01
4.087201625108718872e+01 -2.228946200013160706e+01 5.506347525864896397e-01
3.976581507921218872e+01 -2.107071200013160706e+01 5.355285514146146397e-01
3.874341517686843872e+01 -1.993704500794410706e+01 5.216583121568021397e-01
3.775531703233718872e+01 -1.885476961731910706e+01 5.080779898911771397e-01
3.678949671983718872e+01 -1.781863680481910706e+01 4.945434439927396397e-01
5.558405238389968872e+01 -3.360623446106910706e+01 1.119314562156802140e+00
6.106464320421218872e+01 -3.631375399231910706e+01 1.263296495750552140e+00
3.996454554796218872e+01 -2.119534578919410706e+01 7.544616568833646397e-01
3.887805873155593872e+01 -2.002139559388160706e+01 7.322906363755521397e-01
3.781079798936843872e+01 -1.889200106263160706e+01 7.113555777818021397e-01
3.677326136827468872e+01 -1.781497469544410706e+01 6.897033561021146397e-01
5.458753138780593872e+01 -3.296560946106910706e+01 1.395010362938052140e+00
5.912500697374343872e+01 -3.508633700013160706e+01 1.538275133445864640e+00
6.060846644639968872e+01 -3.434414950013160706e+01 1.595968614891177140e+00
5.751703578233718872e+01 -3.488492098450660706e+01 1.801535021141177140e+00
5.712903529405593872e+01 -3.382242098450660706e+01 1.790212999656802140e+00
5.673493129014968872e+01 -3.277688875794410706e+01 1.780264269188052140e+00
6.031671839952468872e+01 -3.417557039856910706e+01 1.912832628563052140e+00
5.902692347764968872e+01 -3.587918367981910706e+01 2.180166612938052140e+00
5.620471888780593872e+01 -3.245498934388160706e+01 2.068487535789614640e+00
5.808905726671218872e+01 -3.282522860169410706e+01 2.148458849266177140e+00
5.841773158311843872e+01 -3.549148836731910706e+01 2.478323351219302140e+00
5.608045130968093872e+01 -3.317154207825660706e+01 2.367971788719302140e+00
5.596771937608718872e+01 -3.231595125794410706e+01 2.363073717430239640e+00
5.698841029405593872e+01 -3.216214266419410706e+01 2.411032091453677140e+00
5.678150111436843872e+01 -3.125979891419410706e+01 2.401739488914614640e+00
5.714264613389968872e+01 -3.070376864075660706e+01 2.418936144188052140e+00
5.656409388780593872e+01 -3.429141512513160706e+01 2.703268419578677140e+00
5.603266078233718872e+01 -3.315017977356910706e+01 2.674017320945864640e+00
5.575086146593093872e+01 -3.218936434388160706e+01 2.657843004539614640e+00
5.645117884874343872e+01 -3.184305086731910706e+01 2.692800890281802140e+00
5.697174769639968872e+01 -3.138211336731910706e+01 2.718389879539614640e+00
5.722290736436843872e+01 -3.075931063294410706e+01 2.729971300438052140e+00
5.655695277452468872e+01 -3.429605379700660706e+01 3.016012560203677140e+00
5.583356410264968872e+01 -3.303201571106910706e+01 2.970907579734927140e+00
5.578461390733718872e+01 -3.221927157044410706e+01 2.963095079734927140e+00
5.674787074327468872e+01 -3.203311434388160706e+01 3.015097032859927140e+00
5.679724818468093872e+01 -3.128665438294410706e+01 3.014593492820864640e+00
5.743372279405593872e+01 -3.089102450013160706e+01 3.047766100242739640e+00
5.852808314561843872e+01 -3.559231844544410706e+01 3.453680406883364640e+00
5.578632289171218872e+01 -3.301089754700660706e+01 3.273626695945864640e+00
5.570801478624343872e+01 -3.218033114075660706e+01 3.263479601219302140e+00
5.618683558702468872e+01 -3.169912996888160706e+01 3.288397203758364640e+00
5.786371546983718872e+01 -3.193265047669410706e+01 3.388479601219302140e+00
7.977607071399688721e+00 -1.773837000131607056e+00 -5.709167610853853603e-01
8.006842911243438721e+00 -1.682650476694107056e+00 -5.679412972181978603e-01
8.041632950305938721e+00 -1.594637781381607056e+00 -5.654083382338228603e-01
8.132575333118438721e+00 -1.535433679819107056e+00 -5.648895394056978603e-01
8.224250137805938721e+00 -1.475863367319107056e+00 -5.643707405775728603e-01
8.351020157337188721e+00 -1.432284265756607056e+00 -5.650421272963228603e-01
8.500068008899688721e+00 -1.396883875131607056e+00 -5.663849007338228603e-01
8.647528946399688721e+00 -1.358675867319107056e+00 -5.678497444838228603e-01
8.924689590930938721e+00 -2.300570398569107056e+00 -5.578247200697603603e-01
8.999823868274688721e+00 -2.221957117319107056e+00 -5.561920296400728603e-01
9.078254044055938721e+00 -2.144320398569107056e+00 -5.543762337416353603e-01
9.154547989368438721e+00 -2.064486414194107056e+00 -5.527130257338228603e-01
9.230964004993438721e+00 -1.984286218881607056e+00 -5.510498177260103603e-01
9.335151016712188721e+00 -1.917147547006607056e+00 -5.501800667494478603e-01
9.450934708118438721e+00 -1.853670984506607056e+00 -5.498748909681978603e-01
9.591681778430938721e+00 -1.800692468881607056e+00 -5.499969612806978603e-01
9.758551895618438721e+00 -2.764803797006607056e+00 -5.317016731947603603e-01
9.797004044055938721e+00 -2.655428797006607056e+00 -5.286193978041353603e-01
9.884955704212188721e+00 -2.572665125131607056e+00 -5.268188606947603603e-01
1.001874476671218872e+01 -2.512240320444107056e+00 -5.261779915541353603e-01
1.016205531358718872e+01 -2.454867273569107056e+00 -5.257049690931978603e-01
1.034613734483718872e+01 -2.415438562631607056e+00 -5.261932503431978603e-01
1.055475550889968872e+01 -2.384066492319107056e+00 -5.271545540541353603e-01
1.076874476671218872e+01 -2.351839929819107056e+00 -5.281463753431978603e-01
1.081671839952468872e+01 -3.353793054819107056e+00 -5.019622933119478603e-01
1.093781214952468872e+01 -3.275545984506607056e+00 -4.999786507338228603e-01
1.117121058702468872e+01 -3.255160242319107056e+00 -5.006042610853853603e-01
1.138605433702468872e+01 -3.220126062631607056e+00 -5.007110726088228603e-01
1.159003382921218872e+01 -3.176302820444107056e+00 -5.004974495619478603e-01
1.179914027452468872e+01 -3.131380945444107056e+00 -5.002685677260103603e-01
1.201422816514968872e+01 -3.085116297006607056e+00 -5.000396858900728603e-01
1.222577601671218872e+01 -3.034090906381607056e+00 -4.999939095228853603e-01
1.268830043077468872e+01 -4.394686609506607056e+00 -4.741150032728853603e-01
1.283167201280593872e+01 -4.304354578256607056e+00 -4.718109261244478603e-01
1.297669154405593872e+01 -4.212923914194107056e+00 -4.694763313978853603e-01
1.312396937608718872e+01 -4.120028406381607056e+00 -4.671112190931978603e-01
1.327680140733718872e+01 -4.028597742319107056e+00 -4.647918831556978603e-01
1.348291712999343872e+01 -3.961214929819107056e+00 -4.631897103041353603e-01
1.376221400499343872e+01 -3.924960047006607056e+00 -4.625335823744478603e-01
1.411530238389968872e+01 -3.918734461069107056e+00 -4.627777229994478603e-01
1.434278041124343872e+01 -5.315707117319107056e+00 -4.245391976088228603e-01
1.457868129014968872e+01 -5.254061609506607056e+00 -4.218841683119478603e-01
1.480738002061843872e+01 -5.184481531381607056e+00 -4.194580208510103603e-01
1.520215541124343872e+01 -5.196322351694107056e+00 -4.186035286635103603e-01
1.563312464952468872e+01 -5.219027429819107056e+00 -4.179321419447603603e-01
1.598682337999343872e+01 -5.195101648569107056e+00 -4.162841927260103603e-01
1.641663295030593872e+01 -5.200106531381607056e+00 -4.151703011244478603e-01
1.703278285264968872e+01 -5.284579187631607056e+00 -4.159637581556978603e-01
1.734748011827468872e+01 -6.987337976694107056e+00 -3.651214729994478603e-01
1.794843226671218872e+01 -7.084872156381607056e+00 -3.631683479994478603e-01
1.837708216905593872e+01 -7.078036218881607056e+00 -3.600097786635103603e-01
1.886615687608718872e+01 -7.093295007944107056e+00 -3.569427620619478603e-01
1.954975062608718872e+01 -7.197543054819107056e+00 -3.545776497572603603e-01
2.007666712999343872e+01 -7.209994226694107056e+00 -3.511749397963228603e-01
2.071955043077468872e+01 -7.266878992319107056e+00 -3.480011116713228603e-01
2.141767054796218872e+01 -7.337313562631607056e+00 -3.447357308119478603e-01
2.254407435655593872e+01 -9.877962976694107056e+00 -2.760101448744478603e-01
2.338135462999343872e+01 -1.003665438294410706e+01 -2.700897347181978603e-01
2.472168666124343872e+01 -1.044339266419410706e+01 -2.631164681166353603e-01
2.572797328233718872e+01 -1.064541903138160706e+01 -2.562042366713228603e-01
2.713977748155593872e+01 -1.103103914856910706e+01 -2.486663948744478603e-01
2.762848597764968872e+01 -1.093045321106910706e+01 -2.411132942885103603e-01
2.801435023546218872e+01 -1.077066317200660706e+01 -2.342315804213228603e-01
3.333283168077468872e+01 -1.416128817200660706e+01 -7.315980307757286027e-02
3.332874232530593872e+01 -1.416385164856910706e+01 9.950865395367713973e-02
3.332465296983718872e+01 -1.416641512513160706e+01 2.730926383286771397e-01
3.678211146593093872e+01 -1.781277742981910706e+01 4.944061148911771397e-01
3.583209925889968872e+01 -1.681595125794410706e+01 4.810088980943021397e-01
3.489075404405593872e+01 -1.585293856263160706e+01 4.674285758286771397e-01
3.395264369249343872e+01 -1.491885653138160706e+01 4.535583365708646397e-01
3.306879359483718872e+01 -1.404178133606910706e+01 4.404510367661771397e-01
3.211957484483718872e+01 -1.315884676575660706e+01 4.256347525864896397e-01
3.122870570421218872e+01 -1.233011141419410706e+01 4.117187369614896397e-01
3.026862269639968872e+01 -1.149612703919410706e+01 3.959716666489896397e-01
3.676538783311843872e+01 -1.780899325013160706e+01 6.895202506333646397e-01
3.575354701280593872e+01 -1.677847567200660706e+01 6.685394156724271397e-01
3.480750209093093872e+01 -1.581375399231910706e+01 6.479553092271146397e-01
3.388184291124343872e+01 -1.488687410950660706e+01 6.286224234849271397e-01
3.300311976671218872e+01 -1.401309481263160706e+01 6.102050650864896397e-01
3.206781703233718872e+01 -1.313772860169410706e+01 5.900176871568021397e-01
3.118744593858718872e+01 -1.231448641419410706e+01 5.718597281724271397e-01
3.023755580186843872e+01 -1.148562899231910706e+01 5.506957877427396397e-01
1.945197230577468872e+01 -3.250643640756607056e+00 1.823486197739896397e-01
2.422681361436843872e+01 -6.631991297006607056e+00 5.496581900864896397e-01
2.170526820421218872e+01 -4.844515711069107056e+00 4.668334830552396397e-01
1.926184779405593872e+01 -3.163119226694107056e+00 3.868011344224271397e-01
2.664978724718093872e+01 -8.447420984506607056e+00 1.219543326646146397e-01
1.472321254014968872e+01 4.391202330589294434e-02 -2.004943978041353603e-01
3.233264857530593872e+01 -1.338589754700660706e+01 6.622985709458646397e-01
2.950043421983718872e+01 -1.087930575013160706e+01 5.656799186021146397e-01
2.643964320421218872e+01 -8.336337000131607056e+00 4.626525748521146397e-01
2.247431117296218872e+01 -5.405306726694107056e+00 3.322357047349271397e-01
1.802777796983718872e+01 -2.334261804819107056e+00 1.878265250474271397e-01
1.372223597764968872e+01 5.437899529933929443e-01 4.878843910992713973e-02
1.757428675889968872e+01 -1.386874109506607056e+00 4.611419547349271397e-01
8.235724747180938721e+00 -1.059115320444107056e+00 1.706747423484927140e+00
5.164496719837188721e+00 7.564364373683929443e-01 1.735052477195864640e+00
5.335944473743438721e+00 6.531649529933929443e-01 1.989187609031802140e+00
1.787940150499343872e+01 -2.182040125131607056e+00 3.901580680161771397e-01
5.317084610462188721e+00 -3.616610169410705566e-02 2.777007926255521397e-01
8.773444473743438721e+00 -1.452303797006607056e+00 1.768835436180239640e+00
8.057929337024688721e+00 -1.706210047006607056e+00 2.010946642234927140e+00
5.167609512805938721e+00 6.957674920558929443e-01 1.777105699852114640e+00
8.429206192493438721e+00 -1.932406336069107056e+00 2.311254869773989640e+00
5.415656387805938721e+00 5.480624139308929443e-01 2.050436388328677140e+00
5.783942520618438721e+00 9.707919061183929443e-01 2.056295763328677140e+00
7.563910782337188721e+00 -1.405306726694107056e+00 2.510916124656802140e+00
6.265937149524688721e+00 4.159268736839294434e-02 2.375830065086489640e+00
5.647040665149688721e+00 1.050625890493392944e+00 2.300543199852114640e+00
8.420661270618438721e+00 -1.046053797006607056e+00 1.913412462547427140e+00
8.088935196399688721e+00 -2.249056726694107056e+00 2.209356676414614640e+00
8.728766739368438721e+00 -1.933749109506607056e+00 2.236334215477114640e+00
5.358527481555938721e+00 7.701083123683929443e-01 1.955923448875552140e+00
8.242865860462188721e+00 -2.345370203256607056e+00 2.500906359031802140e+00
7.583075821399688721e+00 -1.239046961069107056e+00 2.421514879539614640e+00
5.956977188587188721e+00 4.145174920558929443e-01 2.265676866844302140e+00
2.771198207139968872e+01 -9.414217859506607056e+00 4.206298697739896397e-01
2.388983851671218872e+01 -6.423373132944107056e+00 2.915252555161771397e-01
2.050177872180938721e+00 9.936190545558929443e-01 -6.984864585101036027e-02
2.217292129993438721e+00 1.533413976430892944e+00 -7.341920249163536027e-02
2.636176407337188721e+00 1.917813390493392944e+00 -6.766663901507286027e-02
1.987006485462188721e+00 1.033047765493392944e+00 1.807311881333646397e-01
2.253547012805938721e+00 1.510464757680892944e+00 1.807922232896146397e-01
2.719977676868438721e+00 1.866665929555892944e+00 1.879791129380521397e-01
3.272345840930938721e+00 2.193270623683929443e-01 4.942535270005521397e-01
8.550971329212188721e+00 -1.663607507944107056e+00 1.858816515281802140e+00
8.882392227649688721e+00 -1.140658289194107056e+00 1.860662828758364640e+00
8.505317032337188721e+00 -2.360995203256607056e+00 2.163961778953677140e+00
8.262214004993438721e+00 -1.489291101694107056e+00 2.121527086570864640e+00
5.669684708118438721e+00 7.594881951808929443e-01 1.906957994773989640e+00
7.516486465930938721e+00 -2.469149500131607056e+00 2.396017443016177140e+00
8.849921524524688721e+00 -2.574740320444107056e+00 2.477377306297427140e+00
8.041388809680938721e+00 -1.356112390756607056e+00 2.388128649070864640e+00
5.330329239368438721e+00 9.600497186183929443e-01 2.148641954734927140e+00
8.439215958118438721e+00 -1.393221765756607056e+00 2.002890001609927140e+00
8.406806290149688721e+00 -2.113802820444107056e+00 2.316046129539614640e+00
6.146003067493438721e+00 -9.920984506607055664e-03 2.116659532859927140e+00
5.645697891712188721e+00 9.838534295558929443e-01 2.054006944969302140e+00
7.539923965930938721e+00 -2.313876062631607056e+00 2.564810167625552140e+00
7.536872208118438721e+00 -1.576815515756607056e+00 2.537039171531802140e+00
8.014289200305938721e+00 -1.135897547006607056e+00 2.548941027000552140e+00
5.615668594837188721e+00 1.002041906118392944e+00 2.326116930320864640e+00
7.718818008899688721e+00 -2.746249109506607056e+00 2.696524034813052140e+00
7.554633438587188721e+00 -1.865145593881607056e+00 2.647940050438052140e+00
7.748114883899688721e+00 -1.219515711069107056e+00 2.629598985984927140e+00
5.429999649524688721e+00 9.233065545558929443e-01 2.405752550438052140e+00
5.441047012805938721e+00 -3.464388757944107056e+00 1.261633287742739640e+00
5.810920059680938721e+00 -2.919711023569107056e+00 1.559454332664614640e+00
6.278571426868438721e+00 -3.228304773569107056e+00 1.896536241844302140e+00
5.871161758899688721e+00 -3.748568445444107056e+00 2.204687486961489640e+00
6.122016251087188721e+00 -2.517977356910705566e-02 2.062322985008364640e+00
5.707099258899688721e+00 9.742098748683929443e-01 2.002493273094302140e+00
5.863044083118438721e+00 -3.740145593881607056e+00 2.510366808250552140e+00
7.497321426868438721e+00 -2.426058679819107056e+00 2.537939440086489640e+00
7.406928360462188721e+00 -1.582064539194107056e+00 2.496389757469302140e+00
6.008551895618438721e+00 4.720792174339294434e-02 2.351446520164614640e+00
5.629279434680938721e+00 1.023770421743392944e+00 2.288839708641177140e+00
1.754669886827468872e+01 -1.264407625794410706e+01 1.638128649070864640e+00
1.751837855577468872e+01 -1.262283602356910706e+01 2.014761339500552140e+00
6.001899063587188721e+00 -3.790560632944107056e+00 1.292639147117739640e+00
5.366034805774688721e+00 -4.171175867319107056e+00 1.591299425438052140e+00
6.282904922962188721e+00 -4.807406336069107056e+00 1.967459093406802140e+00
5.775641739368438721e+00 -3.633822351694107056e+00 1.901892076805239640e+00
8.339545547962188721e+00 -1.243685632944107056e+00 1.937536608055239640e+00
3.415107071399688721e+00 -2.812045007944107056e+00 2.062887560203677140e+00
8.294501602649688721e+00 -2.021395593881607056e+00 2.279501329734927140e+00
6.287665665149688721e+00 9.610265493392944336e-03 2.101782213523989640e+00
3.332770645618438721e+00 -2.753573328256607056e+00 2.357244860008364640e+00
5.937262833118438721e+00 -3.741000086069107056e+00 2.538305651023989640e+00
7.172126114368438721e+00 -2.118685632944107056e+00 2.540197740867739640e+00
7.540717422962188721e+00 -1.549593836069107056e+00 2.537313829734927140e+00
6.281806290149688721e+00 1.485928893089294434e-02 2.404959093406802140e+00
5.976264297962188721e+00 -3.779818445444107056e+00 2.404119860008364640e+00
8.163703262805938721e+00 -2.713290125131607056e+00 2.490713487938052140e+00
7.900519669055938721e+00 -1.716341882944107056e+00 2.443807970359927140e+00
7.914130508899688721e+00 -9.092129766941070557e-01 2.417150865867739640e+00
1.338587123155593872e+01 -1.075052157044410706e+01 3.425421129539614640e+00
3.200202286243438721e+00 -2.689364343881607056e+00 2.518148790672427140e+00
6.601142227649688721e+00 -4.207186609506607056e+00 2.777593981102114640e+00
7.085578262805938721e+00 -3.687045007944107056e+00 2.787680040672427140e+00
7.903266251087188721e+00 -2.547762781381607056e+00 2.795156847313052140e+00
7.552192032337188721e+00 -1.499300867319107056e+00 2.735815416648989640e+00
4.849677383899688721e+00 9.631014764308929443e-01 2.485418688133364640e+00
5.884772598743438721e+00 -3.879305750131607056e+00 2.524038683250552140e+00
7.538947403430938721e+00 -1.583529382944107056e+00 2.547430406883364640e+00
3.647101700305938721e+00 -4.018099695444107056e+00 2.716589342430239640e+00
3.203742325305938721e+00 -2.866854578256607056e+00 2.648321520164614640e+00
6.216315567493438721e+00 -4.109164148569107056e+00 2.879888902977114640e+00
7.309699356555938721e+00 -3.988436609506607056e+00 2.943746935203677140e+00
6.689826309680938721e+00 -2.721468836069107056e+00 2.860403429344302140e+00
7.250129044055938721e+00 -2.239657312631607056e+00 2.878301988914614640e+00
7.643988907337188721e+00 -1.651522547006607056e+00 2.883825670555239640e+00
6.369757950305938721e+00 -2.686800867319107056e+00 2.747259508445864640e+00
6.735236465930938721e+00 -2.068880945444107056e+00 2.750448595359927140e+00
1.473633509874343872e+01 -1.124283114075660706e+01 3.925573717430239640e+00
