1.493676096200942993e+01 -1.160551533102989197e+01 3.690735973417815785e-01
1.538451486825942993e+01 -1.175151142477989197e+01 3.874604381620940785e-01
1.624541574716567993e+01 -1.226921162009239197e+01 4.231812633574065785e-01
1.680956369638442993e+01 -1.249113544821739197e+01 4.464051403105315785e-01
1.732158762216567993e+01 -1.265080341696739197e+01 4.674164928495940785e-01
1.791619211435317993e+01 -1.287065204977989197e+01 4.918763317167815785e-01
1.401873117685317993e+01 -1.125627216696739197e+01 4.199769176542815785e-01
1.441771799325942993e+01 -1.138005146384239197e+01 4.376160778105315785e-01
1.505193430185317993e+01 -1.171989521384239197e+01 4.670502819120940785e-01
1.534539133310317993e+01 -1.171794208884239197e+01 4.799286998808440785e-01
1.629461008310317993e+01 -1.231828388571739197e+01 5.244233287870940785e-01
1.675780588388442993e+01 -1.244780048727989197e+01 5.453583873808440785e-01
1.714421945810317993e+01 -1.249675068259239197e+01 5.625550426542815785e-01
1.790599924325942993e+01 -1.286552509665489197e+01 5.983063854277190785e-01
1.397490793466567993e+01 -1.121574482321739197e+01 5.058076061308440785e-01
1.492260080575942993e+01 -1.187968525290489197e+01 5.558106578886565785e-01
1.530120187997817993e+01 -1.196354755759239197e+01 5.743653453886565785e-01
1.539824777841567993e+01 -1.177140888571739197e+01 5.774476207792815785e-01
1.634423166513442993e+01 -1.236784443259239197e+01 6.268555797636565785e-01
1.670598703622817993e+01 -1.240446552634239197e+01 6.442353405058440785e-01
1.705657297372817993e+01 -1.242240986227989197e+01 6.609589733183440785e-01
1.796953684091567993e+01 -1.292460712790489197e+01 7.080475963652190785e-01
1.392723947763442993e+01 -1.117118915915489197e+01 5.913026012480315785e-01
1.473626047372817993e+01 -1.169999775290489197e+01 6.381013073027190785e-01
1.508178049325942993e+01 -1.175553974509239197e+01 6.557099498808440785e-01
1.558294016122817993e+01 -1.194926533102989197e+01 6.832062877714690785e-01
1.634905344247817993e+01 -1.237577900290489197e+01 7.266785778105315785e-01
1.665477854013442993e+01 -1.236149677634239197e+01 7.419984020292815785e-01
1.696978098154067993e+01 -1.234880146384239197e+01 7.583405651152190785e-01
1.787816721200942993e+01 -1.284867939352989197e+01 8.098542369902190785e-01
1.388036447763442993e+01 -1.112748798727989197e+01 6.762635387480315785e-01
1.411516672372817993e+01 -1.109245380759239197e+01 6.879822887480315785e-01
1.489312082529067993e+01 -1.157719501852989197e+01 7.368409313261565785e-01
1.527373605966567993e+01 -1.166056904196739197e+01 7.585694469511565785e-01
1.628850656747817993e+01 -1.232328876852989197e+01 8.227326549589690785e-01
1.659093576669692993e+01 -1.230717548727989197e+01 8.388306774199065785e-01
1.688958078622817993e+01 -1.228105244040489197e+01 8.545930065214690785e-01
1.785271555185317993e+01 -1.283024677634239197e+01 9.149262584745940785e-01
8.075493872165679932e+00 -4.270554393529891968e+00 -6.183989368379059215e-01
8.103570044040679932e+00 -4.162278026342391968e+00 -6.138060413300934215e-01
8.147393286228179932e+00 -4.068283885717391968e+00 -6.102660022675934215e-01
8.192315161228179932e+00 -3.975388377904891968e+00 -6.068022571504059215e-01
8.236931860446929932e+00 -3.883347362279891968e+00 -6.033537708222809215e-01
8.281304419040679932e+00 -3.791672557592391968e+00 -5.999205432832184215e-01
8.325676977634429932e+00 -3.700119823217391968e+00 -5.964873157441559215e-01
8.366509497165679932e+00 -3.606980174779891968e+00 -5.931914173066559215e-01
8.914116919040679932e+00 -5.000412791967391968e+00 -6.081602893769684215e-01
8.944451391696929932e+00 -4.879563182592391968e+00 -6.035368762910309215e-01
8.980401098728179932e+00 -4.764695018529891968e+00 -5.989439807832184215e-01
9.010369360446929932e+00 -4.645554393529891968e+00 -5.943816028535309215e-01
9.039910376071929932e+00 -4.527878612279891968e+00 -5.898955188691559215e-01
9.069207251071929932e+00 -4.411301463842391968e+00 -5.854399524629059215e-01
9.092583715915679932e+00 -4.291062206029891968e+00 -5.810606800019684215e-01
9.121331274509429932e+00 -4.176682323217391968e+00 -5.766966663300934215e-01
1.002105051279067993e+01 -5.963669627904891968e+00 -5.976775012910309215e-01
1.007158762216567993e+01 -5.840866893529891968e+00 -5.933134876191559215e-01
1.012188059091567993e+01 -5.718674510717391968e+00 -5.889799915254059215e-01
1.017199045419692993e+01 -5.596848338842391968e+00 -5.846617542207184215e-01
1.022167307138442993e+01 -5.476120799779891968e+00 -5.803892932832184215e-01
1.027098947763442993e+01 -5.356125682592391968e+00 -5.761320911347809215e-01
1.032024484872817993e+01 -5.236496776342391968e+00 -5.718901477754059215e-01
1.036174875497817993e+01 -5.112351268529891968e+00 -5.674498401582184215e-01
1.053099924325942993e+01 -6.408737987279891968e+00 -5.554411731660309215e-01
1.133031564950942993e+01 -6.914597362279891968e+00 -5.734770618379059215e-01
1.137426096200942993e+01 -6.765793651342391968e+00 -5.683806262910309215e-01
1.141796213388442993e+01 -6.617600291967391968e+00 -5.633299671113434215e-01
1.146117502450942993e+01 -6.471115916967391968e+00 -5.583250842988434215e-01
1.150402170419692993e+01 -6.325852245092391968e+00 -5.533659778535309215e-01
1.154662424325942993e+01 -6.181320995092391968e+00 -5.484221301972809215e-01
1.157512766122817993e+01 -6.028244823217391968e+00 -5.435240589082184215e-01
1.058202463388442993e+01 -6.455246776342391968e+00 -4.951536975800934215e-01
1.143706613779067993e+01 -7.007859081029891968e+00 -5.105498157441559215e-01
1.243883615732192993e+01 -7.656540721654891968e+00 -5.286314807832184215e-01
1.308397775888442993e+01 -7.982346385717391968e+00 -5.373747669160309215e-01
1.309008127450942993e+01 -7.778611034154891968e+00 -5.309202991425934215e-01
1.309606271982192993e+01 -7.578049510717391968e+00 -5.245726428925934215e-01
1.310198312997817993e+01 -7.379685252904891968e+00 -5.182860217988434215e-01
1.310778146982192993e+01 -7.184983104467391968e+00 -5.121214710175934215e-01
1.063335520029067993e+01 -6.501999706029891968e+00 -4.345763050019684215e-01
1.149736887216567993e+01 -7.061447948217391968e+00 -4.451201282441559215e-01
1.248650461435317993e+01 -7.698777049779891968e+00 -4.574797473847809215e-01
1.373119455575942993e+01 -8.514328807592391968e+00 -4.734251819550934215e-01
1.528991037607192993e+01 -9.544480174779891968e+00 -4.936430774629059215e-01
1.521923166513442993e+01 -9.247849315404891968e+00 -4.855559192597809215e-01
1.520696359872817993e+01 -9.001511424779891968e+00 -4.785521350800934215e-01
1.522423654794692993e+01 -8.782395213842391968e+00 -4.726164661347809215e-01
1.872271066904067993e+01 -1.353740009665489197e+01 -4.765990100800934215e-01
1.259484201669692993e+01 -7.998947948217391968e+00 -3.922026477754059215e-01
1.282183176279067993e+01 -7.981247752904891968e+00 -3.895781360566559215e-01
1.382415109872817993e+01 -8.593064159154891968e+00 -3.957884632050934215e-01
1.543291574716567993e+01 -9.662033885717391968e+00 -4.080107532441559215e-01
1.809630686044692993e+01 -1.151078876852989197e+01 -4.302733264863434215e-01
1.890581613779067993e+01 -1.185063251852989197e+01 -4.312956653535309215e-01
1.838164621591567993e+01 -1.116508564352989197e+01 -4.186156116425934215e-01
1.869561105966567993e+01 -1.351774677634239197e+01 -3.654387317597809215e-01
1.933757883310317993e+01 -1.374845966696739197e+01 -3.622954212129059215e-01
1.968724924325942993e+01 -1.371843037009239197e+01 -3.564055286347809215e-01
2.006078439950942993e+01 -1.370024189352989197e+01 -3.510802112519684215e-01
1.655217844247817993e+01 -1.056266865134239197e+01 -3.252928577363434215e-01
1.847228342294692993e+01 -1.180961689352989197e+01 -3.286345325410309215e-01
2.641942697763442993e+01 -1.763737568259239197e+01 -3.585265003144684215e-01
2.575725656747817993e+01 -1.672953876852989197e+01 -3.463957630097809215e-01
1.844091135263442993e+01 -1.330009540915489197e+01 -2.538054309785309215e-01
1.936431223154067993e+01 -1.377519306540489197e+01 -2.479002796113434215e-01
1.971758371591567993e+01 -1.374760517477989197e+01 -2.414458118379059215e-01
2.846746164560317993e+01 -2.058635029196739197e+01 -2.322295032441559215e-01
2.723351389169692993e+01 -1.913395771384239197e+01 -2.237608753144684215e-01
3.367192941904067993e+01 -2.375895771384239197e+01 -2.088225208222809215e-01
3.822643381357192993e+01 -2.673246845602989197e+01 -1.922819934785309215e-01
5.495543771982192993e+01 -3.875444111227989197e+01 -1.535704456269684215e-01
1.831249338388442993e+01 -1.319206318259239197e+01 -1.451628528535309215e-01
1.939104562997817993e+01 -1.380192646384239197e+01 -1.337645374238434215e-01
1.974804025888442993e+01 -1.377702412009239197e+01 -1.261046253144684215e-01
3.513152414560317993e+01 -2.547624287009239197e+01 -1.480701789259342149e-02
3.348162180185317993e+01 -2.361564716696739197e+01 -1.636341437696842149e-02
3.426952463388442993e+01 -2.369242939352989197e+01 -1.699718087905921493e-03
3.409862619638442993e+01 -2.303129658102989197e+01 6.158558279281578507e-03
1.820116525888442993e+01 -1.309904560446739197e+01 -3.728321418165592149e-02
1.860747629404067993e+01 -1.313749775290489197e+01 -2.814319953321842149e-02
1.977874094247817993e+01 -1.380668720602989197e+01 -9.725841134780921493e-03
6.039867502450942993e+01 -4.675126728415489197e+01 4.900910533964690785e-01
3.500176340341567993e+01 -2.537895283102989197e+01 1.886078990995940785e-01
3.343200021982192993e+01 -2.358305439352989197e+01 1.767365612089690785e-01
3.358251291513442993e+01 -2.316972431540489197e+01 1.862122692167815785e-01
3.385216623544692993e+01 -2.285160908102989197e+01 1.971680797636565785e-01
1.814141184091567993e+01 -1.305082783102989197e+01 6.960460320115657851e-02
1.850072580575942993e+01 -1.305021747946739197e+01 7.946178093553157851e-02
1.985924631357192993e+01 -1.387797626852989197e+01 1.073090709745940785e-01
3.505028635263442993e+01 -2.542460712790489197e+01 3.927247203886565785e-01
3.343779855966567993e+01 -2.359404072165489197e+01 3.693024791777190785e-01
3.357384592294692993e+01 -2.316935810446739197e+01 3.778474010527190785e-01
3.384557443857192993e+01 -2.285282978415489197e+01 3.888947643339690785e-01
1.808452707529067993e+01 -1.300505146384239197e+01 1.764313854277190785e-01
1.843908029794692993e+01 -1.300151142477989197e+01 1.874482311308440785e-01
1.994408518075942993e+01 -1.395280537009239197e+01 2.254426158964690785e-01
3.537035471200942993e+01 -2.568840107321739197e+01 6.040284313261565785e-01
3.348522287607192993e+01 -2.363761982321739197e+01 5.629822887480315785e-01
3.359563547372817993e+01 -2.319242939352989197e+01 5.712067760527190785e-01
3.389556223154067993e+01 -2.289677509665489197e+01 5.830018199980315785e-01
1.802874094247817993e+01 -1.296025165915489197e+01 2.820527233183440785e-01
1.837822824716567993e+01 -1.295329365134239197e+01 2.941682018339690785e-01
2.019799143075942993e+01 -1.416923603415489197e+01 3.503052867949065785e-01
3.378942209482192993e+01 -2.388346943259239197e+01 7.660615123808440785e-01
3.418962961435317993e+01 -2.365654072165489197e+01 7.811524547636565785e-01
3.393529611825942993e+01 -2.293290790915489197e+01 7.763917125761565785e-01
1.797301584482192993e+01 -1.291545185446739197e+01 3.875977672636565785e-01
1.831774240732192993e+01 -1.290532001852989197e+01 4.002015270292815785e-01
1.958800607919692993e+01 -1.366288837790489197e+01 4.466035045683440785e-01
2.372606760263442993e+01 -1.673271259665489197e+01 5.961701549589690785e-01
3.458001047372817993e+01 -2.451213154196739197e+01 9.892365612089690785e-01
3.554979807138442993e+01 -2.471159443259239197e+01 1.025674549490219079e+00
1.791796213388442993e+01 -1.287114033102989197e+01 4.919526256620940785e-01
1.825823312997817993e+01 -1.285820087790489197e+01 5.061432994902190785e-01
1.957293039560317993e+01 -1.365422138571739197e+01 5.611664928495940785e-01
2.350176340341567993e+01 -1.655351337790489197e+01 7.257172740995940785e-01
1.790783029794692993e+01 -1.286613544821739197e+01 5.983826793730315785e-01
1.826567941904067993e+01 -1.286833271384239197e+01 6.140229381620940785e-01
1.888164621591567993e+01 -1.307939228415489197e+01 6.425721324980315785e-01
2.325066477060317993e+01 -1.635221943259239197e+01 8.505952037870940785e-01
1.797142893075942993e+01 -1.292521747946739197e+01 7.081544078886565785e-01
1.837944895029067993e+01 -1.296928486227989197e+01 7.283570446074065785e-01
1.886950021982192993e+01 -1.307304462790489197e+01 7.529084362089690785e-01
2.306694895029067993e+01 -1.620597919821739197e+01 9.768769420683440785e-01
1.788750559091567993e+01 -1.285575947165489197e+01 8.104035533964690785e-01
1.848815256357192993e+01 -1.306596454977989197e+01 8.437745250761565785e-01
1.895311838388442993e+01 -1.314689716696739197e+01 8.682953990995940785e-01
2.308025461435317993e+01 -1.622148212790489197e+01 1.112069813162094079e+00
1.785668283700942993e+01 -1.283256611227989197e+01 9.151703990995940785e-01
1.858794504404067993e+01 -1.315495380759239197e+01 9.593751110136565785e-01
1.950316721200942993e+01 -1.361149677634239197e+01 1.016030994802719079e+00
2.312389475107192993e+01 -1.626188740134239197e+01 1.250161854177719079e+00
8.366692602634429932e+00 -3.606613963842391968e+00 -5.931761585175934215e-01
8.409722387790679932e+00 -3.515671581029891968e+00 -5.898192249238434215e-01
8.449517309665679932e+00 -3.422776073217391968e+00 -5.865843616425934215e-01
8.489312231540679932e+00 -3.329880565404891968e+00 -5.833494983613434215e-01
8.528740942478179932e+00 -3.237839549779891968e+00 -5.801298938691559215e-01
8.570305883884429932e+00 -3.147507518529891968e+00 -5.770171009004059215e-01
8.632561743259429932e+00 -3.071091502904891968e+00 -5.747588001191559215e-01
8.690545141696929932e+00 -2.991989940404891968e+00 -5.725767932832184215e-01
9.121331274509429932e+00 -4.176194041967391968e+00 -5.766661487519684215e-01
9.169549047946929932e+00 -4.077317088842391968e+00 -5.733855091035309215e-01
9.227654516696929932e+00 -3.986008495092391968e+00 -5.702116809785309215e-01
9.277703344821929932e+00 -3.888718456029891968e+00 -5.670073352754059215e-01
9.293999731540679932e+00 -3.768845409154891968e+00 -5.625975452363434215e-01
9.310113012790679932e+00 -3.650193065404891968e+00 -5.582335315644684215e-01
9.321831762790679932e+00 -3.529465526342391968e+00 -5.540068469941559215e-01
9.337639868259429932e+00 -3.413254588842391968e+00 -5.497343860566559215e-01
1.036156564950942993e+01 -5.111740916967391968e+00 -5.674193225800934215e-01
1.038036447763442993e+01 -4.971970409154891968e+00 -5.625822864472809215e-01
1.039898020029067993e+01 -4.833664745092391968e+00 -5.577910266816559215e-01
1.041747385263442993e+01 -4.696335643529891968e+00 -5.530302844941559215e-01
1.043566232919692993e+01 -4.560837596654891968e+00 -5.483458362519684215e-01
1.045372873544692993e+01 -4.426682323217391968e+00 -5.436919055879059215e-01
1.047167307138442993e+01 -4.293503612279891968e+00 -5.390837512910309215e-01
1.048931223154067993e+01 -4.162155956029891968e+00 -5.345366321504059215e-01
1.157500559091567993e+01 -6.027512401342391968e+00 -5.434935413300934215e-01
1.161199289560317993e+01 -5.882370799779891968e+00 -5.384733997285309215e-01
1.164263254404067993e+01 -5.733933299779891968e+00 -5.336821399629059215e-01
1.167302805185317993e+01 -5.586228221654891968e+00 -5.289061389863434215e-01
1.170311838388442993e+01 -5.440232127904891968e+00 -5.241759143769684215e-01
1.173296457529067993e+01 -5.295578807592391968e+00 -5.195067249238434215e-01
1.176262766122817993e+01 -5.151657909154891968e+00 -5.148527942597809215e-01
1.178582102060317993e+01 -5.005539745092391968e+00 -5.104430042207184215e-01
1.310735422372817993e+01 -7.184006541967391968e+00 -5.120909534394684215e-01
1.310552316904067993e+01 -6.986496776342391968e+00 -5.061247669160309215e-01
1.310375314950942993e+01 -6.791794627904891968e+00 -5.002501331269684215e-01
1.310198312997817993e+01 -6.599167674779891968e+00 -4.944365344941559215e-01
1.310021311044692993e+01 -6.409958690404891968e+00 -4.887297473847809215e-01
1.309850412607192993e+01 -6.223435252904891968e+00 -4.830992542207184215e-01
1.311858469247817993e+01 -6.053391307592391968e+00 -4.779265247285309215e-01
1.315038400888442993e+01 -5.893357127904891968e+00 -4.730589710175934215e-01
1.522405344247817993e+01 -8.781418651342391968e+00 -4.725859485566559215e-01
1.525341135263442993e+01 -8.574021190404891968e+00 -4.662688098847809215e-01
1.523723703622817993e+01 -8.336106151342391968e+00 -4.597990833222809215e-01
1.519164377450942993e+01 -8.080368846654891968e+00 -4.529936634004059215e-01
1.521971994638442993e+01 -7.880661815404891968e+00 -4.473479114472809215e-01
1.524755197763442993e+01 -7.683152049779891968e+00 -4.417631946504059215e-01
1.527520090341567993e+01 -7.486985057592391968e+00 -4.362089954316559215e-01
1.529039865732192993e+01 -7.285446971654891968e+00 -4.310057483613434215e-01
1.838005930185317993e+01 -1.116288837790489197e+01 -4.185698352754059215e-01
1.826897531747817993e+01 -1.080302509665489197e+01 -4.105894885957184215e-01
1.820836740732192993e+01 -1.048686298727989197e+01 -4.032500110566559215e-01
1.814873605966567993e+01 -1.017619404196739197e+01 -3.960326038300934215e-01
1.809032541513442993e+01 -9.872727245092391968e+00 -3.889983020722809215e-01
1.805175119638442993e+01 -9.588059276342391968e+00 -3.822386585175934215e-01
1.806523996591567993e+01 -9.341721385717391968e+00 -3.759825550019684215e-01
1.807848459482192993e+01 -9.099289745092391968e+00 -3.698180042207184215e-01
2.575206857919692993e+01 -1.672428974509239197e+01 -3.463499866425934215e-01
2.513738352060317993e+01 -1.587809833884239197e+01 -3.352568469941559215e-01
2.489482980966567993e+01 -1.532548603415489197e+01 -3.252623401582184215e-01
2.447368723154067993e+01 -1.465776142477989197e+01 -3.157255969941559215e-01
2.415679270029067993e+01 -1.408110126852989197e+01 -3.068907581269684215e-01
2.391198068857192993e+01 -1.356755146384239197e+01 -2.985442005097809215e-01
2.350640207529067993e+01 -1.295805439352989197e+01 -2.907927356660309215e-01
2.331078439950942993e+01 -1.250224384665489197e+01 -2.831023059785309215e-01
5.495983225107192993e+01 -3.875480732321739197e+01 -1.535094104707184215e-01
5.525908762216567993e+01 -3.813115009665489197e+01 -1.363432727754059215e-01
4.999932199716567993e+01 -3.348906025290489197e+01 -1.315062366425934215e-01
5.214281564950942993e+01 -3.425810322165489197e+01 -1.114256702363434215e-01
5.260558420419692993e+01 -3.381108173727989197e+01 -9.503773078321842149e-02
5.213097482919692993e+01 -3.272490009665489197e+01 -8.148792609571842149e-02
5.486907297372817993e+01 -3.379435810446739197e+01 -5.754688605665592149e-02
5.451592355966567993e+01 -3.278935322165489197e+01 -4.360035285353092149e-02
3.410009104013442993e+01 -2.303056415915489197e+01 6.204334646469078507e-03
3.473558908700942993e+01 -2.297831806540489197e+01 1.990672722459407851e-02
5.001604562997817993e+01 -3.351005634665489197e+01 1.489960826933440785e-01
5.629699045419692993e+01 -3.721012958884239197e+01 2.127625621855315785e-01
5.314965158700942993e+01 -3.419743427634239197e+01 2.005250133574065785e-01
5.243389230966567993e+01 -3.293937763571739197e+01 2.074830211699065785e-01
5.372582346200942993e+01 -3.304386982321739197e+01 2.317750133574065785e-01
6.058269602060317993e+01 -3.674260029196739197e+01 3.071686901152190785e-01
3.385344797372817993e+01 -2.285075458884239197e+01 1.972138561308440785e-01
3.420891672372817993e+01 -2.259538349509239197e+01 2.093903698027190785e-01
4.996575266122817993e+01 -3.348259052634239197e+01 4.303528942167815785e-01
4.858776193857192993e+01 -3.175724872946739197e+01 4.221284069120940785e-01
5.721325021982192993e+01 -3.702568134665489197e+01 5.530182994902190785e-01
5.306670480966567993e+01 -3.337797626852989197e+01 5.061280407011565785e-01
5.354320627450942993e+01 -3.293144306540489197e+01 5.239503063261565785e-01
5.483947092294692993e+01 -3.301750263571739197e+01 5.537507213652190785e-01
3.384673410654067993e+01 -2.285185322165489197e+01 3.889252819120940785e-01
3.418554025888442993e+01 -2.258427509665489197e+01 4.014527477324065785e-01
5.507872873544692993e+01 -3.719267353415489197e+01 8.088929332792815785e-01
4.856969553232192993e+01 -3.175297626852989197e+01 6.923920787870940785e-01
4.714611154794692993e+01 -3.004985126852989197e+01 6.729371227324065785e-01
4.578807932138442993e+01 -2.844291767477989197e+01 6.541688121855315785e-01
4.458483225107192993e+01 -2.698527607321739197e+01 6.379334606230315785e-01
4.344329172372817993e+01 -2.561332783102989197e+01 6.224000133574065785e-01
3.389684396982192993e+01 -2.289592060446739197e+01 5.830323375761565785e-01
3.422618967294692993e+01 -2.262052997946739197e+01 5.959107555449065785e-01
5.587780100107192993e+01 -3.778105244040489197e+01 1.138101307302719079e+00
5.529650217294692993e+01 -3.653032001852989197e+01 1.131204334646469079e+00
5.630919748544692993e+01 -3.641789326071739197e+01 1.164087025076156579e+00
5.337090402841567993e+01 -3.360258564352989197e+01 1.097268787771469079e+00
5.357622629404067993e+01 -3.297123798727989197e+01 1.111032215505844079e+00
5.388951975107192993e+01 -3.241740497946739197e+01 1.125940052419906579e+00
3.393657785654067993e+01 -2.293217548727989197e+01 7.764374889433440785e-01
3.557427316904067993e+01 -2.362358173727989197e+01 8.296754039824065785e-01
5.656627756357192993e+01 -3.828959736227989197e+01 1.474755970388656579e+00
5.495861154794692993e+01 -3.630046162009239197e+01 1.430947986990219079e+00
5.523693186044692993e+01 -3.568315204977989197e+01 1.444741932302719079e+00
5.580767160654067993e+01 -3.526762470602989197e+01 1.467538563162094079e+00
5.436718088388442993e+01 -3.350615009665489197e+01 1.428155628591781579e+00
5.449254709482192993e+01 -3.281865009665489197e+01 1.437005726248031579e+00
3.458037668466567993e+01 -2.289482197165489197e+01 9.941651500761565785e-01
5.566216379404067993e+01 -3.764469990134239197e+01 1.759912220388656579e+00
5.667772775888442993e+01 -3.752946552634239197e+01 1.799966541677719079e+00
5.511492258310317993e+01 -3.560783466696739197e+01 1.746362415701156579e+00
5.628618723154067993e+01 -3.560221943259239197e+01 1.792062488943344079e+00
5.683586984872817993e+01 -3.435295185446739197e+01 1.819925037771469079e+00
5.498790842294692993e+01 -3.800065693259239197e+01 2.045221058279281579e+00
5.531389719247817993e+01 -3.740239033102989197e+01 2.059869495779281579e+00
5.699022775888442993e+01 -3.776115497946739197e+01 2.131143299490219079e+00
5.453917795419692993e+01 -3.521745380759239197e+01 2.029290882498031579e+00
5.548546701669692993e+01 -3.506742939352989197e+01 2.069955555349594079e+00
5.680468088388442993e+01 -3.514616474509239197e+01 2.126291004568344079e+00
5.684349924325942993e+01 -3.436723408102989197e+01 2.128854481130844079e+00
5.489580637216567993e+01 -3.794242939352989197e+01 2.352151600271469079e+00
5.524590402841567993e+01 -3.736283954977989197e+01 2.367608753591781579e+00
5.497484689950942993e+01 -3.634086689352989197e+01 2.353494373708969079e+00
5.519384104013442993e+01 -3.568168720602989197e+01 2.362725941091781579e+00
5.647240549325942993e+01 -3.574797138571739197e+01 2.422326771169906579e+00
5.753331857919692993e+01 -3.564054951071739197e+01 2.471536365896469079e+00
5.554863840341567993e+01 -3.759220966696739197e+01 2.696054188162094079e+00
5.718065744638442993e+01 -3.791630634665489197e+01 2.779504505544906579e+00
5.496910959482192993e+01 -3.473490986227989197e+01 2.655175892263656579e+00
5.747509104013442993e+01 -3.561149677634239197e+01 2.784860340505844079e+00
5.592357736825942993e+01 -3.378654560446739197e+01 2.699304310232406579e+00
5.693840891122817993e+01 -3.860990986227989197e+01 3.090463367849594079e+00
5.727703195810317993e+01 -3.799467548727989197e+01 3.104623524099594079e+00
5.729949289560317993e+01 -3.716447529196739197e+01 3.100244251638656579e+00
5.628582102060317993e+01 -3.482902607321739197e+01 3.031350819021469079e+00
5.591539865732192993e+01 -3.379032978415489197e+01 3.004296986013656579e+00
5.692394357919692993e+01 -3.860954365134239197e+01 3.411660877615219079e+00
5.516539865732192993e+01 -3.569047626852989197e+01 3.282525745779281579e+00
5.609868723154067993e+01 -3.552238544821739197e+01 3.334939686208969079e+00
5.755651193857192993e+01 -3.568486103415489197e+01 3.420800892263656579e+00
5.574053293466567993e+01 -3.368559345602989197e+01 3.298593250662094079e+00
8.690911352634429932e+00 -2.991867870092391968e+00 -5.725767932832184215e-01
8.740899145603179932e+00 -2.907639354467391968e+00 -5.698912464082184215e-01
8.784905493259429932e+00 -2.819626659154891968e+00 -5.672056995332184215e-01
8.828911840915679932e+00 -2.731613963842391968e+00 -5.645048938691559215e-01
8.872735083103179932e+00 -2.643845409154891968e+00 -5.618346057832184215e-01
8.916497290134429932e+00 -2.556320995092391968e+00 -5.591643176972809215e-01
8.960320532321929932e+00 -2.468552440404891968e+00 -5.564940296113434215e-01
8.997857153415679932e+00 -2.377854198217391968e+00 -5.538390003144684215e-01
9.337700903415679932e+00 -3.412888377904891968e+00 -5.497343860566559215e-01
9.348626196384429932e+00 -3.294724315404891968e+00 -5.456145130097809215e-01
9.363640844821929932e+00 -3.180344432592391968e+00 -5.414336048066559215e-01
9.416192114353179932e+00 -3.089402049779891968e+00 -5.387785755097809215e-01
9.479912817478179932e+00 -3.005539745092391968e+00 -5.365050159394684215e-01
9.548272192478179932e+00 -2.924118846654891968e+00 -5.343687854707184215e-01
9.633050024509429932e+00 -2.851242870092391968e+00 -5.329802356660309215e-01
9.722588598728179932e+00 -2.780564159154891968e+00 -5.314696155488434215e-01
1.048955637216567993e+01 -4.161911815404891968e+00 -5.345213733613434215e-01
1.052196604013442993e+01 -4.041184276342391968e+00 -5.307219348847809215e-01
1.055516916513442993e+01 -3.921799510717391968e+00 -5.269835315644684215e-01
1.058831125497817993e+01 -3.802658885717391968e+00 -5.232451282441559215e-01
1.062114816904067993e+01 -3.684494823217391968e+00 -5.195372425019684215e-01
1.065380197763442993e+01 -3.567063182592391968e+00 -5.158598743379059215e-01
1.068639475107192993e+01 -3.449875682592391968e+00 -5.121825061738434215e-01
1.072374826669692993e+01 -3.336594432592391968e+00 -5.086577259004059215e-01
1.178575998544692993e+01 -5.004929393529891968e+00 -5.104124866425934215e-01
1.181578928232192993e+01 -4.864426463842391968e+00 -5.058348499238434215e-01
1.183953195810317993e+01 -4.721237987279891968e+00 -5.014555774629059215e-01
1.186321359872817993e+01 -4.578659862279891968e+00 -4.971068225800934215e-01
1.190941721200942993e+01 -4.451218456029891968e+00 -4.933226428925934215e-01
1.198503977060317993e+01 -4.341477245092391968e+00 -4.901793323457184215e-01
1.206102854013442993e+01 -4.231125682592391968e+00 -4.870207630097809215e-01
1.214836984872817993e+01 -4.127487987279891968e+00 -4.844267688691559215e-01
1.315038400888442993e+01 -5.892746776342391968e+00 -4.730437122285309215e-01
1.317546945810317993e+01 -5.730027049779891968e+00 -4.683592639863434215e-01
1.320037180185317993e+01 -5.568528026342391968e+00 -4.637053333222809215e-01
1.322515207529067993e+01 -5.407883495092391968e+00 -4.590819202363434215e-01
1.324962717294692993e+01 -5.249070018529891968e+00 -4.545195423066559215e-01
1.331334787607192993e+01 -5.114426463842391968e+00 -4.506285510957184215e-01
1.343334299325942993e+01 -5.011521190404891968e+00 -4.476225696504059215e-01
1.356456857919692993e+01 -4.914231151342391968e+00 -4.447691760957184215e-01
1.529039865732192993e+01 -7.284714549779891968e+00 -4.309904895722809215e-01
1.533409982919692993e+01 -7.103684276342391968e+00 -4.256041370332184215e-01
1.539049631357192993e+01 -6.931809276342391968e+00 -4.208281360566559215e-01
1.544677072763442993e+01 -6.760178416967391968e+00 -4.160673938691559215e-01
1.550261789560317993e+01 -6.589768260717391968e+00 -4.113371692597809215e-01
1.555822092294692993e+01 -6.420212596654891968e+00 -4.066222034394684215e-01
1.561376291513442993e+01 -6.250901073217391968e+00 -4.019224964082184215e-01
1.581005197763442993e+01 -6.161179393529891968e+00 -3.991301380097809215e-01
1.807830148935317993e+01 -9.098313182592391968e+00 -3.698027454316559215e-01
1.808532053232192993e+01 -8.854660838842391968e+00 -3.638975940644684215e-01
1.813897043466567993e+01 -8.642868846654891968e+00 -3.583739124238434215e-01
1.826287180185317993e+01 -8.474411815404891968e+00 -3.533079944550934215e-01
1.838659006357192993e+01 -8.306198924779891968e+00 -3.482573352754059215e-01
1.852422434091567993e+01 -8.145676463842391968e+00 -3.432677112519684215e-01
1.938097482919692993e+01 -8.391648143529891968e+00 -3.420775257050934215e-01
1.969432932138442993e+01 -8.317551463842391968e+00 -3.377135120332184215e-01
2.330608469247817993e+01 -1.249809345602989197e+01 -2.830717884004059215e-01
2.298619943857192993e+01 -1.197306904196739197e+01 -2.756254993379059215e-01
2.299608713388442993e+01 -1.166606220602989197e+01 -2.682097278535309215e-01
2.356597238779067993e+01 -1.170182880759239197e+01 -2.620146594941559215e-01
2.488152414560317993e+01 -1.217021259665489197e+01 -2.560637317597809215e-01
2.560039621591567993e+01 -1.226042255759239197e+01 -2.492125354707184215e-01
2.607970529794692993e+01 -1.219816669821739197e+01 -2.427275501191559215e-01
2.738030344247817993e+01 -1.258415302634239197e+01 -2.352049671113434215e-01
5.451751047372817993e+01 -3.278776630759239197e+01 -4.353931769728092149e-02
4.257726389169692993e+01 -2.443449482321739197e+01 -7.572010383009342149e-02
5.532232004404067993e+01 -3.177629169821739197e+01 -1.108387336134342149e-02
5.283910471200942993e+01 -2.950993427634239197e+01 -7.589610666030921493e-03
5.273717600107192993e+01 -2.873857197165489197e+01 5.593983083969078507e-03
6.058855539560317993e+01 -3.674345478415489197e+01 3.072755016386565785e-01
4.257299143075942993e+01 -2.443852314352989197e+01 1.531006969511565785e-01
5.576744943857192993e+01 -3.206193622946739197e+01 2.894532360136565785e-01
5.320177561044692993e+01 -2.973881611227989197e+01 2.771241344511565785e-01
5.415410715341567993e+01 -2.958952412009239197e+01 2.987763561308440785e-01
5.483928781747817993e+01 -3.301481708884239197e+01 5.537964977324065785e-01
4.256871896982192993e+01 -2.444267353415489197e+01 3.831422008574065785e-01
5.883385568857192993e+01 -3.397905048727989197e+01 6.358277477324065785e-01
4.343468576669692993e+01 -2.560563740134239197e+01 6.222626842558440785e-01
4.234685617685317993e+01 -2.430827412009239197e+01 6.075837291777190785e-01
4.127288156747817993e+01 -2.305717548727989197e+01 5.927369274199065785e-01
4.019109445810317993e+01 -2.183586201071739197e+01 5.772950328886565785e-01
3.912395578622817993e+01 -2.066130146384239197e+01 5.617158092558440785e-01
3.810265451669692993e+01 -1.954838642477989197e+01 5.466553844511565785e-01
3.709868723154067993e+01 -1.847685322165489197e+01 5.315797008574065785e-01
3.612896066904067993e+01 -1.745829853415489197e+01 5.168244518339690785e-01
5.388781076669692993e+01 -3.241362079977989197e+01 1.125909534841781579e+00
6.074901682138442993e+01 -3.602873310446739197e+01 1.309640613943344079e+00
3.724932199716567993e+01 -1.856803974509239197e+01 7.299592174589690785e-01
3.626091867685317993e+01 -1.753678974509239197e+01 7.084595836699065785e-01
5.449157053232192993e+01 -3.281535419821739197e+01 1.436990467458969079e+00
6.035930734872817993e+01 -3.579032978415489197e+01 1.625360218435531579e+00
5.606847482919692993e+01 -3.228471454977989197e+01 1.497445789724594079e+00
5.991961008310317993e+01 -3.386308369040489197e+01 1.623849598318344079e+00
5.683544260263442993e+01 -3.435002216696739197e+01 1.819925037771469079e+00
5.599071604013442993e+01 -3.301786884665489197e+01 1.791375843435531579e+00
5.960021311044692993e+01 -3.367778095602989197e+01 1.931649891287094079e+00
5.683031564950942993e+01 -3.435588154196739197e+01 2.128305164724594079e+00
5.863109689950942993e+01 -3.470878681540489197e+01 2.206140247732406579e+00
5.549651437997817993e+01 -3.194596943259239197e+01 2.076379505544906579e+00
5.737358957529067993e+01 -3.233036884665489197e+01 2.157449451833969079e+00
5.527037912607192993e+01 -3.257682880759239197e+01 2.363122669607406579e+00
5.907683664560317993e+01 -3.418632587790489197e+01 2.544107166677719079e+00
5.868291574716567993e+01 -3.313725361227989197e+01 2.525628773123031579e+00
5.623803049325942993e+01 -3.088920673727989197e+01 2.409738270193344079e+00
5.641661936044692993e+01 -3.024430927634239197e+01 2.418435779958969079e+00
5.592699533700942993e+01 -3.378605732321739197e+01 2.699472156912094079e+00
5.596074777841567993e+01 -3.302580341696739197e+01 2.699624744802719079e+00
5.572148996591567993e+01 -3.210392841696739197e+01 2.685357777029281579e+00
5.574974924325942993e+01 -3.135832294821739197e+01 2.685266224294906579e+00
5.605815988779067993e+01 -3.079069599509239197e+01 2.699990955740219079e+00
5.649712473154067993e+01 -3.029972919821739197e+01 2.721627918630844079e+00
5.591820627450942993e+01 -3.378947529196739197e+01 3.004434315115219079e+00
5.596709543466567993e+01 -3.303886494040489197e+01 3.003808704763656579e+00
5.507653146982192993e+01 -3.171049579977989197e+01 2.946801868826156579e+00
5.623546701669692993e+01 -3.166313251852989197e+01 3.010980335623031579e+00
5.607689768075942993e+01 -3.081034931540489197e+01 2.998376575857406579e+00
5.671758371591567993e+01 -3.043669208884239197e+01 3.032296863943344079e+00
5.574572092294692993e+01 -3.368620380759239197e+01 3.298913685232406579e+00
5.500505930185317993e+01 -3.243437275290489197e+01 3.244653431326156579e+00
5.501226145029067993e+01 -3.167912372946739197e+01 3.239923206716781579e+00
5.619915109872817993e+01 -3.164982685446739197e+01 3.310373035818344079e+00
8.997918188571929932e+00 -2.377610057592391968e+00 -5.538237415254059215e-01
9.040032446384429932e+00 -2.289597362279891968e+00 -5.511687122285309215e-01
9.075921118259429932e+00 -2.198410838842391968e+00 -5.485442005097809215e-01
9.147027075290679932e+00 -2.125290721654891968e+00 -5.471403919160309215e-01
9.250847876071929932e+00 -2.068283885717391968e+00 -5.468657337129059215e-01
9.356133520603179932e+00 -2.010422557592391968e+00 -5.465758167207184215e-01
9.481499731540679932e+00 -1.960373729467391968e+00 -5.469115100800934215e-01
9.620904028415679932e+00 -1.915329784154891968e+00 -5.479033313691559215e-01
9.723015844821929932e+00 -2.780442088842391968e+00 -5.314696155488434215e-01
9.808342993259429932e+00 -2.706467479467391968e+00 -5.300810657441559215e-01
9.898858129978179932e+00 -2.634323924779891968e+00 -5.285704456269684215e-01
1.001091867685317993e+01 -2.571701854467391968e+00 -5.278990589082184215e-01
1.018206125497817993e+01 -2.537766307592391968e+00 -5.289366565644684215e-01
1.035759836435317993e+01 -2.502854198217391968e+00 -5.300047717988434215e-01
1.053203684091567993e+01 -2.463913768529891968e+00 -5.312102161347809215e-01
1.068877512216567993e+01 -2.414109081029891968e+00 -5.315306507050934215e-01
1.072435861825942993e+01 -3.336472362279891968e+00 -5.086577259004059215e-01
1.084990793466567993e+01 -3.271286815404891968e+00 -5.077116809785309215e-01
1.097728830575942993e+01 -3.205246776342391968e+00 -5.067351184785309215e-01
1.111803537607192993e+01 -3.143845409154891968e+00 -5.060332141816559215e-01
1.129302316904067993e+01 -3.097824901342391968e+00 -5.061095081269684215e-01
1.147197824716567993e+01 -3.050827831029891968e+00 -5.061705432832184215e-01
1.165563303232192993e+01 -3.002610057592391968e+00 -5.062468372285309215e-01
1.184288889169692993e+01 -2.953293651342391968e+00 -5.063231311738434215e-01
1.214910227060317993e+01 -4.127365916967391968e+00 -4.844267688691559215e-01
1.227916818857192993e+01 -4.046311229467391968e+00 -4.823210559785309215e-01
1.240544992685317993e+01 -3.961350291967391968e+00 -4.804137073457184215e-01
1.253356271982192993e+01 -3.875290721654891968e+00 -4.784758411347809215e-01
1.270537668466567993e+01 -3.809983104467391968e+00 -4.773314319550934215e-01
1.288042551279067993e+01 -3.743454784154891968e+00 -4.761870227754059215e-01
1.306157785654067993e+01 -3.676682323217391968e+00 -4.750578723847809215e-01
1.334002023935317993e+01 -3.652756541967391968e+00 -4.759733997285309215e-01
1.356560617685317993e+01 -4.914231151342391968e+00 -4.447691760957184215e-01
1.375200754404067993e+01 -4.845261424779891968e+00 -4.429838977754059215e-01
1.394176584482192993e+01 -4.775070995092391968e+00 -4.411681018769684215e-01
1.416289621591567993e+01 -4.717331737279891968e+00 -4.397032581269684215e-01
1.450005441904067993e+01 -4.714768260717391968e+00 -4.397795520722809215e-01
1.485051828622817993e+01 -4.712204784154891968e+00 -4.398711048066559215e-01
1.517119699716567993e+01 -4.687790721654891968e+00 -4.393523059785309215e-01
1.547521311044692993e+01 -4.650193065404891968e+00 -4.384672962129059215e-01
1.581169992685317993e+01 -6.161423534154891968e+00 -3.991301380097809215e-01
1.609551340341567993e+01 -6.116135448217391968e+00 -3.965361438691559215e-01
1.637712961435317993e+01 -6.064499706029891968e+00 -3.942168079316559215e-01
1.673516184091567993e+01 -6.046433299779891968e+00 -3.924467884004059215e-01
1.719445139169692993e+01 -6.073166698217391968e+00 -3.914397083222809215e-01
1.765673166513442993e+01 -6.091965526342391968e+00 -3.902342639863434215e-01
1.817174631357192993e+01 -6.126023143529891968e+00 -3.892119251191559215e-01
1.868883615732192993e+01 -6.151291698217391968e+00 -3.884489856660309215e-01
1.969744211435317993e+01 -8.318528026342391968e+00 -3.376982532441559215e-01
2.015996652841567993e+01 -8.319748729467391968e+00 -3.341582141816559215e-01
2.064013010263442993e+01 -8.320969432592391968e+00 -3.304808460175934215e-01
2.114074045419692993e+01 -8.322434276342391968e+00 -3.266356311738434215e-01
2.165960031747817993e+01 -8.323777049779891968e+00 -3.226530872285309215e-01
2.240178781747817993e+01 -8.424729198217391968e+00 -3.192351184785309215e-01
2.343413645029067993e+01 -8.647873729467391968e+00 -3.163969837129059215e-01
2.431841379404067993e+01 -8.780442088842391968e+00 -3.126128040254059215e-01
2.738500314950942993e+01 -1.258549579977989197e+01 -2.351744495332184215e-01
2.856231027841567993e+01 -1.287455829977989197e+01 -2.273161731660309215e-01
2.986766916513442993e+01 -1.320475849509239197e+01 -2.179777942597809215e-01
3.238066965341567993e+01 -1.412761005759239197e+01 -2.075255237519684215e-01
3.469634348154067993e+01 -1.576371845602989197e+01 -3.658130988478092149e-02
3.469237619638442993e+01 -1.576652607321739197e+01 1.410462535917815785e-01
3.468840891122817993e+01 -1.576933369040489197e+01 3.196351207792815785e-01
3.612157541513442993e+01 -1.745256122946739197e+01 5.166871227324065785e-01
3.516967111825942993e+01 -1.647416767477989197e+01 5.021302379667815785e-01
3.425322824716567993e+01 -1.554374775290489197e+01 4.879700817167815785e-01
3.335662180185317993e+01 -1.464982685446739197e+01 4.739014782011565785e-01
3.251751047372817993e+01 -1.381327900290489197e+01 4.607484020292815785e-01
3.163280588388442993e+01 -1.297929462790489197e+01 4.462678112089690785e-01
3.078020578622817993e+01 -1.218534931540489197e+01 4.321992076933440785e-01
2.991405588388442993e+01 -1.141093525290489197e+01 4.175049938261565785e-01
3.625328928232192993e+01 -1.753105244040489197e+01 7.082764782011565785e-01
3.527593332529067993e+01 -1.653691181540489197e+01 6.870972789824065785e-01
3.433129221200942993e+01 -1.558989033102989197e+01 6.655518688261565785e-01
3.338097482919692993e+01 -1.466703876852989197e+01 6.445252574980315785e-01
3.249425607919692993e+01 -1.380595478415489197e+01 6.249177135527190785e-01
3.161290842294692993e+01 -1.297380146384239197e+01 6.051880992949065785e-01
3.076915842294692993e+01 -1.218412861227989197e+01 5.870301403105315785e-01
2.991430002450942993e+01 -1.141484150290489197e+01 5.674683727324065785e-01
3.259923654794692993e+01 -1.371806415915489197e+01 2.528779186308440785e-01
3.605669504404067993e+01 -1.736442646384239197e+01 4.741913951933440785e-01
3.510668283700942993e+01 -1.636760029196739197e+01 4.607941783964690785e-01
3.416533762216567993e+01 -1.540458759665489197e+01 4.472138561308440785e-01
3.322722727060317993e+01 -1.447050556540489197e+01 4.333436168730315785e-01
3.234337717294692993e+01 -1.359343037009239197e+01 4.202363170683440785e-01
3.139415842294692993e+01 -1.271049579977989197e+01 4.054200328886565785e-01
3.050328928232192993e+01 -1.188176044821739197e+01 3.915040172636565785e-01
2.954320627450942993e+01 -1.104777607321739197e+01 3.757569469511565785e-01
3.603997141122817993e+01 -1.736064228415489197e+01 6.693055309355315785e-01
3.502813059091567993e+01 -1.633012470602989197e+01 6.483246959745940785e-01
3.408208566904067993e+01 -1.536540302634239197e+01 6.277405895292815785e-01
3.315642648935317993e+01 -1.443852314352989197e+01 6.084077037870940785e-01
3.227770334482192993e+01 -1.356474384665489197e+01 5.899903453886565785e-01
3.134240061044692993e+01 -1.268937763571739197e+01 5.698029674589690785e-01
3.046202951669692993e+01 -1.186613544821739197e+01 5.516450084745940785e-01
2.951213937997817993e+01 -1.103727802634239197e+01 5.304810680449065785e-01
1.872655588388442993e+01 -2.802292674779891968e+00 1.621339000761565785e-01
2.350139719247817993e+01 -6.183640331029891968e+00 5.294434703886565785e-01
2.097985178232192993e+01 -4.396164745092391968e+00 4.466187633574065785e-01
1.853643137216567993e+01 -2.714768260717391968e+00 3.665864147245940785e-01
2.592437082529067993e+01 -7.999070018529891968e+00 1.017396129667815785e-01
1.399779611825942993e+01 4.922629892826080322e-01 -2.207091175019684215e-01
3.160723215341567993e+01 -1.293754658102989197e+01 6.420838512480315785e-01
2.877501779794692993e+01 -1.043095478415489197e+01 5.454651989042815785e-01
2.571422678232192993e+01 -7.887986034154891968e+00 4.424378551542815785e-01
2.174889475107192993e+01 -4.956955760717391968e+00 3.120209850370940785e-01
1.730236154794692993e+01 -1.885910838842391968e+00 1.676118053495940785e-01
1.299681955575942993e+01 9.921409189701080322e-01 2.857371941209407851e-02
1.684887033700942993e+01 -9.385231435298919678e-01 4.409272350370940785e-01
7.510308325290679932e+00 -6.107643544673919678e-01 1.686532703787094079e+00
4.439080297946929932e+00 1.204787403345108032e+00 1.714837757498031579e+00
4.610528051853179932e+00 1.101515918970108032e+00 1.968972889333969079e+00
1.715398508310317993e+01 -1.733689159154891968e+00 3.699433483183440785e-01
4.591668188571929932e+00 4.121848642826080322e-01 2.574860729277190785e-01
8.048028051853179932e+00 -1.003952831029891968e+00 1.748620716482406579e+00
7.332512915134429932e+00 -1.257859081029891968e+00 1.990731922537094079e+00
4.442193090915679932e+00 1.144118458032608032e+00 1.756890980154281579e+00
7.703789770603179932e+00 -1.484055370092391968e+00 2.291040150076156579e+00
4.690239965915679932e+00 9.964133799076080322e-01 2.030221668630844079e+00
5.058526098728179932e+00 1.419142872095108032e+00 2.036081043630844079e+00
6.838494360446929932e+00 -9.569557607173919678e-01 2.490701404958969079e+00
5.540520727634429932e+00 4.899436533451080322e-01 2.355615345388656579e+00
4.921624243259429932e+00 1.498976856470108032e+00 2.280328480154281579e+00
7.695244848728179932e+00 -5.977028310298919678e-01 1.893197742849594079e+00
7.363518774509429932e+00 -1.800705760717391968e+00 2.189141956716781579e+00
8.003350317478179932e+00 -1.485398143529891968e+00 2.216119495779281579e+00
4.633111059665679932e+00 1.218459278345108032e+00 1.935708729177719079e+00
7.517449438571929932e+00 -1.897019237279891968e+00 2.480691639333969079e+00
6.857659399509429932e+00 -7.906959950923919678e-01 2.401300159841781579e+00
5.231560766696929932e+00 8.628684580326080322e-01 2.245462147146469079e+00
2.698656564950942993e+01 -8.965866893529891968e+00 4.004151500761565785e-01
2.316442209482192993e+01 -5.975022166967391968e+00 2.713105358183440785e-01
1.324761450290679932e+00 1.441970020532608032e+00 -9.006336554884342149e-02
1.491875708103179932e+00 1.981764942407608032e+00 -9.363392218946842149e-02
1.910759985446929932e+00 2.366164356470108032e+00 -8.788135871290592149e-02
1.261590063571929932e+00 1.481398731470108032e+00 1.605164684355315785e-01
1.528130590915679932e+00 1.958815723657608032e+00 1.605775035917815785e-01
1.994561254978179932e+00 2.315016895532608032e+00 1.677643932402190785e-01
2.546929419040679932e+00 6.676780283451080322e-01 4.740388073027190785e-01
7.825554907321929932e+00 -1.215256541967391968e+00 1.838601795583969079e+00
8.156975805759429932e+00 -6.923073232173919678e-01 1.840448109060531579e+00
7.779900610446929932e+00 -1.912644237279891968e+00 2.143747059255844079e+00
7.536797583103179932e+00 -1.040940135717391968e+00 2.101312366873031579e+00
4.944268286228179932e+00 1.207839161157608032e+00 1.886743275076156579e+00
6.791070044040679932e+00 -2.020798534154891968e+00 2.375802723318344079e+00
8.124505102634429932e+00 -2.126389354467391968e+00 2.457162586599594079e+00
7.315972387790679932e+00 -9.077614247798919678e-01 2.367913929373031579e+00
4.604912817478179932e+00 1.408400684595108032e+00 2.128427235037094079e+00
7.713799536228179932e+00 -9.448707997798919678e-01 1.982675281912094079e+00
7.681389868259429932e+00 -1.665451854467391968e+00 2.295831409841781579e+00
5.420586645603179932e+00 4.384299814701080322e-01 2.096444813162094079e+00
4.920281469821929932e+00 1.432204395532608032e+00 2.033792225271469079e+00
6.814507544040679932e+00 -1.865525096654891968e+00 2.544595447927719079e+00
6.811455786228179932e+00 -1.128464549779891968e+00 2.516824451833969079e+00
7.288872778415679932e+00 -6.875465810298919678e-01 2.528726307302719079e+00
4.890252172946929932e+00 1.450392872095108032e+00 2.305902210623031579e+00
6.993401587009429932e+00 -2.297898143529891968e+00 2.676309315115219079e+00
6.829217016696929932e+00 -1.416794627904891968e+00 2.627725330740219079e+00
7.022698462009429932e+00 -7.711647450923919678e-01 2.609384266287094079e+00
4.704583227634429932e+00 1.371657520532608032e+00 2.385537830740219079e+00
4.715630590915679932e+00 -3.016037791967391968e+00 1.241418568044906579e+00
5.085503637790679932e+00 -2.471360057592391968e+00 1.539239612966781579e+00
5.553155004978179932e+00 -2.779953807592391968e+00 1.876321522146469079e+00
5.145745337009429932e+00 -3.300217479467391968e+00 2.184472767263656579e+00
5.396599829196929932e+00 4.231711924076080322e-01 2.042108265310531579e+00
4.981682837009429932e+00 1.422560840845108032e+00 1.982278553396469079e+00
5.137627661228179932e+00 -3.291794627904891968e+00 2.490152088552719079e+00
6.771905004978179932e+00 -1.977707713842391968e+00 2.517724720388656579e+00
6.681511938571929932e+00 -1.133713573217391968e+00 2.476175037771469079e+00
5.283135473728179932e+00 4.955588877201080322e-01 2.331231800466781579e+00
4.903863012790679932e+00 1.472121387720108032e+00 2.268624988943344079e+00
1.682128244638442993e+01 -1.219572529196739197e+01 1.617913929373031579e+00
1.679296213388442993e+01 -1.217448505759239197e+01 1.994546619802719079e+00
5.276482641696929932e+00 -3.342209666967391968e+00 1.272424427419906579e+00
4.640618383884429932e+00 -3.722824901342391968e+00 1.571084705740219079e+00
5.557488501071929932e+00 -4.359055370092391968e+00 1.947244373708969079e+00
5.050225317478179932e+00 -3.185471385717391968e+00 1.881677357107406579e+00
7.614129126071929932e+00 -7.953346669673919678e-01 1.917321888357406579e+00
2.689690649509429932e+00 -2.363694041967391968e+00 2.042672840505844079e+00
7.569085180759429932e+00 -1.573044627904891968e+00 2.259286610037094079e+00
5.562249243259429932e+00 4.579612314701080322e-01 2.081567493826156579e+00
2.607354223728179932e+00 -2.305222362279891968e+00 2.337030140310531579e+00
5.211846411228179932e+00 -3.292649120092391968e+00 2.518090931326156579e+00
6.446709692478179932e+00 -1.670334666967391968e+00 2.519983021169906579e+00
6.815301001071929932e+00 -1.101242870092391968e+00 2.517099110037094079e+00
5.556389868259429932e+00 4.632102549076080322e-01 2.384744373708969079e+00
5.250847876071929932e+00 -3.331467479467391968e+00 2.383905140310531579e+00
7.438286840915679932e+00 -2.264939159154891968e+00 2.470498768240219079e+00
7.175103247165679932e+00 -1.267990916967391968e+00 2.423593250662094079e+00
7.188714087009429932e+00 -4.608620107173919678e-01 2.396936146169906579e+00
