-8.803658587858080864e-01 -1.048871968686580658e+01 -1.916040228097699583e-01
-7.989449603483080864e-01 -1.049042867124080658e+01 -1.916040228097699583e-01
-7.167916400358080864e-01 -1.048786519467830658e+01 -1.916040228097699583e-01
-6.356148822233080864e-01 -1.048969624936580658e+01 -1.916040228097699583e-01
-5.545601947233080864e-01 -1.049140523374080658e+01 -1.916040228097699583e-01
-1.267817030660808086e+00 -1.137739156186580658e+01 -1.916497991769574583e-01
-1.178217421285808086e+00 -1.137849019467830658e+01 -1.916497991769574583e-01
-1.088739882223308086e+00 -1.137958882749080658e+01 -1.916345403878949583e-01
-1.000483046285808086e+00 -1.138984273374080658e+01 -1.921075628488324583e-01
-9.129586322233080864e-01 -1.140424703061580658e+01 -1.927789495675824583e-01
-8.250680072233080864e-01 -1.141865132749080658e+01 -1.934503362863324583e-01
-7.374215228483080864e-01 -1.143305562436580658e+01 -1.941064642160199583e-01
-6.497750384733080864e-01 -1.144745992124080658e+01 -1.947778509347699583e-01
-1.438593397848308086e+00 -1.245356343686580658e+01 -1.916803167550824583e-01
-1.340570936910808086e+00 -1.245991109311580658e+01 -1.916803167550824583e-01
-1.241816054098308086e+00 -1.245991109311580658e+01 -1.916803167550824583e-01
-1.142939100973308086e+00 -1.245991109311580658e+01 -1.916803167550824583e-01
-1.044916640035808086e+00 -1.246271871030330658e+01 -1.918023870675824583e-01
-9.483590228483080864e-01 -1.247895406186580658e+01 -1.925500677316449583e-01
-8.520455462858080864e-01 -1.249506734311580658e+01 -1.932824896066449583e-01
-7.549996478483080864e-01 -1.250495503842830658e+01 -1.940149114816449583e-01
-1.675409804098308086e+00 -1.394623921811580658e+01 -1.984857366769574583e-01
-1.563349257223308086e+00 -1.394367574155330658e+01 -1.984552190988324583e-01
-1.451654921285808086e+00 -1.394123433530330658e+01 -1.984094427316449583e-01
-1.339960585348308086e+00 -1.393867085874080658e+01 -1.983636663644574583e-01
-1.228754530660808086e+00 -1.393622945249080658e+01 -1.983331487863324583e-01
-1.117548475973308086e+00 -1.393378804624080658e+01 -1.982873724191449583e-01
-1.006952772848308086e+00 -1.393122456967830658e+01 -1.982568548410199583e-01
-8.967232806608080864e-01 -1.392878316342830658e+01 -1.982110784738324583e-01
-2.077143202535808086e+00 -1.647773335874080658e+01 -2.294610784738324583e-01
-1.946527968160808086e+00 -1.649421285092830658e+01 -2.298272894113324583e-01
-1.812494765035808086e+00 -1.648688863217830658e+01 -2.297204778878949583e-01
-1.678461561910808086e+00 -1.647956441342830658e+01 -2.295984075753949583e-01
-1.545282850973308086e+00 -1.647224019467830658e+01 -2.294915960519574583e-01
-1.412104140035808086e+00 -1.646491597592830658e+01 -2.293695257394574583e-01
-1.279657850973308086e+00 -1.645759175717830658e+01 -2.292627142160199583e-01
-1.145868788473308086e+00 -1.643207906186580658e+01 -2.288659857003949583e-01
-2.506464491598308086e+00 -1.918342183530330658e+01 -2.420038030832074583e-01
-2.354486952535808086e+00 -1.921137593686580658e+01 -2.431482122628949583e-01
-2.202509413473308086e+00 -1.923933003842830658e+01 -2.443078802316449583e-01
-2.049433241598308086e+00 -1.926447652280330658e+01 -2.453759954660199583e-01
-1.892572890035808086e+00 -1.925593160092830658e+01 -2.453759954660199583e-01
-1.738031874410808086e+00 -1.926679585874080658e+01 -2.460016058175824583e-01
-1.586786757223308086e+00 -1.930341695249080658e+01 -2.474359319894574583e-01
-1.435419569723308086e+00 -1.934016011655330658e+01 -2.488702581613324583e-01
-2.959223280660808086e+00 -2.203864644467830658e+01 -2.338403509347699583e-01
-2.777094374410808086e+00 -2.202643941342830658e+01 -2.339319036691449583e-01
-2.597651015035808086e+00 -2.202949117124080658e+01 -2.339166448800824583e-01
-2.416010390035808086e+00 -2.201728413999080658e+01 -2.340081976144574583e-01
-2.235468397848308086e+00 -2.200519917905330658e+01 -2.340997503488324583e-01
-2.054682265035808086e+00 -2.199140523374080658e+01 -2.341455267160199583e-01
-1.869379530660808086e+00 -2.192365621030330658e+01 -2.332452581613324583e-01
-1.687494765035808086e+00 -2.187446187436580658e+01 -2.323144720285199583e-01
-3.470331679098308086e+00 -2.526118062436580658e+01 -2.068170355050824583e-01
-3.253534804098308086e+00 -2.520099996030330658e+01 -2.060693548410199583e-01
-3.039057265035808086e+00 -2.514643453061580658e+01 -2.054590032785199583e-01
-2.830317030660808086e+00 -2.513032124936580658e+01 -2.057031439035199583e-01
-2.623163710348308086e+00 -2.511433003842830658e+01 -2.059472845285199583e-01
-2.413935194723308086e+00 -2.508124898374080658e+01 -2.057946966378949583e-01
-2.201899061910808086e+00 -2.500764058530330658e+01 -2.047418401925824583e-01
-1.991816054098308086e+00 -2.493464253842830658e+01 -2.036889837472699583e-01
-4.910761366598308086e+00 -3.434064839780330658e+01 -2.541192815988324583e-01
-4.481928358785808086e+00 -3.338178609311580658e+01 -2.381128118722699583e-01
-4.076410780660808086e+00 -3.246845601499080658e+01 -2.228540228097699583e-01
-3.722895155660808086e+00 -3.183161519467830658e+01 -2.124627874582074583e-01
-3.385126600973308086e+00 -3.122309468686580658e+01 -2.025293157785199583e-01
-3.059931288473308086e+00 -3.063727925717830658e+01 -1.929773138253949583e-01
-2.748774061910808086e+00 -3.007673238217830658e+01 -1.838372991769574583e-01
-2.463007460348308086e+00 -2.967182515561580658e+01 -1.774438665597699583e-01
-6.406733046285808086e+00 -4.377204488217830658e+01 -2.207025335519574583e-01
-4.216181288473308086e+00 -3.161860249936580658e+01 -6.327760679414495826e-02
-4.126215468160808086e+00 -3.282612203061580658e+01 -8.018434507539495826e-02
-5.282709608785808086e+00 -4.354389546811580658e+01 -2.221826360910199583e-01
-4.313227186910808086e+00 -3.866596578061580658e+01 -1.593774603097699583e-01
-3.015741835348308086e+00 -3.026447652280330658e+01 -4.966676695039495826e-02
-4.201044569723308086e+00 -4.353657124936580658e+01 -2.265161321847699583e-01
-2.477167616598308086e+00 -2.982123921811580658e+01 -4.580629331758245826e-02
-4.435297499410808086e+00 -3.135663960874080658e+01 8.291685121366754174e-02
-4.206171522848308086e+00 -3.155829976499080658e+01 8.000242250273004174e-02
-3.946039686910808086e+00 -3.156135152280330658e+01 7.875120179960504174e-02
-3.483271132223308086e+00 -3.004597066342830658e+01 9.043943422148004174e-02
-3.258539686910808086e+00 -3.022248433530330658e+01 8.778440492460504174e-02
-2.983637343160808086e+00 -2.999494527280330658e+01 8.857786195585504174e-02
-2.740473280660808086e+00 -3.001423238217830658e+01 8.725034730741754174e-02
-2.489862929098308086e+00 -2.995685933530330658e+01 8.660947816679254174e-02
-4.450312147848308086e+00 -3.145637105405330658e+01 2.249914361746050417e-01
-4.197504530660808086e+00 -3.150641988217830658e+01 2.234350396902300417e-01
-3.822382460348308086e+00 -3.069489644467830658e+01 2.244268609792925417e-01
-3.587885390035808086e+00 -3.083747456967830658e+01 2.225347711355425417e-01
-3.241327772848308086e+00 -3.009003804624080658e+01 2.241369439871050417e-01
-2.965937147848308086e+00 -2.985004781186580658e+01 2.238012506277300417e-01
-2.737665663473308086e+00 -2.999531148374080658e+01 2.226415826589800417e-01
-2.464594374410808086e+00 -2.971003316342830658e+01 2.225042535574175417e-01
-4.485102186910808086e+00 -3.168183492124080658e+01 3.673254205496050417e-01
-4.252924452535808086e+00 -3.188093160092830658e+01 3.659673883230425417e-01
-3.813593397848308086e+00 -3.063813374936580658e+01 3.634191705496050417e-01
-3.623774061910808086e+00 -3.111335347592830658e+01 3.622900201589800417e-01
-3.214106093160808086e+00 -2.987897847592830658e+01 3.599249078542925417e-01
-3.030390272848308086e+00 -3.041047261655330658e+01 3.588415338308550417e-01
-2.733637343160808086e+00 -2.996479390561580658e+01 3.571172906667925417e-01
-2.482538710348308086e+00 -2.989765523374080658e+01 3.556371881277300417e-01
-4.908075819723308086e+00 -3.435419820249080658e+01 5.261236383230425417e-01
-4.250116835348308086e+00 -3.186848042905330658e+01 5.098119928152300417e-01
-3.962397108785808086e+00 -3.169526265561580658e+01 5.071874810964800417e-01
-3.567743788473308086e+00 -3.069880269467830658e+01 5.001379205496050417e-01
-3.334589491598308086e+00 -3.085102437436580658e+01 4.993292047292925417e-01
-3.063837538473308086e+00 -3.070466206967830658e+01 4.969183160574175417e-01
-2.748407850973308086e+00 -3.010859273374080658e+01 4.921880914480425417e-01
-2.461542616598308086e+00 -2.969379781186580658e+01 4.891821100027300417e-01
-6.401361952535808086e+00 -4.377863667905330658e+01 7.777715875417925417e-01
-3.704950819723308086e+00 -3.173566792905330658e+01 6.493993951589800417e-01
-3.322382460348308086e+00 -3.076008199155330658e+01 6.378484918386675417e-01
-3.029413710348308086e+00 -3.041547749936580658e+01 6.326452447683550417e-01
-2.746088515035808086e+00 -3.009418843686580658e+01 6.277319146902300417e-01
-2.458246718160808086e+00 -2.966755269467830658e+01 6.218420221121050417e-01
-6.400873671285808086e+00 -4.378351949155330658e+01 9.781042291433550417e-01
-3.693476210348308086e+00 -3.165620015561580658e+01 7.911382867605425417e-01
-3.330317030660808086e+00 -3.082917378842830658e+01 7.771002008230425417e-01
-3.114740858785808086e+00 -3.115620015561580658e+01 7.799078180105425417e-01
-2.858515272848308086e+00 -3.114399312436580658e+01 7.777868463308550417e-01
-2.502558241598308086e+00 -3.012116597592830658e+01 7.618566705496050417e-01
-6.400751600973308086e+00 -4.379084371030330658e+01 1.177445049455855042e+00
-3.491205702535808086e+00 -3.212726949155330658e+01 9.413305475027300417e-01
-2.872553358785808086e+00 -3.128120015561580658e+01 9.208532525808550417e-01
-2.610956679098308086e+00 -3.121821187436580658e+01 9.175573541433550417e-01
-6.399652968160808086e+00 -4.379133199155330658e+01 1.377716655901167542e+00
-4.278803358785808086e+00 -3.845490621030330658e+01 1.236664409807417542e+00
-3.992182265035808086e+00 -3.872443746030330658e+01 1.241196270158980042e+00
-2.640253554098308086e+00 -3.152058003842830658e+01 1.065323467424605042e+00
-6.364130507223308086e+00 -4.357575581967830658e+01 1.571747417619917542e+00
-4.305292616598308086e+00 -3.867560933530330658e+01 1.417557354143355042e+00
-4.793648822233080864e-01 -9.737254843115806580e+00 -1.915887640207074583e-01
-4.047799212858080864e-01 -9.739940389990806580e+00 -1.915887640207074583e-01
-3.300728900358080864e-01 -9.739085897803306580e+00 -1.915887640207074583e-01
-2.551217181608080864e-01 -9.738109335303306580e+00 -1.915887640207074583e-01
-1.805367572233080864e-01 -9.737132772803306580e+00 -1.915887640207074583e-01
-1.058297259733080864e-01 -9.736278280615806580e+00 -1.915887640207074583e-01
-3.148890566080808640e-02 -9.735301718115806580e+00 -1.915887640207074583e-01
4.297398496419191360e-02 -9.730663046240806580e+00 -1.915887640207074583e-01
-5.543160540983080864e-01 -1.049152730405330658e+01 -1.916192815988324583e-01
-4.731392962858080864e-01 -1.049006246030330658e+01 -1.916192815988324583e-01
-3.920846087858080864e-01 -1.048847554624080658e+01 -1.916192815988324583e-01
-3.111519915983080864e-01 -1.049116109311580658e+01 -1.916192815988324583e-01
-2.302193744108080864e-01 -1.048957417905330658e+01 -1.916192815988324583e-01
-1.489205462858080864e-01 -1.048371480405330658e+01 -1.916192815988324583e-01
-6.835414003580808640e-02 -1.048212788999080658e+01 -1.916192815988324583e-01
1.221226621419191360e-02 -1.048054097592830658e+01 -1.916192815988324583e-01
-6.495308978483080864e-01 -1.144770406186580658e+01 -1.947931097238324583e-01
-5.613961322233080864e-01 -1.145856831967830658e+01 -1.954644964425824583e-01
-4.732613665983080864e-01 -1.146955464780330658e+01 -1.961358831613324583e-01
-3.847603900358080864e-01 -1.148054097592830658e+01 -1.968225286691449583e-01
-2.963814837858080864e-01 -1.149140523374080658e+01 -1.974939153878949583e-01
-2.076363665983080864e-01 -1.150239156186580658e+01 -1.981653021066449583e-01
-1.192574603483080864e-01 -1.151337788999080658e+01 -1.988366888253949583e-01
-3.026820253580808640e-02 -1.151520894467830658e+01 -1.990503118722699583e-01
-7.546334369108080864e-01 -1.250532124936580658e+01 -1.940301702707074583e-01
-6.581978900358080864e-01 -1.252106831967830658e+01 -1.946405218332074583e-01
-5.611519915983080864e-01 -1.253193257749080658e+01 -1.952966497628949583e-01
-4.637398822233080864e-01 -1.254267476499080658e+01 -1.959527776925824583e-01
-3.664498431608080864e-01 -1.255341695249080658e+01 -1.966089056222699583e-01
-2.689156634733080864e-01 -1.256428121030330658e+01 -1.972802923410199583e-01
-1.716256244108080864e-01 -1.257502339780330658e+01 -1.979364202707074583e-01
-7.396937441080808640e-02 -1.258051656186580658e+01 -1.986383245675824583e-01
-8.963570697233080864e-01 -1.392902730405330658e+01 -1.982263372628949583e-01
-7.856392962858080864e-01 -1.392036031186580658e+01 -1.980890081613324583e-01
-6.752877337858080864e-01 -1.391169331967830658e+01 -1.979669378488324583e-01
-5.648141009733080864e-01 -1.390302632749080658e+01 -1.978296087472699583e-01
-4.550728900358080864e-01 -1.389435933530330658e+01 -1.976922796457074583e-01
-3.450875384733080864e-01 -1.388569234311580658e+01 -1.975702093332074583e-01
-2.358346087858080864e-01 -1.387714742124080658e+01 -1.974328802316449583e-01
-1.268258197233080864e-01 -1.386860249936580658e+01 -1.972955511300824583e-01
-1.145502577535808086e+00 -1.643207906186580658e+01 -2.288659857003949583e-01
-1.015009413473308086e+00 -1.643561910092830658e+01 -2.289270208566449583e-01
-8.830514056608080864e-01 -1.642109273374080658e+01 -2.286981390207074583e-01
-7.512154681608080864e-01 -1.640644429624080658e+01 -2.284845159738324583e-01
-6.201119525358080864e-01 -1.639191792905330658e+01 -2.282556341378949583e-01
-4.888863665983080864e-01 -1.637739156186580658e+01 -2.280420110910199583e-01
-3.586373431608080864e-01 -1.636298726499080658e+01 -2.278131292550824583e-01
-2.280221087858080864e-01 -1.633063863217830658e+01 -2.273248480050824583e-01
-1.434931288473308086e+00 -1.934064839780330658e+01 -2.488855169503949583e-01
-1.282587538473308086e+00 -1.937165425717830658e+01 -2.502893255441449583e-01
-1.129877577535808086e+00 -1.940266011655330658e+01 -2.516931341378949583e-01
-9.700875384733080864e-01 -1.934907124936580658e+01 -2.503961370675824583e-01
-8.074898822233080864e-01 -1.922932027280330658e+01 -2.470086858957074583e-01
-6.466012103483080864e-01 -1.911078999936580658e+01 -2.436364935128949583e-01
-4.896187884733080864e-01 -1.901557515561580658e+01 -2.410119817941449583e-01
-3.361764056608080864e-01 -1.896613667905330658e+01 -2.398370550363324583e-01
-1.686884413473308086e+00 -2.187446187436580658e+01 -2.323297308175824583e-01
-1.509394179098308086e+00 -2.186201070249080658e+01 -2.325128362863324583e-01
-1.333246718160808086e+00 -2.186176656186580658e+01 -2.325128362863324583e-01
-1.155878554098308086e+00 -2.184931538999080658e+01 -2.327112005441449583e-01
-9.786324603483080864e-01 -2.182197163999080658e+01 -2.324823187082074583e-01
-8.002877337858080864e-01 -2.177753804624080658e+01 -2.318109319894574583e-01
-6.230416400358080864e-01 -2.172126363217830658e+01 -2.313073919503949583e-01
-4.473824603483080864e-01 -2.167756246030330658e+01 -2.306360052316449583e-01
-1.991083632223308086e+00 -2.493439839780330658e+01 -2.036889837472699583e-01
-1.782221327535808086e+00 -2.485920308530330658e+01 -2.026666448800824583e-01
-1.574945936910808086e+00 -2.478474019467830658e+01 -2.016443060128949583e-01
-1.368525038473308086e+00 -2.471039937436580658e+01 -2.006372259347699583e-01
-1.164301405660808086e+00 -2.463703511655330658e+01 -1.996301458566449583e-01
-9.617867572233080864e-01 -2.458015035092830658e+01 -1.990045355050824583e-01
-7.595162494108080864e-01 -2.449140523374080658e+01 -1.976465032785199583e-01
-5.596871478483080864e-01 -2.441938374936580658e+01 -1.966699407785199583e-01
-2.461908827535808086e+00 -2.966901753842830658e+01 -1.773980901925824583e-01
-2.184320936910808086e+00 -2.927460835874080658e+01 -1.712030218332074583e-01
-1.914545546285808086e+00 -2.889130757749080658e+01 -1.651758001535199583e-01
-1.651361952535808086e+00 -2.851728413999080658e+01 -1.593011663644574583e-01
-1.396234999410808086e+00 -2.815473531186580658e+01 -1.535943792550824583e-01
-1.148066054098308086e+00 -2.781525777280330658e+01 -1.482995794503949583e-01
-9.103951556608080864e-01 -2.755500386655330658e+01 -1.444085882394574583e-01
-6.776070697233080864e-01 -2.730012105405330658e+01 -1.405938909738324583e-01
-2.476557265035808086e+00 -2.982319234311580658e+01 -4.583681089570745826e-02
-2.241816054098308086e+00 -2.991254781186580658e+01 -4.798830015351995826e-02
-1.993158827535808086e+00 -2.984785054624080658e+01 -4.807985288789495826e-02
-1.744623671285808086e+00 -2.977888081967830658e+01 -4.812562925508245826e-02
-1.520502577535808086e+00 -3.004450581967830658e+01 -5.264223081758245826e-02
-1.153437147848308086e+00 -2.791840718686580658e+01 -2.502382261445745826e-02
-1.048944960348308086e+00 -3.036970113217830658e+01 -5.897462827851995826e-02
-8.284859759733080864e-01 -3.098603413999080658e+01 -6.826723081758245826e-02
-2.489008436910808086e+00 -2.995624898374080658e+01 8.660947816679254174e-02
-2.192987929098308086e+00 -2.938544820249080658e+01 9.053098695585504174e-02
-1.965937147848308086e+00 -2.952766011655330658e+01 8.827268617460504174e-02
-1.741693983785808086e+00 -2.974787496030330658e+01 8.529722230741754174e-02
-1.519403944723308086e+00 -3.003644917905330658e+01 8.171140687773004174e-02
-1.152826796285808086e+00 -2.791743062436580658e+01 9.944211976835504174e-02
-1.044428358785808086e+00 -3.029145406186580658e+01 7.736265199491754174e-02
-8.992867572233080864e-01 -3.272370503842830658e+01 5.459653871366754174e-02
-2.484491835348308086e+00 -2.991779683530330658e+01 2.216650201589800417e-01
-2.232050429098308086e+00 -2.982062886655330658e+01 2.209325982839800417e-01
-1.988886366598308086e+00 -2.981306050717830658e+01 2.191320611746050417e-01
-1.784052382223308086e+00 -3.032709859311580658e+01 2.158666803152300417e-01
-1.544672499410808086e+00 -3.043012593686580658e+01 2.142950250417925417e-01
-1.152094374410808086e+00 -2.791657613217830658e+01 2.238775445730425417e-01
-1.041376600973308086e+00 -3.024201558530330658e+01 2.135473443777300417e-01
-8.150582415983080864e-01 -3.068769429624080658e+01 2.104955865652300417e-01
-2.481684218160808086e+00 -2.989716695249080658e+01 3.556371881277300417e-01
-2.225458632223308086e+00 -2.975629781186580658e+01 3.543707086355425417e-01
-2.004877577535808086e+00 -3.001557515561580658e+01 3.532873346121050417e-01
-1.814081679098308086e+00 -3.073908589780330658e+01 3.524023248464800417e-01
-1.544794569723308086e+00 -3.044062398374080658e+01 3.510595514089800417e-01
-1.151484022848308086e+00 -2.791559956967830658e+01 3.489538385183550417e-01
-1.036005507223308086e+00 -3.014484761655330658e+01 3.485265924246050417e-01
-8.149361712858080864e-01 -3.069929097592830658e+01 3.474737359792925417e-01
-2.460443983785808086e+00 -2.969086812436580658e+01 4.891515924246050417e-01
-2.181757460348308086e+00 -2.928376363217830658e+01 4.850927545339800417e-01
-1.911127577535808086e+00 -2.888947652280330658e+01 4.818426324636675417e-01
-1.647333632223308086e+00 -2.850507710874080658e+01 4.786840631277300417e-01
-1.392328749410808086e+00 -2.814033101499080658e+01 4.756475641042925417e-01
-1.144159804098308086e+00 -2.779792378842830658e+01 4.727636529714800417e-01
-9.077096087858080864e-01 -2.755793355405330658e+01 4.704137994558550417e-01
-6.752877337858080864e-01 -2.730781148374080658e+01 4.686742975027300417e-01
-2.457148085348308086e+00 -2.966462300717830658e+01 6.217962457449175417e-01
-2.178339491598308086e+00 -2.925410054624080658e+01 6.164556695730425417e-01
-1.910028944723308086e+00 -2.888459371030330658e+01 6.115575982839800417e-01
-1.648066054098308086e+00 -2.852375386655330658e+01 6.067663385183550417e-01
-1.393915663473308086e+00 -2.817365621030330658e+01 6.021124078542925417e-01
-1.145502577535808086e+00 -2.783161519467830658e+01 5.975805475027300417e-01
-9.085641009733080864e-01 -2.758674214780330658e+01 5.939947320730425417e-01
-6.758980853483080864e-01 -2.733784078061580658e+01 5.903936578542925417e-01
-2.501703749410808086e+00 -3.012006734311580658e+01 7.618414117605425417e-01
-2.292109022848308086e+00 -3.051142476499080658e+01 7.652898980886675417e-01
-2.039179335348308086e+00 -3.045453999936580658e+01 7.630010797292925417e-01
-1.842401991598308086e+00 -3.114924214780330658e+01 7.714391900808550417e-01
-1.622187147848308086e+00 -3.164435933530330658e+01 7.769628717214800417e-01
-1.338251600973308086e+00 -3.118903706967830658e+01 7.690130426199175417e-01
-1.093500624410808086e+00 -3.134955953061580658e+01 7.697759820730425417e-01
-8.084664447233080864e-01 -3.058662007749080658e+01 7.583013726980425417e-01
-2.610224257223308086e+00 -3.121955464780330658e+01 9.175878717214800417e-01
-2.291254530660808086e+00 -3.050995992124080658e+01 9.025427057058550417e-01
-2.134760390035808086e+00 -3.161970113217830658e+01 9.219824029714800417e-01
-1.886835585348308086e+00 -3.175654195249080658e+01 9.229589654714800417e-01
-1.614496718160808086e+00 -3.153925679624080658e+01 9.172674371511675417e-01
-1.363764296285808086e+00 -3.164374898374080658e+01 9.176336480886675417e-01
-1.124262343160808086e+00 -3.198908589780330658e+01 9.225012017996050417e-01
-8.510689837858080864e-01 -3.164265035092830658e+01 9.144293023855425417e-01
-2.628168593160808086e+00 -3.140778706967830658e+01 1.062653179338667542e+00
-2.370722304098308086e+00 -3.139179585874080658e+01 1.060608501604292542e+00
-2.137079725973308086e+00 -3.165729878842830658e+01 1.065170879533980042e+00
-1.901972304098308086e+00 -3.196943257749080658e+01 1.070053692033980042e+00
-1.631830702535808086e+00 -3.181135152280330658e+01 1.064652080705855042e+00
-1.400385390035808086e+00 -3.229157613217830658e+01 1.074936504533980042e+00
-1.123407850973308086e+00 -3.198420308530330658e+01 1.066055889299605042e+00
-1.919672499410808086e+00 -3.221796773374080658e+01 1.220841045549605042e+00
-1.629999647848308086e+00 -3.179426167905330658e+01 1.207184429338667542e+00
-1.378656874410808086e+00 -3.192597554624080658e+01 1.209091777971480042e+00
4.321812558919191360e-02 -9.730540975928306580e+00 -1.915735052316449583e-01
1.173148052766919136e-01 -9.730174764990806580e+00 -1.915735052316449583e-01
1.915335552766919136e-01 -9.726024374365806580e+00 -1.915735052316449583e-01
2.659964459016919136e-01 -9.721996054053306580e+00 -1.915735052316449583e-01
3.399710552766919136e-01 -9.717845663428306580e+00 -1.915735052316449583e-01
4.141898052766919136e-01 -9.713817343115806580e+00 -1.915735052316449583e-01
4.881644146516919136e-01 -9.709666952490806580e+00 -1.915735052316449583e-01
5.618948834016919136e-01 -9.701976522803306580e+00 -1.915735052316449583e-01
1.245640683919191360e-02 -1.048041890561580658e+01 -1.916040228097699583e-01
9.302281308919191360e-02 -1.047553609311580658e+01 -1.916040228097699583e-01
1.734671490266919136e-01 -1.047065328061580658e+01 -1.916040228097699583e-01
2.539114849641919136e-01 -1.047004292905330658e+01 -1.916040228097699583e-01
3.342337505891919136e-01 -1.046516011655330658e+01 -1.916040228097699583e-01
4.146780865266919136e-01 -1.045600484311580658e+01 -1.916040228097699583e-01
4.946341412141919136e-01 -1.045112203061580658e+01 -1.916040228097699583e-01
5.745901959016919136e-01 -1.044623921811580658e+01 -1.916040228097699583e-01
-3.002406191080808640e-02 -1.151484273374080658e+01 -1.990350530832074583e-01
5.957554746419191360e-02 -1.149531148374080658e+01 -1.983484075753949583e-01
1.488089459016919136e-01 -1.147578023374080658e+01 -1.976770208566449583e-01
2.380423443391919136e-01 -1.145624898374080658e+01 -1.969903753488324583e-01
3.266653912141919136e-01 -1.143696187436580658e+01 -1.963189886300824583e-01
4.151663677766919136e-01 -1.141755269467830658e+01 -1.956476019113324583e-01
5.030569927766919136e-01 -1.139838765561580658e+01 -1.949762151925824583e-01
5.905814068391919136e-01 -1.137922261655330658e+01 -1.943048284738324583e-01
-7.360316347330808640e-02 -1.258039449155330658e+01 -1.986383245675824583e-01
2.454136777669191360e-02 -1.256904195249080658e+01 -1.981653021066449583e-01
1.226858990266919136e-01 -1.254865621030330658e+01 -1.975702093332074583e-01
2.208304302766919136e-01 -1.252827046811580658e+01 -1.969751165597699583e-01
3.183646099641919136e-01 -1.250886128842830658e+01 -1.964258001535199583e-01
4.157767193391919136e-01 -1.248530171811580658e+01 -1.956781194894574583e-01
5.124564068391919136e-01 -1.246186421811580658e+01 -1.949456976144574583e-01
6.087698834016919136e-01 -1.243244527280330658e+01 -1.941980169503949583e-01
-1.264596087858080864e-01 -1.386823628842830658e+01 -1.972802923410199583e-01
-1.745081972330808640e-02 -1.385346578061580658e+01 -1.970666692941449583e-01
9.119175840169191360e-02 -1.383881734311580658e+01 -1.968377874582074583e-01
2.000784771516919136e-01 -1.382416890561580658e+01 -1.966089056222699583e-01
3.081107037141919136e-01 -1.382404683530330658e+01 -1.969903753488324583e-01
4.165091412141919136e-01 -1.383735249936580658e+01 -1.979211614816449583e-01
5.247855084016919136e-01 -1.385065816342830658e+01 -1.988519476144574583e-01
6.333060162141919136e-01 -1.386396382749080658e+01 -1.997674749582074583e-01
-2.275338275358080864e-01 -1.633051656186580658e+01 -2.273095892160199583e-01
-9.850550722330808640e-02 -1.632685445249080658e+01 -2.272485540597699583e-01
3.174351621419191360e-02 -1.627192281186580658e+01 -2.257074163644574583e-01
1.617483990266919136e-01 -1.620380757749080658e+01 -2.236779974191449583e-01
2.901663677766919136e-01 -1.613654683530330658e+01 -2.216638372628949583e-01
4.177298443391919136e-01 -1.606965230405330658e+01 -2.196649358957074583e-01
5.440726177766919136e-01 -1.603181050717830658e+01 -2.187341497628949583e-01
6.699271099641919136e-01 -1.600349019467830658e+01 -2.185205267160199583e-01
-3.356881244108080864e-01 -1.896577046811580658e+01 -2.398217962472699583e-01
-1.829781634733080864e-01 -1.891230367124080658e+01 -2.386621282785199583e-01
-3.112269472330808640e-02 -1.885187886655330658e+01 -2.372735784738324583e-01
1.206107037141919136e-01 -1.876240132749080658e+01 -2.349542425363324583e-01
2.703909771516919136e-01 -1.867414449155330658e+01 -2.326654241769574583e-01
4.191946880891919136e-01 -1.858649800717830658e+01 -2.303918646066449583e-01
5.659232037141919136e-01 -1.850007222592830658e+01 -2.281488226144574583e-01
7.113089459016919136e-01 -1.841437886655330658e+01 -2.259362982003949583e-01
-4.467721087858080864e-01 -2.167707417905330658e+01 -2.306207464425824583e-01
-2.718453509733080864e-01 -2.163080953061580658e+01 -2.299951360910199583e-01
-9.813929628580808640e-02 -2.159675191342830658e+01 -2.291864202707074583e-01
7.617710996419191360e-02 -2.152912496030330658e+01 -2.279657171457074583e-01
2.491507427766919136e-01 -2.141450093686580658e+01 -2.254480169503949583e-01
4.207816021516919136e-01 -2.129609273374080658e+01 -2.228387640207074583e-01
5.896048443391919136e-01 -2.116132710874080658e+01 -2.202447698800824583e-01
7.564749615266919136e-01 -2.104621480405330658e+01 -2.176965521066449583e-01
-5.589547259733080864e-01 -2.441865132749080658e+01 -1.966546819894574583e-01
-3.604683978483080864e-01 -2.434467671811580658e+01 -1.957086370675824583e-01
-1.632027728483080864e-01 -2.427119038999080658e+01 -1.947625921457074583e-01
3.308628965169191360e-02 -2.422162984311580658e+01 -1.943506048410199583e-01
2.276663677766919136e-01 -2.419782613217830658e+01 -1.945337103097699583e-01
4.224905865266919136e-01 -2.417402242124080658e+01 -1.947168157785199583e-01
6.160941021516919136e-01 -2.413642476499080658e+01 -1.945794866769574583e-01
8.079886334016919136e-01 -2.404096578061580658e+01 -1.931146429269574583e-01
-6.768746478483080864e-01 -2.729828999936580658e+01 -1.405633733957074583e-01
-4.486031634733080864e-01 -2.704841206967830658e+01 -1.368554876535199583e-01
-2.246041400358080864e-01 -2.680317281186580658e+01 -1.332238958566449583e-01
-4.145155660808086395e-03 -2.656171773374080658e+01 -1.296380804269574583e-01
2.114310162141919136e-01 -2.632563374936580658e+01 -1.261438177316449583e-01
4.238333599641919136e-01 -2.609296773374080658e+01 -1.226953314035199583e-01
6.317191021516919136e-01 -2.586542867124080658e+01 -1.193078802316449583e-01
8.367972271516919136e-01 -2.569904683530330658e+01 -1.170495794503949583e-01
-8.276314837858080864e-01 -3.098334859311580658e+01 -6.823671323945745826e-02
-5.635933978483080864e-01 -3.057783101499080658e+01 -6.370485288789495826e-02
-3.041939837858080864e-01 -3.007697652280330658e+01 -5.784547788789495826e-02
-5.272914003580808640e-02 -2.960432027280330658e+01 -5.235231382539495826e-02
1.895804302766919136e-01 -2.918195699155330658e+01 -4.750001890351995826e-02
4.257864849641919136e-01 -2.880280660092830658e+01 -4.322755796601995826e-02
6.549124615266919136e-01 -2.844477437436580658e+01 -3.921449644258245826e-02
8.807425396516919136e-01 -2.824641011655330658e+01 -3.736818296601995826e-02
-8.981881244108080864e-01 -3.272040913999080658e+01 5.461179750273004174e-02
-6.396432025358080864e-01 -3.291767476499080658e+01 5.181943910429254174e-02
-3.759713275358080864e-01 -3.304096578061580658e+01 4.966794984648004174e-02
-7.799769472330808640e-02 -3.120478413999080658e+01 6.520139711210504174e-02
1.777396099641919136e-01 -3.077607320249080658e+01 6.810056703398004174e-02
4.278616802766919136e-01 -3.190644429624080658e+01 5.685483949491754174e-02
1.005742539651691914e+00 -6.808942769467830658e+01 -2.742456243722699583e-01
1.296391953714191914e+00 -5.247700093686580658e+01 -1.334832952707074583e-01
-8.041939837858080864e-01 -3.044465230405330658e+01 2.115484430105425417e-01
-5.739693744108080864e-01 -3.093061421811580658e+01 2.084509088308550417e-01
-3.273873431608080864e-01 -3.107270406186580658e+01 2.061010553152300417e-01
-7.580042909830808640e-02 -3.110712788999080658e+01 2.049566461355425417e-01
1.788382427766919136e-01 -3.069355367124080658e+01 2.058263971121050417e-01
4.279837505891919136e-01 -3.103095601499080658e+01 2.033239557058550417e-01
6.870169537141919136e-01 -3.196552632749080658e+01 1.988531305105425417e-01
1.632939805276691914e+00 -7.205329488217830658e+01 1.548826234648004174e-02
-8.140816790983080864e-01 -3.069843648374080658e+01 3.474737359792925417e-01
-5.703072650358080864e-01 -3.083649800717830658e+01 3.465124322683550417e-01
-3.237252337858080864e-01 -3.094916890561580658e+01 3.455358697683550417e-01
-7.103968691080808640e-02 -3.084711812436580658e+01 3.445135309011675417e-01
1.740775005891919136e-01 -3.137885640561580658e+01 3.435827447683550417e-01
4.284720318391919136e-01 -3.105695699155330658e+01 3.425298883230425417e-01
6.881155865266919136e-01 -3.203266499936580658e+01 3.415991021902300417e-01
1.943608750589191914e+00 -9.007929585874080658e+01 3.424993707449175417e-01
-6.744332415983080864e-01 -2.730610249936580658e+01 4.686590387136675417e-01
-4.464058978483080864e-01 -2.706220601499080658e+01 4.659429742605425417e-01
-2.226510150358080864e-01 -2.682184956967830658e+01 4.639135553152300417e-01
-2.192030660808086395e-03 -2.658515523374080658e+01 4.619146539480425417e-01
2.135062115266919136e-01 -2.635358785092830658e+01 4.599615289480425417e-01
4.261526959016919136e-01 -2.612543843686580658e+01 4.580236627371050417e-01
6.341605084016919136e-01 -2.590204976499080658e+01 4.561315728933550417e-01
8.393607037141919136e-01 -2.573249410092830658e+01 4.551244928152300417e-01
-6.751656634733080864e-01 -2.733613179624080658e+01 5.903783990652300417e-01
-4.468941790983080864e-01 -2.709162496030330658e+01 5.871740533621050417e-01
-2.227730853483080864e-01 -2.685163472592830658e+01 5.840154840261675417e-01
-2.192030660808086395e-03 -2.661518453061580658e+01 5.809179498464800417e-01
2.137503521516919136e-01 -2.638386128842830658e+01 5.778814508230425417e-01
4.265189068391919136e-01 -2.615595601499080658e+01 5.748907281667925417e-01
6.347708599641919136e-01 -2.593281148374080658e+01 5.719610406667925417e-01
8.402151959016919136e-01 -2.576069234311580658e+01 5.695196344167925417e-01
-8.076119525358080864e-01 -3.058613179624080658e+01 7.582861139089800417e-01
-4.478707415983080864e-01 -2.713849996030330658e+01 7.082525445730425417e-01
-2.231392962858080864e-01 -2.688422749936580658e+01 7.037817193777300417e-01
-1.947890035808086395e-03 -2.663386128842830658e+01 6.993871881277300417e-01
2.142386334016919136e-01 -2.638923238217830658e+01 6.950994684011675417e-01
4.270071880891919136e-01 -2.614838765561580658e+01 6.908727838308550417e-01
6.350150005891919136e-01 -2.591291402280330658e+01 6.867376519949175417e-01
8.402151959016919136e-01 -2.573762105405330658e+01 6.840673639089800417e-01
-8.500924212858080864e-01 -3.164033101499080658e+01 9.143835260183550417e-01
-6.020455462858080864e-01 -3.188178609311580658e+01 9.178014947683550417e-01
-3.328805072233080864e-01 -3.141901753842830658e+01 9.081121637136675417e-01
-7.567835878580808640e-02 -3.127485249936580658e+01 9.043585016042925417e-01
1.549124615266919136e-01 -3.416291402280330658e+01 9.567419244558550417e-01
4.325003521516919136e-01 -3.393329976499080658e+01 9.513403131277300417e-01
4.329886334016919136e-01 -3.393366597592830658e+01 1.103821392229292542e+00
1.574759380891919136e-01 -3.398969624936580658e+01 1.258209819963667542e+00
4.335989849641919136e-01 -3.386384175717830658e+01 1.253540630510542542e+00
5.621390240266919136e-01 -9.701976522803306580e+00 -1.915735052316449583e-01
6.358694927766919136e-01 -9.698436483740806580e+00 -1.915735052316449583e-01
7.094778912141919136e-01 -9.691234335303306580e+00 -1.915735052316449583e-01
7.832083599641919136e-01 -9.684032186865806580e+00 -1.915735052316449583e-01
8.566946880891919136e-01 -9.676830038428306580e+00 -1.915735052316449583e-01
9.304251568391919136e-01 -9.669749960303306580e+00 -1.915735052316449583e-01
1.003789414651691914e+00 -9.662547811865806580e+00 -1.915735052316449583e-01
1.076787461526691914e+00 -9.651683554053306580e+00 -1.915735052316449583e-01
5.749564068391919136e-01 -1.044623921811580658e+01 -1.916040228097699583e-01
6.546683209016919136e-01 -1.043818257749080658e+01 -1.916040228097699583e-01
7.343802349641919136e-01 -1.043000386655330658e+01 -1.916040228097699583e-01
8.145804302766919136e-01 -1.042609761655330658e+01 -1.916040228097699583e-01
8.941702740266919136e-01 -1.041804097592830658e+01 -1.916040228097699583e-01
9.736380474641919136e-01 -1.040558980405330658e+01 -1.916040228097699583e-01
1.053105820901691914e+00 -1.039753316342830658e+01 -1.916040228097699583e-01
1.132451524026691914e+00 -1.038935445249080658e+01 -1.916040228097699583e-01
5.909476177766919136e-01 -1.137910054624080658e+01 -1.942895696847699583e-01
6.781058209016919136e-01 -1.135663960874080658e+01 -1.936334417550824583e-01
7.650198834016919136e-01 -1.133417867124080658e+01 -1.929620550363324583e-01
8.518118755891919136e-01 -1.131171773374080658e+01 -1.923059271066449583e-01
9.381155865266919136e-01 -1.128950093686580658e+01 -1.916497991769574583e-01
1.025151719339191914e+00 -1.127997945249080658e+01 -1.916345403878949583e-01
1.111699570901691914e+00 -1.127058003842830658e+01 -1.916345403878949583e-01
1.198247422464191914e+00 -1.126130269467830658e+01 -1.916345403878949583e-01
6.090140240266919136e-01 -1.243232320249080658e+01 -1.941980169503949583e-01
7.049612896516919136e-01 -1.241169331967830658e+01 -1.934655950753949583e-01
8.005423443391919136e-01 -1.238495992124080658e+01 -1.927331732003949583e-01
8.958792584016919136e-01 -1.235822652280330658e+01 -1.920160101144574583e-01
9.910941021516919136e-01 -1.234028218686580658e+01 -1.916803167550824583e-01
1.086797227151691914e+00 -1.232941792905330658e+01 -1.916803167550824583e-01
1.182134141214191914e+00 -1.231855367124080658e+01 -1.916803167550824583e-01
1.276860703714191914e+00 -1.230170796811580658e+01 -1.916803167550824583e-01
6.336722271516919136e-01 -1.386408589780330658e+01 -1.997827337472699583e-01
7.421927349641919136e-01 -1.387275288999080658e+01 -2.006830023019574583e-01
8.510794537141919136e-01 -1.388129781186580658e+01 -2.015680120675824583e-01
9.600882427766919136e-01 -1.388056538999080658e+01 -2.020868108957074583e-01
1.066777695901691914e+00 -1.384052632749080658e+01 -2.009576605050824583e-01
1.173345078714191914e+00 -1.380060933530330658e+01 -1.998437689035199583e-01
1.278935899026691914e+00 -1.376093648374080658e+01 -1.987298773019574583e-01
1.383916367776691914e+00 -1.372150777280330658e+01 -1.976312444894574583e-01
6.704153912141919136e-01 -1.600336812436580658e+01 -2.185052679269574583e-01
7.962698834016919136e-01 -1.599555562436580658e+01 -2.184442327707074583e-01
9.217581646516919136e-01 -1.597492574155330658e+01 -2.182916448800824583e-01
1.046269883401691914e+00 -1.592634175717830658e+01 -2.171014593332074583e-01
1.169316758401691914e+00 -1.587372945249080658e+01 -2.157586858957074583e-01
1.292119492776691914e+00 -1.582123921811580658e+01 -2.144311712472699583e-01
1.413701524026691914e+00 -1.576923726499080658e+01 -2.131036565988324583e-01
1.533696641214191914e+00 -1.570527242124080658e+01 -2.116998480050824583e-01
7.117972271516919136e-01 -1.841389058530330658e+01 -2.259210394113324583e-01
8.555960552766919136e-01 -1.832490132749080658e+01 -2.237085149972699583e-01
9.981741802766919136e-01 -1.823676656186580658e+01 -2.215417669503949583e-01
1.139897813089191914e+00 -1.814912007749080658e+01 -2.193750189035199583e-01
1.279790391214191914e+00 -1.806257222592830658e+01 -2.172387884347699583e-01
1.418828477151691914e+00 -1.797651265561580658e+01 -2.151178167550824583e-01
1.556157578714191914e+00 -1.789142964780330658e+01 -2.130121038644574583e-01
1.691655625589191914e+00 -1.779780171811580658e+01 -2.106317327707074583e-01
7.570853130891919136e-01 -2.104548238217830658e+01 -2.176812933175824583e-01
9.220023052766919136e-01 -2.092768453061580658e+01 -2.151635931222699583e-01
1.085820664651691914e+00 -2.082856343686580658e+01 -2.126611517160199583e-01
1.247930039651691914e+00 -2.071271871030330658e+01 -2.101739690988324583e-01
1.407720078714191914e+00 -2.059846089780330658e+01 -2.077325628488324583e-01
1.566411484964191914e+00 -2.048505757749080658e+01 -2.053064153878949583e-01
1.721684922464191914e+00 -2.035639546811580658e+01 -2.029413030832074583e-01
1.876348008401691914e+00 -2.024592183530330658e+01 -2.005761907785199583e-01
8.085989849641919136e-01 -2.404035542905330658e+01 -1.930993841378949583e-01
9.990286724641919136e-01 -2.394245503842830658e+01 -1.916345403878949583e-01
1.187871445901691914e+00 -2.384528706967830658e+01 -1.902002142160199583e-01
1.375981797464191914e+00 -2.374848531186580658e+01 -1.887658880441449583e-01
1.561894883401691914e+00 -2.365278218686580658e+01 -1.873468206613324583e-01
1.747197617776691914e+00 -2.355744527280330658e+01 -1.859277532785199583e-01
1.931401719339191914e+00 -2.347797749936580658e+01 -1.848748968332074583e-01
2.119878281839191914e+00 -2.347089742124080658e+01 -1.854852483957074583e-01
8.374075787141919136e-01 -2.569794820249080658e+01 -1.170190618722699583e-01
1.039678086526691914e+00 -2.553095601499080658e+01 -1.147607610910199583e-01
1.239507188089191914e+00 -2.536603902280330658e+01 -1.125329778878949583e-01
1.437505234964191914e+00 -2.520270894467830658e+01 -1.103204534738324583e-01
1.637822617776691914e+00 -2.515278218686580658e+01 -1.101983831613324583e-01
1.838384141214191914e+00 -2.510505269467830658e+01 -1.101068304269574583e-01
2.102056016214191914e+00 -2.601728413999080658e+01 -1.278070257394574583e-01
2.296636094339191914e+00 -2.581110738217830658e+01 -1.248010442941449583e-01
8.814749615266919136e-01 -2.824555562436580658e+01 -3.735292417695745826e-02
1.104619492776691914e+00 -2.806452535092830658e+01 -3.570497495820745826e-02
1.324223984964191914e+00 -2.786555074155330658e+01 -3.379762632539495826e-02
1.541631211526691914e+00 -2.766865132749080658e+01 -3.190553648164495826e-02
1.754033555276691914e+00 -2.745112203061580658e+01 -2.970827085664495826e-02
1.962529649026691914e+00 -2.721125386655330658e+01 -2.720582945039495826e-02
2.119390000589191914e+00 -2.627106831967830658e+01 -1.492250425508245826e-02
2.335454453714191914e+00 -2.632160542905330658e+01 -1.641786558320745826e-02
1.297856797464191914e+00 -5.247785542905330658e+01 -1.334832952707074583e-01
1.732549180276691914e+00 -5.270905660092830658e+01 -1.370996282785199583e-01
2.151982774026691914e+00 -5.236408589780330658e+01 -1.354364202707074583e-01
1.567632188089191914e+00 -2.827778218686580658e+01 8.569395082304254174e-02
1.800786484964191914e+00 -2.837067769467830658e+01 8.403074281523004174e-02
1.982793320901691914e+00 -2.754975484311580658e+01 9.086668031523004174e-02
2.121221055276691914e+00 -2.629462788999080658e+01 1.017919732839800417e-01
2.328984727151691914e+00 -2.623151753842830658e+01 1.016393853933550417e-01
1.635015000589191914e+00 -7.205121968686580658e+01 1.550352113554254174e-02
1.737920274026691914e+00 -5.288715718686580658e+01 1.012579156667925417e-01
2.180425156839191914e+00 -5.318415425717830658e+01 9.718381898710504174e-02
2.614140977151691914e+00 -5.311042378842830658e+01 9.610044496366754174e-02
1.814946641214191914e+00 -2.864423726499080658e+01 2.092291070730425417e-01
1.969487656839191914e+00 -2.731757710874080658e+01 2.147070123464800417e-01
2.185674180276691914e+00 -2.724848531186580658e+01 2.149664117605425417e-01
2.320195664651691914e+00 -2.611078999936580658e+01 2.196356012136675417e-01
1.946050156839191914e+00 -9.007477925717830658e+01 3.424993707449175417e-01
2.683843125589191914e+00 -8.995881246030330658e+01 3.402258111746050417e-01
2.188237656839191914e+00 -5.339057515561580658e+01 3.386083795339800417e-01
1.587529649026691914e+00 -2.872944234311580658e+01 3.383184625417925417e-01
1.813848008401691914e+00 -2.861445210874080658e+01 3.376165582449175417e-01
1.972173203714191914e+00 -2.735871480405330658e+01 3.370214654714800417e-01
2.169438828714191914e+00 -2.700190328061580658e+01 3.363958551199175417e-01
2.356084336526691914e+00 -2.658283589780330658e+01 3.357855035574175417e-01
8.399710552766919136e-01 -2.573139546811580658e+01 4.551092340261675417e-01
1.042607774026691914e+00 -2.556684468686580658e+01 4.531561090261675417e-01
1.242681016214191914e+00 -2.540363667905330658e+01 4.518285943777300417e-01
1.440801133401691914e+00 -2.524189351499080658e+01 4.505163385183550417e-01
1.635991563089191914e+00 -2.508271382749080658e+01 4.492193414480425417e-01
1.829350938089191914e+00 -2.492499898374080658e+01 4.479223443777300417e-01
2.019780625589191914e+00 -2.476960347592830658e+01 4.466558648855425417e-01
2.207890977151691914e+00 -2.461542867124080658e+01 4.459844781667925417e-01
8.409476177766919136e-01 -2.575947163999080658e+01 5.695043756277300417e-01
1.043706406839191914e+00 -2.559455464780330658e+01 5.674444391042925417e-01
1.243779649026691914e+00 -2.542719624936580658e+01 5.653692437917925417e-01
1.442021836526691914e+00 -2.526118062436580658e+01 5.633093072683550417e-01
1.637090195901691914e+00 -2.509797261655330658e+01 5.612798883230425417e-01
1.830327500589191914e+00 -2.493622945249080658e+01 5.592657281667925417e-01
2.020635117776691914e+00 -2.477704976499080658e+01 5.572973443777300417e-01
2.208501328714191914e+00 -2.461970113217830658e+01 5.553442193777300417e-01
8.409476177766919136e-01 -2.573652242124080658e+01 6.840521051199175417e-01
1.043340195901691914e+00 -2.556501363217830658e+01 6.805731012136675417e-01
1.243169297464191914e+00 -2.539643453061580658e+01 6.777502252371050417e-01
1.441045274026691914e+00 -2.522944234311580658e+01 6.749578668386675417e-01
1.635747422464191914e+00 -2.506513570249080658e+01 6.722112848074175417e-01
1.828740586526691914e+00 -2.490229390561580658e+01 6.694952203542925417e-01
2.018559922464191914e+00 -2.474213765561580658e+01 6.668249322683550417e-01
2.206181992776691914e+00 -2.458466695249080658e+01 6.647649957449175417e-01
3.318974961526691914e+00 -5.838019917905330658e+01 1.394684429338667542e+00
3.704106797464191914e+00 -5.675861714780330658e+01 1.363922710588667542e+00
4.291753281839191914e+00 -5.856977437436580658e+01 1.396027202776167542e+00
2.531865586526691914e+00 -2.889387105405330658e+01 8.526617242605425417e-01
3.334966172464191914e+00 -5.868110249936580658e+01 1.665558452776167542e+00
3.793828477151691914e+00 -5.826935933530330658e+01 1.656571026018355042e+00
4.294194688089191914e+00 -5.859455464780330658e+01 1.663056011369917542e+00
4.707646836526691914e+00 -5.769428609311580658e+01 1.641495342424605042e+00
3.308232774026691914e+00 -5.813764546811580658e+01 1.917328472307417542e+00
3.809697617776691914e+00 -5.852631734311580658e+01 1.927155132463667542e+00
4.802129258401691914e+00 -5.893488667905330658e+01 1.938095684221480042e+00
1.077031602151691914e+00 -9.651805624365806580e+00 -1.915887640207074583e-01
1.150395859964191914e+00 -9.645213827490806580e+00 -1.915887640207074583e-01
1.223271836526691914e+00 -9.634959921240806580e+00 -1.915887640207074583e-01
1.296514024026691914e+00 -9.624706014990806580e+00 -1.915887640207074583e-01
1.369390000589191914e+00 -9.614452108740806580e+00 -1.915887640207074583e-01
1.442510117776691914e+00 -9.604076132178306580e+00 -1.915887640207074583e-01
1.515264024026691914e+00 -9.593944296240806580e+00 -1.915887640207074583e-01
1.587529649026691914e+00 -9.580028280615806580e+00 -1.915887640207074583e-01
1.132817734964191914e+00 -1.038959859311580658e+01 -1.916192815988324583e-01
1.211797227151691914e+00 -1.037824605405330658e+01 -1.916192815988324583e-01
1.290776719339191914e+00 -1.036689351499080658e+01 -1.916192815988324583e-01
1.370488633401691914e+00 -1.035969136655330658e+01 -1.916192815988324583e-01
1.449346055276691914e+00 -1.034833882749080658e+01 -1.916192815988324583e-01
1.528081406839191914e+00 -1.033283589780330658e+01 -1.916192815988324583e-01
1.606816758401691914e+00 -1.032148335874080658e+01 -1.916192815988324583e-01
1.685552109964191914e+00 -1.031013081967830658e+01 -1.916192815988324583e-01
1.198613633401691914e+00 -1.126142476499080658e+01 -1.916497991769574583e-01
1.284795274026691914e+00 -1.124885152280330658e+01 -1.916497991769574583e-01
1.370976914651691914e+00 -1.123615621030330658e+01 -1.916497991769574583e-01
1.457402695901691914e+00 -1.122346089780330658e+01 -1.916497991769574583e-01
1.543462266214191914e+00 -1.121076558530330658e+01 -1.916497991769574583e-01
1.629643906839191914e+00 -1.119807027280330658e+01 -1.916497991769574583e-01
1.715581406839191914e+00 -1.118537496030330658e+01 -1.916497991769574583e-01
1.801518906839191914e+00 -1.117280171811580658e+01 -1.916497991769574583e-01
1.277104844339191914e+00 -1.230183003842830658e+01 -1.916803167550824583e-01
1.372441758401691914e+00 -1.229365132749080658e+01 -1.916803167550824583e-01
1.467168320901691914e+00 -1.227924703061580658e+01 -1.916803167550824583e-01
1.562139024026691914e+00 -1.226484273374080658e+01 -1.916803167550824583e-01
1.656743516214191914e+00 -1.225056050717830658e+01 -1.916803167550824583e-01
1.751592149026691914e+00 -1.223615621030330658e+01 -1.916803167550824583e-01
1.846074570901691914e+00 -1.222187398374080658e+01 -1.916803167550824583e-01
1.939580430276691914e+00 -1.220148824155330658e+01 -1.916803167550824583e-01
1.384282578714191914e+00 -1.372138570249080658e+01 -1.976312444894574583e-01
1.488530625589191914e+00 -1.367768453061580658e+01 -1.965020940988324583e-01
1.592046250589191914e+00 -1.363410542905330658e+01 -1.953729437082074583e-01
1.695561875589191914e+00 -1.359064839780330658e+01 -1.942590521066449583e-01
1.798100938089191914e+00 -1.354755757749080658e+01 -1.931451605050824583e-01
1.900517930276691914e+00 -1.350446675717830658e+01 -1.920312689035199583e-01
2.004521836526691914e+00 -1.348090718686580658e+01 -1.917260931222699583e-01
2.109258164651691914e+00 -1.346442769467830658e+01 -1.917260931222699583e-01
1.534062852151691914e+00 -1.570515035092830658e+01 -2.116998480050824583e-01
1.654790391214191914e+00 -1.566108296811580658e+01 -2.104333685128949583e-01
1.773808945901691914e+00 -1.560505269467830658e+01 -2.091058538644574583e-01
1.892583359964191914e+00 -1.554926656186580658e+01 -2.077630804269574583e-01
2.009038438089191914e+00 -1.548249410092830658e+01 -2.060235784738324583e-01
