2.353778240084648132e+01 -3.519958990812301636e+01 4.406447788700518231e-01
3.568719646334648132e+01 -6.499927252531051636e+01 1.465684451721614323e+00
3.481707927584648132e+01 -6.177563971281051636e+01 1.368073978088801823e+00
3.671637126803398132e+01 -6.371497076749801636e+01 1.399171390198176823e+00
3.831842204928398132e+01 -6.052087897062301636e+01 1.252976932190364323e+00
2.354205486178398132e+01 -3.519214361906051636e+01 6.454329868778643231e-01
3.484100505709648132e+01 -6.179578131437301636e+01 1.704164065979426823e+00
3.663800212740898132e+01 -6.354773443937301636e+01 1.743547000549739323e+00
3.949066326022148132e+01 -6.393225592374801636e+01 1.708055057190364323e+00
3.833307048678398132e+01 -6.052161139249801636e+01 1.591416873596614323e+00
2.354620525240898132e+01 -3.518481940031051636e+01 8.491683384403643231e-01
3.423639079928398132e+01 -6.218677252531051636e+01 2.068391360901301823e+00
3.477826091647148132e+01 -6.165491217374801636e+01 2.036744632385676823e+00
3.802398845553398132e+01 -6.444238775968551636e+01 2.108171023987239323e+00
3.835003826022148132e+01 -6.052588385343551636e+01 1.931962527893489323e+00
3.484723064303398132e+01 -6.332458990812301636e+01 2.450822391174739323e+00
3.481573650240898132e+01 -6.170044440031051636e+01 2.373796023987239323e+00
3.693072673678398132e+01 -6.402917975187301636e+01 2.456819095276301823e+00
3.836847087740898132e+01 -6.053271979093551636e+01 2.271028079651301823e+00
3.398553630709648132e+01 -6.166077154874801636e+01 2.718385257385676823e+00
3.485907146334648132e+01 -6.175671881437301636e+01 2.713777103088801823e+00
3.838995525240898132e+01 -6.054468268156051636e+01 2.612397708557551823e+00
3.400897380709648132e+01 -6.168115729093551636e+01 3.053147830627864323e+00
3.469891521334648132e+01 -6.143506354093551636e+01 3.033448733948176823e+00
3.624359294772148132e+01 -6.273328131437301636e+01 3.092317142151301823e+00
3.837140056490898132e+01 -6.049036139249801636e+01 2.948915042541926823e+00
3.425457927584648132e+01 -6.212354010343551636e+01 3.413850345276301823e+00
3.474298259615898132e+01 -6.149255865812301636e+01 3.373048343323176823e+00
3.824456951022148132e+01 -6.025720709562301636e+01 3.276841678284114323e+00
3.458648845553398132e+01 -6.272974127531051636e+01 3.787614383362239323e+00
3.498602458834648132e+01 -6.191943854093551636e+01 3.734345950745051823e+00
3.637286540865898132e+01 -6.291833990812301636e+01 3.792253055237239323e+00
3.829608318209648132e+01 -6.031873053312301636e+01 3.618699588440364323e+00
3.433490154147148132e+01 -6.222717779874801636e+01 4.095658816955989323e+00
3.487518474459648132e+01 -6.168958014249801636e+01 4.056458987854426823e+00
3.844098064303398132e+01 -6.053442877531051636e+01 3.971635379455989323e+00
3.443145915865898132e+01 -6.238599127531051636e+01 4.444444217346614323e+00
3.492462322115898132e+01 -6.175708502531051636e+01 4.399537601135676823e+00
3.820111247897148132e+01 -6.011475104093551636e+01 4.283174075745051823e+00
3.445172283053398132e+01 -6.239990729093551636e+01 4.785661258362239323e+00
3.501849529147148132e+01 -6.190662115812301636e+01 4.748048343323176823e+00
3.809893962740898132e+01 -6.135925787687301636e+01 4.714936771057551823e+00
3.824444743990898132e+01 -6.016284674406051636e+01 4.624742068909114323e+00
3.456927654147148132e+01 -6.259827154874801636e+01 5.140611209534114323e+00
3.496722576022148132e+01 -6.178723639249801636e+01 5.077912845276301823e+00
3.778692790865898132e+01 -6.080872076749801636e+01 5.013993777893489323e+00
3.836468669772148132e+01 -6.033740729093551636e+01 4.979295291565364323e+00
3.505780193209648132e+01 -6.350000494718551636e+01 5.561234988830989323e+00
3.494879314303398132e+01 -6.172864264249801636e+01 5.412049808166926823e+00
3.785687419772148132e+01 -6.090295904874801636e+01 5.362260379455989323e+00
3.855035564303398132e+01 -6.061987799406051636e+01 5.345429935120051823e+00
3.592474529147148132e+01 -6.511816900968551636e+01 6.058015384338801823e+00
3.498956462740898132e+01 -6.178015631437301636e+01 5.754167117737239323e+00
3.800079509615898132e+01 -6.112170904874801636e+01 5.725190677307551823e+00
3.835064861178398132e+01 -6.026721686124801636e+01 5.653535403870051823e+00
2.392767497897148132e+01 -3.590027350187301636e+01 -5.867752650752606769e-01
2.403875896334648132e+01 -3.523181647062301636e+01 -5.986160853877606769e-01
2.359918376803398132e+01 -3.372632330656051636e+01 -6.027359584346356769e-01
2.384649822115898132e+01 -3.331628912687301636e+01 -6.171860316768231769e-01
2.410174724459648132e+01 -3.292786139249801636e+01 -6.316208461299481769e-01
2.436944743990898132e+01 -3.256396979093551636e+01 -6.462082484736981769e-01
2.466522380709648132e+01 -3.224292486906051636e+01 -6.612228969111981769e-01
2.497308513522148132e+01 -3.194495123624801636e+01 -6.774277308955731769e-01
2.458575603365898132e+01 -3.695349615812301636e+01 -3.824448207393231769e-01
2.472906658053398132e+01 -3.631311529874801636e+01 -3.982681849971356769e-01
2.487262126803398132e+01 -3.568970221281051636e+01 -4.126877406611981769e-01
2.507476970553398132e+01 -3.516846197843551636e+01 -4.284653285518231769e-01
2.531524822115898132e+01 -3.471838873624801636e+01 -4.443039515986981769e-01
2.556695720553398132e+01 -3.429333990812301636e+01 -4.600967982783856769e-01
2.583099529147148132e+01 -3.389050787687301636e+01 -4.770340541377606769e-01
2.610675212740898132e+01 -3.351306647062301636e+01 -4.928116420283856769e-01
3.313629314303398132e+01 -5.080627936124801636e+01 -1.444840053096356769e-01
3.336761638522148132e+01 -5.000195807218551636e+01 -1.685776332393231769e-01
2.661493083834648132e+01 -3.837927740812301636e+01 -2.015976527705731769e-01
2.616876384615898132e+01 -3.681543463468551636e+01 -2.204727748408856769e-01
2.610504314303398132e+01 -3.587817877531051636e+01 -2.381577113643231769e-01
2.626129314303398132e+01 -3.528943365812301636e+01 -2.553848842158856769e-01
2.651996013522148132e+01 -3.485767096281051636e+01 -2.725205043330731769e-01
2.679217693209648132e+01 -3.445496100187301636e+01 -2.894730189815106769e-01
2.353607341647148132e+01 -3.522205084562301636e+01 3.224328961223932311e-02
3.830890056490898132e+01 -5.781775397062301636e+01 1.705336948856768231e-01
3.849151775240898132e+01 -5.678796881437301636e+01 1.397414585575518231e-01
2.762384197115898132e+01 -3.900928229093551636e+01 1.011804547161432311e-02
2.755230876803398132e+01 -3.801343268156051636e+01 -1.254125628619817689e-02
2.724115154147148132e+01 -3.669971197843551636e+01 -3.622289691119817689e-02
2.752642986178398132e+01 -3.627612799406051636e+01 -5.491491351276067689e-02
2.781500408053398132e+01 -3.586658209562301636e+01 -7.452245745807317689e-02
2.353753826022148132e+01 -3.521033209562301636e+01 2.369704624638018231e-01
3.869952556490898132e+01 -5.841443365812301636e+01 5.051894566044268231e-01
3.407916423678398132e+01 -4.992358893156051636e+01 3.827987095341143231e-01
2.784674236178398132e+01 -3.933191412687301636e+01 2.423720737919268231e-01
2.743841716647148132e+01 -3.782910650968551636e+01 2.100234409794268231e-01
2.765985271334648132e+01 -3.729370611906051636e+01 1.889052769169268231e-01
2.753595134615898132e+01 -3.627515143156051636e+01 1.629653355106768231e-01
2.810406658053398132e+01 -3.625488775968551636e+01 1.475539585575518231e-01
2.353827068209648132e+01 -3.519739264249801636e+01 4.405532261356768231e-01
4.208819743990898132e+01 -6.231897467374801636e+01 8.849959751591143231e-01
4.187664958834648132e+01 -6.059485357999801636e+01 8.340011021122393231e-01
2.829388591647148132e+01 -3.908362311124801636e+01 4.557357212528643231e-01
2.863702556490898132e+01 -3.869836920499801636e+01 4.351210972294268231e-01
2.789105388522148132e+01 -3.676538580656051636e+01 3.899550816044268231e-01
2.847686931490898132e+01 -3.675940436124801636e+01 3.747573276981768231e-01
2.354242107272148132e+01 -3.518994635343551636e+01 6.453414341434893231e-01
4.143109294772148132e+01 -6.127649420499801636e+01 1.215760745666926823e+00
4.247186443209648132e+01 -6.147363775968551636e+01 1.201036014221614323e+00
4.131402751803398132e+01 -5.838684576749801636e+01 1.113359012268489323e+00
2.862640544772148132e+01 -3.866736334562301636e+01 6.646132847294268231e-01
2.808575603365898132e+01 -3.702759283781051636e+01 6.164718052372393231e-01
2.886676189303398132e+01 -3.728723639249801636e+01 6.094680210575518231e-01
2.354669353365898132e+01 -3.518262213468551636e+01 8.490767857059893231e-01
4.094500896334648132e+01 -6.190137213468551636e+01 1.599061526916926823e+00
4.122039958834648132e+01 -5.822510260343551636e+01 1.448304690979426823e+00
4.272247478365898132e+01 -5.911670416593551636e+01 1.456346072815364323e+00
2.929034587740898132e+01 -3.786182135343551636e+01 8.503280064091143231e-01
4.124798747897148132e+01 -5.824316900968551636e+01 1.785813846252864323e+00
4.125091716647148132e+01 -5.822485846281051636e+01 2.122300662659114323e+00
4.121124431490898132e+01 -5.814307135343551636e+01 2.457765140198176823e+00
4.125689861178398132e+01 -5.818799322843551636e+01 2.797013797424739323e+00
4.098028728365898132e+01 -5.775574225187301636e+01 3.110505618713801823e+00
4.125787517428398132e+01 -5.814380377531051636e+01 3.471192874573176823e+00
4.128460857272148132e+01 -5.816052740812301636e+01 3.809876956604426823e+00
4.118048259615898132e+01 -5.798376959562301636e+01 4.136796512268489323e+00
4.103912517428398132e+01 -5.775220221281051636e+01 4.455857791565364323e+00
4.130023357272148132e+01 -5.811523932218551636e+01 4.823823489807551823e+00
4.119256755709648132e+01 -5.793335455656051636e+01 5.145844974182551823e+00
4.099115154147148132e+01 -5.761316412687301636e+01 5.454743899963801823e+00
2.497406169772148132e+01 -3.194373053312301636e+01 -6.774735072627606769e-01
2.529657146334648132e+01 -3.166785162687301636e+01 -6.931137660518231769e-01
2.562774822115898132e+01 -3.140405768156051636e+01 -7.099442103877606769e-01
2.597564861178398132e+01 -3.116028326749801636e+01 -7.271256068721356769e-01
2.633209392428398132e+01 -3.092908209562301636e+01 -7.444443324580731769e-01
2.661615154147148132e+01 -3.060583990812301636e+01 -7.603439906611981769e-01
2.684259197115898132e+01 -3.021179693937301636e+01 -7.750839808955731769e-01
2.706231853365898132e+01 -2.981714361906051636e+01 -7.906021693721356769e-01
2.610785076022148132e+01 -3.351196783781051636e+01 -4.928726771846356769e-01
2.641424724459648132e+01 -3.318127936124801636e+01 -5.100845912471356769e-01
2.673175212740898132e+01 -3.286792486906051636e+01 -5.263046840205731769e-01
2.704693767428398132e+01 -3.255103033781051636e+01 -5.435928920283856769e-01
2.741314861178398132e+01 -3.230383795499801636e+01 -5.613998988643231769e-01
2.778863689303398132e+01 -3.206738775968551636e+01 -5.793442348018231769e-01
2.816314861178398132e+01 -3.182617682218551636e+01 -5.984329799190106769e-01
2.768817302584648132e+01 -3.056042975187301636e+01 -6.050552943721356769e-01
2.679303142428398132e+01 -3.445349615812301636e+01 -2.895340541377606769e-01
2.706598064303398132e+01 -3.405750006437301636e+01 -3.074478724971356769e-01
2.734637615084648132e+01 -3.367651861906051636e+01 -3.252853969111981769e-01
2.769207927584648132e+01 -3.338269537687301636e+01 -3.433365443721356769e-01
2.804242107272148132e+01 -3.309802740812301636e+01 -3.613266566768231769e-01
2.840924236178398132e+01 -3.283435553312301636e+01 -3.793930629268231769e-01
2.879559490084648132e+01 -3.259180182218551636e+01 -3.976425746455731769e-01
2.922039958834648132e+01 -3.239673346281051636e+01 -4.161057094111981769e-01
2.781366130709648132e+01 -3.586206549406051636e+01 -7.459875140338567689e-02
2.857538005709648132e+01 -3.610364264249801636e+01 -9.026952777057317689e-02
2.907245036959648132e+01 -3.596997565031051636e+01 -1.088547328486981769e-01
2.951654216647148132e+01 -3.575757330656051636e+01 -1.278671840205731769e-01
3.055694743990898132e+01 -3.630920904874801636e+01 -1.450943568721356769e-01
3.112616130709648132e+01 -3.623474615812301636e+01 -1.643204310908856769e-01
3.127166911959648132e+01 -3.562671393156051636e+01 -1.845535853877606769e-01
3.138018962740898132e+01 -3.498914068937301636e+01 -2.056564906611981769e-01
2.822638103365898132e+01 -3.642236822843551636e+01 1.491408726200518231e-01
2.865362712740898132e+01 -3.619592779874801636e+01 1.306472202763018231e-01
2.894378826022148132e+01 -3.578345221281051636e+01 1.104140659794268231e-01
2.980511638522148132e+01 -3.612061041593551636e+01 9.668115582317682311e-02
3.061651775240898132e+01 -3.637085455656051636e+01 8.174280133098932311e-02
3.106964275240898132e+01 -3.614893072843551636e+01 6.266931500286432311e-02
3.295245525240898132e+01 -3.768054693937301636e+01 5.619958844036432311e-02
3.303216716647148132e+01 -3.696680182218551636e+01 3.282312359661432311e-02
2.847833415865898132e+01 -3.675854986906051636e+01 3.746962925419268231e-01
2.882293865084648132e+01 -3.641211432218551636e+01 3.558059116825518231e-01
2.916656658053398132e+01 -3.606641119718551636e+01 3.357863804325518231e-01
3.000030681490898132e+01 -3.636133307218551636e+01 3.249831577763018231e-01
3.065374919772148132e+01 -3.640381354093551636e+01 3.102279087528643231e-01
3.190313884615898132e+01 -3.718079107999801636e+01 3.051925083622393231e-01
3.229986736178398132e+01 -3.686243170499801636e+01 2.847609898075518231e-01
3.263153240084648132e+01 -3.646875494718551636e+01 2.621932407841143231e-01
2.886712810397148132e+01 -3.728491705656051636e+01 6.093764683231768231e-01
2.906427165865898132e+01 -3.672644537687301636e+01 5.844130894169268231e-01
3.048687908053398132e+01 -3.781458014249801636e+01 5.934005161747393231e-01
3.055645915865898132e+01 -3.707385748624801636e+01 5.645003696903643231e-01
3.082110759615898132e+01 -3.660339850187301636e+01 5.413222691044268231e-01
3.186602947115898132e+01 -3.711902350187301636e+01 5.374312778934893231e-01
3.220269939303398132e+01 -3.672778815031051636e+01 5.155959507450518231e-01
3.350238201022148132e+01 -3.750305670499801636e+01 5.157180210575518231e-01
2.929156658053398132e+01 -3.786060065031051636e+01 8.502669712528643231e-01
3.059295818209648132e+01 -3.879456061124801636e+01 8.632522007450518231e-01
3.097113201022148132e+01 -3.844568365812301636e+01 8.431105991825518231e-01
3.147918865084648132e+01 -3.826501959562301636e+01 8.260665317997393231e-01
3.129596111178398132e+01 -3.719653815031051636e+01 7.861953159794268231e-01
3.212945720553398132e+01 -3.743433111906051636e+01 7.798934360966143231e-01
5.912652751803398132e+01 -6.980884283781051636e+01 1.575562991760676823e+00
5.937310954928398132e+01 -6.865076178312301636e+01 1.523850955627864323e+00
3.056121990084648132e+01 -3.873572272062301636e+01 1.098466434143489323e+00
3.151202556490898132e+01 -3.829248541593551636e+01 1.063340701721614323e+00
3.054437419772148132e+01 -3.869727057218551636e+01 1.332658328674739323e+00
3.052972576022148132e+01 -3.866174811124801636e+01 1.567933597229426823e+00
3.051349040865898132e+01 -3.862402838468551636e+01 1.801576175354426823e+00
3.049591228365898132e+01 -3.858459967374801636e+01 2.036073245666926823e+00
3.051153728365898132e+01 -3.859009283781051636e+01 2.271729983948176823e+00
3.054742595553398132e+01 -3.862354010343551636e+01 2.509446658752864323e+00
3.057013103365898132e+01 -3.863867682218551636e+01 2.747621097229426823e+00
4.656073161959648132e+01 -5.304614752531051636e+01 3.806626834534114323e+00
3.054962322115898132e+01 -3.859534186124801636e+01 2.980271854065364323e+00
4.626861736178398132e+01 -5.267407721281051636e+01 4.112672366760676823e+00
3.050982829928398132e+01 -3.852563971281051636e+01 3.211625613830989323e+00
4.622516033053398132e+01 -5.260071295499801636e+01 4.437928714416926823e+00
3.059747478365898132e+01 -3.862903326749801636e+01 3.457780398987239323e+00
4.631256267428398132e+01 -5.268420904874801636e+01 4.778504886291926823e+00
3.055572673678398132e+01 -3.855676764249801636e+01 3.687287845276301823e+00
4.631646892428398132e+01 -5.266760748624801636e+01 5.110597171448176823e+00
2.706280681490898132e+01 -2.981555670499801636e+01 -7.906479457393231769e-01
2.730169841647148132e+01 -2.944885748624801636e+01 -8.056931117549481769e-01
2.752911540865898132e+01 -2.907251471281051636e+01 -8.214706996455731769e-01
2.778704997897148132e+01 -2.873242682218551636e+01 -8.378891566768231769e-01
2.816534587740898132e+01 -2.853113287687301636e+01 -8.568863490596356769e-01
2.858880779147148132e+01 -2.837622565031051636e+01 -8.769516566768231769e-01
2.899041911959648132e+01 -2.819092291593551636e+01 -8.966202357783856769e-01
2.857025310397148132e+01 -2.714172857999801636e+01 -8.982529262080731769e-01
2.768975993990898132e+01 -3.056006354093551636e+01 -6.051163295283856769e-01
2.808014079928398132e+01 -3.035754889249801636e+01 -6.241440394893231769e-01
2.850433513522148132e+01 -3.019104498624801636e+01 -6.426529506221356769e-01
2.896002361178398132e+01 -3.005310553312301636e+01 -6.628250697627606769e-01
2.945953533053398132e+01 -2.996057623624801636e+01 -6.837448695674481769e-01
2.998944255709648132e+01 -2.989331549406051636e+01 -7.053055385127606769e-01
3.054986736178398132e+01 -2.984766119718551636e+01 -7.286667445674481769e-01
3.116729900240898132e+01 -2.985437506437301636e+01 -7.520432094111981769e-01
2.922223064303398132e+01 -3.239661139249801636e+01 -4.161667445674481769e-01
2.968670818209648132e+01 -3.224487799406051636e+01 -4.360794642940106769e-01
3.015802165865898132e+01 -3.209509772062301636e+01 -4.561752894893231769e-01
3.069891521334648132e+01 -3.201587408781051636e+01 -4.770187953486981769e-01
3.127484294772148132e+01 -3.196899908781051636e+01 -4.983048060908856769e-01
3.191290447115898132e+01 -3.197986334562301636e+01 -5.203995326533856769e-01
3.268292400240898132e+01 -3.211682623624801636e+01 -5.441116908565106769e-01
3.364740154147148132e+01 -3.244238775968551636e+01 -5.701126674190106769e-01
3.137994548678398132e+01 -3.498621100187301636e+01 -2.057175258174481769e-01
3.146991130709648132e+01 -3.433948248624801636e+01 -2.250961879268231769e-01
3.141412517428398132e+01 -3.353699225187301636e+01 -2.452683070674481769e-01
3.197064372897148132e+01 -3.344641607999801636e+01 -2.655472377315106769e-01
3.286139079928398132e+01 -3.372144049406051636e+01 -2.864975551143231769e-01
3.416046306490898132e+01 -3.441833990812301636e+01 -3.089584926143231769e-01
5.195746013522148132e+01 -5.271436041593551636e+01 -3.772873500361981769e-01
5.216656658053398132e+01 -5.184167975187301636e+01 -4.096970180049481769e-01
3.303253337740898132e+01 -3.696448248624801636e+01 3.274682965130182311e-02
3.326837322115898132e+01 -3.645068854093551636e+01 1.010278668255182311e-02
5.364850017428398132e+01 -5.927478522062301636e+01 1.233992954716143231e-01
5.383734294772148132e+01 -5.825317877531051636e+01 8.648828472942682311e-02
5.404608318209648132e+01 -5.727673834562301636e+01 5.038598980755182311e-02
4.654779216647148132e+01 -4.791284674406051636e+01 -2.105566058307317689e-02
4.687005779147148132e+01 -4.725452154874801636e+01 -5.064245257526067689e-02
4.718853923678398132e+01 -4.660376471281051636e+01 -7.989355120807317689e-02
3.263214275240898132e+01 -3.646667975187301636e+01 2.621169468388018231e-01
4.673321697115898132e+01 -5.234167975187301636e+01 4.422011753544268231e-01
5.658221599459648132e+01 -6.264734381437301636e+01 5.403457066044268231e-01
5.661663982272148132e+01 -6.138306158781051636e+01 4.961715122684893231e-01
5.668560954928398132e+01 -6.018884772062301636e+01 4.534926792606768231e-01
5.684906169772148132e+01 -5.912268561124801636e+01 4.127669712528643231e-01
5.321405193209648132e+01 -5.401355475187301636e+01 3.318648716434893231e-01
5.367352458834648132e+01 -5.337708014249801636e+01 2.962966343388018231e-01
3.355511638522148132e+01 -3.756384772062301636e+01 5.168013950809893231e-01
4.670330974459648132e+01 -5.228528326749801636e+01 7.713485142216143231e-01
5.867254802584648132e+01 -6.504138678312301636e+01 9.787612339481768231e-01
5.883001872897148132e+01 -6.386865729093551636e+01 9.310012241825518231e-01
5.987823650240898132e+01 -6.371375006437301636e+01 9.012618442997393231e-01
5.981097576022148132e+01 -6.232605475187301636e+01 8.505263706669268231e-01
5.354425212740898132e+01 -5.434399908781051636e+01 6.928573032841143231e-01
5.406402751803398132e+01 -5.376367682218551636e+01 6.591353794559893231e-01
5.937970134615898132e+01 -6.865393561124801636e+01 1.523850955627864323e+00
4.672613689303398132e+01 -5.229114264249801636e+01 1.101518191955989323e+00
5.875055095553398132e+01 -6.510547369718551636e+01 1.392671146057551823e+00
5.907818767428398132e+01 -6.412415045499801636e+01 1.345872440002864323e+00
6.022052165865898132e+01 -6.406799811124801636e+01 1.321015872620051823e+00
6.085907146334648132e+01 -6.344214361906051636e+01 1.282685794495051823e+00
6.338275310397148132e+01 -6.482593268156051636e+01 1.287477054260676823e+00
6.312835857272148132e+01 -6.322827643156051636e+01 1.226853885315364323e+00
4.677789470553398132e+01 -5.233093756437301636e+01 1.434770145080989323e+00
6.006561443209648132e+01 -6.521729010343551636e+01 1.786912479065364323e+00
6.073639079928398132e+01 -6.461511725187301636e+01 1.748887576721614323e+00
6.125250408053398132e+01 -6.384473150968551636e+01 1.705964603088801823e+00
6.749237224459648132e+01 -6.918518561124801636e+01 1.839662112854426823e+00
6.725616618990898132e+01 -6.752063482999801636e+01 1.769471683166926823e+00
4.679669353365898132e+01 -5.233203619718551636e+01 1.765504398010676823e+00
4.681720134615898132e+01 -5.233508795499801636e+01 2.098313846252864323e+00
4.676922771334648132e+01 -5.225720709562301636e+01 2.425660648010676823e+00
4.687506267428398132e+01 -5.236084479093551636e+01 2.763932742737239323e+00
4.676544353365898132e+01 -5.221057623624801636e+01 3.086518802307551823e+00
4.677789470553398132e+01 -5.220422857999801636e+01 3.417054690979426823e+00
4.668097087740898132e+01 -5.206885260343551636e+01 3.740129031799739323e+00
4.618658611178398132e+01 -5.257178229093551636e+01 4.104646243713801823e+00
4.692108318209648132e+01 -5.233032721281051636e+01 4.091203250549739323e+00
4.622442790865898132e+01 -5.259595221281051636e+01 4.437562503479426823e+00
4.706732341647148132e+01 -5.248096197843551636e+01 4.438035525940364323e+00
4.630999919772148132e+01 -5.267737311124801636e+01 4.777909793518489323e+00
4.685492107272148132e+01 -5.220984381437301636e+01 4.748597659729426823e+00
4.659539958834648132e+01 -5.299817389249801636e+01 5.142594852112239323e+00
4.663214275240898132e+01 -5.192700690031051636e+01 5.053147830627864323e+00
2.856927654147148132e+01 -2.713855475187301636e+01 -8.982681849971356769e-01
2.832574626803398132e+01 -2.630090826749801636e+01 -9.027390101924481769e-01
2.786847087740898132e+01 -2.526941412687301636e+01 -9.026932338252606769e-01
2.743329021334648132e+01 -2.428699225187301636e+01 -9.026474574580731769e-01
2.702069255709648132e+01 -2.335608404874801636e+01 -9.026016810908856769e-01
2.662835857272148132e+01 -2.247021979093551636e+01 -9.025559047236981769e-01
2.625287029147148132e+01 -2.162305182218551636e+01 -9.025101283565106769e-01
2.586297771334648132e+01 -2.078748053312301636e+01 -9.024796107783856769e-01
3.116827556490898132e+01 -2.985327643156051636e+01 -7.521195033565106769e-01
3.147711345553398132e+01 -2.953027838468551636e+01 -7.717117885127606769e-01
3.181976482272148132e+01 -2.924146002531051636e+01 -7.908005336299481769e-01
3.214715740084648132e+01 -2.893445318937301636e+01 -8.107895473018231769e-01
3.247381755709648132e+01 -2.862805670499801636e+01 -8.307327846065106769e-01
3.307806560397148132e+01 -2.858484381437301636e+01 -8.558945277705731769e-01
3.392267009615898132e+01 -2.875244635343551636e+01 -8.870987514033856769e-01
3.383294841647148132e+01 -2.805005377531051636e+01 -8.992142299190106769e-01
3.365277263522148132e+01 -3.244556158781051636e+01 -5.702194789424481769e-01
3.466754314303398132e+01 -3.279700201749801636e+01 -5.985550502315106769e-01
3.305316326022148132e+01 -3.047168463468551636e+01 -5.986771205440106769e-01
3.398736736178398132e+01 -3.073938482999801636e+01 -6.261734584346356769e-01
3.536749431490898132e+01 -3.141748541593551636e+01 -6.595902064815106769e-01
4.832245036959648132e+01 -4.304285162687301636e+01 -8.386215785518231769e-01
4.427325603365898132e+01 -3.837036627531051636e+01 -8.092331508174481769e-01
4.569207927584648132e+01 -3.885388678312301636e+01 -8.490433314815106769e-01
5.216644451022148132e+01 -5.183777350187301636e+01 -4.098038295283856769e-01
4.301263591647148132e+01 -4.135791510343551636e+01 -4.033493617549481769e-01
4.326019451022148132e+01 -4.073999518156051636e+01 -4.294418910518231769e-01
4.348736736178398132e+01 -4.010620611906051636e+01 -4.552902797236981769e-01
4.374432536959648132e+01 -3.951196783781051636e+01 -4.810165980830731769e-01
4.401043865084648132e+01 -3.893274420499801636e+01 -5.066055873408856769e-01
4.426532146334648132e+01 -3.834607428312301636e+01 -5.320419887080731769e-01
4.455975505709648132e+01 -3.780432623624801636e+01 -5.589737514033856769e-01
4.718902751803398132e+01 -4.660095709562301636e+01 -8.000036273151067689e-02
4.304181072115898132e+01 -4.137048834562301636e+01 -1.221756557002606769e-01
4.326617595553398132e+01 -4.072876471281051636e+01 -1.494888881221356769e-01
4.350970622897148132e+01 -4.011121100187301636e+01 -1.766190150752606769e-01
4.375872966647148132e+01 -3.950891607999801636e+01 -2.034134486690106769e-01
4.401275798678398132e+01 -3.891809576749801636e+01 -2.299942592158856769e-01
4.443621990084648132e+01 -3.848816412687301636e+01 -2.565445521846356769e-01
4.455462810397148132e+01 -3.778296393156051636e+01 -2.826981166377606769e-01
5.366888591647148132e+01 -5.336841315031051636e+01 2.960982700809893231e-01
5.724591228365898132e+01 -5.593689459562301636e+01 2.922683140263018231e-01
4.335858318209648132e+01 -4.080444830656051636e+01 1.327376743778643231e-01
4.470782634615898132e+01 -4.127588385343551636e+01 1.130385776981768231e-01
4.457977458834648132e+01 -4.028589361906051636e+01 8.160547222942682311e-02
4.408600017428398132e+01 -3.897046393156051636e+01 4.853967633098932311e-02
4.463995525240898132e+01 -3.866052740812301636e+01 2.272180523723932311e-02
5.236993572115898132e+01 -4.488574713468551636e+01 3.236535992473932311e-02
5.406598064303398132e+01 -5.376184576749801636e+01 6.590133091434893231e-01
5.988531658053398132e+01 -5.862231940031051636e+01 7.083907505497393231e-01
5.994513103365898132e+01 -5.747498053312301636e+01 6.628585239872393231e-01
4.370330974459648132e+01 -4.026758307218551636e+01 3.851027866825518231e-01
4.483050701022148132e+01 -4.051086920499801636e+01 3.678298374638018231e-01
4.515643474459648132e+01 -3.996790045499801636e+01 3.392653843388018231e-01
6.012872478365898132e+01 -5.303162115812301636e+01 4.877334019169268231e-01
5.237762615084648132e+01 -4.487305182218551636e+01 3.572249790653643231e-01
6.312579509615898132e+01 -6.322107428312301636e+01 1.226594485901301823e+00
6.308087322115898132e+01 -6.187646979093551636e+01 1.171510257385676823e+00
6.302447673678398132e+01 -6.054761236906051636e+01 1.119508304260676823e+00
6.285626384615898132e+01 -5.913159674406051636e+01 1.063935794495051823e+00
6.284015056490898132e+01 -5.789746588468551636e+01 1.012834109924739323e+00
6.276165935397148132e+01 -5.662817877531051636e+01 9.615493198856768231e-01
6.270343181490898132e+01 -5.539954107999801636e+01 9.094558140263018231e-01
5.238531658053398132e+01 -4.486035650968551636e+01 6.804061314091143231e-01
6.725177165865898132e+01 -6.751123541593551636e+01 1.769120731018489323e+00
6.697467204928398132e+01 -6.584387701749801636e+01 1.699021854065364323e+00
6.673016521334648132e+01 -6.424780768156051636e+01 1.631578006409114323e+00
6.663678142428398132e+01 -6.283203619718551636e+01 1.569642581604426823e+00
6.638336345553398132e+01 -6.129565924406051636e+01 1.505021609924739323e+00
6.606121990084648132e+01 -5.972852057218551636e+01 1.440187015198176823e+00
6.578082439303398132e+01 -5.823193854093551636e+01 1.377809085510676823e+00
5.227166911959648132e+01 -4.473718756437301636e+01 1.002488650940364323e+00
5.053436443209648132e+01 -4.896362799406051636e+01 1.552827396057551823e+00
7.064288493990898132e+01 -6.675183600187301636e+01 2.131455936096614323e+00
7.031085368990898132e+01 -6.506213873624801636e+01 2.054795779846614323e+00
7.014227458834648132e+01 -6.356604498624801636e+01 1.985169925354426823e+00
6.983477947115898132e+01 -6.196826666593551636e+01 1.912583865784114323e+00
5.239544841647148132e+01 -4.483032721281051636e+01 1.328492679260676823e+00
5.026507732272148132e+01 -4.866699713468551636e+01 1.873384036682551823e+00
7.134832927584648132e+01 -6.603601568937301636e+01 2.544099368713801823e+00
7.154913493990898132e+01 -6.486987799406051636e+01 2.482179202698176823e+00
7.159539958834648132e+01 -6.357434576749801636e+01 2.415223636291926823e+00
5.233331462740898132e+01 -4.475403326749801636e+01 1.650987186096614323e+00
7.196698161959648132e+01 -6.389160650968551636e+01 2.877198733948176823e+00
5.244879314303398132e+01 -4.483936041593551636e+01 1.978471316955989323e+00
5.029876872897148132e+01 -4.866064947843551636e+01 2.533555545471614323e+00
5.235650798678398132e+01 -4.473584479093551636e+01 2.298966922424739323e+00
5.027288982272148132e+01 -4.861377447843551636e+01 2.860383548401301823e+00
5.235504314303398132e+01 -4.471497076749801636e+01 2.621507205627864323e+00
5.031366130709648132e+01 -4.863501471281051636e+01 3.191361941955989323e+00
5.222039958834648132e+01 -4.457300299406051636e+01 2.937593021057551823e+00
5.005658122897148132e+01 -4.835168951749801636e+01 3.502275027893489323e+00
5.105755779147148132e+01 -4.834863775968551636e+01 3.508088626526301823e+00
5.248175212740898132e+01 -4.479065436124801636e+01 3.276841678284114323e+00
5.013958904147148132e+01 -4.841614264249801636e+01 3.835725345276301823e+00
5.095501872897148132e+01 -4.822546881437301636e+01 3.829835452698176823e+00
5.236541911959648132e+01 -4.466541022062301636e+01 3.593293704651301823e+00
5.031488201022148132e+01 -4.857495611906051636e+01 4.180085696838801823e+00
5.063714763522148132e+01 -4.788660162687301636e+01 4.133317508362239323e+00
5.255621501803398132e+01 -4.481873053312301636e+01 3.930955447815364323e+00
5.015387126803398132e+01 -4.838989752531051636e+01 4.494859256409114323e+00
5.252020427584648132e+01 -4.476636236906051636e+01 4.253221072815364323e+00
5.032538005709648132e+01 -4.854468268156051636e+01 4.839387454651301823e+00
5.257855388522148132e+01 -4.479944342374801636e+01 4.583665408752864323e+00
5.390643474459648132e+01 -4.154333990812301636e+01 3.040315189026301823e+00
5.410882732272148132e+01 -4.075586432218551636e+01 2.978120364807551823e+00
5.236309978365898132e+01 -4.509302252531051636e+01 3.670716800354426823e+00
5.366998454928398132e+01 -4.131726568937301636e+01 3.362016238830989323e+00
5.210821697115898132e+01 -4.482800787687301636e+01 3.993043460510676823e+00
5.431195232272148132e+01 -4.182837408781051636e+01 3.745896854065364323e+00
5.440216228365898132e+01 -4.094238775968551636e+01 3.671876468323176823e+00
5.247528240084648132e+01 -4.513953131437301636e+01 4.367234744690364323e+00
5.348089763522148132e+01 -4.110376471281051636e+01 4.020585574768489323e+00
5.406732341647148132e+01 -4.063977545499801636e+01 3.985246219299739323e+00
5.236578533053398132e+01 -4.500928229093551636e+01 4.702058353088801823e+00
5.356927654147148132e+01 -4.115051764249801636e+01 4.364305057190364323e+00
5.483453533053398132e+01 -4.124255865812301636e+01 4.383683719299739323e+00
5.026031658053398132e+01 -3.580823248624801636e+01 -2.764114955440106769e-01
6.127166911959648132e+01 -5.223962897062301636e+01 5.888228794559893231e-01
6.119061443209648132e+01 -5.100562018156051636e+01 5.176711460575518231e-01
6.113897868990898132e+01 -4.982007330656051636e+01 4.482894321903643231e-01
6.103485271334648132e+01 -4.860681647062301636e+01 3.793044468388018231e-01
3.702813884615898132e+01 -2.729675787687301636e+01 5.030969586223932311e-02
3.723895427584648132e+01 -2.679407232999801636e+01 1.161340679973932311e-02
2.100702068209648132e+01 -1.300037115812301636e+01 -1.737656215205731769e-01
2.004120036959648132e+01 -1.184180182218551636e+01 -2.051682094111981769e-01
6.406585857272148132e+01 -5.474829596281051636e+01 1.048982181213801823e+00
6.386834880709648132e+01 -5.336047857999801636e+01 9.683547398075518231e-01
6.372906658053398132e+01 -5.205139654874801636e+01 8.905959507450518231e-01
6.364520427584648132e+01 -5.081091803312301636e+01 8.151564976200518231e-01
3.766192790865898132e+01 -2.780737799406051636e+01 3.024001499638018231e-01
3.963263103365898132e+01 -2.874524420499801636e+01 2.902388950809893231e-01
2.098089763522148132e+01 -1.296619147062301636e+01 -3.141637835651067689e-02
2.002679607272148132e+01 -1.181799811124801636e+01 -6.945653948932317689e-02
6.741790935397148132e+01 -5.776208990812301636e+01 1.556733646057551823e+00
6.703619548678398132e+01 -5.615015143156051636e+01 1.462464847229426823e+00
6.386114665865898132e+01 -5.212830084562301636e+01 1.300111331604426823e+00
6.375799724459648132e+01 -5.086975592374801636e+01 1.220109500549739323e+00
5.406634685397148132e+01 -4.157654303312301636e+01 9.221358677372393231e-01
3.969012615084648132e+01 -2.876892584562301636e+01 5.448623081669268231e-01
4.079644939303398132e+01 -2.895081061124801636e+01 5.206618687138018231e-01
6.580670329928398132e+01 -4.802039068937301636e+01 9.642196079716143231e-01
6.778448650240898132e+01 -5.805347174406051636e+01 2.007264651916926823e+00
6.716046306490898132e+01 -5.621960943937301636e+01 1.898545779846614323e+00
6.738263103365898132e+01 -5.517004889249801636e+01 1.817063846252864323e+00
6.425238201022148132e+01 -5.125549811124801636e+01 1.637712039612239323e+00
3.933246013522148132e+01 -2.916516607999801636e+01 8.380141636356768231e-01
3.869903728365898132e+01 -2.792920416593551636e+01 7.709975620731768231e-01
3.901947185397148132e+01 -2.749316900968551636e+01 7.327590366825518231e-01
6.865033122897148132e+01 -5.023132818937301636e+01 1.440339603088801823e+00
6.735955974459648132e+01 -5.635583990812301636e+01 2.336534061096614323e+00
6.737188884615898132e+01 -5.511963385343551636e+01 2.246934451721614323e+00
6.824005290865898132e+01 -5.463330572843551636e+01 2.189454593323176823e+00
5.387469646334648132e+01 -4.135144537687301636e+01 1.600175418518489323e+00
5.436407634615898132e+01 -4.079565924406051636e+01 1.547425784729426823e+00
7.249359294772148132e+01 -5.445874518156051636e+01 2.067307986877864323e+00
7.205340740084648132e+01 -5.288135260343551636e+01 1.964723148010676823e+00
4.955377361178398132e+01 -3.951331061124801636e+01 1.900559940002864323e+00
6.931781169772148132e+01 -5.551538580656051636e+01 2.664170779846614323e+00
5.394366618990898132e+01 -4.137744635343551636e+01 1.943055667541926823e+00
4.959552165865898132e+01 -3.951916998624801636e+01 2.223847903870051823e+00
6.951971599459648132e+01 -5.564685553312301636e+01 3.111833133362239323e+00
5.381732341647148132e+01 -4.123938482999801636e+01 2.279283084534114323e+00
5.380890056490898132e+01 -4.120044440031051636e+01 2.618257083557551823e+00
5.379095622897148132e+01 -4.115344732999801636e+01 2.958238162659114323e+00
5.397076579928398132e+01 -4.127209967374801636e+01 3.308824100159114323e+00
5.394793865084648132e+01 -4.122095221281051636e+01 3.648896731995051823e+00
3.938824626803398132e+01 -2.984631842374801636e+01 -8.300156215205731769e-01
4.219354411959648132e+01 -3.146570318937301636e+01 -9.029526332393231769e-01
3.828827068209648132e+01 -2.747668951749801636e+01 -9.027542689815106769e-01
2.447235271334648132e+01 -1.562769049406051636e+01 -7.698196986690106769e-01
2.651336833834648132e+01 -1.678235357999801636e+01 -8.242630580440106769e-01
2.473358318209648132e+01 -1.491919440031051636e+01 -8.268112758174481769e-01
5.477533122897148132e+01 -4.505627936124801636e+01 -5.000748256221356769e-01
4.960296794772148132e+01 -3.949976080656051636e+01 -5.503983119502606769e-01
3.886212322115898132e+01 -2.936682623624801636e+01 -5.686630824580731769e-01
3.699725505709648132e+01 -2.707080572843551636e+01 -6.047653773799481769e-01
3.729181072115898132e+01 -2.662964361906051636e+01 -6.483902553096356769e-01
3.775238201022148132e+01 -2.632373541593551636e+01 -6.930374721065106769e-01
5.133307048678398132e+01 -3.638220709562301636e+01 -8.388962367549481769e-01
2.832464763522148132e+01 -1.768298834562301636e+01 -6.935104945674481769e-01
4.910504314303398132e+01 -3.996082037687301636e+01 -1.670670131221356769e-01
4.925360271334648132e+01 -3.915857428312301636e+01 -2.264847377315106769e-01
3.768255779147148132e+01 -2.832837408781051636e+01 -3.140549281611981769e-01
3.697589275240898132e+01 -2.702637213468551636e+01 -3.606094935908856769e-01
3.726678630709648132e+01 -2.658276861906051636e+01 -4.044479945674481769e-01
3.770514079928398132e+01 -2.625952643156051636e+01 -4.483017543330731769e-01
5.085309001803398132e+01 -3.596899908781051636e+01 -5.158066371455731769e-01
2.833038493990898132e+01 -1.766797369718551636e+01 -5.074905971065106769e-01
5.981622478365898132e+01 -4.946704596281051636e+01 2.717757603153643231e-01
5.964825603365898132e+01 -4.819995611906051636e+01 1.948104282841143231e-01
3.762408611178398132e+01 -2.825110357999801636e+01 -6.568761859088567689e-02
3.711358806490898132e+01 -2.711548346281051636e+01 -1.169876674190106769e-01
3.739373943209648132e+01 -2.666101568937301636e+01 -1.613144496455731769e-01
2.572723552584648132e+01 -1.658545416593551636e+01 -2.662338832393231769e-01
5.037408611178398132e+01 -3.555737799406051636e+01 -2.002091029658856769e-01
2.833612224459648132e+01 -1.765295904874801636e+01 -3.225082973018231769e-01
6.236871501803398132e+01 -5.169580572843551636e+01 7.052932163700518231e-01
6.228802654147148132e+01 -5.046069830656051636e+01 6.222548862919268231e-01
3.764959880709648132e+01 -2.824573248624801636e+01 1.830459019169268231e-01
3.747003337740898132e+01 -2.738782232999801636e+01 1.310134312138018231e-01
2.329010173678398132e+01 -1.505066412687301636e+01 -8.907934222369817689e-02
2.030169841647148132e+01 -1.220020025968551636e+01 -1.530441859736981769e-01
1.932611247897148132e+01 -1.103979986906051636e+01 -1.893295863643231769e-01
1.887005779147148132e+01 -1.031970709562301636e+01 -2.191147426143231769e-01
6.525335857272148132e+01 -5.421667975187301636e+01 1.175294437073176823e+00
6.360589763522148132e+01 -5.156555670499801636e+01 1.050553836487239323e+00
3.998626872897148132e+01 -3.021521490812301636e+01 4.806685825809893231e-01
3.885504314303398132e+01 -2.852100104093551636e+01 4.042373081669268231e-01
2.326788493990898132e+01 -1.501526373624801636e+01 7.086328472942682311e-02
2.024798747897148132e+01 -1.214185065031051636e+01 -1.251073870807317689e-02
1.932782146334648132e+01 -1.102698248624801636e+01 -5.541845355182317689e-02
1.887555095553398132e+01 -1.031030768156051636e+01 -8.885046038776067689e-02
6.731537029147148132e+01 -5.600232428312301636e+01 1.658555545471614323e+00
6.368463298678398132e+01 -5.158923834562301636e+01 1.460053958557551823e+00
6.431329509615898132e+01 -5.095959967374801636e+01 1.387956180237239323e+00
5.397442790865898132e+01 -4.114587897062301636e+01 1.038819827698176823e+00
6.717584392428398132e+01 -5.100647467374801636e+01 1.281434573791926823e+00
6.694745036959648132e+01 -4.965540045499801636e+01 1.187409915588801823e+00
6.668463298678398132e+01 -4.829968756437301636e+01 1.094361819885676823e+00
1.891986247897148132e+01 -1.033069342374801636e+01 4.287866558880182311e-02
6.725799724459648132e+01 -5.590320318937301636e+01 2.089601077698176823e+00
6.745245525240898132e+01 -5.482397955656051636e+01 1.997514285705989323e+00
6.797540447115898132e+01 -5.403943365812301636e+01 1.917237796448176823e+00
5.399163982272148132e+01 -4.112280768156051636e+01 1.384263553284114323e+00
7.049286052584648132e+01 -5.367920416593551636e+01 1.800904788635676823e+00
7.005230876803398132e+01 -5.210425299406051636e+01 1.691773929260676823e+00
6.967120525240898132e+01 -5.060583990812301636e+01 1.586625613830989323e+00
6.932745525240898132e+01 -4.917175787687301636e+01 1.485261478088801823e+00
6.763177654147148132e+01 -5.618640631437301636e+01 2.539842166565364323e+00
5.046600505709648132e+01 -4.000049322843551636e+01 1.748826541565364323e+00
6.885504314303398132e+01 -5.474231451749801636e+01 2.380723514221614323e+00
5.401190349459648132e+01 -4.110254400968551636e+01 1.727967776916926823e+00
7.048382732272148132e+01 -5.362476080656051636e+01 2.238008060120051823e+00
7.332660076022148132e+01 -5.343445318937301636e+01 2.133241214416926823e+00
7.112201091647148132e+01 -5.050952643156051636e+01 1.964906253479426823e+00
5.049542400240898132e+01 -3.998962897062301636e+01 2.079072513245051823e+00
7.009124919772148132e+01 -5.574756354093551636e+01 2.872712649963801823e+00
5.403155681490898132e+01 -4.108142584562301636e+01 2.073487796448176823e+00
5.406695720553398132e+01 -4.107385748624801636e+01 2.417970218323176823e+00
5.396380779147148132e+01 -4.193237799406051636e+01 2.846055545471614323e+00
5.409613201022148132e+01 -4.106079596281051636e+01 2.764131106995051823e+00
3.853277751803398132e+01 -2.661060065031051636e+01 -7.757553676143231769e-01
4.733648845553398132e+01 -3.283472174406051636e+01 -9.030136683955731769e-01
4.179229900240898132e+01 -2.774414557218551636e+01 -9.027390101924481769e-01
2.977386638522148132e+01 -1.796179693937301636e+01 -8.167252162471356769e-01
4.936554118990898132e+01 -3.886938971281051636e+01 -2.900223353877606769e-01
3.711517497897148132e+01 -2.751831549406051636e+01 -3.736099818721356769e-01
3.727923747897148132e+01 -2.695386236906051636e+01 -4.247879603877606769e-01
2.124615642428398132e+01 -1.315222662687301636e+01 -4.586472133174481769e-01
3.829828044772148132e+01 -2.639319342374801636e+01 -5.248856166377606769e-01
5.091180583834648132e+01 -3.560583990812301636e+01 -6.152481654658856769e-01
5.546368572115898132e+01 -3.822546881437301636e+01 -6.961350062861981769e-01
5.261017009615898132e+01 -3.514136236906051636e+01 -7.469162562861981769e-01
5.930731365084648132e+01 -4.745544928312301636e+01 1.204238316044268231e-01
3.724871990084648132e+01 -2.760168951749801636e+01 -1.248459437861981769e-01
3.753253337740898132e+01 -2.713501471281051636e+01 -1.751389125361981769e-01
2.125543376803398132e+01 -1.314172857999801636e+01 -3.075089076533856769e-01
3.838995525240898132e+01 -2.643689459562301636e+01 -2.744278529658856769e-01
5.051837322115898132e+01 -3.525952643156051636e+01 -2.945236781611981769e-01
5.187054607272148132e+01 -3.542517584562301636e+01 -3.573288539424481769e-01
5.265777751803398132e+01 -3.513977545499801636e+01 -4.221481898799481769e-01
6.198053142428398132e+01 -4.972546881437301636e+01 5.454726597294268231e-01
3.756732341647148132e+01 -2.784216803312301636e+01 1.277938267216143231e-01
3.770184490084648132e+01 -2.724609869718551636e+01 7.496789898723932311e-02
2.072516033053398132e+01 -1.269104498624801636e+01 -1.630386928096356769e-01
1.973285076022148132e+01 -1.148816412687301636e+01 -2.040390590205731769e-01
1.908294841647148132e+01 -1.059192389249801636e+01 -2.392258265986981769e-01
2.924517986178398132e+01 -1.802063482999801636e+01 -1.955246547236981769e-01
3.030890056490898132e+01 -1.829675787687301636e+01 -2.284531215205731769e-01
6.364447185397148132e+01 -5.111755865812301636e+01 9.793715855106768231e-01
3.960064861178398132e+01 -2.953772467374801636e+01 4.187331577763018231e-01
4.001007243990898132e+01 -2.913635748624801636e+01 3.668990513309893231e-01
2.067840740084648132e+01 -1.263525885343551636e+01 -1.606603655963567689e-02
1.969415447115898132e+01 -1.144055670499801636e+01 -6.387182269244817689e-02
1.905975505709648132e+01 -1.055786627531051636e+01 -1.036667445674481769e-01
1.848846599459648132e+01 -9.748662173748016357e+00 -1.406693080440106769e-01
1.795465251803398132e+01 -8.992314517498016357e+00 -1.752304652705731769e-01
6.376849529147148132e+01 -5.117432135343551636e+01 1.393861331604426823e+00
3.839727947115898132e+01 -2.848499029874801636e+01 6.501479526981768231e-01
3.874273845553398132e+01 -2.805115240812301636e+01 5.988021275028643231e-01
4.111712810397148132e+01 -2.926794928312301636e+01 5.931868931278643231e-01
6.635858318209648132e+01 -4.867480963468551636e+01 1.068955936096614323e+00
1.902972576022148132e+01 -1.051855963468551636e+01 3.065637554973932311e-02
1.844098064303398132e+01 -9.697026431560516357e+00 -1.095434222369817689e-02
1.789300701022148132e+01 -8.931401431560516357e+00 -4.908605609088567689e-02
6.452679607272148132e+01 -5.177966803312301636e+01 1.828172244690364323e+00
5.427887126803398132e+01 -4.191345709562301636e+01 1.405076541565364323e+00
6.939178630709648132e+01 -5.347766607999801636e+01 1.773347415588801823e+00
6.983697673678398132e+01 -5.261182135343551636e+01 1.680879153870051823e+00
6.937701579928398132e+01 -5.103320807218551636e+01 1.564622440002864323e+00
6.896197673678398132e+01 -4.952368658781051636e+01 1.452439822815364323e+00
6.858917400240898132e+01 -4.807434576749801636e+01 1.343675174377864323e+00
6.830291911959648132e+01 -4.672375982999801636e+01 1.239793338440364323e+00
6.857794353365898132e+01 -5.522839850187301636e+01 2.401704349182551823e+00
5.416229411959648132e+01 -4.177197760343551636e+01 1.751710452698176823e+00
5.411248943209648132e+01 -4.074487799406051636e+01 1.660768069885676823e+00
7.104376384615898132e+01 -5.354126471281051636e+01 2.157304324768489323e+00
7.305365154147148132e+01 -5.391235846281051636e+01 2.114625491760676823e+00
7.122393962740898132e+01 -5.124023932218551636e+01 1.946824588440364323e+00
7.047454997897148132e+01 -4.946777838468551636e+01 1.820390262268489323e+00
7.141412517428398132e+01 -4.900720709562301636e+01 1.744325198791926823e+00
6.941204997897148132e+01 -5.589429205656051636e+01 2.879151858948176823e+00
7.003900310397148132e+01 -5.516199225187301636e+01 2.788484134338801823e+00
7.060431072115898132e+01 -4.951721686124801636e+01 2.253129520080989323e+00
7.077008220553398132e+01 -4.847534674406051636e+01 2.154542483948176823e+00
3.904791423678398132e+01 -2.871057623624801636e+01 7.759414097294268231e-01
3.921026775240898132e+01 -2.810840338468551636e+01 7.157912632450518231e-01
6.794610759615898132e+01 -5.064307135343551636e+01 1.364289798401301823e+00
6.758453533053398132e+01 -4.916846197843551636e+01 1.251954593323176823e+00
6.721478435397148132e+01 -4.772156256437301636e+01 1.142427005432551823e+00
6.696087810397148132e+01 -4.639233893156051636e+01 1.037858523987239323e+00
1.770782634615898132e+01 -8.540654361248016357e+00 -6.102047301823176895e-03
1.719903728365898132e+01 -7.824834048748016357e+00 -4.530187640338567689e-02
5.386651775240898132e+01 -4.115576666593551636e+01 1.537049808166926823e+00
6.987396404147148132e+01 -5.338220709562301636e+01 1.962907352112239323e+00
7.136822673678398132e+01 -5.335742682218551636e+01 1.894929446838801823e+00
7.080340740084648132e+01 -5.166711920499801636e+01 1.766221561096614323e+00
7.026837322115898132e+01 -5.004138678312301636e+01 1.642091312073176823e+00
6.985797283053398132e+01 -4.854614752531051636e+01 1.524461307190364323e+00
6.946624919772148132e+01 -4.709143561124801636e+01 1.411958255432551823e+00
6.919757243990898132e+01 -4.576025885343551636e+01 1.303117313049739323e+00
5.391998454928398132e+01 -4.115588873624801636e+01 1.889527835510676823e+00
7.054950115084648132e+01 -5.388330572843551636e+01 2.428742923401301823e+00
7.065741130709648132e+01 -5.028967779874801636e+01 2.089707889221614323e+00
7.087506267428398132e+01 -4.926672857999801636e+01 1.985963382385676823e+00
5.499798747897148132e+01 -3.626978033781051636e+01 1.390580691955989323e+00
7.224115154147148132e+01 -4.792944830656051636e+01 1.810731448791926823e+00
5.038275310397148132e+01 -4.835168951749801636e+01 5.609666385315364323e+00
4.653448650240898132e+01 -5.274878424406051636e+01 6.403337039612239323e+00
4.765521404147148132e+01 -5.252905768156051636e+01 6.399446048401301823e+00
3.359503337740898132e+01 -3.602771490812301636e+01 4.704881229065364323e+00
5.031585857272148132e+01 -4.825208014249801636e+01 6.050599612854426823e+00
4.657599040865898132e+01 -5.276050299406051636e+01 6.858628787659114323e+00
4.732086345553398132e+01 -5.212952154874801636e+01 6.810044803284114323e+00
