1.436038124561309814e+01 -2.460211381316184998e+01 -9.404668956063630958e-01
1.480532753467559814e+01 -3.084198197722434998e+01 -8.397588877938630958e-01
1.707998573780059814e+01 -3.514752396941184998e+01 -9.337377696298005958e-01
1.716494667530059814e+01 -3.436566361784934998e+01 -9.345922618173005958e-01
1.729202187061309814e+01 -3.370355424284934998e+01 -9.373388438485505958e-01
1.739028847217559814e+01 -3.300909623503684998e+01 -9.389257579110505958e-01
1.743923866748809814e+01 -3.224029740691184998e+01 -9.385290293954255958e-01
1.748672401905059814e+01 -3.149579057097434998e+01 -9.381323008798005958e-01
1.751431190967559814e+01 -3.074383744597434998e+01 -9.378881602548005958e-01
1.437197792530059814e+01 -2.981598100066184998e+01 -6.638250499032380958e-01
1.479397499561309814e+01 -2.993243607878684998e+01 -6.781835704110505958e-01
2.313015663623809814e+01 -4.756414994597434998e+01 -9.415807872079255958e-01
1.896377480030059814e+01 -3.729620561003684998e+01 -8.118353038094880958e-01
1.872634804248809814e+01 -3.580450639128684998e+01 -8.056402354501130958e-01
1.865005409717559814e+01 -3.470916947722434998e+01 -8.044500499032380958e-01
1.865164101123809814e+01 -3.381158646941184998e+01 -8.056860118173005958e-01
1.869961464405059814e+01 -3.304303178191184998e+01 -8.083410411141755958e-01
1.434072792530059814e+01 -2.973028764128684998e+01 -5.068731456063630958e-01
1.474795448780059814e+01 -2.981549271941184998e+01 -5.196142344735505958e-01
2.641836464405059814e+01 -5.482513627409934998e+01 -7.598333506844880958e-01
2.714675819873809814e+01 -5.492682084441184998e+01 -7.828741221688630958e-01
2.727444374561309814e+01 -5.375238236784934998e+01 -7.934484629891755958e-01
1.951138222217559814e+01 -3.645990189909934998e+01 -6.367101817391755958e-01
1.922354042530059814e+01 -3.494122514128684998e+01 -6.367101817391755958e-01
1.916116249561309814e+01 -3.393023881316184998e+01 -6.402044444344880958e-01
1.435989296436309814e+01 -2.976251420378684998e+01 -3.503179698251130958e-01
1.475344765186309814e+01 -2.981537064909934998e+01 -3.617925792001130958e-01
2.631008827686309814e+01 -5.456378373503684998e+01 -4.753179698251130958e-01
2.690298378467559814e+01 -5.437994584441184998e+01 -4.951543956063630958e-01
2.741787636280059814e+01 -5.403289994597434998e+01 -5.141668467782380958e-01
2.807644569873809814e+01 -5.398456010222434998e+01 -5.346899180673005958e-01
2.888137733936309814e+01 -5.421319779753684998e+01 -5.570135264657380958e-01
2.958413612842559814e+01 -5.422345170378684998e+01 -5.783147959969880958e-01
1.439590370655059814e+01 -2.983404740691184998e+01 -1.941900401376130958e-01
1.480789101123809814e+01 -2.992682084441184998e+01 -2.046575694344880958e-01
2.583328163623809814e+01 -5.348724564909934998e+01 -1.941290049813630958e-01
2.642642128467559814e+01 -5.333172807097434998e+01 -2.131719737313630958e-01
2.702139198780059814e+01 -5.317987260222434998e+01 -2.322302012704255958e-01
2.762515175342559814e+01 -5.304046830534934998e+01 -2.513647227548005958e-01
2.823367226123809814e+01 -5.290008744597434998e+01 -2.706365733407380958e-01
2.885439980030059814e+01 -5.278228959441184998e+01 -2.899542002938630958e-01
1.441897499561309814e+01 -2.987530717253684998e+01 -3.667356064542559579e-02
1.487698280811309814e+01 -3.007147416472434998e+01 -4.531003525480059579e-02
2.856924355030059814e+01 -5.951642045378684998e+01 1.200647206045744042e-01
2.759817421436309814e+01 -5.583453568816184998e+01 7.972048232332440421e-02
2.839761269092559814e+01 -5.604767045378684998e+01 6.232546279207440421e-02
2.835952675342559814e+01 -5.452289018034934998e+01 3.594301650301190421e-02
3.037698280811309814e+01 -5.715716752409934998e+01 2.970217177644940421e-02
3.085916054248809814e+01 -5.666583451628684998e+01 8.095726463949404206e-03
1.470925819873809814e+01 -3.054010209441184998e+01 1.276483387686369042e-01
2.796035683155059814e+01 -5.976519975066184998e+01 4.479608387686369042e-01
2.861782753467559814e+01 -5.800824174284934998e+01 3.929376454092619042e-01
2.830984413623809814e+01 -5.584198197722434998e+01 3.526239247061369042e-01
2.931582558155059814e+01 -5.645831498503684998e+01 3.415155262686369042e-01
3.042739784717559814e+01 -5.723639115691184998e+01 3.313836903311369042e-01
3.343997108936309814e+01 -6.166766557097434998e+01 3.552789540030119042e-01
2.798635780811309814e+01 -5.979998978972434998e+01 7.571954579092619042e-01
2.871804726123809814e+01 -5.979815873503684998e+01 7.389459461905119042e-01
2.989651405811309814e+01 -6.073761186003684998e+01 7.369317860342619042e-01
3.036501991748809814e+01 -6.013092240691184998e+01 7.103967518545744042e-01
2.985366737842559814e+01 -5.753668412566184998e+01 6.538476795889494042e-01
2.997000038623809814e+01 -5.630304154753684998e+01 6.204004139639494042e-01
3.157730019092559814e+01 -5.802118119597434998e+01 6.291894764639494042e-01
2.800674355030059814e+01 -5.982208451628684998e+01 1.064919456932699404e+00
3.026528847217559814e+01 -6.319207963347434998e+01 1.120797142479574404e+00
2.898550331592559814e+01 -5.875384721159934998e+01 1.012185081932699404e+00
2.964688026905059814e+01 -5.860223588347434998e+01 9.938897938467619042e-01
2.993545448780059814e+01 -5.768182572722434998e+01 9.599084706045744042e-01
3.207461464405059814e+01 -6.047686967253684998e+01 1.000756248924886904e+00
3.203555214405059814e+01 -5.889105424284934998e+01 9.532861561514494042e-01
2.798025429248809814e+01 -5.973785600066184998e+01 1.370125755760824404e+00
2.945217812061309814e+01 -6.137176713347434998e+01 1.399071678612386904e+00
2.979531776905059814e+01 -6.047259721159934998e+01 1.361550316307699404e+00
2.976394569873809814e+01 -5.882513627409934998e+01 1.305153831932699404e+00
3.302285683155059814e+01 -6.234381303191184998e+01 1.365838036034261904e+00
3.199539101123809814e+01 -5.879120072722434998e+01 1.263863548729574404e+00
2.800259315967559814e+01 -5.976458939909934998e+01 1.679650291893636904e+00
2.860684120655059814e+01 -5.948138627409934998e+01 1.658547386620199404e+00
2.916116249561309814e+01 -5.908563432097434998e+01 1.633919701073324404e+00
3.027798378467559814e+01 -5.987921342253684998e+01 1.645958885643636904e+00
3.026345741748809814e+01 -5.830816850066184998e+01 1.585305199120199404e+00
3.155630409717559814e+01 -5.791632279753684998e+01 1.548455223534261904e+00
2.801418983936309814e+01 -5.976678666472434998e+01 1.986962303612386904e+00
2.863333046436309814e+01 -5.951642045378684998e+01 1.967049583885824404e+00
2.926797401905059814e+01 -5.929229936003684998e+01 1.948037132713949404e+00
2.984158241748809814e+01 -5.894232377409934998e+01 1.924523338768636904e+00
3.056289589405059814e+01 -5.889764603972434998e+01 1.911919579003011904e+00
3.317910683155059814e+01 -6.260846146941184998e+01 2.032402977440511904e+00
3.152419960498809814e+01 -5.783258256316184998e+01 1.853615745995199404e+00
2.802261269092559814e+01 -5.976165971159934998e+01 2.295678123924886904e+00
2.862832558155059814e+01 -5.948175248503684998e+01 2.274712547753011904e+00
3.047952187061309814e+01 -6.187152299284934998e+01 2.363457664940511904e+00
3.031570351123809814e+01 -5.991241654753684998e+01 2.273308739159261904e+00
3.190847694873809814e+01 -6.162140092253684998e+01 2.333321556542074404e+00
3.101785194873809814e+01 -5.828351029753684998e+01 2.187600120995199404e+00
3.158486855030059814e+01 -5.792926225066184998e+01 2.163628563378011904e+00
2.795571815967559814e+01 -5.958600053191184998e+01 2.596474632713949404e+00
2.855532753467559814e+01 -5.929718217253684998e+01 2.573494896385824404e+00
2.916397011280059814e+01 -5.902252396941184998e+01 2.552803978417074404e+00
2.980496132373809814e+01 -5.882049760222434998e+01 2.535454735253011904e+00
3.130227577686309814e+01 -6.036139115691184998e+01 2.598092064354574404e+00
3.087820351123809814e+01 -5.798382768034934998e+01 2.482537254784261904e+00
3.158084022998809814e+01 -5.790008744597434998e+01 2.470604881737386904e+00
2.797598183155059814e+01 -5.960809525847434998e+01 2.904091820213949404e+00
2.978225624561309814e+01 -6.197748002409934998e+01 3.019249901268636904e+00
2.915188515186309814e+01 -5.897357377409934998e+01 2.858422264549886904e+00
3.116982948780059814e+01 -6.165301713347434998e+01 2.988869652245199404e+00
3.035415565967559814e+01 -5.840497025847434998e+01 2.816185936424886904e+00
3.075845253467559814e+01 -5.772418412566184998e+01 2.774849876854574404e+00
3.159829628467559814e+01 -5.791278275847434998e+01 2.779427513573324404e+00
7.983061909675598145e+00 -1.217840775847434998e+01 -8.932409434579255958e-01
8.082915425300598145e+00 -1.203814896941184998e+01 -8.946142344735505958e-01
8.175566792488098145e+00 -1.188775834441184998e+01 -8.957891612313630958e-01
8.265166401863098145e+00 -1.173443803191184998e+01 -8.967657237313630958e-01
8.353545308113098145e+00 -1.158355912566184998e+01 -8.977117686532380958e-01
8.432646870613098145e+00 -1.142010697722434998e+01 -8.979253917001130958e-01
8.509307026863098145e+00 -1.125555619597434998e+01 -8.980169444344880958e-01
8.581572651863098145e+00 -1.108868607878684998e+01 -8.981847911141755958e-01
8.753325581550598145e+00 -1.367767533659934998e+01 -8.853979258798005958e-01
8.830474019050598145e+00 -1.345831498503684998e+01 -8.850011973641755958e-01
8.926177144050598145e+00 -1.327972611784934998e+01 -8.857793956063630958e-01
8.976470112800598145e+00 -1.302227982878684998e+01 -8.834295420907380958e-01
9.025542378425598145e+00 -1.277166947722434998e+01 -8.811407237313630958e-01
9.078520894050598145e+00 -1.253570756316184998e+01 -8.792944102548005958e-01
9.161894917488098145e+00 -1.235736283659934998e+01 -8.803167491219880958e-01
9.251860737800598145e+00 -1.219525346159934998e+01 -8.815527110360505958e-01
1.037405312061309814e+01 -1.683624467253684998e+01 -9.233617930673005958e-01
1.032522499561309814e+01 -1.630096635222434998e+01 -9.135809092782380958e-01
1.036868202686309814e+01 -1.595770463347434998e+01 -9.106207042001130958e-01
1.041104042530059814e+01 -1.562286576628684998e+01 -9.077215342782380958e-01
1.041177284717559814e+01 -1.522638139128684998e+01 -9.021062999032380958e-01
1.040566933155059814e+01 -1.483185014128684998e+01 -8.962164073251130958e-01
1.044961464405059814e+01 -1.453460893034934998e+01 -8.939428477548005958e-01
1.049258339405059814e+01 -1.424591264128684998e+01 -8.917303233407380958e-01
1.217275917530059814e+01 -2.034002885222434998e+01 -9.402227549813630958e-01
1.226980507373809814e+01 -1.999835404753684998e+01 -9.402074961923005958e-01
1.235525429248809814e+01 -1.964544877409934998e+01 -9.401922374032380958e-01
1.243911659717559814e+01 -1.929925736784934998e+01 -9.401922374032380958e-01
1.252090370655059814e+01 -1.896148881316184998e+01 -9.401769786141755958e-01
1.253616249561309814e+01 -1.851873978972434998e+01 -9.363012461923005958e-01
1.247976601123809814e+01 -1.796783646941184998e+01 -9.283056407235505958e-01
1.241287147998809814e+01 -1.742071732878684998e+01 -9.204473643563630958e-01
1.436025917530059814e+01 -2.459955033659934998e+01 -9.404516368173005958e-01
1.443533241748809814e+01 -2.411371049284934998e+01 -9.404211192391755958e-01
1.450857460498809814e+01 -2.364068803191184998e+01 -9.404058604501130958e-01
1.458022987842559814e+01 -2.317828568816184998e+01 -9.403906016610505958e-01
1.464993202686309814e+01 -2.272943314909934998e+01 -9.403753428719880958e-01
1.471780312061309814e+01 -2.229168900847434998e+01 -9.403600840829255958e-01
1.478408730030059814e+01 -2.186322221159934998e+01 -9.403448252938630958e-01
1.484866249561309814e+01 -2.144659623503684998e+01 -9.403295665048005958e-01
1.751382362842559814e+01 -3.074005326628684998e+01 -9.378576426766755958e-01
1.756570351123809814e+01 -3.006244096159934998e+01 -9.374456553719880958e-01
1.768350136280059814e+01 -2.953131303191184998e+01 -9.407262950204255958e-01
1.772134315967559814e+01 -2.886908158659934998e+01 -9.406957774423005958e-01
1.775784218311309814e+01 -2.822967728972434998e+01 -9.406652598641755958e-01
1.779312050342559814e+01 -2.760992631316184998e+01 -9.406500010751130958e-01
1.782754433155059814e+01 -2.700677689909934998e+01 -9.406194834969880958e-01
1.784121620655059814e+01 -2.639142045378684998e+01 -9.406042247079255958e-01
1.869888222217559814e+01 -3.303863725066184998e+01 -8.083105235360505958e-01
1.877249062061309814e+01 -3.234735307097434998e+01 -8.121862559579255958e-01
1.886526405811309814e+01 -3.171551713347434998e+01 -8.166113047860505958e-01
1.897793495655059814e+01 -3.113800248503684998e+01 -8.216467051766755958e-01
1.910501015186309814e+01 -3.060663041472434998e+01 -8.271093516610505958e-01
1.923660194873809814e+01 -3.009918412566184998e+01 -8.326940684579255958e-01
1.938613808155059814e+01 -2.963458451628684998e+01 -8.388281016610505958e-01
1.953359901905059814e+01 -2.918182572722434998e+01 -8.448705821298005958e-01
1.916018593311309814e+01 -3.392523393034934998e+01 -6.402044444344880958e-01
1.922354042530059814e+01 -3.319317826628684998e+01 -6.465673594735505958e-01
1.932717812061309814e+01 -3.256158646941184998e+01 -6.527319102548005958e-01
1.945254433155059814e+01 -3.198724564909934998e+01 -6.602392344735505958e-01
1.960610878467559814e+01 -3.148333939909934998e+01 -6.682653575204255958e-01
1.977212440967559814e+01 -3.101532182097434998e+01 -6.765051036141755958e-01
1.994802772998809814e+01 -3.057477006316184998e+01 -6.858282237313630958e-01
2.015078651905059814e+01 -3.019232377409934998e+01 -6.947698741219880958e-01
2.958596718311309814e+01 -5.422247514128684998e+01 -5.783758311532380958e-01
2.949478065967559814e+01 -5.270916947722434998e+01 -5.904760508798005958e-01
2.111147987842559814e+01 -3.586163529753684998e+01 -4.975805430673005958e-01
2.088662636280059814e+01 -3.457501420378684998e+01 -5.033178477548005958e-01
2.090322792530059814e+01 -3.376873978972434998e+01 -5.117712168954255958e-01
2.100393593311309814e+01 -3.313592728972434998e+01 -5.211248545907380958e-01
2.110085976123809814e+01 -3.251336869597434998e+01 -5.302496104501130958e-01
2.125112831592559814e+01 -3.200103959441184998e+01 -5.399389415048005958e-01
2.885684120655059814e+01 -5.278253373503684998e+01 -2.900304942391755958e-01
2.948586952686309814e+01 -5.267303666472434998e+01 -3.095617442391755958e-01
3.013528358936309814e+01 -5.259247025847434998e+01 -3.292760997079255958e-01
3.419106972217559814e+01 -5.866937455534934998e+01 -3.612432627938630958e-01
2.205825722217559814e+01 -3.580133256316184998e+01 -3.306036143563630958e-01
2.182388222217559814e+01 -3.454229936003684998e+01 -3.413305430673005958e-01
2.180642616748809814e+01 -3.369488725066184998e+01 -3.525762706063630958e-01
2.189456093311309814e+01 -3.305340775847434998e+01 -3.639898448251130958e-01
3.086355507373809814e+01 -5.666949662566184998e+01 8.034691307699404206e-03
3.325344765186309814e+01 -5.981195268034934998e+01 1.152977440511904206e-03
3.387234413623809814e+01 -5.950531205534934998e+01 -2.066709091886309579e-02
3.077883827686309814e+01 -5.246795853972434998e+01 -6.487180283292559579e-02
2.519814980030059814e+01 -4.134430131316184998e+01 -1.164922862313630958e-01
3.203628456592559814e+01 -5.218768510222434998e+01 -1.030645518563630958e-01
3.265115272998809814e+01 -5.200909623503684998e+01 -1.224889903329255958e-01
3.326870644092559814e+01 -5.183355912566184998e+01 -1.419286875985505958e-01
3.344485390186309814e+01 -6.167181596159934998e+01 3.552484364248869042e-01
3.321621620655059814e+01 -5.971954545378684998e+01 3.180322499014494042e-01
3.388711464405059814e+01 -5.951141557097434998e+01 2.972802967764494042e-01
3.498074257373809814e+01 -6.005780228972434998e+01 2.828149647451994042e-01
2.520034706592559814e+01 -4.133355912566184998e+01 1.092614979483244042e-01
3.623843300342559814e+01 -5.943280228972434998e+01 2.387475819326994042e-01
3.535501015186309814e+01 -5.655890092253684998e+01 1.971826405264494042e-01
3.463333046436309814e+01 -5.406976518034934998e+01 1.601343006826994042e-01
3.158084022998809814e+01 -5.802301225066184998e+01 6.291589588858244042e-01
3.245962440967559814e+01 -5.826141557097434998e+01 6.160821766592619042e-01
3.420901405811309814e+01 -6.008673295378684998e+01 6.233301014639494042e-01
3.510037147998809814e+01 -6.025299271941184998e+01 6.081018299795744042e-01
2.520535194873809814e+01 -4.132794389128684998e+01 3.350000233389494042e-01
3.660110390186309814e+01 -6.003888139128684998e+01 5.696649403311369042e-01
3.536611855030059814e+01 -5.655829057097434998e+01 5.082635731436369042e-01
3.713735878467559814e+01 -5.818573197722434998e+01 5.116357655264494042e-01
3.203713905811309814e+01 -5.888897904753684998e+01 9.531946034170744042e-01
3.257314980030059814e+01 -5.845562943816184998e+01 9.296808094717619042e-01
3.379629433155059814e+01 -5.930035600066184998e+01 9.309015125967619042e-01
3.484854042530059814e+01 -5.977594193816184998e+01 9.244317860342619042e-01
2.520974647998809814e+01 -4.132098588347434998e+01 5.618982166983244042e-01
2.045754921436309814e+01 -3.137079057097434998e+01 3.576898426748869042e-01
3.707742226123809814e+01 -5.806707963347434998e+01 8.294458241201994042e-01
3.199624550342559814e+01 -5.878790482878684998e+01 1.263741478417074404e+00
3.257925331592559814e+01 -5.844623002409934998e+01 1.240319237206136904e+00
3.384207069873809814e+01 -5.936407670378684998e+01 1.249428734276449404e+00
3.503774940967559814e+01 -6.009710893034934998e+01 1.253457054588949404e+00
2.521682655811309814e+01 -4.131903275847434998e+01 7.876825184561369042e-01
3.660659706592559814e+01 -6.000689896941184998e+01 1.223046287987386904e+00
2.046072304248809814e+01 -3.136517533659934998e+01 5.329522938467619042e-01
2.067715370655059814e+01 -3.098773393034934998e+01 5.172967762686369042e-01
3.155764687061309814e+01 -5.791412553191184998e+01 1.548348412010824404e+00
3.222439491748809814e+01 -5.775177201628684998e+01 1.532052025292074404e+00
3.438345253467559814e+01 -6.034527787566184998e+01 1.597680077049886904e+00
2.046389687061309814e+01 -3.135956010222434998e+01 7.090997547842619042e-01
2.068020546436309814e+01 -3.098224076628684998e+01 6.914911122061369042e-01
3.152554237842559814e+01 -5.783038529753684998e+01 1.853508934471761904e+00
3.336135780811309814e+01 -5.988641557097434998e+01 1.914345726463949404e+00
3.411184608936309814e+01 -5.982086381316184998e+01 1.901879295799886904e+00
3.493459999561309814e+01 -5.708050736784934998e+01 1.776253685448324404e+00
2.046707069873809814e+01 -3.135406693816184998e+01 8.842859120108244042e-01
3.158572304248809814e+01 -5.792596635222434998e+01 2.163460716698324404e+00
3.368264687061309814e+01 -6.047357377409934998e+01 2.258172020409261904e+00
3.518362343311309814e+01 -6.029693803191184998e+01 2.233986839745199404e+00
3.543838417530059814e+01 -5.658355912566184998e+01 2.060509666893636904e+00
3.158218300342559814e+01 -5.789764603972434998e+01 2.470452293846761904e+00
3.272122108936309814e+01 -5.863031205534934998e+01 2.497460350487386904e+00
3.478347694873809814e+01 -6.102044877409934998e+01 2.597802147362386904e+00
3.507253944873809814e+01 -6.007513627409934998e+01 2.548104271385824404e+00
3.545681679248809814e+01 -5.659515580534934998e+01 2.372567162010824404e+00
3.160049355030059814e+01 -5.791192826628684998e+01 2.779366478417074404e+00
3.286294472217559814e+01 -5.887738236784934998e+01 2.822030052635824404e+00
3.506936562061309814e+01 -5.725360307097434998e+01 2.720604881737386904e+00
3.550442421436309814e+01 -5.665606889128684998e+01 2.685631737206136904e+00
8.581572651863098145e+00 -1.108783158659934998e+01 -8.981695323251130958e-01
8.665923237800598145e+00 -1.094476518034934998e+01 -8.991918711923005958e-01
8.750762104988098145e+00 -1.080523881316184998e+01 -9.006567149423005958e-01
8.835112690925598145e+00 -1.066656693816184998e+01 -9.021368174813630958e-01
8.870757222175598145e+00 -1.045746049284934998e+01 -8.996343760751130958e-01
8.735137104988098145e+00 -9.999574750661849976e+00 -8.831854014657380958e-01
8.603423237800598145e+00 -9.562685102224349976e+00 -8.673620372079255958e-01
8.638457417488098145e+00 -9.378847211599349976e+00 -8.656988292001130958e-01
9.251982808113098145e+00 -1.219452103972434998e+01 -8.815527110360505958e-01
9.335967183113098145e+00 -1.202643021941184998e+01 -8.828344493173005958e-01
9.423491597175598145e+00 -1.186737260222434998e+01 -8.840398936532380958e-01
9.483550190925598145e+00 -1.166790971159934998e+01 -8.836126475594880958e-01
9.554717183113098145e+00 -1.149102982878684998e+01 -8.841161875985505958e-01
9.640532612800598145e+00 -1.133990678191184998e+01 -8.857641368173005958e-01
9.722075581550598145e+00 -1.118438920378684998e+01 -8.875188975594880958e-01
9.806059956550598145e+00 -1.103631791472434998e+01 -8.891363292001130958e-01
1.049221718311309814e+01 -1.424432572722434998e+01 -8.916998057626130958e-01
1.052615272998809814e+01 -1.394977006316184998e+01 -8.894415049813630958e-01
1.055923378467559814e+01 -1.366229447722434998e+01 -8.872442393563630958e-01
1.059158241748809814e+01 -1.338080033659934998e+01 -8.850927500985505958e-01
1.062319862842559814e+01 -1.310711869597434998e+01 -8.830022959969880958e-01
1.065383827686309814e+01 -1.283966264128684998e+01 -8.809423594735505958e-01
1.068398964405059814e+01 -1.257757768034934998e+01 -8.789281993173005958e-01
1.074136269092559814e+01 -1.236236771941184998e+01 -8.788061290048005958e-01
1.241165077686309814e+01 -1.741729936003684998e+01 -9.203710704110505958e-01
1.236270058155059814e+01 -1.691827592253684998e+01 -9.131078868173005958e-01
1.235659706592559814e+01 -1.650384721159934998e+01 -9.090643077157380958e-01
1.236917030811309814e+01 -1.612982377409934998e+01 -9.061956553719880958e-01
1.238149940967559814e+01 -1.576776322722434998e+01 -9.034338145516755958e-01
1.239334022998809814e+01 -1.541559037566184998e+01 -9.007330088876130958e-01
1.240469276905059814e+01 -1.507171830534934998e+01 -8.980932383798005958e-01
1.242397987842559814e+01 -1.474994096159934998e+01 -8.964910655282380958e-01
1.484817421436309814e+01 -2.144427689909934998e+01 -9.403143077157380958e-01
1.490200722217559814e+01 -2.102252396941184998e+01 -9.402990489266755958e-01
1.495449745655059814e+01 -2.061114701628684998e+01 -9.402990489266755958e-01
1.493228065967559814e+01 -2.009381303191184998e+01 -9.366369395516755958e-01
1.493142616748809814e+01 -1.962652787566184998e+01 -9.341192393563630958e-01
1.487490761280059814e+01 -1.909063920378684998e+01 -9.289465098641755958e-01
1.484756386280059814e+01 -1.861248978972434998e+01 -9.252844004891755958e-01
1.495632851123809814e+01 -1.834369096159934998e+01 -9.283666758798005958e-01
1.784072792530059814e+01 -2.638849076628684998e+01 -9.405737071298005958e-01
1.796316444873809814e+01 -2.596869096159934998e+01 -9.439306407235505958e-01
1.806533730030059814e+01 -2.552728471159934998e+01 -9.472570567391755958e-01
1.792166054248809814e+01 -2.471502885222434998e+01 -9.405126719735505958e-01
1.794106972217559814e+01 -2.417901811003684998e+01 -9.404974131844880958e-01
1.795986855030059814e+01 -2.365789994597434998e+01 -9.404821543954255958e-01
1.797830116748809814e+01 -2.314923295378684998e+01 -9.404668956063630958e-01
1.797830116748809814e+01 -2.263067826628684998e+01 -9.404516368173005958e-01
1.953347694873809814e+01 -2.917950639128684998e+01 -8.448705821298005958e-01
1.969375526905059814e+01 -2.875909623503684998e+01 -8.517065196298005958e-01
1.985232460498809814e+01 -2.834601029753684998e+01 -8.584661631844880958e-01
2.002175819873809814e+01 -2.795709428191184998e+01 -8.655462413094880958e-01
2.019314491748809814e+01 -2.758148393034934998e+01 -8.726720958016755958e-01
2.040835487842559814e+01 -2.727887162566184998e+01 -8.812170176766755958e-01
2.063980019092559814e+01 -2.700250443816184998e+01 -8.902959971688630958e-01
2.087466347217559814e+01 -2.673651322722434998e+01 -8.994665293954255958e-01
2.015103065967559814e+01 -3.019049271941184998e+01 -6.948003917001130958e-01
2.035989296436309814e+01 -2.982647904753684998e+01 -7.041387706063630958e-01
2.058474647998809814e+01 -2.949481400847434998e+01 -7.129125743173005958e-01
2.081338417530059814e+01 -2.917242631316184998e+01 -7.226476817391755958e-01
2.105325233936309814e+01 -2.887457475066184998e+01 -7.326269297860505958e-01
2.129934608936309814e+01 -2.859002885222434998e+01 -7.427282481454255958e-01
2.155288612842559814e+01 -2.831768998503684998e+01 -7.538976817391755958e-01
2.181716835498809814e+01 -2.806598100066184998e+01 -7.643957286141755958e-01
2.125112831592559814e+01 -3.199859818816184998e+01 -5.399694590829255958e-01
2.140811073780059814e+01 -3.151080521941184998e+01 -5.498113780282380958e-01
2.160842812061309814e+01 -3.110333451628684998e+01 -5.601873545907380958e-01
2.181668007373809814e+01 -3.071441850066184998e+01 -5.706396250985505958e-01
2.203262245655059814e+01 -3.034710893034934998e+01 -5.811071543954255958e-01
2.225881874561309814e+01 -3.000164994597434998e+01 -5.916662364266755958e-01
2.249844276905059814e+01 -2.967926225066184998e+01 -6.024236827157380958e-01
2.276150429248809814e+01 -2.939715775847434998e+01 -6.135015635751130958e-01
2.189395058155059814e+01 -3.304986771941184998e+01 -3.640356211923005958e-01
2.201382362842559814e+01 -3.247882279753684998e+01 -3.754491954110505958e-01
2.213699257373809814e+01 -3.192828568816184998e+01 -3.866644053719880958e-01
2.231204140186309814e+01 -3.147015580534934998e+01 -3.980932383798005958e-01
2.254177772998809814e+01 -3.110736283659934998e+01 -4.097509532235505958e-01
2.274563515186309814e+01 -3.071258744597434998e+01 -4.211340098641755958e-01
2.297195351123809814e+01 -3.035589799284934998e+01 -4.326086192391755958e-01
2.321853554248809814e+01 -3.003607377409934998e+01 -4.441747813485505958e-01
3.327114784717559814e+01 -5.183355912566184998e+01 -1.420049815438630958e-01
3.389199745655059814e+01 -5.165704545378684998e+01 -1.614599375985505958e-01
3.451675331592559814e+01 -5.147943314909934998e+01 -1.810217051766755958e-01
2.448477089405059814e+01 -3.481805619597434998e+01 -2.141790538094880958e-01
2.420718300342559814e+01 -3.361590775847434998e+01 -2.282781749032380958e-01
2.417080605030059814e+01 -3.281207475066184998e+01 -2.416296153329255958e-01
2.400772011280059814e+01 -3.184662064909934998e+01 -2.545385508798005958e-01
2.400186073780059814e+01 -3.113751420378684998e+01 -2.670049815438630958e-01
3.484683144092559814e+01 -5.441827592253684998e+01 1.625909657217619042e-01
3.511196815967559814e+01 -5.360992631316184998e+01 1.388025135733244042e-01
3.566665565967559814e+01 -5.327862748503684998e+01 1.184625477530119042e-01
2.463894569873809814e+01 -3.504474076628684998e+01 -1.421262314542559579e-02
2.452358925342559814e+01 -3.408331498503684998e+01 -3.227902939542559579e-02
2.448965370655059814e+01 -3.327325639128684998e+01 -4.900266220792559579e-02
2.459561073780059814e+01 -3.268768510222434998e+01 -6.418515732511309579e-02
2.475930702686309814e+01 -3.220147904753684998e+01 -7.858945420011309579e-02
3.713943397998809814e+01 -5.818463334441184998e+01 5.115442127920744042e-01
3.555190956592559814e+01 -5.430218705534934998e+01 4.462365956045744042e-01
3.595303261280059814e+01 -5.371331986784934998e+01 4.211053700186369042e-01
2.485476601123809814e+01 -3.536639603972434998e+01 1.893701405264494042e-01
2.458779823780059814e+01 -3.416913041472434998e+01 1.645288319326994042e-01
2.450918495655059814e+01 -3.329120072722434998e+01 1.438379139639494042e-01
2.490811073780059814e+01 -3.312957963347434998e+01 1.322870106436369042e-01
2.484951698780059814e+01 -3.231891068816184998e+01 1.128625721670744042e-01
3.707937538623809814e+01 -5.806598100066184998e+01 8.293542713858244042e-01
3.812466347217559814e+01 -5.712359818816184998e+01 7.821588368155119042e-01
3.854116737842559814e+01 -5.648993119597434998e+01 7.557763905264494042e-01
2.524453651905059814e+01 -3.514996537566184998e+01 3.785486073233244042e-01
2.539492714405059814e+01 -3.459002885222434998e+01 3.593072743155119042e-01
2.476357948780059814e+01 -3.290960893034934998e+01 3.218316883780119042e-01
2.483645546436309814e+01 -3.228998002409934998e+01 3.022851795889494042e-01
2.067739784717559814e+01 -3.098578080534934998e+01 5.172204823233244042e-01
3.835635292530059814e+01 -5.747027787566184998e+01 1.108468040917074404e+00
3.914260780811309814e+01 -5.740008744597434998e+01 1.093407616112386904e+00
3.937124550342559814e+01 -5.647833451628684998e+01 1.059121117088949404e+00
2.550515663623809814e+01 -3.474188432097434998e+01 5.626764149405119042e-01
2.497500526905059814e+01 -3.320477494597434998e+01 5.202722401358244042e-01
2.577859413623809814e+01 -3.361419877409934998e+01 5.218896717764494042e-01
2.068240272998809814e+01 -3.098346146941184998e+01 6.915063709951994042e-01
3.820986855030059814e+01 -5.722003373503684998e+01 1.423394188378011904e+00
3.910903847217559814e+01 -5.732916459441184998e+01 1.415139183495199404e+00
4.011025917530059814e+01 -5.757586869597434998e+01 1.410576805565511904e+00
3.848684608936309814e+01 -5.391656693816184998e+01 1.297265037987386904e+00
2.592776405811309814e+01 -3.457220658659934998e+01 7.526635975576994042e-01
2.618472206592559814e+01 -3.417877396941184998e+01 7.345666737295744042e-01
3.810378944873809814e+01 -5.452813920378684998e+01 1.633706078026449404e+00
3.860769569873809814e+01 -5.407769975066184998e+01 1.609658226463949404e+00
2.614773476123809814e+01 -3.411517533659934998e+01 9.339685291983244042e-01
3.859194862842559814e+01 -5.403692826628684998e+01 1.917702660057699404e+00
3.852578651905059814e+01 -5.392193803191184998e+01 2.220391258690511904e+00
3.815713417530059814e+01 -5.455523881316184998e+01 2.563836082909261904e+00
3.873525917530059814e+01 -5.421368607878684998e+01 2.543831810448324404e+00
8.638213276863098145e+00 -9.377748578786849976e+00 -8.656530528329255958e-01
8.675810933113098145e+00 -9.201967328786849976e+00 -8.640203624032380958e-01
8.708525776863098145e+00 -9.023622602224349976e+00 -8.624181895516755958e-01
8.740752339363098145e+00 -8.847963422536849976e+00 -8.608312754891755958e-01
8.772246479988098145e+00 -8.676088422536849976e+00 -8.592748790048005958e-01
8.807768940925598145e+00 -8.513002485036849976e+00 -8.580999522469880958e-01
8.853179097175598145e+00 -8.365175336599349976e+00 -8.577490000985505958e-01
8.894072651863098145e+00 -8.215517133474349976e+00 -8.574285655282380958e-01
9.805937886238098145e+00 -1.103521928191184998e+01 -8.891058116219880958e-01
9.885039448738098145e+00 -1.088275346159934998e+01 -8.908300547860505958e-01
9.967192769050598145e+00 -1.073700150847434998e+01 -8.924322276376130958e-01
1.004507362842559814e+01 -1.058685502409934998e+01 -8.941259532235505958e-01
1.012197792530059814e+01 -1.043866166472434998e+01 -8.957891612313630958e-01
1.019814980030059814e+01 -1.029193314909934998e+01 -8.974523692391755958e-01
1.027017128467559814e+01 -1.014129838347434998e+01 -8.991918711923005958e-01
1.034487831592559814e+01 -9.997377485036849976e+00 -9.008245616219880958e-01
1.074099647998809814e+01 -1.236090287566184998e+01 -8.787603526376130958e-01
1.079299843311309814e+01 -1.214312943816184998e+01 -8.787603526376130958e-01
1.084426796436309814e+01 -1.192901811003684998e+01 -8.787450938485505958e-01
1.089480507373809814e+01 -1.171771439909934998e+01 -8.787450938485505958e-01
1.095339882373809814e+01 -1.152252396941184998e+01 -8.793096690438630958e-01
1.102944862842559814e+01 -1.135333451628684998e+01 -8.810186534188630958e-01
1.109243690967559814e+01 -1.116998490691184998e+01 -8.819494395516755958e-01
1.115444862842559814e+01 -1.098956498503684998e+01 -8.828497081063630958e-01
1.242349159717559814e+01 -1.474798783659934998e+01 -8.964452891610505958e-01
1.248831093311309814e+01 -1.449847611784934998e+01 -8.969335704110505958e-01
1.254238808155059814e+01 -1.423944291472434998e+01 -8.973455577157380958e-01
1.259561073780059814e+01 -1.398394975066184998e+01 -8.977422862313630958e-01
1.264773476123809814e+01 -1.373382768034934998e+01 -8.981390147469880958e-01
1.268423378467559814e+01 -1.346893510222434998e+01 -8.976965098641755958e-01
1.268643105030059814e+01 -1.316620072722434998e+01 -8.953924327157380958e-01
1.272549355030059814e+01 -1.291729936003684998e+01 -8.956518321298005958e-01
1.495632851123809814e+01 -1.834210404753684998e+01 -9.283514170907380958e-01
1.507205116748809814e+01 -1.808831986784934998e+01 -9.322118907235505958e-01
1.523257362842559814e+01 -1.790008744597434998e+01 -9.382848887704255958e-01
1.535855019092559814e+01 -1.766620072722434998e+01 -9.426794200204255958e-01
1.537722694873809814e+01 -1.729681596159934998e+01 -9.419012217782380958e-01
1.532119667530059814e+01 -1.684100541472434998e+01 -9.375524668954255958e-01
1.530569374561309814e+01 -1.644745072722434998e+01 -9.352026133798005958e-01
1.535269081592559814e+01 -1.614227494597434998e+01 -9.359045176766755958e-01
1.797720253467559814e+01 -2.262738236784934998e+01 -9.404058604501130958e-01
1.800198280811309814e+01 -2.215777787566184998e+01 -9.403906016610505958e-01
1.800881874561309814e+01 -2.167584428191184998e+01 -9.403753428719880958e-01
1.801565468311309814e+01 -2.120477494597434998e+01 -9.403600840829255958e-01
1.802224647998809814e+01 -2.074725541472434998e+01 -9.403448252938630958e-01
1.802871620655059814e+01 -2.030121049284934998e+01 -9.403295665048005958e-01
1.803481972217559814e+01 -1.986456498503684998e+01 -9.403143077157380958e-01
1.802468788623809814e+01 -1.942022904753684998e+01 -9.402990489266755958e-01
2.087527382373809814e+01 -2.673553666472434998e+01 -8.994970469735505958e-01
2.112466347217559814e+01 -2.649261674284934998e+01 -9.095220713876130958e-01
2.138516151905059814e+01 -2.626617631316184998e+01 -9.199133067391755958e-01
2.164614784717559814e+01 -2.603936967253684998e+01 -9.303198008798005958e-01
2.190383827686309814e+01 -2.581097611784934998e+01 -9.406194834969880958e-01
2.185220253467559814e+01 -2.518756303191184998e+01 -9.406042247079255958e-01
2.180215370655059814e+01 -2.458111771941184998e+01 -9.405889659188630958e-01
2.175332558155059814e+01 -2.399432572722434998e+01 -9.405584483407380958e-01
2.181790077686309814e+01 -2.806500443816184998e+01 -7.644262461923005958e-01
2.208328163623809814e+01 -2.781646928191184998e+01 -7.752447276376130958e-01
2.236721718311309814e+01 -2.759466752409934998e+01 -7.856359629891755958e-01
2.259609901905059814e+01 -2.729742631316184998e+01 -7.955236583016755958e-01
2.280105507373809814e+01 -2.697442826628684998e+01 -8.047552256844880958e-01
2.300894081592559814e+01 -2.665936478972434998e+01 -8.140325694344880958e-01
2.321072304248809814e+01 -2.633868607878684998e+01 -8.240270762704255958e-01
2.343179237842559814e+01 -2.604791459441184998e+01 -8.335943370126130958e-01
2.276235878467559814e+01 -2.939618119597434998e+01 -6.135473399423005958e-01
2.301052772998809814e+01 -2.909613236784934998e+01 -6.245184092782380958e-01
2.326357948780059814e+01 -2.880560502409934998e+01 -6.355505137704255958e-01
2.295925819873809814e+01 -2.777289018034934998e+01 -6.366338877938630958e-01
2.310098183155059814e+01 -2.735748490691184998e+01 -6.454382090829255958e-01
2.339199745655059814e+01 -2.714081010222434998e+01 -6.568975596688630958e-01
2.369534218311309814e+01 -2.693768510222434998e+01 -6.686315684579255958e-01
2.400857460498809814e+01 -2.674786576628684998e+01 -6.805181651376130958e-01
2.321939003467559814e+01 -3.003497514128684998e+01 -4.442052989266755958e-01
2.347585976123809814e+01 -2.973321732878684998e+01 -4.558630137704255958e-01
2.373440468311309814e+01 -2.943695268034934998e+01 -4.674902110360505958e-01
2.401675331592559814e+01 -2.917291459441184998e+01 -4.793615489266755958e-01
2.431973183155059814e+01 -2.893927201628684998e+01 -4.914007334969880958e-01
2.462368690967559814e+01 -2.870709428191184998e+01 -5.034551768563630958e-01
2.493997108936309814e+01 -2.848822221159934998e+01 -5.156622081063630958e-01
2.528933632373809814e+01 -2.831146439909934998e+01 -5.282507090829255958e-01
2.400112831592559814e+01 -3.113409623503684998e+01 -2.670507579110505958e-01
2.410623085498809814e+01 -3.059893998503684998e+01 -2.792577891610505958e-01
2.437710487842559814e+01 -3.030169877409934998e+01 -2.916021495126130958e-01
2.465237343311309814e+01 -3.001031693816184998e+01 -3.039617686532380958e-01
2.492568886280059814e+01 -2.972076615691184998e+01 -3.162298350594880958e-01
2.523025429248809814e+01 -2.947332963347434998e+01 -3.285589366219880958e-01
2.558682167530059814e+01 -2.928924760222434998e+01 -3.411474375985505958e-01
2.594570839405059814e+01 -2.910797318816184998e+01 -3.537206797860505958e-01
2.475869667530059814e+01 -3.219818314909934998e+01 -7.865048935636309579e-02
2.521060097217559814e+01 -3.212262162566184998e+01 -9.081174423917559579e-02
2.574954140186309814e+01 -3.215789994597434998e+01 -1.026525645516755958e-01
2.657314980030059814e+01 -3.255853471159934998e+01 -1.133337168954255958e-01
2.650808632373809814e+01 -3.177533158659934998e+01 -1.285314708016755958e-01
2.711172401905059814e+01 -3.186822709441184998e+01 -1.406469493173005958e-01
2.805813515186309814e+01 -3.237372025847434998e+01 -1.519537120126130958e-01
4.086599647998809814e+01 -4.739972123503684998e+01 -1.300878672860505958e-01
2.485378944873809814e+01 -3.232257279753684998e+01 1.128625721670744042e-01
2.506790077686309814e+01 -3.191412553191184998e+01 9.822939345613690421e-02
2.563882362842559814e+01 -3.199725541472434998e+01 8.754824111238690421e-02
2.601834022998809814e+01 -3.180975541472434998e+01 7.505129287019940421e-02
2.687173378467559814e+01 -3.223956498503684998e+01 6.823061415926190421e-02
2.756863319873809814e+01 -3.244195756316184998e+01 5.895327040926190421e-02
2.796047890186309814e+01 -3.224139603972434998e+01 4.692934462801190421e-02
2.896877968311309814e+01 -3.279681596159934998e+01 4.009340712801190421e-02
2.484072792530059814e+01 -3.229352006316184998e+01 3.023156971670744042e-01
2.586416542530059814e+01 -3.300873002409934998e+01 3.046197743155119042e-01
2.611343300342559814e+01 -3.263202103972434998e+01 2.893762440420744042e-01
2.647329628467559814e+01 -3.240509232878684998e+01 2.764520497061369042e-01
2.702065956592559814e+01 -3.242352494597434998e+01 2.672509999014494042e-01
2.784439003467559814e+01 -3.278399857878684998e+01 2.629327625967619042e-01
2.819119179248809814e+01 -3.252008256316184998e+01 2.491845936514494042e-01
2.843582069873809814e+01 -3.213348588347434998e+01 2.337426991201994042e-01
2.578262245655059814e+01 -3.361749467253684998e+01 5.219354481436369042e-01
2.598977577686309814e+01 -3.317242631316184998e+01 5.033807606436369042e-01
2.610598671436309814e+01 -3.261151322722434998e+01 4.834832997061369042e-01
2.713992226123809814e+01 -3.328167924284934998e+01 4.896325916983244042e-01
2.704897987842559814e+01 -3.245025834441184998e+01 4.641046375967619042e-01
2.777822792530059814e+01 -3.268927201628684998e+01 4.608850331045744042e-01
2.871023476123809814e+01 -3.315912064909934998e+01 4.620752186514494042e-01
2.928835976123809814e+01 -3.316827592253684998e+01 4.547815174795744042e-01
2.618521034717559814e+01 -3.417682084441184998e+01 7.344903797842619042e-01
2.594082558155059814e+01 -3.309393510222434998e+01 6.984796375967619042e-01
2.765957558155059814e+01 -3.471087846159934998e+01 7.356805653311369042e-01
2.753982460498809814e+01 -3.380291947722434998e+01 7.044610829092619042e-01
2.753042519092559814e+01 -3.306732377409934998e+01 6.780786366201994042e-01
2.829067909717559814e+01 -3.333294877409934998e+01 6.783380360342619042e-01
2.897708046436309814e+01 -3.348260697722434998e+01 6.753320545889494042e-01
2.930605995655059814e+01 -3.317975053191184998e+01 6.603937000967619042e-01
2.614846718311309814e+01 -3.411358842253684998e+01 9.339074940420744042e-01
2.765774452686309814e+01 -3.469732865691184998e+01 9.417047352530119042e-01
2.815945351123809814e+01 -3.387616166472434998e+01 9.043817372061369042e-01
2.895559608936309814e+01 -3.417096146941184998e+01 9.085321278311369042e-01
2.903750526905059814e+01 -3.354779252409934998e+01 8.830346913076994042e-01
2.764456093311309814e+01 -3.466852006316184998e+01 1.148110374901449404e+00
2.851687538623809814e+01 -3.433087357878684998e+01 1.127648338768636904e+00
2.762405312061309814e+01 -3.462957963347434998e+01 1.352684959862386904e+00
2.760378944873809814e+01 -3.459124955534934998e+01 1.557976707909261904e+00
8.894072651863098145e+00 -8.214784711599349976e+00 -8.574133067391755958e-01
8.937285542488098145e+00 -8.070497602224349976e+00 -8.570776133798005958e-01
8.976225972175598145e+00 -7.923891156911849976e+00 -8.567876963876130958e-01
9.014922261238098145e+00 -7.778627485036849976e+00 -8.564825206063630958e-01
9.052764058113098145e+00 -7.635927289724349976e+00 -8.561926036141755958e-01
9.090361714363098145e+00 -7.495058149099349976e+00 -8.559179454110505958e-01
9.149077534675598145e+00 -7.379213422536849976e+00 -8.572454600594880958e-01
9.203154683113098145e+00 -7.260316938161849976e+00 -8.585577159188630958e-01
1.034512245655059814e+01 -9.996767133474349976e+00 -9.008245616219880958e-01
1.041506874561309814e+01 -9.849062055349349976e+00 -9.025488047860505958e-01
1.048818886280059814e+01 -9.706972211599349976e+00 -9.041509776376130958e-01
9.850737690925598145e+00 -8.743471235036849976e+00 -8.571539073251130958e-01
9.870391011238098145e+00 -8.560854047536849976e+00 -8.557348399423005958e-01
9.910185933113098145e+00 -8.404237836599349976e+00 -8.557348399423005958e-01
9.959990620613098145e+00 -8.260439008474349976e+00 -8.567571788094880958e-01
1.002004921436309814e+01 -8.130678266286849976e+00 -8.582067637704255958e-01
1.115469276905059814e+01 -1.098895463347434998e+01 -8.828497081063630958e-01
1.121108925342559814e+01 -1.080487260222434998e+01 -8.838262706063630958e-01
1.126663124561309814e+01 -1.062310990691184998e+01 -8.847875743173005958e-01
1.133193886280059814e+01 -1.045477494597434998e+01 -8.863592295907380958e-01
1.140188515186309814e+01 -1.029498490691184998e+01 -8.882665782235505958e-01
1.147109901905059814e+01 -1.013665971159934998e+01 -8.901434092782380958e-01
1.153994667530059814e+01 -9.979311078786849976e+00 -8.920202403329255958e-01
1.160806190967559814e+01 -9.823915570974349976e+00 -8.938665538094880958e-01
1.272585976123809814e+01 -1.291693314909934998e+01 -8.956670909188630958e-01
1.278543007373809814e+01 -1.269793900847434998e+01 -8.965826182626130958e-01
1.280972206592559814e+01 -1.244134721159934998e+01 -8.960333018563630958e-01
1.280020058155059814e+01 -1.214996537566184998e+01 -8.936529307626130958e-01
1.279531776905059814e+01 -1.187164506316184998e+01 -8.915777354501130958e-01
1.283291542530059814e+01 -1.164679154753684998e+01 -8.918676524423005958e-01
1.284292519092559814e+01 -1.139532670378684998e+01 -8.906774668954255958e-01
1.285244667530059814e+01 -1.114947709441184998e+01 -8.899145274423005958e-01
1.535293495655059814e+01 -1.614129838347434998e+01 -9.359197764657380958e-01
1.538748085498809814e+01 -1.582757768034934998e+01 -9.364538340829255958e-01
1.536477577686309814e+01 -1.545282182097434998e+01 -9.342565684579255958e-01
1.539150917530059814e+01 -1.514300736784934998e+01 -9.344549327157380958e-01
1.541763222217559814e+01 -1.484027299284934998e+01 -9.346532969735505958e-01
1.543826210498809814e+01 -1.453766068816184998e+01 -9.346075206063630958e-01
1.539272987842559814e+01 -1.416827592253684998e+01 -9.314336924813630958e-01
1.534854042530059814e+01 -1.381048783659934998e+01 -9.283514170907380958e-01
1.802432167530059814e+01 -1.941827592253684998e+01 -9.402837901376130958e-01
1.803713905811309814e+01 -1.901251420378684998e+01 -9.402685313485505958e-01
1.805142128467559814e+01 -1.861761674284934998e+01 -9.409856944344880958e-01
1.806668007373809814e+01 -1.823138627409934998e+01 -9.417333750985505958e-01
1.806448280811309814e+01 -1.783514603972434998e+01 -9.417638926766755958e-01
1.806240761280059814e+01 -1.744793900847434998e+01 -9.417944102548005958e-01
1.806045448780059814e+01 -1.706805619597434998e+01 -9.418249278329255958e-01
1.804885780811309814e+01 -1.668768510222434998e+01 -9.420843272469880958e-01
2.175259315967559814e+01 -2.399164018034934998e+01 -9.405431895516755958e-01
2.169485390186309814e+01 -2.340912064909934998e+01 -9.405279307626130958e-01
2.163857948780059814e+01 -2.284308061003684998e+01 -9.405126719735505958e-01
2.158364784717559814e+01 -2.229107865691184998e+01 -9.404974131844880958e-01
2.153054726123809814e+01 -2.175628861784934998e+01 -9.404821543954255958e-01
2.147866737842559814e+01 -2.123602494597434998e+01 -9.404516368173005958e-01
2.142837440967559814e+01 -2.072833451628684998e+01 -9.404516368173005958e-01
2.137930214405059814e+01 -2.023565873503684998e+01 -9.404363780282380958e-01
2.343228065967559814e+01 -2.604669389128684998e+01 -8.336248545907380958e-01
2.364980995655059814e+01 -2.575421342253684998e+01 -8.433599620126130958e-01
2.387856972217559814e+01 -2.547735795378684998e+01 -8.525152354501130958e-01
2.411111366748809814e+01 -2.520477494597434998e+01 -8.626470713876130958e-01
2.434219276905059814e+01 -2.493402299284934998e+01 -8.727178721688630958e-01
2.465542519092559814e+01 -2.475604447722434998e+01 -8.849859385751130958e-01
2.499465858936309814e+01 -2.460235795378684998e+01 -8.988714366219880958e-01
2.535940468311309814e+01 -2.447455033659934998e+01 -9.125890879891755958e-01
2.400979530811309814e+01 -2.674737748503684998e+01 -6.805639415048005958e-01
2.433718788623809814e+01 -2.657306107878684998e+01 -6.929235606454255958e-01
2.469570839405059814e+01 -2.643280228972434998e+01 -7.059087901376130958e-01
2.505984413623809814e+01 -2.629315385222434998e+01 -7.190771250985505958e-01
2.545168983936309814e+01 -2.618268021941184998e+01 -7.328252940438630958e-01
2.584756386280059814e+01 -2.607147416472434998e+01 -7.466955333016755958e-01
2.628103554248809814e+01 -2.599420365691184998e+01 -7.614202647469880958e-01
2.672219765186309814e+01 -2.592022904753684998e+01 -7.763586192391755958e-01
2.529092323780059814e+01 -2.831134232878684998e+01 -5.282964854501130958e-01
2.566555702686309814e+01 -2.816229447722434998e+01 -5.412817149423005958e-01
2.603176796436309814e+01 -2.799920853972434998e+01 -5.542211680673005958e-01
2.642678749561309814e+01 -2.786383256316184998e+01 -5.676031260751130958e-01
2.683608925342559814e+01 -2.774176225066184998e+01 -5.812139659188630958e-01
2.726870644092559814e+01 -2.764032182097434998e+01 -5.952062754891755958e-01
2.777029335498809814e+01 -2.760577592253684998e+01 -6.102667002938630958e-01
2.829275429248809814e+01 -2.758648881316184998e+01 -6.257085948251130958e-01
2.594729530811309814e+01 -2.910772904753684998e+01 -3.537664561532380958e-01
2.633438026905059814e+01 -2.895770463347434998e+01 -3.664770274423005958e-01
2.672793495655059814e+01 -2.881085404753684998e+01 -3.792944102548005958e-01
2.711013710498809814e+01 -2.864435014128684998e+01 -3.921728282235505958e-01
2.757595741748809814e+01 -2.857061967253684998e+01 -4.055700450204255958e-01
2.807156288623809814e+01 -2.852240189909934998e+01 -4.193182139657380958e-01
2.864517128467559814e+01 -2.854852494597434998e+01 -4.337682872079255958e-01
2.927981483936309814e+01 -2.863018998503684998e+01 -4.488287120126130958e-01
4.086758339405059814e+01 -4.739825639128684998e+01 -1.301641612313630958e-01
4.134011757373809814e+01 -4.698370561003684998e+01 -1.497564463876130958e-01
3.017361366748809814e+01 -3.286041459441184998e+01 -1.905279307626130958e-01
4.215530312061309814e+01 -4.600152787566184998e+01 -1.891698985360505958e-01
4.254397499561309814e+01 -4.549518021941184998e+01 -2.087621836923005958e-01
4.292495644092559814e+01 -4.498407182097434998e+01 -2.282781749032380958e-01
4.325015175342559814e+01 -4.441290482878684998e+01 -2.477789073251130958e-01
4.354946815967559814e+01 -4.382379350066184998e+01 -2.670660167001130958e-01
2.896951210498809814e+01 -3.279535111784934998e+01 4.004763076082440421e-02
2.928286659717559814e+01 -3.248236283659934998e+01 2.613161513582440421e-02
3.011563026905059814e+01 -3.278216752409934998e+01 1.575563857332440421e-02
3.069485390186309814e+01 -3.276324662566184998e+01 3.731712792074404206e-03
5.128311073780059814e+01 -5.536529740691184998e+01 1.467218250967619042e-01
5.150967323780059814e+01 -5.448712357878684998e+01 1.206750721670744042e-01
5.174697792530059814e+01 -5.363177689909934998e+01 9.682558486238690421e-02
4.981924355030059814e+01 -5.048846635222434998e+01 5.817507216707440421e-02
2.843582069873809814e+01 -3.213116654753684998e+01 2.336816639639494042e-01
