-8.658551946282386780e-01 -1.266004614531993866e+01 -2.076491852640174329e-01
-7.758893743157386780e-01 -1.268653540313243866e+01 -2.078475495218299329e-01
-6.851911321282386780e-01 -1.271302466094493866e+01 -2.080611725687049329e-01
-5.946149602532386780e-01 -1.273963598906993866e+01 -2.082595368265174329e-01
-5.033063665032386780e-01 -1.275965552031993866e+01 -2.084121247171424329e-01
-1.356455780565738678e+00 -1.411707739531993866e+01 -2.254409333108924329e-01
-1.256113983690738678e+00 -1.415736059844493866e+01 -2.260512848733924329e-01
-1.155405975878238678e+00 -1.419788794219493866e+01 -2.266768952249549329e-01
-1.053721405565738678e+00 -1.423878149688243866e+01 -2.273025055765174329e-01
-9.513044133782386780e-01 -1.427357153594493866e+01 -2.276534577249549329e-01
-8.479108586907386780e-01 -1.430628637969493866e+01 -2.278975983499549329e-01
-7.446393743157386780e-01 -1.433900122344493866e+01 -2.281569977640174329e-01
-6.408796086907386780e-01 -1.437183813750743866e+01 -2.284011383890174329e-01
-1.616221405565738678e+00 -1.591627173125743866e+01 -2.402419587015174329e-01
-1.502085663378238678e+00 -1.596705298125743866e+01 -2.406386872171424329e-01
-1.385996796190738678e+00 -1.600733618438243866e+01 -2.409438629983924329e-01
-1.269053436815738678e+00 -1.604774145781993866e+01 -2.412490387796424329e-01
-1.151988007128238678e+00 -1.608826880156993866e+01 -2.415694733499549329e-01
-1.031870819628238678e+00 -1.610572485625743866e+01 -2.409438629983924329e-01
-9.112653508782386780e-01 -1.611549048125743866e+01 -2.400283356546424329e-01
-7.899274602532386780e-01 -1.611622290313243866e+01 -2.390975495218299329e-01
-1.895762421190738678e+00 -1.785206274688243866e+01 -2.428817292093299329e-01
-1.763682343065738678e+00 -1.789161352813243866e+01 -2.428817292093299329e-01
-1.631236054003238678e+00 -1.793128637969493866e+01 -2.428817292093299329e-01
-1.499278046190738678e+00 -1.798182348906993866e+01 -2.432479401468299329e-01
-1.367686249315738678e+00 -1.803797583281993866e+01 -2.438277741312049329e-01
-1.232798554003238678e+00 -1.807178930938243866e+01 -2.435988922952674329e-01
-1.093272186815738678e+00 -1.805518774688243866e+01 -2.415999909280799329e-01
-9.563092961907386780e-01 -1.806238989531993866e+01 -2.404403229593299329e-01
-2.185069061815738678e+00 -1.985523657500743866e+01 -2.300338288187049329e-01
-2.031992889940738678e+00 -1.986390356719493866e+01 -2.287978669046424329e-01
-1.880503632128238678e+00 -1.988465552031993866e+01 -2.274856110452674329e-01
-1.726939179003238678e+00 -1.989332251250743866e+01 -2.262496491312049329e-01
-1.575083710253238678e+00 -1.991126684844493866e+01 -2.253036042093299329e-01
-1.424326874315738678e+00 -1.994398169219493866e+01 -2.248000641702674329e-01
-1.272715546190738678e+00 -1.996607641875743866e+01 -2.244338532327674329e-01
-1.119761444628238678e+00 -1.997327856719493866e+01 -2.231521149515174329e-01
-2.525401093065738678e+00 -2.221082739531993866e+01 -2.074813385843299329e-01
-2.352061249315738678e+00 -2.221766333281993866e+01 -2.060470124124549329e-01
-2.178965546190738678e+00 -2.222449927031993866e+01 -2.046279450296424329e-01
-2.005381561815738678e+00 -2.223133520781993866e+01 -2.031936188577674329e-01
-1.832774139940738678e+00 -2.223804907500743866e+01 -2.017745514749549329e-01
-1.659678436815738678e+00 -2.224488501250743866e+01 -2.003402253030799329e-01
-1.487437225878238678e+00 -2.225159887969493866e+01 -1.989211579202674329e-01
-1.315318085253238678e+00 -2.225843481719493866e+01 -1.975173493265174329e-01
-3.201060272753238678e+00 -2.688941626250743866e+01 -2.143325348733924329e-01
-2.980235077440738678e+00 -2.683814673125743866e+01 -2.113570710062049329e-01
-2.760996796190738678e+00 -2.678931860625743866e+01 -2.084426422952674329e-01
-2.529063202440738678e+00 -2.662940649688243866e+01 -2.031325837015174329e-01
-2.301279999315738678e+00 -2.647242407500743866e+01 -1.979140778421424329e-01
-2.048594452440738678e+00 -2.604847387969493866e+01 -1.869887848733924329e-01
-1.808604218065738678e+00 -2.567310766875743866e+01 -1.771621247171424329e-01
-1.610239960253238678e+00 -2.570692114531993866e+01 -1.761397858499549329e-01
-4.576426483690738678e+00 -3.641602759063243866e+01 -2.605361481546424329e-01
-4.844248749315738678e+00 -4.055421118438243866e+01 -3.290328522562049329e-01
-2.895640350878238678e+00 -2.784046606719493866e+01 -1.093978424905799329e-01
-2.655894257128238678e+00 -2.768995337188243866e+01 -1.050185700296424329e-01
-2.741587616503238678e+00 -3.044886450469493866e+01 -1.499251862405799329e-01
-2.453745819628238678e+00 -3.000928930938243866e+01 -1.405257721780799329e-01
-2.184336639940738678e+00 -2.967347387969493866e+01 -1.329574128030799329e-01
-1.920542694628238678e+00 -2.933277563750743866e+01 -1.253280182718299329e-01
-3.369761444628238678e+00 -2.804945044219493866e+01 5.790756142232567072e-03
-3.123179413378238678e+00 -2.788062720000743866e+01 9.620712196920067072e-03
-2.896494843065738678e+00 -2.784156470000743866e+01 1.180271903285756707e-02
-2.641856171190738678e+00 -2.756519751250743866e+01 1.691441336879506707e-02
-2.432017304003238678e+00 -2.764197973906993866e+01 1.763157645473256707e-02
-2.207285858690738678e+00 -2.758851294219493866e+01 1.996617118129506707e-02
-1.982798554003238678e+00 -2.751527075469493866e+01 2.252964774379506707e-02
-1.784068085253238678e+00 -2.772413305938243866e+01 2.165989676723256707e-02
-3.368052460253238678e+00 -2.803223852813243866e+01 1.289597014547325671e-01
-3.102061249315738678e+00 -2.771925024688243866e+01 1.330185393453575671e-01
-2.884654022753238678e+00 -2.774280981719493866e+01 1.337509612203575671e-01
-2.655650116503238678e+00 -2.767506079375743866e+01 1.358566741109825671e-01
-2.430674530565738678e+00 -2.762232641875743866e+01 1.378250579000450671e-01
-2.541026093065738678e+00 -3.084644751250743866e+01 1.147537688375450671e-01
-1.981089569628238678e+00 -2.748756079375743866e+01 1.426010588766075671e-01
-1.781870819628238678e+00 -2.768824438750743866e+01 1.426315764547325671e-01
-3.328257538378238678e+00 -2.775196509063243866e+01 2.521744231344200671e-01
-3.076182343065738678e+00 -2.752405981719493866e+01 2.543716887594200671e-01
-2.881480194628238678e+00 -2.771229223906993866e+01 2.552109221578575671e-01
-2.607066132128238678e+00 -2.726014380156993866e+01 2.580795745016075671e-01
-2.426524139940738678e+00 -2.757789282500743866e+01 2.585373381734825671e-01
-2.235606171190738678e+00 -2.784998755156993866e+01 2.591629485250450671e-01
-1.975718475878238678e+00 -2.742261938750743866e+01 2.618637541891075671e-01
-1.835459686815738678e+00 -2.830616430938243866e+01 2.607346037984825671e-01
-3.374766327440738678e+00 -2.806898169219493866e+01 3.742142180562950671e-01
-3.160532929003238678e+00 -2.813905005156993866e+01 3.750229338766075671e-01
-2.878794647753238678e+00 -2.768519262969493866e+01 3.757248381734825671e-01
-2.620371796190738678e+00 -2.736573462188243866e+01 3.765945891500450671e-01
-2.420908905565738678e+00 -2.751990942656993866e+01 3.781509856344200671e-01
-2.220469452440738678e+00 -2.769349341094493866e+01 3.797531584859825671e-01
-2.043589569628238678e+00 -2.813685278594493866e+01 3.817978362203575671e-01
-1.788096405565738678e+00 -2.774158911406993866e+01 3.831253508687950671e-01
-3.376719452440738678e+00 -2.807777075469493866e+01 4.966812590719200671e-01
-3.160166718065738678e+00 -2.813111548125743866e+01 4.982529143453575671e-01
-2.887827850878238678e+00 -2.775098852813243866e+01 4.971695403219200671e-01
-2.620982147753238678e+00 -2.736488012969493866e+01 4.960403899312950671e-01
-2.363169647753238678e+00 -2.699195532500743866e+01 4.949417571187950671e-01
-2.112437225878238678e+00 -2.662928442656993866e+01 4.938583830953575671e-01
-1.869883514940738678e+00 -2.627857641875743866e+01 4.928207854391075671e-01
-1.634654022753238678e+00 -2.593812231719493866e+01 4.918289641500450671e-01
-3.451182343065738678e+00 -2.858863501250743866e+01 6.252060393453575671e-01
-3.156260468065738678e+00 -2.809681372344493866e+01 6.204452971578575671e-01
-2.882578827440738678e+00 -2.770374731719493866e+01 6.173630217672325671e-01
-2.616221405565738678e+00 -2.731910376250743866e+01 6.143417815328575671e-01
-2.360972382128238678e+00 -2.696485571563243866e+01 6.115951995016075671e-01
-2.112193085253238678e+00 -2.661976294219493866e+01 6.089401702047325671e-01
-1.871348358690738678e+00 -2.628565649688243866e+01 6.063614348531700671e-01
-1.637217499315738678e+00 -2.595997290313243866e+01 6.044388274312950671e-01
-3.444590546190738678e+00 -2.853748755156993866e+01 7.491989592672325671e-01
-3.255625702440738678e+00 -2.882191137969493866e+01 7.545700530172325671e-01
-2.943613983690738678e+00 -2.817567114531993866e+01 7.456894377828575671e-01
-2.681284882128238678e+00 -2.785841040313243866e+01 7.418289641500450671e-01
-2.504282929003238678e+00 -2.825294165313243866e+01 7.489090422750450671e-01
-2.274912811815738678e+00 -2.820252661406993866e+01 7.491379241109825671e-01
-2.138682343065738678e+00 -2.912318091094493866e+01 7.644119719625450671e-01
-1.918101288378238678e+00 -2.923243384063243866e+01 7.671432952047325671e-01
-3.635752655565738678e+00 -2.985548071563243866e+01 9.006271819234825671e-01
-3.257700897753238678e+00 -2.883155493438243866e+01 8.811569670797325671e-01
-3.055552460253238678e+00 -2.904737524688243866e+01 8.863754729391075671e-01
-2.881236054003238678e+00 -2.952979712188243866e+01 8.962784270406700671e-01
-2.506968475878238678e+00 -2.826990942656993866e+01 8.719711760641075671e-01
-2.403086639940738678e+00 -2.944752173125743866e+01 8.971786955953575671e-01
-2.125132538378238678e+00 -2.896973852813243866e+01 8.884964446187950671e-01
-1.918589569628238678e+00 -2.922779516875743866e+01 8.945999602437950671e-01
-4.581431366503238678e+00 -3.639259009063243866e+01 1.192497299110982567e+00
-4.314707733690738678e+00 -3.659266333281993866e+01 1.197578475868795067e+00
-2.851939179003238678e+00 -2.927784399688243866e+01 1.019462631142232567e+00
-2.603037811815738678e+00 -2.912965063750743866e+01 1.016624496376607567e+00
-2.387217499315738678e+00 -2.928431372344493866e+01 1.021232650673482567e+00
-2.176157929003238678e+00 -2.950281958281993866e+01 1.027442977821920067e+00
-1.918833710253238678e+00 -2.922071509063243866e+01 1.021949813759420067e+00
-2.772321477532386780e-01 -1.011732153594493866e+01 -1.967696686624549329e-01
-2.066755071282386780e-01 -1.012476782500743866e+01 -1.962508698343299329e-01
-1.358747258782386780e-01 -1.012855200469493866e+01 -1.957168122171424329e-01
-6.482980400323867798e-02 -1.013221411406993866e+01 -1.951674958108924329e-01
5.970977246761322021e-03 -1.013599829375743866e+01 -1.946334381937049329e-01
7.701589912176132202e-02 -1.013966040313243866e+01 -1.940841217874549329e-01
1.478166803717613220e-01 -1.014344458281993866e+01 -1.935500641702674329e-01
2.187395319342613220e-01 -1.014368872344493866e+01 -1.930007477640174329e-01
-3.291120305657386780e-01 -1.072437720000743866e+01 -1.927566071390174329e-01
-2.541608586907386780e-01 -1.074024634063243866e+01 -1.928786774515174329e-01
-1.782331243157386780e-01 -1.074378637969493866e+01 -1.922683258890174329e-01
-1.021833196282386780e-01 -1.075074438750743866e+01 -1.916274567483924329e-01
-2.625558525323867798e-02 -1.075428442656993866e+01 -1.910171051858924329e-01
5.016043037176132202e-02 -1.075428442656993866e+01 -1.904372712015174329e-01
1.259660944342613220e-01 -1.075782446563243866e+01 -1.898269196390174329e-01
2.018938288092613220e-01 -1.076124243438243866e+01 -1.892318268655799329e-01
-3.973493352532386780e-01 -1.152283911406993866e+01 -1.933974762796424329e-01
-3.162946477532386780e-01 -1.154530005156993866e+01 -1.937331696390174329e-01
-2.348737493157386780e-01 -1.156776098906993866e+01 -1.940841217874549329e-01
-1.529645696282386780e-01 -1.159046606719493866e+01 -1.944350739358924329e-01
-7.093331962823867798e-02 -1.161317114531993866e+01 -1.947707672952674329e-01
1.158621162176132202e-02 -1.163599829375743866e+01 -1.951217194437049329e-01
9.410574287176132202e-02 -1.165882544219493866e+01 -1.954726715921424329e-01
1.768694147467613220e-01 -1.168482641875743866e+01 -1.959914704202674329e-01
-5.029401555657386780e-01 -1.275989966094493866e+01 -2.084121247171424329e-01
-4.121198430657386780e-01 -1.278931860625743866e+01 -2.086410065530799329e-01
-3.203229680657386780e-01 -1.281226782500743866e+01 -2.088241120218299329e-01
-2.280378118157386780e-01 -1.283533911406993866e+01 -2.089919587015174329e-01
-1.357526555657386780e-01 -1.285841040313243866e+01 -2.091750641702674329e-01
-4.273507744073867798e-02 -1.288160376250743866e+01 -2.093429108499549329e-01
5.016043037176132202e-02 -1.290479712188243866e+01 -2.095260163187049329e-01
1.435442194342613220e-01 -1.292115454375743866e+01 -2.096480866312049329e-01
-6.405133977532386780e-01 -1.437183813750743866e+01 -2.284011383890174329e-01
-5.361432805657386780e-01 -1.440052466094493866e+01 -2.286147614358924329e-01
-4.314069524407386780e-01 -1.442921118438243866e+01 -2.288436432718299329e-01
-3.259382024407386780e-01 -1.445814184844493866e+01 -2.290572663187049329e-01
-2.197370305657386780e-01 -1.447547583281993866e+01 -2.287673493265174329e-01
-1.126813665032386780e-01 -1.448206762969493866e+01 -2.280044098733924329e-01
-5.869843065738677979e-03 -1.448878149688243866e+01 -2.272414704202674329e-01
1.009416803717613220e-01 -1.449537329375743866e+01 -2.264785309671424329e-01
-7.895612493157386780e-01 -1.611597876250743866e+01 -2.390822907327674329e-01
-6.695661321282386780e-01 -1.613123755156993866e+01 -2.381667633890174329e-01
-5.488385930657386780e-01 -1.613734106719493866e+01 -2.372512360452674329e-01
-4.276227727532386780e-01 -1.614344458281993866e+01 -2.363204499124549329e-01
-3.068952336907386780e-01 -1.614954809844493866e+01 -2.354049225687049329e-01
-1.849469915032386780e-01 -1.613795141875743866e+01 -2.337874909280799329e-01
-6.360910087823867798e-02 -1.612025122344493866e+01 -2.319259186624549329e-01
5.760671943426132202e-02 -1.609351782500743866e+01 -2.300796051858924329e-01
-9.558210149407386780e-01 -1.806214575469493866e+01 -2.404250641702674329e-01
-8.189801946282386780e-01 -1.806898169219493866e+01 -2.393874665140174329e-01
-6.821393743157386780e-01 -1.807569555938243866e+01 -2.383346100687049329e-01
-5.448102727532386780e-01 -1.808253149688243866e+01 -2.372970124124549329e-01
-4.079694524407386780e-01 -1.808936743438243866e+01 -2.362441559671424329e-01
-2.705182805657386780e-01 -1.809388403594493866e+01 -2.351150055765174329e-01
-1.316022649407386780e-01 -1.803907446563243866e+01 -2.319411774515174329e-01
6.337188184261322021e-03 -1.798463110625743866e+01 -2.287826081155799329e-01
-1.119273163378238678e+00 -1.997327856719493866e+01 -2.231521149515174329e-01
-9.663190618157386780e-01 -1.997816137969493866e+01 -2.219008942483924329e-01
-8.140973821282386780e-01 -1.999305395781993866e+01 -2.205123444437049329e-01
-6.605329290032386780e-01 -1.999805884063243866e+01 -2.192763825296424329e-01
-5.077008977532386780e-01 -2.000294165313243866e+01 -2.180251618265174329e-01
-3.543805852532386780e-01 -2.000782446563243866e+01 -2.167891999124549329e-01
-2.011823430657386780e-01 -2.000269751250743866e+01 -2.156905670999549329e-01
-4.859445244073867798e-02 -2.000770239531993866e+01 -2.144546051858924329e-01
-1.314707733690738678e+00 -2.225819067656993866e+01 -1.975020905374549329e-01
-1.142710663378238678e+00 -2.226453833281993866e+01 -1.961440583108924329e-01
-9.708356633782386780e-01 -2.227076391875743866e+01 -1.947860260843299329e-01
-7.988385930657386780e-01 -2.228284887969493866e+01 -1.935653229593299329e-01
-6.270856633782386780e-01 -2.229102759063243866e+01 -1.922530670999549329e-01
-4.547223821282386780e-01 -2.229908423125743866e+01 -1.909408112405799329e-01
-2.830915227532386780e-01 -2.230726294219493866e+01 -1.896285553812049329e-01
-1.126813665032386780e-01 -2.236475805938243866e+01 -1.895827790140174329e-01
-1.609507538378238678e+00 -2.570679907500743866e+01 -1.761245270608924329e-01
-1.400156952440738678e+00 -2.559998755156993866e+01 -1.721267243265174329e-01
-1.183848358690738678e+00 -2.536426977813243866e+01 -1.654128571390174329e-01
-9.710798040032386780e-01 -2.513135962188243866e+01 -1.587905426858924329e-01
-7.634382024407386780e-01 -2.490394262969493866e+01 -1.523360749124549329e-01
-5.592145696282386780e-01 -2.468030981719493866e+01 -1.459731598733924329e-01
-3.597516790032386780e-01 -2.446192602813243866e+01 -1.397628327249549329e-01
-1.641950383782386780e-01 -2.424781470000743866e+01 -1.336745758890174329e-01
-1.919566132128238678e+00 -2.932972387969493866e+01 -1.252822419046424329e-01
-1.659678436815738678e+00 -2.896082739531993866e+01 -1.172103424905799329e-01
-1.406870819628238678e+00 -2.860194067656993866e+01 -1.093673249124549329e-01
-1.160777069628238678e+00 -2.826514868438243866e+01 -1.019362946390174329e-01
-9.179792180657386780e-01 -2.786353735625743866e+01 -9.348292549839243293e-02
-6.825055852532386780e-01 -2.748780493438243866e+01 -8.551783760776743293e-02
-4.497174993157386780e-01 -2.698756079375743866e+01 -7.556910713901743293e-02
-2.334089055657386780e-01 -2.678187231719493866e+01 -7.047267159214243293e-02
-1.783579804003238678e+00 -2.772657446563243866e+01 2.162937918910756707e-02
-1.574107147753238678e+00 -2.783863501250743866e+01 2.204136649379506707e-02
-1.333628632128238678e+00 -2.752296118438243866e+01 2.758030692348256707e-02
-1.127696014940738678e+00 -2.770106177031993866e+01 2.719883719692006707e-02
-1.028330780565738678e+00 -2.996851782500743866e+01 2.067611610982567072e-03
-7.761335149407386780e-01 -2.961390356719493866e+01 8.155868446920067072e-03
-5.312604680657386780e-01 -2.926942114531993866e+01 1.407627860317006707e-02
-2.924909368157386780e-01 -2.893372778594493866e+01 1.982884207973256707e-02
-1.781016327440738678e+00 -2.768763403594493866e+01 1.426468352437950671e-01
-1.594004608690738678e+00 -2.808582739531993866e+01 1.413803557516075671e-01
-1.338755585253238678e+00 -2.758594946563243866e+01 1.461563567281700671e-01
-1.143565155565738678e+00 -2.795020727813243866e+01 1.451797942281700671e-01
-1.014536835253238678e+00 -2.968372778594493866e+01 1.342850188375450671e-01
-8.211774602532386780e-01 -3.062342505156993866e+01 1.293564299703575671e-01
-5.074567571282386780e-01 -2.856812720000743866e+01 1.465530852437950671e-01
-2.880964055657386780e-01 -2.873341040313243866e+01 1.471329192281700671e-01
-1.834727264940738678e+00 -2.830665259063243866e+01 2.607346037984825671e-01
-1.550181366503238678e+00 -2.750660376250743866e+01 2.646866301656700671e-01
-1.365977264940738678e+00 -2.796863989531993866e+01 2.650375823141075671e-01
-1.189829804003238678e+00 -2.870057348906993866e+01 2.647018889547325671e-01
-9.443464055657386780e-01 -2.831788305938243866e+01 2.674179534078575671e-01
-7.209577336907386780e-01 -2.830579809844493866e+01 2.691269377828575671e-01
-5.174665227532386780e-01 -2.882545141875743866e+01 2.694931487203575671e-01
-2.867536321282386780e-01 -2.864905981719493866e+01 2.716293791891075671e-01
-1.787608124315738678e+00 -2.774561743438243866e+01 3.831406096578575671e-01
-1.593638397753238678e+00 -2.805909399688243866e+01 3.846359709859825671e-01
-1.365366913378238678e+00 -2.794703345000743866e+01 3.860397795797325671e-01
-1.177256561815738678e+00 -2.847730688750743866e+01 3.886337737203575671e-01
-9.360456243157386780e-01 -2.814173559844493866e+01 3.896103362203575671e-01
-7.389020696282386780e-01 -2.869532446563243866e+01 3.923264006734825671e-01
-5.070905461907386780e-01 -2.850330786406993866e+01 3.935623625875450671e-01
-2.851667180657386780e-01 -2.855384497344493866e+01 3.959579924703575671e-01
-1.633677460253238678e+00 -2.593580298125743866e+01 4.918137053609825671e-01
-1.405161835253238678e+00 -2.560572485625743866e+01 4.911270598531700671e-01
-1.188731171190738678e+00 -2.536683325469493866e+01 4.910049895406700671e-01
-9.759626165032386780e-01 -2.513209204375743866e+01 4.908676604391075671e-01
-7.681989446282386780e-01 -2.490284399688243866e+01 4.907455901266075671e-01
-5.639753118157386780e-01 -2.467762427031993866e+01 4.906082610250450671e-01
-3.645124211907386780e-01 -2.445753149688243866e+01 4.904861907125450671e-01
-1.690778508782386780e-01 -2.424329809844493866e+01 4.903793791891075671e-01
-1.636363007128238678e+00 -2.595777563750743866e+01 6.044235686422325671e-01
-1.408823944628238678e+00 -2.564234595000743866e+01 6.017380217672325671e-01
-1.191904999315738678e+00 -2.540174536406993866e+01 6.004410246969200671e-01
-9.791364446282386780e-01 -2.517176489531993866e+01 5.992355803609825671e-01
-7.712507024407386780e-01 -2.494715552031993866e+01 5.980606536031700671e-01
-5.669049993157386780e-01 -2.472608618438243866e+01 5.969009856344200671e-01
-3.671979680657386780e-01 -2.451026587188243866e+01 5.957718352437950671e-01
-1.713971868157386780e-01 -2.429798559844493866e+01 5.952072600484825671e-01
-1.917368866503238678e+00 -2.923341040313243866e+01 7.671585539937950671e-01
-1.696421600878238678e+00 -2.935743384063243866e+01 7.705917815328575671e-01
-1.445933319628238678e+00 -2.907960180938243866e+01 7.677536467672325671e-01
-9.837751165032386780e-01 -2.523670630156993866e+01 7.089157561422325671e-01
-7.750348821282386780e-01 -2.500281958281993866e+01 7.065201262594200671e-01
-5.697126165032386780e-01 -2.477296118438243866e+01 7.041550139547325671e-01
-3.693952336907386780e-01 -2.454847387969493866e+01 7.018509368062950671e-01
-1.729841008782386780e-01 -2.432850317656993866e+01 6.995773772359825671e-01
-1.917857147753238678e+00 -2.922877173125743866e+01 8.946304778219200671e-01
-1.652964569628238678e+00 -2.878260473906993866e+01 8.870468596578575671e-01
-1.468882538378238678e+00 -2.939796118438243866e+01 9.009323577047325671e-01
-1.235728241503238678e+00 -2.938416723906993866e+01 9.014206389547325671e-01
-1.009898163378238678e+00 -2.948572973906993866e+01 9.049301604391075671e-01
-7.837018743157386780e-01 -2.963026098906993866e+01 9.100113371969200671e-01
-3.006696477532386780e-01 -2.897755102813243866e+01 8.995285491109825671e-01
-1.918101288378238678e+00 -2.922156958281993866e+01 1.021965072548482567e+00
-1.728404022753238678e+00 -2.974805884063243866e+01 1.035728500282857567e+00
-1.478281952440738678e+00 -2.952186255156993866e+01 1.031501815712545067e+00
-1.330943085253238678e+00 -3.093922095000743866e+01 1.068183944618795067e+00
2.189836725592613220e-01 -1.014393286406993866e+01 -1.930160065530799329e-01
2.897844538092613220e-01 -1.014808325469493866e+01 -1.924666901468299329e-01
3.605852350592613220e-01 -1.014893774688243866e+01 -1.919326325296424329e-01
4.317522272467613220e-01 -1.014979223906993866e+01 -1.913833161233924329e-01
5.026750788092613220e-01 -1.015052466094493866e+01 -1.908492585062049329e-01
5.738420709967613220e-01 -1.015137915313243866e+01 -1.902999420999549329e-01
6.448869928717613220e-01 -1.015223364531993866e+01 -1.897658844827674329e-01
7.156877741217613220e-01 -1.014967016875743866e+01 -1.892165680765174329e-01
2.021379694342613220e-01 -1.076148657500743866e+01 -1.892318268655799329e-01
2.778215631842613220e-01 -1.078321509063243866e+01 -1.898574372171424329e-01
3.537492975592613220e-01 -1.080762915313243866e+01 -1.906203766702674329e-01
4.302873834967613220e-01 -1.083680395781993866e+01 -1.914290924905799329e-01
5.070696100592613220e-01 -1.086146216094493866e+01 -1.922072907327674329e-01
5.844621881842613220e-01 -1.088184790313243866e+01 -1.929549713968299329e-01
6.620989069342613220e-01 -1.090675024688243866e+01 -1.937331696390174329e-01
7.399797663092613220e-01 -1.092701391875743866e+01 -1.942519684671424329e-01
1.772356256842613220e-01 -1.168519262969493866e+01 -1.960067292093299329e-01
2.603655084967613220e-01 -1.171461157500743866e+01 -1.968612213968299329e-01
3.439836725592613220e-01 -1.174427466094493866e+01 -1.977309723733924329e-01
4.283342584967613220e-01 -1.177418188750743866e+01 -1.986007233499549329e-01
5.129289850592613220e-01 -1.180421118438243866e+01 -1.994704743265174329e-01
5.983782038092613220e-01 -1.183436255156993866e+01 -2.003554840921424329e-01
6.839494928717613220e-01 -1.186475805938243866e+01 -2.012404938577674329e-01
7.696428522467613220e-01 -1.187989477813243866e+01 -2.013320465921424329e-01
1.437883600592613220e-01 -1.292127661406993866e+01 -2.096480866312049329e-01
2.372942194342613220e-01 -1.294752173125743866e+01 -2.098617096780799329e-01
3.311662897467613220e-01 -1.296693091094493866e+01 -2.099990387796424329e-01
4.257707819342613220e-01 -1.298646216094493866e+01 -2.101516266702674329e-01
5.203752741217613220e-01 -1.300599341094493866e+01 -2.103042145608924329e-01
6.157121881842613220e-01 -1.302576880156993866e+01 -2.104568024515174329e-01
7.109270319342613220e-01 -1.304542212188243866e+01 -2.106093903421424329e-01
8.057756647467613220e-01 -1.304285864531993866e+01 -2.099685212015174329e-01
1.013078913092613220e-01 -1.449549536406993866e+01 -2.264785309671424329e-01
2.082414850592613220e-01 -1.449769262969493866e+01 -2.256698151468299329e-01
3.152971491217613220e-01 -1.449988989531993866e+01 -2.248763581155799329e-01
4.225969538092613220e-01 -1.450220923125743866e+01 -2.240676422952674329e-01
5.296526178717613220e-01 -1.449403052031993866e+01 -2.228164215921424329e-01
6.367082819342613220e-01 -1.447718481719493866e+01 -2.211837311624549329e-01
7.431535944342613220e-01 -1.446033911406993866e+01 -2.195662995218299329e-01
8.493547663092613220e-01 -1.444361548125743866e+01 -2.179336090921424329e-01
5.809500068426132202e-02 -1.609363989531993866e+01 -2.300796051858924329e-01
1.785783991217613220e-01 -1.608155493438243866e+01 -2.282332917093299329e-01
2.989397272467613220e-01 -1.606031470000743866e+01 -2.264022370218299329e-01
4.193010553717613220e-01 -1.603919653594493866e+01 -2.245711823343299329e-01
5.390520319342613220e-01 -1.601807837188243866e+01 -2.227401276468299329e-01
6.586809381842613220e-01 -1.599708227813243866e+01 -2.209090729593299329e-01
7.776994928717613220e-01 -1.597608618438243866e+01 -2.190932770608924329e-01
8.961076959967613220e-01 -1.594617895781993866e+01 -2.172927399515174329e-01
6.825469434261322021e-03 -1.798450903594493866e+01 -2.287673493265174329e-01
1.437883600592613220e-01 -1.792689184844493866e+01 -2.256240387796424329e-01
2.798967584967613220e-01 -1.786951880156993866e+01 -2.225112458108924329e-01
4.153948053717613220e-01 -1.783643774688243866e+01 -2.202376862405799329e-01
5.500383600592613220e-01 -1.781446509063243866e+01 -2.183455963968299329e-01
6.846819147467613220e-01 -1.779249243438243866e+01 -2.164687653421424329e-01
8.181047663092613220e-01 -1.775367407500743866e+01 -2.140121003030799329e-01
9.507951959967613220e-01 -1.770789770781993866e+01 -2.113112946390174329e-01
-4.810617119073867798e-02 -2.000782446563243866e+01 -2.144546051858924329e-01
1.046037897467613220e-01 -2.001051001250743866e+01 -2.132491608499549329e-01
2.571916803717613220e-01 -2.002320532500743866e+01 -2.118911286233924329e-01
4.106340631842613220e-01 -2.002589087188243866e+01 -2.106856842874549329e-01
5.634660944342613220e-01 -2.001514868438243866e+01 -2.090682526468299329e-01
7.162981256842613220e-01 -1.998707251250743866e+01 -2.069472809671424329e-01
8.680315241217613220e-01 -1.994727759063243866e+01 -2.049331208108924329e-01
1.019398711621761322e+00 -1.991956762969493866e+01 -2.028426667093299329e-01
-1.121930852532386780e-01 -2.236561255156993866e+01 -1.895980378030799329e-01
5.907156318426132202e-02 -2.242286352813243866e+01 -1.895980378030799329e-01
2.311907038092613220e-01 -2.248035864531993866e+01 -1.895980378030799329e-01
4.050188288092613220e-01 -2.253846411406993866e+01 -1.895980378030799329e-01
5.795793756842613220e-01 -2.268128637969493866e+01 -1.917190094827674329e-01
7.565813288092613220e-01 -2.277393774688243866e+01 -1.925735016702674329e-01
9.272356256842613220e-01 -2.255884985625743866e+01 -1.857070465921424329e-01
1.100697539746761322e+00 -2.254151587188243866e+01 -1.838149567483924329e-01
-1.635846868157386780e-01 -2.424634985625743866e+01 -1.336287995218299329e-01
2.830984443426132202e-02 -2.403626684844493866e+01 -1.276931305765174329e-01
2.165422663092613220e-01 -2.383009009063243866e+01 -1.218490143655799329e-01
4.019670709967613220e-01 -2.362586645781993866e+01 -1.160659333108924329e-01
5.838518366217613220e-01 -2.347584204375743866e+01 -1.114425202249549329e-01
7.647600397467613220e-01 -2.339259009063243866e+01 -1.082076569437049329e-01
9.687395319342613220e-01 -2.440003637969493866e+01 -1.272506256937049329e-01
1.156483672559261322e+00 -2.435621313750743866e+01 -1.247634430765174329e-01
-2.326764836907386780e-01 -2.678016333281993866e+01 -7.044215401401743293e-02
-1.844308525323867798e-02 -2.649171118438243866e+01 -6.401820381870493293e-02
1.910295709967613220e-01 -2.621571020781993866e+01 -5.783839424839243293e-02
3.963518366217613220e-01 -2.596961645781993866e+01 -5.216212471714243293e-02
5.980119928717613220e-01 -2.587305884063243866e+01 -4.891200264682993293e-02
7.984514459967613220e-01 -2.576295141875743866e+01 -4.544825752964243293e-02
9.954729303717613220e-01 -2.561072973906993866e+01 -4.135890206089243293e-02
1.190053008496761322e+00 -2.546021704375743866e+01 -3.730006417026743293e-02
-2.917585149407386780e-01 -2.893201880156993866e+01 1.985935965785756707e-02
-7.672223821282386780e-01 -6.649549536406993866e+01 -4.132461090921424329e-01
1.334123834967613220e-01 -3.166175512969493866e+01 -7.728530967142432928e-03
3.830461725592613220e-01 -3.197364477813243866e+01 -9.178115928079932928e-03
8.128557428717613220e-01 -6.048780493438243866e+01 -3.312758942483924329e-01
1.157460235059261322e+00 -5.047217993438243866e+01 -2.139510651468299329e-01
1.558095000684261322e+00 -5.025806860625743866e+01 -2.081222077249549329e-01
1.237172149121761322e+00 -2.700355200469493866e+01 5.480198661098256707e-02
-2.872419133782386780e-01 -2.873170141875743866e+01 1.471481780172325671e-01
-5.774972587823867798e-02 -2.849158911406993866e+01 1.507339934469200671e-01
1.673479303717613220e-01 -2.830006079375743866e+01 1.532822112203575671e-01
3.886614069342613220e-01 -2.877955298125743866e+01 1.518784026266075671e-01
8.622942194342613220e-01 -6.884315161406993866e+01 -1.180953522562049329e-01
1.162953399121761322e+00 -5.099122290313243866e+01 6.523178017232567072e-03
1.557850860059261322e+00 -5.033521704375743866e+01 1.555638114223256707e-02
1.966420195996761322e+00 -5.046583227813243866e+01 1.811985770473256707e-02
-2.860212102532386780e-01 -2.864747290313243866e+01 2.716293791891075671e-01
-5.738351494073867798e-02 -2.842371802031993866e+01 2.740707854391075671e-01
1.551408991217613220e-01 -2.937647680938243866e+01 2.737503508687950671e-01
3.874407038092613220e-01 -2.881470923125743866e+01 2.769699553609825671e-01
8.791399225592613220e-01 -7.200648169219493866e+01 1.847763518453575671e-01
1.599965117871761322e+00 -8.129420141875743866e+01 1.701584319234825671e-01
1.562611602246761322e+00 -5.062989477813243866e+01 2.382584075094200671e-01
1.985829375684261322e+00 -5.115491919219493866e+01 2.406692961812950671e-01
-2.844342961907386780e-01 -2.855250220000743866e+01 3.959579924703575671e-01
-6.702706962823867798e-02 -2.888160376250743866e+01 3.979263762594200671e-01
1.534319147467613220e-01 -2.943702368438243866e+01 4.011002043844200671e-01
3.854875788092613220e-01 -2.923267798125743866e+01 4.025803069234825671e-01
9.710588678717613220e-01 -8.746802954375743866e+01 5.445023039937950671e-01
1.689686797559261322e+00 -8.772791723906993866e+01 5.512009123922325671e-01
2.432850860059261322e+00 -8.897413305938243866e+01 5.604324797750450671e-01
3.168080352246761322e+00 -8.930250220000743866e+01 5.695877532125450671e-01
-1.683454290032386780e-01 -2.424183325469493866e+01 4.903793791891075671e-01
2.330496162176132202e-02 -2.403333716094493866e+01 4.905472258687950671e-01
2.115373834967613220e-01 -2.382874731719493866e+01 4.907303313375450671e-01
3.969621881842613220e-01 -2.362708716094493866e+01 4.908981780172325671e-01
5.786028131842613220e-01 -2.347474341094493866e+01 4.913864592672325671e-01
7.585344538092613220e-01 -2.332593970000743866e+01 4.918747405172325671e-01
9.354143366217613220e-01 -2.317957739531993866e+01 4.923477629781700671e-01
1.109974883496761322e+00 -2.303529028594493866e+01 4.928360442281700671e-01
-1.706647649407386780e-01 -2.429652075469493866e+01 5.951920012594200671e-01
2.147390693426132202e-02 -2.408912329375743866e+01 5.938797454000450671e-01
2.100725397467613220e-01 -2.388477759063243866e+01 5.931320647359825671e-01
3.959856256842613220e-01 -2.368348364531993866e+01 5.923843840719200671e-01
5.781145319342613220e-01 -2.352454809844493866e+01 5.920944670797325671e-01
7.584123834967613220e-01 -2.337623266875743866e+01 5.919113616109825671e-01
9.356584772467613220e-01 -2.323023657500743866e+01 5.917435149312950671e-01
1.110585235059261322e+00 -2.308582739531993866e+01 5.920792082906700671e-01
-1.723737493157386780e-01 -2.432703833281993866e+01 6.995621184469200671e-01
2.013113349676132202e-02 -2.411195044219493866e+01 6.977310637594200671e-01
2.090959772467613220e-01 -2.390089087188243866e+01 6.959305266500450671e-01
3.950090631842613220e-01 -2.369300512969493866e+01 6.941605071187950671e-01
5.772600397467613220e-01 -2.353077368438243866e+01 6.930923918844200671e-01
7.575578913092613220e-01 -2.338074927031993866e+01 6.921921233297325671e-01
9.349260553717613220e-01 -2.323316626250743866e+01 6.913223723531700671e-01
1.109730742871761322e+00 -2.308753637969493866e+01 6.904526213766075671e-01
-3.000592961907386780e-01 -2.898426489531993866e+01 8.996658782125450671e-01
1.255998834967613220e-01 -3.164564184844493866e+01 9.585037688375450671e-01
1.243791803717613220e-01 -3.166126684844493866e+01 1.096397445595357567e+00
3.740129694342613220e-01 -3.184791235625743866e+01 1.103263900673482567e+00
7.159319147467613220e-01 -1.014954809844493866e+01 -1.892165680765174329e-01
7.873430475592613220e-01 -1.015858130156993866e+01 -1.891402741312049329e-01
8.587541803717613220e-01 -1.016529516875743866e+01 -1.891555329202674329e-01
9.306535944342613220e-01 -1.017200903594493866e+01 -1.891555329202674329e-01
1.002430938184261322e+00 -1.017884497344493866e+01 -1.891555329202674329e-01
1.074696563184261322e+00 -1.018555884063243866e+01 -1.891555329202674329e-01
1.146840117871761322e+00 -1.019239477813243866e+01 -1.891555329202674329e-01
1.218861602246761322e+00 -1.019569067656993866e+01 -1.891555329202674329e-01
7.402239069342613220e-01 -1.092701391875743866e+01 -1.942367096780799329e-01
8.174944147467613220e-01 -1.092457251250743866e+01 -1.936416169046424329e-01
8.948869928717613220e-01 -1.092213110625743866e+01 -1.930312653421424329e-01
9.727678522467613220e-01 -1.092432837188243866e+01 -1.924514313577674329e-01
1.050282500684261322e+00 -1.092200903594493866e+01 -1.918410797952674329e-01
1.127797149121761322e+00 -1.091492895781993866e+01 -1.912002106546424329e-01
1.205311797559261322e+00 -1.091260962188243866e+01 -1.905898590921424329e-01
1.282826445996761322e+00 -1.091016821563243866e+01 -1.899795075296424329e-01
7.698869928717613220e-01 -1.187989477813243866e+01 -2.013320465921424329e-01
8.550920709967613220e-01 -1.187757544219493866e+01 -2.006606598733924329e-01
9.404192194342613220e-01 -1.187513403594493866e+01 -1.999892731546424329e-01
1.025990508496761322e+00 -1.187269262969493866e+01 -1.993178864358924329e-01
1.111439727246761322e+00 -1.187037329375743866e+01 -1.986464997171424329e-01
1.197133086621761322e+00 -1.186793188750743866e+01 -1.979751129983924329e-01
1.282582305371761322e+00 -1.186549048125743866e+01 -1.973037262796424329e-01
1.368153594434261322e+00 -1.186317114531993866e+01 -1.966323395608924329e-01
8.061418756842613220e-01 -1.304261450469493866e+01 -2.099532624124549329e-01
9.012346491217613220e-01 -1.304725317656993866e+01 -2.092666169046424329e-01
9.963274225592613220e-01 -1.304493384063243866e+01 -2.085189362405799329e-01
1.091664336621761322e+00 -1.304261450469493866e+01 -2.077865143655799329e-01
1.186879180371761322e+00 -1.304041723906993866e+01 -2.070388337015174329e-01
1.282338164746761322e+00 -1.303809790313243866e+01 -2.062911530374549329e-01
1.377675078809261322e+00 -1.303577856719493866e+01 -2.055434723733924329e-01
1.472279570996761322e+00 -1.302650122344493866e+01 -2.047500153421424329e-01
8.497209772467613220e-01 -1.444337134063243866e+01 -2.179336090921424329e-01
9.555559381842613220e-01 -1.442310766875743866e+01 -2.163161774515174329e-01
1.061146758496761322e+00 -1.440296606719493866e+01 -2.146987458108924329e-01
1.166859649121761322e+00 -1.438270239531993866e+01 -2.130965729593299329e-01
1.272084258496761322e+00 -1.436256079375743866e+01 -2.114944001077674329e-01
1.377308867871761322e+00 -1.434241919219493866e+01 -2.098769684671424329e-01
1.482045195996761322e+00 -1.432239966094493866e+01 -2.082900544046424329e-01
1.586415313184261322e+00 -1.430238012969493866e+01 -2.066878815530799329e-01
8.964739069342613220e-01 -1.594581274688243866e+01 -2.172774811624549329e-01
1.015004180371761322e+00 -1.593030981719493866e+01 -2.154616852640174329e-01
1.132435820996761322e+00 -1.589576391875743866e+01 -2.132644196390174329e-01
1.249501250684261322e+00 -1.585621313750743866e+01 -2.108840485452674329e-01
1.365712188184261322e+00 -1.581715063750743866e+01 -2.085341950296424329e-01
1.481678985059261322e+00 -1.577796606719493866e+01 -2.061690827249549329e-01
1.596913360059261322e+00 -1.573926977813243866e+01 -2.038344879983924329e-01
1.710804961621761322e+00 -1.569337134063243866e+01 -2.015761872171424329e-01
9.511614069342613220e-01 -1.770728735625743866e+01 -2.112960358499549329e-01
1.082997344434261322e+00 -1.765894751250743866e+01 -2.086410065530799329e-01
1.214100860059261322e+00 -1.761072973906993866e+01 -2.060012360452674329e-01
1.345082305371761322e+00 -1.756263403594493866e+01 -2.033767243265174329e-01
1.475087188184261322e+00 -1.751771216094493866e+01 -2.008590241312049329e-01
1.606068633496761322e+00 -1.748804907500743866e+01 -1.988601227640174329e-01
1.736439727246761322e+00 -1.746107153594493866e+01 -1.969680329202674329e-01
1.868886016309261322e+00 -1.746046118438243866e+01 -1.959456940530799329e-01
1.019886992871761322e+00 -1.991920141875743866e+01 -2.028274079202674329e-01
1.170765899121761322e+00 -1.988892798125743866e+01 -2.007522126077674329e-01
1.321888945996761322e+00 -1.987061743438243866e+01 -1.985854645608924329e-01
1.472767852246761322e+00 -1.984034399688243866e+01 -1.965102692483924329e-01
1.622670195996761322e+00 -1.981019262969493866e+01 -1.944503327249549329e-01
1.773549102246761322e+00 -1.978968481719493866e+01 -1.926803131937049329e-01
1.924305938184261322e+00 -1.977821020781993866e+01 -1.916121979593299329e-01
2.076283477246761322e+00 -1.977869848906993866e+01 -1.904525299905799329e-01
1.101307891309261322e+00 -2.254163794219493866e+01 -1.838149567483924329e-01
1.277089141309261322e+00 -2.259107641875743866e+01 -1.836471100687049329e-01
1.453969024121761322e+00 -2.264075903594493866e+01 -1.834792633890174329e-01
1.628041289746761322e+00 -2.261365942656993866e+01 -1.814040680765174329e-01
1.794178985059261322e+00 -2.247657446563243866e+01 -1.766128083108924329e-01
1.958851836621761322e+00 -2.234058813750743866e+01 -1.718673249124549329e-01
2.121083281934261322e+00 -2.220679907500743866e+01 -1.671981354593299329e-01
2.281361602246761322e+00 -2.207447485625743866e+01 -1.625747223733924329e-01
1.157094024121761322e+00 -2.435584692656993866e+01 -1.247481842874549329e-01
1.344349883496761322e+00 -2.431202368438243866e+01 -1.222915192483924329e-01
1.530995391309261322e+00 -2.426832251250743866e+01 -1.198501129983924329e-01
1.716298125684261322e+00 -2.419935278594493866e+01 -1.168899079202674329e-01
1.889393828809261322e+00 -2.396400122344493866e+01 -1.106032868265174329e-01
2.065419219434261322e+00 -2.381300024688243866e+01 -1.060256501077674329e-01
2.240590117871761322e+00 -2.368751196563243866e+01 -1.019820710062049329e-01
2.422352813184261322e+00 -2.365760473906993866e+01 -9.986109932651743293e-02
1.190663360059261322e+00 -2.545899634063243866e+01 -3.728480538120493293e-02
1.382924102246761322e+00 -2.531068091094493866e+01 -3.325648506870493293e-02
1.570302031934261322e+00 -2.511060766875743866e+01 -2.844996651401743293e-02
1.763051055371761322e+00 -2.504774145781993866e+01 -2.577967842807993293e-02
1.891469024121761322e+00 -2.401209692656993866e+01 -8.094741904642432928e-03
2.084462188184261322e+00 -2.408778052031993866e+01 -7.652237021829932928e-03
2.250844024121761322e+00 -2.382703833281993866e+01 -2.052261435892432928e-03
2.441029570996761322e+00 -2.387684302031993866e+01 -1.213028037454932928e-03
1.237904570996761322e+00 -2.700452856719493866e+01 5.480198661098256707e-02
1.410511992871761322e+00 -2.603467993438243866e+01 6.742100516567006707e-02
1.617665313184261322e+00 -2.612244848906993866e+01 6.824497977504506707e-02
1.760365508496761322e+00 -2.501820044219493866e+01 8.214573661098256707e-02
1.892933867871761322e+00 -2.405018286406993866e+01 9.438328543910756707e-02
2.076283477246761322e+00 -2.399036841094493866e+01 9.668736258754506707e-02
2.256337188184261322e+00 -2.390626196563243866e+01 9.925083915004506707e-02
2.428822539746761322e+00 -2.375233130156993866e+01 1.025314787984825671e-01
1.967762969434261322e+00 -5.046595434844493866e+01 1.813511649379506707e-02
1.419545195996761322e+00 -2.629200415313243866e+01 1.783524016500450671e-01
1.614247344434261322e+00 -2.607154516875743866e+01 1.810379485250450671e-01
1.761220000684261322e+00 -2.505213598906993866e+01 1.893692473531700671e-01
2.004628203809261322e+00 -2.579932837188243866e+01 1.864700774312950671e-01
2.067738555371761322e+00 -2.388599829375743866e+01 2.001724700094200671e-01
2.241566680371761322e+00 -2.373804907500743866e+01 2.033157805562950671e-01
2.420155547559261322e+00 -2.366761450469493866e+01 2.054214934469200671e-01
1.987172149121761322e+00 -5.115491919219493866e+01 2.406845549703575671e-01
1.402333281934261322e+00 -2.588074927031993866e+01 2.922897795797325671e-01
1.640004180371761322e+00 -2.663294653594493866e+01 2.928390959859825671e-01
1.762318633496761322e+00 -2.508814673125743866e+01 2.974777678609825671e-01
1.876454375684261322e+00 -2.382471899688243866e+01 3.013992766500450671e-01
2.058949492871761322e+00 -2.377967505156993866e+01 3.032150725484825671e-01
2.293934844434261322e+00 -2.439600805938243866e+01 3.040390471578575671e-01
2.453724883496761322e+00 -2.405335669219493866e+01 3.063126067281700671e-01
3.170521758496761322e+00 -8.930677466094493866e+01 5.696182707906700671e-01
1.424305938184261322e+00 -2.646497778594493866e+01 4.051285246969200671e-01
1.625477813184261322e+00 -2.635023169219493866e+01 4.068069914937950671e-01
1.807484649121761322e+00 -2.591260962188243866e+01 4.075546721578575671e-01
1.933461211621761322e+00 -2.472694067656993866e+01 4.060440520406700671e-01
2.096669219434261322e+00 -2.431141333281993866e+01 4.066544036031700671e-01
2.295887969434261322e+00 -2.443189673125743866e+01 4.088669280172325671e-01
2.450673125684261322e+00 -2.403089575469493866e+01 4.099808196187950671e-01
1.110463164746761322e+00 -2.303431372344493866e+01 4.928360442281700671e-01
1.282704375684261322e+00 -2.289149145781993866e+01 4.935532073141075671e-01
1.452870391309261322e+00 -2.275050024688243866e+01 4.942703704000450671e-01
1.621449492871761322e+00 -2.261060766875743866e+01 4.949875334859825671e-01
1.787465117871761322e+00 -2.247303442656993866e+01 4.956894377828575671e-01
1.952137969434261322e+00 -2.233729223906993866e+01 4.963913420797325671e-01
2.114247344434261322e+00 -2.220399145781993866e+01 4.970779875875450671e-01
2.274525664746761322e+00 -2.207227759063243866e+01 4.977646330953575671e-01
1.111195586621761322e+00 -2.308485083281993866e+01 5.920792082906700671e-01
1.283803008496761322e+00 -2.294288305938243866e+01 5.916824797750450671e-01
1.454457305371761322e+00 -2.280213598906993866e+01 5.918198088766075671e-01
1.623524688184261322e+00 -2.266273169219493866e+01 5.919418791891075671e-01
1.789906524121761322e+00 -2.252540259063243866e+01 5.920792082906700671e-01
1.954945586621761322e+00 -2.238929419219493866e+01 5.922012786031700671e-01
2.117543242871761322e+00 -2.225526098906993866e+01 5.923233489156700671e-01
2.278065703809261322e+00 -2.212232641875743866e+01 5.929489592672325671e-01
1.110341094434261322e+00 -2.308655981719493866e+01 6.904526213766075671e-01
1.282948516309261322e+00 -2.294324927031993866e+01 6.899643401266075671e-01
1.453480742871761322e+00 -2.280164770781993866e+01 6.894760588766075671e-01
1.622548125684261322e+00 -2.266138891875743866e+01 6.889877776266075671e-01
1.788929961621761322e+00 -2.252332739531993866e+01 6.885147551656700671e-01
1.953846953809261322e+00 -2.238636450469493866e+01 6.880569914937950671e-01
2.116200469434261322e+00 -2.225159887969493866e+01 6.875992278219200671e-01
2.276722930371761322e+00 -2.211842016875743866e+01 6.871414641500450671e-01
3.033558867871761322e+00 -5.607362036406993866e+01 1.492164657509420067e+00
3.491078399121761322e+00 -5.612745337188243866e+01 1.496879623329732567e+00
3.939198516309261322e+00 -5.603614477813243866e+01 1.499824569618795067e+00
4.371693633496761322e+00 -5.572535376250743866e+01 1.499397323525045067e+00
2.495961211621761322e+00 -2.695740942656993866e+01 8.843002776266075671e-01
2.618641875684261322e+00 -2.596033911406993866e+01 8.650131682516075671e-01
3.049183867871761322e+00 -5.645228247344493866e+01 1.751518295204732567e+00
3.486317656934261322e+00 -5.608350805938243866e+01 1.747047470009420067e+00
3.979481719434261322e+00 -5.670301489531993866e+01 1.768150375282857567e+00
4.359364531934261322e+00 -5.558814673125743866e+01 1.744194076454732567e+00
2.495717070996761322e+00 -2.696766333281993866e+01 1.000953720009420067e+00
2.630726836621761322e+00 -2.610902075469493866e+01 9.813766936422325671e-01
1.219105742871761322e+00 -1.019581274688243866e+01 -1.891555329202674329e-01
1.291737578809261322e+00 -1.020313696563243866e+01 -1.891555329202674329e-01
1.364247344434261322e+00 -1.020704321563243866e+01 -1.891555329202674329e-01
1.437245391309261322e+00 -1.021082739531993866e+01 -1.891555329202674329e-01
1.510121367871761322e+00 -1.021473364531993866e+01 -1.891555329202674329e-01
1.583485625684261322e+00 -1.021863989531993866e+01 -1.891555329202674329e-01
1.656849883496761322e+00 -1.022254614531993866e+01 -1.891555329202674329e-01
1.729970000684261322e+00 -1.022303442656993866e+01 -1.891555329202674329e-01
1.283070586621761322e+00 -1.091016821563243866e+01 -1.899795075296424329e-01
1.360341094434261322e+00 -1.090430884063243866e+01 -1.893386383890174329e-01
1.438588164746761322e+00 -1.090675024688243866e+01 -1.891860504983924329e-01
1.518055938184261322e+00 -1.091614966094493866e+01 -1.891860504983924329e-01
1.597157500684261322e+00 -1.092139868438243866e+01 -1.891860504983924329e-01
1.676136992871761322e+00 -1.092261938750743866e+01 -1.891860504983924329e-01
1.755604766309261322e+00 -1.092799048125743866e+01 -1.891860504983924329e-01
1.835438750684261322e+00 -1.093336157500743866e+01 -1.891860504983924329e-01
1.368397735059261322e+00 -1.186304907500743866e+01 -1.966323395608924329e-01
1.453602813184261322e+00 -1.185694555938243866e+01 -1.959304352640174329e-01
1.538929961621761322e+00 -1.185071997344493866e+01 -1.952285309671424329e-01
1.624623320996761322e+00 -1.184449438750743866e+01 -1.945266266702674329e-01
1.710072539746761322e+00 -1.183826880156993866e+01 -1.938399811624549329e-01
1.795765899121761322e+00 -1.183204321563243866e+01 -1.931380768655799329e-01
1.881337188184261322e+00 -1.182581762969493866e+01 -1.924361725687049329e-01
1.967030547559261322e+00 -1.181959204375743866e+01 -1.917342682718299329e-01
1.472645781934261322e+00 -1.302662329375743866e+01 -2.047500153421424329e-01
1.568226836621761322e+00 -1.302711157500743866e+01 -2.040328522562049329e-01
1.663319610059261322e+00 -1.302064184844493866e+01 -2.032546540140174329e-01
1.758778594434261322e+00 -1.301429419219493866e+01 -2.024764557718299329e-01
1.854115508496761322e+00 -1.300782446563243866e+01 -2.016982575296424329e-01
1.949696563184261322e+00 -1.300147680938243866e+01 -2.009200592874549329e-01
2.043690703809261322e+00 -1.298475317656993866e+01 -1.996688385843299329e-01
