1.690321543812751770e+01 -3.399866494536399841e+01 -9.320330230053457399e-01
1.703029063344001770e+01 -3.333655557036399841e+01 -9.347796050365957399e-01
1.712855723500251770e+01 -3.264209756255149841e+01 -9.363665190990957399e-01
1.717750743031501770e+01 -3.187329873442649841e+01 -9.359697905834707399e-01
1.722499278187751770e+01 -3.112879189848899841e+01 -9.355730620678457399e-01
1.725258067250251770e+01 -3.037683877348899841e+01 -9.353289214428457399e-01
1.411024668812751770e+01 -2.944898232817649841e+01 -6.612658110912832399e-01
1.453224375844001770e+01 -2.956543740630149841e+01 -6.756243315990957399e-01
2.286842539906501770e+01 -4.719715127348899841e+01 -9.390215483959707399e-01
1.870204356312751770e+01 -3.692920693755149841e+01 -8.092760649975332399e-01
1.846461680531501770e+01 -3.543750771880149841e+01 -8.030809966381582399e-01
1.838832286000251770e+01 -3.434217080473899841e+01 -8.018908110912832399e-01
1.838990977406501770e+01 -3.344458779692649841e+01 -8.031267730053457399e-01
1.843788340687751770e+01 -3.267603310942649841e+01 -8.057818023022207399e-01
1.407899668812751770e+01 -2.936328896880149841e+01 -5.043139067944082399e-01
1.448622325062751770e+01 -2.944849404692649841e+01 -5.170549956615957399e-01
2.615663340687751770e+01 -5.445813760161399841e+01 -7.572741118725332399e-01
2.688502696156501770e+01 -5.455982217192649841e+01 -7.803148833569082399e-01
2.701271250844001770e+01 -5.338538369536399841e+01 -7.908892241772207399e-01
1.924965098500251770e+01 -3.609290322661399841e+01 -6.341509429272207399e-01
1.896180918812751770e+01 -3.457422646880149841e+01 -6.341509429272207399e-01
1.889943125844001770e+01 -3.356324014067649841e+01 -6.376452056225332399e-01
1.409816172719001770e+01 -2.939551553130149841e+01 -3.477587310131582399e-01
1.449171641469001770e+01 -2.944837197661399841e+01 -3.592333403881582399e-01
2.604835703969001770e+01 -5.419678506255149841e+01 -4.727587310131582399e-01
2.664125254750251770e+01 -5.401294717192649841e+01 -4.925951567944082399e-01
2.715614512562751770e+01 -5.366590127348899841e+01 -5.116076079662832399e-01
2.781471446156501770e+01 -5.361756142973899841e+01 -5.321306792553457399e-01
2.861964610219001770e+01 -5.384619912505149841e+01 -5.544542876537832399e-01
2.932240489125251770e+01 -5.385645303130149841e+01 -5.757555571850332399e-01
1.413417246937751770e+01 -2.946704873442649841e+01 -1.916308013256582399e-01
1.454615977406501770e+01 -2.955982217192649841e+01 -2.020983306225332399e-01
2.557155039906501770e+01 -5.312024697661399841e+01 -1.915697661694082399e-01
2.616469004750251770e+01 -5.296472939848899841e+01 -2.106127349194082399e-01
2.675966075062751770e+01 -5.281287392973899841e+01 -2.296709624584707399e-01
2.736342051625251770e+01 -5.267346963286399841e+01 -2.488054839428457399e-01
2.797194102406501770e+01 -5.253308877348899841e+01 -2.680773345287832399e-01
2.859266856312751770e+01 -5.241529092192649841e+01 -2.873949614819082399e-01
1.415724375844001770e+01 -2.950830850005149841e+01 -3.411432183347073988e-02
1.461525157094001770e+01 -2.970447549223899841e+01 -4.275079644284573988e-02
2.830751231312751770e+01 -5.914942178130149841e+01 1.226239594165292601e-01
2.733644297719001770e+01 -5.546753701567649841e+01 8.227972113527926012e-02
2.813588145375251770e+01 -5.568067178130149841e+01 6.488470160402926012e-02
2.809779551625251770e+01 -5.415589150786399841e+01 3.850225531496676012e-02
3.011525157094001770e+01 -5.679016885161399841e+01 3.226141058840426012e-02
3.059742930531501770e+01 -5.629883584380149841e+01 1.065496527590426012e-02
1.444752696156501770e+01 -3.017310342192649841e+01 1.302075775805917601e-01
2.769862559437751770e+01 -5.939820107817649841e+01 4.505200775805917601e-01
2.835609629750251770e+01 -5.764124307036399841e+01 3.954968842212167601e-01
2.804811289906501770e+01 -5.547498330473899841e+01 3.551831635180917601e-01
2.905409434437751770e+01 -5.609131631255149841e+01 3.440747650805917601e-01
3.016566661000251770e+01 -5.686939248442649841e+01 3.339429291430917601e-01
3.317823985219001770e+01 -6.130066689848899841e+01 3.578381928149667601e-01
2.772462657094001770e+01 -5.943299111723899841e+01 7.597546967212167601e-01
2.845631602406501770e+01 -5.943116006255149841e+01 7.415051850024667601e-01
2.963478282094001770e+01 -6.037061318755149841e+01 7.394910248462167601e-01
3.010328868031501770e+01 -5.976392373442649841e+01 7.129559906665292601e-01
2.959193614125251770e+01 -5.716968545317649841e+01 6.564069184009042601e-01
2.970826914906501770e+01 -5.593604287505149841e+01 6.229596527759042601e-01
3.131556895375251770e+01 -5.765418252348899841e+01 6.317487152759042601e-01
2.774501231312751770e+01 -5.945508584380149841e+01 1.067478695744654260e+00
3.000355723500251770e+01 -6.282508096098899841e+01 1.123356381291529260e+00
2.872377207875251770e+01 -5.838684853911399841e+01 1.014744320744654260e+00
2.938514903187751770e+01 -5.823523721098899841e+01 9.964490326587167601e-01
2.967372325062751770e+01 -5.731482705473899841e+01 9.624677094165292601e-01
3.181288340687751770e+01 -6.010987100005149841e+01 1.003315487736841760e+00
3.177382090687751770e+01 -5.852405557036399841e+01 9.558453949634042601e-01
2.771852305531501770e+01 -5.937085732817649841e+01 1.372684994572779260e+00
2.919044688344001770e+01 -6.100476846098899841e+01 1.401630917424341760e+00
2.953358653187751770e+01 -6.010559853911399841e+01 1.364109555119654260e+00
2.950221446156501770e+01 -5.845813760161399841e+01 1.307713070744654260e+00
3.276112559437751770e+01 -6.197681435942649841e+01 1.368397274846216760e+00
3.173365977406501770e+01 -5.842420205473899841e+01 1.266422787541529260e+00
2.774086192250251770e+01 -5.939759072661399841e+01 1.682209530705591760e+00
2.834510996937751770e+01 -5.911438760161399841e+01 1.661106625432154260e+00
2.889943125844001770e+01 -5.871863564848899841e+01 1.636478939885279260e+00
3.001625254750251770e+01 -5.951221475005149841e+01 1.648518124455591760e+00
3.000172618031501770e+01 -5.794116982817649841e+01 1.587864437932154260e+00
3.129457286000251770e+01 -5.754932412505149841e+01 1.551014462346216760e+00
2.775245860219001770e+01 -5.939978799223899841e+01 1.989521542424341760e+00
2.837159922719001770e+01 -5.914942178130149841e+01 1.969608822697779260e+00
2.900624278187751770e+01 -5.892530068755149841e+01 1.950596371525904260e+00
2.957985118031501770e+01 -5.857532510161399841e+01 1.927082577580591760e+00
3.030116465687751770e+01 -5.853064736723899841e+01 1.914478817814966760e+00
3.291737559437751770e+01 -6.224146279692649841e+01 2.034962216252466760e+00
3.126246836781501770e+01 -5.746558389067649841e+01 1.856174984807154260e+00
2.776088145375251770e+01 -5.939466103911399841e+01 2.298237362736841760e+00
2.836659434437751770e+01 -5.911475381255149841e+01 2.277271786564966760e+00
3.021779063344001770e+01 -6.150452432036399841e+01 2.366016903752466760e+00
3.005397227406501770e+01 -5.954541787505149841e+01 2.275867977971216760e+00
3.164674571156501770e+01 -6.125440225005149841e+01 2.335880795354029260e+00
3.075612071156501770e+01 -5.791651162505149841e+01 2.190159359807154260e+00
3.132313731312751770e+01 -5.756226357817649841e+01 2.166187802189966760e+00
2.769398692250251770e+01 -5.921900185942649841e+01 2.599033871525904260e+00
2.829359629750251770e+01 -5.893018350005149841e+01 2.576054135197779260e+00
2.890223887562751770e+01 -5.865552529692649841e+01 2.555363217229029260e+00
2.954323008656501770e+01 -5.845349892973899841e+01 2.538013974064966760e+00
3.104054453969001770e+01 -5.999439248442649841e+01 2.600651303166529260e+00
3.061647227406501770e+01 -5.761682900786399841e+01 2.485096493596216760e+00
3.131910899281501770e+01 -5.753308877348899841e+01 2.473164120549341760e+00
2.771425059437751770e+01 -5.924109658598899841e+01 2.906651059025904260e+00
2.952052500844001770e+01 -6.161048135161399841e+01 3.021809140080591760e+00
2.889015391469001770e+01 -5.860657510161399841e+01 2.860981503361841760e+00
3.090809825062751770e+01 -6.128601846098899841e+01 2.991428891057154260e+00
3.009242442250251770e+01 -5.803797158598899841e+01 2.818745175236841760e+00
3.049672129750251770e+01 -5.735718545317649841e+01 2.777409115666529260e+00
3.133656504750251770e+01 -5.754578408598899841e+01 2.781986752385279260e+00
7.721330672502517700e+00 -1.181140908598899841e+01 -8.906817046459707399e-01
7.821184188127517700e+00 -1.167115029692649841e+01 -8.920549956615957399e-01
7.913835555315017700e+00 -1.152075967192649841e+01 -8.932299224194082399e-01
8.003435164690017700e+00 -1.136743935942649841e+01 -8.942064849194082399e-01
8.091814070940017700e+00 -1.121656045317649841e+01 -8.951525298412832399e-01
8.170915633440017700e+00 -1.105310830473899841e+01 -8.953661528881582399e-01
8.247575789690017700e+00 -1.088855752348899841e+01 -8.954577056225332399e-01
8.319841414690017700e+00 -1.072168740630149841e+01 -8.956255523022207399e-01
8.491594344377517700e+00 -1.331067666411399841e+01 -8.828386870678457399e-01
8.568742781877517700e+00 -1.309131631255149841e+01 -8.824419585522207399e-01
8.664445906877517700e+00 -1.291272744536399841e+01 -8.832201567944082399e-01
8.714738875627517700e+00 -1.265528115630149841e+01 -8.808703032787832399e-01
8.763811141252517700e+00 -1.240467080473899841e+01 -8.785814849194082399e-01
8.816789656877517700e+00 -1.216870889067649841e+01 -8.767351714428457399e-01
8.900163680315017700e+00 -1.199036416411399841e+01 -8.777575103100332399e-01
8.990129500627517700e+00 -1.182825478911399841e+01 -8.789934722240957399e-01
1.011232188344001770e+01 -1.646924600005149841e+01 -9.208025542553457399e-01
1.006349375844001770e+01 -1.593396767973899841e+01 -9.110216704662832399e-01
1.010695078969001770e+01 -1.559070596098899841e+01 -9.080614653881582399e-01
1.014930918812751770e+01 -1.525586709380149841e+01 -9.051622954662832399e-01
1.015004161000251770e+01 -1.485938271880149841e+01 -8.995470610912832399e-01
1.014393809437751770e+01 -1.446485146880149841e+01 -8.936571685131582399e-01
1.018788340687751770e+01 -1.416761025786399841e+01 -8.913836089428457399e-01
1.023085215687751770e+01 -1.387891396880149841e+01 -8.891710845287832399e-01
1.191102793812751770e+01 -1.997303017973899841e+01 -9.376635161694082399e-01
1.200807383656501770e+01 -1.963135537505149841e+01 -9.376482573803457399e-01
1.209352305531501770e+01 -1.927845010161399841e+01 -9.376329985912832399e-01
1.217738536000251770e+01 -1.893225869536399841e+01 -9.376329985912832399e-01
1.225917246937751770e+01 -1.859449014067649841e+01 -9.376177398022207399e-01
1.227443125844001770e+01 -1.815174111723899841e+01 -9.337420073803457399e-01
1.221803477406501770e+01 -1.760083779692649841e+01 -9.257464019115957399e-01
1.215114024281501770e+01 -1.705371865630149841e+01 -9.178881255444082399e-01
1.409852793812751770e+01 -2.423255166411399841e+01 -9.378923980053457399e-01
1.417360118031501770e+01 -2.374671182036399841e+01 -9.378618804272207399e-01
1.424684336781501770e+01 -2.327368935942649841e+01 -9.378466216381582399e-01
1.431849864125251770e+01 -2.281128701567649841e+01 -9.378313628490957399e-01
1.438820078969001770e+01 -2.236243447661399841e+01 -9.378161040600332399e-01
1.445607188344001770e+01 -2.192469033598899841e+01 -9.378008452709707399e-01
1.452235606312751770e+01 -2.149622353911399841e+01 -9.377855864819082399e-01
1.458693125844001770e+01 -2.107959756255149841e+01 -9.377703276928457399e-01
1.725209239125251770e+01 -3.037305459380149841e+01 -9.352984038647207399e-01
1.730397227406501770e+01 -2.969544228911399841e+01 -9.348864165600332399e-01
1.742177012562751770e+01 -2.916431435942649841e+01 -9.381670562084707399e-01
1.745961192250251770e+01 -2.850208291411399841e+01 -9.381365386303457399e-01
1.749611094594001770e+01 -2.786267861723899841e+01 -9.381060210522207399e-01
1.753138926625251770e+01 -2.724292764067649841e+01 -9.380907622631582399e-01
1.756581309437751770e+01 -2.663977822661399841e+01 -9.380602446850332399e-01
1.757948496937751770e+01 -2.602442178130149841e+01 -9.380449858959707399e-01
1.843715098500251770e+01 -3.267163857817649841e+01 -8.057512847240957399e-01
1.851075938344001770e+01 -3.198035439848899841e+01 -8.096270171459707399e-01
1.860353282094001770e+01 -3.134851846098899841e+01 -8.140520659740957399e-01
1.871620371937751770e+01 -3.077100381255149841e+01 -8.190874663647207399e-01
1.884327891469001770e+01 -3.023963174223899841e+01 -8.245501128490957399e-01
1.897487071156501770e+01 -2.973218545317649841e+01 -8.301348296459707399e-01
1.912440684437751770e+01 -2.926758584380149841e+01 -8.362688628490957399e-01
1.927186778187751770e+01 -2.881482705473899841e+01 -8.423113433178457399e-01
1.889845469594001770e+01 -3.355823525786399841e+01 -6.376452056225332399e-01
1.896180918812751770e+01 -3.282617959380149841e+01 -6.440081206615957399e-01
1.906544688344001770e+01 -3.219458779692649841e+01 -6.501726714428457399e-01
1.919081309437751770e+01 -3.162024697661399841e+01 -6.576799956615957399e-01
1.934437754750251770e+01 -3.111634072661399841e+01 -6.657061187084707399e-01
1.951039317250251770e+01 -3.064832314848899841e+01 -6.739458648022207399e-01
1.968629649281501770e+01 -3.020777139067649841e+01 -6.832689849194082399e-01
1.988905528187751770e+01 -2.982532510161399841e+01 -6.922106353100332399e-01
2.932423594594001770e+01 -5.385547646880149841e+01 -5.758165923412832399e-01
2.923304942250251770e+01 -5.234217080473899841e+01 -5.879168120678457399e-01
2.084974864125251770e+01 -3.549463662505149841e+01 -4.950213042553457399e-01
2.062489512562751770e+01 -3.420801553130149841e+01 -5.007586089428457399e-01
2.064149668812751770e+01 -3.340174111723899841e+01 -5.092119780834707399e-01
2.074220469594001770e+01 -3.276892861723899841e+01 -5.185656157787832399e-01
2.083912852406501770e+01 -3.214637002348899841e+01 -5.276903716381582399e-01
2.098939707875251770e+01 -3.163404092192649841e+01 -5.373797026928457399e-01
2.859510996937751770e+01 -5.241553506255149841e+01 -2.874712554272207399e-01
2.922413828969001770e+01 -5.230603799223899841e+01 -3.070025054272207399e-01
2.987355235219001770e+01 -5.222547158598899841e+01 -3.267168608959707399e-01
3.392933848500251770e+01 -5.830237588286399841e+01 -3.586840239819082399e-01
2.179652598500251770e+01 -3.543433389067649841e+01 -3.280443755444082399e-01
2.156215098500251770e+01 -3.417530068755149841e+01 -3.387713042553457399e-01
2.154469493031501770e+01 -3.332788857817649841e+01 -3.500170317944082399e-01
2.163282969594001770e+01 -3.268640908598899841e+01 -3.614306060131582399e-01
3.060182383656501770e+01 -5.630249795317649841e+01 1.059393011965426012e-02
3.299171641469001770e+01 -5.944495400786399841e+01 3.712216252466760125e-03
3.361061289906501770e+01 -5.913831338286399841e+01 -1.810785210690823988e-02
3.051710703969001770e+01 -5.210095986723899841e+01 -6.231256402097073988e-02
2.493641856312751770e+01 -4.097730264067649841e+01 -1.139330474194082399e-01
3.177455332875251770e+01 -5.182068642973899841e+01 -1.005053130444082399e-01
3.238942149281501770e+01 -5.164209756255149841e+01 -1.199297515209707399e-01
3.300697520375251770e+01 -5.146656045317649841e+01 -1.393694487865957399e-01
3.318312266469001770e+01 -6.130481728911399841e+01 3.578076752368417601e-01
3.295448496937751770e+01 -5.935254678130149841e+01 3.205914887134042601e-01
3.362538340687751770e+01 -5.914441689848899841e+01 2.998395355884042601e-01
3.471901133656501770e+01 -5.969080361723899841e+01 2.853742035571542601e-01
2.493861582875251770e+01 -4.096656045317649841e+01 1.118207367602792601e-01
3.597670176625251770e+01 -5.906580361723899841e+01 2.413068207446542601e-01
3.509327891469001770e+01 -5.619190225005149841e+01 1.997418793384042601e-01
3.437159922719001770e+01 -5.370276650786399841e+01 1.626935394946542601e-01
3.131910899281501770e+01 -5.765601357817649841e+01 6.317181976977792601e-01
3.219789317250251770e+01 -5.789441689848899841e+01 6.186414154712167601e-01
3.394728282094001770e+01 -5.971973428130149841e+01 6.258893402759042601e-01
3.483864024281501770e+01 -5.988599404692649841e+01 6.106610687915292601e-01
2.494362071156501770e+01 -4.096094521880149841e+01 3.375592621509042601e-01
3.633937266469001770e+01 -5.967188271880149841e+01 5.722241791430917601e-01
3.510438731312751770e+01 -5.619129189848899841e+01 5.108228119555917601e-01
3.687562754750251770e+01 -5.781873330473899841e+01 5.141950043384042601e-01
3.177540782094001770e+01 -5.852198037505149841e+01 9.557538422290292601e-01
3.231141856312751770e+01 -5.808863076567649841e+01 9.322400482837167601e-01
3.353456309437751770e+01 -5.893335732817649841e+01 9.334607514087167601e-01
3.458680918812751770e+01 -5.940894326567649841e+01 9.269910248462167601e-01
2.494801524281501770e+01 -4.095398721098899841e+01 5.644574555102792601e-01
2.019581797719001770e+01 -3.100379189848899841e+01 3.602490814868417601e-01
3.681569102406501770e+01 -5.770008096098899841e+01 8.320050629321542601e-01
3.173451426625251770e+01 -5.842090615630149841e+01 1.266300717229029260e+00
3.231752207875251770e+01 -5.807923135161399841e+01 1.242878476018091760e+00
3.358033946156501770e+01 -5.899707803130149841e+01 1.251987973088404260e+00
3.477601817250251770e+01 -5.973011025786399841e+01 1.256016293400904260e+00
2.495509532094001770e+01 -4.095203408598899841e+01 7.902417572680917601e-01
3.634486582875251770e+01 -5.963990029692649841e+01 1.225605526799341760e+00
2.019899180531501770e+01 -3.099817666411399841e+01 5.355115326587167601e-01
2.041542246937751770e+01 -3.062073525786399841e+01 5.198560150805917601e-01
3.129591563344001770e+01 -5.754712685942649841e+01 1.550907650822779260e+00
3.196266368031501770e+01 -5.738477334380149841e+01 1.534611264104029260e+00
3.412172129750251770e+01 -5.997827920317649841e+01 1.600239315861841760e+00
2.020216563344001770e+01 -3.099256142973899841e+01 7.116589935962167601e-01
2.041847422719001770e+01 -3.061524209380149841e+01 6.940503510180917601e-01
3.126381114125251770e+01 -5.746338662505149841e+01 1.856068173283716760e+00
3.309962657094001770e+01 -5.951941689848899841e+01 1.916904965275904260e+00
3.385011485219001770e+01 -5.945386514067649841e+01 1.904438534611841760e+00
3.467286875844001770e+01 -5.671350869536399841e+01 1.778812924260279260e+00
2.020533946156501770e+01 -3.098706826567649841e+01 8.868451508227792601e-01
3.132399180531501770e+01 -5.755896767973899841e+01 2.166019955510279260e+00
3.342091563344001770e+01 -6.010657510161399841e+01 2.260731259221216760e+00
3.492189219594001770e+01 -5.992993935942649841e+01 2.236546078557154260e+00
3.517665293812751770e+01 -5.621656045317649841e+01 2.063068905705591760e+00
3.132045176625251770e+01 -5.753064736723899841e+01 2.473011532658716760e+00
3.245948985219001770e+01 -5.826331338286399841e+01 2.500019589299341760e+00
3.452174571156501770e+01 -6.065345010161399841e+01 2.600361386174341760e+00
3.481080821156501770e+01 -5.970813760161399841e+01 2.550663510197779260e+00
3.519508555531501770e+01 -5.622815713286399841e+01 2.375126400822779260e+00
3.133876231312751770e+01 -5.754492959380149841e+01 2.781925717229029260e+00
3.260121348500251770e+01 -5.851038369536399841e+01 2.824589291447779260e+00
3.480763438344001770e+01 -5.688660439848899841e+01 2.723164120549341760e+00
3.524269297719001770e+01 -5.628907021880149841e+01 2.688190976018091760e+00
8.319841414690017700e+00 -1.072083291411399841e+01 -8.956102935131582399e-01
8.404192000627517700e+00 -1.057776650786399841e+01 -8.966326323803457399e-01
8.489030867815017700e+00 -1.043824014067649841e+01 -8.980974761303457399e-01
8.573381453752517700e+00 -1.029956826567649841e+01 -8.995775786694082399e-01
8.609025985002517700e+00 -1.009046182036399841e+01 -8.970751372631582399e-01
8.473405867815017700e+00 -9.632576078176498413e+00 -8.806261626537832399e-01
8.341692000627517700e+00 -9.195686429738998413e+00 -8.648027983959707399e-01
8.376726180315017700e+00 -9.011848539113998413e+00 -8.631395903881582399e-01
8.990251570940017700e+00 -1.182752236723899841e+01 -8.789934722240957399e-01
9.074235945940017700e+00 -1.165943154692649841e+01 -8.802752105053457399e-01
9.161760360002517700e+00 -1.150037392973899841e+01 -8.814806548412832399e-01
9.221818953752517700e+00 -1.130091103911399841e+01 -8.810534087475332399e-01
9.292985945940017700e+00 -1.112403115630149841e+01 -8.815569487865957399e-01
9.378801375627517700e+00 -1.097290810942649841e+01 -8.832048980053457399e-01
9.460344344377517700e+00 -1.081739053130149841e+01 -8.849596587475332399e-01
9.544328719377517700e+00 -1.066931924223899841e+01 -8.865770903881582399e-01
1.023048594594001770e+01 -1.387732705473899841e+01 -8.891405669506582399e-01
1.026442149281501770e+01 -1.358277139067649841e+01 -8.868822661694082399e-01
1.029750254750251770e+01 -1.329529580473899841e+01 -8.846850005444082399e-01
1.032985118031501770e+01 -1.301380166411399841e+01 -8.825335112865957399e-01
1.036146739125251770e+01 -1.274012002348899841e+01 -8.804430571850332399e-01
1.039210703969001770e+01 -1.247266396880149841e+01 -8.783831206615957399e-01
1.042225840687751770e+01 -1.221057900786399841e+01 -8.763689605053457399e-01
1.047963145375251770e+01 -1.199536904692649841e+01 -8.762468901928457399e-01
1.214991953969001770e+01 -1.705030068755149841e+01 -9.178118315990957399e-01
1.210096934437751770e+01 -1.655127725005149841e+01 -9.105486480053457399e-01
1.209486582875251770e+01 -1.613684853911399841e+01 -9.065050689037832399e-01
1.210743907094001770e+01 -1.576282510161399841e+01 -9.036364165600332399e-01
1.211976817250251770e+01 -1.540076455473899841e+01 -9.008745757397207399e-01
1.213160899281501770e+01 -1.504859170317649841e+01 -8.981737700756582399e-01
1.214296153187751770e+01 -1.470471963286399841e+01 -8.955339995678457399e-01
1.216224864125251770e+01 -1.438294228911399841e+01 -8.939318267162832399e-01
1.458644297719001770e+01 -2.107727822661399841e+01 -9.377550689037832399e-01
1.464027598500251770e+01 -2.065552529692649841e+01 -9.377398101147207399e-01
1.469276621937751770e+01 -2.024414834380149841e+01 -9.377398101147207399e-01
1.467054942250251770e+01 -1.972681435942649841e+01 -9.340777007397207399e-01
1.466969493031501770e+01 -1.925952920317649841e+01 -9.315600005444082399e-01
1.461317637562751770e+01 -1.872364053130149841e+01 -9.263872710522207399e-01
1.458583262562751770e+01 -1.824549111723899841e+01 -9.227251616772207399e-01
1.469459727406501770e+01 -1.797669228911399841e+01 -9.258074370678457399e-01
1.757899668812751770e+01 -2.602149209380149841e+01 -9.380144683178457399e-01
1.770143321156501770e+01 -2.560169228911399841e+01 -9.413714019115957399e-01
1.780360606312751770e+01 -2.516028603911399841e+01 -9.446978179272207399e-01
1.765992930531501770e+01 -2.434803017973899841e+01 -9.379534331615957399e-01
1.767933848500251770e+01 -2.381201943755149841e+01 -9.379381743725332399e-01
1.769813731312751770e+01 -2.329090127348899841e+01 -9.379229155834707399e-01
1.771656993031501770e+01 -2.278223428130149841e+01 -9.379076567944082399e-01
1.771656993031501770e+01 -2.226367959380149841e+01 -9.378923980053457399e-01
1.927174571156501770e+01 -2.881250771880149841e+01 -8.423113433178457399e-01
1.943202403187751770e+01 -2.839209756255149841e+01 -8.491472808178457399e-01
1.959059336781501770e+01 -2.797901162505149841e+01 -8.559069243725332399e-01
1.976002696156501770e+01 -2.759009560942649841e+01 -8.629870024975332399e-01
1.993141368031501770e+01 -2.721448525786399841e+01 -8.701128569897207399e-01
2.014662364125251770e+01 -2.691187295317649841e+01 -8.786577788647207399e-01
2.037806895375251770e+01 -2.663550576567649841e+01 -8.877367583569082399e-01
2.061293223500251770e+01 -2.636951455473899841e+01 -8.969072905834707399e-01
1.988929942250251770e+01 -2.982349404692649841e+01 -6.922411528881582399e-01
2.009816172719001770e+01 -2.945948037505149841e+01 -7.015795317944082399e-01
2.032301524281501770e+01 -2.912781533598899841e+01 -7.103533355053457399e-01
2.055165293812751770e+01 -2.880542764067649841e+01 -7.200884429272207399e-01
2.079152110219001770e+01 -2.850757607817649841e+01 -7.300676909740957399e-01
2.103761485219001770e+01 -2.822303017973899841e+01 -7.401690093334707399e-01
2.129115489125251770e+01 -2.795069131255149841e+01 -7.513384429272207399e-01
2.155543711781501770e+01 -2.769898232817649841e+01 -7.618364898022207399e-01
2.098939707875251770e+01 -3.163159951567649841e+01 -5.374102202709707399e-01
2.114637950062751770e+01 -3.114380654692649841e+01 -5.472521392162832399e-01
2.134669688344001770e+01 -3.073633584380149841e+01 -5.576281157787832399e-01
2.155494883656501770e+01 -3.034741982817649841e+01 -5.680803862865957399e-01
2.177089121937751770e+01 -2.998011025786399841e+01 -5.785479155834707399e-01
2.199708750844001770e+01 -2.963465127348899841e+01 -5.891069976147207399e-01
2.223671153187751770e+01 -2.931226357817649841e+01 -5.998644439037832399e-01
2.249977305531501770e+01 -2.903015908598899841e+01 -6.109423247631582399e-01
2.163221934437751770e+01 -3.268286904692649841e+01 -3.614763823803457399e-01
2.175209239125251770e+01 -3.211182412505149841e+01 -3.728899565990957399e-01
2.187526133656501770e+01 -3.156128701567649841e+01 -3.841051665600332399e-01
2.205031016469001770e+01 -3.110315713286399841e+01 -3.955339995678457399e-01
2.228004649281501770e+01 -3.074036416411399841e+01 -4.071917144115957399e-01
2.248390391469001770e+01 -3.034558877348899841e+01 -4.185747710522207399e-01
2.271022227406501770e+01 -2.998889932036399841e+01 -4.300493804272207399e-01
2.295680430531501770e+01 -2.966907510161399841e+01 -4.416155425365957399e-01
3.300941661000251770e+01 -5.146656045317649841e+01 -1.394457427319082399e-01
3.363026621937751770e+01 -5.129004678130149841e+01 -1.589006987865957399e-01
3.425502207875251770e+01 -5.111243447661399841e+01 -1.784624663647207399e-01
2.422303965687751770e+01 -3.445105752348899841e+01 -2.116198149975332399e-01
2.394545176625251770e+01 -3.324890908598899841e+01 -2.257189360912832399e-01
2.390907481312751770e+01 -3.244507607817649841e+01 -2.390703765209707399e-01
2.374598887562751770e+01 -3.147962197661399841e+01 -2.519793120678457399e-01
2.374012950062751770e+01 -3.077051553130149841e+01 -2.644457427319082399e-01
3.458510020375251770e+01 -5.405127725005149841e+01 1.651502045337167601e-01
3.485023692250251770e+01 -5.324292764067649841e+01 1.413617523852792601e-01
3.540492442250251770e+01 -5.291162881255149841e+01 1.210217865649667601e-01
2.437721446156501770e+01 -3.467774209380149841e+01 -1.165338433347073988e-02
2.426185801625251770e+01 -3.371631631255149841e+01 -2.971979058347073988e-02
2.422792246937751770e+01 -3.290625771880149841e+01 -4.644342339597073988e-02
2.433387950062751770e+01 -3.232068642973899841e+01 -6.162591851315823988e-02
2.449757578969001770e+01 -3.183448037505149841e+01 -7.603021538815823988e-02
3.687770274281501770e+01 -5.781763467192649841e+01 5.141034516040292601e-01
3.529017832875251770e+01 -5.393518838286399841e+01 4.487958344165292601e-01
3.569130137562751770e+01 -5.334632119536399841e+01 4.236646088305917601e-01
2.459303477406501770e+01 -3.499939736723899841e+01 1.919293793384042601e-01
2.432606700062751770e+01 -3.380213174223899841e+01 1.670880707446542601e-01
2.424745371937751770e+01 -3.292420205473899841e+01 1.463971527759042601e-01
2.464637950062751770e+01 -3.276258096098899841e+01 1.348462494555917601e-01
2.458778575062751770e+01 -3.195191201567649841e+01 1.154218109790292601e-01
3.681764414906501770e+01 -5.769898232817649841e+01 8.319135101977792601e-01
3.786293223500251770e+01 -5.675659951567649841e+01 7.847180756274667601e-01
3.827943614125251770e+01 -5.612293252348899841e+01 7.583356293384042601e-01
2.498280528187751770e+01 -3.478296670317649841e+01 3.811078461352792601e-01
2.513319590687751770e+01 -3.422303017973899841e+01 3.618665131274667601e-01
2.450184825062751770e+01 -3.254261025786399841e+01 3.243909271899667601e-01
2.457472422719001770e+01 -3.192298135161399841e+01 3.048444184009042601e-01
2.041566661000251770e+01 -3.061878213286399841e+01 5.197797211352792601e-01
3.809462168812751770e+01 -5.710327920317649841e+01 1.111027279729029260e+00
3.888087657094001770e+01 -5.703308877348899841e+01 1.095966854924341760e+00
3.910951426625251770e+01 -5.611133584380149841e+01 1.061680355900904260e+00
2.524342539906501770e+01 -3.437488564848899841e+01 5.652356537524667601e-01
2.471327403187751770e+01 -3.283777627348899841e+01 5.228314789477792601e-01
2.551686289906501770e+01 -3.324720010161399841e+01 5.244489105884042601e-01
2.042067149281501770e+01 -3.061646279692649841e+01 6.940656098071542601e-01
3.794813731312751770e+01 -5.685303506255149841e+01 1.425953427189966760e+00
3.884730723500251770e+01 -5.696216592192649841e+01 1.417698422307154260e+00
3.984852793812751770e+01 -5.720887002348899841e+01 1.413136044377466760e+00
3.822511485219001770e+01 -5.354956826567649841e+01 1.299824276799341760e+00
2.566603282094001770e+01 -3.420520791411399841e+01 7.552228363696542601e-01
2.592299082875251770e+01 -3.381177529692649841e+01 7.371259125415292601e-01
3.784205821156501770e+01 -5.416114053130149841e+01 1.636265316838404260e+00
3.834596446156501770e+01 -5.371070107817649841e+01 1.612217465275904260e+00
2.588600352406501770e+01 -3.374817666411399841e+01 9.365277680102792601e-01
3.833021739125251770e+01 -5.366992959380149841e+01 1.920261898869654260e+00
3.826405528187751770e+01 -5.355493935942649841e+01 2.222950497502466760e+00
3.789540293812751770e+01 -5.418824014067649841e+01 2.566395321721216760e+00
3.847352793812751770e+01 -5.384668740630149841e+01 2.546391049260279260e+00
8.376482039690017700e+00 -9.010749906301498413e+00 -8.630938140209707399e-01
8.414079695940017700e+00 -8.834968656301498413e+00 -8.614611235912832399e-01
8.446794539690017700e+00 -8.656623929738998413e+00 -8.598589507397207399e-01
8.479021102190017700e+00 -8.480964750051498413e+00 -8.582720366772207399e-01
8.510515242815017700e+00 -8.309089750051498413e+00 -8.567156401928457399e-01
8.546037703752517700e+00 -8.146003812551498413e+00 -8.555407134350332399e-01
8.591447860002517700e+00 -7.998176664113998413e+00 -8.551897612865957399e-01
8.632341414690017700e+00 -7.848518460988998413e+00 -8.548693267162832399e-01
9.544206649065017700e+00 -1.066822060942649841e+01 -8.865465728100332399e-01
9.623308211565017700e+00 -1.051575478911399841e+01 -8.882708159740957399e-01
9.705461531877517700e+00 -1.037000283598899841e+01 -8.898729888256582399e-01
9.783342391252517700e+00 -1.021985635161399841e+01 -8.915667144115957399e-01
9.860246688127517700e+00 -1.007166299223899841e+01 -8.932299224194082399e-01
9.936418563127517700e+00 -9.924934476613998413e+00 -8.948931304272207399e-01
1.000844004750251770e+01 -9.774299710988998413e+00 -8.966326323803457399e-01
1.008314707875251770e+01 -9.630378812551498413e+00 -8.982653228100332399e-01
1.047926524281501770e+01 -1.199390420317649841e+01 -8.762011138256582399e-01
1.053126719594001770e+01 -1.177613076567649841e+01 -8.762011138256582399e-01
1.058253672719001770e+01 -1.156201943755149841e+01 -8.761858550365957399e-01
1.063307383656501770e+01 -1.135071572661399841e+01 -8.761858550365957399e-01
1.069166758656501770e+01 -1.115552529692649841e+01 -8.767504302319082399e-01
1.076771739125251770e+01 -1.098633584380149841e+01 -8.784594146069082399e-01
1.083070567250251770e+01 -1.080298623442649841e+01 -8.793902007397207399e-01
1.089271739125251770e+01 -1.062256631255149841e+01 -8.802904692944082399e-01
1.216176036000251770e+01 -1.438098916411399841e+01 -8.938860503490957399e-01
1.222657969594001770e+01 -1.413147744536399841e+01 -8.943743315990957399e-01
1.228065684437751770e+01 -1.387244424223899841e+01 -8.947863189037832399e-01
1.233387950062751770e+01 -1.361695107817649841e+01 -8.951830474194082399e-01
1.238600352406501770e+01 -1.336682900786399841e+01 -8.955797759350332399e-01
1.242250254750251770e+01 -1.310193642973899841e+01 -8.951372710522207399e-01
1.242469981312751770e+01 -1.279920205473899841e+01 -8.928331939037832399e-01
1.246376231312751770e+01 -1.255030068755149841e+01 -8.930925933178457399e-01
1.469459727406501770e+01 -1.797510537505149841e+01 -9.257921782787832399e-01
1.481031993031501770e+01 -1.772132119536399841e+01 -9.296526519115957399e-01
1.497084239125251770e+01 -1.753308877348899841e+01 -9.357256499584707399e-01
1.509681895375251770e+01 -1.729920205473899841e+01 -9.401201812084707399e-01
1.511549571156501770e+01 -1.692981728911399841e+01 -9.393419829662832399e-01
1.505946543812751770e+01 -1.647400674223899841e+01 -9.349932280834707399e-01
1.504396250844001770e+01 -1.608045205473899841e+01 -9.326433745678457399e-01
1.509095957875251770e+01 -1.577527627348899841e+01 -9.333452788647207399e-01
1.771547129750251770e+01 -2.226038369536399841e+01 -9.378466216381582399e-01
1.774025157094001770e+01 -2.179077920317649841e+01 -9.378313628490957399e-01
1.774708750844001770e+01 -2.130884560942649841e+01 -9.378161040600332399e-01
1.775392344594001770e+01 -2.083777627348899841e+01 -9.378008452709707399e-01
1.776051524281501770e+01 -2.038025674223899841e+01 -9.377855864819082399e-01
1.776698496937751770e+01 -1.993421182036399841e+01 -9.377703276928457399e-01
1.777308848500251770e+01 -1.949756631255149841e+01 -9.377550689037832399e-01
1.776295664906501770e+01 -1.905323037505149841e+01 -9.377398101147207399e-01
2.061354258656501770e+01 -2.636853799223899841e+01 -8.969378081615957399e-01
2.086293223500251770e+01 -2.612561807036399841e+01 -9.069628325756582399e-01
2.112343028187751770e+01 -2.589917764067649841e+01 -9.173540679272207399e-01
2.138441661000251770e+01 -2.567237100005149841e+01 -9.277605620678457399e-01
2.164210703969001770e+01 -2.544397744536399841e+01 -9.380602446850332399e-01
2.159047129750251770e+01 -2.482056435942649841e+01 -9.380449858959707399e-01
2.154042246937751770e+01 -2.421411904692649841e+01 -9.380297271069082399e-01
2.149159434437751770e+01 -2.362732705473899841e+01 -9.379992095287832399e-01
2.155616953969001770e+01 -2.769800576567649841e+01 -7.618670073803457399e-01
2.182155039906501770e+01 -2.744947060942649841e+01 -7.726854888256582399e-01
2.210548594594001770e+01 -2.722766885161399841e+01 -7.830767241772207399e-01
2.233436778187751770e+01 -2.693042764067649841e+01 -7.929644194897207399e-01
2.253932383656501770e+01 -2.660742959380149841e+01 -8.021959868725332399e-01
2.274720957875251770e+01 -2.629236611723899841e+01 -8.114733306225332399e-01
2.294899180531501770e+01 -2.597168740630149841e+01 -8.214678374584707399e-01
2.317006114125251770e+01 -2.568091592192649841e+01 -8.310350982006582399e-01
2.250062754750251770e+01 -2.902918252348899841e+01 -6.109881011303457399e-01
2.274879649281501770e+01 -2.872913369536399841e+01 -6.219591704662832399e-01
2.300184825062751770e+01 -2.843860635161399841e+01 -6.329912749584707399e-01
2.269752696156501770e+01 -2.740589150786399841e+01 -6.340746489819082399e-01
2.283925059437751770e+01 -2.699048623442649841e+01 -6.428789702709707399e-01
2.313026621937751770e+01 -2.677381142973899841e+01 -6.543383208569082399e-01
2.343361094594001770e+01 -2.657068642973899841e+01 -6.660723296459707399e-01
2.374684336781501770e+01 -2.638086709380149841e+01 -6.779589263256582399e-01
2.295765879750251770e+01 -2.966797646880149841e+01 -4.416460601147207399e-01
2.321412852406501770e+01 -2.936621865630149841e+01 -4.533037749584707399e-01
2.347267344594001770e+01 -2.906995400786399841e+01 -4.649309722240957399e-01
2.375502207875251770e+01 -2.880591592192649841e+01 -4.768023101147207399e-01
2.405800059437751770e+01 -2.857227334380149841e+01 -4.888414946850332399e-01
2.436195567250251770e+01 -2.834009560942649841e+01 -5.008959380444082399e-01
2.467823985219001770e+01 -2.812122353911399841e+01 -5.131029692944082399e-01
2.502760508656501770e+01 -2.794446572661399841e+01 -5.256914702709707399e-01
2.373939707875251770e+01 -3.076709756255149841e+01 -2.644915190990957399e-01
2.384449961781501770e+01 -3.023194131255149841e+01 -2.766985503490957399e-01
2.411537364125251770e+01 -2.993470010161399841e+01 -2.890429107006582399e-01
2.439064219594001770e+01 -2.964331826567649841e+01 -3.014025298412832399e-01
2.466395762562751770e+01 -2.935376748442649841e+01 -3.136705962475332399e-01
2.496852305531501770e+01 -2.910633096098899841e+01 -3.259996978100332399e-01
2.532509043812751770e+01 -2.892224892973899841e+01 -3.385881987865957399e-01
2.568397715687751770e+01 -2.874097451567649841e+01 -3.511614409740957399e-01
2.449696543812751770e+01 -3.183118447661399841e+01 -7.609125054440823988e-02
2.494886973500251770e+01 -3.175562295317649841e+01 -8.825250542722073988e-02
2.548781016469001770e+01 -3.179090127348899841e+01 -1.000933257397207399e-01
2.631141856312751770e+01 -3.219153603911399841e+01 -1.107744780834707399e-01
2.624635508656501770e+01 -3.140833291411399841e+01 -1.259722319897207399e-01
2.684999278187751770e+01 -3.150122842192649841e+01 -1.380877105053457399e-01
2.779640391469001770e+01 -3.200672158598899841e+01 -1.493944732006582399e-01
4.060426524281501770e+01 -4.703272256255149841e+01 -1.275286284740957399e-01
2.459205821156501770e+01 -3.195557412505149841e+01 1.154218109790292601e-01
2.480616953969001770e+01 -3.154712685942649841e+01 1.007886322680917601e-01
2.537709239125251770e+01 -3.163025674223899841e+01 9.010747992434176012e-02
2.575660899281501770e+01 -3.144275674223899841e+01 7.761053168215426012e-02
2.661000254750251770e+01 -3.187256631255149841e+01 7.078985297121676012e-02
2.730690196156501770e+01 -3.207495889067649841e+01 6.151250922121676012e-02
2.769874766469001770e+01 -3.187439736723899841e+01 4.948858343996676012e-02
2.870704844594001770e+01 -3.242981728911399841e+01 4.265264593996676012e-02
2.457899668812751770e+01 -3.192652139067649841e+01 3.048749359790292601e-01
2.560243418812751770e+01 -3.264173135161399841e+01 3.071790131274667601e-01
2.585170176625251770e+01 -3.226502236723899841e+01 2.919354828540292601e-01
2.621156504750251770e+01 -3.203809365630149841e+01 2.790112885180917601e-01
2.675892832875251770e+01 -3.205652627348899841e+01 2.698102387134042601e-01
2.758265879750251770e+01 -3.241699990630149841e+01 2.654920014087167601e-01
2.792946055531501770e+01 -3.215308389067649841e+01 2.517438324634042601e-01
2.817408946156501770e+01 -3.176648721098899841e+01 2.363019379321542601e-01
2.552089121937751770e+01 -3.325049600005149841e+01 5.244946869555917601e-01
2.572804453969001770e+01 -3.280542764067649841e+01 5.059399994555917601e-01
2.584425547719001770e+01 -3.224451455473899841e+01 4.860425385180917601e-01
2.687819102406501770e+01 -3.291468057036399841e+01 4.921918305102792601e-01
2.678724864125251770e+01 -3.208325967192649841e+01 4.666638764087167601e-01
2.751649668812751770e+01 -3.232227334380149841e+01 4.634442719165292601e-01
2.844850352406501770e+01 -3.279212197661399841e+01 4.646344574634042601e-01
2.902662852406501770e+01 -3.280127725005149841e+01 4.573407562915292601e-01
2.592347911000251770e+01 -3.380982217192649841e+01 7.370496185962167601e-01
2.567909434437751770e+01 -3.272693642973899841e+01 7.010388764087167601e-01
2.739784434437751770e+01 -3.434387978911399841e+01 7.382398041430917601e-01
2.727809336781501770e+01 -3.343592080473899841e+01 7.070203217212167601e-01
2.726869395375251770e+01 -3.270032510161399841e+01 6.806378754321542601e-01
2.802894786000251770e+01 -3.296595010161399841e+01 6.808972748462167601e-01
2.871534922719001770e+01 -3.311560830473899841e+01 6.778912934009042601e-01
2.904432871937751770e+01 -3.281275185942649841e+01 6.629529389087167601e-01
2.588673594594001770e+01 -3.374658975005149841e+01 9.364667328540292601e-01
2.739601328969001770e+01 -3.433032998442649841e+01 9.442639740649667601e-01
2.789772227406501770e+01 -3.350916299223899841e+01 9.069409760180917601e-01
2.869386485219001770e+01 -3.380396279692649841e+01 9.110913666430917601e-01
2.877577403187751770e+01 -3.318079385161399841e+01 8.855939301196542601e-01
2.738282969594001770e+01 -3.430152139067649841e+01 1.150669613713404260e+00
2.825514414906501770e+01 -3.396387490630149841e+01 1.130207577580591760e+00
2.736232188344001770e+01 -3.426258096098899841e+01 1.355244198674341760e+00
2.734205821156501770e+01 -3.422425088286399841e+01 1.560535946721216760e+00
8.632341414690017700e+00 -7.847786039113998413e+00 -8.548540679272207399e-01
8.675554305315017700e+00 -7.703498929738998413e+00 -8.545183745678457399e-01
8.714494735002517700e+00 -7.556892484426498413e+00 -8.542284575756582399e-01
8.753191024065017700e+00 -7.411628812551498413e+00 -8.539232817944082399e-01
8.791032820940017700e+00 -7.268928617238998413e+00 -8.536333648022207399e-01
8.828630477190017700e+00 -7.128059476613998413e+00 -8.533587065990957399e-01
8.887346297502517700e+00 -7.012214750051498413e+00 -8.546862212475332399e-01
8.941423445940017700e+00 -6.893318265676498413e+00 -8.559984771069082399e-01
1.008339121937751770e+01 -9.629768460988998413e+00 -8.982653228100332399e-01
1.015333750844001770e+01 -9.482063382863998413e+00 -8.999895659740957399e-01
1.022645762562751770e+01 -9.339973539113998413e+00 -9.015917388256582399e-01
9.589006453752517700e+00 -8.376472562551498413e+00 -8.545946685131582399e-01
9.608659774065017700e+00 -8.193855375051498413e+00 -8.531756011303457399e-01
9.648454695940017700e+00 -8.037239164113998413e+00 -8.531756011303457399e-01
9.698259383440017700e+00 -7.893440335988998413e+00 -8.541979399975332399e-01
9.758317977190017700e+00 -7.763679593801498413e+00 -8.556475249584707399e-01
1.089296153187751770e+01 -1.062195596098899841e+01 -8.802904692944082399e-01
1.094935801625251770e+01 -1.043787392973899841e+01 -8.812670317944082399e-01
1.100490000844001770e+01 -1.025611123442649841e+01 -8.822283355053457399e-01
1.107020762562751770e+01 -1.008777627348899841e+01 -8.837999907787832399e-01
1.114015391469001770e+01 -9.927986234426498413e+00 -8.857073394115957399e-01
1.120936778187751770e+01 -9.769661039113998413e+00 -8.875841704662832399e-01
1.127821543812751770e+01 -9.612312406301498413e+00 -8.894610015209707399e-01
1.134633067250251770e+01 -9.456916898488998413e+00 -8.913073149975332399e-01
1.246412852406501770e+01 -1.254993447661399841e+01 -8.931078521069082399e-01
1.252369883656501770e+01 -1.233094033598899841e+01 -8.940233794506582399e-01
1.254799082875251770e+01 -1.207434853911399841e+01 -8.934740630444082399e-01
1.253846934437751770e+01 -1.178296670317649841e+01 -8.910936919506582399e-01
1.253358653187751770e+01 -1.150464639067649841e+01 -8.890184966381582399e-01
1.257118418812751770e+01 -1.127979287505149841e+01 -8.893084136303457399e-01
1.258119395375251770e+01 -1.102832803130149841e+01 -8.881182280834707399e-01
1.259071543812751770e+01 -1.078247842192649841e+01 -8.873552886303457399e-01
1.509120371937751770e+01 -1.577429971098899841e+01 -9.333605376537832399e-01
1.512574961781501770e+01 -1.546057900786399841e+01 -9.338945952709707399e-01
1.510304453969001770e+01 -1.508582314848899841e+01 -9.316973296459707399e-01
1.512977793812751770e+01 -1.477600869536399841e+01 -9.318956939037832399e-01
1.515590098500251770e+01 -1.447327432036399841e+01 -9.320940581615957399e-01
1.517653086781501770e+01 -1.417066201567649841e+01 -9.320482817944082399e-01
1.513099864125251770e+01 -1.380127725005149841e+01 -9.288744536694082399e-01
1.508680918812751770e+01 -1.344348916411399841e+01 -9.257921782787832399e-01
1.776259043812751770e+01 -1.905127725005149841e+01 -9.377245513256582399e-01
1.777540782094001770e+01 -1.864551553130149841e+01 -9.377092925365957399e-01
1.778969004750251770e+01 -1.825061807036399841e+01 -9.384264556225332399e-01
1.780494883656501770e+01 -1.786438760161399841e+01 -9.391741362865957399e-01
1.780275157094001770e+01 -1.746814736723899841e+01 -9.392046538647207399e-01
1.780067637562751770e+01 -1.708094033598899841e+01 -9.392351714428457399e-01
1.779872325062751770e+01 -1.670105752348899841e+01 -9.392656890209707399e-01
1.778712657094001770e+01 -1.632068642973899841e+01 -9.395250884350332399e-01
2.149086192250251770e+01 -2.362464150786399841e+01 -9.379839507397207399e-01
2.143312266469001770e+01 -2.304212197661399841e+01 -9.379686919506582399e-01
2.137684825062751770e+01 -2.247608193755149841e+01 -9.379534331615957399e-01
2.132191661000251770e+01 -2.192407998442649841e+01 -9.379381743725332399e-01
2.126881602406501770e+01 -2.138928994536399841e+01 -9.379229155834707399e-01
2.121693614125251770e+01 -2.086902627348899841e+01 -9.378923980053457399e-01
2.116664317250251770e+01 -2.036133584380149841e+01 -9.378923980053457399e-01
2.111757090687751770e+01 -1.986866006255149841e+01 -9.378771392162832399e-01
2.317054942250251770e+01 -2.567969521880149841e+01 -8.310656157787832399e-01
2.338807871937751770e+01 -2.538721475005149841e+01 -8.408007232006582399e-01
2.361683848500251770e+01 -2.511035928130149841e+01 -8.499559966381582399e-01
2.384938243031501770e+01 -2.483777627348899841e+01 -8.600878325756582399e-01
2.408046153187751770e+01 -2.456702432036399841e+01 -8.701586333569082399e-01
2.439369395375251770e+01 -2.438904580473899841e+01 -8.824266997631582399e-01
2.473292735219001770e+01 -2.423535928130149841e+01 -8.963121978100332399e-01
2.509767344594001770e+01 -2.410755166411399841e+01 -9.100298491772207399e-01
2.374806407094001770e+01 -2.638037881255149841e+01 -6.780047026928457399e-01
2.407545664906501770e+01 -2.620606240630149841e+01 -6.903643218334707399e-01
2.443397715687751770e+01 -2.606580361723899841e+01 -7.033495513256582399e-01
2.479811289906501770e+01 -2.592615517973899841e+01 -7.165178862865957399e-01
2.518995860219001770e+01 -2.581568154692649841e+01 -7.302660552319082399e-01
2.558583262562751770e+01 -2.570447549223899841e+01 -7.441362944897207399e-01
2.601930430531501770e+01 -2.562720498442649841e+01 -7.588610259350332399e-01
2.646046641469001770e+01 -2.555323037505149841e+01 -7.737993804272207399e-01
2.502919200062751770e+01 -2.794434365630149841e+01 -5.257372466381582399e-01
2.540382578969001770e+01 -2.779529580473899841e+01 -5.387224761303457399e-01
2.577003672719001770e+01 -2.763220986723899841e+01 -5.516619292553457399e-01
2.616505625844001770e+01 -2.749683389067649841e+01 -5.650438872631582399e-01
2.657435801625251770e+01 -2.737476357817649841e+01 -5.786547271069082399e-01
2.700697520375251770e+01 -2.727332314848899841e+01 -5.926470366772207399e-01
2.750856211781501770e+01 -2.723877725005149841e+01 -6.077074614819082399e-01
2.803102305531501770e+01 -2.721949014067649841e+01 -6.231493560131582399e-01
2.568556407094001770e+01 -2.874073037505149841e+01 -3.512072173412832399e-01
2.607264903187751770e+01 -2.859070596098899841e+01 -3.639177886303457399e-01
2.646620371937751770e+01 -2.844385537505149841e+01 -3.767351714428457399e-01
2.684840586781501770e+01 -2.827735146880149841e+01 -3.896135894115957399e-01
2.731422618031501770e+01 -2.820362100005149841e+01 -4.030108062084707399e-01
2.780983164906501770e+01 -2.815540322661399841e+01 -4.167589751537832399e-01
2.838344004750251770e+01 -2.818152627348899841e+01 -4.312090483959707399e-01
2.901808360219001770e+01 -2.826319131255149841e+01 -4.462694732006582399e-01
4.060585215687751770e+01 -4.703125771880149841e+01 -1.276049224194082399e-01
4.107838633656501770e+01 -4.661670693755149841e+01 -1.471972075756582399e-01
2.991188243031501770e+01 -3.249341592192649841e+01 -1.879686919506582399e-01
4.189357188344001770e+01 -4.563452920317649841e+01 -1.866106597240957399e-01
4.228224375844001770e+01 -4.512818154692649841e+01 -2.062029448803457399e-01
4.266322520375251770e+01 -4.461707314848899841e+01 -2.257189360912832399e-01
4.298842051625251770e+01 -4.404590615630149841e+01 -2.452196685131582399e-01
4.328773692250251770e+01 -4.345679482817649841e+01 -2.645067778881582399e-01
2.870778086781501770e+01 -3.242835244536399841e+01 4.260686957277926012e-02
2.902113536000251770e+01 -3.211536416411399841e+01 2.869085394777926012e-02
2.985389903187751770e+01 -3.241516885161399841e+01 1.831487738527926012e-02
3.043312266469001770e+01 -3.239624795317649841e+01 6.290951604029260125e-03
5.102137950062751770e+01 -5.499829873442649841e+01 1.492810639087167601e-01
5.124794200062751770e+01 -5.412012490630149841e+01 1.232343109790292601e-01
5.148524668812751770e+01 -5.326477822661399841e+01 9.938482367434176012e-02
4.955751231312751770e+01 -5.012146767973899841e+01 6.073431097902926012e-02
2.817408946156501770e+01 -3.176416787505149841e+01 2.362409027759042601e-01
2.921046641469001770e+01 -3.233301553130149841e+01 2.346082123462167601e-01
2.979139903187751770e+01 -3.233167275786399841e+01 2.247357758227792601e-01
3.028285411000251770e+01 -3.221302041411399841e+01 2.131085785571542601e-01
