-3.116495516151189804e-01 -1.804763561487197876e+01 -2.344687704462558031e-01
-1.730997469276189804e-01 -1.800063854455947876e+01 -2.316611532587558031e-01
-3.503822349011898041e-02 -1.795376354455947876e+01 -2.288535360712558031e-01
1.016805265098810196e-01 -1.790725475549697876e+01 -2.260764364618808031e-01
2.376668546348810196e-01 -1.785488659143447876e+01 -2.231009725946933031e-01
-8.544962313026189804e-01 -1.986147838830947876e+01 -2.177603964228183031e-01
-7.026407625526189804e-01 -1.986416393518447876e+01 -2.165549520868808031e-01
-5.512735750526189804e-01 -1.987661510705947876e+01 -2.152121786493808031e-01
-3.989298250526189804e-01 -1.987930065393447876e+01 -2.140067343134433031e-01
-2.470743563026189804e-01 -1.988186413049697876e+01 -2.128165487665683031e-01
-9.485267661511898041e-02 -1.988454967737197876e+01 -2.116111044306308031e-01
5.700279213488101959e-02 -1.987734752893447876e+01 -2.105582479853183031e-01
2.086141202598810196e-01 -1.988003307580947876e+01 -2.093680624384433031e-01
-1.028446426615118980e+00 -2.225661998987197876e+01 -1.953757528681308031e-01
-8.577921297401189804e-01 -2.227786022424697876e+01 -1.945212606806308031e-01
-6.859171297401189804e-01 -2.228176647424697876e+01 -1.932090048212558031e-01
-5.135538484901189804e-01 -2.228579479455947876e+01 -1.918814901728183031e-01
-3.418009188026189804e-01 -2.228982311487197876e+01 -1.905844931025058031e-01
-1.710245516151189804e-01 -2.234280163049697876e+01 -1.905081991571933031e-01
-1.261141151189804077e-04 -2.239846569299697876e+01 -1.905234579462558031e-01
1.712606046348810196e-01 -2.248208385705947876e+01 -1.912253622431308031e-01
-1.226688614115118980e+00 -2.498464733362197876e+01 -1.585257772821933031e-01
-1.017215957865118980e+00 -2.475527721643447876e+01 -1.521018270868808031e-01
-8.120157625526189804e-01 -2.453042370080947876e+01 -1.457999472040683031e-01
-6.101114656776189804e-01 -2.430947643518447876e+01 -1.396201376337558031e-01
-4.129679109901189804e-01 -2.409353405237197876e+01 -1.335776571650058031e-01
-2.189981844276189804e-01 -2.388113170862197876e+01 -1.276267294306308031e-01
-2.942298911511898041e-02 -2.367349010705947876e+01 -1.218131307978183031e-01
1.564900968223810196e-01 -2.346987682580947876e+01 -1.161216024775058031e-01
-1.469486465677618980e+00 -2.832522350549697876e+01 -1.061576132196933031e-01
-1.225345840677618980e+00 -2.798916393518447876e+01 -9.884865325875580311e-02
-9.843790438026189804e-01 -2.760732799768447876e+01 -9.082253021188080311e-02
-7.491495516151189804e-01 -2.722353893518447876e+01 -8.282692474313080311e-02
-5.162393953651189804e-01 -2.671511608362197876e+01 -7.283241790719330311e-02
-3.007852938026189804e-01 -2.651345592737197876e+01 -6.790382904000580311e-02
-8.752845786511898041e-02 -2.622451549768447876e+01 -6.160194915719330311e-02
1.207234952598810196e-01 -2.594253307580947876e+01 -5.543739837594330311e-02
-1.385502090677618980e+00 -2.715578991174697876e+01 3.062217193655669689e-02
-1.184086075052618980e+00 -2.733376842737197876e+01 3.011863189749419689e-02
-1.100956192240118980e+00 -2.968142467737197876e+01 3.781961975619196892e-03
-8.498575594276189804e-01 -2.932681041955947876e+01 9.763407288119196892e-03
-6.058390047401189804e-01 -2.898257213830947876e+01 1.557700592093169689e-02
-3.673136141151189804e-01 -2.864565807580947876e+01 2.126853424124419689e-02
-1.391642000526189804e-01 -2.848220592737197876e+01 2.488486724905669689e-02
4.357505775988101959e-02 -3.130434948205947876e+01 -6.151509704068303108e-03
-1.390751114115118980e+00 -2.721816784143447876e+01 1.480995889287441969e-01
-1.201053848490118980e+00 -2.758474498987197876e+01 1.469856973271816969e-01
-1.010257950052618980e+00 -2.804031139612197876e+01 1.446205850224941969e-01
-8.947794344276189804e-01 -3.025356823205947876e+01 1.301705117803066969e-01
-6.527140047401189804e-01 -3.015310436487197876e+01 1.326576943974941969e-01
-3.602335359901189804e-01 -2.838430553674697876e+01 1.470619912724941969e-01
-1.295206453651189804e-01 -2.801345592737197876e+01 1.519753213506191969e-01
9.057212807238101959e-02 -2.793606334924697876e+01 1.541420693974941969e-01
-1.419193496927618980e+00 -2.759951549768447876e+01 2.646004434209316969e-01
-1.250126114115118980e+00 -2.833718639612197876e+01 2.641121621709316969e-01
-1.005375137552618980e+00 -2.793935924768447876e+01 2.667977090459316969e-01
-7.858927156776189804e-01 -2.794436413049697876e+01 2.683693643193691969e-01
-5.872843172401189804e-01 -2.846267467737197876e+01 2.686135049443691969e-01
-3.584024813026189804e-01 -2.829897838830947876e+01 2.706429238896816969e-01
-1.319620516151189804e-01 -2.808010631799697876e+01 2.727791543584316969e-01
7.995201088488101959e-02 -2.861367565393447876e+01 2.730843301396816969e-01
-1.418827285990118980e+00 -2.758291393518447876e+01 3.845192666631191969e-01
-1.236576309427618980e+00 -2.811440807580947876e+01 3.863655801396816969e-01
-9.970743563026189804e-01 -2.777468639612197876e+01 3.872658486943691969e-01
-8.018839266151189804e-01 -2.826260143518447876e+01 3.897530313115566969e-01
-5.751993563026189804e-01 -2.813259655237197876e+01 3.910500283818691969e-01
-3.564493563026189804e-01 -2.820351940393447876e+01 3.927437539678066969e-01
-1.427042391151189804e-01 -2.851492077112197876e+01 3.949562783818691969e-01
8.092857338488101959e-02 -2.847829967737197876e+01 3.970925088506191969e-01
-1.230839004740118980e+00 -2.498281627893447876e+01 4.871346231084316969e-01
-1.021244278177618980e+00 -2.475161510705947876e+01 4.869820352178066969e-01
-8.160440828651189804e-01 -2.452505260705947876e+01 4.868294473271816969e-01
-6.142618563026189804e-01 -2.430447155237197876e+01 4.866768594365566969e-01
-4.173624422401189804e-01 -2.409072643518447876e+01 4.865547891240566969e-01
-2.235147859901189804e-01 -2.388039928674697876e+01 4.864327188115566969e-01
-3.406166099011898041e-02 -2.367471081018447876e+01 4.863106484990566969e-01
1.518514249473810196e-01 -2.347305065393447876e+01 4.861885781865566969e-01
-1.234745254740118980e+00 -2.502676159143447876e+01 5.954567666631191969e-01
-1.025150528177618980e+00 -2.480093151330947876e+01 5.936714883428066969e-01
-8.197061922401189804e-01 -2.457888561487197876e+01 5.924965615849941969e-01
-6.176798250526189804e-01 -2.436050182580947876e+01 5.913368936162441969e-01
-4.202921297401189804e-01 -2.414712291955947876e+01 5.901924844365566969e-01
-2.259561922401189804e-01 -2.393703991174697876e+01 5.890785928349941969e-01
-3.601478599011898041e-02 -2.373183971643447876e+01 5.879799600224941969e-01
1.502645108848810196e-01 -2.352981334924697876e+01 5.874459024053066969e-01
-1.239750137552618980e+00 -2.508633190393447876e+01 7.038094277959316969e-01
-1.029056778177618980e+00 -2.485036998987197876e+01 7.013832803349941969e-01
-8.227579500526189804e-01 -2.461916881799697876e+01 6.990029092412441969e-01
-6.199991609901189804e-01 -2.439199596643447876e+01 6.966530557256191969e-01
-4.218790438026189804e-01 -2.417019420862197876e+01 6.943642373662441969e-01
-2.271768953651189804e-01 -2.395205456018447876e+01 6.921211953740566969e-01
-3.699134849011898041e-02 -2.373904186487197876e+01 6.899239297490566969e-01
1.495320890098810196e-01 -2.353005748987197876e+01 6.877571817021816969e-01
-1.561649551615118980e+00 -2.950356823205947876e+01 9.013039346318691969e-01
-1.298588028177618980e+00 -2.902566295862197876e+01 8.930641885381191969e-01
-1.075809707865118980e+00 -2.912087780237197876e+01 8.964211221318691969e-01
-8.527872469276189804e-01 -2.925784069299697876e+01 8.999611611943691969e-01
-6.052286531776189804e-01 -2.880373913049697876e+01 8.921334024053066969e-01
-3.746378328651189804e-01 -2.867410045862197876e+01 8.915535684209316969e-01
3.649497963488101959e-02 -3.129275280237197876e+01 9.481941934209316969e-01
-1.535160293802618980e+00 -2.912893444299697876e+01 1.020627665100619197e+00
-1.326664200052618980e+00 -2.944839245080947876e+01 1.029279398499056697e+00
-8.339884188026189804e-01 -2.884487682580947876e+01 1.017011332092806697e+00
-6.054727938026189804e-01 -2.878738170862197876e+01 1.016950296936556697e+00
3.515220619738101959e-02 -3.130727916955947876e+01 1.085096048889681697e+00
3.482625577598810196e-01 -1.012246471643447876e+01 -1.906913046259433031e-01
4.188191983848810196e-01 -1.012515026330947876e+01 -1.901419882196933031e-01
4.894979093223810196e-01 -1.014260631799697876e+01 -1.907065634150058031e-01
5.607869718223810196e-01 -1.016213756799697876e+01 -1.914084677118808031e-01
6.321981046348810196e-01 -1.018166881799697876e+01 -1.920951132196933031e-01
7.038533780723810196e-01 -1.019094616174697876e+01 -1.921561483759433031e-01
7.750203702598810196e-01 -1.019045788049697876e+01 -1.916068319696933031e-01
8.461873624473810196e-01 -1.018618541955947876e+01 -1.910269979853183031e-01
3.373982999473810196e-01 -1.088235241174697876e+01 -1.952231649775058031e-01
4.141805265098810196e-01 -1.090542370080947876e+01 -1.959861044306308031e-01
4.913289640098810196e-01 -1.092861706018447876e+01 -1.967490438837558031e-01
5.693318936973810196e-01 -1.095657116174697876e+01 -1.975577597040683031e-01
6.473348233848810196e-01 -1.098013073205947876e+01 -1.983359579462558031e-01
7.254598233848810196e-01 -1.098110729455947876e+01 -1.980460409540683031e-01
8.032186124473810196e-01 -1.098061901330947876e+01 -1.974509481806308031e-01
8.810994718223810196e-01 -1.098013073205947876e+01 -1.968558554071933031e-01
3.232381436973810196e-01 -1.188076549768447876e+01 -2.053702597040683031e-01
4.083211515098810196e-01 -1.189529186487197876e+01 -2.055075888056308031e-01
4.937703702598810196e-01 -1.190932995080947876e+01 -2.056144003290683031e-01
5.797078702598810196e-01 -1.192336803674697876e+01 -2.057212118525058031e-01
6.655232999473810196e-01 -1.193740612268447876e+01 -2.058280233759433031e-01
7.515828702598810196e-01 -1.193728405237197876e+01 -2.051871542353183031e-01
8.372762296348810196e-01 -1.193679577112197876e+01 -2.045310263056308031e-01
9.230916593223810196e-01 -1.193642956018447876e+01 -2.038596395868808031e-01
3.067586515098810196e-01 -1.303774791955947876e+01 -2.142661337275058031e-01
4.014852140098810196e-01 -1.306203991174697876e+01 -2.144492391962558031e-01
4.964559171348810196e-01 -1.307961803674697876e+01 -2.145865682978183031e-01
5.921590421348810196e-01 -1.309719616174697876e+01 -2.147086386103183031e-01
6.878621671348810196e-01 -1.311086803674697876e+01 -2.146628622431308031e-01
7.836873624473810196e-01 -1.311050182580947876e+01 -2.139304403681308031e-01
8.791463468223810196e-01 -1.311013561487197876e+01 -2.131980184931308031e-01
9.743611905723810196e-01 -1.310281139612197876e+01 -2.124198202509433031e-01
2.856404874473810196e-01 -1.452297741174697876e+01 -2.265952352900058031e-01
3.929402921348810196e-01 -1.450405651330947876e+01 -2.249625448603183031e-01
4.998738858848810196e-01 -1.448513561487197876e+01 -2.233298544306308031e-01
6.068074796348810196e-01 -1.446621471643447876e+01 -2.216971640009433031e-01
7.132527921348810196e-01 -1.444741588830947876e+01 -2.200797323603183031e-01
8.195760343223810196e-01 -1.442861706018447876e+01 -2.184470419306308031e-01
9.254109952598810196e-01 -1.440981823205947876e+01 -2.168448690790683031e-01
1.030879745259881020e+00 -1.439126354455947876e+01 -2.152274374384433031e-01
2.640340421348810196e-01 -1.604348522424697876e+01 -2.269919638056308031e-01
3.837850186973810196e-01 -1.602908092737197876e+01 -2.251609091181308031e-01
5.034139249473810196e-01 -1.600564342737197876e+01 -2.233298544306308031e-01
6.230428311973810196e-01 -1.598220592737197876e+01 -2.214987997431308031e-01
7.415731046348810196e-01 -1.594436413049697876e+01 -2.191336874384433031e-01
8.597371671348810196e-01 -1.589809948205947876e+01 -2.164176229853183031e-01
9.769246671348810196e-01 -1.585793834924697876e+01 -2.139609579462558031e-01
1.093257674947381020e+00 -1.581240612268447876e+01 -2.116416220087558031e-01
2.381551358848810196e-01 -1.785452038049697876e+01 -2.230857138056308031e-01
3.731649015098810196e-01 -1.779482799768447876e+01 -2.199881796259433031e-01
5.073201749473810196e-01 -1.773452526330947876e+01 -2.168753866571933031e-01
6.413533780723810196e-01 -1.771035534143447876e+01 -2.150138143915683031e-01
7.741658780723810196e-01 -1.766689831018447876e+01 -2.125113729853183031e-01
9.066121671348810196e-01 -1.761904674768447876e+01 -2.098410848993808031e-01
1.038203964009881020e+00 -1.758328014612197876e+01 -2.075980429071933031e-01
1.169673690572381020e+00 -1.755434948205947876e+01 -2.055838827509433031e-01
2.091024015098810196e-01 -1.988027721643447876e+01 -2.093680624384433031e-01
3.605916593223810196e-01 -1.988064342737197876e+01 -2.082083944696933031e-01
5.122029874473810196e-01 -1.989101940393447876e+01 -2.068961386103183031e-01
6.644246671348810196e-01 -1.989187389612197876e+01 -2.057517294306308031e-01
8.156697843223810196e-01 -1.986147838830947876e+01 -2.036612753290683031e-01
9.669149015098810196e-01 -1.983120495080947876e+01 -2.015860800165683031e-01
1.116695174947381020e+00 -1.978921276330947876e+01 -1.996176962275058031e-01
1.266353378072381020e+00 -1.975918346643447876e+01 -1.975730184931308031e-01
1.717488858848810196e-01 -2.248306041955947876e+01 -1.912406210321933031e-01
3.439900968223810196e-01 -2.263418346643447876e+01 -1.937125448603183031e-01
5.189168546348810196e-01 -2.278762584924697876e+01 -1.962302450556308031e-01
6.961629483848810196e-01 -2.288027721643447876e+01 -1.971762899775058031e-01
8.685262296348810196e-01 -2.265798717737197876e+01 -1.902182821650058031e-01
1.037837753072381020e+00 -2.243960338830947876e+01 -1.833823446650058031e-01
1.208247909322381020e+00 -2.236709362268447876e+01 -1.802085165400058031e-01
1.382442245259881020e+00 -2.240578991174697876e+01 -1.798270468134433031e-01
1.571004483848810196e-01 -2.346853405237197876e+01 -1.160758261103183031e-01
3.395955655723810196e-01 -2.326626354455947876e+01 -1.104605917353183031e-01
5.192830655723810196e-01 -2.327871471643447876e+01 -1.093009237665683031e-01
7.104451749473810196e-01 -2.427261120080947876e+01 -1.283438925165683031e-01
8.951375577598810196e-01 -2.408913952112197876e+01 -1.230948690790683031e-01
1.081172714009881020e+00 -2.404495006799697876e+01 -1.207144979853183031e-01
1.265865096822381020e+00 -2.400112682580947876e+01 -1.183646444696933031e-01
1.449947128072381020e+00 -2.395730358362197876e+01 -1.159995321650058031e-01
1.213338468223810196e-01 -2.594094616174697876e+01 -5.540688079781830311e-02
3.245809171348810196e-01 -2.569167858362197876e+01 -4.979164642281830311e-02
5.240438077598810196e-01 -2.555947643518447876e+01 -4.606850189156830311e-02
7.224080655723810196e-01 -2.545608288049697876e+01 -4.283363861031830311e-02
9.173543546348810196e-01 -2.530447155237197876e+01 -3.885109466500580311e-02
1.110713729634881020e+00 -2.515420299768447876e+01 -3.489906829781830311e-02
1.300899276509881020e+00 -2.500637584924697876e+01 -3.100807708688080311e-02
1.487910995259881020e+00 -2.484084850549697876e+01 -2.685768646188080311e-02
4.442954994738101959e-02 -3.130373913049697876e+01 -6.151509704068303108e-03
2.889363858848810196e-01 -3.160049206018447876e+01 -7.585835875943303108e-03
6.072957608848810196e-01 -6.045388561487197876e+01 -3.364279989618808031e-01
9.836385343223810196e-01 -4.986990123987197876e+01 -2.118552450556308031e-01
1.384883651509881020e+00 -4.990212780237197876e+01 -2.090018515009433031e-01
1.781734237447381020e+00 -4.970364147424697876e+01 -2.035392050165683031e-01
1.323604354634881020e+00 -2.566677623987197876e+01 6.884543853811919689e-02
1.527339706197381020e+00 -2.575735241174697876e+01 6.944053131155669689e-02
9.130454994738101959e-02 -2.793606334924697876e+01 1.541420693974941969e-01
3.067586515098810196e-01 -2.840725475549697876e+01 1.526467080693691969e-01
6.241414640098810196e-01 -6.849929577112197876e+01 -1.221335653681308031e-01
1.178462753072381020e+00 -6.824258190393447876e+01 -1.158774618525058031e-01
1.392085799947381020e+00 -5.037832409143447876e+01 9.137796936556696892e-03
1.792232284322381020e+00 -5.015359264612197876e+01 1.391379791311919689e-02
1.330074081197381020e+00 -2.587502819299697876e+01 1.783425088506191969e-01
1.523311385884881020e+00 -2.568813854455947876e+01 1.811806436162441969e-01
8.068443275988101959e-02 -2.861611706018447876e+01 2.730843301396816969e-01
3.056600186973810196e-01 -2.844180065393447876e+01 2.753121133428066969e-01
6.289022061973810196e-01 -7.158352428674697876e+01 1.789681192021816969e-01
1.327510604634881020e+00 -8.245242077112197876e+01 1.597267861943691969e-01
1.952632674947381020e+00 -8.003799206018447876e+01 1.703621621709316969e-01
1.809444198384881020e+00 -5.085391002893447876e+01 2.361580606084316969e-01
1.315791854634881020e+00 -2.550344616174697876e+01 2.902962442021816969e-01
1.518794784322381020e+00 -2.560574108362197876e+01 2.917153115849941969e-01
8.849693275988101959e-02 -2.800588756799697876e+01 3.960549111943691969e-01
2.996785733848810196e-01 -2.927529674768447876e+01 4.000527139287441969e-01
6.619832608848810196e-01 -8.706252819299697876e+01 5.352455850224941969e-01
1.371333846822381020e+00 -8.686807018518447876e+01 5.406319375615566969e-01
2.103389510884881020e+00 -8.815578991174697876e+01 5.496041055303066969e-01
2.842159042134881020e+00 -8.881020885705947876e+01 5.571724649053066969e-01
1.336299667134881020e+00 -2.610561901330947876e+01 4.013191934209316969e-01
1.534785995259881020e+00 -2.599233776330947876e+01 4.033028359990566969e-01
1.524617765098810196e-01 -2.347158581018447876e+01 4.861885781865566969e-01
3.349568936973810196e-01 -2.327334362268447876e+01 4.863259072881191969e-01
5.141561124473810196e-01 -2.312124401330947876e+01 4.867684121709316969e-01
6.916463468223810196e-01 -2.297451549768447876e+01 4.872261758428066969e-01
8.662068936973810196e-01 -2.283010631799697876e+01 4.876839395146816969e-01
1.038936385884881020e+00 -2.268728405237197876e+01 4.881264443974941969e-01
1.208980331197381020e+00 -2.254665905237197876e+01 4.885689492803066969e-01
1.376704940572381020e+00 -2.240798717737197876e+01 4.889961953740566969e-01
1.508748624473810196e-01 -2.352834850549697876e+01 5.874306436162441969e-01
3.337361905723810196e-01 -2.333096081018447876e+01 5.861641641240566969e-01
5.135457608848810196e-01 -2.317214733362197876e+01 5.858437295537441969e-01
6.914022061973810196e-01 -2.302578502893447876e+01 5.856453652959316969e-01
8.663289640098810196e-01 -2.288174206018447876e+01 5.854622598271816969e-01
1.039546737447381020e+00 -2.273916393518447876e+01 5.852638955693691969e-01
1.209956893697381020e+00 -2.259902721643447876e+01 5.850807901006191969e-01
1.378047714009881020e+00 -2.246011120080947876e+01 5.854012246709316969e-01
1.501424405723810196e-01 -2.352871471643447876e+01 6.877419229131191969e-01
3.330037686973810196e-01 -2.332424694299697876e+01 6.860024209599941969e-01
5.126912686973810196e-01 -2.316421276330947876e+01 6.849343057256191969e-01
6.905477140098810196e-01 -2.301626354455947876e+01 6.840492959599941969e-01
8.653524015098810196e-01 -2.287063366174697876e+01 6.831948037724941969e-01
1.038448104634881020e+00 -2.272659069299697876e+01 6.823250527959316969e-01
1.208614120259881020e+00 -2.258486706018447876e+01 6.814858193974941969e-01
1.376582870259881020e+00 -2.244497448205947876e+01 6.806465859990566969e-01
3.734947182238101959e-02 -3.129250866174697876e+01 9.481941934209316969e-01
3.600669838488101959e-02 -3.130666881799697876e+01 1.085080790100619197e+00
2.814900968223810196e-01 -3.141604381799697876e+01 1.089215921936556697e+00
8.464315030723810196e-01 -1.018606334924697876e+01 -1.910269979853183031e-01
9.177205655723810196e-01 -1.018618541955947876e+01 -1.904929403681308031e-01
9.890096280723810196e-01 -1.018520885705947876e+01 -1.900962118525058031e-01
1.061031112447381020e+00 -1.019070202112197876e+01 -1.900962118525058031e-01
1.133052596822381020e+00 -1.019619518518447876e+01 -1.900962118525058031e-01
1.205562362447381020e+00 -1.020168834924697876e+01 -1.900962118525058031e-01
1.277950057759881020e+00 -1.020730358362197876e+01 -1.900809530634433031e-01
1.350093612447381020e+00 -1.020937877893447876e+01 -1.900809530634433031e-01
8.813436124473810196e-01 -1.098025280237197876e+01 -1.968558554071933031e-01
9.589803311973810196e-01 -1.097622448205947876e+01 -1.962302450556308031e-01
1.036739120259881020e+00 -1.097219616174697876e+01 -1.956046347040683031e-01
1.114986190572381020e+00 -1.097280651330947876e+01 -1.950095419306308031e-01
1.192867049947381020e+00 -1.096877819299697876e+01 -1.943839315790683031e-01
1.270503768697381020e+00 -1.096011120080947876e+01 -1.937278036493808031e-01
1.348384628072381020e+00 -1.095608288049697876e+01 -1.931021932978183031e-01
1.426265487447381020e+00 -1.095205456018447876e+01 -1.924765829462558031e-01
9.233357999473810196e-01 -1.193618541955947876e+01 -2.038596395868808031e-01
1.009029159322381020e+00 -1.193191295862197876e+01 -2.031729940790683031e-01
1.094600448384881020e+00 -1.192776256799697876e+01 -2.024863485712558031e-01
1.180660018697381020e+00 -1.192349010705947876e+01 -2.017997030634433031e-01
1.266353378072381020e+00 -1.191921764612197876e+01 -2.011130575556308031e-01
1.352412948384881020e+00 -1.191506725549697876e+01 -2.004264120478183031e-01
1.438228378072381020e+00 -1.191079479455947876e+01 -1.997397665400058031e-01
1.524043807759881020e+00 -1.190664440393447876e+01 -1.990531210321933031e-01
9.747274015098810196e-01 -1.310268932580947876e+01 -2.124045614618808031e-01
1.070308456197381020e+00 -1.310525280237197876e+01 -2.117026571650058031e-01
1.165767440572381020e+00 -1.310073620080947876e+01 -2.109397177118808031e-01
1.261470565572381020e+00 -1.309621959924697876e+01 -2.101615194696933031e-01
1.357051620259881020e+00 -1.309182506799697876e+01 -2.093985800165683031e-01
1.452876815572381020e+00 -1.308730846643447876e+01 -2.086356405634433031e-01
1.547237167134881020e+00 -1.307058483362197876e+01 -2.072928671259433031e-01
1.640743026509881020e+00 -1.304617077112197876e+01 -2.058585409540683031e-01
1.031245956197381020e+00 -1.439089733362197876e+01 -2.152121786493808031e-01
1.136348495259881020e+00 -1.436880260705947876e+01 -2.136100057978183031e-01
1.241206893697381020e+00 -1.434670788049697876e+01 -2.120078329462558031e-01
1.346187362447381020e+00 -1.432449108362197876e+01 -2.104056600946933031e-01
1.450557479634881020e+00 -1.430251842737197876e+01 -2.088187460321933031e-01
1.555049667134881020e+00 -1.428042370080947876e+01 -2.072165731806308031e-01
1.658931503072381020e+00 -1.425857311487197876e+01 -2.056296591181308031e-01
1.762691268697381020e+00 -1.423672252893447876e+01 -2.040427450556308031e-01
1.093623885884881020e+00 -1.581203991174697876e+01 -2.116263632196933031e-01
1.209956893697381020e+00 -1.577834850549697876e+01 -2.092154745478183031e-01
1.325435409322381020e+00 -1.573757702112197876e+01 -2.068961386103183031e-01
1.440669784322381020e+00 -1.569680553674697876e+01 -2.045615438837558031e-01
1.555049667134881020e+00 -1.565627819299697876e+01 -2.022574667353183031e-01
1.669429549947381020e+00 -1.561648327112197876e+01 -1.999686483759433031e-01
1.786250839009881020e+00 -1.561343151330947876e+01 -1.990988973993808031e-01
1.902461776509881020e+00 -1.560305553674697876e+01 -1.982901815790683031e-01
1.170161971822381020e+00 -1.755410534143447876e+01 -2.055686239618808031e-01
1.301021346822381020e+00 -1.752163463830947876e+01 -2.035849813837558031e-01
1.431392440572381020e+00 -1.748940807580947876e+01 -2.015860800165683031e-01
1.562007674947381020e+00 -1.745705944299697876e+01 -1.995871786493808031e-01
1.692134628072381020e+00 -1.743032604455947876e+01 -1.978019003290683031e-01
1.824458846822381020e+00 -1.742690807580947876e+01 -1.967795614618808031e-01
1.956416854634881020e+00 -1.742349010705947876e+01 -1.957724813837558031e-01
2.088496932759881020e+00 -1.742007213830947876e+01 -1.947654013056308031e-01
1.266841659322381020e+00 -1.975869518518447876e+01 -1.975577597040683031e-01
1.416011581197381020e+00 -1.972622448205947876e+01 -1.955283407587558031e-01
1.565547714009881020e+00 -1.970535045862197876e+01 -1.934073690790683031e-01
1.715327987447381020e+00 -1.968240123987197876e+01 -1.916526083368808031e-01
1.865962753072381020e+00 -1.968020397424697876e+01 -1.905234579462558031e-01
2.017207870259881020e+00 -1.967800670862197876e+01 -1.893943075556308031e-01
2.166988143697381020e+00 -1.966396862268447876e+01 -1.883567098993808031e-01
2.317989120259881020e+00 -1.966177135705947876e+01 -1.872123007196933031e-01
1.382930526509881020e+00 -2.240481334924697876e+01 -1.798117880243808031e-01
1.548702010884881020e+00 -2.226809459924697876e+01 -1.751273397821933031e-01
1.712398299947381020e+00 -2.213296276330947876e+01 -1.705039266962558031e-01
1.874751815572381020e+00 -2.199892956018447876e+01 -1.659110311884433031e-01
2.034541854634881020e+00 -2.186709362268447876e+01 -1.613944296259433031e-01
2.193111190572381020e+00 -2.173623424768447876e+01 -1.569236044306308031e-01
2.348506698384881020e+00 -2.159866100549697876e+01 -1.523001913446933031e-01
2.505977401509881020e+00 -2.150234752893447876e+01 -1.486991171259433031e-01
1.450557479634881020e+00 -2.395693737268447876e+01 -1.159995321650058031e-01
1.634029159322381020e+00 -2.391323620080947876e+01 -1.136649374384433031e-01
1.809810409322381020e+00 -2.375088268518447876e+01 -1.089499716181308031e-01
1.981441268697381020e+00 -2.355642467737197876e+01 -1.035941366571933031e-01
2.150142440572381020e+00 -2.337075573205947876e+01 -9.845192474313080311e-02
2.329952010884881020e+00 -2.334048229455947876e+01 -9.643776458688080311e-02
2.508907089009881020e+00 -2.331045299768447876e+01 -9.442360443063080311e-02
2.512080917134881020e+00 -2.157021862268447876e+01 -5.842812103219330311e-02
1.488521346822381020e+00 -2.483901745080947876e+01 -2.682716888375580311e-02
1.669185409322381020e+00 -2.460134655237197876e+01 -2.154762786813080311e-02
1.801753768697381020e+00 -2.363418346643447876e+01 -4.930806579068303108e-03
1.992427596822381020e+00 -2.372781139612197876e+01 -4.900289000943303108e-03
2.149287948384881020e+00 -2.337038952112197876e+01 2.118753967806696892e-03
2.374629745259881020e+00 -2.387197643518447876e+01 -4.122090758755803108e-03
2.540035018697381020e+00 -2.365127331018447876e+01 7.607217412441968918e-04
2.511104354634881020e+00 -2.156911998987197876e+01 3.399436431936919689e-02
1.528072128072381020e+00 -2.575747448205947876e+01 6.944053131155669689e-02
1.671382674947381020e+00 -2.466213756799697876e+01 8.324973541311919689e-02
1.803096542134881020e+00 -2.367153698205947876e+01 9.576194244436919689e-02
1.984737167134881020e+00 -2.363039928674697876e+01 9.776084381155669689e-02
2.164424667134881020e+00 -2.357815319299697876e+01 9.986655670218169689e-02
2.366451034322381020e+00 -2.378799206018447876e+01 9.916465240530669689e-02
2.581050643697381020e+00 -2.409780651330947876e+01 9.740989166311919689e-02
2.510005721822381020e+00 -2.156802135705947876e+01 1.259133096318691969e-01
1.524043807759881020e+00 -2.568887096643447876e+01 1.811806436162441969e-01
1.716670760884881020e+00 -2.554543834924697876e+01 1.838661904912441969e-01
1.861568221822381020e+00 -2.465090709924697876e+01 1.907479043584316969e-01
1.976680526509881020e+00 -2.352786022424697876e+01 1.995369668584316969e-01
2.148311385884881020e+00 -2.338296276330947876e+01 2.020394082646816969e-01
2.327388534322381020e+00 -2.334377819299697876e+01 2.038857217412441969e-01
2.520137557759881020e+00 -2.346059948205947876e+01 2.052895303349941969e-01
2.509029159322381020e+00 -2.156692272424697876e+01 2.182747598271816969e-01
1.519405135884881020e+00 -2.560659557580947876e+01 2.917153115849941969e-01
1.673213729634881020e+00 -2.473220592737197876e+01 2.951485391240566969e-01
1.789058456197381020e+00 -2.346951061487197876e+01 2.991463418584316969e-01
1.968745956197381020e+00 -2.342519909143447876e+01 3.008858438115566969e-01
2.192256698384881020e+00 -2.396291881799697876e+01 3.016640420537441969e-01
2.383540878072381020e+00 -2.401003795862197876e+01 3.032967324834316969e-01
2.518672714009881020e+00 -2.345583873987197876e+01 3.058144326787441969e-01
2.508052596822381020e+00 -2.156582409143447876e+01 3.101326699834316969e-01
1.535396346822381020e+00 -2.599221569299697876e+01 4.033028359990566969e-01
1.713863143697381020e+00 -2.552883678674697876e+01 4.033486123662441969e-01
1.840816268697381020e+00 -2.433913952112197876e+01 4.018837686162441969e-01
2.000972518697381020e+00 -2.390627819299697876e+01 4.024330850224941969e-01
2.190059432759881020e+00 -2.394766002893447876e+01 4.042946572881191969e-01
2.356075057759881020e+00 -2.370120006799697876e+01 4.053169961553066969e-01
2.517940292134881020e+00 -2.345864635705947876e+01 4.062935586553066969e-01
2.506953964009881020e+00 -2.156472545862197876e+01 4.024483438115566969e-01
1.377193221822381020e+00 -2.240701061487197876e+01 4.889961953740566969e-01
1.542842635884881020e+00 -2.226980358362197876e+01 4.896828408818691969e-01
1.706416854634881020e+00 -2.213406139612197876e+01 4.903542276006191969e-01
1.868770370259881020e+00 -2.199966198205947876e+01 4.910103555303066969e-01
2.028560409322381020e+00 -2.186721569299697876e+01 4.916664834599941969e-01
2.187007674947381020e+00 -2.173586803674697876e+01 4.923226113896816969e-01
2.343013534322381020e+00 -2.160647350549697876e+01 4.929634805303066969e-01
2.497310409322381020e+00 -2.147866588830947876e+01 4.935890908818691969e-01
1.378658065572381020e+00 -2.245913463830947876e+01 5.854012246709316969e-01
1.544795760884881020e+00 -2.232266002893447876e+01 5.850044961553066969e-01
1.708858260884881020e+00 -2.218728405237197876e+01 5.851265664678066969e-01
1.871577987447381020e+00 -2.205312877893447876e+01 5.852333779912441969e-01
2.031734237447381020e+00 -2.192092663049697876e+01 5.853401895146816969e-01
2.190669784322381020e+00 -2.178982311487197876e+01 5.854470010381191969e-01
2.347285995259881020e+00 -2.166079479455947876e+01 5.855538125615566969e-01
2.499385604634881020e+00 -2.150796276330947876e+01 5.858437295537441969e-01
1.377193221822381020e+00 -2.244399791955947876e+01 6.806313272099941969e-01
1.543086776509881020e+00 -2.230630260705947876e+01 6.801735635381191969e-01
1.706905135884881020e+00 -2.217031627893447876e+01 6.797005410771816969e-01
1.869502792134881020e+00 -2.203542858362197876e+01 6.792427774053066969e-01
2.029536971822381020e+00 -2.190261608362197876e+01 6.787850137334316969e-01
2.188228378072381020e+00 -2.177090221643447876e+01 6.783272500615566969e-01
2.344478378072381020e+00 -2.164114147424697876e+01 6.778847451787441969e-01
2.499019393697381020e+00 -2.151284557580947876e+01 6.774422402959316969e-01
3.194453964009881020e+00 -5.405178600549697876e+01 1.446698832092806697e+00
3.734615096822381020e+00 -5.577383190393447876e+01 1.487958597717806697e+00
4.214717635884881020e+00 -5.617312389612197876e+01 1.499997782288119197e+00
2.358028182759881020e+00 -2.617690807580947876e+01 8.633553262334316969e-01
2.517329940572381020e+00 -2.563369518518447876e+01 8.544899697881191969e-01
2.543697128072381020e+00 -2.377395397424697876e+01 8.164955850224941969e-01
2.751704940572381020e+00 -2.399502331018447876e+01 8.232857461553066969e-01
3.277950057759881020e+00 -5.569704967737197876e+01 1.729352640686556697e+00
2.293819198384881020e+00 -2.823928600549697876e+01 1.027875589905306697e+00
2.505367049947381020e+00 -2.810427623987197876e+01 1.026837992249056697e+00
2.577022323384881020e+00 -2.634463268518447876e+01 9.833809609990566969e-01
2.946162948384881020e+00 -2.807766491174697876e+01 1.031064676819369197e+00
2.926997909322381020e+00 -2.572109752893447876e+01 9.721657510381191969e-01
1.350337753072381020e+00 -1.020937877893447876e+01 -1.900962118525058031e-01
1.423213729634881020e+00 -1.021548229455947876e+01 -1.900962118525058031e-01
1.495845565572381020e+00 -1.021804577112197876e+01 -1.900962118525058031e-01
1.568965682759881020e+00 -1.022073131799697876e+01 -1.900962118525058031e-01
1.641963729634881020e+00 -1.022329479455947876e+01 -1.900962118525058031e-01
1.715572128072381020e+00 -1.022585827112197876e+01 -1.900962118525058031e-01
1.789058456197381020e+00 -1.022854381799697876e+01 -1.900962118525058031e-01
1.862178573384881020e+00 -1.022768932580947876e+01 -1.900962118525058031e-01
1.426509628072381020e+00 -1.095193248987197876e+01 -1.924765829462558031e-01
1.504024276509881020e+00 -1.094436413049697876e+01 -1.918204550165683031e-01
1.581538924947381020e+00 -1.093679577112197876e+01 -1.911795858759433031e-01
1.660030135884881020e+00 -1.093386608362197876e+01 -1.905539755243808031e-01
1.738277206197381020e+00 -1.093008190393447876e+01 -1.901114706415683031e-01
1.817378768697381020e+00 -1.092995983362197876e+01 -1.901114706415683031e-01
1.896968612447381020e+00 -1.093386608362197876e+01 -1.901114706415683031e-01
1.976924667134881020e+00 -1.093777233362197876e+01 -1.901267294306308031e-01
1.524287948384881020e+00 -1.190664440393447876e+01 -1.990531210321933031e-01
1.609737167134881020e+00 -1.189858776330947876e+01 -1.983359579462558031e-01
1.695308456197381020e+00 -1.189053112268447876e+01 -1.976187948603183031e-01
1.781245956197381020e+00 -1.188247448205947876e+01 -1.969016317743808031e-01
1.866817245259881020e+00 -1.187441784143447876e+01 -1.961844686884433031e-01
1.952876815572381020e+00 -1.186636120080947876e+01 -1.954673056025058031e-01
2.038570174947381020e+00 -1.185830456018447876e+01 -1.947501425165683031e-01
2.124385604634881020e+00 -1.185024791955947876e+01 -1.940482382196933031e-01
1.641109237447381020e+00 -1.304604870080947876e+01 -2.058585409540683031e-01
1.735225448384881020e+00 -1.302981334924697876e+01 -2.044242147821933031e-01
1.828609237447381020e+00 -1.300796276330947876e+01 -2.029898886103183031e-01
1.922115096822381020e+00 -1.298599010705947876e+01 -2.015708212275058031e-01
2.015254745259881020e+00 -1.296426159143447876e+01 -2.001517538446933031e-01
2.108394393697381020e+00 -1.294241100549697876e+01 -1.987174276728183031e-01
2.201167831197381020e+00 -1.292056041955947876e+01 -1.973136190790683031e-01
2.292964706197381020e+00 -1.289333873987197876e+01 -1.959098104853183031e-01
1.762935409322381020e+00 -1.423647838830947876e+01 -2.040427450556308031e-01
1.866084823384881020e+00 -1.421120983362197876e+01 -2.024710897821933031e-01
1.968990096822381020e+00 -1.418606334924697876e+01 -2.008994345087558031e-01
2.072139510884881020e+00 -1.416079479455947876e+01 -1.993277792353183031e-01
2.174678573384881020e+00 -1.413564831018447876e+01 -1.977561239618808031e-01
2.277339706197381020e+00 -1.411050182580947876e+01 -1.961844686884433031e-01
2.379512557759881020e+00 -1.408535534143447876e+01 -1.946280722040683031e-01
2.481441268697381020e+00 -1.406045299768447876e+01 -1.930716757196933031e-01
1.902827987447381020e+00 -1.560305553674697876e+01 -1.982901815790683031e-01
2.020381698384881020e+00 -1.560427623987197876e+01 -1.973899130243808031e-01
2.137325057759881020e+00 -1.559829479455947876e+01 -1.965354208368808031e-01
2.254756698384881020e+00 -1.559206920862197876e+01 -1.956809286493808031e-01
2.371822128072381020e+00 -1.558498913049697876e+01 -1.947959188837558031e-01
2.486202010884881020e+00 -1.555544811487197876e+01 -1.930564169306308031e-01
2.599971542134881020e+00 -1.552602916955947876e+01 -1.913169149775058031e-01
2.715083846822381020e+00 -1.550588756799697876e+01 -1.902793173212558031e-01
2.088985214009881020e+00 -1.742019420862197876e+01 -1.947654013056308031e-01
2.220821151509881020e+00 -1.741311413049697876e+01 -1.937583212275058031e-01
2.352779159322381020e+00 -1.740615612268447876e+01 -1.927512411493808031e-01
2.485469589009881020e+00 -1.739907604455947876e+01 -1.917441610712558031e-01
2.617793807759881020e+00 -1.739211803674697876e+01 -1.907370809931308031e-01
2.753535995259881020e+00 -1.740395885705947876e+01 -1.903556112665683031e-01
2.891109237447381020e+00 -1.742727428674697876e+01 -1.903556112665683031e-01
3.029292831197381020e+00 -1.745071178674697876e+01 -1.903556112665683031e-01
2.318477401509881020e+00 -1.966177135705947876e+01 -1.872123007196933031e-01
2.469356307759881020e+00 -1.965688854455947876e+01 -1.860984091181308031e-01
2.621822128072381020e+00 -1.966384655237197876e+01 -1.848929647821933031e-01
2.776729354634881020e+00 -1.968105846643447876e+01 -1.844046835321933031e-01
2.932979354634881020e+00 -1.970791393518447876e+01 -1.842063192743808031e-01
3.090572128072381020e+00 -1.973489147424697876e+01 -1.839926962275058031e-01
3.246577987447381020e+00 -1.974966198205947876e+01 -1.838858847040683031e-01
3.405147323384881020e+00 -1.977688366174697876e+01 -1.836722616571933031e-01
2.506465682759881020e+00 -2.150173717737197876e+01 -1.486685995478183031e-01
2.662715682759881020e+00 -2.140603405237197876e+01 -1.451743368525058031e-01
2.817867049947381020e+00 -2.131118541955947876e+01 -1.416800741571933031e-01
2.972285995259881020e+00 -2.121658092737197876e+01 -1.382163290400058031e-01
3.125118026509881020e+00 -2.112307506799697876e+01 -1.347983602900058031e-01
3.277217635884881020e+00 -2.102993541955947876e+01 -1.313803915400058031e-01
3.427852401509881020e+00 -2.093777233362197876e+01 -1.279929403681308031e-01
3.577266464009881020e+00 -2.084634166955947876e+01 -1.246512655634433031e-01
2.512813339009881020e+00 -2.157180553674697876e+01 -5.845863861031830311e-02
2.858272323384881020e+00 -2.317605358362197876e+01 -8.896095794625580311e-02
3.028194198384881020e+00 -2.308010631799697876e+01 -8.569557708688080311e-02
3.197383651509881020e+00 -2.298440319299697876e+01 -8.243019622750580311e-02
3.364253768697381020e+00 -2.288418346643447876e+01 -7.908852142281830311e-02
3.519893417134881020e+00 -2.271230846643447876e+01 -7.434303802438080311e-02
3.693477401509881020e+00 -2.267678600549697876e+01 -7.229836029000580311e-02
3.866817245259881020e+00 -2.264150768518447876e+01 -7.023842376656830311e-02
2.511836776509881020e+00 -2.157070690393447876e+01 3.397910553030669689e-02
2.877315292134881020e+00 -2.335574108362197876e+01 8.268045959994196892e-03
3.002437362447381020e+00 -2.287307506799697876e+01 1.705710845999419689e-02
3.177974471822381020e+00 -2.284084850549697876e+01 1.902549224905669689e-02
3.459834823384881020e+00 -2.359328991174697876e+01 9.229349670931696892e-03
3.598018417134881020e+00 -2.325906139612197876e+01 1.574485260061919689e-02
3.836910018697381020e+00 -2.361977916955947876e+01 1.189963775686919689e-02
4.020625839009881020e+00 -2.359951549768447876e+01 1.373069244436919689e-02
2.510738143697381020e+00 -2.156960827112197876e+01 1.258980508428066969e-01
2.869258651509881020e+00 -2.329250866174697876e+01 1.091591592412441969e-01
3.017940292134881020e+00 -2.301186901330947876e+01 1.137215371709316969e-01
3.231319198384881020e+00 -2.326601940393447876e+01 1.126686807256191969e-01
3.406123885884881020e+00 -2.320718151330947876e+01 1.148812051396816969e-01
3.638667831197381020e+00 -2.354690319299697876e+01 1.130043740849941969e-01
3.823116073384881020e+00 -2.353677135705947876e+01 1.147591348271816969e-01
3.967647323384881020e+00 -2.327847057580947876e+01 1.190010781865566969e-01
2.509761581197381020e+00 -2.156850963830947876e+01 2.182747598271816969e-01
2.850581893697381020e+00 -2.313308483362197876e+01 2.105690713506191969e-01
3.053828964009881020e+00 -2.332082897424697876e+01 2.106453652959316969e-01
3.295039901509881020e+00 -2.377248913049697876e+01 2.097450967412441969e-01
3.404292831197381020e+00 -2.320083385705947876e+01 2.147804971318691969e-01
3.622676620259881020e+00 -2.344350963830947876e+01 2.151314492803066969e-01
3.814693221822381020e+00 -2.348904186487197876e+01 2.171608682256191969e-01
3.981563339009881020e+00 -2.337136608362197876e+01 2.195564981084316969e-01
2.508785018697381020e+00 -2.156741100549697876e+01 3.101326699834316969e-01
2.875484237447381020e+00 -2.336697155237197876e+01 3.094307656865566969e-01
3.054561385884881020e+00 -2.333547741174697876e+01 3.113075967412441969e-01
3.208614120259881020e+00 -2.310415416955947876e+01 3.134133096318691969e-01
3.402461776509881020e+00 -2.319582897424697876e+01 3.151222940068691969e-01
3.611079940572381020e+00 -2.337087780237197876e+01 3.167855020146816969e-01
3.799800643697381020e+00 -2.339932018518447876e+01 3.186165567021816969e-01
4.101680526509881020e+00 -2.412148815393447876e+01 3.198830361943691969e-01
2.507686385884881020e+00 -2.156631237268447876e+01 4.024636026006191969e-01
2.825923690572381020e+00 -2.292800670862197876e+01 4.082314248662441969e-01
3.055171737447381020e+00 -2.334890514612197876e+01 4.115425820928066969e-01
3.227779159322381020e+00 -2.326260143518447876e+01 4.132057901006191969e-01
3.477901229634881020e+00 -2.375710827112197876e+01 4.168984170537441969e-01
3.632076034322381020e+00 -2.352383190393447876e+01 4.180428262334316969e-01
3.780513534322381020e+00 -2.328042370080947876e+01 4.191109414678066969e-01
4.089229354634881020e+00 -2.405190807580947876e+01 4.245735879521816969e-01
2.497798690572381020e+00 -2.147781139612197876e+01 4.935890908818691969e-01
2.655879745259881020e+00 -2.140188366174697876e+01 4.948555703740566969e-01
2.811031112447381020e+00 -2.130825573205947876e+01 4.959694619756191969e-01
2.965572128072381020e+00 -2.121499401330947876e+01 4.970833535771816969e-01
3.118404159322381020e+00 -2.112270885705947876e+01 4.981819863896816969e-01
3.270747909322381020e+00 -2.103078991174697876e+01 4.992806192021816969e-01
3.421382674947381020e+00 -2.093972545862197876e+01 5.003487344365566969e-01
3.570918807759881020e+00 -2.084951549768447876e+01 5.014321084599941969e-01
2.500118026509881020e+00 -2.150954967737197876e+01 5.858742471318691969e-01
2.660640487447381020e+00 -2.145254284143447876e+01 5.866371865849941969e-01
2.815913924947381020e+00 -2.135659557580947876e+01 5.874001260381191969e-01
2.970454940572381020e+00 -2.126089245080947876e+01 5.881478067021816969e-01
3.123409042134881020e+00 -2.116641002893447876e+01 5.888954873662441969e-01
3.275752792134881020e+00 -2.107217174768447876e+01 5.896431680303066969e-01
3.426387557759881020e+00 -2.097903209924697876e+01 5.903755899053066969e-01
3.575923690572381020e+00 -2.088613659143447876e+01 5.915810342412441969e-01
2.499507674947381020e+00 -2.151211315393447876e+01 6.774422402959316969e-01
2.657954940572381020e+00 -2.143703991174697876e+01 6.782204385381191969e-01
2.813350448384881020e+00 -2.134280163049697876e+01 6.786629434209316969e-01
2.968013534322381020e+00 -2.124892956018447876e+01 6.791054483037441969e-01
3.121089706197381020e+00 -2.115603405237197876e+01 6.795326943974941969e-01
3.273555526509881020e+00 -2.106362682580947876e+01 6.799751992803066969e-01
3.424434432759881020e+00 -2.097207409143447876e+01 6.804024453740566969e-01
3.574092635884881020e+00 -2.088113170862197876e+01 6.808296914678066969e-01
2.752681503072381020e+00 -2.399795299768447876e+01 8.233467813115566969e-01
3.023921737447381020e+00 -2.475381237268447876e+01 8.422676797490566969e-01
3.238277206197381020e+00 -2.492153698205947876e+01 8.484780068974941969e-01
3.393062362447381020e+00 -2.459109264612197876e+01 8.431984658818691969e-01
3.568965682759881020e+00 -2.445950084924697876e+01 8.428169961553066969e-01
3.741451034322381020e+00 -2.431118541955947876e+01 8.426033731084316969e-01
3.894893417134881020e+00 -2.405654674768447876e+01 8.394142861943691969e-01
2.927242049947381020e+00 -2.571633678674697876e+01 9.720589395146816969e-01
3.101314315572381020e+00 -2.546401745080947876e+01 9.675575967412441969e-01
3.315181503072381020e+00 -2.557778698205947876e+01 9.732949014287441969e-01
3.382320174947381020e+00 -2.451553112268447876e+01 9.477669473271816969e-01
3.563228378072381020e+00 -2.442483288049697876e+01 9.479805703740566969e-01
3.785640487447381020e+00 -2.462490612268447876e+01 9.559914346318691969e-01
1.862422714009881020e+00 -1.022768932580947876e+01 -1.900962118525058031e-01
1.936397323384881020e+00 -1.023086315393447876e+01 -1.900962118525058031e-01
2.010005721822381020e+00 -1.023049694299697876e+01 -1.900962118525058031e-01
2.084102401509881020e+00 -1.023013073205947876e+01 -1.900962118525058031e-01
2.158199081197381020e+00 -1.022976452112197876e+01 -1.900962118525058031e-01
2.232784042134881020e+00 -1.022939831018447876e+01 -1.900962118525058031e-01
2.307369003072381020e+00 -1.022903209924697876e+01 -1.900962118525058031e-01
2.381343612447381020e+00 -1.022512584924697876e+01 -1.900962118525058031e-01
1.977168807759881020e+00 -1.093789440393447876e+01 -1.901267294306308031e-01
2.056758651509881020e+00 -1.093862682580947876e+01 -1.901267294306308031e-01
2.136714706197381020e+00 -1.093948131799697876e+01 -1.901267294306308031e-01
2.217891464009881020e+00 -1.094436413049697876e+01 -1.901267294306308031e-01
2.298335799947381020e+00 -1.094509655237197876e+01 -1.901267294306308031e-01
2.378535995259881020e+00 -1.094180065393447876e+01 -1.901267294306308031e-01
2.459468612447381020e+00 -1.094265514612197876e+01 -1.901267294306308031e-01
2.540767440572381020e+00 -1.094338756799697876e+01 -1.901267294306308031e-01
2.124629745259881020e+00 -1.185024791955947876e+01 -1.940482382196933031e-01
2.209956893697381020e+00 -1.183840709924697876e+01 -1.933005575556308031e-01
2.295284042134881020e+00 -1.182656627893447876e+01 -1.925528768915683031e-01
2.380977401509881020e+00 -1.181460338830947876e+01 -1.918204550165683031e-01
2.466426620259881020e+00 -1.180276256799697876e+01 -1.910727743525058031e-01
2.552242049947381020e+00 -1.179079967737197876e+01 -1.903250936884433031e-01
2.640254745259881020e+00 -1.179006725549697876e+01 -1.901572470087558031e-01
2.729244003072381020e+00 -1.179250866174697876e+01 -1.901572470087558031e-01
2.293330917134881020e+00 -1.289333873987197876e+01 -1.959098104853183031e-01
2.386104354634881020e+00 -1.287405163049697876e+01 -1.944907431025058031e-01
2.478023299947381020e+00 -1.284902721643447876e+01 -1.930869345087558031e-01
2.569942245259881020e+00 -1.282412487268447876e+01 -1.916831259150058031e-01
2.661617049947381020e+00 -1.279922252893447876e+01 -1.902945761103183031e-01
2.759029159322381020e+00 -1.280190807580947876e+01 -1.902030233759433031e-01
2.856929549947381020e+00 -1.280654674768447876e+01 -1.902030233759433031e-01
2.953975448384881020e+00 -1.280532604455947876e+01 -1.902030233759433031e-01
2.481929549947381020e+00 -1.406045299768447876e+01 -1.930716757196933031e-01
2.583125839009881020e+00 -1.403213268518447876e+01 -1.915305380243808031e-01
2.685298690572381020e+00 -1.400967174768447876e+01 -1.902487997431308031e-01
2.793575057759881020e+00 -1.401760631799697876e+01 -1.902487997431308031e-01
2.901851424947381020e+00 -1.402554088830947876e+01 -1.902487997431308031e-01
3.010982284322381020e+00 -1.403347545862197876e+01 -1.902487997431308031e-01
3.120235214009881020e+00 -1.404153209924697876e+01 -1.902487997431308031e-01
3.230098495259881020e+00 -1.404958873987197876e+01 -1.902487997431308031e-01
2.715450057759881020e+00 -1.550625377893447876e+01 -1.902945761103183031e-01
2.837642440572381020e+00 -1.552786022424697876e+01 -1.902945761103183031e-01
2.958858260884881020e+00 -1.554055553674697876e+01 -1.902945761103183031e-01
3.081172714009881020e+00 -1.555325084924697876e+01 -1.902945761103183031e-01
3.203609237447381020e+00 -1.556606823205947876e+01 -1.902945761103183031e-01
3.327144393697381020e+00 -1.557888561487197876e+01 -1.902945761103183031e-01
3.450801620259881020e+00 -1.559182506799697876e+01 -1.902945761103183031e-01
3.573116073384881020e+00 -1.559548717737197876e+01 -1.902945761103183031e-01
3.029781112447381020e+00 -1.745095592737197876e+01 -1.903556112665683031e-01
3.168208846822381020e+00 -1.747085338830947876e+01 -1.903708700556308031e-01
3.307369003072381020e+00 -1.749075084924697876e+01 -1.903708700556308031e-01
3.447871932759881020e+00 -1.751089245080947876e+01 -1.903708700556308031e-01
3.588619003072381020e+00 -1.753103405237197876e+01 -1.903708700556308031e-01
3.730708846822381020e+00 -1.755141979455947876e+01 -1.903708700556308031e-01
3.873042831197381020e+00 -1.757180553674697876e+01 -1.903708700556308031e-01
4.016231307759881020e+00 -1.759231334924697876e+01 -1.903708700556308031e-01
3.405757674947381020e+00 -1.977724987268447876e+01 -1.836875204462558031e-01
3.564693221822381020e+00 -1.980178600549697876e+01 -1.835044149775058031e-01
3.729244003072381020e+00 -1.985183483362197876e+01 -1.835807089228183031e-01
