-2.840926710516214371e+00 -3.087773348391056061e+01 8.560259103542193770e-01
-6.708846632391214371e+00 -4.337895418703556061e+01 1.282814240432344377e+00
-6.340072218328714371e+00 -4.331340242922306061e+01 1.279457306838594377e+00
-4.272201124578714371e+00 -3.824296785891056061e+01 1.159218049026094377e+00
-6.643905226141214371e+00 -4.299846102297306061e+01 1.468727326369844377e+00
-6.324447218328714371e+00 -4.321892000734806061e+01 1.471565461135469377e+00
-4.595687452703714371e+00 -3.832634188234806061e+01 1.333656525588594377e+00
-4.272201124578714371e+00 -3.824565340578556061e+01 1.329643464065156877e+00
-5.419765152037143707e-01 -9.985033288598060608e+00 -1.904371023410931230e-01
-4.700771011412143707e-01 -9.992845788598060608e+00 -1.904371023410931230e-01
-3.979335464537143707e-01 -9.997240319848060608e+00 -1.904371023410931230e-01
-3.254237808287143707e-01 -1.000163485109806061e+01 -1.904371023410931230e-01
-2.532802261412143707e-01 -1.000590731203556061e+01 -1.904371023410931230e-01
-1.808925308287143707e-01 -1.001030184328556061e+01 -1.904371023410931230e-01
-1.087489761412143707e-01 -1.001469637453556061e+01 -1.904371023410931230e-01
-3.648335114121437073e-02 -1.001542879641056061e+01 -1.904371023410931230e-01
-6.273036636412143707e-01 -1.075944735109806061e+01 -1.939771414035931230e-01
-5.496669448912143707e-01 -1.077458406984806061e+01 -1.945722341770306230e-01
-4.717860855162143707e-01 -1.078972078859806061e+01 -1.951673269504681230e-01
-3.940272964537143707e-01 -1.080900789797306061e+01 -1.957624197239056230e-01
-3.157802261412143707e-01 -1.082304598391056061e+01 -1.962964773410931230e-01
-2.363124527037143707e-01 -1.082365633547306061e+01 -1.962964773410931230e-01
-1.574550308287143707e-01 -1.082890535891056061e+01 -1.963269949192181230e-01
-7.859760895371437073e-02 -1.083427645266056061e+01 -1.963727712864056230e-01
-7.188563980162143707e-01 -1.159123446047306061e+01 -1.933210134739056230e-01
-6.343837417662143707e-01 -1.160844637453556061e+01 -1.939618826145306230e-01
-5.499110855162143707e-01 -1.162578035891056061e+01 -1.946027517551556230e-01
-4.648280777037143707e-01 -1.164311434328556061e+01 -1.952436208957806230e-01
-3.799892105162143707e-01 -1.166057039797306061e+01 -1.958997488254681230e-01
-2.945399917662143707e-01 -1.167802645266056061e+01 -1.965558767551556230e-01
-2.093349136412143707e-01 -1.169548250734806061e+01 -1.971967458957806230e-01
-1.238856948912143707e-01 -1.171293856203556061e+01 -1.978528738254681230e-01
-8.227382339537143707e-01 -1.253557039797306061e+01 -1.905286550754681230e-01
-7.298427261412143707e-01 -1.254643465578556061e+01 -1.905286550754681230e-01
-6.362147964537143707e-01 -1.255156160891056061e+01 -1.905286550754681230e-01
-5.429530777037143707e-01 -1.256352449953556061e+01 -1.908490896457806230e-01
-4.504237808287143707e-01 -1.258073641359806061e+01 -1.914289236301556230e-01
-3.572841323912143707e-01 -1.259807039797306061e+01 -1.920087576145306230e-01
-2.643886245787143707e-01 -1.261540438234806061e+01 -1.925733328098431230e-01
-1.711269058287143707e-01 -1.262773348391056061e+01 -1.931989431614056230e-01
-9.982753433287143707e-01 -1.412932039797306061e+01 -2.063672781223431230e-01
-8.914638198912143707e-01 -1.413603426516056061e+01 -2.064283132785931230e-01
-7.847743667662143707e-01 -1.414262606203556061e+01 -2.064740896457806230e-01
-6.777187027037143707e-01 -1.414933992922306061e+01 -2.065198660129681230e-01
-5.710292495787143707e-01 -1.415605379641056061e+01 -2.065809011692181230e-01
-4.640956558287143707e-01 -1.416276766359806061e+01 -2.066266775364056230e-01
-3.574062027037143707e-01 -1.416935946047306061e+01 -2.066724539035931230e-01
-2.509608902037143707e-01 -1.417607332766056061e+01 -2.067182302707806230e-01
-1.240706983953714371e+00 -1.633146883547306061e+01 -2.308881521457806230e-01
-1.116805616766214371e+00 -1.635124422609806061e+01 -2.310407400364056230e-01
-9.915614761412143707e-01 -1.635869051516056061e+01 -2.310865164035931230e-01
-8.659511245787143707e-01 -1.636625887453556061e+01 -2.311475515598431230e-01
-7.408290542662143707e-01 -1.637370516359806061e+01 -2.312085867160931230e-01
-6.153407730162143707e-01 -1.638127352297306061e+01 -2.312543630832806230e-01
-4.903407730162143707e-01 -1.638871981203556061e+01 -2.313153982395306230e-01
-3.647304214537143707e-01 -1.638383699953556061e+01 -2.312848806614056230e-01
-1.525130812078714371e+00 -1.891508699953556061e+01 -2.473676443332806230e-01
-1.382674757391214371e+00 -1.896574617922306061e+01 -2.488324880832806230e-01
-1.239608351141214371e+00 -1.901664949953556061e+01 -2.503125906223431230e-01
-1.095443312078714371e+00 -1.906791903078556061e+01 -2.518079519504681230e-01
-9.412685073912143707e-01 -1.899003817141056061e+01 -2.490155935520306230e-01
-7.875819839537143707e-01 -1.890666414797306061e+01 -2.460248708957806230e-01
-6.362147964537143707e-01 -1.882451082766056061e+01 -2.430799246067181230e-01
-4.863124527037143707e-01 -1.874321199953556061e+01 -2.401654958957806230e-01
-1.783675733953714371e+00 -2.126469637453556061e+01 -2.336652517551556230e-01
-1.616805616766214371e+00 -2.126872469484806061e+01 -2.336042165989056230e-01
-1.451156202703714371e+00 -2.128398348391056061e+01 -2.333753347629681230e-01
-1.283919874578714371e+00 -2.128801180422306061e+01 -2.333142996067181230e-01
-1.117415968328714371e+00 -2.129204012453556061e+01 -2.332532644504681230e-01
-9.488368667662143707e-01 -2.127165438234806061e+01 -2.324903249973431230e-01
-7.805019058287143707e-01 -2.123515535891056061e+01 -2.317579031223431230e-01
-6.135097183287143707e-01 -2.121013094484806061e+01 -2.308576345676556230e-01
-2.085433546453714371e+00 -2.400627352297306061e+01 -2.071912527317181230e-01
-1.891707960516214371e+00 -2.397197176516056061e+01 -2.062299490207806230e-01
-1.698836866766214371e+00 -2.393767000734806061e+01 -2.052839040989056230e-01
-1.506087843328714371e+00 -2.390361239016056061e+01 -2.043226003879681230e-01
-1.314803663641214371e+00 -2.386967684328556061e+01 -2.033765554660931230e-01
-1.120345655828714371e+00 -2.378569246828556061e+01 -2.012250662082806230e-01
-9.301601089537143707e-01 -2.373625399172306061e+01 -1.999128103489056230e-01
-7.415614761412143707e-01 -2.369475008547306061e+01 -1.987836599582806230e-01
-2.680648390203714371e+00 -2.941337801516056061e+01 -2.077863455051556230e-01
-2.415389601141214371e+00 -2.912175203859806061e+01 -2.020337820285931230e-01
-2.146956983953714371e+00 -2.874028231203556061e+01 -1.945417165989056230e-01
-1.885116163641214371e+00 -2.836833406984806061e+01 -1.872327566379681230e-01
-1.631576124578714371e+00 -2.800798250734806061e+01 -1.801526785129681230e-01
-1.384261671453714371e+00 -2.765642000734806061e+01 -1.732557058567181230e-01
-1.145980421453714371e+00 -2.734050203859806061e+01 -1.670453787082806230e-01
-9.164882339537143707e-01 -2.708928133547306061e+01 -1.620862722629681230e-01
-2.706893507391214371e+00 -2.965336824953556061e+01 -8.115365507546812296e-02
-2.452743116766214371e+00 -2.949089266359806061e+01 -7.875802519265562296e-02
-2.192000929266214371e+00 -2.922526766359806061e+01 -7.483651640359312296e-02
-1.972640577703714371e+00 -2.939970614016056061e+01 -7.743051054421812296e-02
-1.916122023016214371e+00 -3.172490145266056061e+01 -1.118848562473431230e-01
-1.527450148016214371e+00 -2.975676180422306061e+01 -8.274056913796812296e-02
-1.152328077703714371e+00 -2.744841219484806061e+01 -4.854562284890562296e-02
-1.052230421453714371e+00 -2.972294832766056061e+01 -8.225228788796812296e-02
-2.696029249578714371e+00 -2.955656649172306061e+01 5.042288301046937704e-02
-2.438705030828714371e+00 -2.935527254641056061e+01 5.237600801046937704e-02
-2.211288038641214371e+00 -2.943425203859806061e+01 5.147573945578187704e-02
-1.986922804266214371e+00 -2.956999422609806061e+01 4.998037812765687704e-02
-1.730575148016214371e+00 -2.930314852297306061e+01 5.262014863546937704e-02
-1.519881788641214371e+00 -2.964824129641056061e+01 4.898855683859437704e-02
-1.152206007391214371e+00 -2.744963289797306061e+01 7.137320039328187704e-02
-1.042708937078714371e+00 -2.954204012453556061e+01 4.988882539328187704e-02
-2.693954054266214371e+00 -2.954020906984806061e+01 1.813127755885943770e-01
-2.424544874578714371e+00 -2.921794344484806061e+01 1.829302072292193770e-01
-2.210677687078714371e+00 -2.942936922609806061e+01 1.808702707057818770e-01
-1.968368116766214371e+00 -2.935368563234806061e+01 1.811144113307818770e-01
-1.728499952703714371e+00 -2.927812410891056061e+01 1.813585519557818770e-01
-1.543807569891214371e+00 -3.000090242922306061e+01 1.771013498073443770e-01
-1.152206007391214371e+00 -2.745085360109806061e+01 1.919176339870318770e-01
-1.033187452703714371e+00 -2.935795809328556061e+01 1.810381173854693770e-01
-2.697494093328714371e+00 -2.957438875734806061e+01 3.113023996120318770e-01
-2.424911085516214371e+00 -2.922368074953556061e+01 3.113634347682818770e-01
-2.246200148016214371e+00 -2.981242586672306061e+01 3.105242013698443770e-01
-1.966903273016214371e+00 -2.933842684328556061e+01 3.107073068385943770e-01
-1.768050733953714371e+00 -2.979680086672306061e+01 3.099901437526568770e-01
-1.522689405828714371e+00 -2.969352938234806061e+01 3.098222970729693770e-01
-1.152206007391214371e+00 -2.745207430422306061e+01 3.118211984401568770e-01
-1.083236280828714371e+00 -3.033037020266056061e+01 3.086168527370318770e-01
-2.692855421453714371e+00 -2.953410555422306061e+01 4.420091867214068770e-01
-2.417586866766214371e+00 -2.915312410891056061e+01 4.395677804714068770e-01
-2.149886671453714371e+00 -2.878154207766056061e+01 4.378587960964068770e-01
-1.888656202703714371e+00 -2.841899324953556061e+01 4.361955880885943770e-01
-1.635482374578714371e+00 -2.806755281984806061e+01 4.345934152370318770e-01
-1.388289991766214371e+00 -2.772441317141056061e+01 4.330217599635943770e-01
-1.148421827703714371e+00 -2.739152742922306061e+01 4.314958810573443770e-01
-9.194179214537143707e-01 -2.715446688234806061e+01 4.309618234401568770e-01
-2.695418898016214371e+00 -2.955961824953556061e+01 5.721666574245318770e-01
-2.419906202703714371e+00 -2.917814852297306061e+01 5.685655832057818770e-01
-2.152083937078714371e+00 -2.880742098391056061e+01 5.650560617214068770e-01
-1.890731398016214371e+00 -2.844572664797306061e+01 5.616533517604693770e-01
-1.637435499578714371e+00 -2.809501864016056061e+01 5.583421945339068770e-01
-1.390121046453714371e+00 -2.775261141359806061e+01 5.551073312526568770e-01
-1.149154249578714371e+00 -2.740458895266056061e+01 5.518419503932818770e-01
-9.195399917662143707e-01 -2.715873934328556061e+01 5.494158029323443770e-01
-2.745833937078714371e+00 -3.002006746828556061e+01 7.088396310573443770e-01
-2.470443312078714371e+00 -2.967753817141056061e+01 7.031938791042193770e-01
-2.157088819891214371e+00 -2.886308504641056061e+01 6.921922921901568770e-01
-1.892928663641214371e+00 -2.847233797609806061e+01 6.866533517604693770e-01
-1.637191358953714371e+00 -2.809428621828556061e+01 6.812975167995318770e-01
-1.388167921453714371e+00 -2.772600008547306061e+01 6.760790109401568770e-01
-1.146956983953714371e+00 -2.736918856203556061e+01 6.710283517604693770e-01
-9.178310073912143707e-01 -2.712822176516056061e+01 6.680834054714068770e-01
-2.840316358953714371e+00 -3.088054110109806061e+01 8.560564279323443770e-01
-2.508163038641214371e+00 -3.004997469484806061e+01 8.408739328151568770e-01
-2.271224562078714371e+00 -3.008830477297306061e+01 8.409197091823443770e-01
-2.099105421453714371e+00 -3.090373446047306061e+01 8.545152902370318770e-01
-1.860946241766214371e+00 -3.101848055422306061e+01 8.558580636745318770e-01
-1.619124952703714371e+00 -3.111564852297306061e+01 8.568956613307818770e-01
-1.371932569891214371e+00 -3.112968660891056061e+01 8.564836740260943770e-01
-1.144515577703714371e+00 -3.152812410891056061e+01 8.627550363307818770e-01
-2.595687452703714371e+00 -3.091325594484806061e+01 9.928514718776568770e-01
-2.129500929266214371e+00 -3.126408602297306061e+01 9.983751535182818770e-01
-1.900008741766214371e+00 -3.153044344484806061e+01 1.003486847854219377e+00
-1.645614210516214371e+00 -3.150578524172306061e+01 1.002937531447969377e+00
-1.411483351141214371e+00 -3.179289461672306061e+01 1.008491730666719377e+00
-1.147079054266214371e+00 -3.157853914797306061e+01 1.003029084182344377e+00
-2.140609327703714371e+00 -3.139641024172306061e+01 1.140190339065156877e+00
-1.881820265203714371e+00 -3.129606844484806061e+01 1.136680817580781877e+00
-1.634017530828714371e+00 -3.133928133547306061e+01 1.136970734572969377e+00
-1.399154249578714371e+00 -3.158976961672306061e+01 1.142799591994844377e+00
-3.623921051621437073e-02 -1.001567293703556061e+01 -1.904371023410931230e-01
3.590434417128562927e-02 -1.002043367922306061e+01 -1.904371023410931230e-01
1.081699691712856293e-01 -1.002177645266056061e+01 -1.904371023410931230e-01
1.805576644837856293e-01 -1.002311922609806061e+01 -1.904371023410931230e-01
2.528232894837856293e-01 -1.002446199953556061e+01 -1.904371023410931230e-01
3.253330551087856293e-01 -1.002580477297306061e+01 -1.904371023410931230e-01
3.975986801087856293e-01 -1.002714754641056061e+01 -1.904371023410931230e-01
4.697422347962856293e-01 -1.002495028078556061e+01 -1.904371023410931230e-01
-7.835346832871437073e-02 -1.083439852297306061e+01 -1.963880300754681230e-01
6.260238587856292725e-04 -1.083610750734806061e+01 -1.963880300754681230e-01
7.960551604628562927e-02 -1.083769442141056061e+01 -1.964032888645306230e-01
1.589512191712856293e-01 -1.083989168703556061e+01 -1.962201833957806230e-01
2.381748519837856293e-01 -1.083061434328556061e+01 -1.956098318332806230e-01
3.175205551087856293e-01 -1.081706453859806061e+01 -1.949994802707806230e-01
3.962559066712856293e-01 -1.080778719484806061e+01 -1.944043874973431230e-01
4.748691879212856293e-01 -1.079850985109806061e+01 -1.938092947239056230e-01
-1.236415542662143707e-01 -1.171318270266056061e+01 -1.978681326145306230e-01
-3.721577301621437073e-02 -1.171232821047306061e+01 -1.977460623020306230e-01
4.957621917128562927e-02 -1.170109774172306061e+01 -1.970746755832806230e-01
1.363682113587856293e-01 -1.168974520266056061e+01 -1.964185476535931230e-01
2.226719222962856293e-01 -1.167851473391056061e+01 -1.957624197239056230e-01
3.089756332337856293e-01 -1.166728426516056061e+01 -1.950910330051556230e-01
3.949131332337856293e-01 -1.165605379641056061e+01 -1.944501638645306230e-01
4.806064926087856293e-01 -1.164494539797306061e+01 -1.937940359348431230e-01
-1.707606948912143707e-01 -1.262797762453556061e+01 -1.932142019504681230e-01
-7.749897614121437073e-02 -1.264445711672306061e+01 -1.936261892551556230e-01
1.698344573378562927e-02 -1.263261629641056061e+01 -1.930005789035931230e-01
1.115879379212856293e-01 -1.262077547609806061e+01 -1.923597097629681230e-01
2.057041488587856293e-01 -1.260905672609806061e+01 -1.917340994114056230e-01
2.998203597962856293e-01 -1.259733797609806061e+01 -1.911084890598431230e-01
3.934482894837856293e-01 -1.258806063234806061e+01 -1.905896902317181230e-01
4.869541488587856293e-01 -1.260112215578556061e+01 -1.914136648410931230e-01
-2.505946792662143707e-01 -1.417619539797306061e+01 -2.067334890598431230e-01
-1.437831558287143707e-01 -1.417827059328556061e+01 -2.067487478489056230e-01
-3.697163239121437073e-02 -1.418046785891056061e+01 -2.067640066379681230e-01
7.008403167128562927e-02 -1.418266512453556061e+01 -2.067792654270306230e-01
1.768955551087856293e-01 -1.418486239016056061e+01 -2.067945242160931230e-01
2.840732894837856293e-01 -1.418705965578556061e+01 -2.068097830051556230e-01
3.907627426087856293e-01 -1.418913485109806061e+01 -2.068250417942181230e-01
4.975742660462856293e-01 -1.419133211672306061e+01 -2.068403005832806230e-01
-3.643642105162143707e-01 -1.638408114016056061e+01 -2.312848806614056230e-01
-2.397304214537143707e-01 -1.639885164797306061e+01 -2.313916921848431230e-01
-1.144862808287143707e-01 -1.640129305422306061e+01 -2.314222097629681230e-01
1.185649260878562927e-02 -1.637846590578556061e+01 -2.304761648410931230e-01
1.373447738587856293e-01 -1.634916903078556061e+01 -2.293012380832806230e-01
2.628330551087856293e-01 -1.631999422609806061e+01 -2.281110525364056230e-01
3.873447738587856293e-01 -1.629094149172306061e+01 -2.269361257785931230e-01
5.112461410462856293e-01 -1.624992586672306061e+01 -2.256849050754681230e-01
-4.858241714537143707e-01 -1.874284578859806061e+01 -2.401654958957806230e-01
-3.388515152037143707e-01 -1.869426180422306061e+01 -2.384717703098431230e-01
-1.934657730162143707e-01 -1.866301180422306061e+01 -2.373578787082806230e-01
-4.783589020371437073e-02 -1.862236239016056061e+01 -2.359388113254681230e-01
9.706157073378562927e-02 -1.855790926516056061e+01 -2.337262869114056230e-01
2.412266097962856293e-01 -1.849370028078556061e+01 -2.315290212864056230e-01
3.839268051087856293e-01 -1.843034578859806061e+01 -2.293470144504681230e-01
5.254062972962856293e-01 -1.836735750734806061e+01 -2.271802664035931230e-01
-6.128993667662143707e-01 -2.121025301516056061e+01 -2.308576345676556230e-01
-4.463954605162143707e-01 -2.118266512453556061e+01 -2.300184011692181230e-01
-2.807460464537143707e-01 -2.116642977297306061e+01 -2.289960623020306230e-01
-1.146083511412143707e-01 -2.113896395266056061e+01 -2.281415701145306230e-01
5.079692229628562927e-02 -2.109147860109806061e+01 -2.267072439426556230e-01
2.163242660462856293e-01 -2.101140047609806061e+01 -2.243573904270306230e-01
3.798984847962856293e-01 -2.090947176516056061e+01 -2.218549490207806230e-01
5.417637191712856293e-01 -2.082524324953556061e+01 -2.193830251926556230e-01
-7.409511245787143707e-01 -2.369499422609806061e+01 -1.987989187473431230e-01
-5.530849136412143707e-01 -2.365129305422306061e+01 -1.976850271457806230e-01
-3.659511245787143707e-01 -2.360783602297306061e+01 -1.965863943332806230e-01
-1.790614761412143707e-01 -2.356437899172306061e+01 -1.954877615207806230e-01
6.119187921285629272e-03 -2.354423739016056061e+01 -1.949537039035931230e-01
1.911777816712856293e-01 -2.354606844484806061e+01 -1.949384451145306230e-01
3.755039535462856293e-01 -2.355168367922306061e+01 -1.950299978489056230e-01
5.595859847962856293e-01 -2.349540926516056061e+01 -1.936109304660931230e-01
-9.156337417662143707e-01 -2.708757235109806061e+01 -1.620557546848431230e-01
-6.907802261412143707e-01 -2.684135653078556061e+01 -1.572339773410931230e-01
-4.703212417662143707e-01 -2.659990145266056061e+01 -1.525037527317181230e-01
-2.532802261412143707e-01 -2.636223055422306061e+01 -1.478345632785931230e-01
-4.112202301621437073e-02 -2.612993074953556061e+01 -1.432874441379681230e-01
1.677402816712856293e-01 -2.590117098391056061e+01 -1.388013601535931230e-01
3.720859847962856293e-01 -2.567741610109806061e+01 -1.344220876926556230e-01
5.726475082337856293e-01 -2.545207430422306061e+01 -1.299970388645306230e-01
-1.051375929266214371e+00 -2.972294832766056061e+01 -8.225228788796812296e-02
-8.317714370787143707e-01 -3.010576082766056061e+01 -8.791329863015562296e-02
-5.761562027037143707e-01 -2.963408114016056061e+01 -8.089425566140562296e-02
-3.283534683287143707e-01 -2.918889071047306061e+01 -7.428719999734312296e-02
-8.921772614121437073e-02 -2.876677156984806061e+01 -6.801583769265562296e-02
1.428379379212856293e-01 -2.841667391359806061e+01 -6.279733183328062296e-02
3.681797347962856293e-01 -2.807646395266056061e+01 -5.774667265359312296e-02
5.881504379212856293e-01 -2.778142000734806061e+01 -5.335214140359312296e-02
-1.041976515203714371e+00 -2.954118563234806061e+01 4.988882539328187704e-02
-9.249110855162143707e-01 -3.226091219484806061e+01 2.207205293234437704e-02
-6.750331558287143707e-01 -3.246721102297306061e+01 1.995108125265687704e-02
-1.400619093328714371e+00 -6.955912996828556061e+01 -3.594281912082806230e-01
-1.316981948912143707e-01 -3.109025789797306061e+01 3.403494355734437704e-02
1.202549301087856293e-01 -3.069206453859806061e+01 3.810904023703187704e-02
3.593906722962856293e-01 -3.347600008547306061e+01 9.620881057344377041e-03
8.510898910462856293e-01 -6.720854403078556061e+01 -3.354108572239056230e-01
-1.032455030828714371e+00 -2.935832430422306061e+01 1.810381173854693770e-01
-8.301845230162143707e-01 -3.007219149172306061e+01 1.770097970729693770e-01
-6.056972183287143707e-01 -3.048344637453556061e+01 1.739580392604693770e-01
-3.663173355162143707e-01 -3.062053133547306061e+01 1.731493234401568770e-01
-1.229091323912143707e-01 -3.061076571047306061e+01 1.731798410182818770e-01
1.252598129212856293e-01 -3.018010164797306061e+01 1.755754709010943770e-01
3.648838363587856293e-01 -3.009318758547306061e+01 1.767503976589068770e-01
6.130527816712856293e-01 -3.152275301516056061e+01 1.686784982448443770e-01
-1.082381788641214371e+00 -3.033000399172306061e+01 3.086168527370318770e-01
-8.377528823912143707e-01 -3.024724031984806061e+01 3.086473703151568770e-01
-5.934901870787143707e-01 -3.013713289797306061e+01 3.087084054714068770e-01
-3.669276870787143707e-01 -3.064518953859806061e+01 3.081285714870318770e-01
-1.198573745787143707e-01 -3.044792391359806061e+01 3.082811593776568770e-01
1.178135238587856293e-01 -3.093364168703556061e+01 3.077318429714068770e-01
3.640293441712856293e-01 -3.060893465578556061e+01 3.080065011745318770e-01
6.134189926087856293e-01 -3.158793856203556061e+01 3.069383859401568770e-01
-9.185634292662143707e-01 -2.715275789797306061e+01 4.309465646510943770e-01
-6.934657730162143707e-01 -2.691044832766056061e+01 4.293901681667193770e-01
-4.725185073912143707e-01 -2.667180086672306061e+01 4.284746408229693770e-01
-2.551112808287143707e-01 -2.643681551516056061e+01 4.275743722682818770e-01
-4.246479645371437073e-02 -2.620707918703556061e+01 4.266893625026568770e-01
1.670078597962856293e-01 -2.598076082766056061e+01 4.258196115260943770e-01
3.718418441712856293e-01 -2.575944735109806061e+01 4.249651193385943770e-01
5.730137191712856293e-01 -2.554130770266056061e+01 4.247209787135943770e-01
-9.186854995787143707e-01 -2.715703035891056061e+01 5.494005441432818770e-01
-6.932216323912143707e-01 -2.690580965578556061e+01 5.472643136745318770e-01
-4.721522964537143707e-01 -2.665959383547306061e+01 5.451586007839068770e-01
-2.545009292662143707e-01 -2.641740633547306061e+01 5.430986642604693770e-01
-4.197651520371437073e-02 -2.618058992922306061e+01 5.410692453151568770e-01
1.673740707337856293e-01 -2.594755770266056061e+01 5.390856027370318770e-01
3.719639144837856293e-01 -2.571965242922306061e+01 5.371477365260943770e-01
5.727695785462856293e-01 -2.549601961672306061e+01 5.352403878932818770e-01
-9.170985855162143707e-01 -2.712651278078556061e+01 6.680681466823443770e-01
-6.916347183287143707e-01 -2.687199617922306061e+01 6.640703439479693770e-01
-4.708095230162143707e-01 -2.662358309328556061e+01 6.608049630885943770e-01
-2.535243667662143707e-01 -2.637919832766056061e+01 6.575700998073443770e-01
-4.124409332871437073e-02 -2.614042879641056061e+01 6.544267892604693770e-01
1.677402816712856293e-01 -2.590544344484806061e+01 6.513139962917193770e-01
3.719639144837856293e-01 -2.567570711672306061e+01 6.482927560573443770e-01
5.724033676087856293e-01 -2.545109774172306061e+01 6.459123849635943770e-01
-1.143905226141214371e+00 -3.153154207766056061e+01 8.628160714870318770e-01
-8.824306167662143707e-01 -3.129081942141056061e+01 8.584825753932818770e-01
-6.518397964537143707e-01 -3.181596590578556061e+01 8.674242257839068770e-01
-3.758388198912143707e-01 -3.098857332766056061e+01 8.529131173854693770e-01
-1.263271011412143707e-01 -3.080937410891056061e+01 8.496477365260943770e-01
9.169047698378562927e-02 -3.356743074953556061e+01 8.973161935573443770e-01
3.592686019837856293e-01 -3.347600008547306061e+01 8.955614328151568770e-01
-1.146468702703714371e+00 -3.158342196047306061e+01 1.003120636916719377e+00
-8.788905777037143707e-01 -3.121086336672306061e+01 9.947588205104693770e-01
-3.753505386412143707e-01 -3.096965242922306061e+01 9.883806466823443770e-01
9.022563323378562927e-02 -3.371281649172306061e+01 1.048927521682344377e+00
3.593906722962856293e-01 -3.340483309328556061e+01 1.041969513869844377e+00
9.120219573378562927e-02 -3.362187410891056061e+01 1.194786286330781877e+00
3.592686019837856293e-01 -3.347600008547306061e+01 1.190696930862031877e+00
4.699863754212856293e-01 -1.002470614016056061e+01 -1.904218435520306230e-01
5.422520004212856293e-01 -1.002653719484806061e+01 -1.904218435520306230e-01
6.143955551087856293e-01 -1.002482821047306061e+01 -1.904218435520306230e-01
6.869053207337856293e-01 -1.002311922609806061e+01 -1.904218435520306230e-01
7.591709457337856293e-01 -1.002153231203556061e+01 -1.904218435520306230e-01
8.316807113587856293e-01 -1.001982332766056061e+01 -1.904218435520306230e-01
9.039463363587856293e-01 -1.001811434328556061e+01 -1.904218435520306230e-01
9.759678207337856293e-01 -1.001286531984806061e+01 -1.904218435520306230e-01
4.752353988587856293e-01 -1.079826571047306061e+01 -1.937940359348431230e-01
5.536045394837856293e-01 -1.078581453859806061e+01 -1.931836843723431230e-01
6.318516097962856293e-01 -1.077348543703556061e+01 -1.925885915989056230e-01
7.103428207337856293e-01 -1.076518465578556061e+01 -1.919934988254681230e-01
7.883457504212856293e-01 -1.075285555422306061e+01 -1.913984060520306230e-01
8.662266097962856293e-01 -1.073637606203556061e+01 -1.908033132785931230e-01
9.441074691712856293e-01 -1.072844149172306061e+01 -1.904523611301556230e-01
1.022354539483785629e+00 -1.072661043703556061e+01 -1.904523611301556230e-01
4.808506332337856293e-01 -1.164470125734806061e+01 -1.937787771457806230e-01
5.662998519837856293e-01 -1.163017489016056061e+01 -1.931226492160931230e-01
6.515049301087856293e-01 -1.161577059328556061e+01 -1.924665212864056230e-01
7.368320785462856293e-01 -1.160136629641056061e+01 -1.918256521457806230e-01
8.216709457337856293e-01 -1.158696199953556061e+01 -1.911695242160931230e-01
9.066318832337856293e-01 -1.157255770266056061e+01 -1.905286550754681230e-01
9.918369613587856293e-01 -1.156999422609806061e+01 -1.904828787082806230e-01
1.077042039483785629e+00 -1.156816317141056061e+01 -1.904828787082806230e-01
4.871982894837856293e-01 -1.260100008547306061e+01 -1.913984060520306230e-01
5.811924301087856293e-01 -1.262407137453556061e+01 -1.922986746067181230e-01
6.753086410462856293e-01 -1.264006258547306061e+01 -1.931379080051556230e-01
7.701572738587856293e-01 -1.265629793703556061e+01 -1.939924001926556230e-01
8.650059066712856293e-01 -1.267241121828556061e+01 -1.948316335910931230e-01
9.596103988587856293e-01 -1.267009188234806061e+01 -1.948163748020306230e-01
1.052872117608785629e+00 -1.264982821047306061e+01 -1.939466238254681230e-01
1.145523484796285629e+00 -1.262260653078556061e+01 -1.930310964817181230e-01
4.979404769837856293e-01 -1.419108797609806061e+01 -2.068403005832806230e-01
6.046299301087856293e-01 -1.418876864016056061e+01 -2.068250417942181230e-01
7.114414535462856293e-01 -1.418644930422306061e+01 -2.067945242160931230e-01
8.184971176087856293e-01 -1.418412996828556061e+01 -2.067792654270306230e-01
9.251865707337856293e-01 -1.417888094484806061e+01 -2.066419363254681230e-01
1.031265672296285629e+00 -1.415324617922306061e+01 -2.056348562473431230e-01
1.136612351983785629e+00 -1.412773348391056061e+01 -2.046430349582806230e-01
1.241592820733785629e+00 -1.410246492922306061e+01 -2.036512136692181230e-01
5.117344222962856293e-01 -1.624943758547306061e+01 -2.256696462864056230e-01
6.352695785462856293e-01 -1.622795321047306061e+01 -2.245557546848431230e-01
7.581943832337856293e-01 -1.619426180422306061e+01 -2.233655691379681230e-01
8.806309066712856293e-01 -1.614750887453556061e+01 -2.216718435520306230e-01
1.001846726983785629e+00 -1.609660555422306061e+01 -2.198255300754681230e-01
1.122696336358785629e+00 -1.604582430422306061e+01 -2.179792165989056230e-01
1.242325242608785629e+00 -1.599553133547306061e+01 -2.161481619114056230e-01
1.360611375421285629e+00 -1.593632723391056061e+01 -2.143323660129681230e-01
5.258945785462856293e-01 -1.836662508547306061e+01 -2.271650076145306230e-01
6.662754379212856293e-01 -1.830021883547306061e+01 -2.250135183567181230e-01
8.056797347962856293e-01 -1.823430086672306061e+01 -2.228925466770306230e-01
9.443516097962856293e-01 -1.816118074953556061e+01 -2.205274343723431230e-01
1.080460008233785629e+00 -1.806547762453556061e+01 -2.173993826145306230e-01
1.216446336358785629e+00 -1.798771883547306061e+01 -2.148816824192181230e-01
1.350723680108785629e+00 -1.791093660891056061e+01 -2.123944998020306230e-01
1.483902391046285629e+00 -1.783476473391056061e+01 -2.099225759739056230e-01
5.423740707337856293e-01 -2.082451082766056061e+01 -2.193677664035931230e-01
7.027744613587856293e-01 -2.073735262453556061e+01 -2.169111013645306230e-01
8.623203597962856293e-01 -2.066728426516056061e+01 -2.144849539035931230e-01
1.020889695733785629e+00 -2.058098055422306061e+01 -2.120588064426556230e-01
1.177505906671285629e+00 -2.049577547609806061e+01 -2.096631765598431230e-01
1.333389695733785629e+00 -2.041105867922306061e+01 -2.072828054660931230e-01
1.486587937921285629e+00 -2.031144930422306061e+01 -2.049482107395306230e-01
1.639297898858785629e+00 -2.022844149172306061e+01 -2.026136160129681230e-01
5.601963363587856293e-01 -2.349443270266056061e+01 -1.935956716770306230e-01
7.433018051087856293e-01 -2.343535067141056061e+01 -1.921918630832806230e-01
9.254307113587856293e-01 -2.337651278078556061e+01 -1.908033132785931230e-01
1.107437547296285629e+00 -2.331791903078556061e+01 -1.894147634739056230e-01
1.287857469171285629e+00 -2.325969149172306061e+01 -1.880414724582806230e-01
1.468155320733785629e+00 -2.320158602297306061e+01 -1.866681814426556230e-01
1.646866258233785629e+00 -2.314396883547306061e+01 -1.852948904270306230e-01
1.824478562921285629e+00 -2.308061434328556061e+01 -1.837995290989056230e-01
5.732578597962856293e-01 -2.545085360109806061e+01 -1.299817800754681230e-01
7.710117660462856293e-01 -2.528776766359806061e+01 -1.268079519504681230e-01
9.662021957337856293e-01 -2.512663485109806061e+01 -1.236646414035931230e-01
1.159439500421285629e+00 -2.496708895266056061e+01 -1.205518484348431230e-01
1.349747117608785629e+00 -2.481010653078556061e+01 -1.175000906223431230e-01
1.538223680108785629e+00 -2.465458895266056061e+01 -1.144635915989056230e-01
1.723648484796285629e+00 -2.450151278078556061e+01 -1.114881277317181230e-01
1.907730516046285629e+00 -2.436540438234806061e+01 -1.088330984348431230e-01
5.888828597962856293e-01 -2.777922274172306061e+01 -5.332162382546812296e-02
8.065342269837856293e-01 -2.766154696047306061e+01 -5.153634550515562296e-02
1.021744187921285629e+00 -2.751445223391056061e+01 -4.930856230203062296e-02
1.234268601983785629e+00 -2.733195711672306061e+01 -4.654672148171812296e-02
1.443252976983785629e+00 -2.715251375734806061e+01 -4.384591581765562296e-02
1.647598680108785629e+00 -2.692119051516056061e+01 -4.038217070046812296e-02
1.854141648858785629e+00 -2.680827547609806061e+01 -3.865792753640562296e-02
1.999527391046285629e+00 -2.577958895266056061e+01 -2.338387968484312296e-02
8.529209457337856293e-01 -6.720378328859806061e+01 -3.353650808567181230e-01
1.183365281671285629e+00 -5.279069735109806061e+01 -1.877820730442181230e-01
1.593399461358785629e+00 -5.205314852297306061e+01 -1.800763845676556230e-01
2.025894578546285629e+00 -5.236076571047306061e+01 -1.830518484348431230e-01
1.470962937921285629e+00 -2.785026766359806061e+01 6.749746797140687704e-02
1.702652391046285629e+00 -2.806523348391056061e+01 6.539175508078187704e-02
1.915787156671285629e+00 -2.789933992922306061e+01 6.717703340109437704e-02
2.065811570733785629e+00 -2.680229403078556061e+01 7.845327851828187704e-02
6.139072738587856293e-01 -3.152214266359806061e+01 1.686784982448443770e-01
1.457168992608785629e+00 -7.105485750734806061e+01 -5.324532988015562296e-02
1.605728562921285629e+00 -5.258989168703556061e+01 4.946157929953187704e-02
2.024429734796285629e+00 -5.231755281984806061e+01 5.123159883078187704e-02
1.491226609796285629e+00 -2.836088778078556061e+01 1.862871408229693770e-01
1.711929734796285629e+00 -2.825993563234806061e+01 1.869890451198443770e-01
1.858536180108785629e+00 -2.688981844484806061e+01 1.954271554714068770e-01
2.067764695733785629e+00 -2.683647371828556061e+01 1.958544015651568770e-01
6.142734847962856293e-01 -3.158745028078556061e+01 3.069383859401568770e-01
1.696182664483785629e+00 -8.701140047609806061e+01 2.497789621120318770e-01
2.378189500421285629e+00 -8.575627352297306061e+01 2.515794992214068770e-01
2.044205125421285629e+00 -5.294877840578556061e+01 2.856371164089068770e-01
2.471329148858785629e+00 -5.290373446047306061e+01 2.859880685573443770e-01
1.686050828546285629e+00 -2.772490145266056061e+01 3.117449044948443770e-01
1.906387742608785629e+00 -2.773796297609806061e+01 3.118822335964068770e-01
2.067276414483785629e+00 -2.683024813234806061e+01 3.129503488307818770e-01
5.737461410462856293e-01 -2.553984285891056061e+01 4.247209787135943770e-01
7.718662582337856293e-01 -2.536210848391056061e+01 4.236681222682818770e-01
9.676670394837856293e-01 -2.520134188234806061e+01 4.232713937526568770e-01
1.161514695733785629e+00 -2.504204012453556061e+01 4.228746652370318770e-01
1.352310594171285629e+00 -2.488530184328556061e+01 4.224931955104693770e-01
1.541275437921285629e+00 -2.473002840578556061e+01 4.221117257839068770e-01
1.727310594171285629e+00 -2.457719637453556061e+01 4.217302560573443770e-01
1.911026414483785629e+00 -2.442558504641056061e+01 4.219286203151568770e-01
5.733799301087856293e-01 -2.549455477297306061e+01 5.352251291042193770e-01
7.712559066712856293e-01 -2.531962801516056061e+01 5.340044259792193770e-01
9.665684066712856293e-01 -2.515715242922306061e+01 5.328905343776568770e-01
1.159927781671285629e+00 -2.499614168703556061e+01 5.317766427760943770e-01
1.350235398858785629e+00 -2.483769442141056061e+01 5.306932687526568770e-01
1.538834031671285629e+00 -2.468083406984806061e+01 5.296098947292193770e-01
1.724380906671285629e+00 -2.452641512453556061e+01 5.285417794948443770e-01
1.907486375421285629e+00 -2.437394930422306061e+01 5.275041818385943770e-01
5.731357894837856293e-01 -2.544963289797306061e+01 6.458971261745318770e-01
7.705234847962856293e-01 -2.527885653078556061e+01 6.433641671901568770e-01
9.655918441712856293e-01 -2.511992098391056061e+01 6.415788888698443770e-01
1.158829148858785629e+00 -2.496245028078556061e+01 6.398241281276568770e-01
1.349014695733785629e+00 -2.480742098391056061e+01 6.380693673854693770e-01
1.537369187921285629e+00 -2.465385653078556061e+01 6.363451242214068770e-01
1.722916062921285629e+00 -2.450273348391056061e+01 6.346513986354693770e-01
1.906021531671285629e+00 -2.435295321047306061e+01 6.335375070339068770e-01
3.594986375421285629e+00 -5.759257723391056061e+01 1.317115998244844377e+00
4.173843797296285629e+00 -5.929704500734806061e+01 1.347419953322969377e+00
3.140396531671285629e+00 -5.787358309328556061e+01 1.581962800002656877e+00
3.621231492608785629e+00 -5.806181551516056061e+01 1.586830353713594377e+00
4.067642625421285629e+00 -5.766557528078556061e+01 1.578834748244844377e+00
3.132461961358785629e+00 -5.771537996828556061e+01 1.836952424026094377e+00
3.640274461358785629e+00 -5.840226961672306061e+01 1.856010651565156877e+00
9.763340316712856293e-01 -1.001298739016056061e+01 -1.904371023410931230e-01
1.048599656671285629e+00 -1.001176668703556061e+01 -1.904371023410931230e-01
1.120743211358785629e+00 -1.000700594484806061e+01 -1.904371023410931230e-01
1.193252976983785629e+00 -1.000236727297306061e+01 -1.904371023410931230e-01
1.265396531671285629e+00 -9.997606530785560608e+00 -1.904371023410931230e-01
1.337906297296285629e+00 -9.992845788598060608e+00 -1.904371023410931230e-01
1.410293992608785629e+00 -9.988207116723060608e+00 -1.904371023410931230e-01
1.482193406671285629e+00 -9.979906335473060608e+00 -1.904371023410931230e-01
1.022598680108785629e+00 -1.072673250734806061e+01 -1.904523611301556230e-01
1.100723680108785629e+00 -1.072184969484806061e+01 -1.904523611301556230e-01
1.178726609796285629e+00 -1.071696688234806061e+01 -1.904523611301556230e-01
1.257461961358785629e+00 -1.071611239016056061e+01 -1.904523611301556230e-01
1.335709031671285629e+00 -1.071122957766056061e+01 -1.904523611301556230e-01
1.413711961358785629e+00 -1.070219637453556061e+01 -1.904523611301556230e-01
1.491959031671285629e+00 -1.069731356203556061e+01 -1.904523611301556230e-01
1.570206101983785629e+00 -1.069230867922306061e+01 -1.904523611301556230e-01
1.077286180108785629e+00 -1.156828524172306061e+01 -1.904828787082806230e-01
1.162369187921285629e+00 -1.156315828859806061e+01 -1.904828787082806230e-01
1.247452195733785629e+00 -1.155803133547306061e+01 -1.904828787082806230e-01
1.332779344171285629e+00 -1.155290438234806061e+01 -1.904828787082806230e-01
1.417984422296285629e+00 -1.154777742922306061e+01 -1.904828787082806230e-01
1.503555711358785629e+00 -1.154265047609806061e+01 -1.904828787082806230e-01
1.588760789483785629e+00 -1.153752352297306061e+01 -1.904828787082806230e-01
1.674087937921285629e+00 -1.153239656984806061e+01 -1.904828787082806230e-01
1.145767625421285629e+00 -1.262260653078556061e+01 -1.930310964817181230e-01
1.238663133233785629e+00 -1.260527254641056061e+01 -1.921918630832806230e-01
1.330948289483785629e+00 -1.258110262453556061e+01 -1.913068533176556230e-01
1.423355516046285629e+00 -1.255925203859806061e+01 -1.905286550754681230e-01
1.516983445733785629e+00 -1.255388094484806061e+01 -1.905286550754681230e-01
1.610977586358785629e+00 -1.254863192141056061e+01 -1.905286550754681230e-01
1.704605516046285629e+00 -1.254326082766056061e+01 -1.905286550754681230e-01
1.797623094171285629e+00 -1.253215242922306061e+01 -1.905286550754681230e-01
1.241959031671285629e+00 -1.410234285891056061e+01 -2.036359548801556230e-01
1.346207078546285629e+00 -1.407267977297306061e+01 -2.026136160129681230e-01
1.450333055108785629e+00 -1.404301668703556061e+01 -2.015912771457806230e-01
1.554336961358785629e+00 -1.401347567141056061e+01 -2.005841970676556230e-01
1.657730516046285629e+00 -1.398405672609806061e+01 -1.995618582004681230e-01
1.761124070733785629e+00 -1.395463778078556061e+01 -1.985547781223431230e-01
1.863907273858785629e+00 -1.392534090578556061e+01 -1.975476980442181230e-01
1.966324266046285629e+00 -1.389616610109806061e+01 -1.965406179660931230e-01
1.361099656671285629e+00 -1.593632723391056061e+01 -2.143323660129681230e-01
1.479629930108785629e+00 -1.589213778078556061e+01 -2.125318289035931230e-01
1.596939500421285629e+00 -1.583903719484806061e+01 -2.107312917942181230e-01
1.713882859796285629e+00 -1.578605867922306061e+01 -2.089460134739056230e-01
1.829849656671285629e+00 -1.573356844484806061e+01 -2.071759939426556230e-01
1.945572312921285629e+00 -1.568120028078556061e+01 -2.054059744114056230e-01
2.060196336358785629e+00 -1.562919832766056061e+01 -2.036512136692181230e-01
2.173111375421285629e+00 -1.556877352297306061e+01 -2.019269705051556230e-01
1.484390672296285629e+00 -1.783452059328556061e+01 -2.099225759739056230e-01
1.616226609796285629e+00 -1.775602938234806061e+01 -2.074964285129681230e-01
1.747085984796285629e+00 -1.767814852297306061e+01 -2.050855398410931230e-01
1.877335008233785629e+00 -1.760063387453556061e+01 -2.027051687473431230e-01
2.009415086358785629e+00 -1.755815340578556061e+01 -2.014692068332806230e-01
2.142960008233785629e+00 -1.752861239016056061e+01 -2.006757498020306230e-01
2.275650437921285629e+00 -1.749931551516056061e+01 -1.998975515598431230e-01
2.405777391046285629e+00 -1.745048739016056061e+01 -1.984479665989056230e-01
1.639786180108785629e+00 -2.022819735109806061e+01 -2.025983572239056230e-01
1.791153367608785629e+00 -2.014238192141056061e+01 -2.002942800754681230e-01
1.943130906671285629e+00 -2.008037020266056061e+01 -1.982038259739056230e-01
2.096329148858785629e+00 -2.003434969484806061e+01 -1.970288992160931230e-01
2.248550828546285629e+00 -1.998857332766056061e+01 -1.958692312473431230e-01
2.400772508233785629e+00 -1.994279696047306061e+01 -1.947095632785931230e-01
2.550186570733785629e+00 -1.988188387453556061e+01 -1.935651540989056230e-01
2.700699266046285629e+00 -1.983671785891056061e+01 -1.924054861301556230e-01
1.825088914483785629e+00 -2.308061434328556061e+01 -1.837995290989056230e-01
2.007217820733785629e+00 -2.309135653078556061e+01 -1.841504812473431230e-01
2.190689500421285629e+00 -2.311296297609806061e+01 -1.847608328098431230e-01
2.376602586358785629e+00 -2.314665438234806061e+01 -1.856611013645306230e-01
2.562637742608785629e+00 -2.318046785891056061e+01 -1.865613699192181230e-01
2.750259812921285629e+00 -2.321452547609806061e+01 -1.874768972629681230e-01
2.937515672296285629e+00 -2.324394442141056061e+01 -1.882703542942181230e-01
3.121597703546285629e+00 -2.324150301516056061e+01 -1.883161306614056230e-01
1.908462937921285629e+00 -2.436540438234806061e+01 -1.088330984348431230e-01
2.100113328546285629e+00 -2.436027742922306061e+01 -1.087415457004681230e-01
2.369888719171285629e+00 -2.530949617922306061e+01 -1.271894216770306230e-01
2.567154344171285629e+00 -2.526445223391056061e+01 -1.263349294895306230e-01
2.763199266046285629e+00 -2.521953035891056061e+01 -1.254651785129681230e-01
2.814224656671285629e+00 -2.381511141359806061e+01 -9.821298124734312296e-02
3.139908250421285629e+00 -2.500224520266056061e+01 -1.212842703098431230e-01
3.308731492608785629e+00 -2.475578524172306061e+01 -1.165082693332806230e-01
2.000259812921285629e+00 -2.578032137453556061e+01 -2.339913847390562296e-02
2.212051805108785629e+00 -2.588945223391056061e+01 -2.494027616921812296e-02
2.389053758233785629e+00 -2.554558016359806061e+01 -1.978280546609312296e-02
2.607315476983785629e+00 -2.571330477297306061e+01 -2.219369413796812296e-02
2.820450242608785629e+00 -2.580314852297306061e+01 -2.344491484109312296e-02
2.813980516046285629e+00 -2.381498934328556061e+01 6.019806838594377041e-03
3.235489305108785629e+00 -2.583293367922306061e+01 -2.373483183328062296e-02
3.361954148858785629e+00 -2.518876864016056061e+01 -1.413705351296812296e-02
2.066421922296285629e+00 -2.680204989016056061e+01 7.845327851828187704e-02
2.206680711358785629e+00 -2.581804110109806061e+01 8.866140840109437704e-02
2.429336961358785629e+00 -2.604155184328556061e+01 8.654043672140687704e-02
2.628555711358785629e+00 -2.595134188234806061e+01 8.762381074484437704e-02
2.802994187921285629e+00 -2.562883211672306061e+01 9.107229707296937704e-02
2.813736375421285629e+00 -2.381486727297306061e+01 1.096880197292193770e-01
3.198746141046285629e+00 -2.551689364016056061e+01 9.253714082296937704e-02
3.344498094171285629e+00 -2.504912020266056061e+01 9.745047090109437704e-02
2.068497117608785629e+00 -2.683622957766056061e+01 1.958544015651568770e-01
2.198135789483785629e+00 -2.570390535891056061e+01 2.024309396510943770e-01
2.389786180108785629e+00 -2.555961824953556061e+01 2.028734445339068770e-01
2.587906297296285629e+00 -2.550175692141056061e+01 2.034532785182818770e-01
2.802505906671285629e+00 -2.562492586672306061e+01 2.030107736354693770e-01
2.813492234796285629e+00 -2.381474520266056061e+01 2.133257150417193770e-01
3.163223680108785629e+00 -2.520964266359806061e+01 2.063982248073443770e-01
3.492325242608785629e+00 -2.624662996828556061e+01 2.009203195339068770e-01
2.067886766046285629e+00 -2.682866121828556061e+01 3.129503488307818770e-01
2.189835008233785629e+00 -2.559221102297306061e+01 3.145220041042193770e-01
2.436783250421285629e+00 -2.613627840578556061e+01 3.143236398464068770e-01
2.621719773858785629e+00 -2.587932039797306061e+01 3.149187326198443770e-01
2.801651414483785629e+00 -2.561833406984806061e+01 3.154985666042193770e-01
2.813370164483785629e+00 -2.381462313234806061e+01 3.175127267604693770e-01
3.199600633233785629e+00 -2.552763582766056061e+01 3.162615060573443770e-01
3.396255906671285629e+00 -2.547184969484806061e+01 3.166429757839068770e-01
1.911636766046285629e+00 -2.442460848391056061e+01 4.219286203151568770e-01
2.093155320733785629e+00 -2.427592684328556061e+01 4.212267160182818770e-01
2.272598680108785629e+00 -2.412822176516056061e+01 4.210893869167193770e-01
2.450699266046285629e+00 -2.398161531984806061e+01 4.209520578151568770e-01
2.626114305108785629e+00 -2.383732821047306061e+01 4.208147287135943770e-01
2.800186570733785629e+00 -2.369401766359806061e+01 4.206773996120318770e-01
2.978531297296285629e+00 -2.361076571047306061e+01 4.207689523464068770e-01
3.152603562921285629e+00 -2.350322176516056061e+01 4.213030099635943770e-01
1.908096726983785629e+00 -2.437297274172306061e+01 5.274889230495318770e-01
2.089127000421285629e+00 -2.422270418703556061e+01 5.267412423854693770e-01
2.268082078546285629e+00 -2.407402254641056061e+01 5.259935617214068770e-01
2.445572312921285629e+00 -2.392656160891056061e+01 5.252458810573443770e-01
2.620499070733785629e+00 -2.378129793703556061e+01 5.245287179714068770e-01
2.797256883233785629e+00 -2.366777254641056061e+01 5.240556955104693770e-01
2.972427781671285629e+00 -2.356047274172306061e+01 5.236284494167193770e-01
3.146255906671285629e+00 -2.345402742922306061e+01 5.232164621120318770e-01
1.906631883233785629e+00 -2.435197664797306061e+01 6.335222482448443770e-01
2.087662156671285629e+00 -2.420475985109806061e+01 6.316301584010943770e-01
2.266617234796285629e+00 -2.405851961672306061e+01 6.303179025417193770e-01
2.444229539483785629e+00 -2.391350008547306061e+01 6.290056466823443770e-01
2.619156297296285629e+00 -2.377067781984806061e+01 6.277239084010943770e-01
2.796036180108785629e+00 -2.365812899172306061e+01 6.268236398464068770e-01
2.971207078546285629e+00 -2.355143953859806061e+01 6.259996652370318770e-01
3.144913133233785629e+00 -2.344499422609806061e+01 6.257097482448443770e-01
4.089859422296285629e+00 -5.797709871828556061e+01 1.324440216994844377e+00
2.412002976983785629e+00 -2.863334871828556061e+01 8.144304513698443770e-01
2.618423875421285629e+00 -2.837089754641056061e+01 8.106157541042193770e-01
2.710953172296285629e+00 -2.687932039797306061e+01 7.853014230495318770e-01
2.843033250421285629e+00 -2.604789949953556061e+01 7.714464425807818770e-01
3.077896531671285629e+00 -2.630021883547306061e+01 7.765886544948443770e-01
3.371353562921285629e+00 -2.702751375734806061e+01 7.900774240260943770e-01
3.547012742608785629e+00 -2.669975496828556061e+01 7.850267648464068770e-01
4.069107469171285629e+00 -5.766179110109806061e+01 1.578743195510469377e+00
4.528580125421285629e+00 -5.752849031984806061e+01 1.577598786330781877e+00
2.653580125421285629e+00 -2.880510164797306061e+01 9.451067209010943770e-01
2.803848680108785629e+00 -2.791362215578556061e+01 9.256212472682818770e-01
2.958145555108785629e+00 -2.722075106203556061e+01 9.111406564479693770e-01
3.080704148858785629e+00 -2.632817293703556061e+01 8.928148507839068770e-01
3.373794969171285629e+00 -2.705046297609806061e+01 9.096452951198443770e-01
3.605118211358785629e+00 -2.717180086672306061e+01 9.131700753932818770e-01
2.543106492608785629e+00 -3.042900301516056061e+01 1.113609528518281877e+00
2.768204148858785629e+00 -3.021135164797306061e+01 1.108833527541719377e+00
3.003799851983785629e+00 -3.013798739016056061e+01 1.107902741408906877e+00
6.053360398858785629e+00 -5.869365145266056061e+01 1.872688508010469377e+00
3.251602586358785629e+00 -2.793156649172306061e+01 1.050850129104219377e+00
3.446793016046285629e+00 -2.768705965578556061e+01 1.045250153518281877e+00
3.617935594171285629e+00 -2.727812410891056061e+01 1.035835480666719377e+00
1.482437547296285629e+00 -9.979906335473060608e+00 -1.904218435520306230e-01
1.554825242608785629e+00 -9.975633874535560608e+00 -1.904218435520306230e-01
1.626846726983785629e+00 -9.967943444848060608e+00 -1.904218435520306230e-01
1.699234422296285629e+00 -9.960130944848060608e+00 -1.904371023410931230e-01
1.771377976983785629e+00 -9.952440515160560608e+00 -1.904371023410931230e-01
1.843887742608785629e+00 -9.944628015160560608e+00 -1.904371023410931230e-01
1.916153367608785629e+00 -9.936815515160560608e+00 -1.904371023410931230e-01
1.987808641046285629e+00 -9.925585046410560608e+00 -1.904371023410931230e-01
1.570450242608785629e+00 -1.069230867922306061e+01 -1.904523611301556230e-01
