2.869433602690696716e+01 -5.618901771306991577e+01 -6.722715953364399866e-02
2.932617196440696716e+01 -5.602934974431991577e+01 -8.895567515864399866e-02
2.996569833159446716e+01 -5.587822669744491577e+01 -1.107604847289564987e-01
3.062878426909446716e+01 -5.576055091619491577e+01 -1.327178821898939987e-01
3.129370126128196716e+01 -5.564263099431991577e+01 -1.547210560180189987e-01
3.197631844878196716e+01 -5.554875892400741577e+01 -1.768615589477064987e-01
3.264184579253196716e+01 -5.541008704900741577e+01 -1.992462025023939987e-01
3.330480965971946716e+01 -5.526396888494491577e+01 -2.216766224242689987e-01
3.019848641753196716e+01 -5.930205482244491577e+01 2.501251353882310013e-01
3.026562508940696716e+01 -5.791619056463241577e+01 2.206451549194810013e-01
3.164318856596946716e+01 -5.918132728338241577e+01 2.088501109741685013e-01
3.476892098784446716e+01 -6.374639075994491577e+01 2.178833140991685013e-01
3.338171395659446716e+01 -5.956255286931991577e+01 1.683227672241685013e-01
3.669018563628196716e+01 -6.421599525213241577e+01 1.741211070679185013e-01
3.642517098784446716e+01 -6.219914954900741577e+01 1.389343394897935013e-01
3.724340829253196716e+01 -6.216948646306991577e+01 1.136505260132310013e-01
3.113220223784446716e+01 -6.122356361150741577e+01 5.857116832397935013e-01
3.194799813628196716e+01 -6.131096595525741577e+01 5.668518199585435013e-01
3.220800790190696716e+01 -6.027703040838241577e+01 5.340911998413560013e-01
3.272778329253196716e+01 -5.977446693181991577e+01 5.080291881226060013e-01
3.401440438628196716e+01 -6.073296302556991577e+01 4.989349498413560013e-01
3.612219247221946716e+01 -6.314433997869491577e+01 5.052215709351060013e-01
3.665600594878196716e+01 -6.259014075994491577e+01 4.774963512085435013e-01
3.752392587065696716e+01 -6.263835853338241577e+01 4.563018932007310013e-01
3.144262704253196716e+01 -6.184538978338241577e+01 9.160644664429185013e-01
3.159826669096946716e+01 -6.057622474431991577e+01 8.752624644897935013e-01
3.225219735503196716e+01 -6.034038490056991577e+01 8.545715465210435013e-01
3.516430673003196716e+01 -6.445989173650741577e+01 9.061615123413560013e-01
3.402148446440696716e+01 -6.072234290838241577e+01 8.238556041382310013e-01
3.508508309721946716e+01 -6.120928138494491577e+01 8.129150523804185013e-01
3.700561532378196716e+01 -6.319487708806991577e+01 8.237182750366685013e-01
3.755041512846946716e+01 -6.266081947088241577e+01 7.951995982788560013e-01
3.130505380034446716e+01 -6.153374427556991577e+01 1.233172620739793501e+00
3.195983895659446716e+01 -6.128557533025741577e+01 1.210787977185106001e+00
3.469506844878196716e+01 -6.515349525213241577e+01 1.280734266247606001e+00
3.526062020659446716e+01 -6.462029212713241577e+01 1.250781263317918501e+00
3.404821786284446716e+01 -6.074895423650741577e+01 1.147875989880418501e+00
3.603259286284446716e+01 -6.292986243963241577e+01 1.177798475231981001e+00
3.704675301909446716e+01 -6.324407142400741577e+01 1.166400159802293501e+00
3.742504891753196716e+01 -6.241619056463241577e+01 1.130664075817918501e+00
3.172399911284446716e+01 -6.238091224431991577e+01 1.578021253552293501e+00
3.233483895659446716e+01 -6.202202552556991577e+01 1.552737440075731001e+00
3.483020028471946716e+01 -6.539507240056991577e+01 1.630389417614793501e+00
3.491503915190696716e+01 -6.392729896306991577e+01 1.573855604138231001e+00
3.406726083159446716e+01 -6.076091712713241577e+01 1.471911634411668501e+00
3.601416024565696716e+01 -6.287114661931991577e+01 1.513003553356981001e+00
3.154089364409446716e+01 -6.197441810369491577e+01 1.891802991833543501e+00
3.234509286284446716e+01 -6.201763099431991577e+01 1.879687513317918501e+00
3.394958505034446716e+01 -6.362639564275741577e+01 1.918688978161668501e+00
3.352258309721946716e+01 -6.121379798650741577e+01 1.825976575817918501e+00
3.407861337065696716e+01 -6.075823158025741577e+01 1.797473157849168501e+00
3.585314950346946716e+01 -6.255022376775741577e+01 1.841128553356981001e+00
3.154138192534446716e+01 -6.195037025213241577e+01 2.214465345349168501e+00
3.230407723784446716e+01 -6.190959876775741577e+01 2.201037610974168501e+00
3.293469247221946716e+01 -6.159380286931991577e+01 2.177096570935106001e+00
3.354943856596946716e+01 -6.124138587713241577e+01 2.151721204724168501e+00
3.398242196440696716e+01 -6.055290931463241577e+01 2.113787855114793501e+00
3.627807626128196716e+01 -6.330730384588241577e+01 2.204455579724168501e+00
3.714611825346946716e+01 -6.334856361150741577e+01 2.193179334606981001e+00
3.122521981596946716e+01 -6.126799720525741577e+01 2.510180677380418501e+00
3.230334481596946716e+01 -6.188310950994491577e+01 2.526675428356981001e+00
3.388464364409446716e+01 -6.344731849431991577e+01 2.581958021130418501e+00
3.341271981596946716e+01 -6.095329993963241577e+01 2.464343275036668501e+00
3.393615731596946716e+01 -6.044194740056991577e+01 2.432147230114793501e+00
3.600805673003196716e+01 -6.278606361150741577e+01 2.521472181286668501e+00
3.718469247221946716e+01 -6.339299720525741577e+01 2.538073743786668501e+00
3.153820809721946716e+01 -6.189336341619491577e+01 2.860736097302293501e+00
3.258544930815696716e+01 -6.242986243963241577e+01 2.878146375622606001e+00
3.271191415190696716e+01 -6.110417884588241577e+01 2.805560316052293501e+00
3.314013680815696716e+01 -6.040349525213241577e+01 2.763262952771043501e+00
3.388220223784446716e+01 -6.031658118963241577e+01 2.750506605114793501e+00
3.540966805815696716e+01 -6.166167396306991577e+01 2.806124891247606001e+00
3.158642587065696716e+01 -6.196843665838241577e+01 3.190051282849168501e+00
3.219287118315696716e+01 -6.160979408025741577e+01 3.162280286755418501e+00
3.386499032378196716e+01 -6.335771888494491577e+01 3.248645032849168501e+00
3.319555673003196716e+01 -6.048638099431991577e+01 3.088580335583543501e+00
3.391577157378196716e+01 -6.035588783025741577e+01 3.074725355114793501e+00
3.542065438628196716e+01 -6.165776771306991577e+01 3.136767591442918501e+00
3.164770516753196716e+01 -6.207073158025741577e+01 3.520129407849168501e+00
3.257556161284446716e+01 -6.235967200994491577e+01 3.531863416638231001e+00
3.316320809721946716e+01 -6.194646400213241577e+01 3.502413953747606001e+00
3.345874032378196716e+01 -6.096941322088241577e+01 3.439990247692918501e+00
3.395422372221946716e+01 -6.040434974431991577e+01 3.401736463513231001e+00
3.197534188628196716e+01 -6.272527259588241577e+01 3.888369764294481001e+00
3.269384774565696716e+01 -6.257390540838241577e+01 3.873400892224168501e+00
3.304089364409446716e+01 -6.168022865056991577e+01 3.812899793591356001e+00
3.554492196440696716e+01 -6.496294349431991577e+01 4.018176282849168501e+00
3.420275887846946716e+01 -6.084758704900741577e+01 3.752764905896043501e+00
3.201721200346946716e+01 -6.278679603338241577e+01 4.220797742810106001e+00
3.243981942534446716e+01 -6.203472083806991577e+01 4.167117322888231001e+00
3.346423348784446716e+01 -6.249089759588241577e+01 4.196673597302293501e+00
3.341113290190696716e+01 -6.082915443181991577e+01 4.080386365856981001e+00
3.407543954253196716e+01 -6.058415931463241577e+01 4.061679090466356001e+00
3.255163583159446716e+01 -6.386968177556991577e+01 4.631381238903856001e+00
3.227844247221946716e+01 -6.168340247869491577e+01 4.469332899060106001e+00
3.289758309721946716e+01 -6.134831947088241577e+01 4.442614759411668501e+00
3.344921883940696716e+01 -6.087834876775741577e+01 4.407672132458543501e+00
3.548193368315696716e+01 -6.320244544744491577e+01 4.579516614880418501e+00
3.150927743315696716e+01 -6.168291419744491577e+01 4.794314588513231001e+00
3.319384774565696716e+01 -6.350896400213241577e+01 4.938677991833543501e+00
3.339123544096946716e+01 -6.229692786931991577e+01 4.844256605114793501e+00
3.370971688628196716e+01 -6.135515540838241577e+01 4.771197523083543501e+00
3.410180673003196716e+01 -6.058599036931991577e+01 4.711795057263231001e+00
1.989599618315696716e+01 -3.171990150213241577e+01 -9.241760120727064987e-01
1.987451180815696716e+01 -3.092449134588241577e+01 -9.241454944945814987e-01
1.982995614409446716e+01 -3.011675208806991577e+01 -9.241149769164564987e-01
1.978649911284446716e+01 -2.933611243963241577e+01 -9.240844593383314987e-01
1.980578622221946716e+01 -2.868450111150741577e+01 -9.263427601195814987e-01
1.970483407378196716e+01 -2.786370033025741577e+01 -9.240234241820814987e-01
1.966613778471946716e+01 -2.716435950994491577e+01 -9.240081653930189987e-01
1.960681161284446716e+01 -2.645818275213241577e+01 -9.239623890258314987e-01
2.135632333159446716e+01 -3.427934974431991577e+01 -7.887542591430189987e-01
2.146398934721946716e+01 -3.364788001775741577e+01 -7.968108997680189987e-01
2.159143075346946716e+01 -3.306865638494491577e+01 -8.043487415648939987e-01
2.173376473784446716e+01 -3.252727454900741577e+01 -8.132140980102064987e-01
2.187915048003196716e+01 -3.200823158025741577e+01 -8.220641956664564987e-01
2.203796395659446716e+01 -3.152373450994491577e+01 -8.312194691039564987e-01
2.219372567534446716e+01 -3.104448646306991577e+01 -8.411834583617689987e-01
2.236730965971946716e+01 -3.060588783025741577e+01 -8.506133900023939987e-01
2.248937997221946716e+01 -3.626055091619491577e+01 -6.200530872680189987e-01
2.203454598784446716e+01 -3.461638587713241577e+01 -6.200378284789564987e-01
2.206774911284446716e+01 -3.385674232244491577e+01 -6.289031849242689987e-01
2.225805673003196716e+01 -3.337663978338241577e+01 -6.406677112914564987e-01
2.247094735503196716e+01 -3.294731849431991577e+01 -6.527526722289564987e-01
2.268969735503196716e+01 -3.253667396306991577e+01 -6.648681507445814987e-01
2.293200692534446716e+01 -3.216838783025741577e+01 -6.774108753539564987e-01
2.318933114409446716e+01 -3.183183997869491577e+01 -6.901672230102064987e-01
2.335864266753196716e+01 -3.777617591619491577e+01 -4.289367542602064987e-01
2.330517587065696716e+01 -3.678801673650741577e+01 -4.398467884398939987e-01
2.338940438628196716e+01 -3.606523841619491577e+01 -4.528320179320814987e-01
2.272534188628196716e+01 -3.413152259588241577e+01 -4.573028431273939987e-01
2.368701180815696716e+01 -3.488909095525741577e+01 -4.794128284789564987e-01
2.384460458159446716e+01 -3.433977454900741577e+01 -4.924590931273939987e-01
2.405529794096946716e+01 -3.388359779119491577e+01 -5.060241566039564987e-01
2.426818856596946716e+01 -3.344341224431991577e+01 -5.204589710570814987e-01
3.330749520659446716e+01 -5.526409095525741577e+01 -2.217681751586439987e-01
3.397412118315696716e+01 -5.511614173650741577e+01 -2.454803333617689987e-01
2.521081551909446716e+01 -3.911199134588241577e+01 -2.549102650023939987e-01
2.273413094878196716e+01 -3.413262122869491577e+01 -2.657440052367689987e-01
2.452929696440696716e+01 -3.622893470525741577e+01 -2.849853382445814987e-01
2.464160165190696716e+01 -3.557903236150741577e+01 -3.001678333617689987e-01
2.470837411284446716e+01 -3.487456458806991577e+01 -3.148925648070814987e-01
2.488806161284446716e+01 -3.436296790838241577e+01 -3.297241077758314987e-01
3.724597176909446716e+01 -6.216887611150741577e+01 1.135437144897935013e-01
3.823120126128196716e+01 -6.241106361150741577e+01 9.186097523198100134e-02
3.737316903471946716e+01 -5.952873939275741577e+01 5.400391956791850134e-02
3.666357430815696716e+01 -5.699675697088241577e+01 1.945802113041850134e-02
3.688439950346946716e+01 -5.605925697088241577e+01 -7.443223986768998657e-03
3.350744637846946716e+01 -4.949443763494491577e+01 -5.213621715083149866e-02
2.699780282378196716e+01 -3.837993568181991577e+01 -1.046417103148939987e-01
2.672363290190696716e+01 -3.711064857244491577e+01 -1.254852161742689987e-01
3.752832040190696716e+01 -6.264104408025741577e+01 4.562408580444810013e-01
3.811303719878196716e+01 -6.218401283025741577e+01 4.288055553101060013e-01
3.738171395659446716e+01 -5.952019447088241577e+01 3.798553599976060013e-01
5.002160653471946716e+01 -7.890593665838241577e+01 5.399963512085435013e-01
3.775756844878196716e+01 -5.743987220525741577e+01 3.162567271851060013e-01
3.779138192534446716e+01 -5.620366615056991577e+01 2.835266246460435013e-01
2.667553719878196716e+01 -3.787004798650741577e+01 1.096222057007310013e-01
2.663623055815696716e+01 -3.696489661931991577e+01 8.739015003666850134e-02
3.755273446440696716e+01 -6.265959876775741577e+01 7.950927867554185013e-01
3.803308114409446716e+01 -6.202288001775741577e+01 7.644989146851060013e-01
3.738964852690696716e+01 -5.951042884588241577e+01 7.074768199585435013e-01
2.272619637846946716e+01 -3.407964271306991577e+01 3.106720103882310013e-01
3.986242684721946716e+01 -6.079607337713241577e+01 6.853210582397935013e-01
4.015600594878196716e+01 -5.989433997869491577e+01 6.514160289429185013e-01
4.076428231596946716e+01 -5.949407142400741577e+01 6.229278697632310013e-01
2.767126473784446716e+01 -3.850627845525741577e+01 3.202392711304185013e-01
3.742468270659446716e+01 -6.241033118963241577e+01 1.130465711560106001e+00
3.858117684721946716e+01 -6.293962806463241577e+01 1.122821058239793501e+00
3.739746102690696716e+01 -5.950066322088241577e+01 1.033389295544481001e+00
2.273022469878196716e+01 -3.407280677556991577e+01 5.021392955444810013e-01
4.055041512846946716e+01 -6.049053138494491577e+01 9.973327769897935013e-01
4.131640633940696716e+01 -6.031890052556991577e+01 9.747345103882310013e-01
4.173876962065696716e+01 -5.962651771306991577e+01 9.422180308960435013e-01
3.860693368315696716e+01 -6.295964759588241577e+01 1.465808118786668501e+00
3.740612801909446716e+01 -5.949236243963241577e+01 1.359362806286668501e+00
2.273413094878196716e+01 -3.406597083806991577e+01 6.936065807007310013e-01
4.048486337065696716e+01 -6.036467689275741577e+01 1.331805433239793501e+00
4.124743661284446716e+01 -6.019023841619491577e+01 1.310351575817918501e+00
4.183618173003196716e+01 -5.975029700994491577e+01 1.282351697888231001e+00
3.734863290190696716e+01 -5.937297767400741577e+01 1.683688367810106001e+00
2.273803719878196716e+01 -3.405901283025741577e+01 8.860962047241685013e-01
4.052343758940696716e+01 -6.040203040838241577e+01 1.671847547497606001e+00
4.174829110503196716e+01 -5.959563392400741577e+01 1.617449964489793501e+00
3.738574227690696716e+01 -5.941228431463241577e+01 2.010913099255418501e+00
3.736572274565696716e+01 -5.935600990056991577e+01 2.334689344372606001e+00
3.742248544096946716e+01 -5.942803138494491577e+01 2.665805067028856001e+00
4.032250985503196716e+01 -5.738970130681991577e+01 2.528704847302293501e+00
3.747338876128196716e+01 -5.949040931463241577e+01 2.995578016247606001e+00
4.039099130034446716e+01 -5.747038978338241577e+01 2.860141004528856001e+00
3.739184579253196716e+01 -5.933086341619491577e+01 3.315051282849168501e+00
3.743273934721946716e+01 -5.937651771306991577e+01 3.644183362927293501e+00
4.037695321440696716e+01 -5.740581458806991577e+01 3.510119642224168501e+00
3.752026376128196716e+01 -5.949993079900741577e+01 3.981051649060106001e+00
3.998486337065696716e+01 -5.679680579900741577e+01 3.794299329724168501e+00
3.729650887846946716e+01 -5.910295814275741577e+01 4.279071058239793501e+00
3.746862801909446716e+01 -5.936760658025741577e+01 4.627291883435106001e+00
4.007666024565696716e+01 -5.689079993963241577e+01 4.450976575817918501e+00
1.960534676909446716e+01 -2.645391029119491577e+01 -9.239166126586439987e-01
1.956445321440696716e+01 -2.579704993963241577e+01 -9.238860950805189987e-01
1.950415048003196716e+01 -2.513152259588241577e+01 -9.238708362914564987e-01
1.944580087065696716e+01 -2.448686927556991577e+01 -9.238555775023939987e-01
1.938940438628196716e+01 -2.386577552556991577e+01 -9.238250599242689987e-01
1.933471688628196716e+01 -2.326506751775741577e+01 -9.237945423461439987e-01
1.928173837065696716e+01 -2.268193763494491577e+01 -9.237792835570814987e-01
1.932702645659446716e+01 -2.224480384588241577e+01 -9.282195911742689987e-01
2.236730965971946716e+01 -3.060356849431991577e+01 -8.506439075805189987e-01
2.256054696440696716e+01 -3.020366615056991577e+01 -8.616454944945814987e-01
2.280981454253196716e+01 -2.989202064275741577e+01 -8.733489857055189987e-01
2.306640633940696716e+01 -2.959233802556991577e+01 -8.861968860961439987e-01
2.334216317534446716e+01 -2.932451575994491577e+01 -8.995941028930189987e-01
2.362646493315696716e+01 -2.907012122869491577e+01 -9.132354603148939987e-01
2.379235848784446716e+01 -2.865788978338241577e+01 -9.241454944945814987e-01
2.363964852690696716e+01 -2.784148353338241577e+01 -9.241302357055189987e-01
2.319006356596946716e+01 -3.183037513494491577e+01 -6.902129993773939987e-01
2.345898446440696716e+01 -3.151579993963241577e+01 -7.041290150023939987e-01
2.373559579253196716e+01 -3.121587318181991577e+01 -7.181976185180189987e-01
2.402587899565696716e+01 -3.093596595525741577e+01 -7.325561390258314987e-01
2.432128915190696716e+01 -3.066716712713241577e+01 -7.469756946898939987e-01
2.463208016753196716e+01 -3.042082923650741577e+01 -7.617309437133314987e-01
2.492065438628196716e+01 -3.014336341619491577e+01 -7.759826526977064987e-01
2.512902840971946716e+01 -2.976579993963241577e+01 -7.882964954711439987e-01
2.426867684721946716e+01 -3.344158118963241577e+01 -5.205047474242689987e-01
2.452270516753196716e+01 -3.307060950994491577e+01 -5.341766224242689987e-01
2.477771005034446716e+01 -3.270659583806991577e+01 -5.488098011352064987e-01
2.504858407378196716e+01 -3.236748450994491577e+01 -5.636260853148939987e-01
2.531103524565696716e+01 -3.202336829900741577e+01 -5.782287464477064987e-01
2.560839852690696716e+01 -3.173064368963241577e+01 -5.933044300414564987e-01
2.590954598784446716e+01 -3.144267982244491577e+01 -6.084258900023939987e-01
2.593261727690696716e+01 -3.079802650213241577e+01 -6.200378284789564987e-01
2.488842782378196716e+01 -3.436089271306991577e+01 -3.297851429320814987e-01
2.511047372221946716e+01 -3.392327064275741577e+01 -3.453948841430189987e-01
2.531860360503196716e+01 -3.347368568181991577e+01 -3.607604847289564987e-01
2.561035165190696716e+01 -3.314788001775741577e+01 -3.765685901977064987e-01
2.587951669096946716e+01 -3.279656165838241577e+01 -3.921172962523939987e-01
2.613183602690696716e+01 -3.242681068181991577e+01 -4.074371204711439987e-01
2.645227059721946716e+01 -3.214995521306991577e+01 -4.232757435180189987e-01
2.679431161284446716e+01 -3.190483802556991577e+01 -4.392211780883314987e-01
2.672387704253196716e+01 -3.710808509588241577e+01 -1.255462513305189987e-01
2.643579110503196716e+01 -3.586101478338241577e+01 -1.438720569945814987e-01
2.678308114409446716e+01 -3.557097572088241577e+01 -1.609924183227064987e-01
2.711743173003196716e+01 -3.526103919744491577e+01 -1.781738148070814987e-01
2.774902352690696716e+01 -3.536638587713241577e+01 -1.949890003539564987e-01
2.775280770659446716e+01 -3.460710853338241577e+01 -2.122924671508314987e-01
2.784411630034446716e+01 -3.398162025213241577e+01 -2.292144642211439987e-01
2.792529305815696716e+01 -3.336052650213241577e+01 -2.468231067992689987e-01
2.663598641753196716e+01 -3.696160072088241577e+01 8.731385609135600134e-02
2.667712411284446716e+01 -3.620232337713241577e+01 6.614991566166850134e-02
2.678039559721946716e+01 -3.555351966619491577e+01 4.619141956791850134e-02
2.683544930815696716e+01 -3.484990638494491577e+01 2.611085316166850134e-02
2.744995126128196716e+01 -3.493987220525741577e+01 1.144715687260600134e-02
2.800793465971946716e+01 -3.493889564275741577e+01 -4.055772814893998657e-03
2.878442391753196716e+01 -3.521404212713241577e+01 -1.833799937739399866e-02
2.887158212065696716e+01 -3.457524818181991577e+01 -3.759459117426899866e-02
2.767187508940696716e+01 -3.850420325994491577e+01 3.201629771851060013e-01
2.735510262846946716e+01 -3.718572181463241577e+01 2.884246959351060013e-01
2.698400887846946716e+01 -3.583281654119491577e+01 2.581512584351060013e-01
2.715283212065696716e+01 -3.528386634588241577e+01 2.373840465210435013e-01
2.747180184721946716e+01 -3.495659583806991577e+01 2.195465221069810013e-01
2.788500985503196716e+01 -3.475933021306991577e+01 2.032501353882310013e-01
2.869458016753196716e+01 -3.508159583806991577e+01 1.915466441772935013e-01
2.924731454253196716e+01 -3.504936927556991577e+01 1.767303599976060013e-01
4.174255380034446716e+01 -5.962773841619491577e+01 9.421722545288560013e-01
2.768823251128196716e+01 -3.766130775213241577e+01 5.134155406616685013e-01
2.695251473784446716e+01 -3.577373450994491577e+01 4.660064830444810013e-01
2.754492196440696716e+01 -3.582280677556991577e+01 4.544098033569810013e-01
2.820373544096946716e+01 -3.595305579900741577e+01 4.440796031616685013e-01
2.815551766753196716e+01 -3.511150306463241577e+01 4.166900767944810013e-01
2.892773446440696716e+01 -3.537663978338241577e+01 4.083740367554185013e-01
2.943371590971946716e+01 -3.527764075994491577e+01 3.937103404663560013e-01
4.197009286284446716e+01 -5.994695228338241577e+01 1.287097181286668501e+00
4.070043954253196716e+01 -5.677263587713241577e+01 1.192858900036668501e+00
2.768615731596946716e+01 -3.681560462713241577e+01 6.995880260132310013e-01
2.840942391753196716e+01 -3.702678626775741577e+01 6.932708873413560013e-01
2.854382333159446716e+01 -3.640825599431991577e+01 6.673919810913560013e-01
2.963403329253196716e+01 -3.709526771306991577e+01 6.717102183960435013e-01
2.955358895659446716e+01 -3.619109290838241577e+01 6.393310680054185013e-01
2.968420419096946716e+01 -3.558867591619491577e+01 6.141388072632310013e-01
4.175000008940696716e+01 -5.959368079900741577e+01 1.617327894177293501e+00
4.094799813628196716e+01 -5.711479896306991577e+01 1.528567518200731001e+00
2.836596688628196716e+01 -3.695134681463241577e+01 9.095642223022935013e-01
2.993359383940696716e+01 -3.748552650213241577e+01 9.049560680054185013e-01
2.961267098784446716e+01 -3.625542396306991577e+01 8.595916881226060013e-01
3.070910653471946716e+01 -3.690276283025741577e+01 8.676941051147935013e-01
4.082568368315696716e+01 -5.691350501775741577e+01 1.847293104138231001e+00
2.994470223784446716e+01 -3.748613685369491577e+01 1.128176893200731001e+00
3.071862801909446716e+01 -3.690105384588241577e+01 1.090716566052293501e+00
4.031701669096946716e+01 -5.739873450994491577e+01 2.203662122692918501e+00
4.081567391753196716e+01 -5.687725013494491577e+01 2.172412122692918501e+00
2.951367196440696716e+01 -3.770268958806991577e+01 1.367175306286668501e+00
2.994897469878196716e+01 -3.747759193181991577e+01 1.351123060192918501e+00
4.025524911284446716e+01 -5.728447669744491577e+01 2.523760999646043501e+00
4.084655770659446716e+01 -5.690105384588241577e+01 2.498309339489793501e+00
2.998596200346946716e+01 -3.751311439275741577e+01 1.577288831677293501e+00
4.039160165190696716e+01 -5.746709388494491577e+01 2.859942640271043501e+00
4.068933114409446716e+01 -5.664873450994491577e+01 2.810275281872606001e+00
2.963830575346946716e+01 -3.784538978338241577e+01 1.821887220349168501e+00
4.034936532378196716e+01 -5.738188880681991577e+01 3.181109632458543501e+00
4.087866219878196716e+01 -5.690496009588241577e+01 3.150561536755418501e+00
4.035131844878196716e+01 -5.736296790838241577e+01 3.507403577771043501e+00
2.959973153471946716e+01 -3.776335853338241577e+01 2.266070569958543501e+00
3.004272469878196716e+01 -3.754643958806991577e+01 2.251818860974168501e+00
3.998632821440696716e+01 -5.679473060369491577e+01 3.794146741833543501e+00
4.091467294096946716e+01 -5.691448158025741577e+01 3.803851331677293501e+00
2.961425790190696716e+01 -3.776885169744491577e+01 2.491412366833543501e+00
4.015734872221946716e+01 -5.702910560369491577e+01 4.136065687146043501e+00
4.126916512846946716e+01 -5.741216224431991577e+01 4.168307508435106001e+00
2.963452157378196716e+01 -3.778227943181991577e+01 2.716311658825731001e+00
4.007727059721946716e+01 -5.688762611150741577e+01 4.450732435192918501e+00
4.089990243315696716e+01 -5.684978431463241577e+01 4.452014173474168501e+00
2.965502938628196716e+01 -3.779595130681991577e+01 2.942675794567918501e+00
1.932678231596946716e+01 -2.224297279119491577e+01 -9.282195911742689987e-01
1.942590340971946716e+01 -2.188469642400741577e+01 -9.341247425414564987e-01
1.951562508940696716e+01 -2.152153724431991577e+01 -9.403808460570814987e-01
1.949169930815696716e+01 -2.102483314275741577e+01 -9.421508655883314987e-01
1.944909676909446716e+01 -2.051982825994491577e+01 -9.431121692992689987e-01
1.935314950346946716e+01 -1.996465247869491577e+01 -9.418914661742689987e-01
1.919470223784446716e+01 -1.935124915838241577e+01 -9.381225452758314987e-01
1.909790048003196716e+01 -1.882585853338241577e+01 -9.373748646117689987e-01
2.363769540190696716e+01 -2.783684486150741577e+01 -9.240844593383314987e-01
2.345910653471946716e+01 -2.701140540838241577e+01 -9.240539417602064987e-01
2.331506356596946716e+01 -2.625298255681991577e+01 -9.240081653930189987e-01
2.314868173003196716e+01 -2.548662513494491577e+01 -9.239776478148939987e-01
2.298937997221946716e+01 -2.475225013494491577e+01 -9.239471302367689987e-01
2.283618173003196716e+01 -2.404534095525741577e+01 -9.239166126586439987e-01
2.266308602690696716e+01 -2.333354896306991577e+01 -9.238860950805189987e-01
2.252124032378196716e+01 -2.267839759588241577e+01 -9.238555775023939987e-01
2.512939462065696716e+01 -2.976409095525741577e+01 -7.883422718383314987e-01
2.532775887846946716e+01 -2.937944740056991577e+01 -8.012969837523939987e-01
2.553869637846946716e+01 -2.901579993963241577e+01 -8.144805775023939987e-01
2.575207528471946716e+01 -2.865764564275741577e+01 -8.277099476195814987e-01
2.596521005034446716e+01 -2.830571693181991577e+01 -8.408325062133314987e-01
2.619189462065696716e+01 -2.797368568181991577e+01 -8.542602405883314987e-01
2.650585946440696716e+01 -2.774358314275741577e+01 -8.698852405883314987e-01
2.685937508940696716e+01 -2.755925697088241577e+01 -8.865325794555189987e-01
2.592712411284446716e+01 -3.078850501775741577e+01 -6.199767933227064987e-01
2.578613290190696716e+01 -2.995122474431991577e+01 -6.274535999633314987e-01
2.612438973784446716e+01 -2.973467200994491577e+01 -6.436584339477064987e-01
2.646704110503196716e+01 -2.951995033025741577e+01 -6.600158558227064987e-01
2.684167489409446716e+01 -2.934380286931991577e+01 -6.769225941039564987e-01
2.723815926909446716e+01 -2.919011634588241577e+01 -6.942718372680189987e-01
2.766625985503196716e+01 -2.906670325994491577e+01 -7.123229847289564987e-01
2.810314950346946716e+01 -2.894975990056991577e+01 -7.315795765258314987e-01
2.679516610503196716e+01 -3.190373939275741577e+01 -4.392669544555189987e-01
2.710876473784446716e+01 -3.162187904119491577e+01 -4.557006702758314987e-01
2.746093758940696716e+01 -3.138884681463241577e+01 -4.725005970336439987e-01
2.786328133940696716e+01 -3.121318763494491577e+01 -4.898803577758314987e-01
2.825720223784446716e+01 -3.102593177556991577e+01 -5.071990833617689987e-01
2.868359383940696716e+01 -3.087371009588241577e+01 -5.249450550414564987e-01
2.912231454253196716e+01 -3.072856849431991577e+01 -5.429809437133314987e-01
2.960717782378196716e+01 -3.063262122869491577e+01 -5.616119251586439987e-01
2.792602548003196716e+01 -3.335893958806991577e+01 -2.468841419555189987e-01
2.804846200346946716e+01 -3.280437415838241577e+01 -2.626922474242689987e-01
2.825781258940696716e+01 -3.236931556463241577e+01 -2.795226917602064987e-01
2.869335946440696716e+01 -3.221428626775741577e+01 -2.969177112914564987e-01
2.911987313628196716e+01 -3.204582923650741577e+01 -3.143279896117689987e-01
2.956066903471946716e+01 -3.188970130681991577e+01 -3.319061146117689987e-01
3.004821786284446716e+01 -3.178020423650741577e+01 -3.498504505492689987e-01
3.054956063628196716e+01 -3.168181556463241577e+01 -3.690765247680189987e-01
2.887634286284446716e+01 -3.457891029119491577e+01 -3.762510875239399866e-02
2.968579110503196716e+01 -3.487273353338241577e+01 -5.285338023676899866e-02
3.041235360503196716e+01 -3.503984779119491577e+01 -6.913450816645649866e-02
4.334313973784446716e+01 -5.007573646306991577e+01 -3.265074351801899866e-02
3.227526864409446716e+01 -3.580620521306991577e+01 -1.017272816039564987e-01
3.249316415190696716e+01 -3.531340736150741577e+01 -1.212890491820814987e-01
4.459118661284446716e+01 -4.846758216619491577e+01 -1.118591175414564987e-01
4.501757821440696716e+01 -4.795317786931991577e+01 -1.379669056273939987e-01
2.958984383940696716e+01 -3.549101966619491577e+01 1.814300670288560013e-01
2.991479501128196716e+01 -3.515032142400741577e+01 1.626617564819810013e-01
3.049279794096946716e+01 -3.512651771306991577e+01 1.482422008179185013e-01
3.120617684721946716e+01 -3.525408118963241577e+01 1.338226451538560013e-01
3.229235848784446716e+01 -3.581279700994491577e+01 1.230194224976060013e-01
5.405200204253196716e+01 -6.055132240056991577e+01 3.210479869507310013e-01
5.415551766753196716e+01 -5.942778724431991577e+01 2.820312633179185013e-01
5.430371102690696716e+01 -5.838249915838241577e+01 2.462646617554185013e-01
2.972033700346946716e+01 -3.564665931463241577e+01 3.997680797241685013e-01
3.013964852690696716e+01 -3.542241615056991577e+01 3.825866832397935013e-01
3.128186044096946716e+01 -3.609477943181991577e+01 3.795349254272935013e-01
3.213952645659446716e+01 -3.637847083806991577e+01 3.697082652710435013e-01
3.214929208159446716e+01 -3.562810462713241577e+01 3.438751353882310013e-01
5.712036141753196716e+01 -6.412114661931991577e+01 7.480499400757310013e-01
5.722839364409446716e+01 -6.293132728338241577e+01 7.049743785522935013e-01
5.715856942534446716e+01 -6.157109779119491577e+01 6.601440562866685013e-01
2.968676766753196716e+01 -3.558940833806991577e+01 6.141082896851060013e-01
3.098864755034446716e+01 -3.648674720525741577e+01 6.220886363647935013e-01
3.172363290190696716e+01 -3.663054603338241577e+01 6.129333629272935013e-01
3.190393075346946716e+01 -3.607756751775741577e+01 5.885345592163560013e-01
5.861694344878196716e+01 -6.722454017400741577e+01 1.231906141247606001e+00
4.612292489409446716e+01 -5.122539466619491577e+01 8.770782603882310013e-01
5.786511239409446716e+01 -6.363787025213241577e+01 1.111727918591356001e+00
5.833825692534446716e+01 -6.287419837713241577e+01 1.073580945935106001e+00
3.050622567534446716e+01 -3.663725990056991577e+01 8.601715221069810013e-01
3.126086434721946716e+01 -3.681829017400741577e+01 8.548919810913560013e-01
5.810681161284446716e+01 -6.942180579900741577e+01 1.745364393200731001e+00
5.864086923003196716e+01 -6.863701575994491577e+01 1.703997816052293501e+00
5.877844247221946716e+01 -6.739202064275741577e+01 1.650363172497606001e+00
4.624804696440696716e+01 -5.135234779119491577e+01 1.200854505505418501e+00
5.851232919096946716e+01 -6.435588783025741577e+01 1.529711927380418501e+00
5.871240243315696716e+01 -6.327092689275741577e+01 1.481616224255418501e+00
3.071875008940696716e+01 -3.689849036931991577e+01 1.090594495739793501e+00
5.945495614409446716e+01 -6.408110755681991577e+01 1.905947889294481001e+00
4.600866708159446716e+01 -5.103350013494491577e+01 1.827777112927293501e+00
4.613476571440696716e+01 -5.116142982244491577e+01 2.153186048474168501e+00
4.577905282378196716e+01 -5.179412025213241577e+01 2.509036268200731001e+00
4.618371590971946716e+01 -5.119927161931991577e+01 2.474002088513231001e+00
4.565637215971946716e+01 -5.162834876775741577e+01 2.821459974255418501e+00
4.606408700346946716e+01 -5.104009193181991577e+01 2.785891736950731001e+00
4.543359383940696716e+01 -5.134331458806991577e+01 3.122836317028856001e+00
4.662353524565696716e+01 -5.167388099431991577e+01 3.144335950817918501e+00
4.545703133940696716e+01 -5.135185950994491577e+01 3.442904676403856001e+00
4.659558114409446716e+01 -5.162151283025741577e+01 3.464892591442918501e+00
4.550231942534446716e+01 -5.138616126775741577e+01 3.763476575817918501e+00
4.624279794096946716e+01 -5.119036048650741577e+01 3.754733289685106001e+00
4.551928719878196716e+01 -5.138689368963241577e+01 4.083575452771043501e+00
4.659484872221946716e+01 -5.158147376775741577e+01 4.108065809216356001e+00
1.909655770659446716e+01 -1.882292884588241577e+01 -9.373290882445814987e-01
1.893225106596946716e+01 -1.823662513494491577e+01 -9.332702503539564987e-01
1.872338876128196716e+01 -1.761772865056991577e+01 -9.279754505492689987e-01
1.859460458159446716e+01 -1.709990638494491577e+01 -9.257934437133314987e-01
1.850585946440696716e+01 -1.663835853338241577e+01 -9.250915394164564987e-01
1.833752450346946716e+01 -1.610674232244491577e+01 -9.210784778930189987e-01
1.810424813628196716e+01 -1.552312415838241577e+01 -9.143340931273939987e-01
1.792077645659446716e+01 -1.500591224431991577e+01 -9.100616321898939987e-01
2.251953133940696716e+01 -2.267485755681991577e+01 -9.238098011352064987e-01
2.235644540190696716e+01 -2.201360267400741577e+01 -9.237792835570814987e-01
2.223474130034446716e+01 -2.141460365056991577e+01 -9.241760120727064987e-01
2.211279305815696716e+01 -2.082878822088241577e+01 -9.251830921508314987e-01
2.199292001128196716e+01 -2.026128333806991577e+01 -9.260833607055189987e-01
2.182446298003196716e+01 -1.965813392400741577e+01 -9.251830921508314987e-01
2.162219247221946716e+01 -1.903557533025741577e+01 -9.236724720336439987e-01
2.148999032378196716e+01 -1.849932044744491577e+01 -9.236572132445814987e-01
2.686108407378196716e+01 -2.755913490056991577e+01 -8.865936146117689987e-01
2.725109872221946716e+01 -2.741228431463241577e+01 -9.051635609008314987e-01
2.736633309721946716e+01 -2.696318763494491577e+01 -9.165160999633314987e-01
2.714819344878196716e+01 -2.616533607244491577e+01 -9.188812122680189987e-01
2.704760751128196716e+01 -2.551262611150741577e+01 -9.240844593383314987e-01
2.676391610503196716e+01 -2.468852943181991577e+01 -9.240539417602064987e-01
2.649096688628196716e+01 -2.389580482244491577e+01 -9.240234241820814987e-01
2.622998055815696716e+01 -2.313762611150741577e+01 -9.239929066039564987e-01
2.810522469878196716e+01 -2.895012611150741577e+01 -7.316558704711439987e-01
2.857519540190696716e+01 -2.886382240056991577e+01 -7.505004749633314987e-01
2.906896981596946716e+01 -2.879558509588241577e+01 -7.709625110961439987e-01
2.937731942534446716e+01 -2.852019447088241577e+01 -7.878845081664564987e-01
2.965881356596946716e+01 -2.821843665838241577e+01 -8.042266712523939987e-01
2.995886239409446716e+01 -2.793621009588241577e+01 -8.209503040648939987e-01
3.026159676909446716e+01 -2.765483802556991577e+01 -8.377654896117689987e-01
3.054980477690696716e+01 -2.736101478338241577e+01 -8.552520618773939987e-01
2.960961923003196716e+01 -3.063323158025741577e+01 -5.616882191039564987e-01
3.013732919096946716e+01 -3.057720130681991577e+01 -5.817687855102064987e-01
3.071240243315696716e+01 -3.056279700994491577e+01 -6.026580677367689987e-01
3.099865731596946716e+01 -3.022869056463241577e+01 -6.199767933227064987e-01
3.045263680815696716e+01 -2.903276771306991577e+01 -6.256835804320814987e-01
3.106176766753196716e+01 -2.904936927556991577e+01 -6.471526966430189987e-01
3.173547372221946716e+01 -2.911650794744491577e+01 -6.698577747680189987e-01
3.259338387846946716e+01 -2.935161536931991577e+01 -6.956146107055189987e-01
3.055236825346946716e+01 -3.168267005681991577e+01 -3.691528187133314987e-01
3.118286141753196716e+01 -3.171892493963241577e+01 -3.877380237914564987e-01
3.204125985503196716e+01 -3.198821204900741577e+01 -4.091613636352064987e-01
3.299841317534446716e+01 -3.233721107244491577e+01 -4.318511829711439987e-01
5.052734383940696716e+01 -4.988603919744491577e+01 -5.743987903930189987e-01
5.074694833159446716e+01 -4.909453529119491577e+01 -6.009338245727064987e-01
5.091296395659446716e+01 -4.825786536931991577e+01 -6.268127308227064987e-01
4.267578133940696716e+01 -3.921123450994491577e+01 -5.808379993773939987e-01
4.501879891753196716e+01 -4.795122474431991577e+01 -1.380584583617689987e-01
4.539782723784446716e+01 -4.738762611150741577e+01 -1.648834095336439987e-01
4.573132333159446716e+01 -4.677910560369491577e+01 -1.916168079711439987e-01
4.604455575346946716e+01 -4.615190833806991577e+01 -2.182739124633314987e-01
4.635437020659446716e+01 -4.553130286931991577e+01 -2.446563587523939987e-01
4.660937508940696716e+01 -4.486150306463241577e+01 -2.707794056273939987e-01
4.686181649565696716e+01 -4.419475501775741577e+01 -2.967498646117689987e-01
4.267004403471946716e+01 -3.919011634588241577e+01 -3.123138294555189987e-01
5.430261239409446716e+01 -5.837737220525741577e+01 2.461273326538560013e-01
5.448376473784446716e+01 -5.738884681463241577e+01 2.106201305054185013e-01
5.466967782378196716e+01 -5.642266029119491577e+01 1.776153697632310013e-01
5.250646981596946716e+01 -5.298052161931991577e+01 1.273224010132310013e-01
5.291430673003196716e+01 -5.232671302556991577e+01 9.624024769291850134e-02
5.506481942534446716e+01 -5.345256751775741577e+01 7.477113148198100134e-02
5.517663583159446716e+01 -5.247551673650741577e+01 3.953858753666850134e-02
4.272839364409446716e+01 -3.923198646306991577e+01 -4.508665660395649866e-02
5.715637215971946716e+01 -6.156450599431991577e+01 6.599762096069810013e-01
5.719055184721946716e+01 -6.035076087713241577e+01 6.173736705444810013e-01
5.725012215971946716e+01 -5.918950599431991577e+01 5.759918346069810013e-01
5.236804208159446716e+01 -5.281352943181991577e+01 4.692108287476060013e-01
5.270483407378196716e+01 -5.208904212713241577e+01 4.364654674194810013e-01
5.761364755034446716e+01 -5.602605384588241577e+01 4.586059703491685013e-01
5.772216805815696716e+01 -5.499468177556991577e+01 4.205658092163560013e-01
5.777282723784446716e+01 -5.392913001775741577e+01 3.826934947632310013e-01
5.833911141753196716e+01 -6.287078040838241577e+01 1.073443616833543501e+00
5.947644051909446716e+01 -6.284673255681991577e+01 1.049838270153856001e+00
6.012316903471946716e+01 -6.227019447088241577e+01 1.015170301403856001e+00
6.029638680815696716e+01 -6.118718665838241577e+01 9.707977428101060013e-01
5.340905770659446716e+01 -5.280010169744491577e+01 7.914306773804185013e-01
6.037414559721946716e+01 -5.881291908025741577e+01 8.795807017944810013e-01
3.381140145659446716e+01 -3.112908118963241577e+01 3.638794078491685013e-01
6.036889657378196716e+01 -5.644621986150741577e+01 7.902862682007310013e-01
5.871398934721946716e+01 -6.326824134588241577e+01 1.481478895153856001e+00
5.944995126128196716e+01 -6.279350990056991577e+01 1.449633802380418501e+00
6.042834481596946716e+01 -6.257598060369491577e+01 1.424273694958543501e+00
6.413659676909446716e+01 -6.522783607244491577e+01 1.471118177380418501e+00
6.394055184721946716e+01 -6.370525306463241577e+01 1.411807264294481001e+00
4.935339364409446716e+01 -4.758257240056991577e+01 9.935791148804185013e-01
3.383532723784446716e+01 -3.114055579900741577e+01 5.778381480835435013e-01
6.347375497221946716e+01 -5.945842689275741577e+01 1.245043958630418501e+00
5.945959481596946716e+01 -6.408196204900741577e+01 1.905932630505418501e+00
6.816821298003196716e+01 -6.946807044744491577e+01 2.026812757458543501e+00
6.794726571440696716e+01 -6.783599036931991577e+01 1.957293714489793501e+00
6.768029794096946716e+01 -6.619499915838241577e+01 1.888018812146043501e+00
3.385925301909446716e+01 -3.115203040838241577e+01 7.909271373413560013e-01
6.728088387846946716e+01 -6.315447181463241577e+01 1.758349622692918501e+00
4.977270516753196716e+01 -4.797185462713241577e+01 1.641192640271043501e+00
7.146740731596946716e+01 -6.721807044744491577e+01 2.336383069958543501e+00
4.976318368315696716e+01 -4.794365638494491577e+01 1.960910047497606001e+00
4.942724618315696716e+01 -4.758403724431991577e+01 2.262011732067918501e+00
4.946594247221946716e+01 -4.760491126775741577e+01 2.581973279919481001e+00
4.942541512846946716e+01 -4.754534095525741577e+01 2.895571912731981001e+00
4.915893563628196716e+01 -4.725664466619491577e+01 3.194262708630418501e+00
4.922167977690696716e+01 -4.730205482244491577e+01 3.513171400036668501e+00
4.996044930815696716e+01 -4.706829017400741577e+01 3.505404676403856001e+00
4.930200204253196716e+01 -4.736504310369491577e+01 3.835971082653856001e+00
1.848437508940696716e+01 -9.963553845882415771e+00 -7.696226695551899866e-02
1.803210458159446716e+01 -9.246879041194915771e+00 -1.103942737914564987e-01
6.647192391753196716e+01 -5.493889564275741577e+01 1.637011732067918501e+00
6.284118661284446716e+01 -5.052580970525741577e+01 1.438510145153856001e+00
6.346984872221946716e+01 -4.989617103338241577e+01 1.366412366833543501e+00
5.313098153471946716e+01 -4.008245033025741577e+01 1.017276014294481001e+00
6.633239755034446716e+01 -4.994304603338241577e+01 1.259890760388231001e+00
6.610400399565696716e+01 -4.859197181463241577e+01 1.165866102185106001e+00
6.584118661284446716e+01 -4.723625892400741577e+01 1.072818006481981001e+00
1.807641610503196716e+01 -9.267264783382415771e+00 2.133485218510600134e-02
6.641455087065696716e+01 -5.483977454900741577e+01 2.068057264294481001e+00
6.660900887846946716e+01 -5.376055091619491577e+01 1.975970472302293501e+00
6.713195809721946716e+01 -5.297600501775741577e+01 1.895693983044481001e+00
5.314819344878196716e+01 -4.005937904119491577e+01 1.362719739880418501e+00
6.964941415190696716e+01 -5.261577552556991577e+01 1.779360975231981001e+00
6.920886239409446716e+01 -5.104082435369491577e+01 1.670230115856981001e+00
6.882775887846946716e+01 -4.954241126775741577e+01 1.565081800427293501e+00
6.848400887846946716e+01 -4.810832923650741577e+01 1.463717664685106001e+00
6.678833016753196716e+01 -5.512297767400741577e+01 2.518298353161668501e+00
4.962255868315696716e+01 -3.893706458806991577e+01 1.727282728161668501e+00
6.801159676909446716e+01 -5.367888587713241577e+01 2.359179700817918501e+00
5.316845712065696716e+01 -4.003911536931991577e+01 1.706423963513231001e+00
6.964038094878196716e+01 -5.256133216619491577e+01 2.216464246716356001e+00
7.248315438628196716e+01 -5.237102454900741577e+01 2.111697401013231001e+00
7.027856454253196716e+01 -4.944609779119491577e+01 1.943362440075731001e+00
4.965197762846946716e+01 -3.892620033025741577e+01 2.057528699841356001e+00
6.924780282378196716e+01 -5.468413490056991577e+01 2.851168836560106001e+00
5.318811044096946716e+01 -4.001799720525741577e+01 2.051943983044481001e+00
5.322351083159446716e+01 -4.001042884588241577e+01 2.396426404919481001e+00
5.312036141753196716e+01 -4.086894935369491577e+01 2.824511732067918501e+00
5.325268563628196716e+01 -3.999736732244491577e+01 2.742587293591356001e+00
3.768933114409446716e+01 -2.554717200994491577e+01 -7.972991810180189987e-01
4.649304208159446716e+01 -3.177129310369491577e+01 -9.245574817992689987e-01
4.094885262846946716e+01 -2.668071693181991577e+01 -9.242828235961439987e-01
2.893042001128196716e+01 -1.689836829900741577e+01 -8.382690296508314987e-01
4.852209481596946716e+01 -3.780596107244491577e+01 -3.115661487914564987e-01
3.627172860503196716e+01 -2.645488685369491577e+01 -3.951537952758314987e-01
3.643579110503196716e+01 -2.589043372869491577e+01 -4.463317737914564987e-01
2.040271005034446716e+01 -1.208879798650741577e+01 -4.801910267211439987e-01
3.745483407378196716e+01 -2.532976478338241577e+01 -5.464294300414564987e-01
5.006835946440696716e+01 -3.454241126775741577e+01 -6.367919788695814987e-01
5.462023934721946716e+01 -3.716204017400741577e+01 -7.176788196898939987e-01
5.176672372221946716e+01 -3.407793372869491577e+01 -7.684600696898939987e-01
5.846386727690696716e+01 -4.639202064275741577e+01 9.888001820073100134e-02
3.640527352690696716e+01 -2.653826087713241577e+01 -1.463897571898939987e-01
3.668908700346946716e+01 -2.607158607244491577e+01 -1.966827259398939987e-01
2.041198739409446716e+01 -1.207829993963241577e+01 -3.290527210570814987e-01
3.754650887846946716e+01 -2.537346595525741577e+01 -2.959716663695814987e-01
4.967492684721946716e+01 -3.419609779119491577e+01 -3.160674915648939987e-01
5.102709969878196716e+01 -3.436174720525741577e+01 -3.788726673461439987e-01
5.181433114409446716e+01 -3.407634681463241577e+01 -4.436920032836439987e-01
6.113708505034446716e+01 -4.866204017400741577e+01 5.239288463257310013e-01
3.672387704253196716e+01 -2.677873939275741577e+01 1.062500133179185013e-01
3.685839852690696716e+01 -2.618267005681991577e+01 5.342408558354350134e-02
1.988171395659446716e+01 -1.162761634588241577e+01 -1.845825062133314987e-01
1.888940438628196716e+01 -1.042473548650741577e+01 -2.255828724242689987e-01
1.823950204253196716e+01 -9.528495252132415771e+00 -2.607696400023939987e-01
2.840173348784446716e+01 -1.695720618963241577e+01 -2.170684681273939987e-01
2.946545419096946716e+01 -1.723332923650741577e+01 -2.499969349242689987e-01
6.280102548003196716e+01 -5.005413001775741577e+01 9.578277721069810013e-01
3.875720223784446716e+01 -2.847429603338241577e+01 3.971893443726060013e-01
3.916662606596946716e+01 -2.807292884588241577e+01 3.453552379272935013e-01
1.983496102690696716e+01 -1.157183021306991577e+01 -3.760984996333149866e-02
1.885070809721946716e+01 -1.037712806463241577e+01 -8.541563609614399866e-02
1.821630868315696716e+01 -9.494437634944915771e+00 -1.252105579711439987e-01
1.764501962065696716e+01 -8.685233533382415771e+00 -1.622131214477064987e-01
1.711120614409446716e+01 -7.928885877132415771e+00 -1.967742786742689987e-01
6.292504891753196716e+01 -5.011089271306991577e+01 1.372317518200731001e+00
3.755383309721946716e+01 -2.742156165838241577e+01 6.286041392944810013e-01
3.789929208159446716e+01 -2.698772376775741577e+01 5.772583140991685013e-01
4.027368173003196716e+01 -2.820452064275741577e+01 5.716430797241685013e-01
6.551513680815696716e+01 -4.761138099431991577e+01 1.047412122692918501e+00
1.818627938628196716e+01 -9.455130994319915771e+00 9.112562146043501343e-03
1.759753426909446716e+01 -8.633597791194915771e+00 -3.249815562739399866e-02
1.704956063628196716e+01 -7.867972791194915771e+00 -7.062986949458149866e-02
6.368334969878196716e+01 -5.071623939275741577e+01 1.806628431286668501e+00
5.343542489409446716e+01 -4.085002845525741577e+01 1.383532728161668501e+00
6.854833993315696716e+01 -5.241423743963241577e+01 1.751803602185106001e+00
6.899353036284446716e+01 -5.154839271306991577e+01 1.659335340466356001e+00
6.853356942534446716e+01 -4.996977943181991577e+01 1.543078626599168501e+00
6.811853036284446716e+01 -4.846025794744491577e+01 1.430896009411668501e+00
6.774572762846946716e+01 -4.701091712713241577e+01 1.322131360974168501e+00
6.745947274565696716e+01 -4.566033118963241577e+01 1.218249525036668501e+00
6.773449715971946716e+01 -5.416496986150741577e+01 2.380160535778856001e+00
5.331884774565696716e+01 -4.070854896306991577e+01 1.730166639294481001e+00
5.326904305815696716e+01 -3.968144935369491577e+01 1.639224256481981001e+00
7.020031747221946716e+01 -5.247783607244491577e+01 2.135760511364793501e+00
7.221020516753196716e+01 -5.284892982244491577e+01 2.093081678356981001e+00
7.038049325346946716e+01 -5.017681068181991577e+01 1.925280775036668501e+00
6.963110360503196716e+01 -4.840434974431991577e+01 1.798846448864793501e+00
7.057067880034446716e+01 -4.794377845525741577e+01 1.722781385388231001e+00
6.856860360503196716e+01 -5.483086341619491577e+01 2.857608045544481001e+00
6.919555673003196716e+01 -5.409856361150741577e+01 2.766940320935106001e+00
6.976086434721946716e+01 -4.845378822088241577e+01 2.231585706677293501e+00
6.992663583159446716e+01 -4.741191810369491577e+01 2.132998670544481001e+00
3.820446786284446716e+01 -2.764714759588241577e+01 7.543975963257310013e-01
3.836682137846946716e+01 -2.704497474431991577e+01 6.942474498413560013e-01
6.710266122221946716e+01 -4.957964271306991577e+01 1.342745984997606001e+00
6.674108895659446716e+01 -4.810503333806991577e+01 1.230410779919481001e+00
6.637133798003196716e+01 -4.665813392400741577e+01 1.120883192028856001e+00
6.611743173003196716e+01 -4.532891029119491577e+01 1.016314710583543501e+00
1.686437997221946716e+01 -7.477225720882415771e+00 -2.764586070551899866e-02
1.635559090971946716e+01 -6.761405408382415771e+00 -6.684568980708149866e-02
5.302307137846946716e+01 -4.009233802556991577e+01 1.515505994763231001e+00
6.903051766753196716e+01 -5.231877845525741577e+01 1.941363538708543501e+00
7.052478036284446716e+01 -5.229399818181991577e+01 1.873385633435106001e+00
6.995996102690696716e+01 -5.060369056463241577e+01 1.744677747692918501e+00
6.942492684721946716e+01 -4.897795814275741577e+01 1.620547498669481001e+00
6.901452645659446716e+01 -4.748271888494491577e+01 1.502917493786668501e+00
