3.206593826413154602e+01 -6.165781328082084656e+01 1.874591540172701798e+00
3.367043045163154602e+01 -6.326657792925834656e+01 1.913593005016451798e+00
3.324342849850654602e+01 -6.085398027300834656e+01 1.820880602672701798e+00
3.379945877194404602e+01 -6.039841386675834656e+01 1.792377184703951798e+00
3.557399490475654602e+01 -6.219040605425834656e+01 1.836032580211764298e+00
3.126222732663154602e+01 -6.159055253863334656e+01 2.209369372203951798e+00
3.202492263913154602e+01 -6.154978105425834656e+01 2.195941637828951798e+00
3.265553787350654602e+01 -6.123398515582084656e+01 2.172000597789889298e+00
3.327028396725654602e+01 -6.088156816363334656e+01 2.146625231578951798e+00
3.370326736569404602e+01 -6.019309160113334656e+01 2.108691881969576798e+00
3.599892166256904602e+01 -6.294748613238334656e+01 2.199359606578951798e+00
3.686696365475654602e+01 -6.298874589800834656e+01 2.188083361461764298e+00
3.094606521725654602e+01 -6.090817949175834656e+01 2.505084704235201798e+00
3.202419021725654602e+01 -6.152329179644584656e+01 2.521579455211764298e+00
3.360548904538154602e+01 -6.308750078082084656e+01 2.576862047985201798e+00
3.313356521725654602e+01 -6.059348222613334656e+01 2.459247301891451798e+00
3.365700271725654602e+01 -6.008212968707084656e+01 2.427051256969576798e+00
3.572890213131904602e+01 -6.242624589800834656e+01 2.516376208141451798e+00
3.690553787350654602e+01 -6.303317949175834656e+01 2.532977770641451798e+00
3.125905349850654602e+01 -6.153354570269584656e+01 2.855640124157076798e+00
3.230629470944404602e+01 -6.207004472613334656e+01 2.873050402477389298e+00
3.243275955319404602e+01 -6.074436113238334656e+01 2.800464342907076798e+00
3.286098220944404602e+01 -6.004367753863334656e+01 2.758166979625826798e+00
3.360304763913154602e+01 -5.995676347613334656e+01 2.745410631969576798e+00
3.513051345944404602e+01 -6.130185624957084656e+01 2.801028918102389298e+00
3.130727127194404602e+01 -6.160861894488334656e+01 3.184955309703951798e+00
3.191371658444404602e+01 -6.124997636675834656e+01 3.157184313610201798e+00
3.358583572506904602e+01 -6.299790117144584656e+01 3.243549059703951798e+00
3.291640213131904602e+01 -6.012656328082084656e+01 3.083484362438326798e+00
3.363661697506904602e+01 -5.999607011675834656e+01 3.069629381969576798e+00
3.514149978756904602e+01 -6.129794999957084656e+01 3.131671618297701798e+00
3.136855056881904602e+01 -6.171091386675834656e+01 3.515033434703951798e+00
3.229640701413154602e+01 -6.199985429644584656e+01 3.526767443493014298e+00
3.288405349850654602e+01 -6.158664628863334656e+01 3.497317980602389298e+00
3.317958572506904602e+01 -6.060959550738334656e+01 3.434894274547701798e+00
3.367506912350654602e+01 -6.004453203082084656e+01 3.396640490368014298e+00
3.169618728756904602e+01 -6.236545488238334656e+01 3.883273791149264298e+00
3.241469314694404602e+01 -6.221408769488334656e+01 3.868304919078951798e+00
3.276173904538154602e+01 -6.132041093707084656e+01 3.807803820446139298e+00
3.526576736569404602e+01 -6.460312578082084656e+01 4.013080309703951798e+00
3.392360427975654602e+01 -6.048776933550834656e+01 3.747668932750826798e+00
3.173805740475654602e+01 -6.242697831988334656e+01 4.215701769664889298e+00
3.216066482663154602e+01 -6.167490312457084656e+01 4.162021349743014298e+00
3.318507888913154602e+01 -6.213107988238334656e+01 4.191577624157076798e+00
3.313197830319404602e+01 -6.046933671832084656e+01 4.075290392711764298e+00
3.379628494381904602e+01 -6.022434160113334656e+01 4.056583117321139298e+00
3.227248123288154602e+01 -6.350986406207084656e+01 4.626285265758639298e+00
3.199928787350654602e+01 -6.132358476519584656e+01 4.464236925914889298e+00
3.261842849850654602e+01 -6.098850175738334656e+01 4.437518786266451798e+00
3.317006424069404602e+01 -6.051853105425834656e+01 4.402576159313326798e+00
3.520277908444404602e+01 -6.284262773394584656e+01 4.574420641735201798e+00
3.123012283444404602e+01 -6.132309648394584656e+01 4.789218615368014298e+00
3.291469314694404602e+01 -6.314914628863334656e+01 4.933582018688326798e+00
3.311208084225654602e+01 -6.193711015582084656e+01 4.839160631969576798e+00
3.343056228756904602e+01 -6.099533769488334656e+01 4.766101549938326798e+00
3.382265213131904602e+01 -6.022617265582084656e+01 4.706699084118014298e+00
1.961684158444404602e+01 -3.136008378863334656e+01 -9.292719852179232021e-01
1.959535720944404602e+01 -3.056467363238334656e+01 -9.292414676397982021e-01
1.955080154538154602e+01 -2.975693437457084656e+01 -9.292109500616732021e-01
1.950734451413154602e+01 -2.897629472613334656e+01 -9.291804324835482021e-01
1.952663162350654602e+01 -2.832468339800834656e+01 -9.314387332647982021e-01
1.942567947506904602e+01 -2.750388261675834656e+01 -9.291193973272982021e-01
1.938698318600654602e+01 -2.680454179644584656e+01 -9.291041385382357021e-01
1.932765701413154602e+01 -2.609836503863334656e+01 -9.290583621710482021e-01
2.107716873288154602e+01 -3.391953203082084656e+01 -7.938502322882357021e-01
2.118483474850654602e+01 -3.328806230425834656e+01 -8.019068729132357021e-01
2.131227615475654602e+01 -3.270883867144584656e+01 -8.094447147101107021e-01
2.145461013913154602e+01 -3.216745683550834656e+01 -8.183100711554232021e-01
2.159999588131904602e+01 -3.164841386675834656e+01 -8.271601688116732021e-01
2.175880935788154602e+01 -3.116391679644584656e+01 -8.363154422491732021e-01
2.191457107663154602e+01 -3.068466874957084656e+01 -8.462794315069857021e-01
2.208815506100654602e+01 -3.024607011675834656e+01 -8.557093631476107021e-01
2.221022537350654602e+01 -3.590073320269584656e+01 -6.251490604132357021e-01
2.175539138913154602e+01 -3.425656816363334656e+01 -6.251338016241732021e-01
2.178859451413154602e+01 -3.349692460894584656e+01 -6.339991580694857021e-01
2.197890213131904602e+01 -3.301682206988334656e+01 -6.457636844366732021e-01
2.219179275631904602e+01 -3.258750078082084656e+01 -6.578486453741732021e-01
2.241054275631904602e+01 -3.217685624957084656e+01 -6.699641238897982021e-01
2.265285232663154602e+01 -3.180857011675834656e+01 -6.825068484991732021e-01
2.291017654538154602e+01 -3.147202226519584656e+01 -6.952631961554232021e-01
2.307948806881904602e+01 -3.741635820269584656e+01 -4.340327274054232021e-01
2.302602127194404602e+01 -3.642819902300834656e+01 -4.449427615851107021e-01
2.311024978756904602e+01 -3.570542070269584656e+01 -4.579279910772982021e-01
2.244618728756904602e+01 -3.377170488238334656e+01 -4.623988162726107021e-01
2.340785720944404602e+01 -3.452927324175834656e+01 -4.845088016241732021e-01
2.356544998288154602e+01 -3.397995683550834656e+01 -4.975550662726107021e-01
2.377614334225654602e+01 -3.352378007769584656e+01 -5.111201297491732021e-01
2.398903396725654602e+01 -3.308359453082084656e+01 -5.255549442022982021e-01
3.302834060788154602e+01 -5.490427324175834656e+01 -2.268641483038607021e-01
3.369496658444404602e+01 -5.475632402300834656e+01 -2.505763065069857021e-01
2.493166092038154602e+01 -3.875217363238334656e+01 -2.600062381476107021e-01
2.245497635006904602e+01 -3.377280351519584656e+01 -2.708399783819857021e-01
2.425014236569404602e+01 -3.586911699175834656e+01 -2.900813113897982021e-01
2.436244705319404602e+01 -3.521921464800834656e+01 -3.052638065069857021e-01
2.442921951413154602e+01 -3.451474687457084656e+01 -3.199885379522982021e-01
2.460890701413154602e+01 -3.400315019488334656e+01 -3.348200809210482021e-01
3.696681717038154602e+01 -6.180905839800834656e+01 1.084477413445767979e-01
3.795204666256904602e+01 -6.205124589800834656e+01 8.676500208676429793e-02
3.709401443600654602e+01 -5.916892167925834656e+01 4.890794642270179793e-02
3.638441970944404602e+01 -5.663693925738334656e+01 1.436204798520179793e-02
3.660524490475654602e+01 -5.569943925738334656e+01 -1.253919713198570207e-02
3.322829177975654602e+01 -4.913461992144584656e+01 -5.723219029604820207e-02
2.671864822506904602e+01 -3.802011796832084656e+01 -1.097376834601107021e-01
2.644447830319404602e+01 -3.675083085894584656e+01 -1.305811893194857021e-01
3.724916580319404602e+01 -6.228122636675834656e+01 4.511448848992642979e-01
3.783388260006904602e+01 -6.182419511675834656e+01 4.237095821648892979e-01
3.710255935788154602e+01 -5.916037675738334656e+01 3.747593868523892979e-01
4.974245193600654602e+01 -7.854611894488334656e+01 5.349003780633267979e-01
3.747841385006904602e+01 -5.708005449175834656e+01 3.111607540398892979e-01
3.751222732663154602e+01 -5.584384843707084656e+01 2.784306515008267979e-01
2.639638260006904602e+01 -3.751023027300834656e+01 1.045262325555142979e-01
2.635707595944404602e+01 -3.660507890582084656e+01 8.229417689145179793e-02
3.727357986569404602e+01 -6.229978105425834656e+01 7.899968136102017979e-01
3.775392654538154602e+01 -6.166306230425834656e+01 7.594029415398892979e-01
3.711049392819404602e+01 -5.915061113238334656e+01 7.023808468133267979e-01
2.244704177975654602e+01 -3.371982499957084656e+01 3.055760372430142979e-01
3.958327224850654602e+01 -6.043625566363334656e+01 6.802250850945767979e-01
3.987685135006904602e+01 -5.953452226519584656e+01 6.463200557977017979e-01
4.048512771725654602e+01 -5.913425371050834656e+01 6.178318966180142979e-01
2.739211013913154602e+01 -3.814646074175834656e+01 3.151432979852017979e-01
3.714552810788154602e+01 -6.205051347613334656e+01 1.125369738414889298e+00
3.830202224850654602e+01 -6.257981035113334656e+01 1.117725085094576798e+00
3.711830642819404602e+01 -5.914084550738334656e+01 1.028293322399264298e+00
2.245107010006904602e+01 -3.371298906207084656e+01 4.970433223992642979e-01
4.027126052975654602e+01 -6.013071367144584656e+01 9.922368038445767979e-01
4.103725174069404602e+01 -5.995908281207084656e+01 9.696385372430142979e-01
4.145961502194404602e+01 -5.926669999957084656e+01 9.371220577508267979e-01
3.832777908444404602e+01 -6.259982988238334656e+01 1.460712145641451798e+00
3.712697342038154602e+01 -5.913254472613334656e+01 1.354266833141451798e+00
2.245497635006904602e+01 -3.370615312457084656e+01 6.885106075555142979e-01
4.020570877194404602e+01 -6.000485917925834656e+01 1.326709460094576798e+00
4.096828201413154602e+01 -5.983042070269584656e+01 1.305255602672701798e+00
4.155702713131904602e+01 -5.939047929644584656e+01 1.277255724743014298e+00
3.706947830319404602e+01 -5.901315996050834656e+01 1.678592394664889298e+00
2.245888260006904602e+01 -3.369919511675834656e+01 8.810002315789517979e-01
4.024428299069404602e+01 -6.004221269488334656e+01 1.666751574352389298e+00
4.146913650631904602e+01 -5.923581621050834656e+01 1.612353991344576798e+00
3.710658767819404602e+01 -5.905246660113334656e+01 2.005817126110201798e+00
3.708656814694404602e+01 -5.899619218707084656e+01 2.329593371227389298e+00
3.714333084225654602e+01 -5.906821367144584656e+01 2.660709093883639298e+00
4.004335525631904602e+01 -5.702988359332084656e+01 2.523608874157076798e+00
3.719423416256904602e+01 -5.913059160113334656e+01 2.990482043102389298e+00
4.011183670163154602e+01 -5.711057206988334656e+01 2.855045031383639298e+00
3.711269119381904602e+01 -5.897104570269584656e+01 3.309955309703951798e+00
3.715358474850654602e+01 -5.901669999957084656e+01 3.639087389782076798e+00
4.009779861569404602e+01 -5.704599687457084656e+01 3.505023669078951798e+00
3.724110916256904602e+01 -5.914011308550834656e+01 3.975955675914889298e+00
3.970570877194404602e+01 -5.643698808550834656e+01 3.789203356578951798e+00
3.701735427975654602e+01 -5.874314042925834656e+01 4.273975085094576798e+00
3.718947342038154602e+01 -5.900778886675834656e+01 4.622195910289889298e+00
3.979750564694404602e+01 -5.653098222613334656e+01 4.445880602672701798e+00
1.932619217038154602e+01 -2.609409257769584656e+01 -9.290125858038607021e-01
1.928529861569404602e+01 -2.543723222613334656e+01 -9.289820682257357021e-01
1.922499588131904602e+01 -2.477170488238334656e+01 -9.289668094366732021e-01
1.916664627194404602e+01 -2.412705156207084656e+01 -9.289515506476107021e-01
1.911024978756904602e+01 -2.350595781207084656e+01 -9.289210330694857021e-01
1.905556228756904602e+01 -2.290524980425834656e+01 -9.288905154913607021e-01
1.900258377194404602e+01 -2.232211992144584656e+01 -9.288752567022982021e-01
1.904787185788154602e+01 -2.188498613238334656e+01 -9.333155643194857021e-01
2.208815506100654602e+01 -3.024375078082084656e+01 -8.557398807257357021e-01
2.228139236569404602e+01 -2.984384843707084656e+01 -8.667414676397982021e-01
2.253065994381904602e+01 -2.953220292925834656e+01 -8.784449588507357021e-01
2.278725174069404602e+01 -2.923252031207084656e+01 -8.912928592413607021e-01
2.306300857663154602e+01 -2.896469804644584656e+01 -9.046900760382357021e-01
2.334731033444404602e+01 -2.871030351519584656e+01 -9.183314334601107021e-01
2.351320388913154602e+01 -2.829807206988334656e+01 -9.292414676397982021e-01
2.336049392819404602e+01 -2.748166581988334656e+01 -9.292262088507357021e-01
2.291090896725654602e+01 -3.147055742144584656e+01 -6.953089725226107021e-01
2.317982986569404602e+01 -3.115598222613334656e+01 -7.092249881476107021e-01
2.345644119381904602e+01 -3.085605546832084656e+01 -7.232935916632357021e-01
2.374672439694404602e+01 -3.057614824175834656e+01 -7.376521121710482021e-01
2.404213455319404602e+01 -3.030734941363334656e+01 -7.520716678351107021e-01
2.435292556881904602e+01 -3.006101152300834656e+01 -7.668269168585482021e-01
2.464149978756904602e+01 -2.978354570269584656e+01 -7.810786258429232021e-01
2.484987381100654602e+01 -2.940598222613334656e+01 -7.933924686163607021e-01
2.398952224850654602e+01 -3.308176347613334656e+01 -5.256007205694857021e-01
2.424355056881904602e+01 -3.271079179644584656e+01 -5.392725955694857021e-01
2.449855545163154602e+01 -3.234677812457084656e+01 -5.539057742804232021e-01
2.476942947506904602e+01 -3.200766679644584656e+01 -5.687220584601107021e-01
2.503188064694404602e+01 -3.166355058550834656e+01 -5.833247195929232021e-01
2.532924392819404602e+01 -3.137082597613334656e+01 -5.984004031866732021e-01
2.563039138913154602e+01 -3.108286210894584656e+01 -6.135218631476107021e-01
2.565346267819404602e+01 -3.043820878863334656e+01 -6.251338016241732021e-01
2.460927322506904602e+01 -3.400107499957084656e+01 -3.348811160772982021e-01
2.483131912350654602e+01 -3.356345292925834656e+01 -3.504908572882357021e-01
2.503944900631904602e+01 -3.311386796832084656e+01 -3.658564578741732021e-01
2.533119705319404602e+01 -3.278806230425834656e+01 -3.816645633429232021e-01
2.560036209225654602e+01 -3.243674394488334656e+01 -3.972132693976107021e-01
2.585268142819404602e+01 -3.206699296832084656e+01 -4.125330936163607021e-01
2.617311599850654602e+01 -3.179013749957084656e+01 -4.283717166632357021e-01
2.651515701413154602e+01 -3.154502031207084656e+01 -4.443171512335482021e-01
2.644472244381904602e+01 -3.674826738238334656e+01 -1.306422244757357021e-01
2.615663650631904602e+01 -3.550119706988334656e+01 -1.489680301397982021e-01
2.650392654538154602e+01 -3.521115800738334656e+01 -1.660883914679232021e-01
2.683827713131904602e+01 -3.490122148394584656e+01 -1.832697879522982021e-01
2.746986892819404602e+01 -3.500656816363334656e+01 -2.000849734991732021e-01
2.747365310788154602e+01 -3.424729081988334656e+01 -2.173884402960482021e-01
2.756496170163154602e+01 -3.362180253863334656e+01 -2.343104373663607021e-01
2.764613845944404602e+01 -3.300070878863334656e+01 -2.519190799444857021e-01
2.635683181881904602e+01 -3.660178300738334656e+01 8.221788294613929793e-02
2.639796951413154602e+01 -3.584250566363334656e+01 6.105394251645179793e-02
2.650124099850654602e+01 -3.519370195269584656e+01 4.109544642270179793e-02
2.655629470944404602e+01 -3.449008867144584656e+01 2.101488001645179793e-02
2.717079666256904602e+01 -3.458005449175834656e+01 6.351183727389297928e-03
2.772878006100654602e+01 -3.457907792925834656e+01 -9.151745960110702072e-03
2.850526931881904602e+01 -3.485422441363334656e+01 -2.343397252261070207e-02
2.859242752194404602e+01 -3.421543046832084656e+01 -4.269056431948570207e-02
2.739272049069404602e+01 -3.814438554644584656e+01 3.150670040398892979e-01
2.707594802975654602e+01 -3.682590410113334656e+01 2.833287227898892979e-01
2.670485427975654602e+01 -3.547299882769584656e+01 2.530552852898892979e-01
2.687367752194404602e+01 -3.492404863238334656e+01 2.322880733758267979e-01
2.719264724850654602e+01 -3.459677812457084656e+01 2.144505489617642979e-01
2.760585525631904602e+01 -3.439951249957084656e+01 1.981541622430142979e-01
2.841542556881904602e+01 -3.472177812457084656e+01 1.864506710320767979e-01
2.896815994381904602e+01 -3.468955156207084656e+01 1.716343868523892979e-01
4.146339920163154602e+01 -5.926792070269584656e+01 9.370762813836392979e-01
2.740907791256904602e+01 -3.730149003863334656e+01 5.083195675164517979e-01
2.667336013913154602e+01 -3.541391679644584656e+01 4.609105098992642979e-01
2.726576736569404602e+01 -3.546298906207084656e+01 4.493138302117642979e-01
2.792458084225654602e+01 -3.559323808550834656e+01 4.389836300164517979e-01
2.787636306881904602e+01 -3.475168535113334656e+01 4.115941036492642979e-01
2.864857986569404602e+01 -3.501682206988334656e+01 4.032780636102017979e-01
2.915456131100654602e+01 -3.491782304644584656e+01 3.886143673211392979e-01
4.169093826413154602e+01 -5.958713456988334656e+01 1.282001208141451798e+00
4.042128494381904602e+01 -5.641281816363334656e+01 1.187762926891451798e+00
2.740700271725654602e+01 -3.645578691363334656e+01 6.944920528680142979e-01
2.813026931881904602e+01 -3.666696855425834656e+01 6.881749141961392979e-01
2.826466873288154602e+01 -3.604843828082084656e+01 6.622960079461392979e-01
2.935487869381904602e+01 -3.673544999957084656e+01 6.666142452508267979e-01
2.927443435788154602e+01 -3.583127519488334656e+01 6.342350948602017979e-01
2.940504959225654602e+01 -3.522885820269584656e+01 6.090428341180142979e-01
4.147084549069404602e+01 -5.923386308550834656e+01 1.612231921032076798e+00
4.066884353756904602e+01 -5.675498124957084656e+01 1.523471545055514298e+00
2.808681228756904602e+01 -3.659152910113334656e+01 9.044682491570767979e-01
2.965443924069404602e+01 -3.712570878863334656e+01 8.998600948602017979e-01
2.933351638913154602e+01 -3.589560624957084656e+01 8.544957149773892979e-01
3.042995193600654602e+01 -3.654294511675834656e+01 8.625981319695767979e-01
4.054652908444404602e+01 -5.655368730425834656e+01 1.842197130993014298e+00
2.966554763913154602e+01 -3.712631914019584656e+01 1.123080920055514298e+00
3.043947342038154602e+01 -3.654123613238334656e+01 1.085620592907076798e+00
4.003786209225654602e+01 -5.703891679644584656e+01 2.198566149547701798e+00
4.053651931881904602e+01 -5.651743242144584656e+01 2.167316149547701798e+00
2.923451736569404602e+01 -3.734287187457084656e+01 1.362079333141451798e+00
2.966982010006904602e+01 -3.711777421832084656e+01 1.346027087047701798e+00
3.997609451413154602e+01 -5.692465898394584656e+01 2.518665026500826798e+00
4.056740310788154602e+01 -5.654123613238334656e+01 2.493213366344576798e+00
2.970680740475654602e+01 -3.715329667925834656e+01 1.572192858532076798e+00
4.011244705319404602e+01 -5.710727617144584656e+01 2.854846667125826798e+00
4.041017654538154602e+01 -5.628891679644584656e+01 2.805179308727389298e+00
2.935915115475654602e+01 -3.748557206988334656e+01 1.816791247203951798e+00
4.007021072506904602e+01 -5.702207109332084656e+01 3.176013659313326798e+00
4.059950760006904602e+01 -5.654514238238334656e+01 3.145465563610201798e+00
4.007216385006904602e+01 -5.700315019488334656e+01 3.502307604625826798e+00
2.932057693600654602e+01 -3.740354081988334656e+01 2.260974596813326798e+00
2.976357010006904602e+01 -3.718662187457084656e+01 2.246722887828951798e+00
3.970717361569404602e+01 -5.643491289019584656e+01 3.789050768688326798e+00
4.063551834225654602e+01 -5.655466386675834656e+01 3.798755358532076798e+00
2.933510330319404602e+01 -3.740903398394584656e+01 2.486316393688326798e+00
3.987819412350654602e+01 -5.666928789019584656e+01 4.130969714000826798e+00
4.099001052975654602e+01 -5.705234453082084656e+01 4.163211535289889298e+00
2.935536697506904602e+01 -3.742246171832084656e+01 2.711215685680514298e+00
3.979811599850654602e+01 -5.652780839800834656e+01 4.445636462047701798e+00
4.062074783444404602e+01 -5.648996660113334656e+01 4.446918200328951798e+00
2.937587478756904602e+01 -3.743613359332084656e+01 2.937579821422701798e+00
1.904762771725654602e+01 -2.188315507769584656e+01 -9.333155643194857021e-01
1.914674881100654602e+01 -2.152487871050834656e+01 -9.392207156866732021e-01
1.923647049069404602e+01 -2.116171953082084656e+01 -9.454768192022982021e-01
1.921254470944404602e+01 -2.066501542925834656e+01 -9.472468387335482021e-01
1.916994217038154602e+01 -2.016001054644584656e+01 -9.482081424444857021e-01
1.907399490475654602e+01 -1.960483476519584656e+01 -9.469874393194857021e-01
1.891554763913154602e+01 -1.899143144488334656e+01 -9.432185184210482021e-01
1.881874588131904602e+01 -1.846604081988334656e+01 -9.424708377569857021e-01
2.335854080319404602e+01 -2.747702714800834656e+01 -9.291804324835482021e-01
2.317995193600654602e+01 -2.665158769488334656e+01 -9.291499149054232021e-01
2.303590896725654602e+01 -2.589316484332084656e+01 -9.291041385382357021e-01
2.286952713131904602e+01 -2.512680742144584656e+01 -9.290736209601107021e-01
2.271022537350654602e+01 -2.439243242144584656e+01 -9.290431033819857021e-01
2.255702713131904602e+01 -2.368552324175834656e+01 -9.290125858038607021e-01
2.238393142819404602e+01 -2.297373124957084656e+01 -9.289820682257357021e-01
2.224208572506904602e+01 -2.231857988238334656e+01 -9.289515506476107021e-01
2.485024002194404602e+01 -2.940427324175834656e+01 -7.934382449835482021e-01
2.504860427975654602e+01 -2.901962968707084656e+01 -8.063929568976107021e-01
2.525954177975654602e+01 -2.865598222613334656e+01 -8.195765506476107021e-01
2.547292068600654602e+01 -2.829782792925834656e+01 -8.328059207647982021e-01
2.568605545163154602e+01 -2.794589921832084656e+01 -8.459284793585482021e-01
2.591274002194404602e+01 -2.761386796832084656e+01 -8.593562137335482021e-01
2.622670486569404602e+01 -2.738376542925834656e+01 -8.749812137335482021e-01
2.658022049069404602e+01 -2.719943925738334656e+01 -8.916285526007357021e-01
2.564796951413154602e+01 -3.042868730425834656e+01 -6.250727664679232021e-01
2.550697830319404602e+01 -2.959140703082084656e+01 -6.325495731085482021e-01
2.584523513913154602e+01 -2.937485429644584656e+01 -6.487544070929232021e-01
2.618788650631904602e+01 -2.916013261675834656e+01 -6.651118289679232021e-01
2.656252029538154602e+01 -2.898398515582084656e+01 -6.820185672491732021e-01
2.695900467038154602e+01 -2.883029863238334656e+01 -6.993678104132357021e-01
2.738710525631904602e+01 -2.870688554644584656e+01 -7.174189578741732021e-01
2.782399490475654602e+01 -2.858994218707084656e+01 -7.366755496710482021e-01
2.651601150631904602e+01 -3.154392167925834656e+01 -4.443629276007357021e-01
2.682961013913154602e+01 -3.126206132769584656e+01 -4.607966434210482021e-01
2.718178299069404602e+01 -3.102902910113334656e+01 -4.775965701788607021e-01
2.758412674069404602e+01 -3.085336992144584656e+01 -4.949763309210482021e-01
2.797804763913154602e+01 -3.066611406207084656e+01 -5.122950565069857021e-01
2.840443924069404602e+01 -3.051389238238334656e+01 -5.300410281866732021e-01
2.884315994381904602e+01 -3.036875078082084656e+01 -5.480769168585482021e-01
2.932802322506904602e+01 -3.027280351519584656e+01 -5.667078983038607021e-01
2.764687088131904602e+01 -3.299912187457084656e+01 -2.519801151007357021e-01
2.776930740475654602e+01 -3.244455644488334656e+01 -2.677882205694857021e-01
2.797865799069404602e+01 -3.200949785113334656e+01 -2.846186649054232021e-01
2.841420486569404602e+01 -3.185446855425834656e+01 -3.020136844366732021e-01
2.884071853756904602e+01 -3.168601152300834656e+01 -3.194239627569857021e-01
2.928151443600654602e+01 -3.152988359332084656e+01 -3.370020877569857021e-01
2.976906326413154602e+01 -3.142038652300834656e+01 -3.549464236944857021e-01
3.027040603756904602e+01 -3.132199785113334656e+01 -3.741724979132357021e-01
2.859718826413154602e+01 -3.421909257769584656e+01 -4.272108189761070207e-02
2.940663650631904602e+01 -3.451291581988334656e+01 -5.794935338198570207e-02
3.013319900631904602e+01 -3.468003007769584656e+01 -7.423048131167320207e-02
4.306398513913154602e+01 -4.971591874957084656e+01 -3.774671666323570207e-02
3.199611404538154602e+01 -3.544638749957084656e+01 -1.068232547491732021e-01
3.221400955319404602e+01 -3.495358964800834656e+01 -1.263850223272982021e-01
4.431203201413154602e+01 -4.810776445269584656e+01 -1.169550906866732021e-01
4.473842361569404602e+01 -4.759336015582084656e+01 -1.430628787726107021e-01
2.931068924069404602e+01 -3.513120195269584656e+01 1.763340938836392979e-01
2.963564041256904602e+01 -3.479050371050834656e+01 1.575657833367642979e-01
3.021364334225654602e+01 -3.476669999957084656e+01 1.431462276727017979e-01
3.092702224850654602e+01 -3.489426347613334656e+01 1.287266720086392979e-01
3.201320388913154602e+01 -3.545297929644584656e+01 1.179234493523892979e-01
5.377284744381904602e+01 -6.019150468707084656e+01 3.159520138055142979e-01
5.387636306881904602e+01 -5.906796953082084656e+01 2.769352901727017979e-01
5.402455642819404602e+01 -5.802268144488334656e+01 2.411686886102017979e-01
2.944118240475654602e+01 -3.528684160113334656e+01 3.946721065789517979e-01
2.986049392819404602e+01 -3.506259843707084656e+01 3.774907100945767979e-01
3.100270584225654602e+01 -3.573496171832084656e+01 3.744389522820767979e-01
3.186037185788154602e+01 -3.601865312457084656e+01 3.646122921258267979e-01
3.187013748288154602e+01 -3.526828691363334656e+01 3.387791622430142979e-01
5.684120681881904602e+01 -6.376132890582084656e+01 7.429539669305142979e-01
5.694923904538154602e+01 -6.257150956988334656e+01 6.998784054070767979e-01
5.687941482663154602e+01 -6.121128007769584656e+01 6.550480831414517979e-01
2.940761306881904602e+01 -3.522959062457084656e+01 6.090123165398892979e-01
3.070949295163154602e+01 -3.612692949175834656e+01 6.169926632195767979e-01
3.144447830319404602e+01 -3.627072831988334656e+01 6.078373897820767979e-01
3.162477615475654602e+01 -3.571774980425834656e+01 5.834385860711392979e-01
5.833778885006904602e+01 -6.686472246050834656e+01 1.226810168102389298e+00
4.584377029538154602e+01 -5.086557695269584656e+01 8.719822872430142979e-01
5.758595779538154602e+01 -6.327805253863334656e+01 1.106631945446139298e+00
5.805910232663154602e+01 -6.251438066363334656e+01 1.068484972789889298e+00
3.022707107663154602e+01 -3.627744218707084656e+01 8.550755489617642979e-01
3.098170974850654602e+01 -3.645847246050834656e+01 8.497960079461392979e-01
5.782765701413154602e+01 -6.906198808550834656e+01 1.740268420055514298e+00
5.836171463131904602e+01 -6.827719804644584656e+01 1.698901842907076798e+00
5.849928787350654602e+01 -6.703220292925834656e+01 1.645267199352389298e+00
4.596889236569404602e+01 -5.099253007769584656e+01 1.195758532360201798e+00
5.823317459225654602e+01 -6.399607011675834656e+01 1.524615954235201798e+00
5.843324783444404602e+01 -6.291110917925834656e+01 1.476520251110201798e+00
3.043959549069404602e+01 -3.653867265582084656e+01 1.085498522594576798e+00
5.917580154538154602e+01 -6.372128984332084656e+01 1.900851916149264298e+00
4.572951248288154602e+01 -5.067368242144584656e+01 1.822681139782076798e+00
4.585561111569404602e+01 -5.080161210894584656e+01 2.148090075328951798e+00
4.549989822506904602e+01 -5.143430253863334656e+01 2.503940295055514298e+00
4.590456131100654602e+01 -5.083945390582084656e+01 2.468906115368014298e+00
4.537721756100654602e+01 -5.126853105425834656e+01 2.816364001110201798e+00
4.578493240475654602e+01 -5.068027421832084656e+01 2.780795763805514298e+00
4.515443924069404602e+01 -5.098349687457084656e+01 3.117740343883639298e+00
4.634438064694404602e+01 -5.131406328082084656e+01 3.139239977672701798e+00
4.517787674069404602e+01 -5.099204179644584656e+01 3.437808703258639298e+00
4.631642654538154602e+01 -5.126169511675834656e+01 3.459796618297701798e+00
4.522316482663154602e+01 -5.102634355425834656e+01 3.758380602672701798e+00
4.596364334225654602e+01 -5.083054277300834656e+01 3.749637316539889298e+00
4.524013260006904602e+01 -5.102707597613334656e+01 4.078479479625826798e+00
4.631569412350654602e+01 -5.122165605425834656e+01 4.102969836071139298e+00
1.881740310788154602e+01 -1.846311113238334656e+01 -9.424250613897982021e-01
1.865309646725654602e+01 -1.787680742144584656e+01 -9.383662234991732021e-01
1.844423416256904602e+01 -1.725791093707084656e+01 -9.330714236944857021e-01
1.831544998288154602e+01 -1.674008867144584656e+01 -9.308894168585482021e-01
1.822670486569404602e+01 -1.627854081988334656e+01 -9.301875125616732021e-01
1.805836990475654602e+01 -1.574692460894584656e+01 -9.261744510382357021e-01
1.782509353756904602e+01 -1.516330644488334656e+01 -9.194300662726107021e-01
1.764162185788154602e+01 -1.464609453082084656e+01 -9.151576053351107021e-01
2.224037674069404602e+01 -2.231503984332084656e+01 -9.289057742804232021e-01
2.207729080319404602e+01 -2.165378496050834656e+01 -9.288752567022982021e-01
2.195558670163154602e+01 -2.105478593707084656e+01 -9.292719852179232021e-01
2.183363845944404602e+01 -2.046897050738334656e+01 -9.302790652960482021e-01
2.171376541256904602e+01 -1.990146562457084656e+01 -9.311793338507357021e-01
2.154530838131904602e+01 -1.929831621050834656e+01 -9.302790652960482021e-01
2.134303787350654602e+01 -1.867575761675834656e+01 -9.287684451788607021e-01
2.121083572506904602e+01 -1.813950273394584656e+01 -9.287531863897982021e-01
2.658192947506904602e+01 -2.719931718707084656e+01 -8.916895877569857021e-01
2.697194412350654602e+01 -2.705246660113334656e+01 -9.102595340460482021e-01
2.708717849850654602e+01 -2.660336992144584656e+01 -9.216120731085482021e-01
2.686903885006904602e+01 -2.580551835894584656e+01 -9.239771854132357021e-01
2.676845291256904602e+01 -2.515280839800834656e+01 -9.291804324835482021e-01
2.648476150631904602e+01 -2.432871171832084656e+01 -9.291499149054232021e-01
2.621181228756904602e+01 -2.353598710894584656e+01 -9.291193973272982021e-01
2.595082595944404602e+01 -2.277780839800834656e+01 -9.290888797491732021e-01
2.782607010006904602e+01 -2.859030839800834656e+01 -7.367518436163607021e-01
2.829604080319404602e+01 -2.850400468707084656e+01 -7.555964481085482021e-01
2.878981521725654602e+01 -2.843576738238334656e+01 -7.760584842413607021e-01
2.909816482663154602e+01 -2.816037675738334656e+01 -7.929804813116732021e-01
2.937965896725654602e+01 -2.785861894488334656e+01 -8.093226443976107021e-01
2.967970779538154602e+01 -2.757639238238334656e+01 -8.260462772101107021e-01
2.998244217038154602e+01 -2.729502031207084656e+01 -8.428614627569857021e-01
3.027065017819404602e+01 -2.700119706988334656e+01 -8.603480350226107021e-01
2.933046463131904602e+01 -3.027341386675834656e+01 -5.667841922491732021e-01
2.985817459225654602e+01 -3.021738359332084656e+01 -5.868647586554232021e-01
3.043324783444404602e+01 -3.020297929644584656e+01 -6.077540408819857021e-01
3.071950271725654602e+01 -2.986887285113334656e+01 -6.250727664679232021e-01
3.017348220944404602e+01 -2.867294999957084656e+01 -6.307795535772982021e-01
3.078261306881904602e+01 -2.868955156207084656e+01 -6.522486697882357021e-01
3.145631912350654602e+01 -2.875669023394584656e+01 -6.749537479132357021e-01
3.231422927975654602e+01 -2.899179765582084656e+01 -7.007105838507357021e-01
3.027321365475654602e+01 -3.132285234332084656e+01 -3.742487918585482021e-01
3.090370681881904602e+01 -3.135910722613334656e+01 -3.928339969366732021e-01
3.176210525631904602e+01 -3.162839433550834656e+01 -4.142573367804232021e-01
3.271925857663154602e+01 -3.197739335894584656e+01 -4.369471561163607021e-01
5.024818924069404602e+01 -4.952622148394584656e+01 -5.794947635382357021e-01
5.046779373288154602e+01 -4.873471757769584656e+01 -6.060297977179232021e-01
5.063380935788154602e+01 -4.789804765582084656e+01 -6.319087039679232021e-01
4.239662674069404602e+01 -3.885141679644584656e+01 -5.859339725226107021e-01
4.473964431881904602e+01 -4.759140703082084656e+01 -1.431544315069857021e-01
4.511867263913154602e+01 -4.702780839800834656e+01 -1.699793826788607021e-01
4.545216873288154602e+01 -4.641928789019584656e+01 -1.967127811163607021e-01
4.576540115475654602e+01 -4.579209062457084656e+01 -2.233698856085482021e-01
4.607521560788154602e+01 -4.517148515582084656e+01 -2.497523318976107021e-01
4.633022049069404602e+01 -4.450168535113334656e+01 -2.758753787726107021e-01
4.658266189694404602e+01 -4.383493730425834656e+01 -3.018458377569857021e-01
4.239088943600654602e+01 -3.883029863238334656e+01 -3.174098026007357021e-01
5.402345779538154602e+01 -5.801755449175834656e+01 2.410313595086392979e-01
5.420461013913154602e+01 -5.702902910113334656e+01 2.055241573602017979e-01
5.439052322506904602e+01 -5.606284257769584656e+01 1.725193966180142979e-01
5.222731521725654602e+01 -5.262070390582084656e+01 1.222264278680142979e-01
5.263515213131904602e+01 -5.196689531207084656e+01 9.114427454770179793e-02
5.478566482663154602e+01 -5.309274980425834656e+01 6.967515833676429793e-02
5.489748123288154602e+01 -5.211569902300834656e+01 3.444261439145179793e-02
4.244923904538154602e+01 -3.887216874957084656e+01 -5.018262974917320207e-02
5.687721756100654602e+01 -6.120468828082084656e+01 6.548802364617642979e-01
5.691139724850654602e+01 -5.999094316363334656e+01 6.122776973992642979e-01
5.697096756100654602e+01 -5.882968828082084656e+01 5.708958614617642979e-01
5.208888748288154602e+01 -5.245371171832084656e+01 4.641148556023892979e-01
5.242567947506904602e+01 -5.172922441363334656e+01 4.313694942742642979e-01
5.733449295163154602e+01 -5.566623613238334656e+01 4.535099972039517979e-01
5.744301345944404602e+01 -5.463486406207084656e+01 4.154698360711392979e-01
5.749367263913154602e+01 -5.356931230425834656e+01 3.775975216180142979e-01
5.805995681881904602e+01 -6.251096269488334656e+01 1.068347643688326798e+00
5.919728592038154602e+01 -6.248691484332084656e+01 1.044742297008639298e+00
5.984401443600654602e+01 -6.191037675738334656e+01 1.010074328258639298e+00
6.001723220944404602e+01 -6.082736894488334656e+01 9.657017696648892979e-01
5.312990310788154602e+01 -5.244028398394584656e+01 7.863347042352017979e-01
6.009499099850654602e+01 -5.845310136675834656e+01 8.744847286492642979e-01
3.353224685788154602e+01 -3.076926347613334656e+01 3.587834347039517979e-01
6.008974197506904602e+01 -5.608640214800834656e+01 7.851902950555142979e-01
5.843483474850654602e+01 -6.290842363238334656e+01 1.476382922008639298e+00
5.917079666256904602e+01 -6.243369218707084656e+01 1.444537829235201798e+00
6.014919021725654602e+01 -6.221616289019584656e+01 1.419177721813326798e+00
6.385744217038154602e+01 -6.486801835894584656e+01 1.466022204235201798e+00
6.366139724850654602e+01 -6.334543535113334656e+01 1.406711291149264298e+00
4.907423904538154602e+01 -4.722275468707084656e+01 9.884831417352017979e-01
3.355617263913154602e+01 -3.078073808550834656e+01 5.727421749383267979e-01
6.319460037350654602e+01 -5.909860917925834656e+01 1.239947985485201798e+00
5.918044021725654602e+01 -6.372214433550834656e+01 1.900836657360201798e+00
6.788905838131904602e+01 -6.910825273394584656e+01 2.021716784313326798e+00
6.766811111569404602e+01 -6.747617265582084656e+01 1.952197741344576798e+00
6.740114334225654602e+01 -6.583518144488334656e+01 1.882922839000826798e+00
3.358009842038154602e+01 -3.079221269488334656e+01 7.858311641961392979e-01
6.700172927975654602e+01 -6.279465410113334656e+01 1.753253649547701798e+00
4.949355056881904602e+01 -4.761203691363334656e+01 1.636096667125826798e+00
7.118825271725654602e+01 -6.685825273394584656e+01 2.331287096813326798e+00
4.948402908444404602e+01 -4.758383867144584656e+01 1.955814074352389298e+00
4.914809158444404602e+01 -4.722421953082084656e+01 2.256915758922701798e+00
4.918678787350654602e+01 -4.724509355425834656e+01 2.576877306774264298e+00
4.914626052975654602e+01 -4.718552324175834656e+01 2.890475939586764298e+00
4.887978103756904602e+01 -4.689682695269584656e+01 3.189166735485201798e+00
4.894252517819404602e+01 -4.694223710894584656e+01 3.508075426891451798e+00
4.968129470944404602e+01 -4.670847246050834656e+01 3.500308703258639298e+00
4.902284744381904602e+01 -4.700522539019584656e+01 3.830875109508639298e+00
1.820522049069404602e+01 -9.603736132383346558e+00 -8.205824010073570207e-02
1.775294998288154602e+01 -8.887061327695846558e+00 -1.154902469366732021e-01
6.619276931881904602e+01 -5.457907792925834656e+01 1.631915758922701798e+00
6.256203201413154602e+01 -5.016599199175834656e+01 1.433414172008639298e+00
6.319069412350654602e+01 -4.953635331988334656e+01 1.361316393688326798e+00
5.285182693600654602e+01 -3.972263261675834656e+01 1.012180041149264298e+00
6.605324295163154602e+01 -4.958322831988334656e+01 1.254794787243014298e+00
6.582484939694404602e+01 -4.823215410113334656e+01 1.160770129039889298e+00
6.556203201413154602e+01 -4.687644121050834656e+01 1.067722033336764298e+00
1.779726150631904602e+01 -8.907447069883346558e+00 1.623887903988929793e-02
6.613539627194404602e+01 -5.447995683550834656e+01 2.062961291149264298e+00
6.632985427975654602e+01 -5.340073320269584656e+01 1.970874499157076798e+00
6.685280349850654602e+01 -5.261618730425834656e+01 1.890598009899264298e+00
5.286903885006904602e+01 -3.969956132769584656e+01 1.357623766735201798e+00
6.937025955319404602e+01 -5.225595781207084656e+01 1.774265002086764298e+00
6.892970779538154602e+01 -5.068100664019584656e+01 1.665134142711764298e+00
6.854860427975654602e+01 -4.918259355425834656e+01 1.559985827282076798e+00
6.820485427975654602e+01 -4.774851152300834656e+01 1.458621691539889298e+00
6.650917556881904602e+01 -5.476315996050834656e+01 2.513202380016451798e+00
4.934340408444404602e+01 -3.857724687457084656e+01 1.722186755016451798e+00
6.773244217038154602e+01 -5.331906816363334656e+01 2.354083727672701798e+00
5.288930252194404602e+01 -3.967929765582084656e+01 1.701327990368014298e+00
6.936122635006904602e+01 -5.220151445269584656e+01 2.211368273571139298e+00
7.220399978756904602e+01 -5.201120683550834656e+01 2.106601427868014298e+00
6.999940994381904602e+01 -4.908628007769584656e+01 1.938266466930514298e+00
4.937282302975654602e+01 -3.856638261675834656e+01 2.052432726696139298e+00
6.896864822506904602e+01 -5.432431718707084656e+01 2.846072863414889298e+00
5.290895584225654602e+01 -3.965817949175834656e+01 2.046848009899264298e+00
5.294435623288154602e+01 -3.965061113238334656e+01 2.391330431774264298e+00
5.284120681881904602e+01 -4.050913164019584656e+01 2.819415758922701798e+00
5.297353103756904602e+01 -3.963754960894584656e+01 2.737491320446139298e+00
3.741017654538154602e+01 -2.518735429644584656e+01 -8.023951541632357021e-01
4.621388748288154602e+01 -3.141147539019584656e+01 -9.296534549444857021e-01
4.066969802975654602e+01 -2.632089921832084656e+01 -9.293787967413607021e-01
2.865126541256904602e+01 -1.653855058550834656e+01 -8.433650027960482021e-01
4.824294021725654602e+01 -3.744614335894584656e+01 -3.166621219366732021e-01
3.599257400631904602e+01 -2.609506914019584656e+01 -4.002497684210482021e-01
3.615663650631904602e+01 -2.553061601519584656e+01 -4.514277469366732021e-01
2.012355545163154602e+01 -1.172898027300834656e+01 -4.852869998663607021e-01
3.717567947506904602e+01 -2.496994706988334656e+01 -5.515254031866732021e-01
4.978920486569404602e+01 -3.418259355425834656e+01 -6.418879520147982021e-01
5.434108474850654602e+01 -3.680222246050834656e+01 -7.227747928351107021e-01
5.148756912350654602e+01 -3.371811601519584656e+01 -7.735560428351107021e-01
5.818471267819404602e+01 -4.603220292925834656e+01 9.378404505551429793e-02
3.612611892819404602e+01 -2.617844316363334656e+01 -1.514857303351107021e-01
3.640993240475654602e+01 -2.571176835894584656e+01 -2.017786990851107021e-01
2.013283279538154602e+01 -1.171848222613334656e+01 -3.341486942022982021e-01
3.726735427975654602e+01 -2.501364824175834656e+01 -3.010676395147982021e-01
4.939577224850654602e+01 -3.383628007769584656e+01 -3.211634647101107021e-01
5.074794510006904602e+01 -3.400192949175834656e+01 -3.839686404913607021e-01
5.153517654538154602e+01 -3.371652910113334656e+01 -4.487879764288607021e-01
6.085793045163154602e+01 -4.830222246050834656e+01 5.188328731805142979e-01
3.644472244381904602e+01 -2.641892167925834656e+01 1.011540401727017979e-01
3.657924392819404602e+01 -2.582285234332084656e+01 4.832811243832679793e-02
1.960255935788154602e+01 -1.126779863238334656e+01 -1.896784793585482021e-01
1.861024978756904602e+01 -1.006491777300834656e+01 -2.306788455694857021e-01
1.796034744381904602e+01 -9.168677538633346558e+00 -2.658656131476107021e-01
2.812257888913154602e+01 -1.659738847613334656e+01 -2.221644412726107021e-01
2.918629959225654602e+01 -1.687351152300834656e+01 -2.550929080694857021e-01
6.252187088131904602e+01 -4.969431230425834656e+01 9.527317989617642979e-01
3.847804763913154602e+01 -2.811447831988334656e+01 3.920933712273892979e-01
3.888747146725654602e+01 -2.771311113238334656e+01 3.402592647820767979e-01
1.955580642819404602e+01 -1.121201249957084656e+01 -4.270582310854820207e-02
1.857155349850654602e+01 -1.001731035113334656e+01 -9.051160924136070207e-02
1.793715408444404602e+01 -9.134619921445846558e+00 -1.303065311163607021e-01
1.736586502194404602e+01 -8.325415819883346558e+00 -1.673090945929232021e-01
1.683205154538154602e+01 -7.569068163633346558e+00 -2.018702518194857021e-01
6.264589431881904602e+01 -4.975107499957084656e+01 1.367221545055514298e+00
3.727467849850654602e+01 -2.706174394488334656e+01 6.235081661492642979e-01
3.762013748288154602e+01 -2.662790605425834656e+01 5.721623409539517979e-01
3.999452713131904602e+01 -2.784470292925834656e+01 5.665471065789517979e-01
6.523598220944404602e+01 -4.725156328082084656e+01 1.042316149547701798e+00
1.790712478756904602e+01 -9.095313280820846558e+00 4.016589000826797928e-03
1.731837967038154602e+01 -8.273780077695846558e+00 -3.759412877261070207e-02
1.677040603756904602e+01 -7.508155077695846558e+00 -7.572584263979820207e-02
6.340419510006904602e+01 -5.035642167925834656e+01 1.801532458141451798e+00
5.315627029538154602e+01 -4.049021074175834656e+01 1.378436755016451798e+00
6.826918533444404602e+01 -5.205441972613334656e+01 1.746707629039889298e+00
6.871437576413154602e+01 -5.118857499957084656e+01 1.654239367321139298e+00
6.825441482663154602e+01 -4.960996171832084656e+01 1.537982653453951798e+00
6.783937576413154602e+01 -4.810044023394584656e+01 1.425800036266451798e+00
6.746657302975654602e+01 -4.665109941363334656e+01 1.317035387828951798e+00
6.718031814694404602e+01 -4.530051347613334656e+01 1.213153551891451798e+00
6.745534256100654602e+01 -5.380515214800834656e+01 2.375064562633639298e+00
5.303969314694404602e+01 -4.034873124957084656e+01 1.725070666149264298e+00
5.298988845944404602e+01 -3.932163164019584656e+01 1.634128283336764298e+00
6.992116287350654602e+01 -5.211801835894584656e+01 2.130664538219576798e+00
7.193105056881904602e+01 -5.248911210894584656e+01 2.087985705211764298e+00
7.010133865475654602e+01 -4.981699296832084656e+01 1.920184801891451798e+00
6.935194900631904602e+01 -4.804453203082084656e+01 1.793750475719576798e+00
7.029152420163154602e+01 -4.758396074175834656e+01 1.717685412243014298e+00
6.828944900631904602e+01 -5.447104570269584656e+01 2.852512072399264298e+00
6.891640213131904602e+01 -5.373874589800834656e+01 2.761844347789889298e+00
6.948170974850654602e+01 -4.809397050738334656e+01 2.226489733532076798e+00
6.964748123288154602e+01 -4.705210039019584656e+01 2.127902697399264298e+00
3.792531326413154602e+01 -2.728732988238334656e+01 7.493016231805142979e-01
3.808766677975654602e+01 -2.668515703082084656e+01 6.891514766961392979e-01
6.682350662350654602e+01 -4.921982499957084656e+01 1.337650011852389298e+00
6.646193435788154602e+01 -4.774521562457084656e+01 1.225314806774264298e+00
6.609218338131904602e+01 -4.629831621050834656e+01 1.115787218883639298e+00
6.583827713131904602e+01 -4.496909257769584656e+01 1.011218737438326798e+00
1.658522537350654602e+01 -7.117408007383346558e+00 -3.274183385073570207e-02
1.607643631100654602e+01 -6.401587694883346558e+00 -7.194166295229820207e-02
5.274391677975654602e+01 -3.973252031207084656e+01 1.510410021618014298e+00
6.875136306881904602e+01 -5.195896074175834656e+01 1.936267565563326798e+00
7.024562576413154602e+01 -5.193418046832084656e+01 1.868289660289889298e+00
6.968080642819404602e+01 -5.024387285113334656e+01 1.739581774547701798e+00
6.914577224850654602e+01 -4.861814042925834656e+01 1.615451525524264298e+00
6.873537185788154602e+01 -4.712290117144584656e+01 1.497821520641451798e+00
6.834364822506904602e+01 -4.566818925738334656e+01 1.385318468883639298e+00
6.807497146725654602e+01 -4.433701249957084656e+01 1.276477526500826798e+00
5.279738357663154602e+01 -3.973264238238334656e+01 1.862888048961764298e+00
6.942690017819404602e+01 -5.246005937457084656e+01 2.402103136852389298e+00
6.953481033444404602e+01 -4.886643144488334656e+01 2.063068102672701798e+00
6.975246170163154602e+01 -4.784348222613334656e+01 1.959323595836764298e+00
5.387538650631904602e+01 -3.484653398394584656e+01 1.363940905407076798e+00
7.111855056881904602e+01 -4.650620195269584656e+01 1.784091662243014298e+00
4.926015213131904602e+01 -4.692844316363334656e+01 5.583026598766451798e+00
4.541188552975654602e+01 -5.132553789019584656e+01 6.376697253063326798e+00
4.653261306881904602e+01 -5.110581132769584656e+01 6.372806261852389298e+00
3.247243240475654602e+01 -3.460446855425834656e+01 4.678241442516451798e+00
4.919325760006904602e+01 -4.682883378863334656e+01 6.023959826305514298e+00
4.545338943600654602e+01 -5.133725664019584656e+01 6.831989001110201798e+00
4.619826248288154602e+01 -5.070627519488334656e+01 6.783405016735201798e+00
3.258498123288154602e+01 -3.469809648394584656e+01 5.044986437633639298e+00
3.272267654538154602e+01 -3.372653886675834656e+01 4.956287096813326798e+00
4.934987381100654602e+01 -4.695029374957084656e+01 6.486163805797701798e+00
4.549965408444404602e+01 -5.114182206988334656e+01 3.100619982555514298e+00
4.529250076413154602e+01 -5.087876054644584656e+01 3.535251330211764298e+00
4.530287674069404602e+01 -5.085703203082084656e+01 3.986438464000826798e+00
4.543117263913154602e+01 -5.096616289019584656e+01 4.445361803844576798e+00
4.550087478756904602e+01 -5.100998613238334656e+01 4.902972887828951798e+00
4.556081131100654602e+01 -5.104331132769584656e+01 5.358081530407076798e+00
4.515565994381904602e+01 -5.056137773394584656e+01 5.767078112438326798e+00
4.550917556881904602e+01 -5.091965410113334656e+01 6.253604601696139298e+00
3.240944412350654602e+01 -3.526560136675834656e+01 4.673068713024264298e+00
3.086073806881904602e+01 -3.700131914019584656e+01 5.168216418102389298e+00
3.224232986569404602e+01 -3.621311113238334656e+01 5.117664049938326798e+00
3.243166092038154602e+01 -3.526340410113334656e+01 5.033252428844576798e+00
3.379164627194404602e+01 -3.557797929644584656e+01 5.086108874157076798e+00
8.337910920381546021e+00 -1.039792558550834656e+01 2.987400997430142979e-01
4.563319900631904602e+01 -5.092307206988334656e+01 2.123950671032076798e+00
8.432271271944046021e+00 -9.223365038633346558e+00 2.301365841180142979e-01
7.877095490694046021e+00 -9.864600390195846558e+00 4.721104610711392979e-01
8.118184357881546021e+00 -9.495825976133346558e+00 4.472233761102017979e-01
8.509907990694046021e+00 -9.293311327695846558e+00 4.308812130242642979e-01
4.559169510006904602e+01 -5.081211015582084656e+01 3.025836657360201798e+00
4.561891677975654602e+01 -5.080954667925834656e+01 3.478412340953951798e+00
4.564027908444404602e+01 -5.080039140582084656e+01 3.933261584118014298e+00
4.560500076413154602e+01 -5.072898027300834656e+01 4.381137560680514298e+00
4.569679763913154602e+01 -5.079746171832084656e+01 4.842441271618014298e+00
4.551906326413154602e+01 -5.053659746050834656e+01 5.728366564586764298e+00
3.218935135006904602e+01 -3.472507402300834656e+01 4.236942004039889298e+00
3.240407302975654602e+01 -3.608457109332084656e+01 4.717395495250826798e+00
3.231972244381904602e+01 -3.596567460894584656e+01 5.069736193493014298e+00
3.268727615475654602e+01 -3.407224199175834656e+01 4.902423571422701798e+00
