-1.973777597770094872e+00 -2.895999191701412201e+01 3.376318482332862914e-02
-1.736350839957594872e+00 -2.887368820607662201e+01 3.509069947176612914e-02
-1.530784433707594872e+00 -2.923074387013912201e+01 3.153540162020362914e-02
-1.164451425895094872e+00 -2.703604172170162201e+01 5.602575806551612914e-02
-1.060691660270094872e+00 -2.912283371388912201e+01 3.347326783114112914e-02
-2.639060800895094872e+00 -2.869448898732662201e+01 1.622879650967661291e-01
-2.415916269645094872e+00 -2.875491379201412201e+01 1.621811535733286291e-01
-2.209251230582594872e+00 -2.899819992482662201e+01 1.602280285733286291e-01
-1.970115488395094872e+00 -2.891580246388912201e+01 1.610520031827036291e-01
-1.735252207145094872e+00 -2.885708664357662201e+01 1.617233899014536291e-01
-1.518455332145094872e+00 -2.905130051076412201e+01 1.607620861905161291e-01
-1.164573496207594872e+00 -2.703701828420162201e+01 1.745560315030161291e-01
-1.052879160270094872e+00 -2.897122238576412201e+01 1.625321057217661291e-01
-2.681541269645094872e+00 -2.907632492482662201e+01 2.876083996670786291e-01
-2.423728769645094872e+00 -2.883071945607662201e+01 2.882645275967661291e-01
-2.208396738395094872e+00 -2.898782394826412201e+01 2.881729748623911291e-01
-1.968894785270094872e+00 -2.890090988576412201e+01 2.885391857998911291e-01
-1.771385019645094872e+00 -2.932083176076412201e+01 2.879898693936411291e-01
-1.503806894645094872e+00 -2.883975265920162201e+01 2.890579846280161291e-01
-1.164817636832594872e+00 -2.703811691701412201e+01 2.924606945889536291e-01
-1.102317636832594872e+00 -2.990713547170162201e+01 2.875626232998911291e-01
-2.683494394645094872e+00 -2.909317062795162201e+01 4.161026623623911291e-01
-2.412010019645094872e+00 -2.871621750295162201e+01 4.144852307217661291e-01
-2.147971933707594872e+00 -2.834854172170162201e+01 4.135697033780161291e-01
-1.890525644645094872e+00 -2.798989914357662201e+01 4.126846936123911291e-01
-1.641013925895094872e+00 -2.764236496388912201e+01 4.118302014248911291e-01
-1.397361582145094872e+00 -2.730313156545162201e+01 4.109909680264536291e-01
-1.161033457145094872e+00 -2.697403000295162201e+01 4.101669934170786291e-01
-9.355695899575948715e-01 -2.674087570607662201e+01 4.102432873623911291e-01
-2.685813730582594872e+00 -2.911428879201412201e+01 5.440781262295786291e-01
-2.414207285270094872e+00 -2.873709152638912201e+01 5.413162854092661291e-01
-2.148460214957594872e+00 -2.835220383107662201e+01 5.384781506436411291e-01
-1.889304941520094872e+00 -2.797512863576412201e+01 5.357163098233286291e-01
-1.638572519645094872e+00 -2.761013840138912201e+01 5.330307629483286291e-01
-1.394065683707594872e+00 -2.725442551076412201e+01 5.304215100186411291e-01
-1.158836191520094872e+00 -2.693496750295162201e+01 5.280716565030161291e-01
-9.326399024575948715e-01 -2.668350265920162201e+01 5.262406018155161291e-01
-2.686790293082594872e+00 -2.912222336232662201e+01 6.727554943936411291e-01
-2.412132089957594872e+00 -2.871633957326412201e+01 6.671250012295786291e-01
-2.145774668082594872e+00 -2.832388351857662201e+01 6.623642590420786291e-01
-1.886497324332594872e+00 -2.794168137013912201e+01 6.577103283780161291e-01
-1.635642832145094872e+00 -2.757193039357662201e+01 6.532089856045786291e-01
-1.391258066520094872e+00 -2.721170090138912201e+01 6.488297131436411291e-01
-1.156516855582594872e+00 -2.689651535451412201e+01 6.449997570889536291e-01
-9.306867774575948715e-01 -2.664382980763912201e+01 6.425278332608286291e-01
-2.801170175895094872e+00 -3.015029953420162201e+01 8.177902844327036291e-01
-2.506370371207594872e+00 -2.963247726857662201e+01 8.090164807217661291e-01
-2.325950449332594872e+00 -3.022866867482662201e+01 8.187973645108286291e-01
-2.105979746207594872e+00 -3.048928879201412201e+01 8.229782727139536291e-01
-1.870628183707594872e+00 -3.059219406545162201e+01 8.245346691983286291e-01
-1.631004160270094872e+00 -3.066519211232662201e+01 8.256027844327036291e-01
-1.390159433707594872e+00 -3.071890304982662201e+01 8.263352063077036291e-01
-1.166282480582594872e+00 -3.110562179982662201e+01 8.326218274014536291e-01
-2.904929941520094872e+00 -3.108181808888912201e+01 9.709427502530161291e-01
-2.592429941520094872e+00 -3.046792648732662201e+01 9.576370861905161291e-01
-2.396751230582594872e+00 -3.097769211232662201e+01 9.682419445889536291e-01
-2.105125254020094872e+00 -3.047720383107662201e+01 9.566300061123911291e-01
-1.899192636832594872e+00 -3.095694015920162201e+01 9.665787365811411291e-01
-1.634666269645094872e+00 -3.071658371388912201e+01 9.619553234952036291e-01
-1.422996347770094872e+00 -3.125528000295162201e+01 9.731400158780161291e-01
-1.170066660270094872e+00 -3.117544601857662201e+01 9.712021496670786291e-01
-2.875510996207594872e+00 -3.081765793263912201e+01 1.101725831307703629e+00
-2.144676035270094872e+00 -3.093557785451412201e+01 1.103038087167078629e+00
-1.926292246207594872e+00 -3.130520676076412201e+01 1.112254395760828629e+00
-1.632346933707594872e+00 -3.068118332326412201e+01 1.095790162362391129e+00
-1.419090097770094872e+00 -3.118899582326412201e+01 1.108561768807703629e+00
-1.168723886832594872e+00 -3.114480637013912201e+01 1.107814088143641129e+00
-4.946119152009487152e-02 -9.954864963889122009e+00 -1.919295642001088709e-01
2.182787097990512848e-02 -9.963043674826622009e+00 -1.919905993563588709e-01
9.323900379240512848e-02 -9.967316135764122009e+00 -1.920211169344838709e-01
1.650163475424051285e-01 -9.971588596701622009e+00 -1.920668933016713709e-01
2.365495506674051285e-01 -9.975861057639122009e+00 -1.920974108797963709e-01
3.084489647299051285e-01 -9.980133518576622009e+00 -1.921279284579213709e-01
3.801042381674051285e-01 -9.984405979514122009e+00 -1.921584460360463709e-01
4.517595116049051285e-01 -9.984772190451622009e+00 -1.921584460360463709e-01
-9.072095714509487152e-02 -1.073904465138912201e+01 -1.969039294344838709e-01
-1.235181652009487152e-02 -1.073281906545162201e+01 -1.963088366610463709e-01
6.589525379240512848e-02 -1.072659347951412201e+01 -1.957137438876088709e-01
1.441423241049051285e-01 -1.072439621388912201e+01 -1.951186511141713709e-01
2.221452537924051285e-01 -1.071817062795162201e+01 -1.945235583407338709e-01
3.003923241049051285e-01 -1.070791672170162201e+01 -1.939284655672963709e-01
3.780290428549051285e-01 -1.070181320607662201e+01 -1.933333727938588709e-01
4.556657616049051285e-01 -1.069558762013912201e+01 -1.927382800204213709e-01
-1.344221290200948715e-01 -1.156912277638912201e+01 -1.970412585360463709e-01
-4.933912120759487152e-02 -1.156582687795162201e+01 -1.966140124422963709e-01
3.586595691740512848e-02 -1.155825851857662201e+01 -1.959731433016713709e-01
1.211931053549051285e-01 -1.155069015920162201e+01 -1.953170153719838709e-01
2.061540428549051285e-01 -1.154324387013912201e+01 -1.946608874422963709e-01
2.911149803549051285e-01 -1.153567551076412201e+01 -1.940200183016713709e-01
3.757097069174051285e-01 -1.152822922170162201e+01 -1.933791491610463709e-01
4.601823631674051285e-01 -1.152066086232662201e+01 -1.927230212313588709e-01
-1.792219337075948715e-01 -1.241909836232662201e+01 -1.907393786532338709e-01
-8.779126964509487152e-02 -1.243252609670162201e+01 -1.908461901766713709e-01
4.615956917405128479e-03 -1.242459152638912201e+01 -1.902053210360463709e-01
9.714525379240512848e-02 -1.241665695607662201e+01 -1.895644518954213709e-01
1.886979881674051285e-01 -1.244082687795162201e+01 -1.904342028719838709e-01
2.808610741049051285e-01 -1.246511887013912201e+01 -1.913344714266713709e-01
3.730241600424051285e-01 -1.248928879201412201e+01 -1.922194811922963709e-01
4.655534569174051285e-01 -1.250686691701412201e+01 -1.930587145907338709e-01
-2.622297462075948715e-01 -1.399319504201412201e+01 -2.076155993563588709e-01
-1.574934180825948715e-01 -1.400137375295162201e+01 -2.076766345126088709e-01
-5.251294933259487152e-02 -1.400967453420162201e+01 -2.077529284579213709e-01
5.283373035490512848e-02 -1.401797531545162201e+01 -2.078139636141713709e-01
1.578141991049051285e-01 -1.402627609670162201e+01 -2.078749987704213709e-01
2.634050194174051285e-01 -1.403457687795162201e+01 -2.079360339266713709e-01
3.686296287924051285e-01 -1.404287765920162201e+01 -2.079970690829213709e-01
4.740983787924051285e-01 -1.405117844045162201e+01 -2.080581042391713709e-01
-3.741682227700948715e-01 -1.611709640920162201e+01 -2.315261218172963709e-01
-2.523420508950948715e-01 -1.613943527638912201e+01 -2.317092272860463709e-01
-1.297834571450948715e-01 -1.615017746388912201e+01 -2.317855212313588709e-01
-5.882089957594871521e-03 -1.613259933888912201e+01 -2.307784411532338709e-01
1.174089256674051285e-01 -1.611282394826412201e+01 -2.296950671297963709e-01
2.405778709799051285e-01 -1.609292648732662201e+01 -2.285964343172963709e-01
3.630143944174051285e-01 -1.607327316701412201e+01 -2.275130602938588709e-01
4.849626366049051285e-01 -1.604190109670162201e+01 -2.263381335360463709e-01
-4.914777930825948715e-01 -1.834280441701412201e+01 -2.389876696688588709e-01
-3.484113868325948715e-01 -1.830435226857662201e+01 -2.373244616610463709e-01
-2.066877540200948715e-01 -1.828311203420162201e+01 -2.362410876376088709e-01
-6.459791027009487152e-02 -1.824929855763912201e+01 -2.347304675204213709e-01
7.688158191740512848e-02 -1.819632004201412201e+01 -2.325637194735463709e-01
2.177507225424051285e-01 -1.814334152638912201e+01 -2.304122302157338709e-01
3.573991600424051285e-01 -1.809097336232662201e+01 -2.282912585360463709e-01
4.959489647299051285e-01 -1.803897140920162201e+01 -2.261702868563588709e-01
-6.164777930825948715e-01 -2.071499679982662201e+01 -2.306868884188588709e-01
-4.546125587075948715e-01 -2.069619797170162201e+01 -2.297408434969838709e-01
-2.934797462075948715e-01 -2.068814133107662201e+01 -2.286269518954213709e-01
-1.317365821450948715e-01 -2.066946457326412201e+01 -2.276809069735463709e-01
2.976244129240512848e-02 -2.061660812795162201e+01 -2.257430407626088709e-01
1.911393944174051285e-01 -2.054592941701412201e+01 -2.232711169344838709e-01
3.506852928549051285e-01 -2.045999191701412201e+01 -2.208449694735463709e-01
5.088884178549051285e-01 -2.039065597951412201e+01 -2.184188220126088709e-01
-7.396467383950948715e-01 -2.305142258107662201e+01 -1.991927477938588709e-01
-5.578840430825948715e-01 -2.302163742482662201e+01 -1.980178210360463709e-01
-3.766096290200948715e-01 -2.299197433888912201e+01 -1.968734118563588709e-01
-1.953352149575948715e-01 -2.296231125295162201e+01 -1.957137438876088709e-01
-1.576978527009487152e-02 -2.295755051076412201e+01 -1.951644274813588709e-01
1.641618553549051285e-01 -2.297073410451412201e+01 -1.950728747469838709e-01
3.436052147299051285e-01 -2.294570969045162201e+01 -1.940352770907338709e-01
5.225602928549051285e-01 -2.290737961232662201e+01 -1.926619860751088709e-01
-9.288557227700948715e-01 -2.664053390920162201e+01 -1.720015856844838709e-01
-7.077863868325948715e-01 -2.639846847951412201e+01 -1.666610095126088709e-01
-4.909895118325948715e-01 -2.616116379201412201e+01 -1.614119860751088709e-01
-2.777326758950948715e-01 -2.592752121388912201e+01 -1.562392565829213709e-01
-6.911451183259487152e-02 -2.569912765920162201e+01 -1.511885974032338709e-01
1.362077537924051285e-01 -2.547427414357662201e+01 -1.462142321688588709e-01
3.370134178549051285e-01 -2.525430344045162201e+01 -1.413619372469838709e-01
5.340349022299051285e-01 -2.503079269826412201e+01 -1.364333483797963709e-01
-1.094505136832594872e+00 -2.978286789357662201e+01 -1.042373034579213709e-01
-8.392561133950948715e-01 -2.935916183888912201e+01 -9.714196654385887086e-02
-5.912092383950948715e-01 -2.893484543263912201e+01 -9.004662962979637086e-02
-3.448713477700948715e-01 -2.834512375295162201e+01 -8.041833373135887086e-02
-1.163557227700948715e-01 -2.812344406545162201e+01 -7.649682494229637086e-02
1.103288475424051285e-01 -2.779214523732662201e+01 -7.089684935635887086e-02
3.305436912924051285e-01 -2.749026535451412201e+01 -6.576989623135887086e-02
5.461198631674051285e-01 -2.724758957326412201e+01 -6.155847045010887086e-02
-1.059837168082594872e+00 -2.912197922170162201e+01 3.348852662020362914e-02
-9.482649024575948715e-01 -3.181155441701412201e+01 4.481568612391129136e-03
-6.722639258950948715e-01 -3.117605637013912201e+01 1.194311646395362914e-02
-4.127424415200948715e-01 -3.078335617482662201e+01 1.673437622957862914e-02
-1.609113868325948715e-01 -3.040249679982662201e+01 2.138830689364112914e-02
8.249681629240512848e-02 -3.028152512013912201e+01 2.320410279207862914e-02
3.147966209799051285e-01 -3.304812668263912201e+01 -6.397947989171370864e-03
7.405778709799051285e-01 -6.261380051076412201e+01 -3.268172595126088709e-01
-1.052146738395094872e+00 -2.897158859670162201e+01 1.625321057217661291e-01
-8.598859962075948715e-01 -2.981448410451412201e+01 1.576187756436411291e-01
-6.319807227700948715e-01 -3.005361984670162201e+01 1.558487561123911291e-01
-3.963850196450948715e-01 -3.018521164357662201e+01 1.554825451748911291e-01
-1.560285743325948715e-01 -3.013797043263912201e+01 1.562454846280161291e-01
8.798998035490512848e-02 -2.976248215138912201e+01 1.590683606045786291e-01
3.239518944174051285e-01 -2.967910812795162201e+01 1.607315686123911291e-01
5.680925194174051285e-01 -3.134256027638912201e+01 1.507980969327036291e-01
-1.101585214957594872e+00 -2.990676926076412201e+01 2.875626232998911291e-01
-8.600080665200948715e-01 -2.981192062795162201e+01 2.881577160733286291e-01
-6.197736915200948715e-01 -2.970877121388912201e+01 2.887680676358286291e-01
-3.973615821450948715e-01 -3.021524094045162201e+01 2.883255627530161291e-01
-1.543195899575948715e-01 -3.003775070607662201e+01 2.890579846280161291e-01
8.713548816740512848e-02 -2.981228683888912201e+01 2.898667004483286291e-01
3.216325584799051285e-01 -3.039212082326412201e+01 2.893326428311411291e-01
5.668718162924051285e-01 -3.119155929982662201e+01 2.884323742764536291e-01
-9.347150977700948715e-01 -2.673916672170162201e+01 4.102280285733286291e-01
-8.604963477700948715e-01 -2.982132004201412201e+01 4.186813977139536291e-01
-6.192854102700948715e-01 -2.969033859670162201e+01 4.187119152920786291e-01
-3.940656837075948715e-01 -3.008865402638912201e+01 4.202530529873911291e-01
-1.524885352700948715e-01 -2.993643234670162201e+01 4.202225354092661291e-01
8.176439441740512848e-02 -3.027432297170162201e+01 4.216110852139536291e-01
3.232194725424051285e-01 -2.975564621388912201e+01 4.205124524014536291e-01
5.657731834799051285e-01 -3.104873703420162201e+01 4.254105236905161291e-01
-9.319074805825948715e-01 -2.668167160451412201e+01 5.262253430264536291e-01
-7.104719337075948715e-01 -2.643582199513912201e+01 5.247299816983286291e-01
-4.933088477700948715e-01 -2.619473312795162201e+01 5.232651379483286291e-01
-2.796858008950948715e-01 -2.595742844045162201e+01 5.218308117764536291e-01
-7.082349620759487152e-02 -2.572561691701412201e+01 5.204117443936411291e-01
1.346208397299051285e-01 -2.549746750295162201e+01 5.190384533780161291e-01
3.355485741049051285e-01 -2.527432297170162201e+01 5.176804211514536291e-01
5.326921287924051285e-01 -2.505532883107662201e+01 5.163529065030161291e-01
-9.299543555825948715e-01 -2.664199875295162201e+01 6.424973156827036291e-01
-7.086408790200948715e-01 -2.639309738576412201e+01 6.392014172452036291e-01
-4.919660743325948715e-01 -2.615261887013912201e+01 6.366226818936411291e-01
-2.789533790200948715e-01 -2.592373703420162201e+01 6.341660168545786291e-01
-7.057935558259487152e-02 -2.569998215138912201e+01 6.317703869717661291e-01
1.346208397299051285e-01 -2.547952316701412201e+01 6.294052746670786291e-01
3.353044334799051285e-01 -2.526382492482662201e+01 6.271011975186411291e-01
5.324479881674051285e-01 -2.505142258107662201e+01 6.254074719327036291e-01
-1.150047129020094872e+00 -3.081362961232662201e+01 8.277542736905161291e-01
-9.087141212075948715e-01 -3.089346359670162201e+01 8.294327404873911291e-01
-6.549299415200948715e-01 -3.066287277638912201e+01 8.259232190030161291e-01
-4.081037696450948715e-01 -3.056619308888912201e+01 8.246567395108286291e-01
-1.736066993325948715e-01 -3.097927902638912201e+01 8.318741467373911291e-01
4.746263660490512848e-02 -3.328054855763912201e+01 8.705856945889536291e-01
3.129655662924051285e-01 -3.304800461232662201e+01 8.670761731045786291e-01
-1.169456308707594872e+00 -3.117886398732662201e+01 9.712631848233286291e-01
-9.034650977700948715e-01 -3.077090500295162201e+01 9.629166272061411291e-01
-4.077375587075948715e-01 -3.054641769826412201e+01 9.580490734952036291e-01
-1.627424415200948715e-01 -3.041165207326412201e+01 9.555008557217661291e-01
3.127214256674051285e-01 -3.300857590138912201e+01 1.012110963143641129e+00
-1.168113535270094872e+00 -3.114956711232662201e+01 1.107936158456141129e+00
3.123552147299051285e-01 -3.302127121388912201e+01 1.157344117440516129e+00
4.520036522299051285e-01 -9.984894260764122009e+00 -1.921737048251088709e-01
5.236589256674051285e-01 -9.989777073264122009e+00 -1.922042224032338709e-01
5.953141991049051285e-01 -9.981598362326622009e+00 -1.916549059969838709e-01
6.669694725424051285e-01 -9.973419651389122009e+00 -1.911055895907338709e-01
7.383806053549051285e-01 -9.965363010764122009e+00 -1.905562731844838709e-01
8.099138084799051285e-01 -9.957306370139122009e+00 -1.900222155672963709e-01
8.810808006674051285e-01 -9.949249729514122009e+00 -1.894728991610463709e-01
9.524919334799051285e-01 -9.946686252951622009e+00 -1.894728991610463709e-01
4.559099022299051285e-01 -1.069570969045162201e+01 -1.927382800204213709e-01
5.333024803549051285e-01 -1.068643234670162201e+01 -1.921431872469838709e-01
6.106950584799051285e-01 -1.067715500295162201e+01 -1.915633532626088709e-01
6.882097069174051285e-01 -1.067190597951412201e+01 -1.909682604891713709e-01
7.653581444174051285e-01 -1.066275070607662201e+01 -1.903731677157338709e-01
8.425065819174051285e-01 -1.064944504201412201e+01 -1.897933337313588709e-01
9.196550194174051285e-01 -1.064553879201412201e+01 -1.895034167391713709e-01
9.971696678549051285e-01 -1.064663742482662201e+01 -1.895034167391713709e-01
4.604265037924051285e-01 -1.152090500295162201e+01 -1.927382800204213709e-01
5.446550194174051285e-01 -1.151016281545162201e+01 -1.920974108797963709e-01
6.288835350424051285e-01 -1.149942062795162201e+01 -1.914565417391713709e-01
7.131120506674051285e-01 -1.148880051076412201e+01 -1.908156725985463709e-01
7.969743553549051285e-01 -1.147818039357662201e+01 -1.901748034579213709e-01
8.810808006674051285e-01 -1.146756027638912201e+01 -1.895339343172963709e-01
9.653093162924051285e-01 -1.146914719045162201e+01 -1.895339343172963709e-01
1.049659902229905128e+00 -1.147073410451412201e+01 -1.895339343172963709e-01
4.659196678549051285e-01 -1.250711105763912201e+01 -1.930739733797963709e-01
5.588151756674051285e-01 -1.253433273732662201e+01 -1.939895007235463709e-01
6.521989647299051285e-01 -1.255484054982662201e+01 -1.948592517001088709e-01
7.461931053549051285e-01 -1.257559250295162201e+01 -1.957290026766713709e-01
8.403093162924051285e-01 -1.259622238576412201e+01 -1.966140124422963709e-01
9.341813866049051285e-01 -1.259646652638912201e+01 -1.965072009188588709e-01
1.026954824104905128e+00 -1.258145187795162201e+01 -1.956832263094838709e-01
1.119117910042405128e+00 -1.255960129201412201e+01 -1.948134753329213709e-01
4.744645897299051285e-01 -1.405142258107662201e+01 -2.080733630282338709e-01
5.799333397299051285e-01 -1.405532883107662201e+01 -2.081038806063588709e-01
6.855241600424051285e-01 -1.405923508107662201e+01 -2.081343981844838709e-01
7.914811912924051285e-01 -1.406326340138912201e+01 -2.081649157626088709e-01
8.971940819174051285e-01 -1.406362961232662201e+01 -2.080428454501088709e-01
1.002418691292405128e+00 -1.404483078420162201e+01 -2.070968005282338709e-01
1.107032949104905128e+00 -1.402615402638912201e+01 -2.061507556063588709e-01
1.211403066292405128e+00 -1.400747726857662201e+01 -2.052199694735463709e-01
4.854509178549051285e-01 -1.604202316701412201e+01 -2.263533923251088709e-01
6.069108787924051285e-01 -1.600576828420162201e+01 -2.244155261141713709e-01
7.275163475424051285e-01 -1.596243332326412201e+01 -2.225692126376088709e-01
8.481218162924051285e-01 -1.591922043263912201e+01 -2.207228991610463709e-01
9.675065819174051285e-01 -1.587637375295162201e+01 -2.189071032626088709e-01
1.086769277229905128e+00 -1.583352707326412201e+01 -2.170913073641713709e-01
1.204933339729905128e+00 -1.579104660451412201e+01 -2.152755114657338709e-01
1.321876699104905128e+00 -1.573989914357662201e+01 -2.134902331454213709e-01
4.964372459799051285e-01 -1.803897140920162201e+01 -2.261702868563588709e-01
6.341325584799051285e-01 -1.798342941701412201e+01 -2.240645739657338709e-01
7.710954491049051285e-01 -1.792837570607662201e+01 -2.219741198641713709e-01
9.073259178549051285e-01 -1.786746262013912201e+01 -2.196853015047963709e-01
1.041359120979905128e+00 -1.778311203420162201e+01 -2.166182849032338709e-01
1.174537831917405128e+00 -1.769937179982662201e+01 -2.135665270907338709e-01
1.306251699104905128e+00 -1.762039230763912201e+01 -2.106826159579213709e-01
1.437477285042405128e+00 -1.755313156545162201e+01 -2.081954333407338709e-01
5.093766991049051285e-01 -2.039065597951412201e+01 -2.184188220126088709e-01
6.663591209799051285e-01 -2.031826828420162201e+01 -2.160231921297963709e-01
8.226091209799051285e-01 -2.026211594045162201e+01 -2.136428210360463709e-01
9.781266991049051285e-01 -2.019046066701412201e+01 -2.112624499422963709e-01
1.131935292854905128e+00 -2.011953781545162201e+01 -2.089125964266713709e-01
1.285255605354905128e+00 -2.004885910451412201e+01 -2.065780017001088709e-01
1.436012441292405128e+00 -1.996353195607662201e+01 -2.042739245516713709e-01
1.586647206917405128e+00 -1.989419601857662201e+01 -2.019698474032338709e-01
5.231706444174051285e-01 -2.290725754201412201e+01 -1.926619860751088709e-01
7.015153709799051285e-01 -2.286624191701412201e+01 -1.913039538485463709e-01
8.792497459799051285e-01 -2.282522629201412201e+01 -1.899459216219838709e-01
1.056984120979905128e+00 -2.278421066701412201e+01 -1.885878893954213709e-01
1.233497792854905128e+00 -2.274356125295162201e+01 -1.872451159579213709e-01
1.410133535042405128e+00 -2.270278976857662201e+01 -1.858870837313588709e-01
1.585182363167405128e+00 -2.265506027638912201e+01 -1.843764636141713709e-01
1.760963613167405128e+00 -2.263003586232662201e+01 -1.834151599032338709e-01
5.347673241049051285e-01 -2.502969406545162201e+01 -1.364028308016713709e-01
7.289811912924051285e-01 -2.486941574513912201e+01 -1.327864977938588709e-01
9.207536522299051285e-01 -2.471121262013912201e+01 -1.292006823641713709e-01
1.110695058479905128e+00 -2.455447433888912201e+01 -1.256606433016713709e-01
1.297584706917405128e+00 -2.440029953420162201e+01 -1.221663806063588709e-01
1.482643300667405128e+00 -2.424746750295162201e+01 -1.187178942782338709e-01
1.664894277229905128e+00 -2.409719894826412201e+01 -1.153151843172963709e-01
1.844703847542405128e+00 -2.394863937795162201e+01 -1.119582507235463709e-01
5.468522850424051285e-01 -2.724697922170162201e+01 -6.154321166104637086e-02
7.602311912924051285e-01 -2.714492844045162201e+01 -5.948327513760887086e-02
9.714128319174051285e-01 -2.701162765920162201e+01 -5.695031615323387086e-02
1.180030995979905128e+00 -2.683755539357662201e+01 -5.377648802823387086e-02
1.385109120979905128e+00 -2.666629074513912201e+01 -5.066369505948387086e-02
1.584572011604905128e+00 -2.641714523732662201e+01 -4.636071654385887086e-02
1.788307363167405128e+00 -2.632876633107662201e+01 -4.452966185635887086e-02
1.928566152229905128e+00 -2.526809738576412201e+01 -2.782128783292137086e-02
7.424089256674051285e-01 -6.260611008107662201e+01 -3.267409655672963709e-01
7.806169334799051285e-01 -2.863589523732662201e+01 4.258276490145362914e-02
1.515114003792405128e+00 -5.158792160451412201e+01 -2.050978991610463709e-01
1.928810292854905128e+00 -5.142422531545162201e+01 -2.023055407626088709e-01
1.452980214729905128e+00 -2.842422531545162201e+01 4.651953247957862914e-02
1.639137441292405128e+00 -2.757998703420162201e+01 5.614782837801612914e-02
1.791359120979905128e+00 -2.638980148732662201e+01 6.945349244051612914e-02
1.999000722542405128e+00 -2.637844894826412201e+01 7.007910279207862914e-02
5.689470116049051285e-01 -3.134426926076412201e+01 1.507828381436411291e-01
1.356910878792405128e+00 -7.034353683888912201e+01 -9.145043822354637086e-02
1.524147206917405128e+00 -5.202322433888912201e+01 2.250219849520362914e-02
1.937843495979905128e+00 -5.174038742482662201e+01 2.534033326082862914e-02
1.434547597542405128e+00 -2.795877121388912201e+01 1.735794690030161291e-01
1.677101308479905128e+00 -2.839529465138912201e+01 1.714584973233286291e-01
1.850685292854905128e+00 -2.746694992482662201e+01 1.783859875577036291e-01
2.000953847542405128e+00 -2.641409347951412201e+01 1.853745129483286291e-01
5.678483787924051285e-01 -3.119314621388912201e+01 2.884323742764536291e-01
1.558448964729905128e+00 -8.499343918263912201e+01 2.006027844327036291e-01
2.209205800667405128e+00 -8.302944992482662201e+01 2.056992199795786291e-01
1.961280995979905128e+00 -5.253140304982662201e+01 2.563431408780161291e-01
2.378761464729905128e+00 -5.232876633107662201e+01 2.578385022061411291e-01
1.624855214729905128e+00 -2.729348801076412201e+01 2.978928234952036291e-01
1.864845449104905128e+00 -2.773025558888912201e+01 2.978165295498911291e-01
2.003029042854905128e+00 -2.645449875295162201e+01 3.003494885342661291e-01
5.667497459799051285e-01 -3.105056808888912201e+01 4.254105236905161291e-01
1.618141347542405128e+00 -8.938723801076412201e+01 5.967362072842661291e-01
2.361061269417405128e+00 -8.994082687795162201e+01 6.005051281827036291e-01
3.124000722542405128e+00 -9.075674484670162201e+01 6.050827649014536291e-01
3.519386464729905128e+00 -8.178738449513912201e+01 5.802414563077036291e-01
1.649269277229905128e+00 -2.781973312795162201e+01 4.184830334561411291e-01
1.863990956917405128e+00 -2.772048996388912201e+01 4.188187268155161291e-01
2.005836660042405128e+00 -2.650271652638912201e+01 4.163162854092661291e-01
5.334245506674051285e-01 -2.505386398732662201e+01 5.163376477139536291e-01
7.276384178549051285e-01 -2.488308762013912201e+01 5.156510022061411291e-01
9.194108787924051285e-01 -2.472403000295162201e+01 5.150559094327036291e-01
1.109352285042405128e+00 -2.456643722951412201e+01 5.144455578702036291e-01
1.296119863167405128e+00 -2.441140793263912201e+01 5.138657238858286291e-01
1.481300527229905128e+00 -2.425796554982662201e+01 5.132706311123911291e-01
1.663429433479905128e+00 -2.410684250295162201e+01 5.127060559170786291e-01
1.843239003792405128e+00 -2.395755051076412201e+01 5.121414807217661291e-01
5.331804100424051285e-01 -2.504995773732662201e+01 6.253922131436411291e-01
7.273942772299051285e-01 -2.488272140920162201e+01 6.234238293545786291e-01
9.191667381674051285e-01 -2.472598312795162201e+01 6.221420910733286291e-01
1.109108144417405128e+00 -2.457070969045162201e+01 6.208756115811411291e-01
1.296119863167405128e+00 -2.441787765920162201e+01 6.196396496670786291e-01
1.481300527229905128e+00 -2.426638840138912201e+01 6.184036877530161291e-01
1.663673574104905128e+00 -2.411746262013912201e+01 6.171982434170786291e-01
1.843605214729905128e+00 -2.396975754201412201e+01 6.165421154873911291e-01
3.498512441292405128e+00 -5.726773117482662201e+01 1.281321778573328629e+00
3.981788808479905128e+00 -5.755020187795162201e+01 1.287669434823328629e+00
3.417091542854905128e+00 -5.581204269826412201e+01 1.507807984628016129e+00
3.974098378792405128e+00 -5.744314621388912201e+01 1.544505372323328629e+00
3.504860097542405128e+00 -5.741189621388912201e+01 1.799189820565516129e+00
9.527360741049051285e-01 -9.946564182639122009e+00 -1.894728991610463709e-01
1.024513417854905128e+00 -9.947906956076622009e+00 -1.894728991610463709e-01
1.096168691292405128e+00 -9.945709690451622009e+00 -1.894728991610463709e-01
1.168068105354905128e+00 -9.943512424826622009e+00 -1.894728991610463709e-01
1.239845449104905128e+00 -9.941315159201622009e+00 -1.894728991610463709e-01
1.311989003792405128e+00 -9.939239963889122009e+00 -1.894728991610463709e-01
1.383888417854905128e+00 -9.937042698264122009e+00 -1.894728991610463709e-01
1.455421620979905128e+00 -9.931427463889122009e+00 -1.894728991610463709e-01
9.974138084799051285e-01 -1.064663742482662201e+01 -1.895034167391713709e-01
1.074806386604905128e+00 -1.064468429982662201e+01 -1.895034167391713709e-01
1.152198964729905128e+00 -1.064273117482662201e+01 -1.895034167391713709e-01
1.230446035042405128e+00 -1.064480637013912201e+01 -1.895034167391713709e-01
1.308082753792405128e+00 -1.064285324513912201e+01 -1.895034167391713709e-01
1.385597402229905128e+00 -1.063687179982662201e+01 -1.895034167391713709e-01
1.463478261604905128e+00 -1.063491867482662201e+01 -1.895034167391713709e-01
1.541359120979905128e+00 -1.063296554982662201e+01 -1.895034167391713709e-01
1.050026113167405128e+00 -1.147061203420162201e+01 -1.895186755282338709e-01
1.134254628792405128e+00 -1.146902512013912201e+01 -1.895186755282338709e-01
1.218605214729905128e+00 -1.146731613576412201e+01 -1.895186755282338709e-01
1.303322011604905128e+00 -1.146572922170162201e+01 -1.895186755282338709e-01
1.387916738167405128e+00 -1.146414230763912201e+01 -1.895186755282338709e-01
1.472877675667405128e+00 -1.146243332326412201e+01 -1.895186755282338709e-01
1.557594472542405128e+00 -1.146084640920162201e+01 -1.895186755282338709e-01
1.642555410042405128e+00 -1.145925949513912201e+01 -1.895186755282338709e-01
1.119362050667405128e+00 -1.255960129201412201e+01 -1.948134753329213709e-01
1.212013417854905128e+00 -1.254739426076412201e+01 -1.940200183016713709e-01
1.303932363167405128e+00 -1.252847336232662201e+01 -1.931655261141713709e-01
1.396095449104905128e+00 -1.250955246388912201e+01 -1.923262927157338709e-01
1.487648183479905128e+00 -1.249063156545162201e+01 -1.914718005282338709e-01
1.579445058479905128e+00 -1.247171066701412201e+01 -1.906325671297963709e-01
1.670753652229905128e+00 -1.245291183888912201e+01 -1.897933337313588709e-01
1.762794667854905128e+00 -1.244131515920162201e+01 -1.895644518954213709e-01
1.211769277229905128e+00 -1.400735519826412201e+01 -2.052047106844838709e-01
1.315651113167405128e+00 -1.398452804982662201e+01 -2.042434069735463709e-01
1.419288808479905128e+00 -1.396157883107662201e+01 -2.032668444735463709e-01
1.523048574104905128e+00 -1.393875168263912201e+01 -2.023055407626088709e-01
1.626320058479905128e+00 -1.391604660451412201e+01 -2.013442370516713709e-01
1.729591542854905128e+00 -1.389321945607662201e+01 -2.003829333407338709e-01
1.832374745979905128e+00 -1.387051437795162201e+01 -1.994216296297963709e-01
1.935035878792405128e+00 -1.384793137013912201e+01 -1.984755847079213709e-01
1.322242910042405128e+00 -1.573953293263912201e+01 -2.134749743563588709e-01
1.439552480354905128e+00 -1.570291183888912201e+01 -2.116896960360463709e-01
1.555763417854905128e+00 -1.565750168263912201e+01 -2.099196765047963709e-01
1.671730214729905128e+00 -1.561209152638912201e+01 -2.081496569735463709e-01
1.786842519417405128e+00 -1.556716965138912201e+01 -2.063796374422963709e-01
1.901710683479905128e+00 -1.552224777638912201e+01 -2.046248767001088709e-01
2.015602285042405128e+00 -1.547769211232662201e+01 -2.028853747469838709e-01
2.128029042854905128e+00 -1.542459152638912201e+01 -2.011763903719838709e-01
1.437843495979905128e+00 -1.755264328420162201e+01 -2.081801745516713709e-01
1.567848378792405128e+00 -1.748294113576412201e+01 -2.057235095126088709e-01
1.696998769417405128e+00 -1.741372726857662201e+01 -2.032973620516713709e-01
1.825660878792405128e+00 -1.734475754201412201e+01 -2.008864733797963709e-01
1.955421620979905128e+00 -1.730252121388912201e+01 -1.993605944735463709e-01
2.087379628792405128e+00 -1.728042648732662201e+01 -1.985213610751088709e-01
2.218727285042405128e+00 -1.725845383107662201e+01 -1.976973864657338709e-01
2.349830800667405128e+00 -1.723648117482662201e+01 -1.968581530672963709e-01
1.587135488167405128e+00 -1.989358566701412201e+01 -2.019545886141713709e-01
1.736427480354905128e+00 -1.982132004201412201e+01 -1.996657702547963709e-01
1.886207753792405128e+00 -1.976565597951412201e+01 -1.974227282626088709e-01
2.037697011604905128e+00 -1.973184250295162201e+01 -1.962630602938588709e-01
2.188331777229905128e+00 -1.969827316701412201e+01 -1.951186511141713709e-01
2.339210683479905128e+00 -1.966458176076412201e+01 -1.939589831454213709e-01
2.487404042854905128e+00 -1.961611984670162201e+01 -1.928298327547963709e-01
2.637062245979905128e+00 -1.958279465138912201e+01 -1.916854235751088709e-01
1.761573964729905128e+00 -2.262991379201412201e+01 -1.834151599032338709e-01
1.936256581917405128e+00 -2.259378097951412201e+01 -1.822554919344838709e-01
2.119484120979905128e+00 -2.266665695607662201e+01 -1.837508532626088709e-01
2.302101308479905128e+00 -2.270877121388912201e+01 -1.845137927157338709e-01
2.484962636604905128e+00 -2.275088547170162201e+01 -1.852614733797963709e-01
2.669532949104905128e+00 -2.279348801076412201e+01 -1.860244128329213709e-01
2.854591542854905128e+00 -2.283609054982662201e+01 -1.867873522860463709e-01
3.036842519417405128e+00 -2.284854172170162201e+01 -1.868026110751088709e-01
1.845314199104905128e+00 -2.394778488576412201e+01 -1.119429919344838709e-01
2.023048574104905128e+00 -2.380105637013912201e+01 -1.086470934969838709e-01
2.207985097542405128e+00 -2.377053879201412201e+01 -1.076705309969838709e-01
2.489723378792405128e+00 -2.482351730763912201e+01 -1.282241198641713709e-01
2.682228261604905128e+00 -2.478262375295162201e+01 -1.270186755282338709e-01
2.724586660042405128e+00 -2.331753586232662201e+01 -9.756921263760887086e-02
3.057350331917405128e+00 -2.461709640920162201e+01 -1.229598376376088709e-01
3.224220449104905128e+00 -2.438186691701412201e+01 -1.179091784579213709e-01
1.929542714729905128e+00 -2.527236984670162201e+01 -2.789758177823387086e-02
2.140968495979905128e+00 -2.543923996388912201e+01 -2.997277709073387086e-02
2.316139394417405128e+00 -2.511831711232662201e+01 -2.458642455167137086e-02
2.532814199104905128e+00 -2.531301926076412201e+01 -2.707360716885887086e-02
2.746315175667405128e+00 -2.544509933888912201e+01 -2.859948607510887086e-02
2.724098378792405128e+00 -2.331716965138912201e+01 4.252686776453629136e-03
3.111183339729905128e+00 -2.509292648732662201e+01 -2.228234740323387086e-02
3.300270253792405128e+00 -2.500589035451412201e+01 -2.048181029385887086e-02
1.999733144417405128e+00 -2.637808273732662201e+01 7.009436158114112914e-02
2.138038808479905128e+00 -2.540530441701412201e+01 8.108068970614112914e-02
2.315773183479905128e+00 -2.511843918263912201e+01 8.471228150301612914e-02
2.557350331917405128e+00 -2.559390304982662201e+01 8.021093872957862914e-02
2.740211660042405128e+00 -2.538736008107662201e+01 8.297277954989112914e-02
2.723610097542405128e+00 -2.331668137013912201e+01 1.054947522061411291e-01
3.103859120979905128e+00 -2.503311203420162201e+01 8.787085083895362914e-02
3.250709706917405128e+00 -2.460513351857662201e+01 9.295202759676612914e-02
2.001564199104905128e+00 -2.641384933888912201e+01 1.853745129483286291e-01
2.129738027229905128e+00 -2.529531906545162201e+01 1.928513195889536291e-01
2.315406972542405128e+00 -2.511843918263912201e+01 1.939804699795786291e-01
2.524513417854905128e+00 -2.522976730763912201e+01 1.939652111905161291e-01
2.722877675667405128e+00 -2.521340988576412201e+01 1.947128918545786291e-01
2.723243886604905128e+00 -2.331631515920162201e+01 2.067215588467661291e-01
3.084816152229905128e+00 -2.486953781545162201e+01 1.986344006436411291e-01
3.245948964729905128e+00 -2.457034347951412201e+01 2.010605481045786291e-01
2.003761464729905128e+00 -2.645401047170162201e+01 3.003494885342661291e-01
2.121559316292405128e+00 -2.518655441701412201e+01 3.029892590420786291e-01
2.314918691292405128e+00 -2.511843918263912201e+01 3.038284924405161291e-01
2.504127675667405128e+00 -2.500430344045162201e+01 3.047135022061411291e-01
2.721901113167405128e+00 -2.520767258107662201e+01 3.051712658780161291e-01
2.722755605354905128e+00 -2.331594894826412201e+01 3.084671643155161291e-01
3.057594472542405128e+00 -2.463516281545162201e+01 3.073990490811411291e-01
3.406471425667405128e+00 -2.588504074513912201e+01 3.064987805264536291e-01
2.006447011604905128e+00 -2.650247238576412201e+01 4.163162854092661291e-01
2.191871816292405128e+00 -2.616677902638912201e+01 4.155075695889536291e-01
2.314552480354905128e+00 -2.511856125295162201e+01 4.130661633389536291e-01
2.545021230354905128e+00 -2.546914719045162201e+01 4.149887707608286291e-01
2.775245839729905128e+00 -2.576150558888912201e+01 4.167587902920786291e-01
2.722267324104905128e+00 -2.331546066701412201e+01 4.096481945889536291e-01
3.097145253792405128e+00 -2.498611496388912201e+01 4.159042981045786291e-01
3.308815175667405128e+00 -2.509207199513912201e+01 4.176590588467661291e-01
1.843849355354905128e+00 -2.395657394826412201e+01 5.121262219327036291e-01
2.021583730354905128e+00 -2.380947922170162201e+01 5.118363049405161291e-01
2.197242910042405128e+00 -2.366397140920162201e+01 5.115616467373911291e-01
2.371437245979905128e+00 -2.351968429982662201e+01 5.112869885342661291e-01
2.543190175667405128e+00 -2.337759445607662201e+01 5.110123303311411291e-01
2.713600331917405128e+00 -2.323648117482662201e+01 5.107376721280161291e-01
2.887794667854905128e+00 -2.315347336232662201e+01 5.109055188077036291e-01
3.058326894417405128e+00 -2.304934738576412201e+01 5.109055188077036291e-01
1.844215566292405128e+00 -2.396878097951412201e+01 6.165268566983286291e-01
2.022194081917405128e+00 -2.382351730763912201e+01 6.151230481045786291e-01
2.198097402229905128e+00 -2.367947433888912201e+01 6.142685559170786291e-01
2.372535878792405128e+00 -2.353653000295162201e+01 6.134293225186411291e-01
2.544532949104905128e+00 -2.339566086232662201e+01 6.125900891202036291e-01
2.715187245979905128e+00 -2.325576828420162201e+01 6.117661145108286291e-01
2.889259511604905128e+00 -2.316958664357662201e+01 6.115982678311411291e-01
3.059791738167405128e+00 -2.306472824513912201e+01 6.117203381436411291e-01
3.983375722542405128e+00 -5.755093429982662201e+01 1.287684693612391129e+00
2.025856191292405128e+00 -2.387930344045162201e+01 7.197678234952036291e-01
2.201881581917405128e+00 -2.373196457326412201e+01 7.182877209561411291e-01
2.376564199104905128e+00 -2.358584640920162201e+01 7.168076184170786291e-01
2.548683339729905128e+00 -2.344180344045162201e+01 7.153427746670786291e-01
2.719337636604905128e+00 -2.329898117482662201e+01 7.139084484952036291e-01
2.893409902229905128e+00 -2.321011398732662201e+01 7.133743908780161291e-01
3.064308339729905128e+00 -2.310501144826412201e+01 7.125504162686411291e-01
3.975441152229905128e+00 -5.743936203420162201e+01 1.544413819588953629e+00
4.427711660042405128e+00 -5.723294113576412201e+01 1.542689576424891129e+00
2.312965566292405128e+00 -2.511868332326412201e+01 8.515885022061411291e-01
2.721534902229905128e+00 -2.747720383107662201e+01 9.031784680264536291e-01
2.874244863167405128e+00 -2.679898117482662201e+01 8.897354748623911291e-01
2.980446035042405128e+00 -2.577676437795162201e+01 8.693802502530161291e-01
3.350685292854905128e+00 -2.722818039357662201e+01 9.022019055264536291e-01
3.477272206917405128e+00 -2.648440597951412201e+01 8.872177746670786291e-01
4.416969472542405128e+00 -5.709536789357662201e+01 1.795542969979578629e+00
2.312599355354905128e+00 -2.511868332326412201e+01 9.607346203702036291e-01
2.917701894417405128e+00 -2.969302414357662201e+01 1.082057252206141129e+00
5.817360097542405128e+00 -5.711380051076412201e+01 1.804744019784266129e+00
3.159889394417405128e+00 -2.748196457326412201e+01 1.026744141854578629e+00
3.282692128792405128e+00 -2.663491867482662201e+01 1.005748048104578629e+00
3.564796620979905128e+00 -2.720462082326412201e+01 1.022792115487391129e+00
1.455665761604905128e+00 -9.931305393576622009e+00 -1.894728991610463709e-01
1.527809316292405128e+00 -9.929596409201622009e+00 -1.894728991610463709e-01
1.599708730354905128e+00 -9.924469456076622009e+00 -1.894728991610463709e-01
1.671852285042405128e+00 -9.919342502951622009e+00 -1.894728991610463709e-01
1.743751699104905128e+00 -9.914093479514122009e+00 -1.894728991610463709e-01
1.816139394417405128e+00 -9.908966526389122009e+00 -1.894728991610463709e-01
1.888282949104905128e+00 -9.903717502951622009e+00 -1.894728991610463709e-01
1.959938222542405128e+00 -9.895050510764122009e+00 -1.894728991610463709e-01
1.541603261604905128e+00 -1.063284347951412201e+01 -1.895034167391713709e-01
1.619239980354905128e+00 -1.062783859670162201e+01 -1.895034167391713709e-01
1.696998769417405128e+00 -1.062271164357662201e+01 -1.895034167391713709e-01
1.775612050667405128e+00 -1.062161301076412201e+01 -1.895034167391713709e-01
1.853614980354905128e+00 -1.061660812795162201e+01 -1.895034167391713709e-01
1.931251699104905128e+00 -1.060745285451412201e+01 -1.895034167391713709e-01
2.009498769417405128e+00 -1.060232590138912201e+01 -1.895034167391713709e-01
2.087745839729905128e+00 -1.059719894826412201e+01 -1.895034167391713709e-01
1.642799550667405128e+00 -1.145925949513912201e+01 -1.895339343172963709e-01
1.727394277229905128e+00 -1.145437668263912201e+01 -1.895339343172963709e-01
1.812111074104905128e+00 -1.144949387013912201e+01 -1.895339343172963709e-01
1.897316152229905128e+00 -1.144461105763912201e+01 -1.895339343172963709e-01
1.982277089729905128e+00 -1.143972824513912201e+01 -1.895339343172963709e-01
2.067726308479905128e+00 -1.143472336232662201e+01 -1.895339343172963709e-01
2.152931386604905128e+00 -1.142984054982662201e+01 -1.895339343172963709e-01
2.238380605354905128e+00 -1.142495773732662201e+01 -1.895339343172963709e-01
1.763038808479905128e+00 -1.244131515920162201e+01 -1.895644518954213709e-01
1.856788808479905128e+00 -1.244253586232662201e+01 -1.895644518954213709e-01
1.949928456917405128e+00 -1.243801926076412201e+01 -1.895644518954213709e-01
2.043434316292405128e+00 -1.243350265920162201e+01 -1.895644518954213709e-01
2.136940175667405128e+00 -1.242898605763912201e+01 -1.895644518954213709e-01
2.230812245979905128e+00 -1.242434738576412201e+01 -1.895644518954213709e-01
2.324562245979905128e+00 -1.241983078420162201e+01 -1.895644518954213709e-01
2.417457753792405128e+00 -1.240945480763912201e+01 -1.895644518954213709e-01
1.935280019417405128e+00 -1.384780929982662201e+01 -1.984603259188588709e-01
2.037208730354905128e+00 -1.382095383107662201e+01 -1.974837634188588709e-01
2.138893300667405128e+00 -1.379422043263912201e+01 -1.964919421297963709e-01
2.240699941292405128e+00 -1.376736496388912201e+01 -1.955153796297963709e-01
2.342018300667405128e+00 -1.374075363576412201e+01 -1.945388171297963709e-01
2.443458730354905128e+00 -1.371402023732662201e+01 -1.935622546297963709e-01
2.544410878792405128e+00 -1.368740890920162201e+01 -1.925856921297963709e-01
2.645240956917405128e+00 -1.366091965138912201e+01 -1.916091296297963709e-01
2.128395253792405128e+00 -1.542434738576412201e+01 -2.011611315829213709e-01
2.241920644417405128e+00 -1.538528488576412201e+01 -1.994368884188588709e-01
2.353981191292405128e+00 -1.533792160451412201e+01 -1.977126452547963709e-01
2.465797597542405128e+00 -1.529043625295162201e+01 -1.960189196688588709e-01
2.576881581917405128e+00 -1.524343918263912201e+01 -1.943099352938588709e-01
2.687843495979905128e+00 -1.519632004201412201e+01 -1.926162097079213709e-01
2.797950917854905128e+00 -1.514968918263912201e+01 -1.909377429110463709e-01
2.907936269417405128e+00 -1.510464523732662201e+01 -1.896712634188588709e-01
2.350319081917405128e+00 -1.723635910451412201e+01 -1.968581530672963709e-01
2.480201894417405128e+00 -1.720608566701412201e+01 -1.958663317782338709e-01
2.606178456917405128e+00 -1.714810226857662201e+01 -1.939437243563588709e-01
2.731910878792405128e+00 -1.709024094045162201e+01 -1.920211169344838709e-01
2.856666738167405128e+00 -1.703274582326412201e+01 -1.901137683016713709e-01
2.988624745979905128e+00 -1.702053879201412201e+01 -1.897322985751088709e-01
3.122169667854905128e+00 -1.701968429982662201e+01 -1.897322985751088709e-01
3.256202870979905128e+00 -1.701870773732662201e+01 -1.897322985751088709e-01
2.637550527229905128e+00 -1.958255051076412201e+01 -1.916854235751088709e-01
2.786476308479905128e+00 -1.954592941701412201e+01 -1.905410143954213709e-01
2.939308339729905128e+00 -1.953884933888912201e+01 -1.898238513094838709e-01
3.094215566292405128e+00 -1.954141281545162201e+01 -1.898238513094838709e-01
3.249122792854905128e+00 -1.954385422170162201e+01 -1.898238513094838709e-01
3.405006581917405128e+00 -1.954641769826412201e+01 -1.898238513094838709e-01
3.558082753792405128e+00 -1.953335617482662201e+01 -1.898238513094838709e-01
3.714210683479905128e+00 -1.953579758107662201e+01 -1.898238513094838709e-01
3.037452870979905128e+00 -2.284866379201412201e+01 -1.868026110751088709e-01
3.219459706917405128e+00 -2.285391281545162201e+01 -1.867263171297963709e-01
3.398414785042405128e+00 -2.283474777638912201e+01 -1.860549304110463709e-01
3.565895253792405128e+00 -2.273220871388912201e+01 -1.833388659579213709e-01
3.731666738167405128e+00 -2.263076828420162201e+01 -1.806533190829213709e-01
3.896827870979905128e+00 -2.252969406545162201e+01 -1.779830309969838709e-01
4.060280019417405128e+00 -2.242971847951412201e+01 -1.753432604891713709e-01
4.222511464729905128e+00 -2.233035324513912201e+01 -1.727034899813588709e-01
3.224708730354905128e+00 -2.438028000295162201e+01 -1.178786608797963709e-01
3.388771230354905128e+00 -2.415017746388912201e+01 -1.129653308016713709e-01
3.574684316292405128e+00 -2.410232590138912201e+01 -1.116683337313588709e-01
3.761085683479905128e+00 -2.405447433888912201e+01 -1.103560778719838709e-01
3.946388417854905128e+00 -2.400686691701412201e+01 -1.090743395907338709e-01
4.132057363167405128e+00 -2.395913742482662201e+01 -1.077620837313588709e-01
4.316871816292405128e+00 -2.391165207326412201e+01 -1.064803454501088709e-01
4.501320058479905128e+00 -2.386428879201412201e+01 -1.051833483797963709e-01
3.301979238167405128e+00 -2.501419113576412201e+01 -2.060388060635887086e-02
3.522194081917405128e+00 -2.517324875295162201e+01 -2.249597045010887086e-02
3.707374745979905128e+00 -2.505715988576412201e+01 -2.023766966885887086e-02
3.893898183479905128e+00 -2.495657394826412201e+01 -1.820825072354637086e-02
4.124855214729905128e+00 -2.515103195607662201e+01 -2.063439818448387086e-02
4.360939199104905128e+00 -2.534988449513912201e+01 -2.310632201260887086e-02
4.441383535042405128e+00 -2.463247726857662201e+01 -1.179955931729637086e-02
4.624489003792405128e+00 -2.454397629201412201e+01 -9.968504629796370864e-03
3.251686269417405128e+00 -2.460806320607662201e+01 9.292151001864112914e-02
3.498878652229905128e+00 -2.499905441701412201e+01 8.944250611239112914e-02
3.799415761604905128e+00 -2.572110031545162201e+01 8.249975708895362914e-02
3.944923574104905128e+00 -2.530508469045162201e+01 8.753515747957862914e-02
4.128761464729905128e+00 -2.517971847951412201e+01 8.948828247957862914e-02
4.351783925667405128e+00 -2.529763840138912201e+01 8.892370728426612914e-02
4.633888417854905128e+00 -2.574588058888912201e+01 8.492590454989112914e-02
4.800270253792405128e+00 -2.551284836232662201e+01 8.800817994051612914e-02
3.246803456917405128e+00 -2.457144211232662201e+01 2.010452893155161291e-01
3.497413808479905128e+00 -2.499173019826412201e+01 1.993515637295786291e-01
3.688697988167405128e+00 -2.493057297170162201e+01 1.999008801358286291e-01
3.936744863167405128e+00 -2.525320480763912201e+01 1.988175061123911291e-01
4.148414785042405128e+00 -2.530899094045162201e+01 1.992752697842661291e-01
4.282325917854905128e+00 -2.487991379201412201e+01 2.025559094327036291e-01
4.661110097542405128e+00 -2.590603683888912201e+01 1.980698254483286291e-01
4.792946035042405128e+00 -2.547622726857662201e+01 2.013352063077036291e-01
3.407203847542405128e+00 -2.588577316701412201e+01 3.065140393155161291e-01
3.501075917854905128e+00 -2.502261398732662201e+01 3.085434582608286291e-01
3.688575917854905128e+00 -2.493325851857662201e+01 3.095657971280161291e-01
