-3.538886513561010361e+00 -2.862985201179981232e+01 9.794583747861906886e-04
-3.325263466686010361e+00 -2.874679537117481232e+01 7.048001716611906886e-04
-3.111030068248510361e+00 -2.886410494148731232e+01 4.301419685361906886e-04
-4.508124794811010361e+00 -4.230978365242481232e+01 -1.643190035392763093e-01
-2.585639443248510361e+00 -2.828488130867481232e+01 9.936367554473690689e-03
-2.355536904186010361e+00 -2.822640962898731232e+01 1.179793982009869069e-02
-4.232123818248510361e+00 -3.005770845711231232e+01 1.135282864997861907e-01
-3.871528115123510361e+00 -2.929354830086231232e+01 1.206236234138486907e-01
-3.541938271373510361e+00 -2.864779634773731232e+01 1.260710111091611907e-01
-3.324408974498510361e+00 -2.873727388679981232e+01 1.264219632575986907e-01
-3.074775185436010361e+00 -2.858029146492481232e+01 1.286802640388486907e-01
-2.840033974498510361e+00 -2.852767916023731232e+01 1.301298489997861907e-01
-2.575629677623510361e+00 -2.819198580086231232e+01 1.344023099372861907e-01
-2.373969521373510361e+00 -2.839889498054981232e+01 1.338377347419736907e-01
-4.159491982311010361e+00 -2.961141939461231232e+01 2.471037259529111907e-01
-3.865424599498510361e+00 -2.925131197273731232e+01 2.492094388435361907e-01
-3.544013466686010361e+00 -2.865902681648731232e+01 2.520170560310361907e-01
-3.298407997936010361e+00 -2.854574556648731232e+01 2.532682767341611907e-01
-3.040351357311010361e+00 -2.831149263679981232e+01 2.549009671638486907e-01
-2.837226357311010361e+00 -2.849984712898731232e+01 2.552061429450986907e-01
-2.565009560436010361e+00 -2.809249849617481232e+01 2.573423734138486907e-01
-2.373359169811010361e+00 -2.838790865242481232e+01 2.573271146247861907e-01
-4.206122841686010361e+00 -2.989389009773731232e+01 3.782377591560361907e-01
-3.857734169811010361e+00 -2.919882173836231232e+01 3.773527493904111907e-01
-3.685981240123510361e+00 -2.962509126961231232e+01 3.787412991950986907e-01
-3.334174599498510361e+00 -2.880172701179981232e+01 3.783140531013486907e-01
-3.128730263561010361e+00 -2.898983736336231232e+01 3.793669095466611907e-01
-2.834296669811010361e+00 -2.847201509773731232e+01 3.793516507575986907e-01
-2.601386513561010361e+00 -2.841134615242481232e+01 3.800077786872861907e-01
-2.357856240123510361e+00 -2.823348970711231232e+01 3.811216702888486907e-01
-4.187690224498510361e+00 -2.977902193367481232e+01 5.088529935310361907e-01
-4.008246865123510361e+00 -3.016720552742481232e+01 5.118742337654111907e-01
-3.691840615123510361e+00 -2.966281099617481232e+01 5.094480863044736907e-01
-3.416694130748510361e+00 -2.939645357429981232e+01 5.084715238044736907e-01
-3.127753701061010361e+00 -2.897921724617481232e+01 5.065489163825986907e-01
-2.845160927623510361e+00 -2.855783052742481232e+01 5.045652738044736907e-01
-2.581366982311010361e+00 -2.822970552742481232e+01 5.031614652107236907e-01
-2.318061318248510361e+00 -2.784786958992481232e+01 5.013914456794736907e-01
-4.266181435436010361e+00 -3.025656099617481232e+01 6.454496732185361907e-01
-4.012397255748510361e+00 -3.019149751961231232e+01 6.445494046638486907e-01
-3.795600380748510361e+00 -3.036740083992481232e+01 6.469450345466611907e-01
-3.404487099498510361e+00 -2.930453462898731232e+01 6.360350003669736907e-01
-3.150458779186010361e+00 -2.915048189461231232e+01 6.348753323982236907e-01
-2.848456826061010361e+00 -2.858090181648731232e+01 6.292295804450986907e-01
-2.577216591686010361e+00 -2.818807955086231232e+01 6.254606595466611907e-01
-2.313910927623510361e+00 -2.780270357429981232e+01 6.224089017341611907e-01
-3.852118935436010361e+00 -3.074960298836231232e+01 7.867155423591611907e-01
-3.402656044811010361e+00 -2.928805513679981232e+01 7.645902982185361907e-01
-3.198310341686010361e+00 -2.951620455086231232e+01 7.684507718513486907e-01
-2.977973427623510361e+00 -2.964596529304981232e+01 7.708006253669736907e-01
-2.629584755748510361e+00 -2.864840669929981232e+01 7.557707181404111907e-01
-2.439399208873510361e+00 -2.900057955086231232e+01 7.615385404060361907e-01
-3.589545693248510361e+00 -3.063803072273731232e+01 9.196348538825986907e-01
-3.200507607311010361e+00 -2.952889986336231232e+01 8.976316800544736907e-01
-2.992743935436010361e+00 -2.976388521492481232e+01 9.032469144294736907e-01
-2.811225380748510361e+00 -3.025436373054981232e+01 9.133024564216611907e-01
-2.437079872936010361e+00 -2.897299166023731232e+01 8.877897611091611907e-01
-4.495673622936010361e+00 -3.719589205086231232e+01 1.216342007202911191e+00
-4.281928505748510361e+00 -3.786556978523731232e+01 1.232943569702911191e+00
-2.791938271373510361e+00 -3.007833833992481232e+01 1.040972744507598691e+00
-2.530829872936010361e+00 -2.986618013679981232e+01 1.036501919312286191e+00
-4.557566307485103607e-01 -1.002474947273731232e+01 -1.939973482658388093e-01
-3.872751854360103607e-01 -1.004684419929981232e+01 -1.945161470939638093e-01
-3.180613182485103607e-01 -1.006576509773731232e+01 -1.950502047111513093e-01
-2.484812401235103607e-01 -1.008480806648731232e+01 -1.955842623283388093e-01
-1.789011619985103607e-01 -1.010372896492481232e+01 -1.961030611564638093e-01
-1.077341698110103607e-01 -1.010604830086231232e+01 -1.955842623283388093e-01
-3.693338856101036072e-02 -1.010800142586231232e+01 -1.950502047111513093e-01
3.398946300148963928e-02 -1.010665865242481232e+01 -1.945161470939638093e-01
-5.246042869985103607e-01 -1.068490572273731232e+01 -1.934938082267763093e-01
-4.505076073110103607e-01 -1.070639009773731232e+01 -1.940583834220888093e-01
-3.760447166860103607e-01 -1.072787447273731232e+01 -1.946229586174013093e-01
-3.013376854360103607e-01 -1.075326509773731232e+01 -1.952027926017763093e-01
-2.263865135610103607e-01 -1.077499361336231232e+01 -1.957673677970888093e-01
-1.502146385610103607e-01 -1.078585787117481232e+01 -1.959352144767763093e-01
-7.367655262351036072e-02 -1.078768892586231232e+01 -1.953553804924013093e-01
2.739463001489639282e-03 -1.078951998054981232e+01 -1.947755465080263093e-01
-5.995554588735103607e-01 -1.140328951179981232e+01 -1.900148043205263093e-01
-5.193552635610103607e-01 -1.142489595711231232e+01 -1.904573092033388093e-01
-4.389109276235103607e-01 -1.144650240242481232e+01 -1.908998140861513093e-01
-3.579783104360103607e-01 -1.146823091804981232e+01 -1.913575777580263093e-01
-2.770456932485103607e-01 -1.148995943367481232e+01 -1.918000826408388093e-01
-1.955027244985103607e-01 -1.151181001961231232e+01 -1.922578463127138093e-01
-1.132273338735103607e-01 -1.151791353523731232e+01 -1.918611177970888093e-01
-3.070780262351036072e-02 -1.151925630867481232e+01 -1.912202486564638093e-01
-7.052683494985103607e-01 -1.241659517586231232e+01 -1.946534761955263093e-01
-6.173777244985103607e-01 -1.244674654304981232e+01 -1.951112398674013093e-01
-5.283884666860103607e-01 -1.246908541023731232e+01 -1.954469332267763093e-01
-4.389109276235103607e-01 -1.249154634773731232e+01 -1.957826265861513093e-01
-3.495554588735103607e-01 -1.251400728523731232e+01 -1.961335787345888093e-01
-2.594675682485103607e-01 -1.253659029304981232e+01 -1.964692720939638093e-01
-1.695017479360103607e-01 -1.255917330086231232e+01 -1.968202242424013093e-01
-7.892557606101036072e-02 -1.257369966804981232e+01 -1.970491060783388093e-01
-8.598093651235103607e-01 -1.390011568367481232e+01 -2.106294283439638093e-01
-7.588572166860103607e-01 -1.392245455086231232e+01 -2.107972750236513093e-01
-6.575388573110103607e-01 -1.394467134773731232e+01 -2.109651217033388093e-01
-5.557322166860103607e-01 -1.396713228523731232e+01 -2.111329683830263093e-01
-4.539255760610103607e-01 -1.398959322273731232e+01 -2.113008150627138093e-01
-3.515085838735103607e-01 -1.401205416023731232e+01 -2.114686617424013093e-01
-2.495798729360103607e-01 -1.403842134773731232e+01 -2.118196138908388093e-01
-1.467966698110103607e-01 -1.405722017586231232e+01 -2.118196138908388093e-01
-1.067450966686010361e+00 -1.589218111336231232e+01 -2.335176119377138093e-01
-9.513620994985103607e-01 -1.593136568367481232e+01 -2.338227877189638093e-01
-8.338083885610103607e-01 -1.595980806648731232e+01 -2.340364107658388093e-01
-7.155222557485103607e-01 -1.598837251961231232e+01 -2.342500338127138093e-01
-5.973581932485103607e-01 -1.601693697273731232e+01 -2.344789156486513093e-01
-4.784617088735103607e-01 -1.604562349617481232e+01 -2.346925386955263093e-01
-3.595652244985103607e-01 -1.607431001961231232e+01 -2.349061617424013093e-01
-2.399363182485103607e-01 -1.609188814461231232e+01 -2.350434908439638093e-01
-1.304999794811010361e+00 -1.817050142586231232e+01 -2.477693209220888093e-01
-1.170234169811010361e+00 -1.821383638679981232e+01 -2.482881197502138093e-01
-1.028754677623510361e+00 -1.818698091804981232e+01 -2.463349947502138093e-01
-8.873972557485103607e-01 -1.816012544929981232e+01 -2.443818697502138093e-01
-7.471384666860103607e-01 -1.813363619148731232e+01 -2.424440035392763093e-01
-6.071238182485103607e-01 -1.810702486336231232e+01 -2.405061373283388093e-01
-4.680857323110103607e-01 -1.808065767586231232e+01 -2.385835299064638093e-01
-3.297800682485103607e-01 -1.805441255867481232e+01 -2.366761812736513093e-01
-1.512763466686010361e+00 -2.016232271492481232e+01 -2.325868258049013093e-01
-1.359443154186010361e+00 -2.018588228523731232e+01 -2.322206148674013093e-01
-1.206733193248510361e+00 -2.021945162117481232e+01 -2.317170748283388093e-01
-1.050727333873510361e+00 -2.022177095711231232e+01 -2.307099947502138093e-01
-8.949656151235103607e-01 -2.021932955086231232e+01 -2.295503267814638093e-01
-7.389597557485103607e-01 -2.021688814461231232e+01 -2.283906588127138093e-01
-5.830759666860103607e-01 -2.020431490242481232e+01 -2.273988375236513093e-01
-4.281687401235103607e-01 -2.020199556648731232e+01 -2.262544283439638093e-01
-1.760566201061010361e+00 -2.253707857429981232e+01 -2.085237154533388093e-01
-1.582587685436010361e+00 -2.251119966804981232e+01 -2.066926607658388093e-01
-1.403388466686010361e+00 -2.246420259773731232e+01 -2.043122896720888093e-01
-1.224555458873510361e+00 -2.241720552742481232e+01 -2.019471773674013093e-01
-1.049506630748510361e+00 -2.240097017586231232e+01 -2.003755220939638093e-01
-8.750681541860103607e-01 -2.239535494148731232e+01 -1.990937838127138093e-01
-7.014841698110103607e-01 -2.238986177742481232e+01 -1.977967867424013093e-01
-5.282663963735103607e-01 -2.238424654304981232e+01 -1.965150484611513093e-01
-2.129096474498510361e+00 -2.607003755867481232e+01 -1.879396090080263093e-01
-1.926337685436010361e+00 -2.609469576179981232e+01 -1.871919283439638093e-01
-1.723456826061010361e+00 -2.611947603523731232e+01 -1.864289888908388093e-01
-1.519599404186010361e+00 -2.614425630867481232e+01 -1.856813082267763093e-01
-1.316474404186010361e+00 -2.616903658211231232e+01 -1.849336275627138093e-01
-1.109199013561010361e+00 -2.614291353523731232e+01 -1.830873140861513093e-01
-8.928904198110103607e-01 -2.592452974617481232e+01 -1.771821627189638093e-01
-6.776804588735103607e-01 -2.564181490242481232e+01 -1.699494967033388093e-01
-2.642646279186010361e+00 -3.099374361336231232e+01 -1.575746187736513093e-01
-2.361030068248510361e+00 -3.062570162117481232e+01 -1.499299654533388093e-01
-2.087592568248510361e+00 -3.027743501961231232e+01 -1.426667818595888093e-01
-1.700019326061010361e+00 -2.841903658211231232e+01 -1.101808199455263093e-01
-1.554023232311010361e+00 -2.951986666023731232e+01 -1.272096285392763093e-01
-1.296943154186010361e+00 -2.914462251961231232e+01 -1.195954927970888093e-01
-1.046332802623510361e+00 -2.875265474617481232e+01 -1.117372164299013093e-01
-8.023142479360103607e-01 -2.835531587898731232e+01 -1.038484224845888093e-01
-2.354194130748510361e+00 -2.822116060554981232e+01 1.187423376541119069e-02
-2.140326943248510361e+00 -2.831710787117481232e+01 1.193526892166119069e-02
-2.277289833873510361e+00 -3.243881197273731232e+01 -3.695389123458880931e-02
-1.703925576061010361e+00 -2.846054048836231232e+01 1.268294958572369069e-02
-1.490790810436010361e+00 -2.861801119148731232e+01 1.202682165603619069e-02
-1.245185341686010361e+00 -2.830563326179981232e+01 1.704696325759869069e-02
-1.032416786998510361e+00 -2.848275728523731232e+01 1.616195349197369069e-02
-9.014353416860103607e-01 -3.051058931648731232e+01 -6.802524047088809311e-03
-2.373237099498510361e+00 -2.839852876961231232e+01 1.338377347419736907e-01
-2.144965615123510361e+00 -2.836019869148731232e+01 1.352873197029111907e-01
-2.009223427623510361e+00 -2.936813326179981232e+01 1.281767239997861907e-01
-1.703925576061010361e+00 -2.845394869148731232e+01 1.362638822029111907e-01
-1.482856240123510361e+00 -2.849740572273731232e+01 1.371183743904111907e-01
-1.249701943248510361e+00 -2.836862154304981232e+01 1.392393460700986907e-01
-1.046210732311010361e+00 -2.872665376961231232e+01 1.384306302497861907e-01
-8.987497948110103607e-01 -3.043563814461231232e+01 1.270933499763486907e-01
-2.372626747936010361e+00 -2.838754244148731232e+01 2.573271146247861907e-01
-2.169379677623510361e+00 -2.860897798836231232e+01 2.577543607185361907e-01
-1.922919716686010361e+00 -2.837631197273731232e+01 2.595396390388486907e-01
-1.753730263561010361e+00 -2.907565279304981232e+01 2.586088529060361907e-01
-1.468085732311010361e+00 -2.828097505867481232e+01 2.619963040779111907e-01
-1.273871865123510361e+00 -2.874472017586231232e+01 2.617826810310361907e-01
-1.076362099498510361e+00 -2.927218599617481232e+01 2.614164700935361907e-01
-8.390574119985103607e-01 -2.911605806648731232e+01 2.629576077888486907e-01
-2.357245888561010361e+00 -2.823544283211231232e+01 3.811369290779111907e-01
-2.145698036998510361e+00 -2.835641451179981232e+01 3.816862454841611907e-01
-1.970527138561010361e+00 -2.891354341804981232e+01 3.836241116950986907e-01
-1.769355263561010361e+00 -2.926510591804981232e+01 3.852568021247861907e-01
-1.508002724498510361e+00 -2.883676119148731232e+01 3.855619779060361907e-01
-1.272773232311010361e+00 -2.871859712898731232e+01 3.863706937263486907e-01
-1.075629677623510361e+00 -2.924764986336231232e+01 3.883543363044736907e-01
-8.308787010610103607e-01 -2.892282076179981232e+01 3.894682279060361907e-01
-2.317084755748510361e+00 -2.784518404304981232e+01 5.013761868904111907e-01
-2.061713661998510361e+00 -2.747543306648731232e+01 4.999723782966611907e-01
-1.813788857311010361e+00 -2.711642427742481232e+01 4.986296048591611907e-01
-1.572089638561010361e+00 -2.676644869148731232e+01 4.973020902107236907e-01
-1.337958779186010361e+00 -2.642745943367481232e+01 4.960356107185361907e-01
-1.114081826061010361e+00 -2.616830416023731232e+01 4.952421536872861907e-01
-8.965525291860103607e-01 -2.592758150398731232e+01 4.945555081794736907e-01
-6.834177635610103607e-01 -2.569174166023731232e+01 4.938688626716611907e-01
-2.312812294811010361e+00 -2.780001802742481232e+01 6.223783841560361907e-01
-2.058906044811010361e+00 -2.744076509773731232e+01 6.186704984138486907e-01
-1.812812294811010361e+00 -2.709957857429981232e+01 6.157865872810361907e-01
-1.572577919811010361e+00 -2.676669283211231232e+01 6.129789700935361907e-01
-1.339667763561010361e+00 -2.644381685554981232e+01 6.102476468513486907e-01
-1.115912880748510361e+00 -2.618893404304981232e+01 6.082487454841611907e-01
-8.985056541860103607e-01 -2.595455904304981232e+01 6.064482083747861907e-01
-6.854929588735103607e-01 -2.572421236336231232e+01 6.052732816169736907e-01
-2.438910927623510361e+00 -2.900314302742481232e+01 7.615843167732236907e-01
-2.207465615123510361e+00 -2.898312349617481232e+01 7.620725980232236907e-01
-2.061957802623510361e+00 -2.993820162117481232e+01 7.776823392341611907e-01
-1.836982216686010361e+00 -3.009713716804981232e+01 7.809782376716611907e-01
-1.601020302623510361e+00 -3.012362642586231232e+01 7.822294583747861907e-01
-1.347358193248510361e+00 -2.988180513679981232e+01 7.792845120857236907e-01
-1.071723427623510361e+00 -2.913876314461231232e+01 7.684965482185361907e-01
-8.978953026235103607e-01 -3.034164400398731232e+01 7.881346097419736907e-01
-2.436469521373510361e+00 -2.897543306648731232e+01 8.878355374763486907e-01
-2.315131630748510361e+00 -3.009957857429981232e+01 9.111509671638486907e-01
-2.062446083873510361e+00 -2.993661470711231232e+01 9.086180081794736907e-01
-1.829291786998510361e+00 -2.999215669929981232e+01 9.097929349372861907e-01
-1.559272255748510361e+00 -2.952584810554981232e+01 9.011412015388486907e-01
-1.370429482311010361e+00 -3.024105806648731232e+01 9.170103421638486907e-01
-1.147651161998510361e+00 -3.052743501961231232e+01 9.235563626716611907e-01
-8.948435448110103607e-01 -3.025949068367481232e+01 9.188871732185361907e-01
-2.530219521373510361e+00 -2.986776705086231232e+01 1.036532436890411191e+00
-2.308539833873510361e+00 -3.002523775398731232e+01 1.040392910523223691e+00
-2.091376747936010361e+00 -3.025997896492481232e+01 1.046862637085723691e+00
-1.829291786998510361e+00 -2.998458833992481232e+01 1.040728603882598691e+00
-1.629584755748510361e+00 -3.050924654304981232e+01 1.054385220093536191e+00
-1.396552529186010361e+00 -3.064791841804981232e+01 1.058505093140411191e+00
3.423360362648963928e-02 -1.010653658211231232e+01 -1.945008883049013093e-01
1.050343848764896393e-01 -1.010885591804981232e+01 -1.939515718986513093e-01
1.758351661264896393e-01 -1.010800142586231232e+01 -1.934175142814638093e-01
2.468800880014896393e-01 -1.010702486336231232e+01 -1.928834566642763093e-01
3.175587989389896393e-01 -1.010604830086231232e+01 -1.923341402580263093e-01
3.886037208139896393e-01 -1.010507173836231232e+01 -1.918000826408388093e-01
4.592824317514896393e-01 -1.010421724617481232e+01 -1.912507662345888093e-01
5.298390723764896393e-01 -1.009982271492481232e+01 -1.907167086174013093e-01
2.983603626489639282e-03 -1.078951998054981232e+01 -1.947602877189638093e-01
7.952168956398963928e-02 -1.078829927742481232e+01 -1.941804537345888093e-01
1.560597755014896393e-01 -1.078707857429981232e+01 -1.936006197502138093e-01
2.325978614389896393e-01 -1.078976412117481232e+01 -1.930055269767763093e-01
3.090138770639896393e-01 -1.078854341804981232e+01 -1.924256929924013093e-01
3.856740333139896393e-01 -1.078341646492481232e+01 -1.918458590080263093e-01
4.619679786264896393e-01 -1.078219576179981232e+01 -1.912660250236513093e-01
5.382619239389896393e-01 -1.078097505867481232e+01 -1.906709322502138093e-01
-3.046366199851036072e-02 -1.151925630867481232e+01 -1.912202486564638093e-01
5.217793956398963928e-02 -1.151791353523731232e+01 -1.905946383049013093e-01
1.346974708139896393e-01 -1.151657076179981232e+01 -1.899842867424013093e-01
2.174611426889896393e-01 -1.151522798836231232e+01 -1.893586763908388093e-01
2.999806739389896393e-01 -1.151388521492481232e+01 -1.887483248283388093e-01
3.826222755014896393e-01 -1.153060884773731232e+01 -1.890840181877138093e-01
4.651418067514896393e-01 -1.155660982429981232e+01 -1.899079927970888093e-01
5.482716895639896393e-01 -1.158273287117481232e+01 -1.907472261955263093e-01
-7.868143543601036072e-02 -1.257382173836231232e+01 -1.970491060783388093e-01
1.165059581398963928e-02 -1.259994478523731232e+01 -1.974458345939638093e-01
1.025929786264896393e-01 -1.261788912117481232e+01 -1.977204927970888093e-01
1.941457130014896393e-01 -1.263607759773731232e+01 -1.979951510002138093e-01
2.856984473764896393e-01 -1.265414400398731232e+01 -1.982698092033388093e-01
3.778615333139896393e-01 -1.267245455086231232e+01 -1.985444674064638093e-01
4.699025489389896393e-01 -1.269064302742481232e+01 -1.988343843986513093e-01
5.623097755014896393e-01 -1.271151705086231232e+01 -1.995057711174013093e-01
-1.464304588735103607e-01 -1.405722017586231232e+01 -2.118196138908388093e-01
-4.352518543601036072e-02 -1.407565279304981232e+01 -2.119569429924013093e-01
5.962422862648963928e-02 -1.409420748054981232e+01 -2.120942720939638093e-01
1.635060645639896393e-01 -1.411288423836231232e+01 -2.122468599845888093e-01
2.672658301889896393e-01 -1.413143892586231232e+01 -2.123841890861513093e-01
3.717580176889896393e-01 -1.415011568367481232e+01 -2.125215181877138093e-01
4.760060645639896393e-01 -1.416891451179981232e+01 -2.126741060783388093e-01
5.806203223764896393e-01 -1.418759126961231232e+01 -2.128114351799013093e-01
-2.394480369985103607e-01 -1.609213228523731232e+01 -2.350434908439638093e-01
-1.187204979360103607e-01 -1.608419771492481232e+01 -2.336091646720888093e-01
2.617392688989639282e-03 -1.605685396492481232e+01 -2.317628511955263093e-01
1.237111426889896393e-01 -1.602951021492481232e+01 -2.299165377189638093e-01
2.439504005014896393e-01 -1.600241060554981232e+01 -2.280702242424013093e-01
3.641896583139896393e-01 -1.597531099617481232e+01 -2.262391695549013093e-01
4.834523536264896393e-01 -1.594833345711231232e+01 -2.244233736564638093e-01
6.021046973764896393e-01 -1.591268892586231232e+01 -2.226075777580263093e-01
-3.292917869985103607e-01 -1.805429048836231232e+01 -2.366609224845888093e-01
-1.913523338735103607e-01 -1.802609224617481232e+01 -2.347993502189638093e-01
-5.377909168601036072e-02 -1.798995943367481232e+01 -2.326936373283388093e-01
8.367208018898963928e-02 -1.795468111336231232e+01 -2.305879244377138093e-01
2.200246192514896393e-01 -1.791952486336231232e+01 -2.285127291252138093e-01
3.561330176889896393e-01 -1.788449068367481232e+01 -2.264375338127138093e-01
4.912648536264896393e-01 -1.784970064461231232e+01 -2.243775972892763093e-01
6.256642676889896393e-01 -1.781503267586231232e+01 -2.223176607658388093e-01
-4.276804588735103607e-01 -2.020187349617481232e+01 -2.262391695549013093e-01
-2.727732323110103607e-01 -2.019711275398731232e+01 -2.251252779533388093e-01
-1.183542869985103607e-01 -2.020248384773731232e+01 -2.238740572502138093e-01
3.704122081398963928e-02 -2.018930025398731232e+01 -2.225007662345888093e-01
1.919484473764896393e-01 -2.015219087898731232e+01 -2.204103121330263093e-01
3.467336036264896393e-01 -2.011520357429981232e+01 -2.183351168205263093e-01
5.002980567514896393e-01 -2.006637544929981232e+01 -2.163667330314638093e-01
6.531300880014896393e-01 -2.003097505867481232e+01 -2.143525728752138093e-01
-5.276560448110103607e-01 -2.238424654304981232e+01 -1.965150484611513093e-01
-3.545603416860103607e-01 -2.237667818367481232e+01 -1.952485689689638093e-01
-1.817087791860103607e-01 -2.236910982429981232e+01 -1.939820894767763093e-01
-9.101357311010360718e-03 -2.240048189461231232e+01 -1.937226900627138093e-01
1.632619239389896393e-01 -2.243283052742481232e+01 -1.934785494377138093e-01
3.368459083139896393e-01 -2.244210787117481232e+01 -1.926393160392763093e-01
5.098195411264896393e-01 -2.243234224617481232e+01 -1.913270601799013093e-01
6.826711036264896393e-01 -2.242257662117481232e+01 -1.899995455314638093e-01
-6.768259666860103607e-01 -2.563937349617481232e+01 -1.698884615470888093e-01
-4.702829979360103607e-01 -2.546102876961231232e+01 -1.649140963127138093e-01
-2.654490135610103607e-01 -2.523666353523731232e+01 -1.589784273674013093e-01
-6.391092762351036072e-02 -2.501583833992481232e+01 -1.531495699455263093e-01
1.333546973764896393e-01 -2.479989595711231232e+01 -1.474427828361513093e-01
3.275685645639896393e-01 -2.458724947273731232e+01 -1.418275484611513093e-01
5.175099708139896393e-01 -2.437924166023731232e+01 -1.363191256095888093e-01
7.046437598764896393e-01 -2.422824068367481232e+01 -1.320314058830263093e-01
-8.013376854360103607e-01 -2.835250826179981232e+01 -1.037873873283388093e-01
-5.551218651235103607e-01 -2.771469087898731232e+01 -9.194656701583880931e-02
-3.311228416860103607e-01 -2.747445650398731232e+01 -8.669754357833880931e-02
-1.106638573110103607e-01 -2.724594087898731232e+01 -8.166214318771380931e-02
1.058888770639896393e-01 -2.695663423836231232e+01 -7.565018029708880931e-02
3.182912208139896393e-01 -2.669564791023731232e+01 -7.012649865646380931e-02
5.259328223764896393e-01 -2.654550142586231232e+01 -6.643387170333880931e-02
7.318654395639896393e-01 -2.645492525398731232e+01 -6.373306603927630931e-02
-9.005808494985103607e-01 -3.050790376961231232e+01 -6.756747679901309311e-03
-6.466745994985103607e-01 -3.014389009773731232e+01 -1.004184203338809311e-03
-3.991160057485103607e-01 -2.978890962898731232e+01 4.611050171661190689e-03
-1.580271385610103607e-01 -2.949410982429981232e+01 9.478603882598690689e-03
7.036641612648963928e-02 -2.975631685554981232e+01 7.784878296661190689e-03
2.939992286264896393e-01 -3.241366548836231232e+01 -2.186294885177630931e-02
6.708302833139896393e-01 -6.142782564461231232e+01 -3.578767427970888093e-01
7.482228614389896393e-01 -2.782479830086231232e+01 3.433517126541119069e-02
-8.978953026235103607e-01 -3.043380708992481232e+01 1.271086087654111907e-01
-6.945261619985103607e-01 -3.140573091804981232e+01 1.214475980232236907e-01
-3.881296776235103607e-01 -2.938522310554981232e+01 1.368131986091611907e-01
-1.583933494985103607e-01 -2.947616548836231232e+01 1.375303616950986907e-01
7.622579112648963928e-02 -2.923117037117481232e+01 1.406431546638486907e-01
3.069386817514896393e-01 -2.907687349617481232e+01 1.430845609138486907e-01
7.026906348764896393e-01 -6.950521822273731232e+01 -1.389436373283388093e-01
1.262260947376489639e+00 -6.919552583992481232e+01 -1.334657320549013093e-01
-8.383249901235103607e-01 -2.911910982429981232e+01 2.629576077888486907e-01
-6.078562401235103607e-01 -2.907162447273731232e+01 2.644224515388486907e-01
-3.948435448110103607e-01 -2.959371919929981232e+01 2.643614163825986907e-01
-1.574167869985103607e-01 -2.939559908211231232e+01 2.662229886482236907e-01
7.695821300148963928e-02 -2.911080904304981232e+01 2.682981839607236907e-01
3.042531348764896393e-01 -2.955905123054981232e+01 2.684965482185361907e-01
5.402150489389896393e-01 -3.052218599617481232e+01 2.674894681404111907e-01
1.426811728626489639e+00 -8.261703462898731232e+01 1.440916409919736907e-01
-8.301462791860103607e-01 -2.892501802742481232e+01 3.894834866950986907e-01
-6.226267479360103607e-01 -2.944674654304981232e+01 3.911009183357236907e-01
-3.915476463735103607e-01 -2.945541353523731232e+01 3.924436917732236907e-01
-1.561960838735103607e-01 -2.930123873054981232e+01 3.934660306404111907e-01
6.121114268898963928e-02 -3.031027193367481232e+01 3.968382230232236907e-01
3.027882911264896393e-01 -2.972616548836231232e+01 3.969908109138486907e-01
7.139211036264896393e-01 -7.318136568367481232e+01 4.912138333747861907e-01
1.491997275501489639e+00 -8.806930513679981232e+01 5.292692532966611907e-01
-6.826853416860103607e-01 -2.569015474617481232e+01 4.938688626716611907e-01
-4.738230369985103607e-01 -2.545944185554981232e+01 4.935026517341611907e-01
-2.689890526235103607e-01 -2.523324556648731232e+01 4.931364407966611907e-01
-6.745096668601036072e-02 -2.501058931648731232e+01 4.927702298591611907e-01
1.296925880014896393e-01 -2.479391451179981232e+01 4.924345364997861907e-01
3.237843848764896393e-01 -2.458358736336231232e+01 4.921141019294736907e-01
5.136037208139896393e-01 -2.437777681648731232e+01 4.918089261482236907e-01
7.007375098764896393e-01 -2.422628755867481232e+01 4.918394437263486907e-01
-6.846384666860103607e-01 -2.572262544929981232e+01 6.052580228279111907e-01
-4.757761619985103607e-01 -2.549764986336231232e+01 6.032896390388486907e-01
-2.708201073110103607e-01 -2.527633638679981232e+01 6.019316068122861907e-01
-6.903788074851036072e-02 -2.505831880867481232e+01 6.005888333747861907e-01
1.283498145639896393e-01 -2.484518404304981232e+01 5.992918363044736907e-01
3.229298926889896393e-01 -2.463510103523731232e+01 5.979948392341611907e-01
5.132375098764896393e-01 -2.442965669929981232e+01 5.967283597419736907e-01
7.006154395639896393e-01 -2.427169771492481232e+01 5.965452542732236907e-01
-8.970408104360103607e-01 -3.034213228523731232e+01 7.881498685310361907e-01
-6.309275291860103607e-01 -2.961190767586231232e+01 7.779875150154111907e-01
-2.731394432485103607e-01 -2.533419771492481232e+01 7.119169583747861907e-01
-7.062479481101036072e-02 -2.510714693367481232e+01 7.094297757575986907e-01
1.272511817514896393e-01 -2.488522310554981232e+01 7.069883695075986907e-01
3.220754005014896393e-01 -2.466671724617481232e+01 7.045774808357236907e-01
5.126271583139896393e-01 -2.445309419929981232e+01 7.022276273200986907e-01
7.001271583139896393e-01 -2.428976412117481232e+01 7.006559720466611907e-01
-8.939890526235103607e-01 -3.026046724617481232e+01 9.189176907966611907e-01
-6.618113182485103607e-01 -3.041513033211231232e+01 9.233427396247861907e-01
-1.695017479360103607e-01 -2.979598970711231232e+01 9.126310697029111907e-01
3.008321300148963928e-02 -3.252914400398731232e+01 9.696836820075986907e-01
2.878957130014896393e-01 -3.243588228523731232e+01 9.699278226325986907e-01
-6.456980369985103607e-01 -2.996798677742481232e+01 1.044238125366973691e+00
3.032735362648963928e-02 -3.244271822273731232e+01 1.109927212281036191e+00
2.870412208139896393e-01 -3.243576021492481232e+01 1.111117397827911191e+00
5.300832130014896393e-01 -1.010006685554981232e+01 -1.907319674064638093e-01
6.007619239389896393e-01 -1.009957857429981232e+01 -1.901979097892763093e-01
6.713185645639896393e-01 -1.009579439461231232e+01 -1.896485933830263093e-01
7.421193458139896393e-01 -1.009188814461231232e+01 -1.891145357658388093e-01
8.126759864389896393e-01 -1.008810396492481232e+01 -1.885804781486513093e-01
8.838429786264896393e-01 -1.009176607429981232e+01 -1.884889254142763093e-01
9.550099708139896393e-01 -1.009664888679981232e+01 -1.884889254142763093e-01
1.025932822376489639e+00 -1.009811373054981232e+01 -1.884889254142763093e-01
5.385060645639896393e-01 -1.078109712898731232e+01 -1.906861910392763093e-01
6.148000098764896393e-01 -1.077694673836231232e+01 -1.901063570549013093e-01
6.909718848764896393e-01 -1.077267427742481232e+01 -1.895265230705263093e-01
7.675099708139896393e-01 -1.077243013679981232e+01 -1.889314302970888093e-01
8.438039161264896393e-01 -1.077096529304981232e+01 -1.885194429924013093e-01
9.207082130014896393e-01 -1.077291841804981232e+01 -1.885194429924013093e-01
9.974904395639896393e-01 -1.077889986336231232e+01 -1.885194429924013093e-01
1.074516806751489639e+00 -1.078488130867481232e+01 -1.885194429924013093e-01
5.485158301889896393e-01 -1.158297701179981232e+01 -1.907624849845888093e-01
6.320119239389896393e-01 -1.160556001961231232e+01 -1.915712008049013093e-01
7.158742286264896393e-01 -1.162826509773731232e+01 -1.923799166252138093e-01
8.003468848764896393e-01 -1.165121431648731232e+01 -1.932038912345888093e-01
8.842091895639896393e-01 -1.165316744148731232e+01 -1.929292330314638093e-01
9.679494239389896393e-01 -1.164767427742481232e+01 -1.922425875236513093e-01
1.051323447376489639e+00 -1.164218111336231232e+01 -1.915712008049013093e-01
1.134819541126489639e+00 -1.163668794929981232e+01 -1.908845552970888093e-01
5.625539161264896393e-01 -1.271188326179981232e+01 -1.995210299064638093e-01
6.556935645639896393e-01 -1.274703951179981232e+01 -2.004975924064638093e-01
7.491994239389896393e-01 -1.277560396492481232e+01 -2.014283785392763093e-01
8.433156348764896393e-01 -1.279672212898731232e+01 -2.020082125236513093e-01
9.362111426889896393e-01 -1.279037447273731232e+01 -2.012452730705263093e-01
1.029350791126489639e+00 -1.278402681648731232e+01 -2.004823336174013093e-01
1.122246298938989639e+00 -1.277767916023731232e+01 -1.997346529533388093e-01
1.214531455188989639e+00 -1.276449556648731232e+01 -1.989259371330263093e-01
5.809865333139896393e-01 -1.418783541023731232e+01 -2.128114351799013093e-01
6.859670020639896393e-01 -1.420236177742481232e+01 -2.129335054924013093e-01
7.910695411264896393e-01 -1.421701021492481232e+01 -2.130403170158388093e-01
8.964162208139896393e-01 -1.421615572273731232e+01 -2.124757418205263093e-01
1.001030478626489639e+00 -1.420858736336231232e+01 -2.116212496330263093e-01
1.106010947376489639e+00 -1.420101900398731232e+01 -2.107667574455263093e-01
1.210625205188989639e+00 -1.419357271492481232e+01 -2.099122652580263093e-01
1.315117392688989639e+00 -1.418600435554981232e+01 -2.090577730705263093e-01
6.025929786264896393e-01 -1.591256685554981232e+01 -2.226075777580263093e-01
7.210011817514896393e-01 -1.589120455086231232e+01 -2.207917818595888093e-01
8.387990333139896393e-01 -1.586093111336231232e+01 -2.189912447502138093e-01
9.567189551889896393e-01 -1.583077974617481232e+01 -2.171907076408388093e-01
1.073784384876489639e+00 -1.580075044929981232e+01 -2.154054293205263093e-01
1.190849814563989639e+00 -1.577072115242481232e+01 -2.136201510002138093e-01
1.307060752063989639e+00 -1.574093599617481232e+01 -2.118501314689638093e-01
1.422295127063989639e+00 -1.570260591804981232e+01 -2.100953707267763093e-01
6.261525489389896393e-01 -1.781478853523731232e+01 -2.223024019767763093e-01
7.600636817514896393e-01 -1.777658052742481232e+01 -2.202577242424013093e-01
8.928761817514896393e-01 -1.772335787117481232e+01 -2.177095064689638093e-01
1.024956259876489639e+00 -1.765670748054981232e+01 -2.146730074455263093e-01
1.155571494251489639e+00 -1.759066744148731232e+01 -2.116975435783388093e-01
1.285576377063989639e+00 -1.752499361336231232e+01 -2.087068209220888093e-01
1.414238486438989639e+00 -1.746005220711231232e+01 -2.057618746330263093e-01
1.541924033313989639e+00 -1.739547701179981232e+01 -2.028474459220888093e-01
6.536183692514896393e-01 -2.003085298836231232e+01 -2.143373140861513093e-01
8.057179786264896393e-01 -1.998178072273731232e+01 -2.120179781486513093e-01
9.574513770639896393e-01 -1.994796724617481232e+01 -2.096986422111513093e-01
1.108696494251489639e+00 -1.989926119148731232e+01 -2.073945650627138093e-01
1.258720908313989639e+00 -1.985092134773731232e+01 -2.051057467033388093e-01
1.408623252063989639e+00 -1.980270357429981232e+01 -2.028169283439638093e-01
1.556328330188989639e+00 -1.974020357429981232e+01 -2.005586275627138093e-01
1.704277548938989639e+00 -1.969259615242481232e+01 -1.983003267814638093e-01
6.832814551889896393e-01 -2.242245455086231232e+01 -1.899995455314638093e-01
8.558888770639896393e-01 -2.240988130867481232e+01 -1.886872896720888093e-01
1.028374228626489639e+00 -2.239743013679981232e+01 -1.873597750236513093e-01
1.201469931751489639e+00 -2.238485689461231232e+01 -1.860475191642763093e-01
1.373711142688989639e+00 -2.237240572273731232e+01 -1.847352633049013093e-01
1.551445517688989639e+00 -2.244857759773731232e+01 -1.856355318595888093e-01
1.740776572376489639e+00 -2.269906587898731232e+01 -1.909150728752138093e-01
1.913750205188989639e+00 -2.265768404304981232e+01 -1.888703951408388093e-01
7.052541114389896393e-01 -2.422714205086231232e+01 -1.320008883049013093e-01
8.899464942514896393e-01 -2.407479830086231232e+01 -1.277284273674013093e-01
1.072319541126489639e+00 -2.392428560554981232e+01 -1.235017427970888093e-01
1.252861533313989639e+00 -2.377523775398731232e+01 -1.193055758049013093e-01
1.430717978626489639e+00 -2.362850923836231232e+01 -1.151857027580263093e-01
1.606743369251489639e+00 -2.348324556648731232e+01 -1.111116060783388093e-01
1.780205283313989639e+00 -2.334017916023731232e+01 -1.070832857658388093e-01
1.964287314563989639e+00 -2.338131685554981232e+01 -1.068391451408388093e-01
7.324757911264896393e-01 -2.645431490242481232e+01 -6.371780725021380931e-02
9.362111426889896393e-01 -2.632492037117481232e+01 -6.036087365646380931e-02
1.136894736438989639e+00 -2.616586275398731232e+01 -5.653091760177630931e-02
1.335381064563989639e+00 -2.599508638679981232e+01 -5.253311486740130931e-02
1.527519736438989639e+00 -2.575936861336231232e+01 -4.752823205490130931e-02
1.726006064563989639e+00 -2.569796724617481232e+01 -4.530044885177630931e-02
1.920952353626489639e+00 -2.560519380867481232e+01 -4.259964318771380931e-02
2.065117392688989639e+00 -2.481503267586231232e+01 -2.886673303146380931e-02
7.489552833139896393e-01 -2.782308931648731232e+01 3.436568884353619069e-02
9.699025489389896393e-01 -2.798092623054981232e+01 3.392318396072369069e-02
1.853081259876489639e+00 -5.080136080086231232e+01 -2.266206392814638093e-01
1.402763877063989639e+00 -2.781320162117481232e+01 3.863814978103619069e-02
1.578667197376489639e+00 -2.689376802742481232e+01 5.047897009353619069e-02
1.729057822376489639e+00 -2.576840181648731232e+01 6.456283239822369069e-02
1.929985556751489639e+00 -2.576376314461231232e+01 6.589034704666119069e-02
2.066826377063989639e+00 -2.485116548836231232e+01 7.739547399978619069e-02
1.264092002063989639e+00 -6.919027681648731232e+01 -1.334199556877138093e-01
1.455376181751489639e+00 -5.139767427742481232e+01 -6.573642211151309311e-03
1.861382041126489639e+00 -5.113815279304981232e+01 -3.308261351776309311e-03
1.384453330188989639e+00 -2.734799166023731232e+01 1.620817532966611907e-01
1.618340048938989639e+00 -2.777938814461231232e+01 1.605558743904111907e-01
1.787529502063989639e+00 -2.686569185554981232e+01 1.681394925544736907e-01
1.931450400501489639e+00 -2.579989595711231232e+01 1.772184720466611907e-01
2.054863486438989639e+00 -2.469332857429981232e+01 1.858396878669736907e-01
1.428642783313989639e+00 -8.257699556648731232e+01 1.442137113044736907e-01
2.069145713001489639e+00 -8.106173677742481232e+01 1.522856107185361907e-01
1.883110556751489639e+00 -5.193661470711231232e+01 2.232237210700986907e-01
2.294609580188989639e+00 -5.171823091804981232e+01 2.265501370857236907e-01
1.592217002063989639e+00 -2.722616548836231232e+01 2.825346341560361907e-01
1.779350791126489639e+00 -2.672885103523731232e+01 2.850218167732236907e-01
1.932915244251489639e+00 -2.583676119148731232e+01 2.882719388435361907e-01
2.046684775501489639e+00 -2.458834810554981232e+01 2.921324124763486907e-01
1.494316611438989639e+00 -8.805783052742481232e+01 5.292692532966611907e-01
2.236748252063989639e+00 -8.926925630867481232e+01 5.348387113044736907e-01
2.984428916126489639e+00 -8.995162935554981232e+01 5.414457669685361907e-01
1.379448447376489639e+00 -2.725509615242481232e+01 3.986997952888486907e-01
2.711235556751489639e+00 -5.175045748054981232e+01 4.593534818122861907e-01
1.799004111438989639e+00 -2.710897798836231232e+01 4.012937894294736907e-01
1.927544150501489639e+00 -2.576205416023731232e+01 3.993559232185361907e-01
2.119072470813989639e+00 -2.562411470711231232e+01 4.009886136482236907e-01
7.013478614389896393e-01 -2.422531099617481232e+01 4.918394437263486907e-01
8.859181739389896393e-01 -2.407284517586231232e+01 4.921293607185361907e-01
1.068169150501489639e+00 -2.392233248054981232e+01 4.924192777107236907e-01
1.248711142688989639e+00 -2.377328462898731232e+01 4.927091947029111907e-01
1.426323447376489639e+00 -2.362655611336231232e+01 4.929838529060361907e-01
1.602470908313989639e+00 -2.348117037117481232e+01 4.932737698982236907e-01
1.775688681751489639e+00 -2.333810396492481232e+01 4.935484281013486907e-01
1.946831259876489639e+00 -2.319674654304981232e+01 4.938078275154111907e-01
7.012257911264896393e-01 -2.427072115242481232e+01 5.965452542732236907e-01
8.861623145639896393e-01 -2.411923189461231232e+01 5.956297269294736907e-01
1.068779502063989639e+00 -2.396908541023731232e+01 5.952787747810361907e-01
1.249809775501489639e+00 -2.382028169929981232e+01 5.949125638435361907e-01
1.427788291126489639e+00 -2.367391939461231232e+01 5.945616116950986907e-01
1.604301963001489639e+00 -2.352877779304981232e+01 5.942259183357236907e-01
1.778008017688989639e+00 -2.338607759773731232e+01 5.938749661872861907e-01
1.949516806751489639e+00 -2.324447603523731232e+01 5.940733304450986907e-01
7.008595801889896393e-01 -2.428878755867481232e+01 7.006559720466611907e-01
8.857961036264896393e-01 -2.413449068367481232e+01 6.995878568122861907e-01
1.068535361438989639e+00 -2.398226900398731232e+01 6.985350003669736907e-01
1.249443564563989639e+00 -2.383139009773731232e+01 6.974974027107236907e-01
1.427544150501489639e+00 -2.368295259773731232e+01 6.964750638435361907e-01
1.603935752063989639e+00 -2.353597994148731232e+01 6.954679837654111907e-01
1.777519736438989639e+00 -2.339120455086231232e+01 6.944761624763486907e-01
1.949028525501489639e+00 -2.324838228523731232e+01 6.934843411872861907e-01
3.314995322376489639e+00 -5.530538912117481232e+01 1.460406338257598691e+00
3.871635947376489639e+00 -5.706991548836231232e+01 1.500826870484161191e+00
4.349052939563989639e+00 -5.728732271492481232e+01 1.508944546265411191e+00
3.390312705188989639e+00 -5.673690767586231232e+01 1.743136440796661191e+00
3.869926963001489639e+00 -5.707101412117481232e+01 1.755282436890411191e+00
4.341728720813989639e+00 -5.721151705086231232e+01 1.763888393921661191e+00
1.026176963001489639e+00 -1.009823580086231232e+01 -1.885041842033388093e-01
1.097710166126489639e+00 -1.010360689461231232e+01 -1.885041842033388093e-01
1.168999228626489639e+00 -1.010556001961231232e+01 -1.885041842033388093e-01
1.240776572376489639e+00 -1.010751314461231232e+01 -1.885041842033388093e-01
1.312431845813989639e+00 -1.010958833992481232e+01 -1.885041842033388093e-01
1.384453330188989639e+00 -1.011154146492481232e+01 -1.885041842033388093e-01
1.456352744251489639e+00 -1.011349458992481232e+01 -1.885041842033388093e-01
1.528130088001489639e+00 -1.011215181648731232e+01 -1.885041842033388093e-01
1.074760947376489639e+00 -1.078500337898731232e+01 -1.885194429924013093e-01
1.151787314563989639e+00 -1.078793306648731232e+01 -1.885194429924013093e-01
1.228935752063989639e+00 -1.079086275398731232e+01 -1.885194429924013093e-01
1.306938681751489639e+00 -1.079782076179981232e+01 -1.885194429924013093e-01
1.384453330188989639e+00 -1.080075044929981232e+01 -1.885194429924013093e-01
1.461967978626489639e+00 -1.079965181648731232e+01 -1.885194429924013093e-01
1.539848838001489639e+00 -1.080258150398731232e+01 -1.885194429924013093e-01
1.617851767688989639e+00 -1.080563326179981232e+01 -1.885194429924013093e-01
1.135063681751489639e+00 -1.163681001961231232e+01 -1.908845552970888093e-01
1.218193564563989639e+00 -1.162765474617481232e+01 -1.901826510002138093e-01
1.301201377063989639e+00 -1.161849947273731232e+01 -1.894807467033388093e-01
1.384575400501489639e+00 -1.160922212898731232e+01 -1.887788424064638093e-01
1.468681845813989639e+00 -1.160922212898731232e+01 -1.885499605705263093e-01
1.553642783313989639e+00 -1.161349458992481232e+01 -1.885499605705263093e-01
1.638481650501489639e+00 -1.161764498054981232e+01 -1.885499605705263093e-01
1.723564658313989639e+00 -1.162191744148731232e+01 -1.885499605705263093e-01
1.214897666126489639e+00 -1.276461763679981232e+01 -1.989259371330263093e-01
1.307793173938989639e+00 -1.276107759773731232e+01 -1.981935152580263093e-01
1.400322470813989639e+00 -1.275070162117481232e+01 -1.974000582267763093e-01
1.493095908313989639e+00 -1.274044771492481232e+01 -1.966218599845888093e-01
1.585503134876489639e+00 -1.273007173836231232e+01 -1.958284029533388093e-01
1.678276572376489639e+00 -1.271969576179981232e+01 -1.950502047111513093e-01
1.770683798938989639e+00 -1.270944185554981232e+01 -1.942720064689638093e-01
1.862114463001489639e+00 -1.269247408211231232e+01 -1.934327730705263093e-01
1.315483603626489639e+00 -1.418600435554981232e+01 -2.090577730705263093e-01
1.419609580188989639e+00 -1.417428560554981232e+01 -2.081727633049013093e-01
1.523735556751489639e+00 -1.416244478523731232e+01 -2.072877535392763093e-01
1.628227744251489639e+00 -1.415072603523731232e+01 -2.064027437736513093e-01
1.731865439563989639e+00 -1.413412447273731232e+01 -2.053041109611513093e-01
1.834526572376489639e+00 -1.410665865242481232e+01 -2.037324556877138093e-01
1.936455283313989639e+00 -1.407931490242481232e+01 -2.021760592033388093e-01
2.038261923938989639e+00 -1.405209322273731232e+01 -2.006349215080263093e-01
1.422661338001489639e+00 -1.570236177742481232e+01 -2.100801119377138093e-01
1.538506064563989639e+00 -1.567794771492481232e+01 -2.083100924064638093e-01
1.653374228626489639e+00 -1.564486666023731232e+01 -2.065553316642763093e-01
1.768242392688989639e+00 -1.561190767586231232e+01 -2.048005709220888093e-01
1.882378134876489639e+00 -1.557907076179981232e+01 -2.030610689689638093e-01
1.996635947376489639e+00 -1.554623384773731232e+01 -2.013215670158388093e-01
2.110039267688989639e+00 -1.551364107429981232e+01 -1.995820650627138093e-01
2.222099814563989639e+00 -1.547262544929981232e+01 -1.978730806877138093e-01
1.542290244251489639e+00 -1.739511080086231232e+01 -2.028321871330263093e-01
1.668877158313989639e+00 -1.732760591804981232e+01 -1.999330172111513093e-01
1.794487509876489639e+00 -1.726058931648731232e+01 -1.970491060783388093e-01
1.923759970813989639e+00 -1.723605318367481232e+01 -1.956300386955263093e-01
2.053764853626489639e+00 -1.722421236336231232e+01 -1.946382174064638093e-01
2.184135947376489639e+00 -1.721224947273731232e+01 -1.936311373283388093e-01
2.314140830188989639e+00 -1.720028658211231232e+01 -1.926393160392763093e-01
2.444145713001489639e+00 -1.718844576179981232e+01 -1.916474947502138093e-01
1.704765830188989639e+00 -1.969222994148731232e+01 -1.982850679924013093e-01
1.852348838001489639e+00 -1.964877291023731232e+01 -1.962556490470888093e-01
2.003349814563989639e+00 -1.964999361336231232e+01 -1.950959810783388093e-01
2.153740439563989639e+00 -1.963644380867481232e+01 -1.939515718986513093e-01
2.303642783313989639e+00 -1.962301607429981232e+01 -1.928071627189638093e-01
2.454033408313989639e+00 -1.960946626961231232e+01 -1.916627535392763093e-01
2.602226767688989639e+00 -1.958126802742481232e+01 -1.905336031486513093e-01
2.752129111438989639e+00 -1.956784029304981232e+01 -1.893891939689638093e-01
1.914238486438989639e+00 -2.265597505867481232e+01 -1.888093599845888093e-01
2.068779502063989639e+00 -2.238851900398731232e+01 -1.811952242424013093e-01
2.239800009876489639e+00 -2.235678072273731232e+01 -1.794557222892763093e-01
2.419731650501489639e+00 -2.241451998054981232e+01 -1.799592623283388093e-01
2.600395713001489639e+00 -2.247238130867481232e+01 -1.804628023674013093e-01
2.783012900501489639e+00 -2.253097505867481232e+01 -1.809663424064638093e-01
2.950493369251489639e+00 -2.245968599617481232e+01 -1.782502779533388093e-01
3.113457236438989639e+00 -2.235995455086231232e+01 -1.748323092033388093e-01
1.964897666126489639e+00 -2.338168306648731232e+01 -1.068544039299013093e-01
2.218681845813989639e+00 -2.429025240242481232e+01 -1.243104586174013093e-01
2.405449423938989639e+00 -2.425631685554981232e+01 -1.225099215080263093e-01
2.592461142688989639e+00 -2.422213716804981232e+01 -1.206941256095888093e-01
2.625786338001489639e+00 -2.272286958992481232e+01 -8.926102014083880931e-02
2.959404502063989639e+00 -2.410201998054981232e+01 -1.160554537345888093e-01
3.132256064563989639e+00 -2.396566744148731232e+01 -1.121949801017763093e-01
3.293144736438989639e+00 -2.375253267586231232e+01 -1.068238863517763093e-01
2.071709189563989639e+00 -2.490023775398731232e+01 -3.020950646896380931e-02
2.235649619251489639e+00 -2.451412935554981232e+01 -2.290054650802630931e-02
2.444633994251489639e+00 -2.471359224617481232e+01 -2.482315392990130931e-02
2.653984580188989639e+00 -2.487191744148731232e+01 -2.607437463302630931e-02
2.625053916126489639e+00 -2.272347994148731232e+01 8.654629273223690689e-03
3.043022666126489639e+00 -2.485177583992481232e+01 -2.329727502365130931e-02
3.134941611438989639e+00 -2.399459810554981232e+01 -8.786166625213809311e-03
3.328545127063989639e+00 -2.403256197273731232e+01 -8.191073851776309311e-03
2.067558798938989639e+00 -2.485189791023731232e+01 7.739547399978619069e-02
2.234917197376489639e+00 -2.451498384773731232e+01 8.247665075759869069e-02
2.436089072376489639e+00 -2.462557955086231232e+01 8.253768591384869069e-02
2.627861533313989639e+00 -2.460800142586231232e+01 8.403304724197369069e-02
2.624321494251489639e+00 -2.272409029304981232e+01 1.060362210700986907e-01
3.002617392688989639e+00 -2.450070162117481232e+01 8.783248571853619069e-02
3.159477744251489639e+00 -2.420492525398731232e+01 9.234908728103619069e-02
3.375053916126489639e+00 -2.439816255867481232e+01 9.154037146072369069e-02
2.055473838001489639e+00 -2.469296236336231232e+01 1.858549466560361907e-01
2.234184775501489639e+00 -2.451583833992481232e+01 1.884031644294736907e-01
2.433159384876489639e+00 -2.460067720711231232e+01 1.886625638435361907e-01
2.627373252063989639e+00 -2.461154146492481232e+01 1.899900784919736907e-01
2.623589072376489639e+00 -2.272470064461231232e+01 2.034178128669736907e-01
2.982842002063989639e+00 -2.433224458992481232e+01 1.945371976325986907e-01
