0.951, 5.375, -0.203
0.937, 5.377, -0.203
0.923, 5.380, -0.203
0.909, 5.383, -0.203
0.895, 5.386, -0.203
0.881, 5.389, -0.203
0.867, 5.392, -0.203
0.852, 5.395, -0.203
0.838, 5.396, -0.203
0.824, 5.399, -0.203
0.810, 5.402, -0.203
0.796, 5.405, -0.203
0.781, 5.406, -0.203
0.767, 5.409, -0.203
0.753, 5.412, -0.203
0.738, 5.412, -0.203
1.213, 5.450, -0.203
1.198, 5.453, -0.203
1.184, 5.458, -0.203
1.170, 5.461, -0.203
1.155, 5.464, -0.203
1.141, 5.469, -0.203
1.126, 5.472, -0.203
1.111, 5.475, -0.203
1.097, 5.479, -0.203
1.082, 5.482, -0.203
1.068, 5.487, -0.203
1.053, 5.490, -0.203
1.038, 5.493, -0.203
1.024, 5.496, -0.203
1.009, 5.499, -0.203
0.994, 5.502, -0.203
0.979, 5.505, -0.203
0.965, 5.508, -0.203
0.950, 5.511, -0.203
0.935, 5.514, -0.203
0.921, 5.517, -0.203
0.906, 5.520, -0.203
0.891, 5.521, -0.203
0.876, 5.524, -0.203
0.861, 5.527, -0.203
0.847, 5.530, -0.203
0.832, 5.533, -0.203
0.817, 5.534, -0.203
0.802, 5.537, -0.203
0.788, 5.540, -0.203
0.773, 5.541, -0.203
0.758, 5.544, -0.203
1.252, 5.586, -0.203
1.238, 5.592, -0.203
1.222, 5.595, -0.203
1.208, 5.600, -0.203
1.192, 5.604, -0.203
1.177, 5.607, -0.203
1.162, 5.610, -0.203
1.147, 5.615, -0.203
1.132, 5.619, -0.203
1.116, 5.622, -0.203
1.101, 5.625, -0.203
1.086, 5.628, -0.203
1.070, 5.631, -0.203
1.055, 5.634, -0.203
1.040, 5.638, -0.203
1.025, 5.643, -0.203
1.010, 5.646, -0.203
0.994, 5.647, -0.203
0.979, 5.650, -0.203
0.963, 5.654, -0.203
0.948, 5.657, -0.203
0.933, 5.660, -0.203
0.918, 5.663, -0.203
0.902, 5.666, -0.203
0.887, 5.669, -0.203
0.871, 5.670, -0.203
0.856, 5.673, -0.203
0.841, 5.676, -0.203
0.825, 5.680, -0.203
0.810, 5.680, -0.203
0.795, 5.684, -0.203
0.779, 5.684, -0.203
1.295, 5.737, -0.203
1.279, 5.740, -0.203
1.264, 5.746, -0.203
1.248, 5.749, -0.203
1.232, 5.752, -0.203
1.217, 5.758, -0.203
1.201, 5.761, -0.203
1.185, 5.765, -0.203
1.169, 5.768, -0.203
1.153, 5.771, -0.203
1.138, 5.777, -0.203
1.122, 5.781, -0.203
1.106, 5.784, -0.203
1.090, 5.787, -0.203
1.074, 5.790, -0.203
1.058, 5.794, -0.203
1.042, 5.797, -0.203
1.026, 5.800, -0.203
1.010, 5.804, -0.203
0.994, 5.807, -0.203
0.978, 5.810, -0.203
0.963, 5.813, -0.203
0.946, 5.814, -0.203
0.930, 5.817, -0.203
0.914, 5.821, -0.203
0.898, 5.824, -0.203
0.882, 5.827, -0.203
0.866, 5.828, -0.203
0.850, 5.831, -0.203
0.834, 5.835, -0.203
0.818, 5.835, -0.203
0.802, 5.839, -0.203
1.341, 5.898, -0.203
1.326, 5.904, -0.203
1.309, 5.907, -0.203
1.292, 5.911, -0.203
1.276, 5.917, -0.203
1.260, 5.920, -0.203
1.243, 5.924, -0.203
1.226, 5.927, -0.203
1.210, 5.933, -0.203
1.194, 5.937, -0.203
1.177, 5.940, -0.203
1.161, 5.944, -0.203
1.144, 5.947, -0.203
1.127, 5.950, -0.203
1.111, 5.954, -0.203
1.094, 5.957, -0.203
1.077, 5.961, -0.203
1.061, 5.964, -0.203
1.044, 5.968, -0.203
1.027, 5.971, -0.203
1.011, 5.974, -0.203
0.994, 5.978, -0.203
0.978, 5.981, -0.203
0.961, 5.985, -0.203
0.944, 5.985, -0.203
0.927, 5.989, -0.203
0.911, 5.992, -0.203
0.894, 5.996, -0.203
0.877, 5.996, -0.203
0.860, 6.000, -0.203
0.844, 6.003, -0.203
0.827, 6.004, -0.203
1.393, 6.076, -0.203
1.375, 6.080, -0.203
1.358, 6.083, -0.203
1.341, 6.090, -0.203
1.324, 6.093, -0.203
1.306, 6.097, -0.203
1.289, 6.100, -0.203
1.272, 6.107, -0.203
1.255, 6.111, -0.203
1.238, 6.114, -0.203
1.220, 6.118, -0.203
1.203, 6.121, -0.203
1.185, 6.125, -0.203
1.168, 6.129, -0.203
1.151, 6.132, -0.203
1.133, 6.136, -0.203
1.116, 6.139, -0.203
1.098, 6.143, -0.203
1.081, 6.147, -0.203
1.064, 6.150, -0.203
1.046, 6.154, -0.203
1.029, 6.157, -0.203
1.011, 6.161, -0.203
0.994, 6.164, -0.203
0.977, 6.168, -0.203
0.959, 6.168, -0.203
0.941, 6.172, -0.203
0.924, 6.176, -0.203
0.907, 6.179, -0.203
0.889, 6.180, -0.203
0.871, 6.183, -0.203
0.854, 6.187, -0.203
1.448, 6.268, -0.203
1.429, 6.272, -0.203
1.412, 6.279, -0.203
1.394, 6.283, -0.203
1.376, 6.287, -0.203
1.357, 6.290, -0.203
1.340, 6.298, -0.203
1.322, 6.301, -0.203
1.304, 6.305, -0.203
1.285, 6.309, -0.203
1.267, 6.313, -0.203
1.249, 6.316, -0.203
1.231, 6.320, -0.203
1.212, 6.324, -0.203
1.195, 6.331, -0.203
1.177, 6.335, -0.203
1.158, 6.338, -0.203
1.140, 6.342, -0.203
1.121, 6.342, -0.203
1.103, 6.346, -0.203
1.085, 6.350, -0.203
1.067, 6.354, -0.203
1.048, 6.357, -0.203
1.030, 6.361, -0.203
1.012, 6.365, -0.203
0.994, 6.369, -0.203
0.975, 6.369, -0.203
0.957, 6.373, -0.203
0.939, 6.376, -0.203
0.921, 6.380, -0.203
0.902, 6.381, -0.203
0.884, 6.384, -0.203
1.508, 6.480, -0.203
1.489, 6.484, -0.203
1.471, 6.492, -0.203
1.452, 6.496, -0.203
1.433, 6.499, -0.203
1.414, 6.503, -0.203
1.395, 6.511, -0.203
1.376, 6.515, -0.203
1.357, 6.519, -0.203
1.338, 6.523, -0.203
1.319, 6.527, -0.203
1.300, 6.531, -0.203
1.281, 6.535, -0.203
1.262, 6.542, -0.203
1.243, 6.546, -0.203
1.224, 6.550, -0.203
1.205, 6.554, -0.203
1.186, 6.558, -0.203
1.166, 6.562, -0.203
1.147, 6.562, -0.203
1.127, 6.566, -0.203
1.108, 6.570, -0.203
1.089, 6.574, -0.203
1.070, 6.578, -0.203
1.051, 6.581, -0.203
1.032, 6.585, -0.203
1.012, 6.586, -0.203
0.993, 6.589, -0.203
0.974, 6.593, -0.203
0.955, 6.597, -0.203
0.935, 6.597, -0.203
0.916, 6.601, -0.203
1.575, 6.714, -0.203
1.556, 6.722, -0.203
1.536, 6.726, -0.203
1.516, 6.730, -0.203
1.496, 6.735, -0.203
1.476, 6.739, -0.203
1.457, 6.747, -0.203
1.437, 6.751, -0.203
1.416, 6.755, -0.203
1.396, 6.759, -0.203
1.376, 6.763, -0.203
1.356, 6.767, -0.203
1.336, 6.772, -0.203
1.316, 6.776, -0.203
1.296, 6.784, -0.203
1.276, 6.788, -0.203
1.256, 6.792, -0.203
1.236, 6.796, -0.203
1.215, 6.796, -0.203
1.195, 6.800, -0.203
1.175, 6.804, -0.203
1.154, 6.809, -0.203
1.134, 6.813, -0.203
1.114, 6.817, -0.203
1.094, 6.821, -0.203
1.074, 6.825, -0.203
1.053, 6.825, -0.203
1.033, 6.829, -0.203
1.013, 6.833, -0.203
0.993, 6.837, -0.203
0.973, 6.841, -0.203
0.952, 6.841, -0.203
1.650, 6.974, -0.203
1.630, 6.983, -0.203
1.609, 6.987, -0.203
1.587, 6.992, -0.203
1.566, 6.996, -0.203
1.545, 7.000, -0.203
1.525, 7.009, -0.203
1.503, 7.013, -0.203
1.482, 7.018, -0.203
1.461, 7.022, -0.203
1.440, 7.026, -0.203
1.418, 7.031, -0.203
1.397, 7.035, -0.203
1.376, 7.039, -0.203
1.354, 7.044, -0.203
1.333, 7.048, -0.203
1.312, 7.052, -0.203
1.291, 7.057, -0.203
1.269, 7.061, -0.203
1.248, 7.065, -0.203
1.227, 7.070, -0.203
1.206, 7.074, -0.203
1.184, 7.078, -0.203
1.163, 7.083, -0.203
1.142, 7.087, -0.203
1.121, 7.091, -0.203
1.099, 7.091, -0.203
1.077, 7.095, -0.203
1.056, 7.100, -0.203
1.035, 7.104, -0.203
1.014, 7.108, -0.203
0.992, 7.108, -0.203
1.733, 7.265, -0.203
1.711, 7.269, -0.203
1.690, 7.279, -0.203
1.667, 7.283, -0.203
1.645, 7.288, -0.203
1.622, 7.292, -0.203
1.599, 7.297, -0.203
1.578, 7.307, -0.203
1.556, 7.311, -0.203
1.533, 7.316, -0.203
1.511, 7.320, -0.203
1.488, 7.325, -0.203
1.465, 7.329, -0.203
1.443, 7.334, -0.203
1.420, 7.339, -0.203
1.398, 7.343, -0.203
1.375, 7.348, -0.203
1.353, 7.352, -0.203
1.330, 7.357, -0.203
1.308, 7.361, -0.203
1.285, 7.366, -0.203
1.263, 7.370, -0.203
1.240, 7.375, -0.203
1.218, 7.380, -0.203
1.195, 7.384, -0.203
1.172, 7.384, -0.203
1.149, 7.388, -0.203
1.127, 7.393, -0.203
1.104, 7.397, -0.203
1.082, 7.402, -0.203
1.059, 7.401, -0.203
1.036, 7.406, -0.203
1.827, 7.591, -0.203
1.803, 7.596, -0.203
1.781, 7.607, -0.203
1.757, 7.611, -0.203
1.733, 7.616, -0.203
1.709, 7.621, -0.203
1.685, 7.626, -0.203
1.661, 7.631, -0.203
1.638, 7.641, -0.203
1.614, 7.646, -0.203
1.590, 7.651, -0.203
1.567, 7.656, -0.203
1.543, 7.661, -0.203
1.519, 7.666, -0.203
1.495, 7.670, -0.203
1.471, 7.675, -0.203
1.447, 7.680, -0.203
1.423, 7.685, -0.203
1.399, 7.690, -0.203
1.375, 7.694, -0.203
1.351, 7.699, -0.203
1.327, 7.704, -0.203
1.303, 7.709, -0.203
1.279, 7.714, -0.203
1.254, 7.713, -0.203
1.230, 7.718, -0.203
1.207, 7.722, -0.203
1.183, 7.727, -0.203
1.159, 7.732, -0.203
1.135, 7.737, -0.203
1.110, 7.736, -0.203
1.086, 7.741, -0.203
1.933, 7.962, -0.203
1.908, 7.967, -0.203
1.882, 7.972, -0.203
1.858, 7.983, -0.203
1.833, 7.989, -0.203
1.807, 7.994, -0.203
1.782, 7.999, -0.203
1.756, 8.004, -0.203
1.730, 8.009, -0.203
1.705, 8.014, -0.203
1.679, 8.019, -0.203
1.656, 8.031, -0.203
1.630, 8.036, -0.203
1.604, 8.041, -0.203
1.579, 8.046, -0.203
1.553, 8.051, -0.203
1.528, 8.057, -0.203
1.502, 8.062, -0.203
1.477, 8.067, -0.203
1.451, 8.072, -0.203
1.426, 8.077, -0.203
1.399, 8.076, -0.203
1.373, 8.081, -0.203
1.348, 8.086, -0.203
1.322, 8.091, -0.203
1.297, 8.096, -0.203
1.271, 8.101, -0.203
1.246, 8.106, -0.203
1.220, 8.111, -0.203
1.194, 8.110, -0.203
1.168, 8.115, -0.203
1.143, 8.120, -0.203
2.054, 8.385, -0.203
2.027, 8.390, -0.203
2.000, 8.396, -0.203
1.972, 8.401, -0.203
1.945, 8.407, -0.203
1.920, 8.419, -0.203
1.892, 8.425, -0.203
1.865, 8.430, -0.203
1.837, 8.436, -0.203
1.810, 8.441, -0.203
1.783, 8.447, -0.203
1.755, 8.452, -0.203
1.728, 8.458, -0.203
1.701, 8.463, -0.203
1.673, 8.469, -0.203
1.646, 8.474, -0.203
1.619, 8.479, -0.203
1.591, 8.485, -0.203
1.564, 8.490, -0.203
1.537, 8.496, -0.203
1.509, 8.501, -0.203
1.482, 8.507, -0.203
1.455, 8.512, -0.203
1.427, 8.518, -0.203
1.400, 8.523, -0.203
1.373, 8.528, -0.203
1.345, 8.534, -0.203
1.317, 8.532, -0.203
1.290, 8.537, -0.203
1.262, 8.543, -0.203
1.235, 8.548, -0.203
1.208, 8.553, -0.203
2.192, 8.864, -0.203
2.165, 8.879, -0.203
2.135, 8.884, -0.203
2.106, 8.890, -0.203
2.076, 8.896, -0.203
2.047, 8.902, -0.203
2.017, 8.908, -0.203
1.988, 8.914, -0.203
1.961, 8.928, -0.203
1.931, 8.934, -0.203
1.902, 8.940, -0.203
1.872, 8.946, -0.203
1.843, 8.951, -0.203
1.813, 8.957, -0.203
1.784, 8.963, -0.203
1.755, 8.969, -0.203
1.725, 8.975, -0.203
1.696, 8.981, -0.203
1.666, 8.987, -0.203
1.637, 8.992, -0.203
1.607, 8.998, -0.203
1.578, 9.004, -0.203
1.548, 9.010, -0.203
1.519, 9.016, -0.203
1.488, 9.013, -0.203
1.459, 9.019, -0.203
1.429, 9.024, -0.203
1.400, 9.030, -0.203
1.371, 9.036, -0.203
1.341, 9.042, -0.203
1.312, 9.048, -0.203
1.281, 9.045, -0.203
2.355, 9.432, -0.203
2.323, 9.438, -0.203
2.291, 9.445, -0.203
2.259, 9.451, -0.203
2.230, 9.467, -0.203
2.198, 9.474, -0.203
2.166, 9.480, -0.203
2.134, 9.486, -0.203
2.102, 9.492, -0.203
2.070, 9.499, -0.203
2.038, 9.505, -0.203
2.006, 9.511, -0.203
1.974, 9.517, -0.203
1.943, 9.524, -0.203
1.911, 9.530, -0.203
1.879, 9.536, -0.203
1.847, 9.543, -0.203
1.815, 9.549, -0.203
1.783, 9.555, -0.203
1.751, 9.561, -0.203
1.720, 9.568, -0.203
1.688, 9.574, -0.203
1.656, 9.580, -0.203
1.624, 9.586, -0.203
1.592, 9.593, -0.203
1.560, 9.599, -0.203
1.529, 9.605, -0.203
1.497, 9.611, -0.203
1.463, 9.607, -0.203
1.432, 9.614, -0.203
1.400, 9.620, -0.203
1.368, 9.626, -0.203
2.547, 10.103, -0.203
2.512, 10.110, -0.203
2.477, 10.117, -0.203
2.442, 10.123, -0.203
2.408, 10.130, -0.203
2.373, 10.137, -0.203
2.338, 10.144, -0.203
2.303, 10.150, -0.203
2.272, 10.169, -0.203
2.237, 10.176, -0.203
2.202, 10.183, -0.203
2.167, 10.190, -0.203
2.132, 10.196, -0.203
2.098, 10.203, -0.203
2.063, 10.210, -0.203
2.028, 10.217, -0.203
1.993, 10.223, -0.203
1.959, 10.230, -0.203
1.924, 10.237, -0.203
1.889, 10.244, -0.203
1.854, 10.250, -0.203
1.820, 10.257, -0.203
1.785, 10.264, -0.203
1.750, 10.271, -0.203
1.713, 10.265, -0.203
1.679, 10.272, -0.203
1.644, 10.279, -0.203
1.609, 10.286, -0.203
1.575, 10.292, -0.203
1.540, 10.299, -0.203
1.505, 10.306, -0.203
1.471, 10.312, -0.203
2.773, 10.893, -0.203
2.735, 10.900, -0.203
2.697, 10.908, -0.203
2.663, 10.930, -0.203
2.624, 10.937, -0.203
2.586, 10.944, -0.203
2.548, 10.952, -0.203
2.510, 10.959, -0.203
2.471, 10.967, -0.203
2.433, 10.974, -0.203
2.395, 10.981, -0.203
2.357, 10.989, -0.203
2.318, 10.996, -0.203
2.280, 11.003, -0.203
2.242, 11.011, -0.203
2.204, 11.018, -0.203
2.166, 11.025, -0.203
2.127, 11.033, -0.203
2.089, 11.040, -0.203
2.051, 11.047, -0.203
2.013, 11.055, -0.203
1.975, 11.062, -0.203
1.937, 11.069, -0.203
1.899, 11.077, -0.203
1.860, 11.084, -0.203
1.822, 11.091, -0.203
1.784, 11.099, -0.203
1.746, 11.106, -0.203
1.708, 11.113, -0.203
1.667, 11.106, -0.203
1.630, 11.113, -0.203
1.591, 11.121, -0.203
3.054, 11.873, -0.203
3.012, 11.881, -0.203
2.969, 11.889, -0.203
2.927, 11.897, -0.203
2.884, 11.905, -0.203
2.842, 11.913, -0.203
2.799, 11.921, -0.203
2.757, 11.929, -0.203
2.714, 11.937, -0.203
2.677, 11.963, -0.203
2.634, 11.971, -0.203
2.592, 11.979, -0.203
2.549, 11.987, -0.203
2.507, 11.995, -0.203
2.464, 12.003, -0.203
2.422, 12.011, -0.203
2.379, 12.019, -0.203
2.337, 12.027, -0.203
2.294, 12.035, -0.203
2.252, 12.044, -0.203
2.210, 12.052, -0.203
2.167, 12.060, -0.203
2.125, 12.068, -0.203
2.079, 12.058, -0.203
2.037, 12.066, -0.203
1.994, 12.074, -0.203
1.952, 12.082, -0.203
1.910, 12.090, -0.203
1.868, 12.098, -0.203
1.826, 12.106, -0.203
1.783, 12.114, -0.203
1.741, 12.122, -0.203
3.398, 13.073, -0.203
3.351, 13.082, -0.203
3.303, 13.090, -0.203
3.261, 13.122, -0.203
3.213, 13.131, -0.203
3.166, 13.140, -0.203
3.118, 13.149, -0.203
3.070, 13.158, -0.203
3.022, 13.166, -0.203
2.975, 13.175, -0.203
2.927, 13.184, -0.203
2.879, 13.193, -0.203
2.832, 13.202, -0.203
2.784, 13.211, -0.203
2.736, 13.220, -0.203
2.689, 13.229, -0.203
2.641, 13.238, -0.203
2.593, 13.246, -0.203
2.546, 13.255, -0.203
2.498, 13.264, -0.203
2.451, 13.273, -0.203
2.403, 13.282, -0.203
2.355, 13.291, -0.203
2.308, 13.300, -0.203
2.260, 13.309, -0.203
2.213, 13.317, -0.203
2.165, 13.326, -0.203
2.118, 13.335, -0.203
2.070, 13.344, -0.203
2.019, 13.330, -0.203
1.972, 13.339, -0.203
1.924, 13.348, -0.203
3.846, 14.636, -0.203
3.792, 14.646, -0.203
3.737, 14.655, -0.203
3.683, 14.665, -0.203
3.628, 14.675, -0.203
3.574, 14.685, -0.203
3.519, 14.695, -0.203
3.465, 14.705, -0.203
3.410, 14.715, -0.203
3.356, 14.725, -0.203
3.302, 14.735, -0.203
3.247, 14.745, -0.203
3.193, 14.755, -0.203
3.138, 14.764, -0.203
3.084, 14.774, -0.203
3.030, 14.784, -0.203
2.975, 14.794, -0.203
2.921, 14.804, -0.203
2.867, 14.814, -0.203
2.813, 14.824, -0.203
2.758, 14.834, -0.203
2.704, 14.844, -0.203
2.650, 14.853, -0.203
2.596, 14.863, -0.203
2.541, 14.873, -0.203
2.487, 14.883, -0.203
2.433, 14.893, -0.203
2.379, 14.903, -0.203
2.325, 14.913, -0.203
2.271, 14.923, -0.203
2.217, 14.932, -0.203
2.163, 14.942, -0.203
4.431, 16.674, -0.203
4.367, 16.685, -0.203
4.304, 16.697, -0.203
4.240, 16.708, -0.203
4.177, 16.719, -0.203
4.114, 16.730, -0.203
4.061, 16.781, -0.203
3.997, 16.792, -0.203
3.934, 16.804, -0.203
3.870, 16.815, -0.203
3.807, 16.826, -0.203
3.743, 16.837, -0.203
3.680, 16.848, -0.203
3.616, 16.860, -0.203
3.553, 16.871, -0.203
3.490, 16.882, -0.203
3.427, 16.893, -0.203
3.363, 16.904, -0.203
3.300, 16.915, -0.203
3.237, 16.927, -0.203
3.173, 16.938, -0.203
3.110, 16.949, -0.203
3.047, 16.960, -0.203
2.984, 16.971, -0.203
2.921, 16.982, -0.203
2.858, 16.993, -0.203
2.788, 16.964, -0.203
2.725, 16.976, -0.203
2.662, 16.987, -0.203
2.599, 16.998, -0.203
2.536, 17.009, -0.203
2.473, 17.020, -0.203
4.692, 17.585, -0.141
4.692, 17.836, -0.148
4.692, 18.094, -0.156
4.692, 18.361, -0.164
4.692, 18.636, -0.172
4.692, 18.920, -0.181
4.692, 19.213, -0.190
4.692, 19.516, -0.199
4.649, 19.659, -0.203
4.573, 19.671, -0.203
4.497, 19.684, -0.203
4.421, 19.697, -0.203
4.346, 19.710, -0.203
4.270, 19.723, -0.203
4.194, 19.735, -0.203
4.118, 19.748, -0.203
4.043, 19.761, -0.203
3.967, 19.774, -0.203
3.891, 19.787, -0.203
3.816, 19.799, -0.203
3.740, 19.812, -0.203
3.665, 19.825, -0.203
3.589, 19.838, -0.203
3.514, 19.850, -0.203
3.438, 19.863, -0.203
3.363, 19.876, -0.203
3.288, 19.889, -0.203
3.212, 19.901, -0.203
3.137, 19.914, -0.203
3.062, 19.927, -0.203
2.987, 19.939, -0.203
2.911, 19.952, -0.203
5.396, 20.043, -0.108
5.318, 20.055, -0.108
5.239, 20.067, -0.108
5.161, 20.080, -0.108
5.083, 20.092, -0.108
5.004, 20.104, -0.108
4.926, 20.117, -0.108
4.848, 20.129, -0.108
4.770, 20.141, -0.108
4.692, 20.154, -0.108
4.692, 20.490, -0.116
4.692, 20.837, -0.125
4.691, 21.197, -0.134
4.691, 21.571, -0.143
4.691, 21.958, -0.152
4.691, 22.361, -0.162
4.691, 22.779, -0.172
4.691, 23.215, -0.183
4.691, 23.668, -0.194
4.672, 24.045, -0.203
4.578, 24.059, -0.203
4.484, 24.074, -0.203
4.391, 24.089, -0.203
4.297, 24.104, -0.203
4.203, 24.118, -0.203
4.110, 24.133, -0.203
4.016, 24.148, -0.203
3.923, 24.162, -0.203
3.829, 24.177, -0.203
3.736, 24.192, -0.203
3.643, 24.206, -0.203
3.549, 24.221, -0.203
6.892, 25.261, -0.099
6.892, 25.635, -0.106
6.820, 25.760, -0.108
6.716, 25.775, -0.108
6.612, 25.789, -0.108
6.542, 25.929, -0.108
6.438, 25.943, -0.108
6.334, 25.958, -0.108
6.230, 25.972, -0.108
6.126, 25.987, -0.108
6.023, 26.001, -0.108
5.919, 26.015, -0.108
5.816, 26.030, -0.108
4.916, 22.558, -0.042
4.828, 22.571, -0.042
4.759, 22.669, -0.043
5.402, 26.087, -0.108
5.299, 26.101, -0.108
5.195, 26.115, -0.108
5.092, 26.130, -0.108
4.989, 26.144, -0.108
4.886, 26.158, -0.108
4.783, 26.173, -0.108
4.691, 26.243, -0.109
4.691, 26.830, -0.120
4.691, 27.445, -0.132
4.691, 28.090, -0.143
4.691, 28.768, -0.159
4.691, 29.480, -0.172
4.691, 30.230, -0.186
4.690, 31.020, -0.201
4.587, 31.161, -0.203
6.892, 25.262, 0.045
6.892, 25.636, 0.041
6.892, 26.022, 0.036
6.892, 26.420, 0.031
6.812, 26.535, 0.029
6.892, 27.255, 0.020
6.892, 27.693, 0.014
6.892, 28.145, 0.009
6.892, 28.613, 0.003
6.892, 29.097, -0.004
6.892, 29.598, -0.010
6.842, 29.909, -0.014
6.916, 30.759, -0.025
4.921, 22.580, 0.082
4.833, 22.592, 0.082
6.891, 32.393, -0.046
6.891, 33.018, -0.054
6.891, 33.668, -0.062
6.891, 34.345, -0.071
6.891, 35.050, -0.080
6.891, 35.785, -0.089
7.030, 37.273, -0.108
6.879, 37.289, -0.108
6.728, 37.304, -0.108
6.577, 37.320, -0.108
6.426, 37.335, -0.108
6.275, 37.351, -0.108
4.870, 29.842, -0.010
5.974, 37.382, -0.108
5.823, 37.397, -0.108
5.673, 37.413, -0.108
5.523, 37.428, -0.108
6.892, 25.263, 0.187
6.892, 25.637, 0.185
6.892, 26.023, 0.182
6.892, 26.421, 0.179
6.812, 26.536, 0.178
6.892, 27.256, 0.173
6.892, 27.694, 0.170
6.892, 28.146, 0.167
6.892, 28.614, 0.164
6.892, 29.098, 0.160
6.892, 29.599, 0.157
6.842, 29.909, 0.155
6.915, 30.759, 0.149
4.922, 22.586, 0.206
4.834, 22.598, 0.206
6.891, 32.395, 0.137
6.891, 33.019, 0.133
6.891, 33.670, 0.128
6.891, 34.346, 0.124
6.891, 35.051, 0.119
6.891, 35.786, 0.114
9.149, 48.259, 0.026
8.946, 48.259, 0.026
8.744, 48.259, 0.026
8.543, 48.259, 0.026
8.342, 48.259, 0.026
8.141, 48.259, 0.026
4.868, 29.836, 0.155
7.740, 48.259, 0.026
7.540, 48.259, 0.026
7.341, 48.259, 0.026
7.142, 48.259, 0.026
6.892, 25.264, 0.332
6.892, 25.638, 0.331
6.892, 26.024, 0.331
6.892, 26.422, 0.330
6.812, 26.536, 0.330
6.892, 27.257, 0.327
6.892, 27.695, 0.326
6.892, 28.147, 0.326
6.892, 28.615, 0.325
6.892, 29.100, 0.325
6.892, 29.601, 0.324
6.842, 29.909, 0.323
6.915, 30.759, 0.322
4.931, 22.625, 0.330
4.841, 22.629, 0.330
6.891, 32.396, 0.320
6.891, 33.021, 0.320
6.891, 33.671, 0.319
6.891, 34.347, 0.318
6.891, 35.052, 0.317
6.891, 35.787, 0.316
9.148, 48.259, 0.303
8.946, 48.259, 0.303
8.744, 48.259, 0.303
8.543, 48.259, 0.303
8.341, 48.259, 0.302
8.140, 48.259, 0.302
4.869, 29.838, 0.324
7.740, 48.259, 0.306
7.540, 48.259, 0.306
7.341, 48.259, 0.306
7.142, 48.259, 0.305
6.892, 25.265, 0.474
6.892, 25.639, 0.475
6.892, 26.025, 0.477
6.892, 26.423, 0.479
6.811, 26.534, 0.479
6.892, 27.258, 0.483
6.892, 27.696, 0.485
6.892, 28.149, 0.487
6.892, 28.617, 0.489
6.892, 29.101, 0.491
6.892, 29.602, 0.494
6.841, 29.909, 0.495
6.915, 30.759, 0.499
4.932, 22.627, 0.457
4.841, 22.631, 0.457
6.891, 32.397, 0.506
6.891, 33.022, 0.509
6.891, 33.672, 0.512
6.891, 34.349, 0.515
6.891, 35.054, 0.519
6.891, 35.788, 0.522
9.148, 48.259, 0.585
8.946, 48.259, 0.585
8.744, 48.259, 0.584
8.542, 48.259, 0.584
7.993, 46.272, 0.573
8.140, 48.259, 0.583
4.872, 29.858, 0.490
7.740, 48.259, 0.582
7.540, 48.259, 0.581
7.340, 48.259, 0.581
7.141, 48.259, 0.580
6.892, 25.266, 0.616
6.888, 25.626, 0.619
6.884, 25.997, 0.623
6.879, 26.378, 0.627
6.812, 26.536, 0.629
6.870, 27.176, 0.635
6.865, 27.593, 0.640
6.860, 28.024, 0.644
6.854, 28.469, 0.649
6.849, 28.929, 0.653
6.844, 29.406, 0.658
6.840, 29.906, 0.664
6.914, 30.759, 0.673
4.932, 22.630, 0.581
4.841, 22.633, 0.581
6.823, 32.088, 0.686
6.819, 32.685, 0.692
6.815, 33.310, 0.699
6.815, 33.979, 0.706
6.815, 34.676, 0.713
6.815, 35.403, 0.720
6.814, 36.161, 0.728
8.938, 48.222, 0.861
8.737, 48.222, 0.860
8.535, 48.222, 0.859
8.334, 48.222, 0.859
4.997, 29.884, 0.656
4.876, 29.882, 0.656
7.733, 48.222, 0.857
7.534, 48.222, 0.856
7.335, 48.222, 0.855
7.136, 48.222, 0.854
6.816, 25.001, 0.755
6.816, 25.371, 0.761
6.816, 25.752, 0.768
6.816, 26.146, 0.774
6.811, 26.536, 0.780
6.815, 26.971, 0.787
6.815, 27.404, 0.792
6.715, 27.457, 0.792
6.892, 28.619, 0.812
6.812, 28.781, 0.814
6.733, 28.946, 0.816
6.652, 29.112, 0.818
6.914, 30.759, 0.846
4.932, 22.632, 0.706
4.842, 22.635, 0.705
6.869, 32.299, 0.871
6.891, 33.025, 0.883
6.891, 33.675, 0.893
6.891, 34.351, 0.904
6.805, 34.631, 0.908
6.883, 35.752, 0.927
6.761, 35.885, 0.928
6.654, 36.105, 0.931
8.736, 48.222, 1.137
8.535, 48.222, 1.136
8.334, 48.222, 1.135
4.995, 29.876, 0.825
7.933, 48.222, 1.137
7.733, 48.222, 1.136
7.534, 48.222, 1.135
7.334, 48.222, 1.134
7.135, 48.222, 1.133
6.892, 25.268, 0.902
6.892, 25.643, 0.910
6.819, 25.767, 0.913
6.751, 25.909, 0.915
6.681, 26.052, 0.918
6.892, 27.262, 0.946
6.892, 27.699, 0.955
6.704, 27.415, 0.948
6.892, 28.620, 0.976
6.812, 28.781, 0.979
6.732, 28.946, 0.982
6.652, 29.112, 0.985
6.914, 30.759, 1.023
4.922, 22.586, 0.831
4.833, 22.597, 0.831
6.869, 32.300, 1.056
6.891, 33.026, 1.072
6.891, 33.676, 1.087
6.891, 34.352, 1.101
6.805, 34.630, 1.107
6.883, 35.752, 1.132
6.761, 35.886, 1.134
6.654, 36.106, 1.139
8.736, 48.222, 1.418
8.535, 48.222, 1.416
8.334, 48.222, 1.415
5.000, 29.902, 0.992
4.876, 29.888, 0.991
7.733, 48.222, 1.411
7.533, 48.222, 1.410
7.334, 48.222, 1.409
7.135, 48.222, 1.408
6.892, 25.269, 1.046
6.892, 25.644, 1.057
6.819, 25.768, 1.060
6.750, 25.909, 1.061
6.681, 26.053, 1.064
6.892, 27.263, 1.099
6.892, 27.701, 1.111
6.703, 27.414, 1.102
6.892, 28.621, 1.137
6.812, 28.782, 1.141
6.732, 28.946, 1.145
6.651, 29.113, 1.149
6.914, 30.759, 1.196
4.933, 22.639, 0.956
4.843, 22.643, 0.956
6.869, 32.302, 1.239
6.891, 33.027, 1.259
6.891, 33.677, 1.277
6.891, 34.354, 1.296
6.804, 34.629, 1.303
6.883, 35.752, 1.334
6.761, 35.886, 1.337
6.654, 36.106, 1.343
8.736, 48.222, 1.694
8.534, 48.222, 1.692
8.333, 48.222, 1.691
8.133, 48.222, 1.689
4.873, 29.869, 1.156
7.733, 48.222, 1.686
7.533, 48.222, 1.689
7.334, 48.222, 1.688
7.135, 48.222, 1.686
6.892, 25.270, 1.188
6.892, 25.645, 1.201
6.819, 25.768, 1.204
6.750, 25.910, 1.209
6.681, 26.053, 1.213
6.892, 27.264, 1.255
6.892, 27.702, 1.270
6.703, 27.413, 1.259
6.892, 28.622, 1.301
6.812, 28.782, 1.303
6.732, 28.947, 1.308
6.651, 29.113, 1.312
6.913, 30.759, 1.370
4.928, 22.614, 1.080
4.838, 22.621, 1.079
6.869, 32.303, 1.421
6.891, 33.028, 1.446
6.891, 33.678, 1.467
6.891, 34.355, 1.490
6.804, 34.628, 1.498
6.883, 35.752, 1.537
6.761, 35.886, 1.540
6.654, 36.106, 1.547
8.735, 48.222, 1.975
8.534, 48.222, 1.973
8.333, 48.222, 1.971
8.132, 48.222, 1.969
4.872, 29.866, 1.325
7.732, 48.222, 1.966
7.533, 48.222, 1.964
7.334, 48.222, 1.962
7.135, 48.222, 1.961
6.892, 25.271, 1.333
6.892, 25.646, 1.347
6.819, 25.768, 1.352
6.750, 25.910, 1.354
6.680, 26.053, 1.359
6.892, 27.265, 1.409
6.892, 27.703, 1.426
6.702, 27.412, 1.413
6.892, 28.624, 1.462
6.812, 28.783, 1.468
6.732, 28.947, 1.473
6.651, 29.113, 1.479
6.913, 30.759, 1.546
4.942, 22.679, 1.209
4.847, 22.662, 1.207
6.869, 32.304, 1.607
6.891, 33.030, 1.635
6.891, 33.680, 1.661
6.891, 34.356, 1.687
6.804, 34.627, 1.697
6.882, 35.752, 1.742
6.760, 35.887, 1.746
6.654, 36.107, 1.754
8.735, 48.222, 2.251
8.534, 48.222, 2.249
8.333, 48.222, 2.247
8.132, 48.222, 2.245
4.872, 29.863, 1.491
7.732, 48.222, 2.241
7.533, 48.222, 2.243
7.333, 48.222, 2.241
7.135, 48.222, 2.239
6.892, 25.272, 1.475
6.892, 25.647, 1.492
6.819, 25.769, 1.496
6.750, 25.911, 1.502
6.680, 26.054, 1.508
6.892, 27.266, 1.565
6.892, 27.704, 1.584
6.701, 27.410, 1.569
6.892, 28.625, 1.623
6.812, 28.783, 1.630
6.732, 28.948, 1.636
6.651, 29.114, 1.643
6.913, 30.759, 1.720
4.942, 22.681, 1.334
4.847, 22.663, 1.332
6.869, 32.305, 1.789
6.891, 33.031, 1.822
6.891, 33.681, 1.851
6.891, 34.358, 1.882
6.803, 34.626, 1.893
6.882, 35.752, 1.944
6.760, 35.887, 1.949
6.654, 36.107, 1.958
8.735, 48.222, 2.527
8.533, 48.222, 2.529
8.333, 48.222, 2.527
8.132, 48.222, 2.525
4.874, 29.878, 1.660
7.732, 48.222, 2.520
7.532, 48.222, 2.518
7.333, 48.222, 2.516
7.134, 48.222, 2.514
6.892, 25.273, 1.619
6.892, 25.648, 1.638
6.818, 25.769, 1.643
6.750, 25.911, 1.650
6.680, 26.054, 1.654
6.892, 27.267, 1.718
6.892, 27.705, 1.740
6.701, 27.409, 1.723
6.892, 28.626, 1.787
6.811, 28.783, 1.794
6.731, 28.948, 1.802
6.651, 29.114, 1.809
6.912, 30.759, 1.896
4.942, 22.682, 1.460
4.847, 22.664, 1.458
6.869, 32.307, 1.974
6.891, 33.032, 2.012
6.891, 33.682, 2.045
6.891, 34.359, 2.079
6.803, 34.625, 2.092
6.882, 35.752, 2.150
6.760, 35.888, 2.155
6.653, 36.107, 2.165
8.734, 48.222, 2.808
8.533, 48.222, 2.805
8.332, 48.222, 2.803
8.132, 48.222, 2.800
4.876, 29.892, 1.827
7.732, 48.222, 2.800
7.532, 48.222, 2.797
7.333, 48.222, 2.795
7.134, 48.222, 2.792
6.892, 25.274, 1.763
6.892, 25.649, 1.782
6.818, 25.770, 1.788
6.749, 25.911, 1.795
6.680, 26.055, 1.802
6.892, 27.268, 1.874
6.892, 27.706, 1.899
6.700, 27.408, 1.879
6.892, 28.627, 1.948
6.811, 28.784, 1.956
6.731, 28.948, 1.965
6.651, 29.115, 1.973
6.912, 30.759, 2.070
4.942, 22.683, 1.585
4.847, 22.665, 1.583
6.869, 32.308, 2.157
6.891, 33.033, 2.198
6.891, 33.683, 2.235
6.891, 34.360, 2.273
6.802, 34.625, 2.287
6.869, 35.689, 2.348
9.138, 48.222, 3.090
8.936, 48.222, 3.087
8.734, 48.222, 3.084
8.533, 48.222, 3.086
8.332, 48.222, 3.083
4.995, 29.881, 1.996
4.870, 29.855, 1.993
7.731, 48.222, 3.075
7.532, 48.222, 3.072
7.333, 48.222, 3.069
7.134, 48.222, 3.071
6.892, 25.276, 1.905
6.892, 25.650, 1.929
6.818, 25.770, 1.935
6.749, 25.912, 1.943
6.680, 26.055, 1.951
6.892, 27.269, 2.028
6.892, 27.707, 2.055
6.700, 27.406, 2.033
6.892, 28.628, 2.112
6.811, 28.784, 2.121
6.731, 28.949, 2.130
6.650, 29.115, 2.139
6.912, 30.759, 2.246
4.943, 22.684, 1.712
4.847, 22.666, 1.709
6.869, 32.309, 2.342
6.891, 33.035, 2.388
6.891, 33.685, 2.428
6.891, 34.361, 2.471
6.891, 35.066, 2.515
6.891, 35.801, 2.561
9.137, 48.222, 3.371
8.935, 48.222, 3.368
5.339, 29.777, 2.161
5.256, 29.988, 2.173
5.158, 30.124, 2.180
4.971, 29.741, 2.153
7.931, 48.222, 3.357
4.753, 29.877, 2.161
7.532, 48.222, 3.351
7.333, 48.222, 3.348
7.134, 48.222, 3.345
6.892, 25.277, 2.050
6.892, 25.651, 2.075
6.818, 25.770, 2.082
6.749, 25.912, 2.088
6.680, 26.055, 2.097
6.892, 27.271, 2.183
6.892, 27.709, 2.213
6.699, 27.405, 2.190
6.892, 28.629, 2.276
6.811, 28.785, 2.286
6.731, 28.949, 2.296
6.650, 29.115, 2.303
6.815, 30.344, 2.389
4.943, 22.686, 1.836
4.847, 22.667, 1.833
6.891, 32.411, 2.532
6.891, 33.036, 2.574
6.891, 33.686, 2.619
6.890, 34.358, 2.665
6.891, 35.068, 2.713
6.891, 35.803, 2.763
9.137, 48.222, 3.652
5.446, 29.703, 2.326
5.377, 29.986, 2.344
5.482, 31.246, 2.432
8.331, 48.222, 3.639
4.944, 29.586, 2.310
7.931, 48.222, 3.632
7.731, 48.222, 3.629
4.770, 30.745, 2.389
4.720, 31.229, 2.422
7.134, 48.222, 3.624
6.892, 25.278, 2.194
6.892, 25.652, 2.222
6.818, 25.771, 2.227
6.749, 25.913, 2.236
6.679, 26.056, 2.246
6.892, 27.272, 2.339
6.891, 27.709, 2.372
6.892, 28.162, 2.406
6.892, 28.631, 2.438
6.892, 29.115, 2.473
6.892, 29.616, 2.511
6.891, 30.135, 2.549
6.891, 30.673, 2.589
4.943, 22.687, 1.963
4.847, 22.668, 1.960
6.181, 29.169, 2.465
6.014, 28.952, 2.446
5.916, 29.050, 2.451
6.830, 34.069, 2.839
5.967, 30.482, 2.559
5.894, 30.747, 2.577
6.408, 34.069, 2.832
5.482, 29.897, 2.507
6.129, 34.069, 2.827
5.989, 34.069, 2.828
5.246, 30.624, 2.559
5.314, 31.753, 2.644
4.911, 30.102, 2.515
4.947, 31.076, 2.587
7.531, 48.222, 3.905
7.332, 48.222, 3.906
4.396, 29.903, 2.494
6.884, 25.252, 2.336
6.870, 25.575, 2.362
6.892, 26.040, 2.397
6.892, 26.438, 2.429
6.808, 26.538, 2.435
6.892, 27.273, 2.495
6.892, 27.711, 2.530
6.892, 28.164, 2.564
6.892, 28.632, 2.601
6.892, 29.116, 2.640
6.892, 29.617, 2.680
6.891, 30.136, 2.722
6.891, 30.675, 2.765
4.943, 22.688, 2.090
4.847, 22.669, 2.086
6.179, 29.163, 2.631
6.080, 29.260, 2.636
5.947, 29.199, 2.629
5.951, 29.799, 2.677
5.754, 29.429, 2.644
5.778, 30.160, 2.703
5.642, 30.096, 2.695
5.478, 29.872, 2.674
5.167, 28.845, 2.586
5.327, 30.387, 2.712
5.410, 31.564, 2.811
4.979, 29.793, 2.661
5.071, 31.063, 2.764
4.732, 29.752, 2.653
4.759, 30.676, 2.728
4.736, 31.331, 2.782
4.555, 30.965, 2.750
6.892, 25.280, 2.482
6.892, 25.655, 2.512
6.892, 26.041, 2.545
6.892, 26.439, 2.580
6.808, 26.538, 2.586
6.891, 27.270, 2.651
6.892, 27.712, 2.686
6.892, 28.165, 2.725
6.892, 28.633, 2.765
6.855, 28.967, 2.793
6.797, 29.227, 2.814
6.676, 29.227, 2.812
6.555, 29.227, 2.810
6.434, 29.227, 2.807
4.847, 22.670, 2.213
6.177, 29.157, 2.796
5.770, 27.818, 2.673
5.701, 28.030, 2.690
5.619, 28.190, 2.702
5.866, 29.985, 2.861
5.891, 30.735, 2.926
5.326, 28.455, 2.719
5.256, 28.698, 2.738
5.447, 30.365, 2.885
5.061, 28.906, 2.752
4.971, 29.060, 2.763
4.979, 29.795, 2.829
4.885, 29.951, 2.841
4.732, 29.750, 2.821
4.769, 30.741, 2.906
7.332, 48.222, 4.459
7.133, 48.222, 4.460
6.892, 25.281, 2.627
6.891, 25.652, 2.658
6.892, 26.042, 2.694
6.892, 26.440, 2.731
6.808, 26.538, 2.738
6.855, 27.136, 2.794
6.855, 27.571, 2.831
6.855, 28.021, 2.872
6.892, 28.634, 2.929
6.892, 29.118, 2.974
6.804, 29.259, 2.985
6.853, 29.975, 3.051
6.784, 30.215, 3.072
6.799, 30.828, 3.128
4.847, 22.671, 2.337
6.199, 29.259, 2.969
6.211, 29.871, 3.025
6.085, 29.860, 3.022
5.582, 28.010, 2.844
5.492, 28.129, 2.853
5.401, 28.248, 2.862
5.309, 28.369, 2.871
5.134, 28.048, 2.838
5.245, 29.270, 2.952
5.086, 29.049, 2.929
4.989, 29.164, 2.937
4.891, 29.282, 2.949
4.807, 29.482, 2.965
4.898, 30.774, 3.086
4.608, 29.726, 2.983
7.331, 48.222, 4.738
7.133, 48.222, 4.738
6.892, 25.282, 2.771
6.851, 25.511, 2.793
6.757, 25.557, 2.793
6.657, 25.581, 2.793
6.557, 25.604, 2.793
6.457, 25.627, 2.793
6.363, 25.673, 2.793
6.262, 25.697, 2.793
6.162, 25.720, 2.793
6.062, 25.743, 2.793
5.961, 25.766, 2.793
5.866, 25.813, 2.795
5.866, 26.268, 2.839
6.547, 29.727, 3.189
4.847, 22.672, 2.464
6.257, 29.524, 3.163
6.079, 29.259, 3.133
5.695, 28.007, 3.002
5.581, 28.006, 3.000
5.526, 28.299, 3.030
5.511, 28.812, 3.079
5.311, 28.378, 3.032
5.213, 28.474, 3.039
4.984, 27.851, 2.974
5.010, 28.624, 3.049
4.978, 29.102, 3.095
4.893, 29.290, 3.114
4.792, 29.394, 3.122
4.591, 28.883, 3.068
4.564, 29.447, 3.122
4.458, 29.525, 3.130
4.351, 29.603, 3.135
4.499, 16.928, 1.993
6.549, 24.441, 2.820
6.447, 24.441, 2.815
6.346, 24.441, 2.813
6.245, 24.441, 2.810
6.144, 24.441, 2.808
6.043, 24.441, 2.803
4.172, 17.495, 2.041
4.118, 17.557, 2.046
5.866, 24.950, 2.852
5.891, 25.479, 2.907
6.023, 26.473, 3.013
5.891, 26.377, 3.000
6.582, 29.879, 3.378
4.847, 22.673, 2.590
6.307, 29.750, 3.355
6.027, 29.019, 3.273
5.833, 28.664, 3.232
5.609, 28.142, 3.175
5.505, 28.200, 3.179
5.431, 28.402, 3.198
5.298, 28.315, 3.186
5.136, 28.064, 3.156
4.991, 27.891, 3.135
5.006, 28.603, 3.209
4.896, 28.635, 3.209
4.870, 29.160, 3.266
4.791, 29.391, 3.288
4.586, 28.854, 3.227
4.466, 28.828, 3.222
4.456, 29.513, 3.295
4.350, 29.596, 3.301
4.471, 16.832, 2.075
6.776, 25.246, 3.053
6.843, 25.868, 3.122
6.892, 26.443, 3.184
6.253, 24.473, 2.953
6.892, 27.279, 3.275
6.892, 27.717, 3.323
4.172, 17.496, 2.137
4.115, 17.543, 2.140
4.057, 17.589, 2.144
3.998, 17.636, 2.147
6.682, 29.259, 3.483
6.784, 30.216, 3.590
6.546, 29.722, 3.530
4.847, 22.674, 2.719
6.051, 28.587, 3.394
5.959, 28.705, 3.405
5.721, 28.129, 3.336
5.705, 28.613, 3.388
5.485, 28.101, 3.327
5.382, 28.158, 3.331
5.360, 28.636, 3.382
5.130, 28.032, 3.310
5.135, 28.677, 3.381
5.017, 28.667, 3.377
4.894, 28.622, 3.372
4.886, 29.252, 3.440
4.986, 30.560, 3.586
4.781, 30.055, 3.525
4.826, 31.105, 3.644
4.531, 30.006, 3.516
4.347, 29.579, 3.465
4.441, 16.727, 2.155
6.775, 25.246, 3.196
6.843, 25.869, 3.270
6.892, 26.445, 3.337
4.309, 17.228, 2.206
6.892, 27.280, 3.431
3.790, 15.755, 2.023
4.168, 17.482, 2.232
4.111, 17.528, 2.234
3.938, 17.109, 2.181
3.870, 17.105, 2.179
3.802, 17.102, 2.177
3.734, 17.099, 2.175
3.667, 17.095, 2.172
4.847, 22.675, 2.845
6.196, 29.249, 3.637
3.453, 17.034, 2.160
5.877, 28.875, 3.585
5.647, 28.331, 3.517
5.556, 28.455, 3.528
5.433, 28.416, 3.521
5.326, 28.459, 3.523
5.218, 28.501, 3.525
4.990, 27.890, 3.448
4.938, 28.228, 3.489
4.974, 29.084, 3.588
5.111, 30.573, 3.763
4.696, 28.823, 3.551
4.826, 30.337, 3.731
4.676, 30.157, 3.706
4.452, 29.488, 3.623
4.232, 28.809, 3.542
6.828, 25.063, 3.322
6.775, 25.247, 3.343
4.289, 16.662, 2.233
4.221, 16.656, 2.230
4.154, 16.650, 2.227
4.165, 16.944, 2.262
3.797, 15.782, 2.111
4.096, 17.196, 2.290
3.625, 15.588, 2.083
4.049, 17.559, 2.333
3.889, 17.184, 2.282
3.932, 17.652, 2.339
3.744, 17.142, 2.272
3.672, 17.121, 2.268
3.601, 17.100, 2.263
6.182, 29.184, 3.795
3.458, 17.058, 2.254
3.316, 16.694, 2.206
3.318, 17.017, 2.246
5.539, 28.367, 3.678
5.454, 28.526, 3.695
5.369, 28.686, 3.712
5.228, 28.556, 3.695
5.119, 28.594, 3.697
4.917, 28.110, 3.633
5.233, 30.558, 3.937
5.174, 30.942, 3.982
4.883, 29.943, 3.856
4.718, 29.670, 3.818
4.682, 30.196, 3.881
4.427, 29.331, 3.772
4.302, 29.281, 3.762
4.782, 17.920, 2.500
4.296, 16.451, 2.298
6.843, 25.871, 3.568
4.399, 17.308, 2.408
4.275, 17.102, 2.378
4.120, 16.771, 2.332
3.770, 15.678, 2.183
4.161, 17.452, 2.418
3.686, 15.832, 2.199
3.621, 15.820, 2.195
3.987, 17.591, 2.431
3.822, 17.188, 2.375
3.870, 17.684, 2.439
6.797, 30.829, 4.190
3.513, 16.709, 2.305
3.451, 16.722, 2.303
3.387, 16.727, 2.302
3.320, 16.716, 2.300
3.253, 16.704, 2.297
5.520, 28.279, 3.830
5.437, 28.436, 3.847
5.371, 28.699, 3.878
5.299, 28.931, 3.906
5.149, 28.753, 3.879
5.082, 29.032, 3.912
4.968, 29.049, 3.914
4.821, 28.876, 3.888
4.692, 28.801, 3.874
4.700, 29.561, 3.971
4.596, 29.656, 3.983
4.489, 29.731, 3.989
4.303, 29.286, 3.930
4.483, 16.878, 2.451
4.448, 16.990, 2.465
4.411, 17.104, 2.477
3.944, 15.640, 2.269
3.890, 15.669, 2.271
3.900, 15.940, 2.306
4.038, 16.714, 2.413
3.706, 15.670, 2.264
3.614, 15.546, 2.245
3.622, 15.825, 2.282
3.556, 15.807, 2.277
3.819, 17.177, 2.466
3.982, 18.166, 2.602
3.648, 17.018, 2.440
4.847, 22.678, 3.227
3.454, 16.736, 2.397
3.392, 16.749, 2.396
3.324, 16.737, 2.393
5.885, 29.491, 4.161
3.190, 16.714, 2.386
3.124, 16.703, 2.382
5.447, 29.094, 4.095
5.345, 29.177, 4.106
5.234, 29.219, 4.108
5.053, 28.871, 4.056
5.012, 29.302, 4.112
4.791, 28.699, 4.026
4.715, 28.941, 4.058
4.583, 28.842, 4.041
4.546, 29.341, 4.106
4.411, 29.224, 4.089
4.306, 29.306, 4.097
4.141, 15.684, 2.368
4.719, 17.953, 2.700
4.395, 17.046, 2.564
4.358, 17.160, 2.578
3.953, 15.906, 2.390
3.906, 15.961, 2.396
3.773, 15.693, 2.355
3.713, 15.698, 2.354
3.665, 15.751, 2.358
3.689, 16.097, 2.407
3.571, 15.867, 2.371
3.494, 15.802, 2.360
3.528, 16.215, 2.418
3.599, 16.802, 2.502
3.526, 16.767, 2.494
3.456, 16.746, 2.489
3.437, 16.962, 2.519
6.732, 32.946, 4.836
3.266, 16.766, 2.486
3.198, 16.752, 2.482
3.130, 16.738, 2.478
5.392, 28.808, 4.221
5.290, 28.888, 4.229
5.193, 28.998, 4.241
5.085, 29.049, 4.247
4.998, 29.220, 4.268
4.886, 29.258, 4.270
4.775, 29.296, 4.272
4.568, 28.751, 4.192
4.436, 28.642, 4.173
4.411, 29.229, 4.254
4.282, 29.145, 4.241
4.591, 17.255, 2.696
4.062, 15.624, 2.441
3.994, 15.600, 2.436
3.936, 15.613, 2.436
3.878, 15.626, 2.434
3.884, 15.878, 2.471
3.726, 15.511, 2.413
3.704, 15.664, 2.433
3.878, 16.600, 2.573
3.608, 15.766, 2.444
3.561, 15.829, 2.452
3.828, 17.212, 2.660
3.431, 15.797, 2.441
3.435, 16.081, 2.483
3.631, 17.237, 2.656
3.395, 16.470, 2.537
3.390, 16.744, 2.577
3.327, 16.753, 2.576
5.733, 28.754, 4.387
3.202, 16.771, 2.575
5.493, 28.724, 4.378
5.388, 28.789, 4.384
5.310, 28.997, 4.411
5.182, 28.939, 4.399
9.433, 53.259, 8.051
5.002, 29.245, 4.440
4.825, 28.904, 4.384
4.672, 28.679, 4.347
4.767, 29.977, 4.540
4.543, 29.322, 4.438
4.412, 29.238, 4.422
4.392, 29.882, 4.517
4.584, 17.232, 2.788
3.983, 15.343, 2.482
3.978, 15.542, 2.512
3.920, 15.555, 2.510
3.862, 15.567, 2.510
3.807, 15.587, 2.511
3.709, 15.446, 2.485
3.668, 15.522, 2.495
3.644, 15.667, 2.516
3.798, 16.542, 2.653
3.514, 15.633, 2.507
3.463, 15.675, 2.510
3.565, 16.374, 2.619
3.395, 15.909, 2.543
3.626, 17.218, 2.747
3.451, 16.722, 2.667
3.420, 16.884, 2.690
3.380, 17.005, 2.707
5.712, 28.652, 4.537
5.848, 29.910, 4.730
5.492, 28.720, 4.539
5.389, 28.794, 4.550
5.284, 28.859, 4.556
5.155, 28.792, 4.541
5.164, 29.490, 4.647
5.115, 29.895, 4.706
4.800, 28.758, 4.527
4.683, 28.747, 4.521
4.662, 29.331, 4.608
4.639, 29.928, 4.700
4.513, 29.891, 4.690
4.387, 29.854, 4.683
4.373, 16.496, 2.761
4.511, 17.220, 2.878
4.347, 16.874, 2.818
3.887, 15.433, 2.576
3.848, 15.513, 2.586
3.792, 15.533, 2.587
3.737, 15.554, 2.587
3.685, 15.587, 2.590
3.633, 15.624, 2.594
3.624, 15.834, 2.627
3.557, 15.810, 2.621
3.488, 15.780, 2.612
3.431, 15.800, 2.613
3.375, 15.820, 2.614
3.499, 16.649, 2.748
3.510, 16.994, 2.803
3.373, 16.663, 2.746
3.307, 16.656, 2.743
3.241, 16.649, 2.739
3.176, 16.642, 2.736
5.554, 29.036, 4.756
5.356, 28.626, 4.687
5.260, 28.733, 4.701
5.279, 29.467, 4.816
5.229, 29.857, 4.875
4.983, 29.142, 4.755
4.862, 29.118, 4.750
4.828, 29.621, 4.827
4.649, 29.250, 4.765
4.538, 29.290, 4.768
4.427, 29.331, 4.770
4.394, 29.896, 4.860
4.354, 16.431, 2.841
4.520, 17.250, 2.980
4.252, 16.532, 2.852
3.963, 15.714, 2.709
3.903, 15.721, 2.706
3.781, 15.490, 2.664
3.730, 15.528, 2.669
3.679, 15.565, 2.671
3.628, 15.603, 2.676
3.576, 15.640, 2.680
3.525, 15.678, 2.684
3.477, 15.734, 2.690
3.640, 16.700, 2.853
6.891, 31.250, 5.331
4.847, 22.683, 3.867
3.390, 16.445, 2.802
3.320, 16.417, 2.795
3.239, 16.333, 2.778
6.836, 34.115, 5.793
3.172, 16.627, 2.824
3.163, 16.906, 2.868
6.428, 34.188, 5.793
6.293, 34.218, 5.793
5.161, 28.829, 4.877
5.228, 29.847, 5.045
5.080, 29.696, 5.018
4.858, 29.097, 4.913
4.737, 29.073, 4.904
4.616, 29.048, 4.898
4.495, 29.024, 4.890
4.376, 29.000, 4.884
7.882, 53.259, 8.956
0.672, 4.971, -0.203
0.660, 4.972, -0.203
0.647, 4.975, -0.203
0.635, 4.976, -0.203
0.623, 4.979, -0.203
0.610, 4.980, -0.203
0.598, 4.981, -0.203
0.585, 4.983, -0.203
0.573, 4.984, -0.203
0.560, 4.985, -0.203
0.548, 4.986, -0.203
0.535, 4.989, -0.203
0.523, 4.990, -0.203
0.510, 4.991, -0.203
0.498, 4.992, -0.203
0.485, 4.993, -0.203
0.473, 4.994, -0.203
0.460, 4.995, -0.203
0.448, 4.996, -0.203
0.435, 4.997, -0.203
0.423, 4.998, -0.203
0.410, 4.998, -0.203
0.398, 4.999, -0.203
0.385, 5.000, -0.203
0.373, 5.001, -0.203
0.360, 5.000, -0.203
0.348, 5.001, -0.203
0.335, 5.002, -0.203
0.323, 5.002, -0.203
0.310, 5.003, -0.203
0.297, 5.002, -0.203
0.285, 5.003, -0.203
0.687, 5.070, -0.203
0.674, 5.073, -0.203
0.661, 5.074, -0.203
0.649, 5.075, -0.203
0.636, 5.078, -0.203
0.623, 5.079, -0.203
0.610, 5.082, -0.203
0.597, 5.083, -0.203
0.584, 5.084, -0.203
0.571, 5.085, -0.203
0.558, 5.086, -0.203
0.546, 5.089, -0.203
0.533, 5.090, -0.203
0.520, 5.091, -0.203
0.507, 5.092, -0.203
0.494, 5.093, -0.203
0.481, 5.094, -0.203
0.468, 5.095, -0.203
0.455, 5.096, -0.203
0.442, 5.097, -0.203
0.429, 5.098, -0.203
0.416, 5.098, -0.203
0.403, 5.099, -0.203
0.390, 5.100, -0.203
0.377, 5.101, -0.203
0.364, 5.102, -0.203
0.351, 5.101, -0.203
0.338, 5.102, -0.203
0.325, 5.102, -0.203
0.312, 5.103, -0.203
0.300, 5.104, -0.203
0.287, 5.103, -0.203
0.703, 5.177, -0.203
0.690, 5.179, -0.203
0.676, 5.180, -0.203
0.663, 5.183, -0.203
0.650, 5.184, -0.203
0.636, 5.186, -0.203
0.623, 5.188, -0.203
0.610, 5.190, -0.203
0.597, 5.191, -0.203
0.583, 5.192, -0.203
0.570, 5.193, -0.203
0.557, 5.196, -0.203
0.543, 5.197, -0.203
0.530, 5.198, -0.203
0.516, 5.199, -0.203
0.503, 5.200, -0.203
0.490, 5.201, -0.203
0.476, 5.202, -0.203
0.463, 5.203, -0.203
0.449, 5.205, -0.203
0.436, 5.206, -0.203
0.422, 5.205, -0.203
0.409, 5.206, -0.203
0.396, 5.207, -0.203
0.382, 5.208, -0.203
0.369, 5.209, -0.203
0.355, 5.209, -0.203
0.342, 5.210, -0.203
0.329, 5.211, -0.203
0.315, 5.210, -0.203
0.302, 5.211, -0.203
0.289, 5.211, -0.203
0.720, 5.290, -0.203
0.706, 5.293, -0.203
0.692, 5.294, -0.203
0.679, 5.296, -0.203
0.665, 5.299, -0.203
0.651, 5.300, -0.203
0.637, 5.301, -0.203
0.624, 5.304, -0.203
0.610, 5.305, -0.203
0.596, 5.306, -0.203
0.582, 5.307, -0.203
0.568, 5.308, -0.203
0.554, 5.312, -0.203
0.541, 5.313, -0.203
0.527, 5.314, -0.203
0.513, 5.315, -0.203
0.499, 5.316, -0.203
0.485, 5.317, -0.203
0.471, 5.318, -0.203
0.457, 5.320, -0.203
0.443, 5.319, -0.203
0.429, 5.320, -0.203
0.416, 5.321, -0.203
0.402, 5.322, -0.203
0.388, 5.323, -0.203
0.374, 5.323, -0.203
0.360, 5.324, -0.203
0.346, 5.325, -0.203
0.332, 5.324, -0.203
0.318, 5.325, -0.203
0.304, 5.326, -0.203
0.291, 5.326, -0.203
0.738, 5.412, -0.203
0.724, 5.416, -0.203
0.710, 5.417, -0.203
0.695, 5.418, -0.203
0.681, 5.421, -0.203
0.667, 5.423, -0.203
0.652, 5.424, -0.203
0.638, 5.425, -0.203
0.624, 5.428, -0.203
0.609, 5.429, -0.203
0.595, 5.430, -0.203
0.581, 5.432, -0.203
0.566, 5.433, -0.203
0.552, 5.434, -0.203
0.537, 5.435, -0.203
0.523, 5.436, -0.203
0.509, 5.438, -0.203
0.494, 5.439, -0.203
0.480, 5.440, -0.203
0.466, 5.441, -0.203
0.451, 5.442, -0.203
0.437, 5.443, -0.203
0.422, 5.445, -0.203
0.408, 5.446, -0.203
0.393, 5.445, -0.203
0.379, 5.446, -0.203
0.365, 5.447, -0.203
0.350, 5.449, -0.203
0.336, 5.448, -0.203
0.322, 5.449, -0.203
0.307, 5.450, -0.203
0.293, 5.449, -0.203
0.758, 5.544, -0.203
0.743, 5.545, -0.203
0.728, 5.549, -0.203
0.713, 5.550, -0.203
0.698, 5.551, -0.203
0.684, 5.555, -0.203
0.669, 5.556, -0.203
0.654, 5.557, -0.203
0.639, 5.558, -0.203
0.624, 5.560, -0.203
0.609, 5.563, -0.203
0.594, 5.564, -0.203
0.579, 5.566, -0.203
0.564, 5.567, -0.203
0.549, 5.568, -0.203
0.534, 5.569, -0.203
0.520, 5.571, -0.203
0.505, 5.572, -0.203
0.490, 5.573, -0.203
0.475, 5.574, -0.203
0.460, 5.575, -0.203
0.445, 5.577, -0.203
0.430, 5.576, -0.203
0.415, 5.577, -0.203
0.400, 5.578, -0.203
0.385, 5.579, -0.203
0.370, 5.581, -0.203
0.355, 5.580, -0.203
0.340, 5.581, -0.203
0.325, 5.582, -0.203
0.310, 5.581, -0.203
0.295, 5.582, -0.203
0.779, 5.684, -0.203
0.764, 5.688, -0.203
0.748, 5.689, -0.203
0.733, 5.693, -0.203
0.717, 5.694, -0.203
0.702, 5.696, -0.203
0.686, 5.697, -0.203
0.671, 5.700, -0.203
0.655, 5.702, -0.203
0.640, 5.703, -0.203
0.624, 5.704, -0.203
0.609, 5.706, -0.203
0.593, 5.707, -0.203
0.578, 5.708, -0.203
0.562, 5.709, -0.203
0.547, 5.713, -0.203
0.531, 5.714, -0.203
0.515, 5.713, -0.203
0.500, 5.714, -0.203
0.484, 5.716, -0.203
0.469, 5.717, -0.203
0.453, 5.718, -0.203
0.438, 5.720, -0.203
0.422, 5.721, -0.203
0.406, 5.722, -0.203
0.391, 5.721, -0.203
0.375, 5.722, -0.203
0.360, 5.724, -0.203
0.344, 5.725, -0.203
0.329, 5.724, -0.203
0.313, 5.725, -0.203
0.297, 5.724, -0.203
0.802, 5.839, -0.203
0.786, 5.840, -0.203
0.770, 5.844, -0.203
0.754, 5.845, -0.203
0.737, 5.847, -0.203
0.722, 5.850, -0.203
0.705, 5.852, -0.203
0.689, 5.853, -0.203
0.673, 5.854, -0.203
0.657, 5.856, -0.203
0.641, 5.860, -0.203
0.625, 5.861, -0.203
0.608, 5.862, -0.203
0.592, 5.864, -0.203
0.576, 5.865, -0.203
0.560, 5.866, -0.203
0.544, 5.868, -0.203
0.527, 5.869, -0.203
0.511, 5.870, -0.203
0.495, 5.872, -0.203
0.479, 5.873, -0.203
0.463, 5.874, -0.203
0.446, 5.873, -0.203
0.430, 5.874, -0.203
0.414, 5.876, -0.203
0.398, 5.877, -0.203
0.381, 5.878, -0.203
0.365, 5.877, -0.203
0.349, 5.878, -0.203
0.333, 5.880, -0.203
0.316, 5.878, -0.203
0.300, 5.880, -0.203
0.826, 6.004, -0.203
0.810, 6.008, -0.203
0.793, 6.009, -0.203
0.776, 6.011, -0.203
0.760, 6.015, -0.203
0.743, 6.016, -0.203
0.726, 6.018, -0.203
0.709, 6.019, -0.203
0.692, 6.023, -0.203
0.675, 6.025, -0.203
0.659, 6.026, -0.203
0.642, 6.027, -0.203
0.625, 6.029, -0.203
0.608, 6.030, -0.203
0.591, 6.032, -0.203
0.574, 6.033, -0.203
0.557, 6.034, -0.203
0.540, 6.036, -0.203
0.523, 6.037, -0.203
0.506, 6.039, -0.203
0.489, 6.040, -0.203
0.472, 6.041, -0.203
0.456, 6.043, -0.203
0.439, 6.044, -0.203
0.422, 6.043, -0.203
0.405, 6.044, -0.203
0.388, 6.045, -0.203
0.371, 6.047, -0.203
0.354, 6.045, -0.203
0.337, 6.047, -0.203
0.320, 6.048, -0.203
0.303, 6.047, -0.203
0.854, 6.187, -0.203
0.836, 6.188, -0.203
0.818, 6.190, -0.203
0.801, 6.194, -0.203
0.784, 6.196, -0.203
0.766, 6.197, -0.203
0.748, 6.199, -0.203
0.731, 6.203, -0.203
0.713, 6.205, -0.203
0.696, 6.206, -0.203
0.678, 6.208, -0.203
0.660, 6.209, -0.203
0.642, 6.210, -0.203
0.625, 6.212, -0.203
0.607, 6.213, -0.203
0.589, 6.215, -0.203
0.572, 6.216, -0.203
0.554, 6.218, -0.203
0.536, 6.219, -0.203
0.519, 6.221, -0.203
0.501, 6.222, -0.203
0.483, 6.224, -0.203
0.466, 6.225, -0.203
0.448, 6.226, -0.203
0.430, 6.228, -0.203
0.412, 6.226, -0.203
0.395, 6.228, -0.203
0.377, 6.229, -0.203
0.359, 6.231, -0.203
0.342, 6.229, -0.203
0.324, 6.230, -0.203
0.306, 6.232, -0.203
0.883, 6.384, -0.203
0.865, 6.386, -0.203
0.847, 6.391, -0.203
0.828, 6.392, -0.203
0.810, 6.394, -0.203
0.791, 6.395, -0.203
0.773, 6.400, -0.203
0.755, 6.402, -0.203
0.736, 6.403, -0.203
0.718, 6.405, -0.203
0.699, 6.406, -0.203
0.681, 6.408, -0.203
0.662, 6.409, -0.203
0.643, 6.411, -0.203
0.625, 6.416, -0.203
0.607, 6.417, -0.203
0.588, 6.419, -0.203
0.570, 6.420, -0.203
0.551, 6.418, -0.203
0.532, 6.420, -0.203
0.514, 6.421, -0.203
0.495, 6.423, -0.203
0.477, 6.425, -0.203
0.458, 6.426, -0.203
0.440, 6.428, -0.203
0.421, 6.429, -0.203
0.402, 6.427, -0.203
0.384, 6.429, -0.203
0.365, 6.430, -0.203
0.347, 6.432, -0.203
0.328, 6.430, -0.203
0.310, 6.431, -0.203
0.916, 6.601, -0.203
0.896, 6.603, -0.203
0.877, 6.608, -0.203
0.858, 6.610, -0.203
0.838, 6.612, -0.203
0.819, 6.613, -0.203
0.800, 6.618, -0.203
0.781, 6.620, -0.203
0.761, 6.622, -0.203
0.742, 6.623, -0.203
0.722, 6.625, -0.203
0.703, 6.626, -0.203
0.683, 6.628, -0.203
0.664, 6.633, -0.203
0.645, 6.635, -0.203
0.625, 6.637, -0.203
0.606, 6.638, -0.203
0.586, 6.640, -0.203
0.567, 6.641, -0.203
0.547, 6.639, -0.203
0.528, 6.641, -0.203
0.508, 6.642, -0.203
0.489, 6.644, -0.203
0.469, 6.646, -0.203
0.450, 6.647, -0.203
0.431, 6.649, -0.203
0.411, 6.647, -0.203
0.391, 6.648, -0.203
0.372, 6.650, -0.203
0.353, 6.651, -0.203
0.333, 6.649, -0.203
0.314, 6.651, -0.203
0.952, 6.841, -0.203
0.932, 6.847, -0.203
0.911, 6.849, -0.203
0.891, 6.851, -0.203
0.870, 6.852, -0.203
0.850, 6.854, -0.203
0.830, 6.860, -0.203
0.809, 6.861, -0.203
0.789, 6.863, -0.203
0.769, 6.865, -0.203
0.748, 6.866, -0.203
0.728, 6.868, -0.203
0.707, 6.870, -0.203
0.687, 6.871, -0.203
0.666, 6.877, -0.203
0.646, 6.879, -0.203
0.625, 6.881, -0.203
0.605, 6.882, -0.203
0.584, 6.880, -0.203
0.564, 6.882, -0.203
0.543, 6.883, -0.203
0.523, 6.885, -0.203
0.502, 6.887, -0.203
0.482, 6.888, -0.203
0.461, 6.890, -0.203
0.441, 6.892, -0.203
0.420, 6.889, -0.203
0.400, 6.891, -0.203
0.379, 6.892, -0.203
0.359, 6.894, -0.203
0.338, 6.896, -0.203
0.318, 6.893, -0.203
0.991, 7.108, -0.203
0.970, 7.114, -0.203
0.949, 7.116, -0.203
0.927, 7.118, -0.203
0.906, 7.120, -0.203
0.884, 7.121, -0.203
0.863, 7.128, -0.203
0.842, 7.130, -0.203
0.820, 7.131, -0.203
0.798, 7.133, -0.203
0.777, 7.135, -0.203
0.755, 7.137, -0.203
0.733, 7.138, -0.203
0.712, 7.140, -0.203
0.690, 7.142, -0.203
0.669, 7.144, -0.203
0.647, 7.145, -0.203
0.625, 7.147, -0.203
0.604, 7.149, -0.203
0.582, 7.151, -0.203
0.561, 7.153, -0.203
0.539, 7.154, -0.203
0.517, 7.156, -0.203
0.496, 7.158, -0.203
0.474, 7.160, -0.203
0.453, 7.161, -0.203
0.431, 7.158, -0.203
0.409, 7.160, -0.203
0.387, 7.162, -0.203
0.366, 7.164, -0.203
0.344, 7.166, -0.203
0.323, 7.163, -0.203
1.036, 7.406, -0.203
1.013, 7.408, -0.203
0.991, 7.415, -0.203
0.968, 7.417, -0.203
0.945, 7.418, -0.203
0.922, 7.420, -0.203
0.900, 7.422, -0.203
0.877, 7.429, -0.203
0.854, 7.431, -0.203
0.832, 7.433, -0.203
0.809, 7.435, -0.203
0.786, 7.437, -0.203
0.763, 7.439, -0.203
0.740, 7.440, -0.203
0.717, 7.442, -0.203
0.694, 7.444, -0.203
0.671, 7.446, -0.203
0.648, 7.448, -0.203
0.625, 7.450, -0.203
0.603, 7.452, -0.203
0.580, 7.454, -0.203
0.557, 7.455, -0.203
0.534, 7.457, -0.203
0.511, 7.459, -0.203
0.488, 7.461, -0.203
0.465, 7.458, -0.203
0.442, 7.459, -0.203
0.419, 7.461, -0.203
0.397, 7.463, -0.203
0.374, 7.465, -0.203
0.351, 7.462, -0.203
0.328, 7.464, -0.203
1.086, 7.741, -0.203
1.062, 7.743, -0.203
1.038, 7.750, -0.203
1.014, 7.752, -0.203
0.990, 7.754, -0.203
0.965, 7.756, -0.203
0.941, 7.758, -0.203
0.917, 7.760, -0.203
0.893, 7.768, -0.203
0.869, 7.770, -0.203
0.845, 7.772, -0.203
0.820, 7.774, -0.203
0.796, 7.776, -0.203
0.772, 7.778, -0.203
0.747, 7.780, -0.203
