10.381, 34.374, 4.159
10.173, 34.192, 4.134
10.046, 34.261, 4.139
10.341, 35.700, 4.304
9.751, 34.267, 4.135
9.966, 35.480, 4.274
2.097, 9.260, 1.196
2.061, 9.252, 1.195
15.080, 36.553, 4.746
14.952, 36.655, 4.754
14.807, 36.719, 4.754
14.444, 36.269, 4.693
14.234, 36.171, 4.676
14.021, 36.061, 4.654
13.775, 35.869, 4.625
13.690, 36.071, 4.646
12.651, 33.879, 4.365
12.562, 34.046, 4.382
12.609, 34.569, 4.440
12.366, 34.344, 4.408
12.055, 33.937, 4.353
11.818, 33.712, 4.320
11.643, 33.652, 4.309
11.606, 33.963, 4.344
11.471, 34.011, 4.346
11.316, 34.003, 4.341
11.333, 34.483, 4.396
11.207, 34.565, 4.403
11.045, 34.538, 4.395
10.873, 34.479, 4.384
10.767, 34.619, 4.400
10.636, 34.682, 4.404
10.419, 34.480, 4.375
10.240, 34.390, 4.360
10.063, 34.303, 4.345
10.271, 35.463, 4.488
9.657, 33.946, 4.296
9.842, 35.053, 4.429
2.097, 9.260, 1.242
2.062, 9.252, 1.240
15.052, 36.480, 4.964
14.924, 36.583, 4.969
15.676, 38.742, 5.253
14.593, 36.611, 4.960
14.299, 36.318, 4.916
14.365, 36.888, 4.987
14.212, 36.933, 4.988
13.463, 35.498, 4.789
12.649, 33.867, 4.568
12.560, 34.034, 4.585
12.621, 34.591, 4.655
12.176, 33.843, 4.551
12.504, 35.114, 4.715
11.868, 33.837, 4.542
11.745, 33.918, 4.548
11.637, 34.041, 4.557
11.536, 34.183, 4.571
11.356, 34.107, 4.560
11.170, 34.010, 4.543
11.180, 34.475, 4.599
11.039, 34.512, 4.600
11.149, 35.293, 4.698
10.785, 34.663, 4.611
10.604, 34.577, 4.595
11.298, 37.200, 4.933
10.748, 35.982, 4.773
10.076, 34.336, 4.554
9.908, 34.275, 4.542
9.832, 34.511, 4.568
9.654, 34.416, 4.555
9.493, 34.370, 4.545
9.651, 35.424, 4.681
15.814, 38.213, 5.431
16.341, 39.849, 5.655
15.517, 38.362, 5.437
15.571, 38.916, 5.509
15.440, 39.039, 5.521
15.308, 39.162, 5.529
14.312, 37.168, 5.245
13.474, 35.519, 5.010
13.352, 35.624, 5.020
12.531, 33.954, 4.783
12.740, 34.890, 4.904
12.157, 33.784, 4.746
12.450, 34.961, 4.904
11.884, 33.872, 4.749
11.770, 33.977, 4.759
11.650, 34.067, 4.767
11.593, 34.333, 4.799
11.461, 34.394, 4.802
11.556, 35.102, 4.895
11.163, 34.418, 4.796
11.410, 35.589, 4.952
10.864, 34.435, 4.789
10.783, 34.649, 4.817
10.829, 35.254, 4.895
10.906, 35.974, 4.989
11.774, 39.202, 5.425
10.621, 36.067, 4.992
10.456, 36.039, 4.987
10.216, 35.766, 4.945
9.979, 35.490, 4.902
9.980, 36.012, 4.972
10.581, 38.619, 5.322
10.628, 26.368, 3.928
15.826, 38.651, 5.725
15.701, 38.786, 5.738
15.291, 38.246, 5.653
15.101, 38.221, 5.640
14.440, 37.053, 5.464
14.280, 37.083, 5.462
13.495, 35.562, 5.235
13.309, 35.508, 5.218
13.031, 35.216, 5.170
13.407, 36.595, 5.365
12.726, 35.258, 5.166
12.589, 35.320, 5.170
11.900, 33.906, 4.960
11.780, 33.996, 4.968
11.777, 34.408, 5.022
11.623, 34.409, 5.017
11.526, 34.570, 5.036
11.571, 35.136, 5.112
11.408, 35.118, 5.104
11.002, 34.385, 4.994
11.128, 35.211, 5.108
10.815, 34.736, 5.034
10.828, 35.243, 5.102
10.699, 35.321, 5.112
15.092, 49.634, 7.152
10.367, 35.246, 5.091
10.949, 37.629, 5.426
10.685, 37.299, 5.377
10.011, 35.585, 5.127
10.456, 37.616, 5.411
10.295, 37.620, 5.410
10.173, 25.324, 3.928
10.075, 25.366, 3.928
9.970, 25.393, 3.928
16.000, 39.914, 6.147
13.794, 35.087, 5.399
14.338, 36.798, 5.654
13.616, 35.448, 5.442
13.507, 35.584, 5.454
13.398, 35.722, 5.469
13.288, 35.860, 5.484
12.882, 35.239, 5.384
12.746, 35.302, 5.388
12.609, 35.365, 5.389
12.167, 34.614, 5.270
12.123, 34.916, 5.310
12.510, 36.409, 5.530
11.589, 34.304, 5.207
11.618, 34.819, 5.279
11.572, 35.130, 5.320
11.294, 34.778, 5.262
11.248, 35.095, 5.308
11.056, 34.987, 5.286
10.943, 35.112, 5.299
10.870, 35.360, 5.331
11.295, 37.159, 5.594
11.265, 37.576, 5.655
11.087, 37.534, 5.643
10.943, 37.598, 5.646
10.675, 37.255, 5.593
11.644, 41.030, 6.149
10.960, 39.315, 5.888
10.581, 38.595, 5.779
9.755, 24.365, 3.928
9.661, 24.406, 3.928
9.560, 24.431, 3.928
9.466, 24.472, 3.928
9.340, 24.435, 3.918
13.716, 35.285, 5.641
13.603, 35.411, 5.651
14.510, 38.062, 6.066
13.379, 35.667, 5.680
13.711, 36.925, 5.873
12.889, 35.248, 5.602
13.073, 36.145, 5.734
12.797, 35.851, 5.681
13.077, 37.035, 5.862
12.460, 35.819, 5.664
12.289, 35.794, 5.654
12.199, 35.990, 5.679
11.851, 35.464, 5.591
12.668, 38.248, 6.021
11.527, 35.442, 5.576
11.423, 35.601, 5.595
11.116, 35.156, 5.523
10.918, 35.027, 5.497
11.456, 37.142, 5.821
14.923, 48.398, 7.568
11.171, 37.269, 5.829
11.072, 37.477, 5.859
10.921, 37.515, 5.859
10.671, 37.231, 5.809
10.769, 38.094, 5.940
10.426, 37.491, 5.841
10.271, 37.514, 5.842
9.370, 23.483, 3.928
9.280, 23.521, 3.928
9.183, 23.546, 3.928
9.087, 23.571, 3.928
8.997, 23.610, 3.928
8.901, 23.635, 3.928
8.786, 23.613, 3.918
13.964, 36.701, 6.076
13.386, 35.677, 5.901
13.940, 37.500, 6.195
13.496, 36.799, 6.073
13.073, 36.138, 5.954
12.967, 36.292, 5.973
12.785, 36.247, 5.959
12.477, 35.856, 5.888
12.333, 35.906, 5.890
12.368, 36.451, 5.973
12.515, 37.324, 6.109
12.668, 38.236, 6.252
12.501, 38.249, 6.247
12.251, 38.017, 6.203
12.530, 39.347, 6.416
11.566, 36.969, 6.023
11.457, 37.133, 6.043
12.012, 39.359, 6.398
11.360, 37.853, 6.147
11.078, 37.484, 6.085
10.792, 37.086, 6.014
10.670, 37.215, 6.032
10.677, 37.778, 6.117
10.362, 37.261, 6.027
10.223, 37.336, 6.036
9.014, 22.667, 3.928
8.922, 22.692, 3.928
8.835, 22.729, 3.928
8.743, 22.753, 3.928
8.656, 22.790, 3.928
8.564, 22.815, 3.928
8.448, 22.781, 3.918
8.408, 22.934, 3.938
14.260, 37.860, 6.494
13.316, 35.907, 6.152
13.216, 36.073, 6.174
13.830, 38.099, 6.510
13.021, 36.426, 6.217
12.877, 36.482, 6.220
14.194, 40.490, 6.896
13.444, 38.939, 6.625
12.281, 36.200, 6.152
13.394, 39.787, 6.754
13.519, 40.652, 6.893
12.055, 36.950, 6.259
11.963, 37.161, 6.288
11.785, 37.122, 6.278
13.126, 41.656, 7.037
11.466, 37.150, 6.270
11.369, 37.357, 6.298
11.243, 37.475, 6.315
10.942, 37.037, 6.234
10.791, 37.071, 6.233
10.657, 37.160, 6.245
10.591, 37.477, 6.292
10.356, 37.231, 6.248
10.184, 37.189, 6.234
0.763, 4.819, -0.202
0.751, 4.822, -0.202
0.740, 4.826, -0.202
0.728, 4.829, -0.201
0.717, 4.834, -0.201
0.705, 4.837, -0.201
0.693, 4.840, -0.201
0.682, 4.845, -0.201
0.670, 4.848, -0.201
0.658, 4.851, -0.201
0.646, 4.854, -0.201
0.635, 4.859, -0.201
0.623, 4.862, -0.201
0.611, 4.865, -0.201
0.599, 4.868, -0.201
0.587, 4.872, -0.200
0.576, 4.875, -0.200
0.564, 4.878, -0.200
0.552, 4.881, -0.200
0.540, 4.884, -0.200
0.528, 4.887, -0.200
0.516, 4.889, -0.200
0.504, 4.892, -0.200
0.492, 4.895, -0.200
0.481, 4.899, -0.200
0.468, 4.900, -0.199
0.456, 4.903, -0.199
0.445, 4.907, -0.199
0.432, 4.908, -0.199
0.421, 4.911, -0.199
0.409, 4.913, -0.199
0.397, 4.916, -0.199
0.789, 4.911, -0.202
0.778, 4.915, -0.202
0.765, 4.919, -0.202
0.753, 4.922, -0.202
0.742, 4.927, -0.202
0.729, 4.930, -0.201
0.718, 4.935, -0.201
0.706, 4.938, -0.201
0.693, 4.941, -0.201
0.681, 4.945, -0.201
0.669, 4.948, -0.201
0.657, 4.953, -0.201
0.645, 4.956, -0.201
0.633, 4.959, -0.201
0.620, 4.962, -0.201
0.608, 4.966, -0.201
0.596, 4.969, -0.200
0.584, 4.972, -0.200
0.571, 4.976, -0.200
0.559, 4.979, -0.200
0.547, 4.982, -0.200
0.534, 4.984, -0.200
0.522, 4.987, -0.200
0.510, 4.990, -0.200
0.498, 4.994, -0.200
0.485, 4.997, -0.200
0.473, 4.999, -0.200
0.461, 5.002, -0.199
0.448, 5.004, -0.199
0.436, 5.007, -0.199
0.424, 5.010, -0.199
0.411, 5.012, -0.199
0.818, 5.009, -0.202
0.805, 5.014, -0.202
0.793, 5.017, -0.202
0.781, 5.022, -0.202
0.768, 5.026, -0.202
0.756, 5.029, -0.202
0.743, 5.034, -0.202
0.731, 5.038, -0.201
0.718, 5.041, -0.201
0.706, 5.044, -0.201
0.693, 5.048, -0.201
0.681, 5.053, -0.201
0.668, 5.056, -0.201
0.656, 5.060, -0.201
0.643, 5.063, -0.201
0.630, 5.066, -0.201
0.618, 5.070, -0.201
0.605, 5.073, -0.201
0.592, 5.077, -0.200
0.580, 5.080, -0.200
0.567, 5.084, -0.200
0.554, 5.085, -0.200
0.541, 5.089, -0.200
0.529, 5.092, -0.200
0.516, 5.095, -0.200
0.503, 5.099, -0.200
0.490, 5.101, -0.200
0.478, 5.104, -0.200
0.465, 5.107, -0.199
0.452, 5.109, -0.199
0.439, 5.113, -0.199
0.426, 5.114, -0.199
0.848, 5.114, -0.202
0.835, 5.119, -0.202
0.822, 5.123, -0.202
0.809, 5.126, -0.202
0.797, 5.132, -0.202
0.784, 5.135, -0.202
0.771, 5.139, -0.202
0.758, 5.144, -0.202
0.745, 5.148, -0.202
0.732, 5.151, -0.202
0.719, 5.155, -0.201
0.706, 5.158, -0.201
0.693, 5.164, -0.201
0.680, 5.167, -0.201
0.667, 5.171, -0.201
0.654, 5.174, -0.201
0.641, 5.178, -0.201
0.628, 5.181, -0.201
0.615, 5.185, -0.201
0.602, 5.189, -0.201
0.588, 5.190, -0.200
0.575, 5.194, -0.200
0.562, 5.197, -0.200
0.549, 5.201, -0.200
0.536, 5.205, -0.200
0.522, 5.206, -0.200
0.509, 5.210, -0.200
0.496, 5.213, -0.200
0.483, 5.215, -0.200
0.470, 5.219, -0.199
0.456, 5.222, -0.199
0.443, 5.224, -0.199
0.880, 5.227, -0.203
0.867, 5.233, -0.203
0.854, 5.236, -0.202
0.841, 5.240, -0.202
0.828, 5.246, -0.202
0.814, 5.249, -0.202
0.801, 5.253, -0.202
0.787, 5.257, -0.202
0.774, 5.262, -0.202
0.761, 5.266, -0.202
0.747, 5.270, -0.202
0.733, 5.273, -0.202
0.720, 5.277, -0.201
0.706, 5.281, -0.201
0.693, 5.285, -0.201
0.679, 5.288, -0.201
0.666, 5.292, -0.201
0.652, 5.296, -0.201
0.639, 5.299, -0.201
0.625, 5.303, -0.201
0.611, 5.307, -0.201
0.598, 5.311, -0.200
0.584, 5.314, -0.200
0.571, 5.318, -0.200
0.557, 5.320, -0.200
0.543, 5.323, -0.200
0.529, 5.327, -0.200
0.516, 5.331, -0.200
0.502, 5.333, -0.200
0.488, 5.336, -0.200
0.475, 5.340, -0.200
0.461, 5.342, -0.199
0.915, 5.349, -0.203
0.901, 5.353, -0.203
0.888, 5.358, -0.203
0.874, 5.362, -0.203
0.860, 5.366, -0.202
0.847, 5.372, -0.202
0.833, 5.376, -0.202
0.819, 5.380, -0.202
0.805, 5.384, -0.202
0.791, 5.388, -0.202
0.777, 5.393, -0.202
0.763, 5.397, -0.202
0.749, 5.401, -0.202
0.735, 5.405, -0.202
0.721, 5.409, -0.201
0.707, 5.413, -0.201
0.693, 5.417, -0.201
0.679, 5.421, -0.201
0.664, 5.424, -0.201
0.650, 5.428, -0.201
0.636, 5.432, -0.201
0.622, 5.436, -0.201
0.608, 5.438, -0.201
0.594, 5.442, -0.200
0.579, 5.446, -0.200
0.565, 5.450, -0.200
0.551, 5.454, -0.200
0.537, 5.455, -0.200
0.523, 5.459, -0.200
0.508, 5.463, -0.200
0.494, 5.465, -0.200
0.480, 5.469, -0.200
0.952, 5.478, -0.203
0.939, 5.484, -0.203
0.924, 5.488, -0.203
0.910, 5.494, -0.203
0.896, 5.498, -0.203
0.881, 5.502, -0.203
0.867, 5.506, -0.203
0.853, 5.513, -0.202
0.838, 5.517, -0.202
0.823, 5.521, -0.202
0.809, 5.525, -0.202
0.794, 5.529, -0.202
0.780, 5.533, -0.202
0.765, 5.537, -0.202
0.751, 5.541, -0.202
0.736, 5.547, -0.202
0.722, 5.551, -0.201
0.707, 5.553, -0.201
0.692, 5.557, -0.201
0.677, 5.561, -0.201
0.663, 5.566, -0.201
0.648, 5.570, -0.201
0.633, 5.574, -0.201
0.619, 5.578, -0.201
0.604, 5.582, -0.201
0.589, 5.584, -0.200
0.574, 5.588, -0.200
0.560, 5.592, -0.200
0.545, 5.596, -0.200
0.530, 5.598, -0.200
0.515, 5.602, -0.200
0.500, 5.604, -0.200
0.993, 5.620, -0.203
0.978, 5.624, -0.203
0.964, 5.631, -0.203
0.949, 5.635, -0.203
0.934, 5.639, -0.203
0.919, 5.646, -0.203
0.904, 5.650, -0.203
0.889, 5.654, -0.203
0.874, 5.658, -0.203
0.859, 5.663, -0.202
0.844, 5.669, -0.202
0.829, 5.674, -0.202
0.814, 5.678, -0.202
0.798, 5.682, -0.202
0.783, 5.686, -0.202
0.768, 5.691, -0.202
0.753, 5.695, -0.202
0.737, 5.699, -0.202
0.722, 5.704, -0.201
0.707, 5.708, -0.201
0.692, 5.712, -0.201
0.677, 5.716, -0.201
0.661, 5.718, -0.201
0.646, 5.722, -0.201
0.630, 5.727, -0.201
0.615, 5.731, -0.201
0.600, 5.735, -0.200
0.584, 5.737, -0.200
0.569, 5.741, -0.200
0.553, 5.746, -0.200
0.538, 5.748, -0.200
0.522, 5.752, -0.200
1.037, 5.771, -0.204
1.022, 5.778, -0.204
1.006, 5.783, -0.204
0.991, 5.787, -0.203
0.976, 5.794, -0.203
0.960, 5.799, -0.203
0.944, 5.803, -0.203
0.928, 5.808, -0.203
0.913, 5.815, -0.203
0.897, 5.819, -0.203
0.881, 5.824, -0.203
0.866, 5.828, -0.203
0.850, 5.833, -0.202
0.834, 5.837, -0.202
0.818, 5.842, -0.202
0.802, 5.846, -0.202
0.786, 5.851, -0.202
0.771, 5.855, -0.202
0.755, 5.860, -0.202
0.739, 5.864, -0.202
0.723, 5.869, -0.201
0.707, 5.873, -0.201
0.691, 5.878, -0.201
0.675, 5.882, -0.201
0.659, 5.884, -0.201
0.643, 5.889, -0.201
0.627, 5.893, -0.201
0.611, 5.898, -0.201
0.595, 5.899, -0.200
0.579, 5.904, -0.200
0.563, 5.908, -0.200
0.546, 5.910, -0.200
1.085, 5.939, -0.204
1.069, 5.944, -0.204
1.052, 5.949, -0.204
1.037, 5.956, -0.204
1.020, 5.961, -0.204
1.004, 5.966, -0.204
0.987, 5.970, -0.203
0.972, 5.978, -0.203
0.955, 5.983, -0.203
0.939, 5.987, -0.203
0.922, 5.992, -0.203
0.906, 5.997, -0.203
0.889, 6.001, -0.203
0.873, 6.006, -0.203
0.856, 6.011, -0.203
0.840, 6.017, -0.202
0.823, 6.022, -0.202
0.807, 6.027, -0.202
0.790, 6.033, -0.202
0.774, 6.038, -0.202
0.758, 6.043, -0.202
0.741, 6.049, -0.202
0.724, 6.054, -0.202
0.708, 6.059, -0.202
0.691, 6.065, -0.202
0.674, 6.067, -0.202
0.658, 6.072, -0.202
0.641, 6.078, -0.202
0.625, 6.083, -0.202
0.607, 6.085, -0.202
0.591, 6.090, -0.202
0.574, 6.096, -0.202
1.149, 6.160, -0.210
1.130, 6.160, -0.209
1.112, 6.164, -0.209
1.094, 6.165, -0.208
1.077, 6.169, -0.208
1.059, 6.174, -0.208
1.043, 6.183, -0.207
1.025, 6.188, -0.207
1.008, 6.193, -0.207
0.991, 6.198, -0.207
0.973, 6.202, -0.207
0.956, 6.207, -0.207
0.938, 6.212, -0.207
0.921, 6.217, -0.206
0.904, 6.226, -0.206
0.887, 6.231, -0.206
0.869, 6.236, -0.206
0.852, 6.241, -0.206
0.834, 6.243, -0.206
0.817, 6.249, -0.206
0.799, 6.255, -0.206
0.782, 6.261, -0.206
0.765, 6.266, -0.206
0.747, 6.272, -0.206
0.730, 6.278, -0.206
0.712, 6.284, -0.206
0.694, 6.286, -0.205
0.677, 6.291, -0.205
0.659, 6.297, -0.205
0.642, 6.303, -0.205
0.624, 6.305, -0.205
0.606, 6.311, -0.205
1.227, 6.433, -0.220
1.207, 6.432, -0.219
1.188, 6.436, -0.218
1.168, 6.435, -0.217
1.148, 6.434, -0.216
1.128, 6.434, -0.215
1.109, 6.438, -0.215
1.090, 6.439, -0.214
1.071, 6.445, -0.214
1.053, 6.450, -0.214
1.034, 6.455, -0.214
1.016, 6.460, -0.213
0.998, 6.465, -0.213
0.980, 6.475, -0.213
0.961, 6.480, -0.213
0.943, 6.486, -0.213
0.925, 6.491, -0.213
0.906, 6.496, -0.213
0.887, 6.501, -0.212
0.868, 6.502, -0.212
0.849, 6.507, -0.212
0.831, 6.513, -0.212
0.812, 6.518, -0.212
0.794, 6.523, -0.211
0.775, 6.528, -0.211
0.757, 6.534, -0.211
0.737, 6.535, -0.211
0.719, 6.540, -0.211
0.700, 6.545, -0.211
0.681, 6.550, -0.210
0.662, 6.551, -0.210
0.643, 6.556, -0.210
1.316, 6.743, -0.231
1.296, 6.748, -0.230
1.274, 6.746, -0.229
1.253, 6.745, -0.228
1.231, 6.744, -0.227
1.210, 6.743, -0.226
1.190, 6.747, -0.225
1.168, 6.746, -0.224
1.147, 6.745, -0.223
1.125, 6.744, -0.222
1.104, 6.742, -0.221
1.084, 6.746, -0.221
1.064, 6.752, -0.221
1.045, 6.757, -0.221
1.026, 6.768, -0.221
1.006, 6.774, -0.220
0.987, 6.779, -0.220
0.967, 6.785, -0.220
0.946, 6.786, -0.220
0.926, 6.791, -0.220
0.907, 6.797, -0.219
0.887, 6.803, -0.219
0.867, 6.808, -0.219
0.847, 6.814, -0.219
0.828, 6.820, -0.219
0.808, 6.825, -0.219
0.787, 6.826, -0.218
0.767, 6.832, -0.218
0.748, 6.837, -0.218
0.728, 6.843, -0.218
0.708, 6.849, -0.218
0.687, 6.849, -0.217
1.498, 7.377, -0.277
1.479, 7.397, -0.277
1.453, 7.389, -0.276
1.427, 7.382, -0.274
1.401, 7.375, -0.272
1.375, 7.368, -0.270
1.356, 7.387, -0.271
1.330, 7.380, -0.269
1.304, 7.373, -0.267
1.279, 7.366, -0.266
1.253, 7.359, -0.264
1.228, 7.352, -0.262
1.202, 7.345, -0.260
1.177, 7.338, -0.259
1.152, 7.331, -0.257
1.127, 7.324, -0.255
1.102, 7.317, -0.253
1.082, 7.332, -0.254
1.063, 7.353, -0.256
1.044, 7.374, -0.257
1.025, 7.395, -0.259
1.005, 7.416, -0.260
0.986, 7.438, -0.262
0.966, 7.459, -0.263
0.946, 7.481, -0.265
0.927, 7.502, -0.266
0.903, 7.504, -0.266
0.883, 7.526, -0.267
0.863, 7.548, -0.269
0.842, 7.570, -0.270
0.822, 7.592, -0.272
0.798, 7.593, -0.272
1.508, 7.410, -0.247
1.489, 7.429, -0.248
1.470, 7.447, -0.249
1.450, 7.466, -0.250
1.436, 7.507, -0.253
1.422, 7.545, -0.257
1.404, 7.572, -0.259
1.386, 7.599, -0.260
1.368, 7.628, -0.262
1.352, 7.665, -0.266
1.336, 7.702, -0.269
1.321, 7.747, -0.273
1.960, 10.607, -0.584
1.919, 10.595, -0.581
1.878, 10.582, -0.578
1.837, 10.570, -0.576
1.797, 10.558, -0.573
1.757, 10.546, -0.570
1.717, 10.534, -0.567
1.677, 10.522, -0.565
1.638, 10.510, -0.562
1.598, 10.498, -0.559
1.559, 10.485, -0.556
1.519, 10.471, -0.553
1.480, 10.457, -0.551
1.439, 10.435, -0.548
1.401, 10.421, -0.545
1.362, 10.408, -0.542
1.324, 10.394, -0.539
1.285, 10.381, -0.536
1.246, 10.360, -0.533
1.208, 10.346, -0.531
1.513, 7.424, -0.215
1.494, 7.447, -0.217
1.475, 7.467, -0.217
1.456, 7.486, -0.218
1.441, 7.522, -0.221
1.423, 7.548, -0.223
1.405, 7.575, -0.225
1.388, 7.603, -0.227
1.370, 7.632, -0.228
1.354, 7.669, -0.231
1.338, 7.707, -0.234
1.327, 7.768, -0.240
2.044, 10.969, -0.569
2.001, 10.955, -0.566
1.960, 10.945, -0.563
1.922, 10.954, -0.563
1.884, 10.962, -0.562
1.848, 10.978, -0.562
1.815, 11.006, -0.564
1.781, 11.035, -0.565
1.743, 11.044, -0.564
1.636, 10.693, -0.527
1.597, 10.683, -0.525
1.557, 10.674, -0.523
1.518, 10.665, -0.521
1.479, 10.656, -0.519
1.440, 10.647, -0.517
1.401, 10.638, -0.514
1.362, 10.629, -0.512
1.324, 10.619, -0.510
1.287, 10.623, -0.510
1.252, 10.636, -0.510
1.516, 7.433, -0.183
1.498, 7.456, -0.184
1.479, 7.478, -0.185
1.460, 7.499, -0.186
1.443, 7.525, -0.188
1.425, 7.552, -0.189
1.407, 7.579, -0.191
1.389, 7.606, -0.193
1.372, 7.636, -0.195
1.356, 7.673, -0.198
1.342, 7.724, -0.202
1.333, 7.790, -0.206
2.042, 10.953, -0.512
1.998, 10.937, -0.509
1.960, 10.941, -0.508
1.922, 10.950, -0.508
1.885, 10.959, -0.507
1.847, 10.968, -0.507
1.764, 10.753, -0.484
1.723, 10.744, -0.482
1.734, 10.993, -0.505
1.702, 11.028, -0.507
1.673, 11.085, -0.512
1.643, 11.135, -0.515
1.613, 11.188, -0.518
1.581, 11.235, -0.521
1.547, 11.267, -0.523
1.512, 11.299, -0.525
1.498, 11.462, -0.539
1.470, 11.541, -0.546
1.426, 11.521, -0.542
1.382, 11.501, -0.539
1.519, 7.442, -0.150
1.501, 7.465, -0.151
1.482, 7.487, -0.152
1.462, 7.503, -0.153
1.444, 7.529, -0.154
1.426, 7.556, -0.156
1.409, 7.583, -0.157
1.391, 7.610, -0.159
1.373, 7.640, -0.161
1.358, 7.680, -0.163
1.348, 7.745, -0.168
1.338, 7.811, -0.174
1.328, 7.878, -0.179
1.997, 10.928, -0.455
1.959, 10.934, -0.454
1.922, 10.944, -0.453
1.884, 10.954, -0.453
1.847, 10.964, -0.452
1.765, 10.753, -0.432
1.724, 10.744, -0.430
1.744, 11.036, -0.455
1.711, 11.074, -0.457
1.677, 11.101, -0.458
1.642, 11.124, -0.458
1.610, 11.166, -0.461
1.580, 11.222, -0.465
1.547, 11.267, -0.467
1.512, 11.296, -0.469
1.487, 11.384, -0.476
1.475, 11.566, -0.490
1.449, 11.666, -0.498
1.466, 12.055, -0.530
1.522, 7.451, -0.118
1.504, 7.474, -0.118
1.485, 7.496, -0.119
1.463, 7.507, -0.119
1.446, 7.533, -0.121
1.428, 7.560, -0.122
1.410, 7.587, -0.124
1.392, 7.614, -0.125
1.375, 7.644, -0.126
1.363, 7.701, -0.130
1.354, 7.766, -0.135
1.344, 7.833, -0.140
1.334, 7.901, -0.145
2.001, 10.943, -0.401
1.960, 10.932, -0.399
1.918, 10.922, -0.397
1.881, 10.932, -0.396
1.844, 10.942, -0.396
1.766, 10.754, -0.379
1.725, 10.744, -0.377
1.752, 11.072, -0.403
1.718, 11.102, -0.404
1.683, 11.125, -0.405
1.647, 11.148, -0.405
1.611, 11.170, -0.407
1.576, 11.194, -0.407
1.545, 11.245, -0.410
1.513, 11.291, -0.413
1.481, 11.345, -0.416
1.468, 11.516, -0.429
1.448, 11.653, -0.438
1.564, 12.704, -0.524
1.525, 7.460, -0.085
1.507, 7.483, -0.086
1.487, 7.502, -0.086
1.468, 7.520, -0.087
1.450, 7.545, -0.088
1.431, 7.570, -0.089
1.413, 7.595, -0.090
1.394, 7.620, -0.091
1.394, 7.718, -0.098
1.411, 7.892, -0.111
2.143, 11.031, -0.358
2.093, 10.989, -0.354
2.048, 10.968, -0.351
2.006, 10.957, -0.348
1.964, 10.947, -0.346
1.922, 10.937, -0.344
1.880, 10.927, -0.342
1.844, 10.941, -0.342
1.766, 10.754, -0.326
1.726, 10.744, -0.324
1.761, 11.116, -0.352
1.725, 11.136, -0.352
1.690, 11.158, -0.353
1.654, 11.181, -0.353
1.619, 11.207, -0.354
1.584, 11.233, -0.355
1.548, 11.261, -0.356
1.513, 11.289, -0.356
1.478, 11.322, -0.359
1.457, 11.443, -0.366
1.447, 11.638, -0.380
1.677, 13.461, -0.517
1.528, 7.469, -0.052
1.510, 7.492, -0.053
1.490, 7.511, -0.053
1.472, 7.535, -0.054
1.454, 7.560, -0.055
1.445, 7.622, -0.059
2.218, 10.696, -0.284
3.175, 14.602, -0.569
2.256, 11.158, -0.315
2.202, 11.107, -0.309
2.100, 10.853, -0.290
2.096, 11.000, -0.299
2.056, 11.000, -0.298
2.018, 11.008, -0.297
1.980, 11.015, -0.297
1.942, 11.023, -0.296
1.904, 11.031, -0.295
1.866, 11.039, -0.295
1.767, 10.754, -0.273
1.727, 10.745, -0.271
1.773, 11.173, -0.301
1.737, 11.189, -0.301
1.700, 11.209, -0.301
1.664, 11.231, -0.301
1.628, 11.253, -0.302
1.593, 11.281, -0.303
1.558, 11.311, -0.304
1.522, 11.335, -0.304
1.485, 11.356, -0.305
1.463, 11.471, -0.312
1.438, 11.572, -0.317
1.818, 14.394, -0.514
1.535, 7.492, -0.020
1.514, 7.505, -0.020
1.508, 7.574, -0.024
1.557, 7.845, -0.041
2.243, 10.495, -0.219
2.234, 10.606, -0.226
2.225, 10.719, -0.232
3.465, 15.733, -0.567
3.396, 15.707, -0.564
2.209, 11.132, -0.256
2.101, 10.853, -0.236
2.060, 10.843, -0.235
2.077, 11.084, -0.249
2.038, 11.092, -0.249
2.000, 11.102, -0.248
1.962, 11.113, -0.248
1.924, 11.123, -0.247
1.892, 11.161, -0.249
1.768, 10.754, -0.221
1.728, 10.745, -0.219
1.786, 11.235, -0.250
1.749, 11.251, -0.250
1.712, 11.266, -0.250
1.675, 11.282, -0.249
1.638, 11.305, -0.250
1.603, 11.335, -0.250
1.566, 11.354, -0.250
1.529, 11.373, -0.251
1.492, 11.392, -0.251
1.468, 11.499, -0.257
1.441, 11.587, -0.262
1.978, 15.456, -0.508
1.568, 7.605, 0.007
2.352, 10.470, -0.169
2.336, 10.552, -0.173
2.313, 10.607, -0.176
2.282, 10.638, -0.176
2.252, 10.669, -0.177
4.735, 20.384, -0.770
4.601, 20.183, -0.755
4.464, 19.960, -0.740
4.367, 19.891, -0.731
4.250, 19.737, -0.720
2.061, 10.843, -0.180
2.105, 11.202, -0.201
2.059, 11.178, -0.198
2.020, 11.187, -0.198
1.987, 11.221, -0.199
1.953, 11.250, -0.199
1.917, 11.272, -0.199
1.769, 10.754, -0.167
1.729, 10.745, -0.166
1.803, 11.316, -0.199
1.769, 11.350, -0.199
1.731, 11.361, -0.199
1.691, 11.367, -0.199
1.650, 11.367, -0.198
1.612, 11.382, -0.198
1.574, 11.396, -0.197
1.536, 11.411, -0.197
1.499, 11.430, -0.197
1.471, 11.514, -0.201
1.444, 11.602, -0.205
2.184, 16.824, -0.507
2.045, 9.267, -0.052
2.377, 10.556, -0.123
5.433, 21.695, -0.740
5.353, 21.729, -0.738
5.267, 21.741, -0.736
5.181, 21.752, -0.734
5.096, 21.764, -0.732
5.010, 21.775, -0.731
4.924, 21.787, -0.729
4.838, 21.799, -0.727
4.753, 21.810, -0.725
2.062, 10.843, -0.127
2.020, 10.834, -0.126
4.496, 21.845, -0.720
4.411, 21.856, -0.718
4.325, 21.868, -0.717
4.240, 21.880, -0.715
4.040, 21.347, -0.684
1.770, 10.755, -0.115
1.730, 10.745, -0.114
1.831, 11.448, -0.150
1.798, 11.494, -0.151
1.766, 11.542, -0.153
1.722, 11.531, -0.151
1.707, 11.677, -0.158
1.666, 11.681, -0.157
1.624, 11.683, -0.156
1.582, 11.681, -0.154
1.546, 11.715, -0.155
1.509, 11.747, -0.157
3.005, 21.731, -0.677
2.904, 21.628, -0.669
2.046, 9.265, -0.007
5.936, 23.151, -0.692
5.845, 23.169, -0.691
5.754, 23.188, -0.689
5.663, 23.207, -0.688
5.573, 23.225, -0.686
5.482, 23.244, -0.685
5.391, 23.262, -0.683
5.301, 23.281, -0.682
5.210, 23.299, -0.680
5.119, 23.318, -0.679
5.027, 23.331, -0.677
2.021, 10.834, -0.072
1.982, 10.834, -0.071
4.750, 23.363, -0.671
4.658, 23.374, -0.669
4.566, 23.385, -0.667
4.042, 21.347, -0.568
1.771, 10.755, -0.063
1.731, 10.746, -0.061
4.204, 23.458, -0.661
4.114, 23.478, -0.660
4.020, 23.477, -0.657
3.925, 23.471, -0.654
3.831, 23.466, -0.652
3.737, 23.460, -0.649
3.643, 23.454, -0.646
3.549, 23.449, -0.644
3.455, 23.443, -0.641
3.362, 23.437, -0.639
3.269, 23.432, -0.636
3.176, 23.426, -0.633
2.046, 9.264, 0.037
6.480, 25.069, -0.647
6.376, 25.071, -0.644
6.272, 25.074, -0.642
6.168, 25.077, -0.639
6.064, 25.075, -0.637
5.969, 25.108, -0.633
5.866, 25.110, -0.631
5.763, 25.113, -0.628
5.660, 25.115, -0.626
5.557, 25.117, -0.623
5.454, 25.120, -0.621
5.352, 25.122, -0.619
1.981, 10.824, -0.017
5.148, 25.127, -0.614
5.046, 25.129, -0.611
4.944, 25.131, -0.609
4.044, 21.347, -0.450
1.772, 10.755, -0.009
1.732, 10.746, -0.008
4.539, 25.140, -0.599
4.438, 25.142, -0.597
4.337, 25.145, -0.595
4.237, 25.147, -0.592
4.135, 25.139, -0.590
4.031, 25.123, -0.587
3.924, 25.083, -0.585
3.823, 25.075, -0.582
3.722, 25.068, -0.579
3.621, 25.060, -0.576
3.521, 25.053, -0.574
3.420, 25.045, -0.571
2.046, 9.263, 0.082
7.278, 27.885, -0.608
7.158, 27.875, -0.605
7.035, 27.855, -0.601
6.913, 27.833, -0.598
6.787, 27.798, -0.594
6.661, 27.763, -0.590
6.537, 27.728, -0.586
6.413, 27.693, -0.582
6.289, 27.658, -0.578
6.166, 27.624, -0.574
6.044, 27.589, -0.570
5.922, 27.555, -0.567
1.982, 10.825, 0.036
1.940, 10.815, 0.037
5.562, 27.465, -0.555
5.446, 27.451, -0.552
4.046, 21.347, -0.333
1.773, 10.755, 0.043
1.733, 10.746, 0.044
1.696, 10.756, 0.045
4.874, 27.382, -0.537
4.760, 27.368, -0.534
4.647, 27.354, -0.531
4.534, 27.341, -0.528
4.421, 27.327, -0.525
4.309, 27.314, -0.522
4.197, 27.300, -0.519
4.086, 27.285, -0.516
3.972, 27.257, -0.512
3.859, 27.231, -0.509
3.749, 27.219, -0.506
2.047, 9.261, 0.126
8.224, 31.222, -0.554
8.080, 31.180, -0.549
7.935, 31.131, -0.545
7.782, 31.055, -0.540
7.631, 30.979, -0.535
7.481, 30.904, -0.529
7.332, 30.829, -0.524
7.184, 30.755, -0.519
7.042, 30.702, -0.515
6.908, 30.678, -0.511
6.774, 30.653, -0.508
6.641, 30.629, -0.504
6.508, 30.605, -0.501
1.941, 10.815, 0.090
6.244, 30.557, -0.494
6.113, 30.534, -0.490
4.048, 21.348, -0.217
1.774, 10.756, 0.095
1.734, 10.746, 0.096
1.697, 10.754, 0.097
5.463, 30.416, -0.473
5.335, 30.392, -0.470
5.206, 30.369, -0.466
5.078, 30.343, -0.463
4.947, 30.298, -0.459
4.815, 30.246, -0.455
4.679, 30.165, -0.450
4.544, 30.085, -0.445
4.411, 30.006, -0.440
4.281, 29.950, -0.436
4.153, 29.895, -0.432
2.047, 9.260, 0.171
5.211, 20.559, -0.110
5.139, 20.604, -0.109
5.067, 20.649, -0.109
4.995, 20.694, -0.108
4.922, 20.738, -0.105
4.850, 20.783, -0.105
4.777, 20.829, -0.104
4.704, 20.875, -0.104
4.631, 20.921, -0.103
4.558, 20.967, -0.102
4.484, 21.013, -0.102
4.411, 21.059, -0.101
4.337, 21.106, -0.100
4.263, 21.152, -0.100
1.901, 10.806, 0.145
4.113, 21.246, -0.098
4.039, 21.293, -0.098
1.775, 10.756, 0.149
1.734, 10.746, 0.150
1.697, 10.752, 0.150
3.741, 21.508, -0.096
3.665, 21.556, -0.095
3.589, 21.603, -0.094
3.512, 21.652, -0.094
3.435, 21.700, -0.093
3.358, 21.748, -0.092
3.281, 21.799, -0.094
3.204, 21.848, -0.093
3.126, 21.897, -0.092
3.048, 21.946, -0.092
2.970, 21.995, -0.091
2.047, 9.259, 0.215
5.219, 20.583, 0.005
5.147, 20.628, 0.005
5.075, 20.673, 0.006
5.003, 20.718, 0.007
4.931, 20.763, 0.008
4.858, 20.808, 0.009
4.785, 20.854, 0.009
4.712, 20.900, 0.010
4.639, 20.945, 0.011
4.566, 20.991, 0.012
4.492, 21.037, 0.013
4.418, 21.083, 0.014
4.344, 21.130, 0.014
4.270, 21.176, 0.015
1.902, 10.806, 0.198
1.861, 10.797, 0.199
4.045, 21.316, 0.018
1.776, 10.756, 0.201
1.735, 10.747, 0.202
1.698, 10.750, 0.203
3.748, 21.531, 0.021
3.672, 21.578, 0.021
3.595, 21.626, 0.022
3.518, 21.674, 0.023
3.441, 21.722, 0.024
3.364, 21.770, 0.025
3.287, 21.819, 0.026
3.209, 21.867, 0.027
3.131, 21.916, 0.027
3.053, 21.965, 0.028
2.974, 22.014, 0.029
2.048, 9.257, 0.260
5.222, 20.587, 0.118
5.150, 20.631, 0.119
5.078, 20.676, 0.120
5.006, 20.720, 0.121
4.933, 20.765, 0.122
4.861, 20.810, 0.123
4.788, 20.855, 0.124
4.715, 20.901, 0.125
4.641, 20.946, 0.126
4.568, 20.991, 0.127
4.494, 21.037, 0.128
4.420, 21.083, 0.129
4.346, 21.129, 0.130
4.271, 21.175, 0.131
4.197, 21.221, 0.132
1.862, 10.797, 0.251
4.047, 21.314, 0.134
1.777, 10.756, 0.253
1.736, 10.747, 0.254
1.698, 10.748, 0.255
3.750, 21.533, 0.137
3.674, 21.580, 0.138
3.597, 21.627, 0.139
3.520, 21.675, 0.141
3.443, 21.722, 0.142
3.366, 21.770, 0.143
3.289, 21.818, 0.144
3.211, 21.866, 0.145
3.133, 21.914, 0.146
3.055, 21.963, 0.147
2.976, 22.011, 0.148
2.048, 9.256, 0.304
9.829, 36.848, 0.130
9.696, 36.939, 0.132
9.563, 37.030, 0.134
9.429, 37.121, 0.136
9.295, 37.213, 0.135
9.160, 37.306, 0.137
9.025, 37.398, 0.139
8.890, 37.491, 0.141
8.754, 37.584, 0.143
8.617, 37.677, 0.145
8.481, 37.771, 0.147
8.343, 37.865, 0.149
8.205, 37.959, 0.152
8.067, 38.054, 0.154
7.928, 38.149, 0.156
1.863, 10.797, 0.304
1.822, 10.788, 0.305
1.778, 10.756, 0.306
1.737, 10.747, 0.306
1.699, 10.746, 0.307
7.086, 38.726, 0.169
6.944, 38.823, 0.171
6.801, 38.921, 0.174
6.658, 39.019, 0.176
6.514, 39.117, 0.178
6.370, 39.216, 0.180
6.226, 39.315, 0.186
6.081, 39.414, 0.189
5.935, 39.514, 0.191
5.784, 39.587, 0.193
5.630, 39.638, 0.196
2.048, 9.255, 0.348
9.879, 37.012, 0.342
24.350, 89.501, 0.336
22.339, 83.611, 0.343
22.021, 83.803, 0.348
9.566, 38.222, 0.352
9.206, 37.468, 0.355
9.076, 37.582, 0.357
9.136, 38.457, 0.360
17.345, 72.327, 0.373
13.978, 59.752, 0.373
8.542, 38.015, 0.367
13.824, 61.294, 0.382
9.277, 42.618, 0.375
9.131, 42.769, 0.378
8.332, 39.964, 0.379
11.778, 56.692, 0.395
1.823, 10.788, 0.358
1.778, 10.757, 0.359
1.738, 10.747, 0.359
1.699, 10.744, 0.360
7.378, 40.215, 0.394
7.253, 40.436, 0.397
7.191, 41.008, 0.401
6.986, 40.809, 0.403
6.751, 40.437, 0.405
6.680, 40.993, 0.409
6.698, 42.108, 0.413
6.121, 39.640, 0.412
5.974, 39.734, 0.414
5.821, 39.796, 0.417
5.667, 39.854, 0.420
2.049, 9.253, 0.392
9.873, 36.981, 0.556
9.735, 37.056, 0.558
9.604, 37.155, 0.561
9.475, 37.267, 0.564
9.346, 37.379, 0.567
9.214, 37.485, 0.570
9.083, 37.596, 0.573
8.950, 37.703, 0.576
8.817, 37.811, 0.579
14.208, 60.674, 0.729
13.893, 60.453, 0.731
13.764, 61.015, 0.738
13.566, 61.295, 0.744
8.872, 41.598, 0.616
8.387, 40.196, 0.609
11.811, 56.821, 0.725
8.002, 39.970, 0.612
1.784, 10.778, 0.411
1.739, 10.747, 0.412
1.700, 10.742, 0.412
7.805, 42.392, 0.639
7.246, 40.378, 0.627
7.170, 40.871, 0.633
7.003, 40.886, 0.635
6.561, 39.337, 0.626
6.272, 39.545, 0.633
6.125, 39.637, 0.636
5.977, 39.730, 0.639
6.259, 42.599, 0.663
5.980, 41.909, 0.660
2.049, 9.252, 0.437
19.951, 72.519, 1.202
23.141, 85.105, 1.359
10.234, 39.439, 0.807
21.145, 80.497, 1.312
9.569, 38.206, 0.796
9.428, 38.292, 0.795
9.089, 37.605, 0.789
9.153, 38.496, 0.802
8.822, 37.819, 0.796
13.845, 59.156, 1.065
13.577, 59.104, 1.067
13.742, 60.896, 1.093
13.559, 61.239, 1.101
13.350, 61.479, 1.108
7.976, 38.314, 0.815
8.533, 41.636, 0.859
7.702, 38.535, 0.822
1.785, 10.779, 0.464
1.740, 10.748, 0.464
1.700, 10.740, 0.464
7.929, 43.008, 0.889
7.297, 40.624, 0.860
7.202, 41.020, 0.867
7.305, 42.533, 0.889
6.564, 39.334, 0.849
6.959, 43.612, 0.915
6.884, 44.255, 0.926
5.979, 39.719, 0.866
6.148, 41.854, 0.898
5.978, 41.865, 0.900
2.049, 9.251, 0.481
10.644, 39.677, 1.035
9.750, 37.084, 0.990
10.318, 39.732, 1.040
9.761, 38.302, 1.016
9.586, 38.258, 1.017
15.193, 60.372, 1.427
20.378, 81.613, 1.823
9.172, 38.555, 1.028
8.824, 37.809, 1.016
8.688, 37.908, 1.020
13.568, 59.039, 1.417
13.441, 59.583, 1.430
8.262, 38.142, 1.030
8.634, 40.510, 1.076
12.108, 57.020, 1.391
7.841, 38.416, 1.041
7.703, 38.524, 1.045
7.562, 38.619, 1.048
1.741, 10.748, 0.517
1.701, 10.738, 0.517
7.776, 42.202, 1.123
7.663, 42.532, 1.131
7.567, 42.968, 1.142
7.299, 42.476, 1.134
7.099, 42.338, 1.134
7.144, 43.617, 1.161
6.959, 43.585, 1.162
6.127, 39.605, 1.086
6.312, 41.782, 1.131
6.198, 42.153, 1.140
6.026, 42.156, 1.142
2.050, 9.249, 0.526
10.529, 39.258, 1.258
9.760, 37.107, 1.207
10.098, 38.918, 1.250
9.498, 37.316, 1.212
9.367, 37.420, 1.216
15.290, 60.720, 1.790
15.559, 62.799, 1.843
9.190, 38.614, 1.251
9.019, 38.584, 1.252
13.881, 59.258, 1.765
8.546, 37.973, 1.240
13.343, 59.141, 1.767
13.155, 59.430, 1.777
8.123, 38.224, 1.251
8.418, 40.285, 1.305
12.845, 61.523, 1.837
8.585, 42.669, 1.368
7.563, 38.608, 1.268
1.742, 10.748, 0.569
1.702, 10.739, 0.569
7.786, 42.230, 1.364
7.656, 42.476, 1.372
7.571, 42.966, 1.387
6.707, 39.187, 1.293
7.221, 43.006, 1.391
6.894, 42.144, 1.371
6.689, 41.954, 1.368
6.137, 39.643, 1.311
6.314, 41.771, 1.371
10.234, 68.119, 2.051
6.127, 42.800, 1.401
2.050, 9.249, 0.570
10.524, 39.225, 1.484
15.969, 59.331, 2.100
10.121, 38.987, 1.480
9.728, 38.154, 1.456
15.847, 61.801, 2.183
15.650, 62.079, 2.194
9.102, 37.615, 1.444
13.573, 55.982, 2.011
9.049, 38.691, 1.477
8.917, 38.822, 1.482
12.889, 56.150, 2.017
13.657, 60.458, 2.153
13.218, 59.680, 2.131
11.734, 54.230, 1.965
8.427, 40.307, 1.536
8.295, 40.482, 1.543
11.718, 57.422, 2.070
7.565, 38.597, 1.487
1.743, 10.748, 0.622
1.703, 10.739, 0.622
7.804, 42.303, 1.607
7.797, 43.195, 1.637
7.373, 41.877, 1.601
7.403, 43.004, 1.638
7.039, 41.955, 1.607
6.884, 42.058, 1.612
6.289, 39.555, 1.534
6.140, 39.641, 1.539
6.558, 43.274, 1.655
6.296, 42.732, 1.639
6.148, 42.909, 1.647
2.051, 9.249, 0.615
10.637, 39.613, 1.729
15.865, 58.939, 2.441
9.872, 38.070, 1.672
9.735, 38.164, 1.676
22.751, 87.759, 3.500
22.689, 89.003, 3.549
13.743, 55.679, 2.325
13.557, 55.898, 2.335
9.079, 38.799, 1.706
8.910, 38.777, 1.707
8.699, 38.580, 1.701
13.553, 59.991, 2.494
12.443, 56.283, 2.359
11.725, 54.165, 2.282
8.488, 40.566, 1.780
12.374, 59.294, 2.476
8.257, 41.084, 1.802
7.566, 38.586, 1.710
1.744, 10.749, 0.675
1.704, 10.739, 0.675
7.859, 42.568, 1.862
7.679, 42.550, 1.863
7.594, 43.047, 1.883
7.296, 42.390, 1.860
7.196, 42.814, 1.877
6.843, 41.801, 1.841
6.703, 41.991, 1.849
6.521, 41.935, 1.848
6.566, 43.297, 1.905
8.332, 55.796, 2.378
8.826, 60.592, 2.561
2.052, 9.249, 0.659
10.726, 39.913, 1.971
10.045, 38.090, 1.894
9.874, 38.064, 1.894
9.690, 37.986, 1.892
10.196, 40.499, 2.001
10.049, 40.602, 2.007
9.886, 40.642, 2.010
14.895, 61.178, 2.888
14.077, 58.949, 2.794
8.932, 38.854, 1.932
8.784, 38.922, 1.936
12.150, 53.979, 2.585
8.382, 38.603, 1.925
11.531, 53.283, 2.558
11.320, 53.359, 2.563
11.099, 53.384, 2.566
8.192, 40.757, 2.022
8.108, 41.175, 2.041
1.745, 10.749, 0.727
1.705, 10.739, 0.727
10.441, 55.805, 2.678
10.214, 55.850, 2.682
7.544, 42.753, 2.116
7.384, 42.851, 2.125
7.096, 42.228, 2.099
6.861, 41.881, 2.085
6.880, 43.017, 2.136
8.716, 55.279, 2.672
8.504, 55.391, 2.678
8.406, 56.240, 2.717
8.147, 56.069, 2.711
2.052, 9.249, 0.703
16.229, 59.273, 3.155
10.025, 38.009, 2.114
9.844, 37.940, 2.111
9.669, 37.895, 2.106
9.576, 38.156, 2.120
9.720, 39.327, 2.178
13.576, 54.986, 2.947
14.899, 61.172, 3.252
14.223, 59.515, 3.172
13.091, 55.923, 2.997
8.792, 38.940, 2.164
8.787, 39.621, 2.198
8.691, 39.931, 2.214
11.826, 54.565, 2.936
8.476, 40.477, 2.243
8.397, 40.898, 2.265
8.179, 40.677, 2.255
8.057, 40.912, 2.267
1.746, 10.749, 0.780
1.705, 10.740, 0.780
7.025, 38.245, 2.138
6.866, 38.239, 2.139
10.100, 56.474, 3.041
7.390, 42.861, 2.369
9.456, 55.514, 2.996
7.121, 43.360, 2.396
6.955, 43.435, 2.401
8.730, 55.325, 2.996
1.402, 10.973, 0.794
8.327, 55.694, 3.017
1.329, 10.998, 0.796
2.053, 9.249, 0.748
10.185, 37.982, 2.331
10.037, 38.037, 2.335
9.959, 38.348, 2.352
9.754, 38.198, 2.345
9.495, 37.836, 2.325
8.920, 36.256, 2.239
8.778, 36.300, 2.242
9.117, 38.254, 2.347
8.501, 36.424, 2.247
1.905, 9.977, 0.788
1.889, 10.056, 0.793
1.872, 10.136, 0.797
1.855, 10.217, 0.802
1.837, 10.300, 0.806
1.819, 10.384, 0.811
1.801, 10.470, 0.816
1.782, 10.557, 0.821
1.763, 10.646, 0.826
1.744, 10.737, 0.831
1.706, 10.740, 0.832
7.063, 38.417, 2.365
10.201, 55.726, 3.324
10.257, 57.283, 3.412
9.757, 55.857, 3.339
9.425, 55.307, 3.309
9.182, 55.239, 3.306
8.944, 55.197, 3.305
1.445, 10.989, 0.848
1.406, 10.989, 0.848
1.367, 10.988, 0.848
1.332, 11.008, 0.850
2.054, 9.250, 0.792
2.043, 9.328, 0.797
2.029, 9.395, 0.801
2.015, 9.464, 0.805
2.000, 9.533, 0.810
1.985, 9.604, 0.813
1.970, 9.676, 0.818
1.954, 9.749, 0.823
1.938, 9.823, 0.827
1.922, 9.899, 0.832
1.906, 9.976, 0.837
1.889, 10.054, 0.842
1.872, 10.134, 0.847
1.855, 10.215, 0.852
1.837, 10.298, 0.857
1.820, 10.382, 0.862
1.801, 10.468, 0.868
1.783, 10.555, 0.873
1.764, 10.644, 0.879
1.744, 10.735, 0.884
1.707, 10.740, 0.885
6.977, 37.959, 2.558
6.867, 38.209, 2.574
6.691, 38.112, 2.568
6.530, 38.090, 2.567
9.420, 55.249, 3.624
9.301, 55.895, 3.664
8.935, 55.115, 3.622
8.705, 55.111, 3.622
1.409, 11.004, 0.903
1.371, 11.004, 0.903
1.334, 11.019, 0.904
2.055, 9.250, 0.837
2.044, 9.327, 0.842
2.029, 9.394, 0.847
2.015, 9.462, 0.850
2.000, 9.532, 0.855
1.985, 9.602, 0.860
1.970, 9.674, 0.865
1.954, 9.747, 0.870
1.939, 9.821, 0.875
1.923, 9.897, 0.880
1.906, 9.974, 0.885
1.890, 10.052, 0.890
1.873, 10.132, 0.895
1.855, 10.213, 0.901
1.838, 10.296, 0.907
1.820, 10.380, 0.912
1.802, 10.466, 0.918
1.783, 10.553, 0.924
1.764, 10.642, 0.930
1.745, 10.733, 0.936
1.708, 10.740, 0.937
6.969, 37.898, 2.773
6.849, 38.091, 2.786
6.709, 38.189, 2.793
15.763, 88.798, 6.213
9.509, 55.722, 3.978
9.313, 55.936, 3.993
9.058, 55.810, 3.985
8.889, 56.196, 4.011
13.829, 88.463, 6.202
1.374, 11.020, 0.958
11.825, 80.162, 5.641
2.055, 9.250, 0.881
2.044, 9.325, 0.887
2.030, 9.393, 0.891
2.015, 9.461, 0.896
2.001, 9.530, 0.901
1.986, 9.601, 0.907
1.970, 9.672, 0.912
1.955, 9.745, 0.917
1.939, 9.820, 0.922
1.923, 9.895, 0.928
1.907, 9.972, 0.933
1.890, 10.050, 0.939
1.873, 10.130, 0.945
1.856, 10.211, 0.951
1.838, 10.294, 0.957
1.820, 10.378, 0.963
1.802, 10.464, 0.969
1.784, 10.551, 0.976
1.765, 10.640, 0.982
1.745, 10.731, 0.989
1.709, 10.740, 0.990
7.068, 38.388, 3.023
6.952, 38.615, 3.040
6.784, 38.566, 3.036
6.704, 39.004, 3.072
1.528, 10.788, 0.994
1.496, 10.826, 0.997
6.057, 38.027, 3.001
5.902, 38.030, 3.001
5.772, 38.191, 3.013
5.620, 38.210, 3.018
9.345, 63.774, 4.903
2.056, 9.250, 0.926
2.044, 9.324, 0.932
2.030, 9.391, 0.937
2.016, 9.459, 0.942
2.001, 9.529, 0.947
1.986, 9.599, 0.953
1.971, 9.671, 0.959
1.955, 9.744, 0.964
1.939, 9.818, 0.970
1.923, 9.894, 0.976
1.907, 9.970, 0.982
1.890, 10.049, 0.988
1.873, 10.128, 0.994
1.856, 10.209, 1.001
1.839, 10.292, 1.007
1.821, 10.376, 1.014
1.803, 10.462, 1.021
1.784, 10.549, 1.028
1.765, 10.638, 1.035
1.746, 10.729, 1.042
1.710, 10.741, 1.043
7.104, 38.555, 3.258
6.945, 38.559, 3.258
6.770, 38.476, 3.251
1.565, 10.782, 1.046
1.534, 10.820, 1.050
1.503, 10.858, 1.053
1.471, 10.896, 1.056
1.439, 10.934, 1.059
5.720, 37.841, 3.203
5.621, 38.193, 3.235
8.221, 56.334, 4.682
2.057, 9.250, 0.971
2.045, 9.323, 0.976
2.030, 9.390, 0.982
2.016, 9.458, 0.988
2.001, 9.527, 0.994
1.986, 9.597, 1.000
1.971, 9.669, 1.005
1.955, 9.742, 1.011
1.940, 9.816, 1.017
1.924, 9.892, 1.024
1.907, 9.969, 1.030
1.891, 10.047, 1.037
1.874, 10.126, 1.044
1.857, 10.208, 1.051
1.839, 10.290, 1.058
1.821, 10.374, 1.065
1.803, 10.460, 1.072
1.784, 10.547, 1.079
1.765, 10.636, 1.087
1.746, 10.727, 1.095
1.711, 10.741, 1.096
6.981, 37.907, 3.424
6.926, 38.441, 3.470
6.758, 38.392, 3.465
6.491, 37.792, 3.413
1.541, 10.851, 1.105
1.509, 10.890, 1.109
1.477, 10.928, 1.112
1.445, 10.966, 1.115
1.560, 11.923, 1.197
1.375, 11.011, 1.119
1.341, 11.040, 1.122
2.058, 9.251, 1.015
2.045, 9.321, 1.021
2.031, 9.388, 1.027
2.016, 9.456, 1.033
2.002, 9.526, 1.040
1.987, 9.596, 1.046
1.971, 9.668, 1.052
1.956, 9.741, 1.058
1.940, 9.815, 1.065
1.924, 9.890, 1.072
1.908, 9.967, 1.079
1.891, 10.045, 1.086
1.874, 10.125, 1.093
1.857, 10.206, 1.100
1.839, 10.288, 1.107
1.822, 10.372, 1.115
1.803, 10.458, 1.122
1.785, 10.545, 1.130
1.766, 10.634, 1.139
1.747, 10.725, 1.147
1.712, 10.741, 1.149
7.112, 38.558, 3.702
6.794, 37.731, 3.626
6.762, 38.389, 3.686
6.482, 37.726, 3.624
1.737, 11.946, 1.259
1.691, 11.932, 1.258
1.477, 10.921, 1.165
1.443, 10.945, 1.167
1.409, 10.974, 1.170
1.507, 11.845, 1.250
1.341, 11.031, 1.176
2.058, 9.251, 1.060
2.045, 9.320, 1.067
2.031, 9.387, 1.073
2.017, 9.455, 1.079
2.002, 9.524, 1.086
1.987, 9.594, 1.092
1.972, 9.666, 1.099
1.956, 9.739, 1.106
1.940, 9.813, 1.113
1.924, 9.888, 1.120
1.908, 9.965, 1.127
1.891, 10.043, 1.135
1.875, 10.123, 1.142
1.857, 10.204, 1.149
1.840, 10.286, 1.157
1.822, 10.370, 1.165
1.804, 10.456, 1.174
1.785, 10.543, 1.182
1.766, 10.632, 1.190
1.747, 10.723, 1.200
1.713, 10.741, 1.202
6.945, 37.687, 3.839
6.980, 38.680, 3.935
6.762, 38.373, 3.905
6.458, 37.572, 3.826
6.323, 37.682, 3.836
1.509, 10.879, 1.215
6.068, 38.004, 3.869
1.442, 10.936, 1.220
1.408, 10.965, 1.223
1.374, 10.994, 1.226
1.444, 11.701, 1.295
2.059, 9.251, 1.105
2.045, 9.318, 1.112
2.031, 9.385, 1.118
2.017, 9.453, 1.125
2.002, 9.522, 1.132
1.987, 9.593, 1.139
1.972, 9.664, 1.145
1.956, 9.737, 1.153
1.941, 9.811, 1.160
1.925, 9.887, 1.168
1.908, 9.964, 1.176
1.892, 10.042, 1.184
1.875, 10.121, 1.192
1.858, 10.202, 1.200
1.840, 10.285, 1.208
1.822, 10.368, 1.216
1.804, 10.454, 1.225
7.181, 35.839, 3.864
7.429, 37.737, 4.064
1.754, 10.751, 1.256
1.714, 10.742, 1.255
6.603, 35.920, 3.872
7.631, 42.066, 4.510
7.316, 41.317, 4.431
7.193, 41.579, 4.457
1.542, 10.843, 1.264
1.657, 11.722, 1.356
1.475, 10.899, 1.270
8.904, 56.086, 5.964
1.408, 10.956, 1.276
1.374, 10.985, 1.279
2.060, 9.251, 1.150
2.046, 9.317, 1.157
2.032, 9.384, 1.164
2.017, 9.452, 1.170
2.003, 9.521, 1.178
1.987, 9.591, 1.185
1.972, 9.663, 1.193
1.957, 9.736, 1.200
1.941, 9.810, 1.208
1.925, 9.885, 1.216
1.909, 9.962, 1.224
8.571, 37.867, 4.304
7.876, 35.594, 4.052
8.809, 40.275, 4.567
7.906, 37.044, 4.210
12.430, 58.097, 6.530
7.742, 37.711, 4.281
7.177, 35.803, 4.070
7.024, 35.783, 4.066
7.327, 37.986, 4.308
7.176, 38.023, 4.311
6.616, 35.968, 4.083
7.395, 40.813, 4.615
7.333, 41.383, 4.677
9.789, 55.765, 6.257
9.524, 55.587, 6.241
9.512, 56.854, 6.379
9.204, 56.439, 6.331
1.441, 10.919, 1.326
8.554, 55.322, 6.210
1.374, 10.976, 1.332
1.424, 11.562, 1.396
2.061, 9.251, 1.195
2.046, 9.315, 1.201
2.032, 9.382, 1.209
2.018, 9.450, 1.217
2.003, 9.519, 1.224
9.387, 37.301, 4.469
8.891, 36.017, 4.318
8.595, 35.461, 4.252
8.434, 35.417, 4.242
8.757, 37.316, 4.462
8.137, 35.424, 4.240
7.992, 35.440, 4.241
7.847, 35.457, 4.242
8.074, 37.083, 4.430
8.220, 38.409, 4.583
8.003, 38.158, 4.552
8.254, 40.047, 4.771
8.283, 40.966, 4.876
7.102, 36.138, 4.313
7.377, 38.214, 4.553
6.779, 36.023, 4.297
6.629, 36.016, 4.295
10.219, 55.536, 6.560
6.325, 35.976, 4.288
6.174, 35.958, 4.288
9.818, 57.204, 6.753
1.651, 11.678, 1.468
9.350, 57.266, 6.756
15.209, 94.119, 11.037
8.567, 55.370, 6.538
1.461, 11.529, 1.450
1.415, 11.492, 1.447
2.061, 9.251, 1.240
9.330, 34.849, 4.398
9.428, 35.728, 4.501
10.219, 39.147, 4.921
8.934, 35.032, 4.413
8.870, 35.352, 4.447
9.238, 37.324, 4.688
8.559, 35.310, 4.439
8.399, 35.266, 4.432
9.187, 39.027, 4.893
8.124, 35.358, 4.437
7.979, 35.374, 4.438
7.835, 35.391, 4.438
8.043, 36.930, 4.626
7.915, 37.052, 4.639
7.900, 37.682, 4.715
7.678, 37.386, 4.677
8.439, 41.677, 5.200
7.078, 36.009, 4.505
6.972, 36.219, 4.530
6.866, 36.440, 4.555
6.786, 36.799, 4.598
6.489, 36.045, 4.507
1.630, 10.891, 1.431
1.596, 10.913, 1.434
1.561, 10.934, 1.436
1.641, 11.616, 1.519
1.491, 10.978, 1.441
1.546, 11.541, 1.510
1.499, 11.505, 1.505
1.453, 11.468, 1.501
1.351, 11.066, 1.451
9.648, 35.421, 4.680
9.405, 35.103, 4.634
9.342, 35.411, 4.672
9.195, 35.426, 4.669
15.044, 57.507, 7.523
9.404, 37.336, 4.913
8.633, 35.008, 4.610
8.496, 35.051, 4.611
8.356, 35.085, 4.613
8.778, 37.370, 4.906
8.358, 36.300, 4.767
8.245, 36.466, 4.786
8.124, 36.603, 4.802
8.015, 36.797, 4.826
7.888, 36.918, 4.840
7.603, 36.329, 4.759
7.800, 37.926, 4.962
8.471, 41.811, 5.463
7.172, 36.438, 4.771
10.770, 54.737, 7.121
10.848, 56.279, 7.316
10.423, 55.326, 7.191
6.537, 36.276, 4.743
1.634, 10.906, 1.487
1.599, 10.928, 1.489
1.565, 10.950, 1.493
1.530, 10.972, 1.495
1.585, 11.525, 1.565
1.460, 11.016, 1.500
1.425, 11.038, 1.503
1.390, 11.061, 1.505
1.354, 11.083, 1.509
10.580, 38.625, 5.323
9.436, 35.198, 4.855
9.982, 37.677, 5.186
9.688, 37.198, 5.119
9.551, 37.279, 5.128
8.809, 35.099, 4.827
8.649, 35.058, 4.820
9.253, 37.967, 5.212
9.216, 38.457, 5.276
9.183, 38.980, 5.345
8.190, 35.600, 4.882
8.088, 35.798, 4.907
8.058, 36.308, 4.974
7.937, 36.446, 4.991
8.002, 37.404, 5.118
7.666, 36.595, 5.007
7.565, 36.833, 5.038
11.746, 57.106, 7.766
11.111, 55.233, 7.511
7.263, 37.603, 5.136
7.129, 37.716, 5.149
10.365, 55.001, 7.471
6.860, 37.942, 5.179
1.638, 10.922, 1.544
9.838, 55.913, 7.591
1.672, 11.544, 1.626
1.534, 10.988, 1.551
1.499, 11.010, 1.554
1.530, 11.434, 1.611
1.484, 11.399, 1.606
8.607, 56.979, 7.727
1.358, 11.099, 1.565
10.292, 37.619, 5.410
10.483, 38.853, 5.580
10.392, 39.124, 5.616
10.253, 39.228, 5.628
9.267, 36.221, 5.196
9.063, 36.036, 5.167
8.911, 36.040, 5.166
8.962, 36.829, 5.275
8.969, 37.470, 5.361
8.727, 37.140, 5.312
8.612, 37.307, 5.333
8.495, 37.475, 5.355
12.626, 55.646, 7.918
8.931, 40.721, 5.808
7.990, 37.333, 5.328
7.771, 37.052, 5.287
8.372, 40.515, 5.772
7.392, 36.727, 5.236
11.083, 55.073, 7.818
10.863, 55.139, 7.824
6.862, 36.368, 5.180
6.708, 36.349, 5.175
6.713, 37.974, 5.399
6.218, 36.125, 5.141
6.142, 36.527, 5.195
1.537, 11.004, 1.608
1.502, 11.026, 1.611
1.467, 11.048, 1.614
1.397, 11.093, 1.620
1.361, 11.115, 1.623
10.580, 38.600, 5.780
10.458, 38.755, 5.796
9.503, 35.950, 5.378
9.375, 36.041, 5.389
9.266, 36.207, 5.408
10.338, 40.790, 6.084
9.042, 36.524, 5.450
9.122, 37.435, 5.579
8.892, 37.155, 5.535
8.812, 37.463, 5.579
9.592, 41.294, 6.141
8.849, 38.935, 5.791
12.608, 55.548, 8.232
8.055, 36.921, 5.486
7.931, 37.060, 5.504
7.789, 37.118, 5.510
7.620, 37.054, 5.498
11.914, 57.841, 8.552
7.051, 36.535, 5.415
7.115, 37.607, 5.574
6.977, 37.699, 5.585
6.586, 36.474, 5.403
6.438, 36.485, 5.402
6.290, 36.496, 5.402
6.408, 37.996, 5.623
6.126, 37.273, 5.515
1.506, 11.042, 1.668
1.471, 11.064, 1.672
1.435, 11.087, 1.675
1.400, 11.109, 1.677
1.365, 11.132, 1.681
10.269, 37.514, 5.842
9.982, 37.077, 5.768
9.704, 36.652, 5.700
9.441, 36.269, 5.634
9.591, 37.390, 5.805
9.068, 36.028, 5.592
8.889, 35.930, 5.571
8.711, 35.832, 5.554
8.978, 37.481, 5.805
9.870, 41.689, 6.450
8.951, 38.664, 5.982
12.823, 55.428, 8.551
8.349, 37.495, 5.793
8.250, 37.751, 5.830
8.169, 38.088, 5.879
8.794, 41.611, 6.417
8.616, 41.596, 6.412
7.449, 36.958, 5.698
7.344, 37.195, 5.732
7.089, 36.704, 5.654
6.918, 36.610, 5.638
6.750, 36.524, 5.626
6.810, 37.619, 5.791
6.663, 37.665, 5.795
6.513, 37.697, 5.797
6.252, 37.975, 5.838
1.510, 11.058, 1.726
1.439, 11.103, 1.733
1.404, 11.125, 1.735
1.390, 11.290, 1.761
10.217, 37.326, 6.035
9.908, 36.803, 5.944
9.657, 36.472, 5.888
9.284, 35.688, 5.759
9.208, 35.966, 5.798
9.063, 35.999, 5.801
8.884, 35.900, 5.779
8.707, 35.803, 5.760
8.737, 36.519, 5.872
8.622, 36.676, 5.895
9.744, 41.879, 6.725
8.430, 37.163, 5.964
8.359, 37.525, 6.019
8.268, 37.812, 6.062
8.151, 37.996, 6.088
7.714, 36.749, 5.887
7.588, 36.876, 5.904
7.276, 36.853, 5.895
6.787, 36.693, 5.865
6.774, 37.413, 5.977
6.625, 37.444, 5.980
6.477, 37.476, 5.982
1.398, 11.339, 1.825
10.171, 37.154, 6.228
10.051, 37.293, 6.248
9.641, 36.403, 6.093
10.183, 38.922, 6.511
9.982, 38.797, 6.483
10.366, 40.849, 6.822
8.925, 36.043, 6.018
9.132, 37.432, 6.243
8.974, 37.434, 6.240
8.612, 36.619, 6.101
8.654, 37.420, 6.232
8.427, 37.134, 6.178
9.327, 41.602, 6.917
8.286, 37.874, 6.295
8.158, 38.008, 6.314
7.679, 36.577, 6.074
7.554, 36.703, 6.092
8.241, 41.434, 6.869
7.116, 36.800, 6.099
6.994, 36.951, 6.121
7.681, 41.222, 6.828
6.735, 37.195, 6.159
7.059, 45.789, 7.563
0.396, 4.916, -0.199
0.384, 4.918, -0.199
0.372, 4.921, -0.199
0.360, 4.923, -0.199
0.348, 4.926, -0.199
0.336, 4.928, -0.198
0.324, 4.929, -0.198
0.312, 4.933, -0.198
0.300, 4.934, -0.198
0.288, 4.936, -0.198
0.276, 4.938, -0.198
0.264, 4.941, -0.198
0.251, 4.942, -0.198
0.239, 4.944, -0.198
0.227, 4.946, -0.198
0.215, 4.948, -0.198
0.203, 4.949, -0.197
0.190, 4.951, -0.197
0.178, 4.953, -0.197
0.166, 4.954, -0.197
0.154, 4.956, -0.197
0.141, 4.957, -0.197
0.129, 4.959, -0.197
0.117, 4.961, -0.197
0.105, 4.963, -0.197
0.092, 4.963, -0.197
0.080, 4.965, -0.197
0.068, 4.967, -0.197
0.055, 4.967, -0.197
0.043, 4.968, -0.197
0.031, 4.969, -0.196
0.018, 4.970, -0.196
0.411, 5.012, -0.199
0.399, 5.015, -0.199
0.386, 5.017, -0.199
0.373, 5.019, -0.199
0.361, 5.022, -0.199
0.349, 5.024, -0.199
0.336, 5.027, -0.198
0.324, 5.029, -0.198
0.311, 5.031, -0.198
0.299, 5.033, -0.198
0.286, 5.034, -0.198
0.274, 5.038, -0.198
0.261, 5.040, -0.198
0.248, 5.041, -0.198
0.236, 5.043, -0.198
0.223, 5.045, -0.198
0.211, 5.047, -0.198
0.198, 5.048, -0.197
0.185, 5.050, -0.197
0.173, 5.052, -0.197
0.160, 5.054, -0.197
0.147, 5.054, -0.197
0.135, 5.056, -0.197
0.122, 5.058, -0.197
0.109, 5.059, -0.197
0.097, 5.061, -0.197
0.084, 5.062, -0.197
0.071, 5.065, -0.197
0.058, 5.066, -0.197
0.046, 5.069, -0.197
0.033, 5.072, -0.197
0.020, 5.072, -0.197
0.426, 5.114, -0.199
0.414, 5.118, -0.199
0.401, 5.120, -0.199
0.388, 5.123, -0.199
0.375, 5.125, -0.199
0.362, 5.127, -0.199
0.349, 5.131, -0.199
0.336, 5.132, -0.198
0.323, 5.134, -0.198
0.310, 5.136, -0.198
0.297, 5.138, -0.198
0.284, 5.142, -0.198
0.271, 5.144, -0.198
0.258, 5.145, -0.198
0.245, 5.147, -0.198
0.232, 5.149, -0.198
0.219, 5.151, -0.198
0.206, 5.153, -0.197
0.193, 5.155, -0.197
0.180, 5.157, -0.197
0.167, 5.158, -0.197
0.154, 5.159, -0.197
0.140, 5.160, -0.197
0.127, 5.162, -0.197
0.114, 5.164, -0.197
0.101, 5.166, -0.197
0.088, 5.167, -0.197
0.075, 5.170, -0.197
0.062, 5.173, -0.197
0.049, 5.174, -0.197
0.035, 5.177, -0.197
0.022, 5.179, -0.197
0.443, 5.224, -0.199
0.430, 5.228, -0.199
0.416, 5.230, -0.199
