1.033, 15.141, -0.467
0.976, 15.122, -0.464
0.919, 15.104, -0.462
0.863, 15.085, -0.459
0.806, 15.067, -0.457
0.750, 15.048, -0.455
0.694, 15.030, -0.452
0.638, 15.012, -0.450
0.582, 14.995, -0.447
0.527, 14.979, -0.445
0.471, 14.963, -0.443
0.416, 14.947, -0.441
0.361, 14.931, -0.438
0.306, 14.898, -0.436
0.252, 14.882, -0.434
0.197, 14.866, -0.432
2.178, 16.790, -0.506
2.112, 16.774, -0.504
2.046, 16.752, -0.501
1.979, 16.728, -0.498
1.913, 16.704, -0.495
1.847, 16.680, -0.492
1.781, 16.656, -0.490
1.716, 16.631, -0.487
1.650, 16.603, -0.484
1.587, 16.596, -0.480
1.522, 16.568, -0.477
1.457, 16.540, -0.474
1.392, 16.512, -0.471
1.328, 16.484, -0.468
1.264, 16.456, -0.465
1.200, 16.428, -0.462
1.137, 16.401, -0.459
1.074, 16.376, -0.457
1.012, 16.356, -0.454
0.949, 16.336, -0.451
0.887, 16.316, -0.449
0.826, 16.296, -0.446
0.764, 16.268, -0.443
0.701, 16.215, -0.440
0.639, 16.185, -0.437
0.578, 16.155, -0.434
0.518, 16.126, -0.431
0.457, 16.096, -0.428
0.397, 16.067, -0.425
0.337, 16.038, -0.422
0.277, 16.009, -0.419
0.218, 15.983, -0.417
2.892, 21.552, -0.667
2.791, 21.440, -0.659
2.692, 21.329, -0.651
2.602, 21.275, -0.645
2.505, 21.166, -0.637
2.409, 21.059, -0.630
2.310, 20.911, -0.621
2.194, 20.617, -0.604
2.073, 20.261, -0.584
1.957, 19.918, -0.564
1.846, 19.589, -0.546
1.742, 19.306, -0.530
1.652, 19.147, -0.520
1.564, 18.981, -0.510
1.471, 18.744, -0.496
1.380, 18.514, -0.483
1.292, 18.291, -0.470
1.206, 18.074, -0.457
1.129, 17.950, -0.450
1.059, 17.911, -0.446
0.989, 17.878, -0.443
0.920, 17.842, -0.440
0.851, 17.800, -0.436
0.782, 17.759, -0.432
0.713, 17.718, -0.429
0.645, 17.677, -0.425
0.578, 17.636, -0.422
0.510, 17.596, -0.418
0.444, 17.556, -0.415
0.376, 17.492, -0.412
0.311, 17.452, -0.408
0.245, 17.413, -0.405
3.169, 23.392, -0.634
3.076, 23.385, -0.631
2.984, 23.384, -0.629
2.893, 23.383, -0.627
2.801, 23.382, -0.625
1.161, 11.305, -0.072
1.119, 11.285, -0.070
1.077, 11.264, -0.068
1.036, 11.252, -0.067
1.000, 11.284, -0.067
0.957, 11.245, -0.065
2.158, 23.350, -0.610
2.066, 23.338, -0.607
1.974, 23.322, -0.604
1.882, 23.305, -0.602
1.790, 23.288, -0.599
1.667, 22.892, -0.579
1.606, 23.255, -0.593
1.495, 22.967, -0.579
1.424, 23.222, -0.588
1.333, 23.206, -0.585
1.242, 23.189, -0.582
1.152, 23.173, -0.580
1.060, 23.138, -0.576
0.968, 23.073, -0.571
0.876, 23.009, -0.567
0.776, 22.703, -0.551
0.678, 22.400, -0.536
0.583, 22.107, -0.522
0.491, 21.821, -0.507
0.402, 21.544, -0.493
0.315, 21.275, -0.480
3.414, 25.010, -0.572
3.313, 24.999, -0.569
3.213, 24.989, -0.567
3.113, 24.978, -0.564
1.202, 11.304, -0.018
1.159, 11.284, -0.016
1.117, 11.263, -0.013
1.095, 11.409, -0.018
1.034, 11.223, -0.010
0.993, 11.205, -0.009
2.421, 24.931, -0.545
0.914, 11.200, -0.007
2.223, 24.910, -0.540
2.125, 24.899, -0.538
0.801, 11.253, -0.006
0.759, 11.214, -0.004
0.718, 11.192, -0.002
0.678, 11.171, -0.001
1.498, 22.972, -0.453
1.531, 24.754, -0.519
1.433, 24.728, -0.516
1.335, 24.702, -0.513
1.238, 24.676, -0.510
1.141, 24.650, -0.507
1.044, 24.633, -0.504
0.948, 24.623, -0.502
0.852, 24.589, -0.501
0.756, 24.580, -0.499
0.661, 24.571, -0.496
0.565, 24.561, -0.494
0.470, 24.552, -0.491
0.376, 24.543, -0.489
3.741, 27.174, -0.507
3.630, 27.159, -0.504
3.520, 27.144, -0.501
3.410, 27.129, -0.499
1.200, 11.283, 0.039
1.158, 11.262, 0.040
1.116, 11.242, 0.042
2.970, 27.041, -0.487
2.858, 26.999, -0.483
0.991, 11.182, 0.046
0.950, 11.162, 0.048
0.910, 11.157, 0.049
0.871, 11.155, 0.050
0.832, 11.152, 0.051
0.793, 11.149, 0.052
0.760, 11.212, 0.050
1.672, 22.893, -0.331
1.875, 26.675, -0.452
0.638, 11.147, 0.055
0.598, 11.126, 0.056
0.558, 11.105, 0.058
1.450, 26.571, -0.440
1.345, 26.545, -0.437
1.240, 26.519, -0.434
1.135, 26.493, -0.431
1.031, 26.468, -0.428
0.927, 26.442, -0.425
0.823, 26.416, -0.422
0.719, 26.391, -0.419
0.616, 26.365, -0.416
0.513, 26.340, -0.413
0.410, 26.315, -0.410
4.141, 29.829, -0.432
4.017, 29.795, -0.429
3.895, 29.773, -0.426
1.240, 11.282, 0.093
1.198, 11.262, 0.094
1.156, 11.241, 0.096
1.114, 11.221, 0.097
1.072, 11.201, 0.098
1.031, 11.181, 0.100
0.990, 11.162, 0.101
0.949, 11.142, 0.102
0.905, 11.096, 0.104
0.874, 11.178, 0.103
0.843, 11.261, 0.102
0.790, 11.107, 0.107
0.751, 11.104, 0.107
0.713, 11.102, 0.108
0.674, 11.099, 0.109
0.635, 11.096, 0.110
0.599, 11.124, 0.110
0.559, 11.103, 0.111
1.605, 29.095, -0.362
0.480, 11.061, 0.114
0.441, 11.040, 0.115
0.402, 11.020, 0.117
1.138, 28.883, -0.347
1.023, 28.831, -0.343
0.908, 28.779, -0.339
0.793, 28.728, -0.336
0.680, 28.676, -0.332
0.566, 28.625, -0.328
0.454, 28.584, -0.325
2.969, 21.999, -0.093
2.890, 22.048, -0.092
2.812, 22.098, -0.092
1.238, 11.261, 0.148
2.653, 22.198, -0.091
1.154, 11.220, 0.152
1.112, 11.200, 0.153
1.071, 11.180, 0.154
2.330, 22.398, -0.086
2.249, 22.449, -0.085
0.945, 11.096, 0.158
0.914, 11.178, 0.157
0.884, 11.261, 0.156
0.852, 11.345, 0.155
0.806, 11.274, 0.158
0.749, 11.063, 0.163
0.710, 11.060, 0.164
0.672, 11.057, 0.164
0.633, 11.054, 0.165
0.600, 11.122, 0.165
1.329, 22.995, -0.077
0.520, 11.080, 0.167
0.481, 11.059, 0.168
0.442, 11.038, 0.169
0.374, 10.413, 0.183
0.364, 10.997, 0.172
0.325, 10.977, 0.173
1.019, 31.869, -0.244
0.891, 31.812, -0.240
0.764, 31.755, -0.236
0.638, 31.699, -0.233
0.512, 31.643, -0.229
2.974, 22.017, 0.027
2.895, 22.067, 0.028
2.816, 22.116, 0.029
2.737, 22.166, 0.030
2.657, 22.215, 0.031
1.152, 11.199, 0.206
1.111, 11.179, 0.207
2.416, 22.366, 0.033
2.335, 22.417, 0.034
0.984, 11.095, 0.211
0.952, 11.151, 0.211
0.910, 11.129, 0.212
0.881, 11.222, 0.211
0.855, 11.365, 0.210
0.788, 11.064, 0.215
0.749, 11.050, 0.216
0.710, 11.044, 0.217
0.671, 11.038, 0.218
0.633, 11.031, 0.219
0.597, 11.071, 0.219
0.556, 11.019, 0.220
0.517, 11.013, 0.221
1.865, 35.640, -0.132
0.441, 11.000, 0.223
0.379, 10.496, 0.231
0.346, 10.570, 0.230
0.313, 10.644, 0.230
1.123, 34.738, -0.105
0.980, 34.564, -0.100
0.210, 10.875, 0.229
0.171, 10.799, 0.231
0.559, 34.053, -0.085
2.975, 22.010, 0.146
2.896, 22.059, 0.147
2.817, 22.108, 0.148
2.738, 22.157, 0.149
2.658, 22.206, 0.150
2.578, 22.256, 0.152
2.498, 22.306, 0.153
2.417, 22.356, 0.154
2.336, 22.406, 0.155
0.994, 11.175, 0.264
0.954, 11.164, 0.265
0.913, 11.142, 0.266
0.872, 11.120, 0.267
0.843, 11.222, 0.266
0.803, 11.211, 0.267
0.762, 11.198, 0.268
0.710, 11.033, 0.270
0.671, 11.025, 0.271
0.623, 10.889, 0.273
0.589, 10.941, 0.273
0.555, 10.994, 0.274
0.517, 11.000, 0.274
0.480, 11.013, 0.275
0.408, 10.354, 0.281
0.402, 10.969, 0.277
0.365, 10.975, 0.277
0.317, 10.732, 0.280
0.283, 10.809, 0.280
0.249, 10.888, 0.280
0.212, 10.891, 0.281
0.179, 11.108, 0.280
0.142, 11.173, 0.280
5.629, 39.639, 0.192
5.476, 39.696, 0.195
5.322, 39.753, 0.198
5.168, 39.811, 0.200
5.014, 39.868, 0.203
4.859, 39.926, 0.202
4.704, 39.984, 0.205
1.063, 11.092, 0.317
4.392, 40.100, 0.211
1.001, 11.232, 0.318
4.079, 40.217, 0.216
0.932, 11.317, 0.319
0.885, 11.244, 0.320
0.833, 11.110, 0.321
0.792, 11.085, 0.322
0.761, 11.164, 0.322
0.695, 10.840, 0.324
0.662, 10.892, 0.324
0.628, 10.945, 0.325
0.594, 10.998, 0.326
0.459, 9.497, 0.330
0.428, 9.508, 0.331
0.480, 10.987, 0.328
0.415, 10.478, 0.330
0.388, 10.661, 0.330
0.356, 10.745, 0.330
0.322, 10.822, 0.331
0.288, 10.907, 0.332
0.250, 10.893, 0.333
0.212, 10.878, 0.334
0.175, 10.861, 0.334
0.137, 10.842, 0.335
5.666, 39.856, 0.416
5.845, 42.194, 0.423
5.658, 42.092, 0.426
5.371, 41.259, 0.427
8.556, 66.404, 0.482
4.886, 40.102, 0.431
4.948, 41.910, 0.438
1.073, 11.167, 0.371
1.039, 11.209, 0.372
0.997, 11.188, 0.373
0.956, 11.160, 0.373
0.935, 11.337, 0.375
0.872, 11.107, 0.375
0.842, 11.196, 0.376
0.771, 10.844, 0.375
0.736, 10.867, 0.376
0.701, 10.896, 0.377
0.667, 10.949, 0.378
0.516, 9.404, 0.374
0.485, 9.414, 0.374
0.455, 9.424, 0.375
0.424, 9.434, 0.375
0.399, 9.541, 0.376
0.367, 9.542, 0.377
0.332, 9.464, 0.377
0.304, 9.539, 0.378
0.326, 10.909, 0.384
0.288, 10.894, 0.384
0.251, 10.880, 0.385
0.213, 10.865, 0.386
0.176, 10.849, 0.386
0.737, 43.002, 0.519
5.666, 39.834, 0.640
5.879, 42.395, 0.663
5.356, 39.935, 0.647
5.466, 41.917, 0.665
5.043, 40.029, 0.653
4.886, 40.071, 0.656
4.922, 41.664, 0.672
4.836, 42.358, 0.681
1.042, 11.227, 0.427
0.995, 11.157, 0.427
0.973, 11.313, 0.429
0.938, 11.356, 0.430
0.902, 11.400, 0.431
0.815, 10.900, 0.427
0.780, 10.923, 0.428
0.744, 10.947, 0.429
0.708, 10.970, 0.430
0.668, 10.947, 0.430
0.512, 9.334, 0.416
0.481, 9.343, 0.417
0.569, 11.169, 0.434
0.421, 9.363, 0.418
0.390, 9.373, 0.419
0.441, 10.939, 0.434
0.407, 11.008, 0.436
0.367, 10.958, 0.436
0.268, 9.412, 0.421
0.237, 9.422, 0.422
0.263, 11.229, 0.440
0.178, 9.519, 0.424
0.189, 11.412, 0.444
0.151, 11.472, 0.445
5.976, 41.862, 0.896
5.883, 42.394, 0.906
5.360, 39.934, 0.875
5.204, 39.986, 0.879
5.048, 40.032, 0.882
5.151, 42.092, 0.914
12.227, 100.078, 1.728
4.577, 40.178, 0.889
1.034, 11.153, 0.480
0.993, 11.126, 0.480
4.112, 40.403, 0.901
0.909, 11.073, 0.481
0.868, 11.046, 0.481
0.828, 11.020, 0.481
0.829, 11.455, 0.488
0.747, 10.968, 0.482
0.707, 10.943, 0.482
0.667, 10.917, 0.482
0.641, 11.079, 0.485
0.609, 11.173, 0.487
2.517, 40.975, 0.937
0.417, 9.293, 0.460
0.387, 9.303, 0.461
0.357, 9.312, 0.462
0.336, 9.529, 0.466
0.305, 9.530, 0.466
0.273, 9.532, 0.467
0.241, 9.519, 0.468
0.210, 9.531, 0.468
0.178, 9.525, 0.469
0.147, 9.519, 0.469
0.114, 9.424, 0.468
6.025, 42.156, 1.138
5.916, 42.592, 1.150
5.731, 42.514, 1.151
8.968, 67.240, 1.645
7.887, 61.247, 1.530
5.159, 42.119, 1.152
4.740, 40.147, 1.115
6.996, 62.306, 1.569
4.273, 40.338, 1.127
6.650, 63.863, 1.609
0.907, 11.042, 0.534
0.866, 11.016, 0.534
0.826, 10.990, 0.535
0.797, 11.088, 0.537
0.745, 10.939, 0.535
0.705, 10.913, 0.535
0.683, 11.114, 0.540
0.650, 11.185, 0.542
0.495, 9.516, 0.507
0.463, 9.517, 0.508
0.432, 9.518, 0.509
0.400, 9.519, 0.509
0.427, 10.623, 0.533
0.337, 9.522, 0.510
0.305, 9.522, 0.511
0.270, 9.429, 0.509
0.237, 9.363, 0.508
0.206, 9.371, 0.509
0.179, 9.531, 0.513
0.114, 9.394, 0.511
6.126, 42.798, 1.397
9.483, 66.882, 2.020
8.298, 60.521, 1.860
8.117, 61.022, 1.871
5.058, 40.046, 1.333
8.311, 66.429, 2.020
9.754, 80.155, 2.381
7.233, 62.073, 1.915
4.437, 40.308, 1.351
4.282, 40.379, 1.355
4.125, 40.442, 1.359
3.966, 40.492, 1.363
5.860, 61.166, 1.912
6.068, 65.997, 2.044
0.783, 10.935, 0.587
0.744, 10.909, 0.586
0.704, 10.884, 0.586
0.685, 11.121, 0.593
0.644, 11.093, 0.593
0.604, 11.065, 0.593
0.564, 11.037, 0.593
0.524, 11.009, 0.593
0.461, 10.575, 0.582
0.369, 9.514, 0.553
0.337, 9.514, 0.554
0.306, 9.516, 0.555
0.331, 10.925, 0.594
0.237, 9.339, 0.551
0.206, 9.347, 0.551
0.180, 9.522, 0.557
0.149, 9.525, 0.558
0.117, 9.524, 0.559
6.222, 43.406, 1.658
9.437, 66.522, 2.393
5.373, 39.940, 1.554
8.105, 60.895, 2.223
8.160, 63.189, 2.300
7.858, 62.884, 2.295
8.000, 66.095, 2.401
7.257, 62.224, 2.282
7.543, 66.879, 2.435
4.288, 40.399, 1.583
6.484, 62.207, 2.287
6.236, 62.293, 2.294
5.996, 62.470, 2.304
3.653, 40.604, 1.599
0.810, 11.216, 0.648
3.798, 46.052, 1.782
0.727, 11.158, 0.648
0.686, 11.129, 0.647
0.646, 11.101, 0.647
4.496, 66.746, 2.472
2.533, 41.027, 1.631
0.486, 10.384, 0.625
0.462, 10.568, 0.632
0.428, 10.608, 0.634
0.411, 11.001, 0.648
0.297, 9.294, 0.592
0.266, 9.295, 0.592
0.236, 9.297, 0.593
0.205, 9.298, 0.593
0.175, 9.299, 0.594
0.144, 9.301, 0.594
0.118, 9.519, 0.602
8.825, 60.595, 2.555
9.489, 66.833, 2.794
8.271, 60.238, 2.549
8.877, 66.430, 2.781
8.577, 66.252, 2.778
7.689, 61.525, 2.604
8.083, 66.697, 2.804
7.265, 62.229, 2.638
8.116, 71.719, 3.003
6.742, 62.159, 2.643
6.342, 60.837, 2.597
6.184, 61.731, 2.635
5.809, 60.527, 2.592
5.557, 60.499, 2.595
5.347, 60.920, 2.615
0.770, 11.194, 0.703
5.246, 65.753, 2.809
5.014, 66.258, 2.833
0.647, 11.108, 0.701
0.607, 11.080, 0.701
0.567, 11.052, 0.700
0.494, 10.494, 0.679
0.404, 9.540, 0.643
0.371, 9.528, 0.643
0.394, 10.642, 0.687
0.294, 9.208, 0.631
0.264, 9.209, 0.632
0.234, 9.211, 0.632
0.203, 9.212, 0.633
0.173, 9.212, 0.634
0.143, 9.213, 0.634
0.803, 44.993, 2.054
8.145, 56.056, 2.705
8.503, 60.073, 2.884
8.268, 60.173, 2.892
8.013, 60.136, 2.894
7.922, 61.317, 2.949
7.676, 61.380, 2.956
7.500, 61.999, 2.987
7.277, 62.278, 3.003
7.333, 64.957, 3.118
6.616, 60.988, 2.947
6.358, 60.926, 2.948
6.060, 60.475, 2.932
5.817, 60.536, 2.938
5.559, 60.446, 2.938
5.318, 60.533, 2.946
3.821, 46.204, 2.313
6.576, 81.728, 3.896
3.748, 50.051, 2.490
5.741, 79.605, 3.811
3.360, 50.333, 2.508
0.568, 11.059, 0.754
0.496, 10.515, 0.730
0.404, 9.522, 0.686
0.371, 9.511, 0.686
0.395, 10.635, 0.738
0.307, 9.480, 0.686
0.275, 9.477, 0.687
0.244, 9.467, 0.686
0.212, 9.456, 0.686
0.181, 9.445, 0.686
0.184, 10.927, 0.754
0.113, 9.182, 0.675
1.330, 11.003, 0.795
1.296, 11.032, 0.797
1.262, 11.061, 0.799
7.999, 59.992, 3.237
7.773, 60.157, 3.243
7.736, 61.792, 3.328
7.477, 61.767, 3.330
7.464, 63.768, 3.434
7.370, 65.221, 3.510
6.620, 60.965, 3.301
6.336, 60.660, 3.289
6.079, 60.598, 3.289
6.005, 62.353, 3.381
5.650, 61.328, 3.333
5.409, 61.458, 3.343
3.832, 46.282, 2.582
6.386, 79.332, 4.253
4.862, 64.144, 3.490
4.622, 64.457, 3.510
4.373, 64.680, 3.525
4.149, 65.322, 3.561
0.436, 9.515, 0.730
0.403, 9.504, 0.730
0.371, 9.493, 0.730
0.395, 10.628, 0.788
0.307, 9.471, 0.729
0.276, 9.460, 0.729
0.244, 9.449, 0.729
0.212, 9.438, 0.730
0.181, 9.427, 0.730
0.152, 9.508, 0.734
0.115, 9.213, 0.720
1.333, 11.014, 0.850
1.298, 11.043, 0.851
1.264, 11.072, 0.853
8.144, 60.994, 3.636
7.832, 60.548, 3.615
7.627, 60.903, 3.638
7.471, 61.667, 3.684
7.391, 63.107, 3.768
6.994, 61.951, 3.701
6.786, 62.374, 3.728
6.339, 60.630, 3.634
6.087, 60.617, 3.637
5.897, 61.217, 3.674
5.597, 60.717, 3.649
3.990, 45.895, 2.818
3.842, 46.342, 2.846
6.462, 80.143, 4.755
4.640, 61.242, 3.692
4.356, 60.801, 3.671
4.116, 60.932, 3.682
3.180, 50.545, 3.097
0.435, 9.497, 0.773
0.403, 9.486, 0.773
0.371, 9.475, 0.772
0.339, 9.464, 0.773
0.307, 9.453, 0.773
0.276, 9.442, 0.773
1.680, 48.801, 3.022
0.215, 9.507, 0.777
0.143, 8.048, 0.694
0.150, 9.399, 0.772
0.093, 8.059, 0.696
1.335, 11.024, 0.903
8.489, 59.855, 3.914
1.267, 11.083, 0.908
1.232, 11.113, 0.910
7.925, 61.196, 4.007
8.197, 65.231, 4.254
7.689, 63.348, 4.141
7.352, 62.732, 4.106
7.007, 62.005, 4.065
6.749, 61.988, 4.067
6.470, 61.783, 4.058
6.362, 63.185, 4.148
6.133, 63.498, 4.171
7.061, 75.906, 4.947
5.478, 62.074, 4.089
3.847, 46.333, 3.111
3.973, 50.118, 3.350
4.622, 60.933, 4.028
4.512, 62.797, 4.148
4.277, 63.131, 4.172
3.996, 62.788, 4.154
3.748, 62.941, 4.167
3.503, 63.167, 4.185
3.240, 63.090, 4.183
0.339, 9.447, 0.815
0.307, 9.436, 0.815
0.276, 9.425, 0.815
1.663, 48.166, 3.261
0.216, 9.495, 0.821
0.144, 8.043, 0.730
0.118, 8.043, 0.730
0.093, 8.049, 0.731
11.825, 80.165, 5.633
1.303, 11.064, 0.961
1.269, 11.094, 0.963
1.234, 11.124, 0.965
1.199, 11.154, 0.967
1.164, 11.184, 0.970
11.307, 92.016, 6.455
7.354, 62.694, 4.469
0.874, 9.710, 0.871
0.841, 9.706, 0.871
0.808, 9.703, 0.872
6.411, 63.591, 4.537
6.143, 63.540, 4.537
4.166, 45.685, 3.324
5.428, 61.458, 4.402
3.852, 46.345, 3.373
4.867, 60.785, 4.362
4.978, 65.354, 4.678
4.511, 62.703, 4.500
4.266, 62.870, 4.514
3.212, 50.873, 3.696
3.006, 50.879, 3.703
3.548, 63.833, 4.596
3.239, 62.935, 4.538
2.318, 49.512, 3.617
2.763, 63.801, 4.604
2.505, 63.868, 4.612
0.195, 8.052, 0.765
0.170, 8.049, 0.765
0.144, 8.045, 0.765
0.119, 8.042, 0.766
0.094, 8.038, 0.766
1.340, 11.046, 1.013
1.306, 11.075, 1.016
1.272, 11.105, 1.018
1.237, 11.135, 1.020
1.307, 11.949, 1.081
1.167, 11.195, 1.026
0.950, 9.786, 0.922
0.912, 9.746, 0.920
0.876, 9.717, 0.917
0.843, 9.714, 0.917
0.809, 9.710, 0.917
0.776, 9.707, 0.918
0.743, 9.703, 0.918
0.710, 9.700, 0.918
5.438, 61.490, 4.761
3.862, 46.394, 3.643
3.708, 46.807, 3.676
4.699, 61.736, 4.788
5.697, 78.446, 6.034
4.943, 72.354, 5.585
4.206, 65.752, 5.097
4.462, 74.214, 5.731
2.451, 44.776, 3.538
2.263, 44.655, 3.531
2.324, 49.517, 3.901
2.038, 47.639, 3.763
0.221, 8.058, 0.801
0.196, 8.054, 0.801
0.170, 8.051, 0.801
0.145, 8.047, 0.801
0.129, 8.417, 0.830
0.094, 8.040, 0.802
8.222, 56.335, 4.677
10.683, 74.590, 6.135
1.391, 11.933, 1.138
1.239, 11.146, 1.076
1.300, 11.886, 1.135
1.255, 11.863, 1.134
1.134, 11.237, 1.085
0.918, 9.791, 0.969
0.881, 9.751, 0.966
0.844, 9.721, 0.964
6.318, 60.209, 5.003
6.100, 60.495, 5.029
0.745, 9.710, 0.964
0.712, 9.707, 0.964
0.679, 9.703, 0.964
0.646, 9.700, 0.965
0.613, 9.696, 0.965
3.795, 50.244, 4.223
4.405, 61.109, 5.098
3.372, 50.053, 4.212
3.920, 61.353, 5.124
2.647, 44.952, 3.806
2.601, 47.281, 3.996
2.269, 44.660, 3.787
2.125, 45.405, 3.849
1.945, 45.458, 3.860
0.222, 8.060, 0.837
0.197, 8.056, 0.837
0.171, 8.053, 0.837
0.146, 8.049, 0.837
0.129, 8.409, 0.867
0.095, 8.042, 0.837
1.342, 11.046, 1.122
12.517, 86.950, 7.624
1.274, 11.109, 1.127
1.240, 11.143, 1.130
1.205, 11.177, 1.134
1.171, 11.211, 1.137
1.203, 11.779, 1.186
1.159, 11.757, 1.184
1.065, 11.310, 1.146
0.849, 9.756, 1.013
0.682, 8.531, 0.908
0.657, 8.552, 0.910
0.631, 8.572, 0.912
0.714, 9.714, 1.011
0.681, 9.711, 1.011
0.648, 9.707, 1.011
0.615, 9.704, 1.011
0.582, 9.700, 1.011
4.385, 60.751, 5.421
0.517, 9.693, 1.011
0.484, 9.690, 1.011
0.451, 9.686, 1.011
0.419, 9.683, 1.011
0.386, 9.679, 1.012
2.336, 49.545, 4.467
3.489, 79.297, 7.049
0.223, 8.062, 0.873
1.654, 47.378, 4.290
0.210, 9.212, 0.973
0.147, 8.051, 0.873
0.121, 8.048, 0.873
0.096, 8.044, 0.873
1.342, 11.037, 1.175
1.308, 11.067, 1.177
1.273, 11.096, 1.181
8.063, 60.134, 5.682
1.205, 11.164, 1.188
1.236, 11.703, 1.238
11.384, 92.316, 8.639
1.100, 11.268, 1.198
1.106, 11.651, 1.233
1.030, 11.339, 1.205
0.678, 8.485, 0.943
0.651, 8.492, 0.944
0.626, 8.513, 0.946
0.715, 9.722, 1.058
0.682, 9.718, 1.057
0.549, 8.576, 0.952
0.523, 8.597, 0.954
0.497, 8.618, 0.956
3.570, 49.829, 4.764
0.518, 9.701, 1.058
0.485, 9.697, 1.058
0.391, 8.702, 0.966
0.364, 8.724, 0.968
0.337, 8.746, 0.971
0.355, 9.683, 1.058
0.282, 8.789, 0.975
0.255, 8.811, 0.978
0.325, 11.467, 1.225
0.183, 8.370, 0.938
0.147, 8.053, 0.909
0.122, 8.050, 0.909
0.104, 8.404, 0.943
8.314, 56.826, 5.707
1.307, 11.058, 1.232
8.102, 58.630, 5.882
1.238, 11.117, 1.238
1.204, 11.152, 1.241
1.170, 11.186, 1.245
1.135, 11.220, 1.248
1.100, 11.255, 1.252
1.065, 11.290, 1.256
0.704, 8.467, 0.979
1.011, 11.525, 1.279
0.650, 8.476, 0.981
0.623, 8.480, 0.982
0.596, 8.485, 0.982
0.570, 8.496, 0.983
0.544, 8.516, 0.985
0.519, 8.537, 0.988
0.493, 8.558, 0.990
0.552, 9.707, 1.103
0.519, 9.702, 1.104
2.848, 45.020, 4.581
0.387, 8.640, 1.000
0.361, 8.662, 1.002
0.388, 9.682, 1.103
0.356, 9.678, 1.103
0.279, 8.696, 1.006
0.291, 9.668, 1.103
0.239, 9.144, 1.052
0.196, 8.729, 1.011
0.157, 8.374, 0.976
0.123, 8.052, 0.945
0.095, 7.912, 0.932
8.918, 60.751, 6.444
8.627, 60.492, 6.420
1.273, 11.079, 1.288
1.043, 9.708, 1.146
1.010, 9.712, 1.147
0.978, 9.716, 1.147
0.946, 9.721, 1.147
1.099, 11.242, 1.306
0.881, 9.730, 1.149
0.703, 8.454, 1.017
0.677, 8.458, 1.017
0.784, 9.738, 1.151
0.750, 9.729, 1.150
0.717, 9.722, 1.150
6.291, 70.362, 7.461
0.651, 9.711, 1.148
3.703, 46.453, 4.976
0.489, 8.498, 1.023
0.552, 9.697, 1.149
0.436, 8.528, 1.027
0.409, 8.537, 1.028
2.644, 44.594, 4.796
0.421, 9.678, 1.148
0.328, 8.564, 1.032
0.301, 8.573, 1.033
0.274, 8.582, 1.034
0.247, 8.590, 1.036
0.220, 8.599, 1.037
0.193, 8.618, 1.039
0.158, 8.366, 1.013
0.131, 8.377, 1.015
0.098, 8.023, 0.978
1.425, 11.562, 1.395
8.037, 56.468, 6.330
1.078, 9.720, 1.194
1.046, 9.725, 1.194
1.014, 9.729, 1.195
0.981, 9.733, 1.195
1.134, 11.200, 1.357
0.917, 9.742, 1.196
0.884, 9.747, 1.197
0.852, 9.751, 1.198
0.818, 9.738, 1.197
0.784, 9.730, 1.196
0.750, 9.723, 1.195
0.579, 8.296, 1.039
0.684, 9.709, 1.195
0.533, 8.369, 1.047
0.618, 9.697, 1.194
0.585, 9.692, 1.194
0.457, 8.433, 1.055
0.431, 8.440, 1.056
0.404, 8.448, 1.057
0.377, 8.456, 1.058
0.351, 8.463, 1.059
0.324, 8.471, 1.060
0.356, 9.658, 1.192
0.324, 9.658, 1.193
0.237, 8.325, 1.046
0.210, 8.336, 1.047
0.184, 8.347, 1.049
0.158, 8.358, 1.051
0.123, 7.993, 1.010
0.099, 8.052, 1.017
1.415, 11.493, 1.446
1.314, 11.080, 1.397
1.082, 9.737, 1.242
1.049, 9.742, 1.243
1.017, 9.746, 1.243
0.984, 9.751, 1.244
7.711, 63.046, 7.425
0.920, 9.760, 1.245
6.842, 60.111, 7.083
0.851, 9.738, 1.242
0.818, 9.731, 1.242
0.784, 9.724, 1.241
0.598, 8.213, 1.066
0.576, 8.248, 1.071
0.553, 8.284, 1.075
0.529, 8.320, 1.079
0.506, 8.357, 1.084
0.479, 8.359, 1.084
0.452, 8.357, 1.084
0.426, 8.364, 1.085
0.400, 8.371, 1.086
0.373, 8.379, 1.088
0.347, 8.386, 1.089
0.321, 8.394, 1.090
1.789, 38.126, 4.559
0.297, 9.038, 1.166
0.268, 9.052, 1.168
0.211, 8.328, 1.084
0.189, 8.476, 1.102
0.163, 8.487, 1.103
0.126, 8.107, 1.059
0.104, 8.260, 1.078
1.353, 11.075, 1.452
1.317, 11.098, 1.455
7.681, 55.532, 6.873
1.052, 9.759, 1.291
1.210, 11.165, 1.463
1.193, 11.337, 1.483
1.139, 11.224, 1.470
1.104, 11.255, 1.474
4.056, 36.524, 4.559
0.851, 9.731, 1.289
0.818, 9.725, 1.287
0.784, 9.717, 1.287
0.751, 9.710, 1.286
0.903, 11.614, 1.519
0.549, 8.236, 1.106
0.526, 8.272, 1.111
0.741, 11.145, 1.462
0.743, 11.648, 1.524
0.447, 8.282, 1.113
0.667, 11.726, 1.535
0.395, 8.297, 1.115
0.369, 8.304, 1.116
0.343, 8.310, 1.118
0.465, 11.024, 1.451
1.704, 36.368, 4.559
0.296, 9.005, 1.204
1.414, 36.349, 4.559
0.211, 8.320, 1.121
0.185, 8.330, 1.122
0.159, 8.335, 1.123
0.126, 8.060, 1.090
0.100, 8.056, 1.090
1.356, 11.093, 1.509
1.321, 11.115, 1.511
1.285, 11.138, 1.515
1.249, 11.160, 1.517
1.213, 11.182, 1.520
1.178, 11.212, 1.524
4.148, 34.899, 4.559
0.919, 9.739, 1.335
0.885, 9.732, 1.335
0.851, 9.725, 1.334
3.586, 34.890, 4.559
0.784, 9.711, 1.333
0.751, 9.704, 1.332
0.909, 11.669, 1.584
0.685, 9.690, 1.331
0.780, 11.129, 1.515
0.740, 11.112, 1.513
0.700, 11.094, 1.512
0.660, 11.077, 1.510
0.621, 11.061, 1.508
0.582, 11.051, 1.507
0.543, 11.041, 1.506
0.504, 11.031, 1.505
0.466, 11.021, 1.504
0.324, 8.973, 1.241
0.297, 9.014, 1.247
0.295, 9.653, 1.330
0.214, 8.375, 1.165
0.188, 8.386, 1.167
0.156, 8.196, 1.143
0.135, 8.410, 1.171
0.106, 8.318, 1.160
1.360, 11.109, 1.566
1.324, 11.132, 1.569
1.288, 11.154, 1.571
1.273, 11.320, 1.594
1.230, 11.303, 1.592
1.189, 11.286, 1.589
1.147, 11.269, 1.587
0.919, 9.733, 1.381
3.794, 34.250, 4.671
0.852, 9.719, 1.380
0.818, 9.712, 1.378
0.992, 11.665, 1.641
0.953, 11.687, 1.644
0.860, 11.146, 1.572
0.873, 11.704, 1.647
0.820, 11.576, 1.630
0.783, 11.615, 1.636
0.751, 11.714, 1.649
0.555, 9.686, 1.377
0.522, 9.679, 1.376
0.490, 9.671, 1.375
0.545, 11.053, 1.561
0.506, 11.043, 1.561
0.467, 11.033, 1.560
0.291, 8.299, 1.192
0.422, 11.698, 1.650
0.239, 8.321, 1.195
0.213, 8.332, 1.198
0.187, 8.346, 1.200
0.161, 8.360, 1.202
0.135, 8.374, 1.205
0.109, 8.388, 1.207
1.363, 11.126, 1.624
1.328, 11.148, 1.626
1.301, 11.234, 1.638
1.271, 11.300, 1.648
1.226, 11.261, 1.642
1.190, 11.286, 1.646
1.154, 11.317, 1.650
3.954, 34.401, 4.888
3.791, 34.199, 4.857
3.631, 33.999, 4.830
0.818, 9.706, 1.424
0.785, 9.699, 1.424
0.901, 11.162, 1.629
0.860, 11.135, 1.626
0.817, 11.091, 1.620
0.825, 11.612, 1.693
0.624, 9.718, 1.427
0.754, 11.742, 1.712
0.557, 9.703, 1.426
0.676, 11.805, 1.721
0.491, 9.688, 1.424
0.459, 9.681, 1.423
0.341, 8.235, 1.220
0.315, 8.246, 1.222
0.290, 8.256, 1.224
0.264, 8.270, 1.226
0.238, 8.284, 1.228
0.244, 9.110, 1.345
0.187, 8.311, 1.233
0.161, 8.325, 1.235
0.164, 9.496, 1.401
0.121, 8.942, 1.323
1.367, 11.143, 1.682
1.347, 11.269, 1.699
1.309, 11.283, 1.702
1.270, 11.285, 1.702
1.234, 11.311, 1.705
1.184, 11.235, 1.695
1.143, 11.219, 1.692
1.125, 11.394, 1.717
1.089, 11.426, 1.722
3.642, 34.060, 5.034
0.985, 11.206, 1.691
0.794, 9.774, 1.481
0.760, 9.766, 1.479
0.726, 9.758, 1.479
0.815, 11.067, 1.670
0.659, 9.743, 1.477
0.737, 11.045, 1.668
0.593, 9.728, 1.475
0.560, 9.720, 1.474
0.527, 9.712, 1.473
0.494, 9.705, 1.473
0.461, 9.698, 1.472
0.339, 8.195, 1.252
0.314, 8.209, 1.254
0.289, 8.222, 1.256
0.263, 8.235, 1.259
0.238, 8.249, 1.261
0.212, 8.263, 1.263
0.186, 8.276, 1.266
0.161, 8.290, 1.268
0.135, 8.304, 1.270
0.109, 8.317, 1.273
1.393, 11.305, 1.762
1.355, 11.318, 1.763
1.314, 11.311, 1.762
1.269, 11.271, 1.756
1.224, 11.231, 1.750
1.182, 11.210, 1.747
1.140, 11.194, 1.744
1.132, 11.442, 1.782
3.806, 34.265, 5.260
0.864, 9.807, 1.533
0.830, 9.799, 1.532
0.796, 9.791, 1.530
0.762, 9.783, 1.529
0.729, 9.775, 1.528
0.695, 9.767, 1.527
0.662, 9.760, 1.526
0.628, 9.752, 1.525
0.595, 9.744, 1.524
0.562, 9.737, 1.523
0.529, 9.729, 1.522
0.496, 9.721, 1.521
0.595, 11.787, 1.838
0.376, 8.811, 1.383
0.349, 8.834, 1.387
0.288, 8.188, 1.288
0.306, 9.132, 1.433
0.301, 9.714, 1.523
0.241, 9.012, 1.415
0.224, 9.352, 1.468
0.160, 8.255, 1.301
0.176, 9.880, 1.550
0.109, 8.282, 1.306
1.401, 11.355, 1.826
1.359, 11.337, 1.823
1.313, 11.297, 1.817
1.268, 11.257, 1.811
1.223, 11.217, 1.804
1.179, 11.185, 1.799
1.138, 11.169, 1.796
1.139, 11.491, 1.847
5.163, 45.631, 7.258
5.182, 47.420, 7.543
0.833, 9.815, 1.582
0.799, 9.807, 1.580
0.765, 9.799, 1.579
0.855, 11.057, 1.778
0.698, 9.783, 1.577
0.774, 11.008, 1.771
0.631, 9.768, 1.574
0.696, 10.987, 1.768
0.564, 9.752, 1.572
0.531, 9.745, 1.571
0.497, 9.737, 1.570
0.465, 9.730, 1.570
0.376, 8.783, 1.420
0.402, 9.777, 1.578
0.369, 9.767, 1.576
1.338, 31.146, 4.973
0.236, 8.181, 1.325
0.253, 9.286, 1.501
0.212, 8.993, 1.455
0.182, 8.960, 1.450
0.152, 8.929, 1.446
0.121, 8.810, 1.427
1.334, 11.433, 1.896
1.267, 11.243, 1.865
1.222, 11.203, 1.857
1.183, 11.508, 1.908
1.086, 11.721, 1.943
0.835, 9.831, 1.632
0.942, 11.147, 1.848
0.963, 11.729, 1.944
0.853, 11.026, 1.828
0.700, 9.800, 1.626
0.666, 9.792, 1.625
0.633, 9.784, 1.624
0.599, 9.776, 1.623
0.566, 9.768, 1.622
0.533, 9.761, 1.621
0.637, 11.775, 1.953
0.402, 8.734, 1.452
0.375, 8.764, 1.458
0.406, 9.829, 1.633
0.372, 9.820, 1.632
0.309, 9.169, 1.525
0.282, 9.226, 1.535
0.243, 9.005, 1.499
0.212, 8.973, 1.494
0.182, 8.941, 1.489
0.150, 8.823, 1.470
0.143, 9.781, 1.629
0.018, 4.968, -0.196
0.006, 4.968, -0.196
-0.006, 4.970, -0.196
-0.019, 4.970, -0.196
-0.031, 4.972, -0.195
-0.043, 4.972, -0.195
-0.056, 4.972, -0.195
-0.068, 4.974, -0.195
-0.081, 4.974, -0.195
-0.093, 4.974, -0.195
-0.105, 4.974, -0.195
-0.118, 4.976, -0.195
-0.130, 4.976, -0.195
-0.143, 4.977, -0.195
-0.155, 4.977, -0.194
-0.167, 4.977, -0.194
-0.180, 4.977, -0.194
-0.192, 4.977, -0.194
-0.205, 4.978, -0.194
-0.217, 4.978, -0.194
-0.230, 4.978, -0.194
-0.242, 4.977, -0.194
-0.254, 4.977, -0.194
-0.267, 4.977, -0.194
-0.279, 4.977, -0.194
-0.292, 4.976, -0.193
-0.304, 4.976, -0.193
-0.317, 4.977, -0.193
-0.329, 4.975, -0.193
-0.342, 4.976, -0.193
-0.354, 4.974, -0.193
-0.366, 4.975, -0.193
0.020, 5.069, -0.197
0.007, 5.072, -0.196
-0.005, 5.072, -0.196
-0.018, 5.072, -0.196
-0.031, 5.074, -0.196
-0.044, 5.074, -0.196
-0.056, 5.077, -0.196
-0.069, 5.077, -0.196
-0.082, 5.077, -0.196
-0.095, 5.077, -0.196
-0.108, 5.078, -0.196
-0.121, 5.080, -0.196
-0.134, 5.080, -0.196
-0.146, 5.080, -0.195
-0.159, 5.081, -0.195
-0.172, 5.081, -0.195
-0.185, 5.081, -0.195
-0.198, 5.082, -0.195
-0.211, 5.082, -0.195
-0.224, 5.082, -0.195
-0.237, 5.082, -0.195
-0.249, 5.081, -0.195
-0.262, 5.081, -0.195
-0.275, 5.082, -0.194
-0.288, 5.082, -0.194
-0.301, 5.082, -0.194
-0.314, 5.081, -0.194
-0.327, 5.081, -0.194
-0.340, 5.079, -0.194
-0.353, 5.080, -0.194
-0.365, 5.080, -0.194
-0.378, 5.078, -0.194
0.022, 5.176, -0.197
0.009, 5.179, -0.197
-0.004, 5.180, -0.197
-0.018, 5.184, -0.197
-0.031, 5.185, -0.197
-0.044, 5.187, -0.197
-0.057, 5.190, -0.197
-0.071, 5.191, -0.197
-0.084, 5.193, -0.198
-0.097, 5.194, -0.198
-0.111, 5.194, -0.197
-0.124, 5.196, -0.197
-0.137, 5.196, -0.197
-0.151, 5.197, -0.197
-0.164, 5.197, -0.197
-0.177, 5.197, -0.197
-0.191, 5.198, -0.197
-0.204, 5.198, -0.197
-0.218, 5.199, -0.197
-0.231, 5.199, -0.197
-0.244, 5.199, -0.196
-0.258, 5.198, -0.196
-0.271, 5.198, -0.196
-0.284, 5.198, -0.196
-0.298, 5.199, -0.196
-0.311, 5.199, -0.196
-0.325, 5.197, -0.196
-0.338, 5.198, -0.196
-0.351, 5.198, -0.196
-0.365, 5.196, -0.196
-0.378, 5.197, -0.195
-0.391, 5.195, -0.195
0.024, 5.288, -0.197
0.010, 5.292, -0.197
-0.003, 5.293, -0.197
-0.017, 5.295, -0.197
-0.031, 5.298, -0.197
-0.044, 5.300, -0.197
-0.058, 5.302, -0.197
-0.072, 5.305, -0.197
-0.086, 5.307, -0.198
-0.099, 5.308, -0.198
-0.113, 5.310, -0.198
-0.127, 5.312, -0.198
-0.141, 5.315, -0.198
-0.155, 5.317, -0.198
-0.169, 5.318, -0.198
-0.183, 5.320, -0.198
-0.197, 5.322, -0.198
-0.211, 5.323, -0.199
-0.225, 5.324, -0.199
-0.239, 5.325, -0.198
-0.253, 5.323, -0.198
-0.266, 5.323, -0.198
-0.280, 5.324, -0.198
-0.294, 5.324, -0.198
-0.308, 5.325, -0.198
-0.322, 5.323, -0.198
-0.336, 5.323, -0.198
-0.350, 5.324, -0.198
-0.364, 5.322, -0.197
-0.378, 5.322, -0.197
-0.392, 5.323, -0.197
-0.406, 5.321, -0.197
0.026, 5.409, -0.197
0.012, 5.413, -0.197
-0.002, 5.415, -0.197
-0.016, 5.417, -0.197
-0.030, 5.420, -0.197
-0.045, 5.422, -0.197
-0.059, 5.424, -0.197
-0.073, 5.426, -0.197
-0.087, 5.429, -0.198
-0.102, 5.431, -0.198
-0.116, 5.433, -0.198
-0.131, 5.435, -0.198
-0.145, 5.436, -0.198
-0.159, 5.438, -0.198
-0.174, 5.440, -0.198
-0.188, 5.442, -0.198
-0.203, 5.444, -0.198
-0.217, 5.445, -0.199
-0.232, 5.447, -0.199
-0.246, 5.449, -0.199
-0.261, 5.451, -0.199
-0.275, 5.452, -0.199
-0.290, 5.454, -0.199
-0.305, 5.456, -0.199
-0.319, 5.456, -0.199
-0.334, 5.457, -0.199
-0.349, 5.459, -0.200
-0.363, 5.460, -0.200
-0.378, 5.458, -0.199
-0.392, 5.459, -0.199
-0.407, 5.459, -0.199
-0.421, 5.458, -0.199
0.029, 5.540, -0.197
0.014, 5.542, -0.197
-0.001, 5.546, -0.197
-0.015, 5.548, -0.197
-0.030, 5.549, -0.197
-0.045, 5.554, -0.197
-0.060, 5.556, -0.197
-0.075, 5.557, -0.197
-0.090, 5.559, -0.198
-0.104, 5.561, -0.198
-0.119, 5.565, -0.198
-0.134, 5.567, -0.198
-0.149, 5.569, -0.198
-0.164, 5.571, -0.198
-0.179, 5.573, -0.198
-0.194, 5.575, -0.198
-0.209, 5.577, -0.198
-0.224, 5.579, -0.199
-0.240, 5.581, -0.199
-0.255, 5.583, -0.199
-0.270, 5.585, -0.199
-0.285, 5.587, -0.199
-0.300, 5.586, -0.199
-0.315, 5.588, -0.199
-0.330, 5.590, -0.199
-0.346, 5.592, -0.200
-0.361, 5.594, -0.200
-0.376, 5.594, -0.200
-0.391, 5.596, -0.200
-0.407, 5.598, -0.200
-0.422, 5.598, -0.200
-0.437, 5.600, -0.200
0.031, 5.678, -0.197
0.016, 5.683, -0.197
0.001, 5.685, -0.197
-0.015, 5.689, -0.197
-0.030, 5.691, -0.197
-0.045, 5.693, -0.197
-0.061, 5.695, -0.197
-0.076, 5.700, -0.197
-0.092, 5.702, -0.198
-0.107, 5.704, -0.198
-0.123, 5.706, -0.198
-0.138, 5.708, -0.198
-0.154, 5.710, -0.198
-0.169, 5.713, -0.198
-0.185, 5.715, -0.198
-0.201, 5.719, -0.198
-0.217, 5.721, -0.199
-0.232, 5.721, -0.199
-0.248, 5.723, -0.199
-0.264, 5.725, -0.199
-0.279, 5.727, -0.199
-0.295, 5.730, -0.199
-0.311, 5.732, -0.199
-0.327, 5.734, -0.199
-0.343, 5.736, -0.200
-0.358, 5.736, -0.200
-0.374, 5.738, -0.200
-0.390, 5.740, -0.200
-0.406, 5.742, -0.200
-0.422, 5.742, -0.200
-0.438, 5.744, -0.200
-0.453, 5.744, -0.200
0.034, 5.831, -0.197
0.018, 5.833, -0.197
0.002, 5.838, -0.197
-0.014, 5.840, -0.197
-0.030, 5.842, -0.197
-0.046, 5.847, -0.197
-0.062, 5.850, -0.197
-0.078, 5.852, -0.197
-0.094, 5.854, -0.198
-0.110, 5.857, -0.198
-0.126, 5.861, -0.198
-0.143, 5.864, -0.198
-0.159, 5.866, -0.198
-0.175, 5.868, -0.198
-0.191, 5.871, -0.198
-0.208, 5.873, -0.198
-0.224, 5.876, -0.199
-0.240, 5.878, -0.199
-0.257, 5.880, -0.199
-0.273, 5.883, -0.199
-0.290, 5.885, -0.199
-0.306, 5.887, -0.199
-0.322, 5.887, -0.199
-0.339, 5.889, -0.199
-0.355, 5.892, -0.200
-0.372, 5.894, -0.200
-0.389, 5.897, -0.200
-0.405, 5.896, -0.200
-0.422, 5.899, -0.200
-0.438, 5.901, -0.200
-0.455, 5.901, -0.200
-0.471, 5.903, -0.200
0.037, 5.994, -0.197
0.021, 5.999, -0.197
0.004, 6.002, -0.197
-0.013, 6.004, -0.197
-0.030, 6.010, -0.197
-0.046, 6.013, -0.197
-0.063, 6.015, -0.197
-0.080, 6.018, -0.198
-0.097, 6.024, -0.198
-0.113, 6.027, -0.198
-0.130, 6.030, -0.198
-0.147, 6.033, -0.198
-0.164, 6.036, -0.199
-0.181, 6.039, -0.199
-0.198, 6.042, -0.199
-0.215, 6.045, -0.199
-0.233, 6.048, -0.199
-0.250, 6.050, -0.199
-0.267, 6.053, -0.200
-0.284, 6.056, -0.200
-0.301, 6.059, -0.200
-0.318, 6.062, -0.200
-0.336, 6.065, -0.200
-0.353, 6.068, -0.201
-0.370, 6.068, -0.201
-0.388, 6.071, -0.201
-0.405, 6.074, -0.201
-0.422, 6.077, -0.201
-0.439, 6.076, -0.201
-0.457, 6.079, -0.201
-0.474, 6.082, -0.202
-0.492, 6.082, -0.202
0.041, 6.196, -0.199
0.023, 6.199, -0.200
0.006, 6.203, -0.200
-0.012, 6.209, -0.200
-0.029, 6.212, -0.200
-0.047, 6.216, -0.200
-0.064, 6.219, -0.201
-0.082, 6.225, -0.201
-0.100, 6.229, -0.201
-0.118, 6.232, -0.201
-0.135, 6.235, -0.201
-0.153, 6.238, -0.202
-0.171, 6.242, -0.202
-0.189, 6.245, -0.202
-0.207, 6.248, -0.202
-0.225, 6.251, -0.202
-0.243, 6.255, -0.203
-0.261, 6.258, -0.203
-0.279, 6.261, -0.203
-0.297, 6.265, -0.203
-0.315, 6.268, -0.203
-0.333, 6.271, -0.203
-0.351, 6.274, -0.204
-0.370, 6.278, -0.204
-0.388, 6.281, -0.204
-0.406, 6.281, -0.204
-0.424, 6.284, -0.204
-0.443, 6.287, -0.205
-0.461, 6.291, -0.205
-0.479, 6.291, -0.205
-0.498, 6.294, -0.205
-0.516, 6.297, -0.205
0.045, 6.419, -0.203
0.026, 6.422, -0.203
0.008, 6.430, -0.203
-0.010, 6.433, -0.203
-0.029, 6.437, -0.204
-0.047, 6.441, -0.204
-0.066, 6.448, -0.204
-0.085, 6.452, -0.204
-0.103, 6.455, -0.205
-0.122, 6.459, -0.205
-0.141, 6.463, -0.205
-0.160, 6.466, -0.205
-0.178, 6.470, -0.205
-0.197, 6.474, -0.206
-0.216, 6.481, -0.206
-0.235, 6.485, -0.206
-0.254, 6.489, -0.206
-0.273, 6.492, -0.206
-0.292, 6.492, -0.207
-0.311, 6.496, -0.207
-0.330, 6.499, -0.207
-0.350, 6.503, -0.207
-0.369, 6.507, -0.207
-0.388, 6.511, -0.208
-0.407, 6.514, -0.208
-0.426, 6.516, -0.208
-0.445, 6.514, -0.208
-0.465, 6.517, -0.208
-0.484, 6.519, -0.208
-0.503, 6.521, -0.208
-0.522, 6.520, -0.208
-0.541, 6.522, -0.208
0.049, 6.667, -0.207
0.030, 6.671, -0.207
0.011, 6.679, -0.207
-0.009, 6.683, -0.207
-0.029, 6.687, -0.207
-0.048, 6.691, -0.208
-0.068, 6.700, -0.208
-0.087, 6.704, -0.208
-0.107, 6.708, -0.208
-0.127, 6.712, -0.209
-0.147, 6.716, -0.209
-0.167, 6.720, -0.209
-0.187, 6.724, -0.209
-0.207, 6.731, -0.209
-0.227, 6.733, -0.209
-0.247, 6.736, -0.209
-0.267, 6.738, -0.209
-0.287, 6.741, -0.209
-0.307, 6.744, -0.209
-0.327, 6.742, -0.209
-0.347, 6.744, -0.209
-0.367, 6.747, -0.209
-0.387, 6.750, -0.209
-0.407, 6.752, -0.209
-0.427, 6.755, -0.209
-0.448, 6.757, -0.209
-0.468, 6.756, -0.209
-0.488, 6.758, -0.210
-0.508, 6.761, -0.210
-0.528, 6.763, -0.210
-0.548, 6.762, -0.210
-0.569, 6.764, -0.210
0.054, 6.944, -0.211
0.034, 6.953, -0.211
0.013, 6.956, -0.211
-0.008, 6.959, -0.211
-0.028, 6.961, -0.211
-0.049, 6.964, -0.211
-0.070, 6.972, -0.211
-0.091, 6.974, -0.211
-0.111, 6.977, -0.211
-0.132, 6.980, -0.211
-0.153, 6.983, -0.211
-0.174, 6.986, -0.211
-0.195, 6.989, -0.211
-0.216, 6.991, -0.211
-0.238, 6.999, -0.211
-0.259, 7.002, -0.211
-0.280, 7.005, -0.211
-0.301, 7.008, -0.211
-0.322, 7.006, -0.211
-0.343, 7.009, -0.211
-0.364, 7.011, -0.211
-0.386, 7.014, -0.211
-0.407, 7.017, -0.211
-0.428, 7.019, -0.211
-0.450, 7.022, -0.211
-0.471, 7.025, -0.211
-0.492, 7.023, -0.211
-0.514, 7.026, -0.211
-0.535, 7.029, -0.211
-0.556, 7.031, -0.211
-0.578, 7.034, -0.211
-0.599, 7.032, -0.211
0.062, 7.348, -0.225
0.039, 7.345, -0.224
0.017, 7.334, -0.223
-0.006, 7.323, -0.221
-0.028, 7.312, -0.220
-0.050, 7.301, -0.218
-0.072, 7.298, -0.217
-0.094, 7.287, -0.215
-0.116, 7.276, -0.214
-0.138, 7.266, -0.212
-0.160, 7.259, -0.211
-0.182, 7.262, -0.211
-0.204, 7.265, -0.211
-0.226, 7.268, -0.211
-0.249, 7.271, -0.211
-0.271, 7.274, -0.211
-0.293, 7.277, -0.211
-0.316, 7.280, -0.211
-0.338, 7.283, -0.211
-0.360, 7.286, -0.211
-0.383, 7.289, -0.211
-0.405, 7.292, -0.211
-0.428, 7.295, -0.211
-0.450, 7.299, -0.211
-0.473, 7.302, -0.211
-0.495, 7.305, -0.211
-0.515, 7.270, -0.208
-0.534, 7.241, -0.204
-0.553, 7.213, -0.201
-0.572, 7.184, -0.198
-0.591, 7.156, -0.194
-0.610, 7.129, -0.192
0.071, 7.912, -0.252
0.047, 7.899, -0.250
0.022, 7.896, -0.249
-0.003, 7.882, -0.247
-0.027, 7.869, -0.245
-0.052, 7.856, -0.243
-0.076, 7.842, -0.242
-0.101, 7.839, -0.240
-0.125, 7.826, -0.239
-0.149, 7.813, -0.237
-0.173, 7.800, -0.235
-0.197, 7.787, -0.234
-0.221, 7.774, -0.232
-0.245, 7.761, -0.230
-0.268, 7.748, -0.229
-0.292, 7.735, -0.227
-0.315, 7.723, -0.225
-0.339, 7.710, -0.224
-0.362, 7.697, -0.222
-0.385, 7.685, -0.220
-0.408, 7.672, -0.219
-0.431, 7.660, -0.217
-0.454, 7.647, -0.215
-0.477, 7.635, -0.214
-0.499, 7.623, -0.212
-0.522, 7.613, -0.211
-0.514, 7.271, -0.177
-0.533, 7.242, -0.173
-0.553, 7.213, -0.170
-0.572, 7.185, -0.167
-0.590, 7.157, -0.164
-0.609, 7.129, -0.161
0.117, 10.610, -0.478
0.079, 10.422, -0.459
0.043, 10.379, -0.453
0.007, 10.271, -0.442
-0.027, 10.165, -0.432
-0.061, 10.062, -0.421
-0.094, 9.962, -0.411
-0.126, 9.864, -0.401
-0.159, 9.826, -0.396
-0.189, 9.731, -0.387
-0.220, 9.639, -0.377
-0.249, 9.549, -0.368
-0.278, 9.460, -0.359
-0.306, 9.374, -0.350
-0.333, 9.290, -0.342
-0.360, 9.207, -0.333
-0.386, 9.126, -0.325
-0.412, 9.048, -0.317
-0.438, 8.983, -0.311
-0.464, 8.933, -0.305
-0.490, 8.884, -0.300
-0.515, 8.835, -0.295
-0.540, 8.788, -0.290
-0.565, 8.740, -0.285
-0.587, 8.666, -0.278
-0.612, 8.620, -0.274
-0.514, 7.272, -0.145
-0.533, 7.243, -0.142
-0.552, 7.214, -0.139
-0.571, 7.186, -0.136
-0.590, 7.158, -0.134
-0.608, 7.130, -0.131
0.130, 11.345, -0.493
0.091, 11.332, -0.491
0.052, 11.320, -0.490
0.013, 11.314, -0.487
-0.026, 11.302, -0.486
-0.066, 11.289, -0.484
-0.104, 11.277, -0.482
-0.143, 11.265, -0.481
-0.182, 11.256, -0.479
-0.221, 11.248, -0.478
-0.259, 11.241, -0.477
-0.298, 11.239, -0.475
-0.337, 11.232, -0.474
-0.376, 11.225, -0.472
-0.378, 10.370, -0.395
-0.412, 10.342, -0.392
-0.446, 10.309, -0.389
-0.482, 10.326, -0.390
-0.520, 10.389, -0.395
-0.606, 11.181, -0.465
-0.644, 11.174, -0.464
-0.682, 11.161, -0.463
-0.720, 11.154, -0.462
-0.759, 11.147, -0.460
-0.797, 11.139, -0.459
-0.835, 11.132, -0.458
-0.513, 7.273, -0.114
-0.532, 7.244, -0.111
-0.551, 7.215, -0.108
-0.571, 7.187, -0.106
-0.589, 7.159, -0.103
-0.608, 7.131, -0.100
0.138, 11.751, -0.472
0.097, 11.737, -0.470
0.056, 11.724, -0.468
0.015, 11.711, -0.466
-0.025, 11.697, -0.465
-0.066, 11.691, -0.463
-0.107, 11.677, -0.461
-0.147, 11.664, -0.459
-0.188, 11.651, -0.457
-0.228, 11.638, -0.456
-0.268, 11.625, -0.454
-0.308, 11.612, -0.452
-0.348, 11.598, -0.450
-0.388, 11.585, -0.449
-0.377, 10.364, -0.346
-0.411, 10.336, -0.343
-0.446, 10.335, -0.342
-0.483, 10.373, -0.345
-0.587, 11.537, -0.441
-0.627, 11.530, -0.440
-0.667, 11.522, -0.439
-0.707, 11.514, -0.437
-0.746, 11.506, -0.436
-0.786, 11.499, -0.435
-0.825, 11.491, -0.434
-0.865, 11.483, -0.432
-0.512, 7.274, -0.083
-0.532, 7.245, -0.080
-0.551, 7.216, -0.078
-0.570, 7.188, -0.075
-0.589, 7.160, -0.072
-0.607, 7.132, -0.070
0.149, 12.308, -0.459
0.105, 12.296, -0.456
0.062, 12.272, -0.453
0.019, 12.247, -0.451
-0.024, 12.222, -0.448
-0.067, 12.198, -0.446
-0.110, 12.174, -0.443
-0.152, 12.149, -0.440
-0.195, 12.138, -0.438
-0.237, 12.114, -0.435
-0.279, 12.090, -0.433
-0.321, 12.066, -0.430
-0.362, 12.042, -0.428
-0.342, 10.386, -0.298
-0.376, 10.357, -0.295
-0.410, 10.347, -0.294
-0.447, 10.385, -0.296
-0.569, 11.958, -0.418
-0.610, 11.944, -0.416
-0.651, 11.930, -0.414
-0.692, 11.916, -0.412
-0.733, 11.902, -0.411
-0.774, 11.888, -0.409
-0.815, 11.879, -0.407
-0.856, 11.864, -0.407
-0.897, 11.856, -0.405
-0.512, 7.274, -0.052
-0.531, 7.245, -0.049
-0.550, 7.217, -0.047
-0.569, 7.188, -0.044
-0.588, 7.160, -0.041
-0.607, 7.133, -0.040
0.164, 13.124, -0.457
0.117, 13.109, -0.455
0.070, 13.091, -0.453
0.023, 13.071, -0.451
-0.023, 13.064, -0.448
-0.069, 13.045, -0.446
-0.116, 13.025, -0.444
-0.162, 13.005, -0.442
-0.207, 12.979, -0.439
-0.253, 12.953, -0.436
-0.299, 12.927, -0.434
-0.344, 12.901, -0.431
-0.306, 10.408, -0.251
-0.340, 10.379, -0.248
-0.375, 10.368, -0.247
-0.412, 10.395, -0.248
-0.567, 12.774, -0.418
-0.611, 12.749, -0.416
-0.655, 12.724, -0.413
-0.699, 12.699, -0.411
-0.743, 12.675, -0.408
-0.786, 12.650, -0.406
-0.829, 12.626, -0.403
-0.872, 12.601, -0.401
-0.915, 12.575, -0.398
-0.957, 12.546, -0.395
-0.511, 7.275, -0.020
-0.531, 7.246, -0.018
-0.550, 7.218, -0.016
-0.569, 7.189, -0.014
-0.588, 7.161, -0.011
-0.606, 7.133, -0.009
0.179, 13.939, -0.445
0.129, 13.921, -0.443
0.079, 13.902, -0.441
0.028, 13.879, -0.439
-0.021, 13.857, -0.436
-0.071, 13.835, -0.434
-0.121, 13.813, -0.432
-0.170, 13.790, -0.429
-0.220, 13.782, -0.427
-0.269, 13.760, -0.425
-0.318, 13.738, -0.422
-0.270, 10.430, -0.203
-0.305, 10.403, -0.200
-0.340, 10.393, -0.199
-0.376, 10.407, -0.200
-0.560, 13.630, -0.411
-0.608, 13.609, -0.409
-0.656, 13.587, -0.407
-0.703, 13.566, -0.404
-0.751, 13.544, -0.402
-0.798, 13.523, -0.400
-0.846, 13.502, -0.398
-0.893, 13.481, -0.396
-0.939, 13.457, -0.393
-0.985, 13.419, -0.391
-1.031, 13.394, -0.388
-0.511, 7.276, 0.011
-0.530, 7.247, 0.013
-0.549, 7.218, 0.015
-0.568, 7.190, 0.017
-0.587, 7.162, 0.019
-0.606, 7.134, 0.022
0.196, 14.866, -0.432
0.142, 14.846, -0.430
0.088, 14.824, -0.427
0.034, 14.815, -0.425
-0.020, 14.789, -0.422
-0.073, 14.764, -0.420
-0.127, 14.738, -0.417
-0.180, 14.712, -0.415
-0.233, 14.687, -0.412
-0.286, 14.662, -0.410
-0.339, 14.636, -0.407
-0.269, 10.427, -0.153
-0.304, 10.418, -0.152
-0.340, 10.417, -0.152
-0.548, 14.536, -0.398
-0.599, 14.512, -0.395
-0.651, 14.487, -0.393
-0.702, 14.462, -0.391
-0.753, 14.438, -0.388
-0.804, 14.413, -0.386
-0.855, 14.389, -0.384
-0.906, 14.365, -0.381
-0.957, 14.346, -0.379
-1.008, 14.327, -0.377
-1.058, 14.308, -0.375
-1.108, 14.288, -0.373
-0.510, 7.277, 0.042
-0.530, 7.248, 0.044
-0.549, 7.219, 0.046
-0.568, 7.191, 0.048
-0.587, 7.163, 0.050
-0.605, 7.135, 0.052
0.217, 15.983, -0.417
0.158, 15.952, -0.414
0.099, 15.922, -0.411
0.041, 15.898, -0.409
-0.018, 15.874, -0.407
-0.076, 15.850, -0.404
-0.134, 15.827, -0.402
-0.192, 15.803, -0.400
-0.249, 15.780, -0.397
-0.307, 15.776, -0.395
-0.233, 10.453, -0.105
-0.269, 10.443, -0.104
-0.304, 10.434, -0.103
-0.536, 15.683, -0.386
-0.593, 15.655, -0.383
-0.649, 15.622, -0.381
-0.705, 15.590, -0.378
-0.760, 15.558, -0.375
-0.816, 15.526, -0.372
-0.871, 15.494, -0.370
-0.926, 15.465, -0.367
-0.981, 15.440, -0.365
-1.036, 15.414, -0.362
-1.089, 15.369, -0.360
-1.144, 15.344, -0.358
-1.198, 15.319, -0.356
-0.510, 7.278, 0.073
-0.529, 7.249, 0.075
-0.548, 7.220, 0.077
-0.567, 7.192, 0.078
-0.586, 7.164, 0.080
-0.605, 7.136, 0.082
0.244, 17.412, -0.405
0.179, 17.368, -0.402
0.114, 17.324, -0.398
0.049, 17.315, -0.395
-0.015, 17.287, -0.393
-0.079, 17.259, -0.390
-0.143, 17.228, -0.388
-0.207, 17.188, -0.385
-0.270, 17.147, -0.381
-0.333, 17.108, -0.378
-0.228, 10.267, -0.047
-0.263, 10.281, -0.047
-0.520, 16.991, -0.369
-0.582, 16.957, -0.367
-0.644, 16.922, -0.364
-0.705, 16.888, -0.361
-0.766, 16.854, -0.358
-0.827, 16.819, -0.356
-0.888, 16.786, -0.353
-0.948, 16.752, -0.350
-1.008, 16.718, -0.348
-1.068, 16.685, -0.345
-1.128, 16.651, -0.342
-1.187, 16.618, -0.340
-1.246, 16.585, -0.337
-1.305, 16.552, -0.334
-0.509, 7.279, 0.104
-0.528, 7.250, 0.106
-0.548, 7.221, 0.108
-0.567, 7.192, 0.109
-0.586, 7.164, 0.111
-0.604, 7.136, 0.112
0.314, 21.268, -0.480
0.228, 20.889, -0.462
0.145, 20.497, -0.444
0.065, 20.122, -0.426
-0.011, 19.761, -0.409
-0.085, 19.414, -0.393
-0.156, 19.148, -0.380
-0.227, 18.994, -0.373
-0.297, 18.933, -0.369
-0.196, 10.443, -0.006
-0.225, 10.203, 0.005
-0.260, 10.209, 0.005
-0.575, 18.690, -0.353
-0.643, 18.631, -0.349
-0.710, 18.572, -0.346
-0.778, 18.513, -0.342
-0.845, 18.455, -0.338
-0.911, 18.399, -0.335
-0.978, 18.358, -0.332
-1.045, 18.317, -0.329
-1.111, 18.277, -0.326
-1.176, 18.230, -0.323
-1.241, 18.175, -0.319
-1.305, 18.120, -0.316
-1.369, 18.066, -0.312
-1.432, 18.011, -0.309
-0.508, 7.279, 0.135
-0.528, 7.250, 0.137
-0.547, 7.222, 0.138
-0.566, 7.193, 0.140
-0.585, 7.165, 0.141
-0.604, 7.137, 0.143
0.374, 24.542, -0.489
0.279, 24.529, -0.487
0.184, 24.517, -0.484
0.090, 24.500, -0.482
-0.005, 24.447, -0.478
-0.099, 24.395, -0.475
-0.193, 24.366, -0.470
-0.287, 24.314, -0.466
-0.380, 24.262, -0.463
-0.473, 24.210, -0.459
-0.223, 10.142, 0.056
-0.256, 10.107, 0.058
-0.288, 10.039, 0.061
-0.319, 9.971, 0.064
-0.924, 23.777, -0.435
-1.004, 23.508, -0.423
-1.081, 23.244, -0.412
-1.156, 22.957, -0.400
-1.209, 22.345, -0.377
-1.274, 22.020, -0.364
-1.339, 21.717, -0.351
-1.401, 21.423, -0.339
-1.462, 21.138, -0.328
-1.521, 20.862, -0.316
-1.579, 20.592, -0.305
-1.634, 20.330, -0.295
-0.508, 7.280, 0.166
-0.527, 7.251, 0.167
-0.547, 7.222, 0.169
-0.566, 7.194, 0.170
-0.584, 7.166, 0.172
-0.603, 7.138, 0.173
0.408, 26.314, -0.410
0.306, 26.285, -0.407
0.203, 26.256, -0.404
0.101, 26.227, -0.402
-0.001, 26.209, -0.399
-0.103, 26.191, -0.397
-0.204, 26.173, -0.394
-0.306, 26.155, -0.392
-0.407, 26.138, -0.389
-0.509, 26.120, -0.387
-0.221, 10.082, 0.105
-0.254, 10.069, 0.106
-0.302, 10.484, 0.094
-0.318, 9.966, 0.111
-1.014, 26.018, -0.375
-1.114, 25.991, -0.372
-1.214, 25.962, -0.369
-1.314, 25.934, -0.366
-1.413, 25.906, -0.364
-1.513, 25.877, -0.361
-1.612, 25.849, -0.358
-1.711, 25.821, -0.356
-1.810, 25.793, -0.353
-1.908, 25.765, -0.350
-2.008, 25.748, -0.348
-2.107, 25.730, -0.345
-0.507, 7.281, 0.197
-0.527, 7.252, 0.199
-0.546, 7.223, 0.200
-0.565, 7.195, 0.201
-0.584, 7.167, 0.202
-0.603, 7.139, 0.203
0.452, 28.583, -0.325
0.340, 28.548, -0.322
0.228, 28.514, -0.319
0.116, 28.480, -0.316
0.005, 28.446, -0.313
-0.107, 28.411, -0.310
-0.218, 28.377, -0.307
-0.328, 28.343, -0.304
-0.439, 28.309, -0.302
-0.549, 28.276, -0.299
-0.218, 10.025, 0.154
-0.252, 10.013, 0.155
-0.301, 10.490, 0.144
-0.316, 9.923, 0.158
-1.096, 28.097, -0.284
-1.205, 28.067, -0.281
-1.314, 28.037, -0.278
-1.423, 28.007, -0.276
-1.531, 27.974, -0.273
-1.639, 27.941, -0.270
-1.746, 27.908, -0.267
-1.854, 27.875, -0.264
-1.961, 27.842, -0.261
-2.068, 27.809, -0.258
-2.174, 27.776, -0.256
-2.281, 27.744, -0.253
-0.507, 7.282, 0.228
-0.526, 7.253, 0.229
-0.546, 7.224, 0.230
-0.565, 7.196, 0.231
-0.583, 7.168, 0.233
-0.602, 7.140, 0.234
0.510, 31.641, -0.229
0.385, 31.583, -0.225
0.063, 11.122, 0.174
0.025, 11.219, 0.173
-0.014, 11.318, 0.172
-0.112, 31.373, -0.209
-0.093, 11.525, 0.171
-0.134, 11.564, 0.171
-0.160, 10.692, 0.188
-0.183, 9.993, 0.202
-0.216, 9.983, 0.202
-0.251, 10.032, 0.202
-0.300, 10.497, 0.194
-0.313, 9.885, 0.206
-1.205, 30.826, -0.178
-1.323, 30.744, -0.174
-1.441, 30.663, -0.170
-1.558, 30.592, -0.167
-0.454, 9.443, 0.217
-0.485, 9.438, 0.218
-0.515, 9.417, 0.219
-2.027, 30.373, -0.154
-0.572, 9.355, 0.221
-0.601, 9.324, 0.222
-0.629, 9.294, 0.223
-2.489, 30.157, -0.141
-0.506, 7.283, 0.260
-0.526, 7.254, 0.260
-0.545, 7.225, 0.261
-0.564, 7.196, 0.262
-0.583, 7.168, 0.263
-0.602, 7.140, 0.264
0.557, 34.048, -0.085
0.098, 10.869, 0.231
0.064, 11.198, 0.228
0.150, 33.554, -0.070
-0.013, 11.398, 0.226
-0.114, 33.232, -0.061
-0.245, 33.073, -0.056
-0.133, 11.558, 0.227
-0.148, 9.961, 0.248
-0.181, 9.956, 0.249
-0.216, 9.992, 0.249
-0.264, 10.506, 0.243
-0.278, 9.831, 0.252
-0.311, 9.848, 0.253
-1.244, 31.859, -0.021
-1.364, 31.714, -0.017
-1.482, 31.570, -0.013
-1.601, 31.461, -0.009
-0.452, 9.432, 0.261
-0.486, 9.477, 0.261
-0.517, 9.459, 0.262
-2.111, 31.616, -0.001
-0.575, 9.397, 0.264
-0.603, 9.366, 0.265
-0.632, 9.335, 0.266
-2.653, 32.061, 0.003
-0.506, 7.284, 0.291
-0.525, 7.254, 0.291
-0.544, 7.226, 0.292
-0.563, 7.197, 0.293
-0.582, 7.169, 0.294
-0.601, 7.141, 0.294
0.669, 39.929, 0.058
0.104, 11.240, 0.280
0.066, 11.307, 0.281
0.028, 11.375, 0.281
0.024, 35.320, 0.104
-0.116, 35.146, 0.108
-0.256, 35.230, 0.110
-0.113, 9.943, 0.294
-0.147, 9.928, 0.295
-0.180, 9.953, 0.295
-0.209, 9.761, 0.297
-1.408, 51.293, 0.015
-0.299, 10.509, 0.294
-0.309, 9.811, 0.299
-2.094, 52.804, 0.017
-0.375, 9.812, 0.300
-1.572, 33.466, 0.149
-0.434, 9.686, 0.302
-0.451, 9.419, 0.305
-0.488, 9.517, 0.305
-0.519, 9.502, 0.305
-2.807, 41.549, 0.114
-0.577, 9.439, 0.307
-0.606, 9.408, 0.308
-0.635, 9.377, 0.309
-0.663, 9.346, 0.309
-0.505, 7.284, 0.321
-0.525, 7.255, 0.322
-0.544, 7.227, 0.323
-0.563, 7.198, 0.323
-0.582, 7.170, 0.324
-0.600, 7.142, 0.324
0.137, 10.842, 0.335
0.100, 10.823, 0.336
0.069, 11.415, 0.336
0.169, 35.468, 0.300
-0.013, 9.628, 0.340
-0.048, 10.751, 0.338
-0.252, 35.192, 0.306
-0.112, 9.901, 0.341
-0.142, 9.693, 0.342
-0.175, 9.709, 0.342
-0.230, 10.662, 0.342
-0.274, 10.956, 0.342
-0.298, 10.517, 0.343
-0.307, 9.774, 0.345
-0.369, 10.519, 0.345
-1.956, 45.058, 0.325
-1.568, 33.467, 0.334
-1.701, 33.454, 0.337
-0.449, 9.406, 0.348
-0.489, 9.557, 0.349
-0.520, 9.546, 0.349
-0.550, 9.514, 0.350
-0.579, 9.482, 0.351
-0.608, 9.450, 0.351
-0.637, 9.419, 0.352
