4.320, 5.820, -0.626
4.298, 5.830, -0.625
4.277, 5.840, -0.625
4.256, 5.849, -0.624
4.238, 5.861, -0.623
4.217, 5.871, -0.623
4.196, 5.880, -0.622
4.175, 5.890, -0.622
4.154, 5.899, -0.621
4.133, 5.908, -0.620
4.113, 5.919, -0.620
4.094, 5.931, -0.620
4.076, 5.943, -0.620
4.057, 5.956, -0.620
4.039, 5.968, -0.620
4.021, 5.980, -0.620
4.002, 5.992, -0.619
3.984, 6.005, -0.619
3.966, 6.017, -0.619
3.947, 6.029, -0.619
3.926, 6.038, -0.619
3.908, 6.050, -0.619
3.890, 6.062, -0.619
3.872, 6.075, -0.619
3.853, 6.087, -0.619
3.835, 6.099, -0.619
3.817, 6.111, -0.619
3.799, 6.124, -0.619
4.582, 5.979, -0.636
4.561, 5.991, -0.635
4.540, 6.003, -0.635
4.523, 6.019, -0.635
4.503, 6.031, -0.635
4.482, 6.043, -0.635
4.461, 6.055, -0.634
4.441, 6.067, -0.634
4.420, 6.079, -0.634
4.400, 6.091, -0.634
4.379, 6.103, -0.633
4.359, 6.115, -0.633
4.338, 6.126, -0.633
4.318, 6.138, -0.633
4.297, 6.150, -0.632
4.277, 6.162, -0.632
4.257, 6.174, -0.632
4.236, 6.186, -0.632
4.216, 6.197, -0.631
4.196, 6.209, -0.631
4.175, 6.221, -0.631
4.155, 6.233, -0.630
4.135, 6.245, -0.630
4.115, 6.257, -0.630
4.096, 6.270, -0.630
4.077, 6.283, -0.630
4.057, 6.296, -0.630
4.038, 6.309, -0.630
4.019, 6.321, -0.630
3.997, 6.330, -0.630
3.977, 6.343, -0.630
3.958, 6.356, -0.630
4.813, 6.236, -0.651
4.791, 6.248, -0.650
4.769, 6.261, -0.650
4.747, 6.273, -0.650
4.724, 6.286, -0.649
4.702, 6.299, -0.649
4.680, 6.311, -0.649
4.658, 6.324, -0.649
4.636, 6.336, -0.648
4.618, 6.353, -0.648
4.596, 6.366, -0.648
4.575, 6.378, -0.648
4.553, 6.391, -0.647
4.531, 6.403, -0.647
4.509, 6.415, -0.647
4.487, 6.428, -0.647
4.465, 6.440, -0.646
4.444, 6.453, -0.646
4.422, 6.465, -0.646
4.400, 6.477, -0.645
4.379, 6.490, -0.645
4.357, 6.502, -0.645
4.336, 6.514, -0.645
4.311, 6.522, -0.644
4.289, 6.534, -0.644
4.268, 6.546, -0.643
4.246, 6.559, -0.643
4.225, 6.571, -0.643
4.203, 6.583, -0.643
4.182, 6.595, -0.642
4.160, 6.607, -0.642
4.139, 6.619, -0.642
5.104, 6.560, -0.674
5.080, 6.572, -0.674
5.055, 6.585, -0.673
5.036, 6.603, -0.673
5.011, 6.616, -0.673
4.987, 6.628, -0.672
4.962, 6.641, -0.672
4.938, 6.653, -0.671
4.913, 6.666, -0.671
4.889, 6.678, -0.670
4.865, 6.691, -0.670
4.841, 6.703, -0.670
4.816, 6.715, -0.669
4.792, 6.728, -0.669
4.768, 6.740, -0.668
4.744, 6.752, -0.668
4.720, 6.765, -0.667
4.696, 6.777, -0.667
4.672, 6.789, -0.666
4.648, 6.801, -0.666
4.624, 6.814, -0.665
4.600, 6.826, -0.665
4.576, 6.838, -0.665
4.553, 6.850, -0.664
4.529, 6.862, -0.664
4.505, 6.874, -0.663
4.482, 6.886, -0.663
4.458, 6.898, -0.662
4.434, 6.910, -0.662
4.406, 6.916, -0.661
4.383, 6.928, -0.661
4.360, 6.940, -0.660
5.428, 6.919, -0.698
5.403, 6.934, -0.698
5.378, 6.950, -0.698
5.353, 6.965, -0.697
5.328, 6.980, -0.697
5.303, 6.995, -0.697
5.278, 7.010, -0.697
5.253, 7.025, -0.697
5.228, 7.040, -0.696
5.203, 7.055, -0.696
5.178, 7.070, -0.696
5.153, 7.085, -0.696
5.128, 7.099, -0.696
5.102, 7.112, -0.695
5.076, 7.125, -0.695
5.049, 7.138, -0.694
5.023, 7.151, -0.694
4.997, 7.164, -0.693
4.971, 7.177, -0.693
4.945, 7.190, -0.692
4.919, 7.203, -0.692
4.893, 7.215, -0.691
4.867, 7.228, -0.691
4.841, 7.241, -0.690
4.815, 7.254, -0.690
4.789, 7.266, -0.689
4.763, 7.279, -0.689
4.738, 7.292, -0.688
4.712, 7.304, -0.688
4.686, 7.317, -0.687
4.661, 7.329, -0.687
4.635, 7.342, -0.686
5.796, 7.328, -0.725
5.769, 7.344, -0.725
5.741, 7.360, -0.724
5.714, 7.376, -0.724
5.687, 7.393, -0.724
5.660, 7.409, -0.724
5.639, 7.432, -0.724
5.612, 7.448, -0.724
5.584, 7.464, -0.723
5.557, 7.480, -0.723
5.530, 7.496, -0.723
5.503, 7.512, -0.723
5.476, 7.528, -0.723
5.449, 7.544, -0.722
5.422, 7.559, -0.722
5.395, 7.575, -0.722
5.368, 7.591, -0.722
5.341, 7.607, -0.721
5.315, 7.623, -0.721
5.288, 7.639, -0.721
5.261, 7.654, -0.721
5.234, 7.670, -0.721
5.207, 7.686, -0.720
5.181, 7.702, -0.720
5.154, 7.717, -0.720
5.127, 7.733, -0.720
5.093, 7.738, -0.719
5.065, 7.751, -0.718
5.036, 7.764, -0.717
5.008, 7.777, -0.717
4.979, 7.788, -0.716
4.949, 7.798, -0.715
6.245, 7.827, -0.758
6.212, 7.842, -0.758
6.180, 7.856, -0.757
6.147, 7.870, -0.756
6.116, 7.886, -0.756
6.086, 7.903, -0.756
6.057, 7.921, -0.755
6.028, 7.939, -0.755
6.000, 7.958, -0.755
5.971, 7.977, -0.755
5.943, 7.995, -0.755
5.914, 8.014, -0.755
5.886, 8.033, -0.755
5.858, 8.051, -0.755
5.829, 8.070, -0.755
5.801, 8.088, -0.755
5.773, 8.107, -0.755
5.745, 8.126, -0.755
5.716, 8.144, -0.755
5.688, 8.163, -0.755
5.660, 8.181, -0.755
5.632, 8.200, -0.755
5.604, 8.218, -0.755
5.575, 8.237, -0.755
5.547, 8.255, -0.755
5.519, 8.274, -0.755
5.490, 8.291, -0.755
5.459, 8.305, -0.754
5.428, 8.319, -0.754
5.397, 8.332, -0.753
5.366, 8.346, -0.752
5.335, 8.360, -0.752
6.836, 8.484, -0.808
6.803, 8.503, -0.808
6.769, 8.522, -0.808
6.735, 8.540, -0.807
6.701, 8.559, -0.807
6.668, 8.578, -0.807
6.634, 8.596, -0.806
6.601, 8.615, -0.806
6.567, 8.634, -0.806
6.534, 8.652, -0.805
6.501, 8.671, -0.805
6.467, 8.689, -0.805
6.434, 8.708, -0.804
6.401, 8.726, -0.804
6.368, 8.744, -0.804
6.335, 8.763, -0.804
6.302, 8.781, -0.803
6.269, 8.800, -0.803
6.236, 8.818, -0.803
6.202, 8.835, -0.802
6.167, 8.851, -0.802
6.133, 8.868, -0.801
6.102, 8.888, -0.801
6.067, 8.903, -0.800
6.031, 8.917, -0.799
5.995, 8.931, -0.798
5.959, 8.944, -0.797
5.923, 8.957, -0.797
5.888, 8.970, -0.796
5.852, 8.983, -0.795
5.816, 8.996, -0.794
5.780, 9.009, -0.793
7.311, 9.013, -0.830
7.275, 9.033, -0.829
7.238, 9.053, -0.829
7.202, 9.073, -0.829
7.165, 9.093, -0.828
7.134, 9.118, -0.828
7.089, 9.129, -0.826
7.045, 9.139, -0.824
7.000, 9.149, -0.823
6.956, 9.159, -0.821
6.912, 9.169, -0.819
6.868, 9.179, -0.818
6.824, 9.189, -0.816
6.781, 9.198, -0.815
6.738, 9.208, -0.813
6.695, 9.218, -0.811
6.652, 9.228, -0.810
6.609, 9.237, -0.808
6.566, 9.247, -0.807
6.524, 9.257, -0.805
6.481, 9.266, -0.803
6.452, 9.293, -0.804
6.424, 9.321, -0.805
6.396, 9.349, -0.806
6.368, 9.377, -0.807
6.339, 9.405, -0.808
6.311, 9.433, -0.808
6.277, 9.454, -0.809
6.249, 9.482, -0.810
6.220, 9.510, -0.811
6.192, 9.538, -0.812
6.163, 9.567, -0.813
7.618, 9.355, -0.817
7.537, 9.328, -0.810
7.541, 9.396, -0.816
7.503, 9.417, -0.816
7.464, 9.437, -0.815
7.426, 9.458, -0.815
7.388, 9.478, -0.815
7.349, 9.499, -0.814
7.311, 9.519, -0.814
7.273, 9.540, -0.814
7.235, 9.560, -0.813
7.197, 9.581, -0.813
7.159, 9.601, -0.813
7.119, 9.618, -0.812
7.072, 9.628, -0.810
7.026, 9.637, -0.809
6.980, 9.647, -0.807
6.934, 9.656, -0.805
6.888, 9.665, -0.804
6.855, 9.691, -0.804
6.826, 9.721, -0.805
6.796, 9.751, -0.806
6.766, 9.781, -0.807
6.736, 9.811, -0.808
6.706, 9.841, -0.809
6.676, 9.871, -0.809
6.646, 9.901, -0.810
6.614, 9.927, -0.811
6.576, 9.947, -0.810
6.539, 9.967, -0.810
6.502, 9.986, -0.810
6.465, 10.006, -0.809
7.905, 9.674, -0.797
7.536, 9.328, -0.751
7.551, 9.409, -0.758
7.788, 9.743, -0.796
7.749, 9.765, -0.796
7.710, 9.788, -0.796
7.671, 9.811, -0.796
7.632, 9.833, -0.796
7.593, 9.856, -0.796
7.555, 9.879, -0.795
7.516, 9.901, -0.795
7.477, 9.924, -0.795
7.440, 9.947, -0.795
7.402, 9.971, -0.795
7.364, 9.994, -0.795
7.326, 10.018, -0.795
7.289, 10.041, -0.795
7.250, 10.063, -0.795
7.211, 10.084, -0.794
7.171, 10.105, -0.794
7.132, 10.125, -0.794
7.092, 10.146, -0.793
7.053, 10.167, -0.793
7.014, 10.187, -0.793
6.974, 10.208, -0.792
6.935, 10.228, -0.792
6.896, 10.249, -0.792
6.857, 10.269, -0.791
6.818, 10.289, -0.791
6.779, 10.310, -0.791
6.740, 10.330, -0.790
6.701, 10.350, -0.790
8.223, 10.029, -0.775
7.536, 9.329, -0.691
7.554, 9.414, -0.698
8.099, 10.099, -0.774
8.059, 10.123, -0.774
8.014, 10.142, -0.775
7.974, 10.166, -0.774
7.934, 10.191, -0.774
7.895, 10.215, -0.774
7.855, 10.240, -0.774
7.815, 10.264, -0.774
7.775, 10.288, -0.774
7.736, 10.313, -0.774
7.696, 10.337, -0.774
7.657, 10.361, -0.774
7.617, 10.386, -0.774
7.576, 10.408, -0.774
7.534, 10.429, -0.774
7.493, 10.451, -0.773
7.451, 10.472, -0.773
7.410, 10.493, -0.773
7.368, 10.514, -0.772
7.327, 10.535, -0.772
7.286, 10.557, -0.772
7.244, 10.578, -0.771
7.203, 10.599, -0.771
7.162, 10.620, -0.771
7.126, 10.647, -0.770
7.085, 10.668, -0.770
7.044, 10.689, -0.769
7.003, 10.710, -0.769
6.962, 10.731, -0.769
8.587, 10.435, -0.754
7.535, 9.329, -0.631
7.557, 9.419, -0.639
8.455, 10.506, -0.753
8.411, 10.529, -0.753
8.367, 10.553, -0.753
8.324, 10.576, -0.752
8.280, 10.599, -0.752
8.236, 10.623, -0.752
8.193, 10.646, -0.752
8.149, 10.669, -0.751
8.107, 10.694, -0.751
8.065, 10.719, -0.751
8.024, 10.745, -0.751
7.982, 10.770, -0.751
7.938, 10.792, -0.751
7.894, 10.814, -0.751
7.850, 10.836, -0.750
7.806, 10.858, -0.750
7.762, 10.880, -0.750
7.719, 10.902, -0.749
7.675, 10.924, -0.749
7.632, 10.947, -0.749
7.590, 10.969, -0.748
7.547, 10.992, -0.748
7.505, 11.015, -0.748
7.462, 11.038, -0.748
7.420, 11.061, -0.748
7.378, 11.083, -0.747
7.335, 11.106, -0.747
7.293, 11.129, -0.747
7.251, 11.151, -0.747
8.955, 10.845, -0.727
7.534, 9.330, -0.572
7.561, 9.424, -0.580
8.819, 10.921, -0.726
8.777, 10.951, -0.727
8.735, 10.980, -0.727
8.693, 11.009, -0.727
8.651, 11.039, -0.728
8.610, 11.068, -0.728
8.568, 11.097, -0.728
8.526, 11.127, -0.728
8.484, 11.156, -0.729
8.443, 11.185, -0.729
8.399, 11.212, -0.729
8.351, 11.233, -0.728
8.303, 11.255, -0.728
8.256, 11.276, -0.728
8.208, 11.298, -0.727
8.161, 11.319, -0.727
8.114, 11.341, -0.726
8.069, 11.365, -0.726
8.024, 11.389, -0.726
7.979, 11.412, -0.726
7.934, 11.436, -0.725
7.889, 11.460, -0.725
7.844, 11.483, -0.725
7.799, 11.507, -0.725
7.754, 11.530, -0.725
7.709, 11.554, -0.724
7.665, 11.577, -0.724
7.620, 11.601, -0.724
7.575, 11.624, -0.724
9.438, 11.384, -0.704
7.533, 9.330, -0.512
7.564, 9.429, -0.519
9.298, 11.469, -0.704
9.251, 11.497, -0.704
9.204, 11.525, -0.704
9.149, 11.544, -0.705
9.104, 11.574, -0.705
9.060, 11.605, -0.705
9.015, 11.636, -0.705
8.971, 11.666, -0.706
8.927, 11.697, -0.706
8.877, 11.721, -0.706
8.826, 11.744, -0.705
8.775, 11.766, -0.705
8.724, 11.788, -0.704
8.674, 11.810, -0.704
8.623, 11.832, -0.704
8.573, 11.854, -0.703
8.522, 11.876, -0.703
8.472, 11.898, -0.702
8.422, 11.920, -0.702
8.374, 11.944, -0.702
8.326, 11.969, -0.701
8.279, 11.994, -0.701
8.231, 12.018, -0.701
8.191, 12.053, -0.700
8.143, 12.078, -0.700
8.097, 12.105, -0.700
8.052, 12.132, -0.700
8.007, 12.160, -0.700
7.962, 12.187, -0.700
9.954, 11.958, -0.677
7.532, 9.331, -0.454
7.567, 9.434, -0.460
9.818, 12.063, -0.678
9.772, 12.098, -0.679
9.727, 12.133, -0.679
9.681, 12.167, -0.680
9.636, 12.202, -0.680
9.590, 12.237, -0.681
9.545, 12.272, -0.681
9.497, 12.304, -0.682
9.443, 12.329, -0.681
9.389, 12.353, -0.681
9.336, 12.378, -0.681
9.282, 12.402, -0.680
9.229, 12.426, -0.680
9.175, 12.450, -0.680
9.123, 12.475, -0.679
9.072, 12.503, -0.679
9.021, 12.530, -0.679
8.971, 12.557, -0.679
8.921, 12.585, -0.679
8.870, 12.612, -0.679
8.820, 12.639, -0.679
8.770, 12.667, -0.679
8.720, 12.694, -0.679
8.670, 12.721, -0.679
8.620, 12.748, -0.679
8.570, 12.775, -0.679
8.520, 12.802, -0.679
8.471, 12.829, -0.679
8.421, 12.856, -0.679
10.648, 12.731, -0.655
7.532, 9.331, -0.394
7.570, 9.439, -0.400
10.474, 12.813, -0.655
10.420, 12.845, -0.655
10.366, 12.876, -0.656
10.312, 12.907, -0.656
10.261, 12.942, -0.656
10.212, 12.978, -0.656
10.154, 13.005, -0.656
10.096, 13.030, -0.656
10.039, 13.058, -0.656
9.982, 13.085, -0.656
9.926, 13.112, -0.655
9.869, 13.139, -0.655
9.813, 13.166, -0.655
9.757, 13.193, -0.655
9.701, 13.220, -0.655
9.645, 13.247, -0.654
9.589, 13.274, -0.654
9.533, 13.301, -0.654
9.477, 13.327, -0.654
9.422, 13.354, -0.654
9.366, 13.381, -0.653
9.311, 13.407, -0.653
9.256, 13.434, -0.653
9.201, 13.460, -0.653
9.145, 13.487, -0.653
9.093, 13.516, -0.653
9.050, 13.560, -0.652
8.998, 13.590, -0.652
8.946, 13.621, -0.653
11.214, 13.362, -0.612
7.531, 9.332, -0.335
11.103, 13.433, -0.612
11.047, 13.468, -0.613
10.992, 13.504, -0.613
10.937, 13.539, -0.613
10.881, 13.575, -0.614
10.826, 13.610, -0.614
10.771, 13.645, -0.614
10.716, 13.681, -0.616
10.661, 13.716, -0.616
10.606, 13.751, -0.617
10.551, 13.787, -0.617
10.496, 13.822, -0.617
10.441, 13.857, -0.618
10.386, 13.892, -0.618
10.332, 13.927, -0.618
10.277, 13.962, -0.618
10.222, 13.997, -0.619
10.168, 14.032, -0.619
10.113, 14.067, -0.619
10.059, 14.102, -0.620
10.004, 14.137, -0.620
9.950, 14.172, -0.619
9.895, 14.207, -0.619
9.841, 14.242, -0.619
9.786, 14.277, -0.620
9.732, 14.312, -0.620
9.678, 14.346, -0.620
9.624, 14.381, -0.621
9.570, 14.416, -0.621
9.515, 14.451, -0.621
11.212, 13.363, -0.519
7.530, 9.332, -0.275
11.102, 13.434, -0.520
11.046, 13.469, -0.522
10.991, 13.505, -0.522
10.936, 13.540, -0.523
10.880, 13.575, -0.523
10.825, 13.611, -0.523
10.770, 13.646, -0.524
10.715, 13.681, -0.524
10.660, 13.717, -0.524
10.605, 13.752, -0.525
10.550, 13.787, -0.525
10.495, 13.822, -0.525
10.441, 13.857, -0.526
10.386, 13.893, -0.526
10.331, 13.928, -0.526
10.276, 13.963, -0.527
10.222, 13.998, -0.527
10.167, 14.033, -0.527
10.113, 14.068, -0.528
10.058, 14.103, -0.528
10.003, 14.138, -0.528
9.949, 14.173, -0.529
9.895, 14.207, -0.529
9.840, 14.242, -0.529
9.786, 14.277, -0.530
9.732, 14.312, -0.530
9.678, 14.347, -0.530
9.623, 14.381, -0.529
9.569, 14.416, -0.530
9.515, 14.451, -0.530
11.221, 13.374, -0.429
7.529, 9.333, -0.216
11.109, 13.445, -0.430
11.054, 13.480, -0.430
10.998, 13.515, -0.431
10.943, 13.550, -0.431
10.888, 13.586, -0.431
10.832, 13.621, -0.432
10.776, 13.655, -0.434
10.721, 13.690, -0.434
10.666, 13.725, -0.434
10.611, 13.760, -0.435
10.556, 13.795, -0.435
10.501, 13.830, -0.436
10.446, 13.865, -0.436
10.391, 13.900, -0.436
10.336, 13.935, -0.437
10.281, 13.970, -0.437
10.226, 14.005, -0.437
10.171, 14.040, -0.438
10.117, 14.074, -0.438
10.062, 14.109, -0.438
10.007, 14.144, -0.439
9.953, 14.178, -0.439
9.899, 14.214, -0.438
9.844, 14.249, -0.438
9.790, 14.283, -0.439
9.735, 14.318, -0.439
9.681, 14.352, -0.440
9.627, 14.387, -0.440
9.572, 14.421, -0.440
9.518, 14.456, -0.441
15.615, 18.263, -0.554
7.529, 9.333, -0.157
15.457, 18.364, -0.555
15.378, 18.414, -0.556
15.299, 18.465, -0.559
15.221, 18.515, -0.559
15.142, 18.566, -0.560
15.063, 18.616, -0.560
11.252, 14.223, -0.367
11.194, 14.260, -0.367
11.136, 14.297, -0.368
11.079, 14.334, -0.368
11.101, 14.469, -0.373
11.712, 15.338, -0.409
11.642, 15.367, -0.409
10.887, 14.529, -0.372
10.829, 14.566, -0.372
10.803, 14.643, -0.374
10.714, 14.640, -0.373
10.657, 14.677, -0.373
10.607, 14.723, -0.374
10.542, 14.750, -0.374
10.486, 14.788, -0.375
10.428, 14.824, -0.375
10.383, 14.878, -0.376
10.326, 14.915, -0.377
10.269, 14.951, -0.377
10.212, 14.988, -0.378
10.155, 15.025, -0.377
10.098, 15.061, -0.377
10.041, 15.098, -0.377
9.984, 15.134, -0.378
7.553, 9.299, -0.097
7.518, 9.323, -0.098
7.482, 9.346, -0.098
7.447, 9.369, -0.099
7.416, 9.397, -0.099
7.381, 9.420, -0.099
7.345, 9.443, -0.100
7.310, 9.466, -0.100
7.275, 9.490, -0.101
7.239, 9.513, -0.102
7.204, 9.536, -0.102
7.169, 9.559, -0.102
7.133, 9.582, -0.102
7.098, 9.605, -0.103
7.063, 9.627, -0.103
7.027, 9.650, -0.103
6.992, 9.673, -0.104
6.957, 9.696, -0.104
6.922, 9.719, -0.104
10.618, 14.626, -0.277
10.715, 14.868, -0.285
10.542, 14.751, -0.280
10.486, 14.789, -0.280
10.427, 14.824, -0.281
10.372, 14.863, -0.280
10.315, 14.900, -0.280
10.258, 14.937, -0.281
10.201, 14.973, -0.281
10.144, 15.010, -0.282
10.087, 15.046, -0.282
10.030, 15.083, -0.283
9.973, 15.119, -0.282
7.516, 9.260, -0.037
7.481, 9.283, -0.037
7.445, 9.305, -0.038
7.410, 9.328, -0.038
7.378, 9.356, -0.039
7.344, 9.379, -0.040
7.309, 9.402, -0.040
7.273, 9.425, -0.040
7.238, 9.448, -0.041
7.203, 9.470, -0.041
7.168, 9.493, -0.041
7.133, 9.516, -0.042
7.097, 9.539, -0.042
7.062, 9.561, -0.042
7.027, 9.584, -0.043
6.992, 9.607, -0.043
6.957, 9.630, -0.043
6.922, 9.652, -0.044
6.887, 9.675, -0.044
6.852, 9.698, -0.044
6.818, 9.720, -0.045
6.783, 9.743, -0.045
6.748, 9.765, -0.045
6.713, 9.788, -0.046
6.678, 9.810, -0.046
6.644, 9.833, -0.046
6.609, 9.855, -0.047
6.573, 9.877, -0.046
6.539, 9.900, -0.046
6.504, 9.922, -0.046
6.470, 9.945, -0.047
6.435, 9.967, -0.047
7.546, 9.295, 0.021
7.511, 9.318, 0.021
7.460, 9.323, 0.021
7.439, 9.362, 0.019
7.406, 9.388, 0.019
7.369, 9.410, 0.018
7.333, 9.432, 0.018
7.297, 9.453, 0.018
7.260, 9.475, 0.017
7.224, 9.497, 0.017
7.188, 9.519, 0.017
7.151, 9.540, 0.016
7.115, 9.561, 0.015
7.079, 9.583, 0.015
7.043, 9.605, 0.015
7.007, 9.626, 0.014
6.971, 9.648, 0.014
6.935, 9.669, 0.014
6.899, 9.691, 0.013
6.863, 9.712, 0.013
6.827, 9.734, 0.013
6.792, 9.756, 0.013
6.756, 9.777, 0.013
6.720, 9.798, 0.013
6.685, 9.820, 0.012
6.649, 9.841, 0.012
6.613, 9.862, 0.012
6.578, 9.884, 0.011
6.542, 9.905, 0.011
6.507, 9.927, 0.012
6.472, 9.948, 0.011
6.436, 9.969, 0.011
7.530, 9.278, 0.081
7.495, 9.301, 0.080
7.460, 9.325, 0.079
7.425, 9.348, 0.078
7.395, 9.377, 0.078
7.359, 9.400, 0.078
7.324, 9.423, 0.077
7.289, 9.445, 0.077
7.254, 9.469, 0.076
7.218, 9.491, 0.075
7.183, 9.514, 0.075
7.148, 9.537, 0.074
7.113, 9.560, 0.074
7.077, 9.582, 0.074
7.042, 9.605, 0.073
7.007, 9.628, 0.073
6.972, 9.650, 0.073
6.937, 9.673, 0.072
6.902, 9.696, 0.072
6.867, 9.718, 0.072
6.832, 9.741, 0.071
6.797, 9.763, 0.071
6.762, 9.786, 0.071
6.727, 9.808, 0.070
6.692, 9.830, 0.071
6.657, 9.853, 0.070
6.622, 9.875, 0.070
6.587, 9.898, 0.070
6.552, 9.920, 0.069
6.518, 9.942, 0.069
6.483, 9.964, 0.070
6.448, 9.987, 0.069
7.531, 9.280, 0.140
7.495, 9.303, 0.139
7.459, 9.325, 0.138
7.423, 9.347, 0.137
7.391, 9.373, 0.137
7.354, 9.395, 0.137
7.318, 9.417, 0.136
7.281, 9.437, 0.135
7.245, 9.459, 0.134
7.208, 9.480, 0.134
7.172, 9.502, 0.134
7.136, 9.523, 0.133
7.100, 9.545, 0.133
7.064, 9.566, 0.133
7.028, 9.587, 0.132
6.992, 9.609, 0.132
6.956, 9.630, 0.131
6.920, 9.651, 0.131
6.884, 9.673, 0.131
6.848, 9.694, 0.130
6.812, 9.715, 0.130
6.776, 9.736, 0.130
6.740, 9.757, 0.129
6.705, 9.779, 0.129
6.669, 9.800, 0.128
6.634, 9.822, 0.129
6.598, 9.843, 0.129
6.563, 9.864, 0.128
6.527, 9.885, 0.128
6.492, 9.906, 0.128
6.457, 9.927, 0.128
6.422, 9.950, 0.128
18.077, 21.023, 0.238
16.396, 19.298, 0.229
17.898, 21.146, 0.234
17.809, 21.207, 0.232
17.719, 21.269, 0.231
17.102, 20.717, 0.229
17.006, 20.765, 0.225
11.293, 14.178, 0.206
11.231, 14.210, 0.206
11.174, 14.247, 0.205
11.117, 14.283, 0.204
11.059, 14.320, 0.204
7.135, 9.589, 0.192
7.098, 9.610, 0.191
7.062, 9.632, 0.191
7.026, 9.653, 0.190
6.990, 9.674, 0.190
6.953, 9.696, 0.190
6.917, 9.717, 0.189
6.881, 9.739, 0.189
6.845, 9.760, 0.188
6.809, 9.781, 0.188
6.773, 9.802, 0.188
6.737, 9.824, 0.187
6.701, 9.845, 0.187
6.666, 9.866, 0.186
6.630, 9.888, 0.187
6.595, 9.909, 0.186
6.559, 9.930, 0.186
6.523, 9.951, 0.186
6.488, 9.972, 0.185
6.453, 9.994, 0.186
17.411, 20.285, 0.382
16.389, 19.293, 0.367
17.242, 20.406, 0.377
17.807, 21.209, 0.385
17.717, 21.270, 0.383
17.628, 21.331, 0.382
17.000, 20.761, 0.372
11.291, 14.178, 0.302
11.230, 14.211, 0.301
11.173, 14.247, 0.300
11.116, 14.284, 0.300
11.058, 14.321, 0.299
11.053, 14.422, 0.299
16.914, 21.820, 0.371
16.825, 21.881, 0.367
10.881, 14.533, 0.295
10.824, 14.569, 0.294
10.839, 14.700, 0.295
10.709, 14.643, 0.295
10.652, 14.680, 0.294
10.684, 14.834, 0.294
10.538, 14.753, 0.292
10.510, 14.829, 0.292
10.424, 14.826, 0.291
10.369, 14.865, 0.290
10.312, 14.902, 0.290
10.255, 14.938, 0.291
10.198, 14.975, 0.290
10.142, 15.011, 0.289
10.085, 15.048, 0.288
10.028, 15.084, 0.288
9.972, 15.120, 0.289
18.199, 21.166, 0.545
16.407, 19.316, 0.507
30.360, 35.268, 0.804
32.852, 38.398, 0.859
20.180, 24.110, 0.588
17.065, 20.681, 0.522
19.902, 24.165, 0.581
11.289, 14.177, 0.397
11.229, 14.211, 0.396
11.173, 14.249, 0.396
11.115, 14.285, 0.395
11.057, 14.321, 0.394
11.059, 14.430, 0.395
15.083, 19.545, 0.481
14.982, 19.571, 0.479
10.880, 14.533, 0.391
10.823, 14.570, 0.390
10.845, 14.708, 0.391
10.709, 14.643, 0.388
10.652, 14.680, 0.389
10.683, 14.834, 0.390
10.537, 14.753, 0.388
10.515, 14.837, 0.388
10.423, 14.826, 0.386
10.365, 14.861, 0.385
10.308, 14.897, 0.385
10.251, 14.933, 0.386
10.194, 14.970, 0.385
10.138, 15.006, 0.384
10.081, 15.043, 0.383
10.024, 15.079, 0.384
9.968, 15.115, 0.383
18.443, 21.441, 0.706
16.418, 19.332, 0.646
20.407, 23.999, 0.766
17.953, 21.383, 0.693
17.129, 20.599, 0.669
17.076, 20.696, 0.669
17.684, 21.569, 0.687
11.287, 14.177, 0.492
11.228, 14.212, 0.491
11.172, 14.250, 0.491
11.114, 14.285, 0.490
11.056, 14.322, 0.489
11.064, 14.438, 0.490
28.630, 36.400, 1.040
17.280, 22.457, 0.684
10.880, 14.534, 0.486
10.822, 14.570, 0.485
10.850, 14.716, 0.487
10.708, 14.644, 0.485
10.651, 14.680, 0.484
10.684, 14.836, 0.487
10.537, 14.754, 0.483
10.521, 14.845, 0.483
10.423, 14.827, 0.481
14.172, 20.074, 0.604
14.229, 20.314, 0.607
14.163, 20.385, 0.609
14.169, 20.558, 0.610
14.077, 20.595, 0.609
14.075, 20.759, 0.610
13.971, 20.778, 0.611
15.831, 23.657, 0.675
29.823, 34.124, 1.306
16.385, 19.298, 0.782
20.370, 23.960, 0.941
17.222, 20.551, 0.817
17.113, 20.583, 0.815
17.022, 20.636, 0.813
16.930, 20.689, 0.812
11.285, 14.176, 0.587
11.227, 14.213, 0.587
11.172, 14.251, 0.586
11.113, 14.286, 0.585
11.055, 14.323, 0.584
11.069, 14.446, 0.586
16.441, 21.239, 0.806
17.306, 22.492, 0.844
10.879, 14.535, 0.583
10.817, 14.565, 0.582
10.764, 14.608, 0.581
10.662, 14.586, 0.579
10.650, 14.681, 0.580
10.593, 14.717, 0.579
10.536, 14.754, 0.578
10.479, 14.790, 0.577
10.422, 14.827, 0.576
15.631, 22.073, 0.799
14.273, 20.376, 0.746
16.516, 23.665, 0.844
15.793, 22.842, 0.816
14.137, 20.680, 0.747
15.621, 22.972, 0.816
14.013, 20.839, 0.748
25.626, 37.928, 1.261
20.600, 23.852, 1.122
16.368, 19.282, 0.919
17.271, 20.453, 0.965
18.004, 21.448, 1.004
17.091, 20.562, 0.960
30.658, 36.490, 1.623
16.843, 20.589, 0.954
11.283, 14.176, 0.684
11.226, 14.213, 0.681
11.171, 14.253, 0.681
11.112, 14.287, 0.680
11.055, 14.323, 0.679
11.074, 14.454, 0.682
28.314, 36.016, 1.547
16.403, 21.360, 0.954
10.879, 14.536, 0.678
10.834, 14.588, 0.678
10.764, 14.608, 0.676
10.659, 14.583, 0.673
10.649, 14.681, 0.675
10.592, 14.718, 0.674
10.548, 14.770, 0.674
10.479, 14.791, 0.672
10.422, 14.827, 0.671
16.053, 22.652, 0.971
15.070, 21.478, 0.922
15.388, 22.095, 0.942
15.422, 22.323, 0.948
15.349, 22.401, 0.950
25.812, 37.558, 1.517
25.760, 37.803, 1.520
15.111, 22.610, 0.949
17.388, 20.277, 1.113
17.189, 20.208, 1.105
17.319, 20.510, 1.114
17.020, 20.327, 1.100
18.156, 21.793, 1.169
17.214, 20.866, 1.116
16.895, 20.654, 1.102
11.282, 14.177, 0.779
11.225, 14.214, 0.778
11.171, 14.254, 0.777
11.111, 14.287, 0.774
11.054, 14.324, 0.774
11.079, 14.462, 0.778
17.516, 22.582, 1.163
16.481, 21.461, 1.105
10.879, 14.537, 0.773
10.837, 14.594, 0.773
10.763, 14.609, 0.771
10.723, 14.667, 0.771
10.649, 14.682, 0.770
10.592, 14.718, 0.769
10.508, 14.719, 0.766
10.478, 14.791, 0.768
10.421, 14.828, 0.767
15.399, 21.758, 1.081
15.044, 21.443, 1.063
15.022, 21.586, 1.066
15.427, 22.330, 1.098
16.315, 23.772, 1.159
15.163, 22.319, 1.090
15.232, 22.602, 1.101
15.305, 22.894, 1.110
17.088, 19.946, 1.241
17.178, 20.199, 1.249
17.100, 20.266, 1.248
17.053, 20.368, 1.247
17.351, 20.868, 1.271
17.311, 20.983, 1.273
17.285, 21.114, 1.275
11.281, 14.178, 0.874
11.224, 14.215, 0.873
11.170, 14.255, 0.872
11.110, 14.288, 0.871
11.053, 14.324, 0.870
11.085, 14.471, 0.875
16.035, 20.741, 1.220
17.502, 22.745, 1.326
10.879, 14.539, 0.868
10.815, 14.567, 0.867
10.762, 14.609, 0.868
10.701, 14.640, 0.867
10.648, 14.682, 0.866
10.591, 14.719, 0.865
10.530, 14.750, 0.864
10.477, 14.792, 0.863
10.421, 14.828, 0.862
10.364, 14.864, 0.861
10.307, 14.901, 0.862
10.250, 14.937, 0.861
10.194, 14.973, 0.860
10.137, 15.010, 0.859
10.081, 15.046, 0.860
10.073, 15.153, 0.862
15.057, 22.533, 1.243
17.008, 19.860, 1.377
16.980, 19.980, 1.380
17.134, 20.307, 1.394
17.227, 20.570, 1.406
17.369, 20.891, 1.422
17.329, 21.006, 1.422
16.944, 20.717, 1.398
11.280, 14.179, 0.970
11.223, 14.215, 0.969
11.170, 14.256, 0.968
11.109, 14.288, 0.965
11.052, 14.325, 0.964
11.090, 14.479, 0.971
17.029, 21.981, 1.440
17.293, 22.485, 1.467
10.877, 14.538, 0.965
10.819, 14.573, 0.963
10.762, 14.610, 0.963
10.705, 14.646, 0.962
10.648, 14.683, 0.961
10.591, 14.719, 0.960
10.534, 14.756, 0.959
10.477, 14.792, 0.959
10.420, 14.828, 0.958
10.363, 14.865, 0.957
10.307, 14.901, 0.956
10.250, 14.937, 0.955
10.193, 14.974, 0.956
10.137, 15.010, 0.955
10.080, 15.046, 0.954
10.079, 15.162, 0.959
14.905, 22.313, 1.377
17.030, 19.887, 1.523
17.000, 20.005, 1.524
16.967, 20.122, 1.527
16.927, 20.230, 1.529
16.901, 20.355, 1.531
17.969, 21.754, 1.627
18.765, 22.857, 1.702
11.279, 14.179, 1.066
11.222, 14.216, 1.063
11.169, 14.258, 1.063
11.108, 14.289, 1.061
11.051, 14.326, 1.060
11.095, 14.487, 1.068
16.759, 21.647, 1.570
16.938, 22.042, 1.593
10.875, 14.538, 1.061
10.818, 14.573, 1.060
10.761, 14.610, 1.059
10.704, 14.647, 1.058
10.646, 14.682, 1.057
10.590, 14.720, 1.056
10.533, 14.756, 1.055
10.476, 14.792, 1.054
10.420, 14.829, 1.053
10.363, 14.865, 1.053
10.306, 14.901, 1.052
10.249, 14.937, 1.051
10.193, 14.973, 1.050
10.136, 15.009, 1.051
10.080, 15.046, 1.050
10.084, 15.170, 1.055
15.436, 23.087, 1.576
17.298, 20.190, 1.692
17.010, 20.020, 1.669
16.970, 20.128, 1.672
16.929, 20.236, 1.675
18.019, 21.648, 1.781
18.922, 22.866, 1.873
18.738, 22.828, 1.863
11.278, 14.180, 1.160
11.221, 14.217, 1.159
11.169, 14.259, 1.159
11.107, 14.290, 1.157
11.050, 14.326, 1.156
11.100, 14.495, 1.164
16.806, 21.708, 1.724
15.147, 19.796, 1.569
10.874, 14.537, 1.155
10.817, 14.574, 1.154
10.760, 14.610, 1.153
10.703, 14.647, 1.152
10.646, 14.683, 1.151
10.589, 14.720, 1.152
10.533, 14.756, 1.151
10.476, 14.793, 1.150
10.419, 14.829, 1.149
10.362, 14.865, 1.147
10.306, 14.902, 1.148
10.249, 14.938, 1.147
10.193, 14.974, 1.146
10.136, 15.010, 1.146
10.080, 15.047, 1.145
10.090, 15.179, 1.151
16.175, 24.165, 1.808
17.080, 19.950, 1.816
18.104, 21.255, 1.925
17.298, 20.503, 1.850
17.215, 20.565, 1.847
18.079, 21.721, 1.943
17.078, 20.724, 1.848
20.720, 25.157, 2.230
11.277, 14.181, 1.256
11.220, 14.217, 1.255
11.168, 14.260, 1.255
11.106, 14.290, 1.253
11.049, 14.327, 1.250
11.105, 14.503, 1.261
16.870, 21.791, 1.882
15.279, 19.963, 1.719
10.873, 14.538, 1.251
10.816, 14.574, 1.250
10.759, 14.611, 1.249
10.702, 14.647, 1.248
10.646, 14.684, 1.247
10.589, 14.720, 1.246
10.532, 14.757, 1.246
10.475, 14.793, 1.245
10.419, 14.829, 1.244
15.604, 22.047, 1.835
14.949, 21.319, 1.769
15.119, 21.728, 1.798
14.870, 21.554, 1.778
15.129, 22.096, 1.816
15.072, 22.194, 1.820
14.848, 22.052, 1.803
14.840, 22.221, 1.812
17.119, 19.997, 1.965
17.108, 20.137, 1.969
18.010, 21.314, 2.077
17.704, 21.128, 2.052
20.183, 24.152, 2.335
17.459, 21.170, 2.038
20.794, 25.248, 2.421
11.276, 14.181, 1.352
11.219, 14.218, 1.351
11.168, 14.262, 1.350
11.105, 14.291, 1.349
11.048, 14.327, 1.346
11.111, 14.511, 1.359
16.984, 21.936, 2.048
14.655, 19.182, 1.784
10.873, 14.538, 1.347
10.816, 14.575, 1.346
10.759, 14.611, 1.345
10.702, 14.648, 1.344
10.645, 14.684, 1.343
10.588, 14.721, 1.342
10.531, 14.757, 1.342
10.475, 14.793, 1.341
10.418, 14.830, 1.340
14.717, 20.833, 1.874
14.569, 20.796, 1.864
14.424, 20.760, 1.857
15.312, 22.176, 1.977
14.810, 21.644, 1.925
14.636, 21.571, 1.912
14.786, 21.964, 1.940
15.265, 22.841, 2.013
17.171, 20.059, 2.116
17.131, 20.166, 2.119
17.277, 20.486, 2.143
17.440, 20.830, 2.172
17.407, 20.952, 2.174
17.367, 21.066, 2.178
16.901, 20.683, 2.131
11.275, 14.182, 1.448
11.218, 14.219, 1.446
11.167, 14.263, 1.446
11.104, 14.292, 1.444
11.047, 14.328, 1.441
11.116, 14.519, 1.456
15.628, 20.248, 2.030
14.721, 19.267, 1.924
14.642, 19.317, 1.922
14.564, 19.368, 1.921
14.486, 19.418, 1.919
14.397, 19.455, 1.916
14.308, 19.491, 1.913
14.471, 19.859, 1.943
15.850, 21.857, 2.135
14.905, 20.760, 2.020
14.843, 20.840, 2.021
13.964, 19.803, 1.913
13.863, 19.822, 1.911
13.699, 19.750, 1.898
13.710, 19.924, 1.908
15.155, 22.135, 2.116
15.677, 23.062, 2.197
15.144, 22.482, 2.137
13.326, 20.016, 1.896
2.441, 4.146, -0.592
2.430, 4.151, -0.591
2.420, 4.157, -0.591
2.409, 4.163, -0.591
2.399, 4.169, -0.590
2.388, 4.174, -0.590
2.377, 4.179, -0.590
2.367, 4.185, -0.589
2.356, 4.190, -0.589
2.346, 4.196, -0.589
2.335, 4.201, -0.588
2.325, 4.207, -0.588
2.314, 4.212, -0.588
2.303, 4.217, -0.587
2.293, 4.222, -0.587
2.282, 4.227, -0.587
2.271, 4.232, -0.586
2.260, 4.238, -0.586
2.250, 4.243, -0.586
2.239, 4.248, -0.585
2.228, 4.253, -0.585
2.217, 4.257, -0.585
2.207, 4.262, -0.584
2.196, 4.267, -0.584
2.185, 4.272, -0.584
2.174, 4.277, -0.583
2.164, 4.282, -0.583
2.153, 4.287, -0.583
2.142, 4.291, -0.582
2.131, 4.296, -0.582
2.121, 4.301, -0.582
2.110, 4.306, -0.582
2.480, 4.203, -0.593
2.469, 4.209, -0.592
2.458, 4.214, -0.592
2.447, 4.220, -0.592
2.437, 4.226, -0.591
2.426, 4.231, -0.591
2.415, 4.237, -0.591
2.404, 4.243, -0.590
2.393, 4.248, -0.590
2.382, 4.253, -0.590
2.371, 4.259, -0.589
2.361, 4.265, -0.589
2.350, 4.270, -0.589
2.339, 4.275, -0.588
2.328, 4.280, -0.588
2.317, 4.286, -0.588
2.306, 4.291, -0.587
2.295, 4.296, -0.587
2.284, 4.301, -0.587
2.273, 4.307, -0.586
2.262, 4.312, -0.586
2.250, 4.316, -0.586
2.240, 4.321, -0.585
2.229, 4.327, -0.585
2.218, 4.332, -0.585
2.207, 4.337, -0.584
2.195, 4.341, -0.584
2.185, 4.346, -0.584
2.173, 4.351, -0.583
2.162, 4.356, -0.583
2.152, 4.361, -0.583
2.140, 4.365, -0.582
2.520, 4.262, -0.594
2.510, 4.269, -0.594
2.498, 4.274, -0.593
2.488, 4.281, -0.593
2.476, 4.286, -0.593
2.465, 4.291, -0.592
2.454, 4.298, -0.592
2.443, 4.303, -0.592
2.432, 4.308, -0.591
2.420, 4.314, -0.591
2.409, 4.319, -0.591
2.398, 4.326, -0.590
2.387, 4.331, -0.590
2.376, 4.336, -0.590
2.365, 4.342, -0.589
2.353, 4.347, -0.589
2.342, 4.352, -0.589
2.331, 4.358, -0.588
2.320, 4.363, -0.588
2.308, 4.368, -0.587
2.297, 4.374, -0.587
2.285, 4.378, -0.587
2.274, 4.383, -0.586
2.263, 4.389, -0.586
2.252, 4.394, -0.586
2.241, 4.399, -0.585
2.229, 4.403, -0.585
2.218, 4.409, -0.585
2.207, 4.414, -0.584
2.195, 4.418, -0.584
2.184, 4.424, -0.584
2.172, 4.428, -0.583
2.563, 4.325, -0.595
2.552, 4.331, -0.595
2.541, 4.337, -0.595
2.529, 4.342, -0.594
2.518, 4.349, -0.594
2.507, 4.355, -0.594
2.495, 4.360, -0.593
2.484, 4.367, -0.593
2.472, 4.372, -0.592
2.461, 4.378, -0.592
2.449, 4.383, -0.592
2.437, 4.388, -0.591
2.426, 4.395, -0.591
2.415, 4.400, -0.591
2.403, 4.406, -0.590
2.392, 4.411, -0.590
2.380, 4.417, -0.590
2.369, 4.422, -0.589
2.357, 4.428, -0.589
2.346, 4.433, -0.589
2.333, 4.438, -0.588
2.322, 4.443, -0.588
2.311, 4.448, -0.588
2.299, 4.454, -0.587
2.287, 4.459, -0.587
2.275, 4.464, -0.586
2.264, 4.469, -0.586
2.253, 4.474, -0.586
2.241, 4.479, -0.585
2.229, 4.484, -0.585
2.218, 4.489, -0.585
2.206, 4.494, -0.584
2.609, 4.391, -0.597
2.597, 4.397, -0.596
2.585, 4.403, -0.596
2.573, 4.409, -0.596
2.562, 4.415, -0.595
2.550, 4.421, -0.595
2.538, 4.427, -0.595
2.526, 4.432, -0.594
2.515, 4.439, -0.594
2.503, 4.445, -0.593
2.491, 4.450, -0.593
2.479, 4.456, -0.593
2.467, 4.461, -0.592
2.455, 4.467, -0.592
2.443, 4.472, -0.592
2.432, 4.478, -0.591
2.420, 4.484, -0.591
2.408, 4.489, -0.591
2.396, 4.495, -0.590
2.384, 4.500, -0.590
2.372, 4.506, -0.589
2.360, 4.511, -0.589
2.349, 4.517, -0.589
2.337, 4.522, -0.588
2.324, 4.527, -0.588
2.313, 4.532, -0.588
2.301, 4.538, -0.587
2.289, 4.543, -0.587
2.277, 4.548, -0.587
2.265, 4.553, -0.586
2.253, 4.559, -0.586
2.241, 4.563, -0.585
2.655, 4.458, -0.598
2.643, 4.464, -0.597
2.631, 4.471, -0.597
2.619, 4.477, -0.597
2.607, 4.483, -0.596
2.595, 4.490, -0.596
2.583, 4.496, -0.596
2.571, 4.502, -0.595
2.559, 4.508, -0.595
2.547, 4.514, -0.595
2.535, 4.521, -0.594
2.523, 4.527, -0.594
2.511, 4.532, -0.594
2.499, 4.538, -0.593
2.486, 4.544, -0.593
2.474, 4.549, -0.593
2.462, 4.555, -0.592
2.450, 4.561, -0.592
2.438, 4.566, -0.591
2.425, 4.572, -0.591
2.413, 4.578, -0.591
2.401, 4.583, -0.590
2.388, 4.588, -0.590
2.376, 4.593, -0.590
2.364, 4.599, -0.589
2.352, 4.605, -0.589
2.340, 4.610, -0.588
2.327, 4.615, -0.588
2.315, 4.620, -0.588
2.303, 4.626, -0.587
2.290, 4.630, -0.587
2.278, 4.636, -0.587
2.702, 4.527, -0.598
2.690, 4.534, -0.598
2.678, 4.540, -0.597
2.666, 4.547, -0.597
2.654, 4.553, -0.597
2.641, 4.560, -0.596
2.628, 4.566, -0.596
2.617, 4.573, -0.596
2.604, 4.579, -0.596
2.592, 4.585, -0.595
2.579, 4.591, -0.595
2.567, 4.597, -0.595
2.554, 4.603, -0.594
2.542, 4.609, -0.594
2.529, 4.615, -0.594
2.518, 4.622, -0.593
2.505, 4.628, -0.593
2.492, 4.633, -0.593
2.480, 4.639, -0.592
2.467, 4.645, -0.592
2.455, 4.651, -0.592
2.442, 4.657, -0.591
2.430, 4.663, -0.591
2.418, 4.669, -0.591
2.405, 4.675, -0.590
2.392, 4.679, -0.590
2.380, 4.685, -0.590
2.368, 4.691, -0.589
2.355, 4.697, -0.589
2.342, 4.702, -0.589
2.330, 4.707, -0.588
2.317, 4.712, -0.588
2.753, 4.600, -0.599
2.740, 4.607, -0.598
2.728, 4.614, -0.598
2.715, 4.620, -0.598
2.702, 4.626, -0.597
2.690, 4.634, -0.597
2.677, 4.640, -0.597
2.664, 4.646, -0.596
2.651, 4.652, -0.596
2.638, 4.658, -0.596
2.626, 4.666, -0.595
2.613, 4.672, -0.595
2.601, 4.678, -0.595
2.588, 4.684, -0.594
2.575, 4.690, -0.594
2.562, 4.697, -0.594
2.549, 4.703, -0.593
2.537, 4.709, -0.593
2.524, 4.715, -0.593
2.511, 4.721, -0.592
2.498, 4.727, -0.592
2.486, 4.733, -0.592
2.472, 4.738, -0.591
2.459, 4.744, -0.591
2.447, 4.750, -0.591
2.434, 4.756, -0.590
2.421, 4.762, -0.590
2.408, 4.767, -0.590
2.395, 4.773, -0.589
2.383, 4.779, -0.589
2.369, 4.784, -0.589
2.357, 4.790, -0.588
2.805, 4.677, -0.599
2.793, 4.684, -0.599
2.779, 4.691, -0.599
2.766, 4.697, -0.598
2.754, 4.705, -0.598
2.740, 4.711, -0.598
2.727, 4.717, -0.597
2.714, 4.724, -0.597
2.701, 4.731, -0.597
2.688, 4.738, -0.596
2.675, 4.744, -0.596
2.662, 4.750, -0.596
2.649, 4.756, -0.595
2.635, 4.763, -0.595
2.622, 4.769, -0.594
2.609, 4.775, -0.594
2.596, 4.781, -0.594
2.583, 4.788, -0.593
2.570, 4.794, -0.593
2.556, 4.800, -0.593
2.543, 4.806, -0.592
2.530, 4.813, -0.592
2.517, 4.819, -0.592
2.504, 4.825, -0.591
2.490, 4.830, -0.591
2.477, 4.836, -0.591
2.464, 4.842, -0.590
2.451, 4.849, -0.590
2.437, 4.853, -0.590
2.424, 4.860, -0.589
2.411, 4.866, -0.589
2.398, 4.871, -0.589
2.861, 4.759, -0.600
2.848, 4.765, -0.600
2.834, 4.772, -0.599
2.821, 4.780, -0.599
2.808, 4.786, -0.599
2.794, 4.793, -0.598
2.780, 4.799, -0.598
2.767, 4.807, -0.597
2.754, 4.813, -0.597
2.740, 4.820, -0.597
2.727, 4.826, -0.596
2.713, 4.833, -0.596
2.699, 4.839, -0.596
2.686, 4.845, -0.595
2.672, 4.852, -0.595
2.659, 4.858, -0.595
2.645, 4.865, -0.594
2.632, 4.871, -0.594
2.618, 4.877, -0.594
2.605, 4.884, -0.593
2.591, 4.890, -0.593
2.578, 4.896, -0.592
2.564, 4.903, -0.592
2.551, 4.909, -0.592
2.537, 4.916, -0.591
2.523, 4.920, -0.591
2.509, 4.927, -0.591
2.496, 4.933, -0.590
2.483, 4.939, -0.590
2.469, 4.944, -0.590
2.455, 4.951, -0.589
2.442, 4.957, -0.589
2.920, 4.844, -0.601
2.906, 4.851, -0.600
2.893, 4.859, -0.600
2.879, 4.866, -0.600
2.865, 4.872, -0.599
2.850, 4.879, -0.599
2.837, 4.887, -0.598
2.823, 4.893, -0.598
2.809, 4.900, -0.598
2.795, 4.907, -0.597
2.781, 4.913, -0.597
2.767, 4.920, -0.597
2.753, 4.926, -0.596
2.739, 4.933, -0.596
2.726, 4.941, -0.596
2.712, 4.947, -0.595
2.698, 4.954, -0.595
2.684, 4.961, -0.594
2.669, 4.966, -0.594
2.655, 4.972, -0.594
2.641, 4.979, -0.593
2.628, 4.985, -0.593
2.614, 4.992, -0.593
2.600, 4.998, -0.592
2.586, 5.005, -0.592
2.572, 5.011, -0.591
2.557, 5.016, -0.591
2.544, 5.023, -0.591
2.530, 5.029, -0.590
2.516, 5.036, -0.590
2.501, 5.041, -0.590
2.488, 5.047, -0.589
2.982, 4.935, -0.601
2.968, 4.942, -0.601
2.954, 4.950, -0.601
2.940, 4.957, -0.600
2.925, 4.963, -0.600
2.910, 4.970, -0.600
2.897, 4.978, -0.599
2.882, 4.985, -0.599
2.868, 4.992, -0.598
2.853, 4.999, -0.598
2.839, 5.005, -0.598
2.824, 5.012, -0.597
2.810, 5.019, -0.597
2.797, 5.027, -0.596
2.782, 5.034, -0.596
2.768, 5.041, -0.596
2.753, 5.047, -0.595
2.739, 5.054, -0.595
2.725, 5.061, -0.595
2.709, 5.066, -0.594
2.695, 5.072, -0.594
2.680, 5.079, -0.593
2.666, 5.086, -0.593
2.652, 5.092, -0.593
2.638, 5.099, -0.592
2.623, 5.106, -0.592
2.608, 5.111, -0.592
2.594, 5.117, -0.591
2.580, 5.124, -0.591
2.566, 5.131, -0.590
2.550, 5.136, -0.590
2.536, 5.142, -0.590
3.048, 5.031, -0.602
3.034, 5.039, -0.602
3.019, 5.046, -0.601
3.004, 5.053, -0.601
2.989, 5.060, -0.601
2.974, 5.067, -0.600
2.960, 5.076, -0.600
2.945, 5.083, -0.599
2.930, 5.090, -0.599
2.915, 5.096, -0.599
2.900, 5.103, -0.598
2.885, 5.110, -0.598
2.870, 5.117, -0.597
2.856, 5.124, -0.597
2.842, 5.133, -0.597
2.827, 5.139, -0.596
2.812, 5.146, -0.596
2.797, 5.153, -0.596
2.781, 5.158, -0.595
2.766, 5.165, -0.595
2.752, 5.172, -0.594
2.737, 5.179, -0.594
2.722, 5.186, -0.594
2.707, 5.192, -0.593
2.692, 5.199, -0.593
2.678, 5.206, -0.592
2.662, 5.211, -0.592
2.647, 5.218, -0.592
2.633, 5.225, -0.591
2.618, 5.232, -0.591
2.603, 5.238, -0.590
2.588, 5.243, -0.590
3.118, 5.133, -0.603
3.104, 5.142, -0.603
3.088, 5.149, -0.602
3.073, 5.156, -0.602
3.057, 5.163, -0.601
3.042, 5.170, -0.601
3.027, 5.179, -0.601
3.012, 5.186, -0.600
2.996, 5.193, -0.600
2.981, 5.200, -0.599
2.966, 5.208, -0.599
2.950, 5.215, -0.599
2.935, 5.222, -0.598
2.919, 5.229, -0.598
2.904, 5.236, -0.597
2.889, 5.243, -0.597
2.873, 5.250, -0.597
2.858, 5.257, -0.596
2.842, 5.264, -0.596
2.827, 5.271, -0.595
2.812, 5.278, -0.595
2.796, 5.285, -0.595
2.781, 5.292, -0.594
2.766, 5.299, -0.594
2.751, 5.306, -0.593
2.735, 5.313, -0.593
2.719, 5.318, -0.592
2.704, 5.325, -0.592
2.689, 5.332, -0.592
2.674, 5.339, -0.591
2.659, 5.346, -0.591
2.643, 5.351, -0.590
3.192, 5.240, -0.603
3.176, 5.248, -0.603
3.161, 5.257, -0.603
3.146, 5.265, -0.603
3.130, 5.273, -0.602
3.114, 5.280, -0.602
3.098, 5.288, -0.601
3.083, 5.297, -0.601
3.067, 5.304, -0.601
3.051, 5.311, -0.600
3.035, 5.319, -0.600
3.019, 5.326, -0.599
3.003, 5.333, -0.599
2.987, 5.340, -0.598
2.971, 5.347, -0.598
2.955, 5.355, -0.598
2.939, 5.362, -0.597
2.924, 5.369, -0.597
2.908, 5.376, -0.596
2.892, 5.383, -0.596
2.876, 5.391, -0.596
2.860, 5.398, -0.595
2.844, 5.405, -0.595
2.829, 5.412, -0.594
2.813, 5.419, -0.594
2.796, 5.424, -0.593
2.780, 5.432, -0.593
2.764, 5.439, -0.593
2.749, 5.446, -0.592
2.733, 5.453, -0.592
2.716, 5.458, -0.591
2.701, 5.465, -0.591
3.269, 5.353, -0.604
3.253, 5.362, -0.603
3.238, 5.371, -0.603
3.222, 5.380, -0.603
3.206, 5.388, -0.603
3.190, 5.396, -0.602
3.173, 5.404, -0.602
3.157, 5.412, -0.602
3.142, 5.422, -0.601
3.126, 5.430, -0.601
3.109, 5.437, -0.600
3.093, 5.444, -0.600
3.076, 5.452, -0.600
3.060, 5.459, -0.599
3.043, 5.467, -0.599
3.027, 5.474, -0.598
3.010, 5.481, -0.598
2.994, 5.489, -0.597
2.977, 5.496, -0.597
2.961, 5.504, -0.597
2.944, 5.511, -0.596
2.928, 5.518, -0.596
2.912, 5.526, -0.595
2.895, 5.533, -0.595
2.878, 5.538, -0.594
2.862, 5.545, -0.594
2.845, 5.553, -0.594
2.829, 5.560, -0.593
2.813, 5.567, -0.593
2.796, 5.575, -0.592
2.779, 5.580, -0.592
2.763, 5.587, -0.591
3.353, 5.475, -0.604
3.336, 5.483, -0.604
3.319, 5.491, -0.603
3.304, 5.502, -0.603
3.287, 5.510, -0.603
3.270, 5.518, -0.602
3.253, 5.527, -0.602
3.236, 5.535, -0.602
3.220, 5.543, -0.602
3.203, 5.551, -0.601
3.186, 5.560, -0.601
3.170, 5.570, -0.601
3.154, 5.578, -0.600
3.137, 5.586, -0.600
3.120, 5.594, -0.600
3.103, 5.602, -0.599
3.086, 5.609, -0.599
3.069, 5.617, -0.598
3.052, 5.624, -0.598
3.035, 5.632, -0.597
3.018, 5.640, -0.597
2.999, 5.645, -0.596
2.982, 5.652, -0.596
2.966, 5.660, -0.595
2.949, 5.667, -0.595
2.932, 5.675, -0.595
2.915, 5.682, -0.594
2.898, 5.690, -0.594
2.881, 5.697, -0.593
2.863, 5.703, -0.593
2.846, 5.710, -0.592
2.829, 5.718, -0.592
3.442, 5.605, -0.604
3.424, 5.613, -0.604
3.407, 5.622, -0.604
3.389, 5.630, -0.603
3.372, 5.639, -0.603
3.356, 5.650, -0.603
3.339, 5.658, -0.602
3.321, 5.667, -0.602
3.304, 5.675, -0.602
3.286, 5.683, -0.601
3.269, 5.692, -0.601
3.252, 5.700, -0.601
3.234, 5.709, -0.600
3.217, 5.717, -0.600
3.200, 5.726, -0.600
3.182, 5.734, -0.599
3.165, 5.743, -0.599
3.148, 5.751, -0.599
3.130, 5.760, -0.599
3.113, 5.767, -0.598
3.095, 5.775, -0.598
3.077, 5.783, -0.597
3.060, 5.791, -0.597
3.042, 5.798, -0.596
3.024, 5.806, -0.596
3.007, 5.814, -0.595
2.989, 5.821, -0.595
2.971, 5.827, -0.594
2.953, 5.834, -0.594
2.936, 5.842, -0.593
2.918, 5.850, -0.593
2.901, 5.857, -0.592
3.542, 5.751, -0.607
3.526, 5.762, -0.606
3.507, 5.770, -0.606
3.489, 5.779, -0.605
3.470, 5.787, -0.605
3.452, 5.796, -0.605
3.434, 5.804, -0.604
3.415, 5.813, -0.604
3.399, 5.823, -0.603
3.380, 5.832, -0.603
3.362, 5.840, -0.603
3.343, 5.849, -0.602
3.325, 5.857, -0.602
3.307, 5.865, -0.601
3.289, 5.874, -0.601
3.270, 5.882, -0.600
3.252, 5.890, -0.600
3.234, 5.899, -0.600
3.216, 5.907, -0.599
3.197, 5.915, -0.599
3.180, 5.924, -0.599
3.163, 5.934, -0.599
3.145, 5.943, -0.598
3.125, 5.949, -0.597
3.105, 5.953, -0.597
3.086, 5.960, -0.596
3.068, 5.968, -0.595
3.050, 5.976, -0.595
3.032, 5.984, -0.595
3.014, 5.992, -0.594
2.995, 6.000, -0.594
2.976, 6.005, -0.593
3.653, 5.912, -0.609
3.634, 5.921, -0.609
3.616, 5.932, -0.609
3.598, 5.942, -0.609
3.582, 5.956, -0.609
3.564, 5.967, -0.609
3.546, 5.977, -0.609
3.528, 5.988, -0.608
3.510, 5.998, -0.608
3.492, 6.009, -0.608
3.474, 6.019, -0.608
3.456, 6.030, -0.608
3.438, 6.040, -0.608
3.420, 6.051, -0.608
3.402, 6.061, -0.608
3.384, 6.072, -0.608
3.366, 6.082, -0.608
3.348, 6.093, -0.608
3.330, 6.103, -0.607
3.310, 6.111, -0.607
3.290, 6.118, -0.606
3.269, 6.124, -0.605
3.249, 6.130, -0.604
3.229, 6.136, -0.603
3.208, 6.142, -0.603
3.188, 6.148, -0.602
3.168, 6.154, -0.601
3.148, 6.160, -0.600
3.126, 6.163, -0.599
3.106, 6.170, -0.598
3.087, 6.177, -0.598
3.067, 6.184, -0.597
3.798, 6.124, -0.619
3.779, 6.135, -0.619
3.760, 6.146, -0.619
3.741, 6.157, -0.619
3.722, 6.168, -0.618
3.703, 6.179, -0.618
3.684, 6.190, -0.618
3.665, 6.201, -0.618
3.649, 6.216, -0.618
3.630, 6.227, -0.618
3.611, 6.238, -0.618
3.592, 6.249, -0.618
3.573, 6.260, -0.618
3.554, 6.271, -0.618
3.535, 6.282, -0.618
3.516, 6.293, -0.618
3.495, 6.301, -0.617
3.473, 6.307, -0.616
3.451, 6.313, -0.615
3.430, 6.319, -0.614
3.408, 6.326, -0.613
3.387, 6.332, -0.612
3.365, 6.338, -0.611
3.344, 6.344, -0.610
3.320, 6.347, -0.609
3.299, 6.353, -0.608
3.278, 6.359, -0.607
3.256, 6.365, -0.606
3.235, 6.371, -0.606
3.214, 6.377, -0.605
3.193, 6.383, -0.604
3.172, 6.389, -0.603
3.958, 6.356, -0.630
3.938, 6.367, -0.629
3.918, 6.379, -0.629
3.900, 6.395, -0.629
3.880, 6.406, -0.629
3.860, 6.418, -0.629
3.840, 6.430, -0.629
3.820, 6.441, -0.629
3.800, 6.453, -0.629
3.780, 6.465, -0.629
3.760, 6.476, -0.629
3.740, 6.488, -0.629
3.720, 6.499, -0.628
3.698, 6.507, -0.628
3.674, 6.513, -0.627
3.651, 6.520, -0.626
3.628, 6.526, -0.625
3.605, 6.532, -0.624
3.582, 6.539, -0.623
3.559, 6.545, -0.622
3.537, 6.551, -0.621
3.514, 6.557, -0.620
3.491, 6.564, -0.619
3.468, 6.570, -0.618
3.446, 6.576, -0.617
3.423, 6.582, -0.616
3.401, 6.588, -0.615
3.378, 6.595, -0.614
3.356, 6.601, -0.613
3.331, 6.603, -0.612
3.309, 6.609, -0.611
3.287, 6.615, -0.610
4.139, 6.619, -0.642
4.117, 6.631, -0.642
4.096, 6.644, -0.641
4.075, 6.656, -0.641
4.054, 6.668, -0.641
4.032, 6.680, -0.641
4.011, 6.693, -0.641
3.990, 6.705, -0.641
3.969, 6.717, -0.641
3.951, 6.734, -0.641
3.926, 6.741, -0.640
3.901, 6.748, -0.639
3.877, 6.754, -0.638
3.852, 6.760, -0.637
3.827, 6.767, -0.636
3.803, 6.773, -0.635
3.778, 6.780, -0.633
3.754, 6.786, -0.632
3.729, 6.792, -0.631
3.705, 6.798, -0.630
3.681, 6.805, -0.629
3.657, 6.811, -0.628
3.633, 6.817, -0.627
3.606, 6.819, -0.626
3.582, 6.825, -0.625
3.558, 6.832, -0.624
3.534, 6.838, -0.623
3.510, 6.844, -0.622
3.487, 6.850, -0.621
3.463, 6.856, -0.620
3.439, 6.862, -0.619
3.416, 6.868, -0.618
4.359, 6.940, -0.660
4.335, 6.951, -0.660
4.311, 6.962, -0.659
4.290, 6.978, -0.659
4.266, 6.989, -0.658
4.242, 7.000, -0.658
4.217, 7.010, -0.657
4.191, 7.018, -0.656
4.166, 7.026, -0.656
4.140, 7.034, -0.655
4.114, 7.042, -0.654
4.089, 7.049, -0.653
4.063, 7.057, -0.652
4.037, 7.065, -0.651
4.012, 7.073, -0.650
3.987, 7.081, -0.649
3.961, 7.089, -0.648
3.936, 7.097, -0.647
3.911, 7.104, -0.646
3.885, 7.112, -0.645
3.860, 7.120, -0.644
3.835, 7.128, -0.643
3.810, 7.135, -0.643
3.785, 7.143, -0.642
3.760, 7.151, -0.641
3.735, 7.158, -0.640
3.710, 7.166, -0.639
3.685, 7.174, -0.638
3.661, 7.181, -0.637
3.633, 7.183, -0.636
3.608, 7.191, -0.635
3.584, 7.198, -0.634
4.635, 7.342, -0.686
4.608, 7.353, -0.685
4.582, 7.364, -0.685
4.554, 7.373, -0.684
4.526, 7.381, -0.683
4.498, 7.389, -0.682
4.469, 7.398, -0.681
4.441, 7.406, -0.680
4.413, 7.414, -0.679
4.385, 7.422, -0.678
4.357, 7.430, -0.677
4.330, 7.438, -0.676
4.302, 7.446, -0.675
4.274, 7.454, -0.674
4.247, 7.462, -0.673
4.219, 7.470, -0.672
4.191, 7.478, -0.671
4.164, 7.486, -0.669
4.137, 7.494, -0.668
4.109, 7.502, -0.667
4.082, 7.510, -0.666
4.055, 7.518, -0.665
4.028, 7.526, -0.664
4.001, 7.533, -0.663
3.974, 7.541, -0.662
3.947, 7.549, -0.661
3.920, 7.557, -0.660
3.893, 7.565, -0.659
3.866, 7.572, -0.658
3.839, 7.580, -0.657
3.813, 7.588, -0.657
3.786, 7.596, -0.656
4.948, 7.798, -0.715
4.917, 7.807, -0.714
4.886, 7.815, -0.713
4.855, 7.823, -0.711
4.824, 7.832, -0.710
4.793, 7.840, -0.709
4.768, 7.856, -0.708
4.737, 7.865, -0.707
4.706, 7.873, -0.706
4.676, 7.881, -0.705
4.645, 7.889, -0.704
4.615, 7.897, -0.703
4.584, 7.906, -0.702
4.554, 7.914, -0.700
4.524, 7.922, -0.699
4.494, 7.931, -0.698
4.465, 7.940, -0.697
4.435, 7.949, -0.696
4.406, 7.957, -0.695
4.376, 7.966, -0.694
4.347, 7.975, -0.693
4.317, 7.984, -0.692
4.288, 7.993, -0.691
4.259, 8.001, -0.690
4.230, 8.010, -0.689
4.201, 8.019, -0.688
4.167, 8.018, -0.687
4.138, 8.027, -0.686
4.109, 8.036, -0.685
4.080, 8.044, -0.684
4.052, 8.053, -0.683
4.023, 8.061, -0.682
5.334, 8.360, -0.752
5.302, 8.373, -0.751
5.271, 8.385, -0.750
5.239, 8.398, -0.749
5.207, 8.411, -0.749
5.176, 8.423, -0.748
5.144, 8.436, -0.747
5.112, 8.446, -0.746
5.078, 8.455, -0.745
5.045, 8.465, -0.744
5.011, 8.474, -0.743
4.978, 8.483, -0.741
4.945, 8.492, -0.740
4.912, 8.501, -0.739
4.879, 8.510, -0.738
4.846, 8.519, -0.737
4.813, 8.528, -0.736
4.780, 8.537, -0.734
4.747, 8.546, -0.733
4.714, 8.555, -0.732
4.682, 8.564, -0.731
4.649, 8.573, -0.730
4.617, 8.582, -0.729
4.585, 8.591, -0.728
4.552, 8.600, -0.726
4.520, 8.608, -0.725
4.488, 8.617, -0.724
4.456, 8.626, -0.723
4.424, 8.635, -0.722
4.392, 8.644, -0.721
4.360, 8.652, -0.720
4.328, 8.661, -0.719
5.780, 9.009, -0.793
5.744, 9.021, -0.792
5.708, 9.033, -0.791
5.672, 9.045, -0.790
5.636, 9.057, -0.789
5.600, 9.069, -0.788
5.564, 9.081, -0.787
5.528, 9.093, -0.786
5.493, 9.105, -0.785
5.457, 9.117, -0.784
5.422, 9.129, -0.783
5.386, 9.141, -0.782
5.351, 9.153, -0.781
5.316, 9.165, -0.780
5.280, 9.176, -0.779
5.245, 9.188, -0.778
5.210, 9.200, -0.777
5.175, 9.212, -0.776
5.140, 9.223, -0.775
5.103, 9.232, -0.773
5.067, 9.240, -0.772
5.030, 9.248, -0.771
4.993, 9.256, -0.769
4.956, 9.264, -0.768
4.920, 9.272, -0.766
4.883, 9.280, -0.765
4.847, 9.288, -0.763
4.811, 9.295, -0.762
4.775, 9.303, -0.761
4.739, 9.311, -0.759
4.703, 9.319, -0.758
4.667, 9.327, -0.756
6.163, 9.567, -0.813
6.134, 9.595, -0.814
6.098, 9.612, -0.813
6.062, 9.629, -0.812
6.025, 9.645, -0.812
5.995, 9.672, -0.812
5.959, 9.688, -0.811
5.922, 9.705, -0.810
5.886, 9.721, -0.810
5.850, 9.738, -0.809
5.813, 9.754, -0.809
5.777, 9.771, -0.808
5.741, 9.787, -0.808
5.705, 9.803, -0.807
5.668, 9.820, -0.806
5.632, 9.836, -0.806
5.596, 9.853, -0.805
5.560, 9.869, -0.805
5.524, 9.885, -0.804
5.488, 9.902, -0.804
5.452, 9.918, -0.803
5.413, 9.928, -0.802
5.373, 9.938, -0.800
5.334, 9.948, -0.799
5.295, 9.958, -0.798
5.256, 9.967, -0.796
5.217, 9.977, -0.795
5.177, 9.986, -0.794
5.146, 10.009, -0.795
5.113, 10.032, -0.795
5.081, 10.053, -0.795
5.048, 10.075, -0.795
6.464, 10.006, -0.809
6.427, 10.026, -0.809
6.390, 10.045, -0.809
6.353, 10.065, -0.808
6.316, 10.085, -0.808
6.279, 10.104, -0.808
6.242, 10.124, -0.807
6.205, 10.143, -0.807
6.168, 10.163, -0.807
6.131, 10.182, -0.806
6.088, 10.192, -0.805
6.045, 10.202, -0.804
6.002, 10.212, -0.802
5.960, 10.222, -0.801
5.917, 10.233, -0.799
5.875, 10.242, -0.798
5.833, 10.252, -0.796
5.791, 10.262, -0.795
5.749, 10.272, -0.794
5.707, 10.282, -0.792
5.665, 10.292, -0.791
5.623, 10.302, -0.789
5.582, 10.311, -0.788
5.540, 10.321, -0.787
5.506, 10.344, -0.787
5.473, 10.369, -0.787
5.440, 10.393, -0.787
5.407, 10.418, -0.788
5.374, 10.443, -0.788
5.340, 10.468, -0.788
5.307, 10.493, -0.789
5.274, 10.518, -0.789
6.701, 10.351, -0.790
6.662, 10.371, -0.790
6.623, 10.391, -0.789
6.584, 10.412, -0.789
6.546, 10.432, -0.789
6.507, 10.452, -0.788
6.468, 10.473, -0.788
6.430, 10.493, -0.788
6.391, 10.513, -0.787
6.353, 10.533, -0.787
6.314, 10.554, -0.787
