9.298445582389831543e+00 -8.835291787981987000e-01 -9.130043840501400609e-01
9.349593043327331543e+00 -7.889246866106987000e-01 -9.108376360032650609e-01
9.387068629264831543e+00 -6.893153116106987000e-01 -9.079995012376400609e-01
9.406599879264831543e+00 -5.834803506731987000e-01 -9.039711809251400609e-01
9.426009058952331543e+00 -4.782557412981987000e-01 -8.999581194017025609e-01
9.445296168327331543e+00 -3.733973428606987000e-01 -8.959450578782650609e-01
9.464705348014831543e+00 -2.682948037981987000e-01 -8.919472551438900609e-01
9.479109644889831543e+00 -1.625819131731987000e-01 -8.879036760423275609e-01
1.026853835582733154e+01 -1.228377811610698700e+00 -9.246010637376400609e-01
1.030869948863983154e+01 -1.119124881923198700e+00 -9.214272356126400609e-01
1.035154616832733154e+01 -1.010726444423198700e+00 -9.181160783860775609e-01
1.038889968395233154e+01 -8.998866006731987000e-01 -9.147438860032650609e-01
1.042613112926483154e+01 -7.895350381731987000e-01 -9.113716936204525609e-01
1.044798171520233154e+01 -6.744227334856987000e-01 -9.070839738938900609e-01
1.044261062145233154e+01 -5.513758584856987000e-01 -9.014534807298275609e-01
1.044346511363983154e+01 -4.313807412981987000e-01 -8.959450578782650609e-01
1.140696609020233154e+01 -1.633162967860698700e+00 -9.364418840501400609e-01
1.143907058238983154e+01 -1.508407108485698700e+00 -9.322151994798275609e-01
1.147447097301483154e+01 -1.384994022548198700e+00 -9.281716203782650609e-01
1.150999343395233154e+01 -1.261214725673198700e+00 -9.241280412767025609e-01
1.154539382457733154e+01 -1.137923710048198700e+00 -9.200997209642025609e-01
1.158079421520233154e+01 -1.014632694423198700e+00 -9.160714006517025609e-01
1.161619460582733154e+01 -8.910975381731987000e-01 -9.120278215501400609e-01
1.165159499645233154e+01 -7.680506631731987000e-01 -9.079995012376400609e-01
1.276219069957733154e+01 -2.114974491298198700e+00 -9.489540910813900609e-01
1.283946120738983154e+01 -1.990706913173198700e+00 -9.461006975267025609e-01
1.290904128551483154e+01 -1.863021366298198700e+00 -9.431862688157650609e-01
1.297923171520233154e+01 -1.734481327235698700e+00 -9.402413225267025609e-01
1.300218093395233154e+01 -1.591292850673198700e+00 -9.349007463548275609e-01
1.302195632457733154e+01 -1.447494022548198700e+00 -9.294228410813900609e-01
1.304185378551483154e+01 -1.303817264735698700e+00 -9.239296770188900609e-01
1.305247390270233154e+01 -1.158553592860698700e+00 -9.183907365892025609e-01
1.473850905895233154e+01 -2.817367069423198700e+00 -9.776711320970150609e-01
1.478269851207733154e+01 -2.659530155360698700e+00 -9.725136613938900609e-01
1.482688796520233154e+01 -2.501937381923198700e+00 -9.673714494798275609e-01
1.487107741832733154e+01 -2.343856327235698700e+00 -9.622139787767025609e-01
1.491526687145233154e+01 -2.186507694423198700e+00 -9.570717668626400609e-01
1.495225417613983154e+01 -2.027083866298198700e+00 -9.516091203782650609e-01
1.497105300426483154e+01 -1.862044803798198700e+00 -9.453224992845150609e-01
1.498972976207733154e+01 -1.698348514735698700e+00 -9.390663957688900609e-01
1.694566237926483154e+01 -3.602035038173198700e+00 -9.974770403001400609e-01
1.702159011363983154e+01 -3.430648319423198700e+00 -9.922432756517025609e-01
1.708323562145233154e+01 -3.254012577235698700e+00 -9.868569231126400609e-01
1.714524734020233154e+01 -3.076644413173198700e+00 -9.814400529954525609e-01
1.720701491832733154e+01 -2.899764530360698700e+00 -9.760537004563900609e-01
1.726878249645233154e+01 -2.722884647548198700e+00 -9.706520891282650609e-01
1.734202468395233154e+01 -2.548446170985698700e+00 -9.656777238938900609e-01
1.740428054332733154e+01 -2.371322147548198700e+00 -9.607491350267025609e-01
2.011289870738983154e+01 -4.728011600673198700e+00 -1.031977162370452561e+00
2.021983230113983154e+01 -4.531844608485698700e+00 -1.026895985612640061e+00
2.036753737926483154e+01 -4.348372928798198700e+00 -1.023310170182952561e+00
2.049619948863983154e+01 -4.156112186610698700e+00 -1.018900380143890061e+00
2.062510573863983154e+01 -3.963363163173198700e+00 -1.014490590104827561e+00
2.075486648082733154e+01 -3.769637577235698700e+00 -1.010065541276702561e+00
2.084165847301483154e+01 -3.561263553798198700e+00 -1.004023060807952561e+00
2.091660964488983154e+01 -3.349959842860698700e+00 -9.975685930345150609e-01
2.525047194957733154e+01 -6.554061405360698700e+00 -1.101816639909515061e+00
2.524461257457733154e+01 -6.261703006923198700e+00 -1.090677723893890061e+00
2.527293288707733154e+01 -5.982772342860698700e+00 -1.080027089128265061e+00
2.528013503551483154e+01 -5.697249881923198700e+00 -1.069391713151702561e+00
2.537327468395233154e+01 -5.441024295985698700e+00 -1.061579213151702561e+00
2.546641433238983154e+01 -5.184554569423198700e+00 -1.053751454362640061e+00
2.552940261363983154e+01 -4.918197147548198700e+00 -1.045618519792327561e+00
2.562266433238983154e+01 -4.661605350673198700e+00 -1.037790761003265061e+00
2.835056960582733154e+01 -7.658309452235698700e+00 -1.062952504167327561e+00
3.027903640270233154e+01 -7.996444217860698700e+00 -1.105219349870452561e+00
3.299070632457733154e+01 -8.554305545985698700e+00 -1.167643055925140061e+00
3.381736648082733154e+01 -8.447005741298198700e+00 -1.176584706315765061e+00
3.394517409801483154e+01 -8.108016483485698700e+00 -1.166239247331390061e+00
3.407298171520233154e+01 -7.768661014735698700e+00 -1.155878529557952561e+00
3.404466140270233154e+01 -7.382430545985698700e+00 -1.141397938737640061e+00
3.399986159801483154e+01 -6.995955936610698700e+00 -1.126642689714202561e+00
4.236155593395233154e+01 -1.263816785067319870e+01 -1.251963124284515061e+00
3.070689284801483154e+01 -8.148299686610698700e+00 -9.648079729173275609e-01
4.668174636363983154e+01 -1.311643933504819870e+01 -1.316919789323577561e+00
4.779868972301483154e+01 -1.295115613192319870e+01 -1.323603138932952561e+00
4.255491530895233154e+01 -1.078929089754819870e+01 -1.189447865495452561e+00
4.929612624645233154e+01 -1.233982800692319870e+01 -1.318949208268890061e+00
4.949095046520233154e+01 -1.185288953036069870e+01 -1.304087147722015061e+00
4.956236159801483154e+01 -1.133262585848569870e+01 -1.286676869401702561e+00
6.043711745738983154e+01 -1.906614636629819870e+01 -1.379282460222015061e+00
3.070725905895233154e+01 -8.153182499110698700e+00 -8.115944719407650609e-01
7.508457839488983154e+01 -2.258152722567319870e+01 -1.596460804948577561e+00
8.109873855113983154e+01 -2.367869519442319870e+01 -1.674005970964202561e+00
8.081407058238983154e+01 -2.269346570223569870e+01 -1.638987050065765061e+00
5.427281081676483154e+01 -1.384080456942319870e+01 -1.162073597917327561e+00
8.032456862926483154e+01 -2.077842663973569870e+01 -1.571360096940765061e+00
8.001939284801483154e+01 -1.982188367098569870e+01 -1.537165150651702561e+00
3.070750319957733154e+01 -8.158065311610698700e+00 -6.592202043626400609e-01
3.337522780895233154e+01 -8.697738163173198700e+00 -6.829781389329525609e-01
5.427305495738983154e+01 -1.384922742098569870e+01 -8.988747453782650609e-01
2.810703933238983154e+01 -7.589461795985698700e+00 -4.935707903001400609e-01
3.027232253551483154e+01 -8.012923710048198700e+00 -5.022835588548275609e-01
3.289182937145233154e+01 -8.541854374110698700e+00 -5.142006731126400609e-01
3.620066726207733154e+01 -9.235824100673198700e+00 -5.290474748704525609e-01
4.112657058238983154e+01 -1.036436413973569870e+01 -5.540718889329525609e-01
5.076255691051483154e+01 -1.280308484286069870e+01 -6.101479387376400609e-01
2.809483230113983154e+01 -7.589461795985698700e+00 -3.533272600267025609e-01
3.021226394176483154e+01 -7.996932499110698700e+00 -3.518166399095150609e-01
3.275291335582733154e+01 -8.500594608485698700e+00 -3.504433488938900609e-01
3.639951980113983154e+01 -9.305648319423198700e+00 -3.508705949876400609e-01
9.478865504264831543e+00 -1.620936319231987000e-01 -8.878731584642025609e-01
9.496931910514831543e+00 -5.760144442319869995e-02 -8.838906145188900609e-01
9.509993433952331543e+00 4.798937588930130005e-02 -8.798470354173275609e-01
9.508528590202331543e+00 1.573643758893013000e-01 -8.749031877610775609e-01
9.506209254264831543e+00 2.658848837018013000e-01 -8.699440813157650609e-01
9.516463160514831543e+00 3.711094930768013000e-01 -8.657936906907650609e-01
9.527815699577331543e+00 4.762120321393013000e-01 -8.616890764329525609e-01
9.525984644889831543e+00 5.832676962018013000e-01 -8.570809221360775609e-01
1.044309890270233154e+01 -4.307703897356987000e-01 -8.959145403001400609e-01
1.043711745738983154e+01 -3.095545694231987000e-01 -8.903603410813900609e-01
1.043736159801483154e+01 -1.906580850481987000e-01 -8.849129533860775609e-01
1.043138015270233154e+01 -7.041882723569869995e-02 -8.794045305345150609e-01
1.042552077770233154e+01 4.872179776430130005e-02 -8.739571428392025609e-01
1.041966140270233154e+01 1.671300008893013000e-01 -8.685250139329525609e-01
1.040977370738983154e+01 2.862706258893013000e-01 -8.631691789720150609e-01
1.042259109020233154e+01 3.994298055768013000e-01 -8.588509416673275609e-01
1.165147292613983154e+01 -7.675623819231987000e-01 -9.079689836595150609e-01
1.165525710582733154e+01 -6.359705850481987000e-01 -9.025673723313900609e-01
1.164622390270233154e+01 -5.016932412981987000e-01 -8.964791154954525609e-01
1.163706862926483154e+01 -3.679041787981987000e-01 -8.904213762376400609e-01
1.162815749645233154e+01 -2.352137491106987000e-01 -8.844246721360775609e-01
1.161924636363983154e+01 -1.034998819231987000e-01 -8.784584856126400609e-01
1.162315261363983154e+01 2.516222745180130005e-02 -8.731789445970150609e-01
1.163572585582733154e+01 1.510167196393013000e-01 -8.683724260423275609e-01
1.305247390270233154e+01 -1.157943241298198700e+00 -9.183754778001400609e-01
1.307346999645233154e+01 -1.016097538173198700e+00 -9.129586076829525609e-01
1.308543288707733154e+01 -8.720545694231987000e-01 -9.074654436204525609e-01
1.309727370738983154e+01 -7.281336709856987000e-01 -9.019722795579525609e-01
1.310923659801483154e+01 -5.850672647356987000e-01 -8.965096330735775609e-01
1.312095534801483154e+01 -4.423670694231987000e-01 -8.910622453782650609e-01
1.313279616832733154e+01 -2.996668741106987000e-01 -8.856301164720150609e-01
1.313560378551483154e+01 -1.561121866106987000e-01 -8.801369524095150609e-01
1.498972976207733154e+01 -1.697738163173198700e+00 -9.390358781907650609e-01
1.499998366832733154e+01 -1.532210819423198700e+00 -9.327339983079525609e-01
1.501011550426483154e+01 -1.367293827235698700e+00 -9.264321184251400609e-01
1.502036941051483154e+01 -1.202376835048198700e+00 -9.201454973313900609e-01
1.503050124645233154e+01 -1.038680545985698700e+00 -9.138893938157650609e-01
1.504051101207733154e+01 -8.754725381731987000e-01 -9.076638078782650609e-01
1.505064284801483154e+01 -7.123866006731987000e-01 -9.014382219407650609e-01
1.506065261363983154e+01 -5.502772256731987000e-01 -8.952584123704525609e-01
1.740452468395233154e+01 -2.370589725673198700e+00 -9.607186174485775609e-01
1.749449050426483154e+01 -2.200667850673198700e+00 -9.562325334642025609e-01
1.756529128551483154e+01 -2.024764530360698700e+00 -9.513954973313900609e-01
1.757920730113983154e+01 -1.833602420985698700e+00 -9.443154192063900609e-01
1.756211745738983154e+01 -1.636458866298198700e+00 -9.361061906907650609e-01
1.753086745738983154e+01 -1.437484256923198700e+00 -9.274086809251400609e-01
1.753599441051483154e+01 -1.247176639735698700e+00 -9.201149797532650609e-01
1.752867019176483154e+01 -1.055770389735698700e+00 -9.128670549485775609e-01
2.091660964488983154e+01 -3.349227420985698700e+00 -9.975380754563900609e-01
2.098216140270233154e+01 -3.135116092860698700e+00 -9.910073137376400609e-01
2.104783523082733154e+01 -2.920760624110698700e+00 -9.844612932298275609e-01
2.109886062145233154e+01 -2.701766483485698700e+00 -9.773812151048275609e-01
2.102073562145233154e+01 -2.453231327235698700e+00 -9.659981584642025609e-01
2.094358718395233154e+01 -2.207625858485698700e+00 -9.547524309251400609e-01
2.091355788707733154e+01 -1.973983280360698700e+00 -9.451241350267025609e-01
2.091294753551483154e+01 -1.748885624110698700e+00 -9.365334367845150609e-01
2.562278640270233154e+01 -4.660750858485698700e+00 -1.037760243425140061e+00
2.570616042613983154e+01 -4.401107303798198700e+00 -1.029825673112640061e+00
2.582054030895233154e+01 -4.149032108485698700e+00 -1.022135243425140061e+00
2.590452468395233154e+01 -3.887435428798198700e+00 -1.014154896745452561e+00
2.594859206676483154e+01 -3.616927616298198700e+00 -1.005045399675140061e+00
2.593199050426483154e+01 -3.333236210048198700e+00 -9.942116594407650609e-01
2.588181960582733154e+01 -3.043075077235698700e+00 -9.831490373704525609e-01
2.586558425426483154e+01 -2.763289920985698700e+00 -9.724678850267025609e-01
3.399864089488983154e+01 -6.994369022548198700e+00 -1.126566395768890061e+00
3.399961745738983154e+01 -6.623153202235698700e+00 -1.113260731706390061e+00
3.411668288707733154e+01 -6.283553592860698700e+00 -1.102900013932952561e+00
3.423435866832733154e+01 -5.942122928798198700e+00 -1.092478261003265061e+00
3.420030105113983154e+01 -5.565413944423198700e+00 -1.078424916276702561e+00
3.392539870738983154e+01 -5.137069217860698700e+00 -1.058741078386077561e+00
3.388938796520233154e+01 -4.766219608485698700e+00 -1.044855580339202561e+00
3.373448073863983154e+01 -4.374862186610698700e+00 -1.028376088151702561e+00
4.956260573863983154e+01 -1.133079480379819870e+01 -1.286631093034515061e+00
4.967845046520233154e+01 -1.082395886629819870e+01 -1.270273671159515061e+00
4.905564773082733154e+01 -1.012742566317319870e+01 -1.239038929948577561e+00
4.888523757457733154e+01 -9.556258670985698700e+00 -1.217234120378265061e+00
4.871739089488983154e+01 -8.993758670985698700e+00 -1.195765004167327561e+00
4.832005202770233154e+01 -8.385482303798198700e+00 -1.170130238542327561e+00
4.797752273082733154e+01 -7.798079960048198700e+00 -1.145822987565765061e+00
4.788645827770233154e+01 -7.273421756923198700e+00 -1.126535878190765061e+00
8.001646316051483154e+01 -1.981797742098569870e+01 -1.537012562761077561e+00
7.972605788707733154e+01 -1.887669324129819870e+01 -1.503305897722015061e+00
7.887266433238983154e+01 -1.780113171786069870e+01 -1.461267933854827561e+00
7.797447097301483154e+01 -1.673374890536069870e+01 -1.419214711198577561e+00
7.704795730113983154e+01 -1.568565320223569870e+01 -1.377619252214202561e+00
7.559409987926483154e+01 -1.454209851473569870e+01 -1.329264149675140061e+00
7.488413894176483154e+01 -1.358995007723569870e+01 -1.292368397722015061e+00
7.478123366832733154e+01 -1.278330945223569870e+01 -1.264460072526702561e+00
9.526106715202331543e+00 5.836339071393013000e-01 -8.570809221360775609e-01
9.522322535514831543e+00 6.905675008893013000e-01 -8.521828508470150609e-01
9.513655543327331543e+00 7.979893758893013000e-01 -8.472542619798275609e-01
9.504988551139831543e+00 9.052891805768013000e-01 -8.423409319017025609e-01
9.496321558952331543e+00 1.011612422764301300e+00 -8.374733781907650609e-01
9.487776637077331543e+00 1.117447383701801300e+00 -8.326363420579525609e-01
9.479231715202331543e+00 1.223160274326801300e+00 -8.277993059251400609e-01
9.473616480827331543e+00 1.327530391514301300e+00 -8.234200334642025609e-01
1.042259109020233154e+01 3.999180868268013000e-01 -8.588356828782650609e-01
1.042893874645233154e+01 5.141758993268013000e-01 -8.544716692063900609e-01
1.044114577770233154e+01 6.270909383893013000e-01 -8.501686906907650609e-01
1.044761550426483154e+01 7.413487508893013000e-01 -8.458046770188900609e-01
1.045396316051483154e+01 8.549962118268013000e-01 -8.414711809251400609e-01
1.046031081676483154e+01 9.682774618268013000e-01 -8.371529436204525609e-01
1.046079909801483154e+01 1.082657344639301300e+00 -8.327889299485775609e-01
1.046714675426483154e+01 1.195328243076801300e+00 -8.284859514329525609e-01
1.163572585582733154e+01 1.515050008893013000e-01 -8.683571672532650609e-01
1.164134109020233154e+01 2.784581258893013000e-01 -8.635048723313900609e-01
1.164683425426483154e+01 4.051671102643013000e-01 -8.586678361985775609e-01
1.165244948863983154e+01 5.319981649518013000e-01 -8.538460588548275609e-01
1.165806472301483154e+01 6.580967977643013000e-01 -8.490242815110775609e-01
1.166355788707733154e+01 7.838292196393013000e-01 -8.442330217454525609e-01
1.166905105113983154e+01 9.096837118268013000e-01 -8.394417619798275609e-01
1.167466628551483154e+01 1.034805782139301300e+00 -8.346657610032650609e-01
1.313560378551483154e+01 -1.556239053606987000e-01 -8.801216936204525609e-01
1.314866530895233154e+01 -1.451062411069869995e-02 -8.747353410813900609e-01
1.315281569957733154e+01 1.279454305768013000e-01 -8.693032121751400609e-01
1.315696609020233154e+01 2.705235555768013000e-01 -8.638710832688900609e-01
1.316099441051483154e+01 4.122471883893013000e-01 -8.584694719407650609e-01
1.316514480113983154e+01 5.534825399518013000e-01 -8.530678606126400609e-01
1.316929519176483154e+01 6.949620321393013000e-01 -8.476815080735775609e-01
1.316453444957733154e+01 8.365635946393013000e-01 -8.422798967454525609e-01
1.506053054332733154e+01 -5.497889444231987000e-01 -8.952431535813900609e-01
1.506223952770233154e+01 -3.865809366106987000e-01 -8.890175676438900609e-01
1.506382644176483154e+01 -2.238612100481987000e-01 -8.828072404954525609e-01
1.506541335582733154e+01 -6.114148348569869995e-02 -8.765969133470150609e-01
1.506712234020233154e+01 1.004796102643013000e-01 -8.704323625657650609e-01
1.506870925426483154e+01 2.616124227643013000e-01 -8.642830705735775609e-01
1.503599441051483154e+01 4.276280477643013000e-01 -8.567757463548275609e-01
1.500071609020233154e+01 5.923008993268013000e-01 -8.492379045579525609e-01
1.752854812145233154e+01 -1.055160038173198700e+00 -9.128365373704525609e-01
1.753880202770233154e+01 -8.680262491106987000e-01 -9.056191301438900609e-01
1.752647292613983154e+01 -6.773524209856987000e-01 -8.980660295579525609e-01
1.748387038707733154e+01 -4.815516397356987000e-01 -8.894295549485775609e-01
1.744175612926483154e+01 -2.880701944231987000e-01 -8.808846330735775609e-01
1.739988601207733154e+01 -9.605359286069869995e-02 -8.724160051438900609e-01
1.735826003551483154e+01 9.510851651430130005e-02 -8.639778947923275609e-01
1.730992019176483154e+01 2.850499227643013000e-01 -8.558449602220150609e-01
2.091294753551483154e+01 -1.748153202235698700e+00 -9.365029192063900609e-01
2.085374343395233154e+01 -1.512679569423198700e+00 -9.263253069017025609e-01
2.079002273082733154e+01 -1.278304569423198700e+00 -9.160866594407650609e-01
2.076035964488983154e+01 -1.051131717860698700e+00 -9.069466447923275609e-01
2.074961745738983154e+01 -8.290858194231987000e-01 -8.984780168626400609e-01
2.073899734020233154e+01 -6.081385537981987000e-01 -8.900399065110775609e-01
2.072849929332733154e+01 -3.873133584856987000e-01 -8.816170549485775609e-01
2.071800124645233154e+01 -1.683192178606987000e-01 -8.732704973313900609e-01
2.586558425426483154e+01 -2.762313358485698700e+00 -9.724373674485775609e-01
2.583848464488983154e+01 -2.481795780360698700e+00 -9.617256975267025609e-01
2.582810866832733154e+01 -2.205794803798198700e+00 -9.508614397142025609e-01
2.572801101207733154e+01 -1.914535038173198700e+00 -9.382881975267025609e-01
2.565696609020233154e+01 -1.631820194423198700e+00 -9.266152238938900609e-01
2.562315261363983154e+01 -1.357161991298198700e+00 -9.159951067063900609e-01
2.545213210582733154e+01 -1.063704960048198700e+00 -9.025368547532650609e-01
2.531834304332733154e+01 -7.803797647356987000e-01 -8.895668840501400609e-01
3.373301589488983154e+01 -4.373275272548198700e+00 -1.028299794206390061e+00
3.356016433238983154e+01 -3.983138553798198700e+00 -1.011759266862640061e+00
3.343394362926483154e+01 -3.606307499110698700e+00 -9.964089250657650609e-01
3.339195144176483154e+01 -3.246566288173198700e+00 -9.830117082688900609e-01
3.336534011363983154e+01 -2.892684452235698700e+00 -9.700417375657650609e-01
3.319871413707733154e+01 -2.519027225673198700e+00 -9.541878557298275609e-01
3.294712722301483154e+01 -2.136703006923198700e+00 -9.366707658860775609e-01
3.270103347301483154e+01 -1.762557499110698700e+00 -9.195351457688900609e-01
4.788255202770233154e+01 -7.270736210048198700e+00 -1.126413807878265061e+00
4.730638015270233154e+01 -6.655990116298198700e+00 -1.098612294206390061e+00
4.696653640270233154e+01 -6.098128788173198700e+00 -1.075464711198577561e+00
4.631260573863983154e+01 -5.492782108485698700e+00 -1.047129139909515061e+00
4.622019851207733154e+01 -4.995833866298198700e+00 -1.028849110612640061e+00
4.613426101207733154e+01 -4.503280155360698700e+00 -1.010813221940765061e+00
4.630284011363983154e+01 -4.048934452235698700e+00 -9.969582414720150609e-01
4.662412917613983154e+01 -3.614608280360698700e+00 -9.855141496751400609e-01
7.478733718395233154e+01 -1.278184460848569870e+01 -1.264460072526702561e+00
7.576597487926483154e+01 -1.219053601473569870e+01 -1.250956044206390061e+00
7.676597487926483154e+01 -1.158567761629819870e+01 -1.237146840104827561e+00
7.840623366832733154e+01 -1.107127331942319870e+01 -1.230677113542327561e+00
7.945408523082733154e+01 -1.043186902254819870e+01 -1.216013417253265061e+00
7.703587234020233154e+01 -9.243026249110698700e+00 -1.159525380143890061e+00
7.317356765270233154e+01 -7.897078983485698700e+00 -1.088053212175140061e+00
7.531065261363983154e+01 -7.431502811610698700e+00 -1.086573109636077561e+00
9.454722487926483154e+01 -1.585264538973569870e+01 -1.055582509050140061e+00
8.162559401988983154e+01 -1.079917859286069870e+01 -8.601174211595150609e-01
7.379600417613983154e+01 -7.997420780360698700e+00 -7.503151750657650609e-01
7.511021316051483154e+01 -7.416488163173198700e+00 -7.339119768235775609e-01
9.446433913707733154e+01 -1.585105847567319870e+01 -6.082253313157650609e-01
8.996311843395233154e+01 -1.404026746004819870e+01 -5.625862932298275609e-01
8.560801589488983154e+01 -1.234764050692319870e+01 -5.180611467454525609e-01
8.144004714488983154e+01 -1.078135632723569870e+01 -4.771675920579525609e-01
7.741099441051483154e+01 -9.324325077235698700e+00 -4.394936418626400609e-01
7.356272780895233154e+01 -7.975448124110698700e+00 -4.030403947923275609e-01
6.987217605113983154e+01 -6.730941288173198700e+00 -3.715462541673275609e-01
8.782615554332733154e+01 -1.184007214754819870e+01 -8.259056569076506094e-02
7.519700515270233154e+01 -7.451278202235698700e+00 -3.106163502670256094e-02
8.787376296520233154e+01 -1.186131238192319870e+01 3.288321638014224391e-01
7.537693679332733154e+01 -7.486922733485698700e+00 3.228659772779849391e-01
8.791172683238983154e+01 -1.188108777254819870e+01 7.427725934889224391e-01
7.519236648082733154e+01 -7.473983280360698700e+00 6.722006940748599391e-01
8.769651687145233154e+01 -1.185923718661069870e+01 1.150853648176422439e+00
8.705711257457733154e+01 -1.085826062411069870e+01 1.167088999738922439e+00
7.522813308238983154e+01 -7.490340702235698700e+00 1.025319590559234939e+00
8.669541823863983154e+01 -1.260349988192319870e+01 1.517552866926422439e+00
8.768784987926483154e+01 -1.187132214754819870e+01 1.563283457746734939e+00
8.894236648082733154e+01 -1.116233777254819870e+01 1.614934458723297439e+00
7.507102859020233154e+01 -7.480941288173198700e+00 1.372777476301422439e+00
8.671031081676483154e+01 -1.261936902254819870e+01 1.924336924543609939e+00
8.774815261363983154e+01 -1.189475964754819870e+01 1.975148692121734939e+00
8.720774734020233154e+01 -1.090830945223569870e+01 1.986577525129547439e+00
7.620091140270233154e+01 -8.423934452235698700e+00 1.732228770246734939e+00
7.482737624645233154e+01 -7.459945194423198700e+00 1.718389048567047439e+00
8.700889480113983154e+01 -1.358970593661069870e+01 2.317311778059234939e+00
8.870103347301483154e+01 -1.298106335848569870e+01 2.391438975324859939e+00
8.658592116832733154e+01 -1.171690320223569870e+01 2.353475108137359939e+00
8.730882155895233154e+01 -1.093736218661069870e+01 2.399190440168609939e+00
7.443296706676483154e+01 -8.180648319423198700e+00 2.034657969465484939e+00
7.469212234020233154e+01 -7.453353397548198700e+00 2.065007700910797439e+00
9.473616480827331543e+00 1.327896602451801300e+00 -8.234047746751400609e-01
9.479109644889831543e+00 1.430557735264301300e+00 -8.194832658860775609e-01
9.479964137077331543e+00 1.533585079014301300e+00 -8.155464983079525609e-01
9.480696558952331543e+00 1.636856563389301300e+00 -8.116097307298275609e-01
9.481428980827331543e+00 1.739639766514301300e+00 -8.076882219407650609e-01
9.482161402702331543e+00 1.842178829014301300e+00 -8.037819719407650609e-01
9.483015894889831543e+00 1.944839961826801300e+00 -7.998604631517025609e-01
9.478865504264831543e+00 2.047379024326801300e+00 -7.959542131517025609e-01
1.046714675426483154e+01 1.195816524326801300e+00 -8.284706926438900609e-01
1.046702468395233154e+01 1.309219844639301300e+00 -8.241524553392025609e-01
1.047263991832733154e+01 1.421646602451801300e+00 -8.198647356126400609e-01
1.047251784801483154e+01 1.535049922764301300e+00 -8.155312395188900609e-01
1.047239577770233154e+01 1.647842891514301300e+00 -8.112282610032650609e-01
1.047215163707733154e+01 1.760391719639301300e+00 -8.069405412767025609e-01
1.046629226207733154e+01 1.873550899326801300e+00 -8.026223039720150609e-01
1.046617019176483154e+01 1.985611446201801300e+00 -7.983498430345150609e-01
1.167466628551483154e+01 1.035171993076801300e+00 -8.346505022142025609e-01
1.167320144176483154e+01 1.161026485264301300e+00 -8.298439836595150609e-01
1.167173659801483154e+01 1.286514766514301300e+00 -8.250679826829525609e-01
1.167027175426483154e+01 1.412125118076801300e+00 -8.202614641282650609e-01
1.166880691051483154e+01 1.537003047764301300e+00 -8.155007219407650609e-01
1.166734206676483154e+01 1.661758907139301300e+00 -8.107399797532650609e-01
1.166587722301483154e+01 1.786514766514301300e+00 -8.059792375657650609e-01
1.166441237926483154e+01 1.910660274326801300e+00 -8.012490129563900609e-01
1.316453444957733154e+01 8.370518758893013000e-01 -8.422493791673275609e-01
1.317002761363983154e+01 9.770665243268013000e-01 -8.369240617845150609e-01
1.316648757457733154e+01 1.117935664951801300e+00 -8.315529680345150609e-01
1.316306960582733154e+01 1.258804805576801300e+00 -8.261666154954525609e-01
1.315952956676483154e+01 1.398941524326801300e+00 -8.208260393235775609e-01
1.315611159801483154e+01 1.538712032139301300e+00 -8.154854631517025609e-01
1.315269362926483154e+01 1.678726680576801300e+00 -8.101601457688900609e-01
1.314036452770233154e+01 1.818375118076801300e+00 -8.048195695970150609e-01
1.500047194957733154e+01 5.929112508893013000e-01 -8.492073869798275609e-01
1.495689284801483154e+01 7.574620321393013000e-01 -8.416848039720150609e-01
1.491367995738983154e+01 9.206700399518013000e-01 -8.342079973313900609e-01
1.487071120738983154e+01 1.083267696201801300e+00 -8.267617082688900609e-01
1.482810866832733154e+01 1.244156368076801300e+00 -8.193917131517025609e-01
1.484251296520233154e+01 1.399307735264301300e+00 -8.141884660813900609e-01
1.487071120738983154e+01 1.553848750889301300e+00 -8.094735002610775609e-01
1.489890944957733154e+01 1.708267696201801300e+00 -8.047585344407650609e-01
1.731004226207733154e+01 2.856602743268013000e-01 -8.558144426438900609e-01
1.731370437145233154e+01 4.676671102643013000e-01 -8.488716936204525609e-01
1.730222976207733154e+01 6.512608602643013000e-01 -8.418679094407650609e-01
1.729063308238983154e+01 8.348546102643013000e-01 -8.348641252610775609e-01
1.727915847301483154e+01 1.017227657139301300e+00 -8.279061174485775609e-01
1.726780593395233154e+01 1.198990352451801300e+00 -8.209786272142025609e-01
1.728330886363983154e+01 1.378799922764301300e+00 -8.149056291673275609e-01
1.730332839488983154e+01 1.557755000889301300e+00 -8.094429826829525609e-01
2.071800124645233154e+01 -1.675867959856987000e-01 -8.732399797532650609e-01
2.069773757457733154e+01 5.201769620180130005e-02 -8.648629045579525609e-01
2.067759597301483154e+01 2.706456258893013000e-01 -8.565163469407650609e-01
2.065745437145233154e+01 4.891514852643013000e-01 -8.481850481126400609e-01
2.063743484020233154e+01 7.061925008893013000e-01 -8.398995256517025609e-01
2.061741530895233154e+01 9.222569540143013000e-01 -8.316597795579525609e-01
2.059763991832733154e+01 1.138321407139301300e+00 -8.234047746751400609e-01
2.062388503551483154e+01 1.349991329014301300e+00 -8.164772844407650609e-01
2.531761062145233154e+01 -7.794032022356987000e-01 -8.895211076829525609e-01
2.526170241832733154e+01 -5.090174600481987000e-01 -8.788094377610775609e-01
2.525779616832733154e+01 -2.462000772356987000e-01 -8.687691545579525609e-01
2.522178542613983154e+01 2.027941495180130005e-02 -8.586068010423275609e-01
2.519370925426483154e+01 2.839512899518013000e-01 -8.487038469407650609e-01
2.536826980113983154e+01 5.298008993268013000e-01 -8.435616350267025609e-01
2.556150710582733154e+01 7.783360555768013000e-01 -8.393502092454525609e-01
2.580454909801483154e+01 1.026260860264301300e+00 -8.355355119798275609e-01
3.269908034801483154e+01 -1.761092655360698700e+00 -9.194435930345150609e-01
3.276121413707733154e+01 -1.430648319423198700e+00 -9.088845110032650609e-01
3.285349929332733154e+01 -1.102767460048198700e+00 -8.988747453782650609e-01
3.294639480113983154e+01 -7.728114053606987000e-01 -8.888192033860775609e-01
3.328636062145233154e+01 -4.654383584856987000e-01 -8.834481096360775609e-01
3.367271316051483154e+01 -1.557459756731987000e-01 -8.787331438157650609e-01
3.406809890270233154e+01 1.616368368268013000e-01 -8.739113664720150609e-01
3.459141433238983154e+01 4.770665243268013000e-01 -8.711647844407650609e-01
4.662852370738983154e+01 -3.613509647548198700e+00 -9.855141496751400609e-01
4.730760085582733154e+01 -3.217757694423198700e+00 -9.795021867845150609e-01
4.800498855113983154e+01 -2.811141483485698700e+00 -9.733376360032650609e-01
4.922471511363983154e+01 -2.443343631923198700e+00 -9.743752336595150609e-01
5.004771316051483154e+01 -2.016952030360698700e+00 -9.689278459642025609e-01
5.129868972301483154e+01 -1.610213749110698700e+00 -9.689736223313900609e-01
5.103269851207733154e+01 -1.068099491298198700e+00 -9.472756242845150609e-01
4.855308425426483154e+01 -3.964686319231987000e-01 -8.961739397142025609e-01
7.532859694957733154e+01 -7.431258670985698700e+00 -1.086679921159515061e+00
7.735447585582733154e+01 -6.910628788173198700e+00 -1.082453236589202561e+00
6.325840651988983154e+01 -4.535750858485698700e+00 -9.075569963548275609e-01
7.647337234020233154e+01 -5.242904178798198700e+00 -1.019785389909515061e+00
7.334763991832733154e+01 -4.177840702235698700e+00 -9.626564836595150609e-01
6.523728835582733154e+01 -2.766463749110698700e+00 -8.604988908860775609e-01
7.560288894176483154e+01 -2.853255741298198700e+00 -9.325814104173275609e-01
7.487559401988983154e+01 -2.045028202235698700e+00 -9.002022600267025609e-01
7.510874831676483154e+01 -7.413680545985698700e+00 -7.338051653001400609e-01
6.325791823863983154e+01 -4.545516483485698700e+00 -6.124672746751400609e-01
6.517576491832733154e+01 -2.771590702235698700e+00 -5.568795061204525609e-01
6.984727370738983154e+01 -6.725081913173198700e+00 -3.714089250657650609e-01
6.634800612926483154e+01 -5.581161014735698700e+00 -3.421730852220150609e-01
6.300608718395233154e+01 -4.526839725673198700e+00 -3.170876360032650609e-01
5.982322585582733154e+01 -3.555526249110698700e+00 -2.927040910813900609e-01
5.682542312145233154e+01 -2.668807499110698700e+00 -2.706703996751400609e-01
5.399754226207733154e+01 -1.857528202235698700e+00 -2.507271623704525609e-01
5.132627761363983154e+01 -1.113509647548198700e+00 -2.313485002610775609e-01
4.882054030895233154e+01 -4.362635537981987000e-01 -2.151131486985775609e-01
7.518321120738983154e+01 -7.446761600673198700e+00 -3.100059987045256094e-02
6.532176101207733154e+01 -2.804061405360698700e+00 5.138160227798493906e-02
7.537779128551483154e+01 -7.484481327235698700e+00 3.229575300123599391e-01
6.525987136363983154e+01 -2.809066288173198700e+00 3.544516706373599391e-01
7.521775710582733154e+01 -7.474715702235698700e+00 6.725821638014224391e-01
6.506065261363983154e+01 -2.802718631923198700e+00 6.566977643873599391e-01
7.523301589488983154e+01 -7.488387577235698700e+00 1.025487437238922439e+00
6.525779616832733154e+01 -2.829329960048198700e+00 9.626670026686099391e-01
7.506431472301483154e+01 -7.477401249110698700e+00 1.372716441145172439e+00
7.461314284801483154e+01 -6.655257694423198700e+00 1.386708750715484939e+00
6.521116530895233154e+01 -2.835677616298198700e+00 1.266484751692047439e+00
7.482993972301483154e+01 -7.457747928798198700e+00 1.718526377668609939e+00
7.441355788707733154e+01 -6.642196170985698700e+00 1.730916514387359939e+00
7.584593093395233154e+01 -6.046859256923198700e+00 1.790059580793609939e+00
6.542649734020233154e+01 -2.863875858485698700e+00 1.575414195051422439e+00
6.511399734020233154e+01 -2.176253788173198700e+00 1.588643565168609939e+00
7.469102370738983154e+01 -7.450667850673198700e+00 2.065053477277984939e+00
7.441294753551483154e+01 -6.653548710048198700e+00 2.077535166731109939e+00
6.399571120738983154e+01 -3.403548710048198700e+00 1.815755381574859939e+00
6.495762526988983154e+01 -2.834823124110698700e+00 1.866033091535797439e+00
6.486350905895233154e+01 -2.167953006923198700e+00 1.882817759504547439e+00
6.568540847301483154e+01 -1.564803592860698700e+00 1.930913462629547439e+00
9.478743433952331543e+00 2.047745235264301300e+00 -7.959236955735775609e-01
9.478377223014831543e+00 2.149796016514301300e+00 -7.920327043626400609e-01
9.473250269889831543e+00 2.252090938389301300e+00 -7.881264543626400609e-01
9.479475855827331543e+00 2.354141719639301300e+00 -7.848458147142025609e-01
9.488997340202331543e+00 2.455826289951801300e+00 -7.817330217454525609e-01
9.498640894889831543e+00 2.557632930576801300e+00 -7.786354875657650609e-01
9.508284449577331543e+00 2.659927852451801300e+00 -7.755074358079525609e-01
9.513167262077331543e+00 2.761978633701801300e+00 -7.723946428392025609e-01
1.046592605113983154e+01 1.985977657139301300e+00 -7.983193254563900609e-01
1.045945632457733154e+01 2.098282344639301300e+00 -7.940316057298275609e-01
1.045872390270233154e+01 2.210098750889301300e+00 -7.897744035813900609e-01
1.045957839488983154e+01 2.322159297764301300e+00 -7.858528947923275609e-01
1.047080886363983154e+01 2.433609493076801300e+00 -7.824501848313900609e-01
1.048216140270233154e+01 2.545181758701801300e+00 -7.790474748704525609e-01
1.048765456676483154e+01 2.657364375889301300e+00 -7.756295061204525609e-01
1.049900710582733154e+01 2.769180782139301300e+00 -7.722115373704525609e-01
1.166416823863983154e+01 1.911148555576801300e+00 -8.012184953782650609e-01
1.165574538707733154e+01 2.035416133701801300e+00 -7.964730119798275609e-01
1.164744460582733154e+01 2.159439571201801300e+00 -7.917427873704525609e-01
1.164048659801483154e+01 2.283707149326801300e+00 -7.870735979173275609e-01
1.165391433238983154e+01 2.406876094639301300e+00 -7.833046770188900609e-01
1.166734206676483154e+01 2.530167110264301300e+00 -7.795510149095150609e-01
1.168076980113983154e+01 2.654190547764301300e+00 -7.757668352220150609e-01
1.169431960582733154e+01 2.777969844639301300e+00 -7.719826555345150609e-01
1.314012038707733154e+01 1.818863399326801300e+00 -8.047890520188900609e-01
1.313804519176483154e+01 1.957535274326801300e+00 -7.995095110032650609e-01
1.312718093395233154e+01 2.096451289951801300e+00 -7.941994524095150609e-01
1.311631667613983154e+01 2.235611446201801300e+00 -7.888893938157650609e-01
1.312473952770233154e+01 2.373550899326801300e+00 -7.843727922532650609e-01
1.316184890270233154e+01 2.511368282139301300e+00 -7.809853410813900609e-01
1.321629226207733154e+01 2.650162227451801300e+00 -7.782235002610775609e-01
1.325987136363983154e+01 2.789444454014301300e+00 -7.753701067063900609e-01
1.489903151988983154e+01 1.708755977451801300e+00 -8.047432756517025609e-01
1.491917312145233154e+01 1.863907344639301300e+00 -8.000130510423275609e-01
1.493943679332733154e+01 2.019302852451801300e+00 -7.952675676438900609e-01
1.495982253551483154e+01 2.175552852451801300e+00 -7.904915666673275609e-01
1.499253737926483154e+01 2.331436641514301300e+00 -7.861733293626400609e-01
1.504771316051483154e+01 2.487564571201801300e+00 -7.825875139329525609e-01
1.510349929332733154e+01 2.645157344639301300e+00 -7.789864397142025609e-01
1.515928542613983154e+01 2.803360469639301300e+00 -7.753701067063900609e-01
1.730345046520233154e+01 1.558365352451801300e+00 -8.094277238938900609e-01
1.734446609020233154e+01 1.736465938389301300e+00 -8.039955949876400609e-01
1.737071120738983154e+01 1.915787227451801300e+00 -7.985176897142025609e-01
1.739707839488983154e+01 2.096207149326801300e+00 -7.930092668626400609e-01
1.742381179332733154e+01 2.276382930576801300e+00 -7.875161028001400609e-01
1.754258620738983154e+01 2.456070430576801300e+00 -7.847847795579525609e-01
1.766331374645233154e+01 2.638443477451801300e+00 -7.820076799485775609e-01
1.776975905895233154e+01 2.822525508701801300e+00 -7.792000627610775609e-01
2.062461745738983154e+01 1.350723750889301300e+00 -8.164772844407650609e-01
2.072312819957733154e+01 1.558975704014301300e+00 -8.117165422532650609e-01
2.082249343395233154e+01 1.768936641514301300e+00 -8.069100236985775609e-01
2.092307937145233154e+01 1.981583125889301300e+00 -8.020424699876400609e-01
2.102427566051483154e+01 2.195328243076801300e+00 -7.971596574876400609e-01
2.116709792613983154e+01 2.410416133701801300e+00 -7.932686662767025609e-01
2.135349929332733154e+01 2.628921993076801300e+00 -7.903389787767025609e-01
2.160179030895233154e+01 2.850845821201801300e+00 -7.888588762376400609e-01
2.580552566051483154e+01 1.027115352451801300e+00 -8.355202531907650609e-01
2.604014480113983154e+01 1.279922969639301300e+00 -8.315834856126400609e-01
2.631675612926483154e+01 1.535538204014301300e+00 -8.277382707688900609e-01
2.656358230113983154e+01 1.798355586826801300e+00 -8.236794328782650609e-01
2.680833327770233154e+01 2.065201289951801300e+00 -8.194527483079525609e-01
2.709312331676483154e+01 2.336197383701801300e+00 -8.158974504563900609e-01
2.740281569957733154e+01 2.613663204014301300e+00 -8.133187151048275609e-01
2.766978347301483154e+01 2.895767696201801300e+00 -8.090157365892025609e-01
3.459605300426483154e+01 4.780430868268013000e-01 -8.711953020188900609e-01
3.508787429332733154e+01 8.051915243268013000e-01 -8.677162981126400609e-01
3.534178054332733154e+01 1.151993282139301300e+00 -8.597969865892025609e-01
3.603843581676483154e+01 1.490738399326801300e+00 -8.591561174485775609e-01
3.660703933238983154e+01 1.844620235264301300e+00 -8.559670305345150609e-01
3.705222976207733154e+01 2.211319454014301300e+00 -8.503975725267025609e-01
3.656211745738983154e+01 2.589859493076801300e+00 -8.295693254563900609e-01
3.498045241832733154e+01 2.948624141514301300e+00 -7.921242570970150609e-01
4.853648269176483154e+01 -3.937830850481987000e-01 -8.958992815110775609e-01
4.621263015270233154e+01 2.193760946393013000e-01 -8.486428117845150609e-01
4.458909499645233154e+01 7.562413290143013000e-01 -8.118996477220150609e-01
5.065977370738983154e+01 1.014420039951801300e+00 -8.714547014329525609e-01
5.065049636363983154e+01 1.526871211826801300e+00 -8.537545061204525609e-01
5.183689773082733154e+01 2.024063594639301300e+00 -8.500313615892025609e-01
5.094944655895233154e+01 2.551285274326801300e+00 -8.219246721360775609e-01
3.716392409801483154e+01 2.959732539951801300e+00 -6.525368547532650609e-01
7.487058913707733154e+01 -2.042098514735698700e+00 -9.000649309251400609e-01
5.087608230113983154e+01 -3.196667879819869995e-02 -6.715035295579525609e-01
4.458885085582733154e+01 7.491612508893013000e-01 -6.029000139329525609e-01
7.299815261363983154e+01 2.839512899518013000e-01 -8.080086565110775609e-01
7.372495925426483154e+01 1.002457149326801300e+00 -7.882485246751400609e-01
5.341197097301483154e+01 1.996231563389301300e+00 -6.189827776048275609e-01
3.733970534801483154e+01 2.576187618076801300e+00 -4.921059465501400609e-01
3.719578444957733154e+01 2.953995235264301300e+00 -4.782204485032650609e-01
5.085496413707733154e+01 -3.892468661069869995e-02 -4.346413469407650609e-01
4.458872878551483154e+01 7.420811727643013000e-01 -3.950295305345150609e-01
5.341160476207733154e+01 1.987808711826801300e+00 -3.708443498704525609e-01
3.720567214488983154e+01 2.948135860264301300e+00 -3.044991350267025609e-01
4.880369460582733154e+01 -4.334559366106987000e-01 -2.150521135423275609e-01
4.645640456676483154e+01 1.845860555768013000e-01 -2.000222063157650609e-01
4.425034987926483154e+01 7.495274618268013000e-01 -1.875252580735775609e-01
4.217503249645233154e+01 1.267349727451801300e+00 -1.751503801438900609e-01
4.022996413707733154e+01 1.739151485264301300e+00 -1.640114641282650609e-01
3.841587722301483154e+01 2.170181758701801300e+00 -1.539254045579525609e-01
3.672154128551483154e+01 2.565933711826801300e+00 -1.438088274095150609e-01
3.512376296520233154e+01 2.927139766514301300e+00 -1.355995988938900609e-01
5.092393386363983154e+01 -5.857800692319869995e-02 4.027320384048493906e-02
5.089097487926483154e+01 4.581456258893013000e-01 5.753089427017243906e-02
4.046519362926483154e+01 1.727310664951801300e+00 2.623511790298493906e-02
3.860618484020233154e+01 2.161636836826801300e+00 2.769996165298493906e-02
3.686180007457733154e+01 2.559586055576801300e+00 2.875281809829743906e-02
3.522727859020233154e+01 2.922134883701801300e+00 2.937842844985993906e-02
5.075877273082733154e+01 -5.784558504819869995e-02 2.755637311842349391e-01
5.077329909801483154e+01 4.552159383893013000e-01 2.930350446607974391e-01
3.760850417613983154e+01 2.551407344639301300e+00 2.096152448561099391e-01
3.722654616832733154e+01 2.930313594639301300e+00 2.188468122389224391e-01
5.079588210582733154e+01 -6.785535067319869995e-02 5.135245466139224391e-01
5.135191237926483154e+01 4.222569540143013000e-01 5.390525007154849391e-01
3.726756179332733154e+01 2.924576289951801300e+00 3.933463239576724391e-01
5.075877273082733154e+01 -7.383679598569869995e-02 7.491202497389224391e-01
3.732762038707733154e+01 2.918961055576801300e+00 5.695395612623599391e-01
5.086643874645233154e+01 -8.763074129819869995e-02 9.890494489576724391e-01
5.095091140270233154e+01 4.233555868268013000e-01 1.008245005598297439e+00
3.727415359020233154e+01 2.912613399326801300e+00 7.424063825514224391e-01
5.082469069957733154e+01 -9.349011629819869995e-02 1.225728526106109939e+00
5.130052077770233154e+01 4.001622274518013000e-01 1.255177988996734939e+00
3.735484206676483154e+01 2.907120235264301300e+00 9.197745466139224391e-01
6.568662917613983154e+01 -1.562606327235698700e+00 1.931020274152984939e+00
5.090965163707733154e+01 -1.059412881731987000e-01 1.464910044660797439e+00
5.065965163707733154e+01 4.200596883893013000e-01 1.473638072004547439e+00
3.733604323863983154e+01 2.901016719639301300e+00 1.094396128645172439e+00
3.730137526988983154e+01 2.900528438389301300e+00 2.110037946607974391e-01
5.117259109020233154e+01 -2.722010537981987000e-01 5.029654645826724391e-01
5.075547683238983154e+01 2.795567587018013000e-01 5.153098249342349391e-01
3.726853835582733154e+01 2.894180782139301300e+00 3.920188093092349391e-01
3.774619948863983154e+01 3.291641719639301300e+00 4.132132673170474391e-01
5.085618484020233154e+01 2.663731649518013000e-01 7.596335554029849391e-01
3.725303542613983154e+01 2.887833125889301300e+00 5.721182966139224391e-01
5.124473464488983154e+01 -2.933192178606987000e-01 9.947104596998599391e-01
5.091795241832733154e+01 2.548985555768013000e-01 1.005239024152984939e+00
3.721031081676483154e+01 2.881363399326801300e+00 7.523245954420474391e-01
5.091038405895233154e+01 -2.820887491106987000e-01 1.231481089582672439e+00
5.093992507457733154e+01 2.453770712018013000e-01 1.250295176496734939e+00
3.735288894176483154e+01 2.875259883701801300e+00 9.376273298170474391e-01
3.727744948863983154e+01 3.267105586826801300e+00 9.487204694654849391e-01
5.118821609020233154e+01 -3.068690225481987000e-01 1.484868540754547439e+00
5.072923171520233154e+01 2.473301962018013000e-01 1.486653819074859939e+00
5.237364089488983154e+01 7.103428915143013000e-01 1.558553233137359939e+00
3.726280105113983154e+01 2.868912227451801300e+00 1.115285410871734939e+00
3.733323562145233154e+01 3.261368282139301300e+00 1.131963267317047439e+00
3.830137526988983154e+01 4.236832149326801300e+00 1.349950327863922439e+00
2.370860183238983154e+01 6.041885860264301300e+00 1.359929575910797439e+00
2.363889968395233154e+01 6.463150508701801300e+00 1.373418345442047439e+00
9.436629176139831543e+00 1.005836535245180130e+01 1.876668467512359939e+00
1.002513015270233154e+01 9.326553829014301300e+00 2.490529551496734939e+00
1.602156519889831543e+00 9.509537227451801300e+00 2.175786509504547439e+00
1.717146754264831543e+00 1.013136339932680130e+01 2.202077403059234939e+00
2.167097926139831543e+00 1.078138781338930130e+01 2.242146983137359939e+00
2.462141871452331543e+00 1.205250597745180130e+01 2.298192515363922439e+00
9.732405543327331543e+00 1.057447863370180130e+01 1.917088999738922439e+00
1.886092066764831543e+00 1.085414171963930130e+01 1.723134531965484939e+00
1.747176051139831543e+00 1.009584093838930130e+01 2.035298838606109939e+00
1.274275660514831543e+00 1.005775500088930130e+01 2.358525767317047439e+00
2.120833277702331543e+00 1.084925890713930130e+01 2.413579478254547439e+00
1.434187769889831543e+00 1.153883410245180130e+01 2.413167490949859939e+00
