9.801757991313934326e+00 -9.549207538366317749e-01 -9.164133594836982866e-01
9.839111506938934326e+00 -8.575086444616317749e-01 -9.134378956165107866e-01
9.871948421001434326e+00 -7.586316913366317749e-01 -9.104166553821357866e-01
9.904907405376434326e+00 -6.592664569616317749e-01 -9.073954151477607866e-01
9.913818538188934326e+00 -5.526990741491317749e-01 -9.027720020618232866e-01
9.917602717876434326e+00 -4.451551288366317749e-01 -8.978434131946357866e-01
9.921508967876434326e+00 -3.377332538366317749e-01 -8.929300831165107866e-01
9.920532405376434326e+00 -2.300672382116317749e-01 -8.880014942493232866e-01
1.070056170225143433e+01 -1.279871925711631775e+00 -9.255991504993232866e-01
1.073193377256393433e+01 -1.170374855399131775e+00 -9.220133350696357866e-01
1.076794451475143433e+01 -1.062464699149131775e+00 -9.184427784290107866e-01
1.079931658506393433e+01 -9.527234882116317749e-01 -9.148569629993232866e-01
1.083068865537643433e+01 -8.434705585241317749e-01 -9.112864063586982866e-01
1.086193865537643433e+01 -7.342176288366317749e-01 -9.077158497180732866e-01
1.088330096006393433e+01 -6.216688007116317749e-01 -9.037943409290107866e-01
1.088427752256393433e+01 -5.041150897741317749e-01 -8.984079883899482866e-01
1.180932635068893433e+01 -1.680628761649131775e+00 -9.383554981555732866e-01
1.184167498350143433e+01 -1.559046730399131775e+00 -9.342966602649482866e-01
1.186132830381393433e+01 -1.433314308524131775e+00 -9.295054004993232866e-01
1.188085955381393433e+01 -1.307581886649131775e+00 -9.246988819446357866e-01
1.190026873350143433e+01 -1.182581886649131775e+00 -9.199381397571357866e-01
1.191967791318893433e+01 -1.058070167899131775e+00 -9.151773975696357866e-01
1.193908709287643433e+01 -9.334363788366317749e-01 -9.104319141711982866e-01
1.195825213193893433e+01 -8.096570819616317749e-01 -9.057016895618232866e-01
1.325744646787643433e+01 -2.204066261649131775e+00 -9.589548633899482866e-01
1.328540056943893433e+01 -2.064661964774131775e+00 -9.536448047961982866e-01
1.330480974912643433e+01 -1.922816261649131775e+00 -9.482279346790107866e-01
1.332409685850143433e+01 -1.780970558524131775e+00 -9.428110645618232866e-01
1.334326189756393433e+01 -1.639979347586631775e+00 -9.374399708118232866e-01
1.336242693662643433e+01 -1.499598488211631775e+00 -9.320841358508857866e-01
1.338159197568893433e+01 -1.359339699149131775e+00 -9.267283008899482866e-01
1.339196795225143433e+01 -1.217493996024131775e+00 -9.213114307727607866e-01
1.485363787412643433e+01 -2.781214699149131775e+00 -9.723520801868232866e-01
1.490393084287643433e+01 -2.631800636649131775e+00 -9.677897022571357866e-01
1.495422381162643433e+01 -2.482264503836631775e+00 -9.632273243274482866e-01
1.500463885068893433e+01 -2.332240089774131775e+00 -9.586496876086982866e-01
1.505493181943893433e+01 -2.182703956961631775e+00 -9.540873096790107866e-01
1.510534685850143433e+01 -2.033167824149131775e+00 -9.495249317493232866e-01
1.515576189756393433e+01 -1.883021339774131775e+00 -9.449472950305732866e-01
1.520617693662643433e+01 -1.733363136649131775e+00 -9.403849171008857866e-01
1.705126971006393433e+01 -3.575648292899131775e+00 -9.972086475696357866e-01
1.715820330381393433e+01 -3.421351417899131775e+00 -9.936838672961982866e-01
1.725317400693893433e+01 -3.261927589774131775e+00 -9.900370167102607866e-01
1.734899920225143433e+01 -3.101160988211631775e+00 -9.863596485461982866e-01
1.744482439756393433e+01 -2.940272316336631775e+00 -9.826822803821357866e-01
1.754113787412643433e+01 -2.778651222586631775e+00 -9.789896534290107866e-01
1.762414568662643433e+01 -2.611536964774131775e+00 -9.746714161243232866e-01
1.762438982725143433e+01 -2.421107277274131775e+00 -9.674082325305732866e-01
1.998645037412643433e+01 -4.636683449149131775e+00 -1.029252104600885787e+00
2.010424822568893433e+01 -4.453333839774131775e+00 -1.025071196397760787e+00
2.022277849912643433e+01 -4.269129738211631775e+00 -1.020844511827448287e+00
2.034228533506393433e+01 -4.083216652274131775e+00 -1.016587309679010787e+00
2.046203631162643433e+01 -3.896937355399131775e+00 -1.012330107530573287e+00
2.058239763975143433e+01 -3.709681496024131775e+00 -1.008057646593073287e+00
2.066979998350143433e+01 -3.510828956961631775e+00 -1.002472929796198287e+00
2.073938006162643433e+01 -3.307093605399131775e+00 -9.962626026477607866e-01
2.468383806943893433e+01 -6.334437355399131775e+00 -1.094071440538385787e+00
2.467822283506393433e+01 -6.055262550711631775e+00 -1.083420805772760787e+00
2.470361346006393433e+01 -5.788538917899131775e+00 -1.073243193468073287e+00
2.474255388975143433e+01 -5.526576027274131775e+00 -1.064179472764948287e+00
2.482739275693893433e+01 -5.280970558524131775e+00 -1.056672148546198287e+00
2.491223162412643433e+01 -5.035243019461631775e+00 -1.049180083116510787e+00
2.496972674131393433e+01 -4.780360206961631775e+00 -1.041398100694635787e+00
2.505444353818893433e+01 -4.534632667899131775e+00 -1.033906035264948287e+00
2.837756365537643433e+01 -7.671351417899131775e+00 -1.082581572374323287e+00
3.052331560850143433e+01 -8.103236183524131775e+00 -1.133805327257135787e+00
3.218701189756393433e+01 -8.326136574149131775e+00 -1.169465117296198287e+00
3.237915056943893433e+01 -8.031214699149131775e+00 -1.161927275499323287e+00
3.243115252256393433e+01 -7.691126808524131775e+00 -1.150437407335260787e+00
3.257080096006393433e+01 -7.379115089774131775e+00 -1.141419462999323287e+00
3.249292010068893433e+01 -7.000941261649131775e+00 -1.126389555772760787e+00
3.243151873350143433e+01 -6.632655128836631775e+00 -1.112000517686823287e+00
4.110729998350143433e+01 -1.227218149602413177e+01 -1.259888701280573287e+00
4.208740252256393433e+01 -1.215377329289913177e+01 -1.267701201280573287e+00
4.341210955381393433e+01 -1.213326548039913177e+01 -1.283143095811823287e+00
3.790185564756393433e+01 -9.845423683524131775e+00 -1.136063628038385787e+00
4.096386736631393433e+01 -1.039779184758663177e+01 -1.192688994249323287e+00
4.525573748350143433e+01 -1.126204966008663177e+01 -1.275208525499323287e+00
4.511315935850143433e+01 -1.072664926946163177e+01 -1.254761748155573287e+00
4.523425310850143433e+01 -1.027401255071163177e+01 -1.240433745225885787e+00
5.441064471006393433e+01 -1.708394907414913177e+01 -1.323212675889948287e+00
5.915356463193893433e+01 -1.813363169133663177e+01 -1.395386748155573287e+00
6.372412127256393433e+01 -1.902328012883663177e+01 -1.460862212022760787e+00
3.790222185850143433e+01 -9.851283058524131775e+00 -9.520731495227607866e-01
4.314355486631393433e+01 -1.109456919133663177e+01 -1.034623198350885787e+00
5.099157732725143433e+01 -1.302315805852413177e+01 -1.160492949327448287e+00
7.363354510068893433e+01 -1.914620493352413177e+01 -1.542313628038385787e+00
7.309582537412643433e+01 -1.819881723821163177e+01 -1.506379179796198287e+00
8.491406267881393433e+01 -2.811544321477413177e+01 -1.516663603624323287e+00
3.790258806943893433e+01 -9.857020363211631775e+00 -7.690744922961982866e-01
8.675903338193893433e+01 -2.492440317571163177e+01 -1.420609526475885787e+00
5.099194353818893433e+01 -1.303097055852413177e+01 -9.159403370227607866e-01
2.860644549131393433e+01 -7.771082863211631775e+00 -5.297861622180732866e-01
3.072790545225143433e+01 -8.193202003836631775e+00 -5.407114551868232866e-01
3.329797381162643433e+01 -8.722254738211631775e+00 -5.553751514758857866e-01
3.655615252256393433e+01 -9.420985206961631775e+00 -5.737925098743232866e-01
4.094506853818893433e+01 -1.041024301946163177e+01 -6.000834034290107866e-01
4.822131365537643433e+01 -1.219027231633663177e+01 -6.479502247180732866e-01
2.857080096006393433e+01 -7.762415871024131775e+00 -3.901072071399482866e-01
3.063964861631393433e+01 -8.166834816336631775e+00 -3.909464405383857866e-01
3.312304705381393433e+01 -8.667811378836631775e+00 -3.924112842883857866e-01
3.625048846006393433e+01 -9.326136574149131775e+00 -3.950663135852607866e-01
4.082873553037643433e+01 -1.037948130071163177e+01 -4.015665577258857866e-01
2.855676287412643433e+01 -7.761683449149131775e+00 -2.500467823352607866e-01
9.920532405376434326e+00 -2.297010272741317749e-01 -8.879862354602607866e-01
9.923217952251434326e+00 -1.236219257116317749e-01 -8.831339405383857866e-01
9.921020686626434326e+00 -1.668833196163177490e-02 -8.782358692493232866e-01
9.918823421001434326e+00 9.000112116336822510e-02 -8.733530567493232866e-01
9.916626155376434326e+00 1.958360821008682251e-01 -8.685007618274482866e-01
9.914550960063934326e+00 3.010606914758682251e-01 -8.636942432727607866e-01
9.919067561626434326e+00 4.045763164758682251e-01 -8.592997120227607866e-01
9.927002131938934326e+00 5.066270977258682251e-01 -8.554087208118232866e-01
1.088452166318893433e+01 -5.037488788366317749e-01 -8.984079883899482866e-01
1.087988299131393433e+01 -3.853406757116317749e-01 -8.930216358508857866e-01
1.088024920225143433e+01 -2.688855975866317749e-01 -8.876810596790107866e-01
1.087561053037643433e+01 -1.513318866491317749e-01 -8.823404835071357866e-01
1.087109392881393433e+01 -3.487680852413177490e-02 -8.770304249133857866e-01
1.086645525693893433e+01 8.084584772586822510e-02 -8.717661426868232866e-01
1.087194842100143433e+01 1.942491680383682251e-01 -8.673563526477607866e-01
1.088452166318893433e+01 3.052110821008682251e-01 -8.631296680774482866e-01
1.195837420225143433e+01 -8.092908710241317749e-01 -9.056864307727607866e-01
1.197094744443893433e+01 -6.840467303991317749e-01 -9.009104297961982866e-01
1.198339861631393433e+01 -5.590467303991317749e-01 -8.961496876086982866e-01
1.199584978818893433e+01 -4.340467303991317749e-01 -8.913736866321357866e-01
1.200817888975143433e+01 -3.099012225866317749e-01 -8.866434620227607866e-01
1.202063006162643433e+01 -1.859998553991317749e-01 -8.819132374133857866e-01
1.203295916318893433e+01 -6.209848821163177490e-02 -8.771830128040107866e-01
1.204528826475143433e+01 6.107045710086822510e-02 -8.724833057727607866e-01
1.339221209287643433e+01 -1.217005714774131775e+00 -9.212961719836982866e-01
1.341247576475143433e+01 -1.078455910086631775e+00 -9.160166309680732866e-01
1.342419451475143433e+01 -9.379529803991317749e-01 -9.106607960071357866e-01
1.343579119443893433e+01 -7.974500507116317749e-01 -9.052897022571357866e-01
1.344738787412643433e+01 -6.578016132116317749e-01 -8.999643848743232866e-01
1.345898455381393433e+01 -5.186414569616317749e-01 -8.946543262805732866e-01
1.347045916318893433e+01 -3.793592303991317749e-01 -8.893442676868232866e-01
1.347338885068893433e+01 -2.393445819616317749e-01 -8.840036915149482866e-01
1.520629900693893433e+01 -1.732874855399131775e+00 -9.403696583118232866e-01
1.523584002256393433e+01 -1.577357277274131775e+00 -9.351206348743232866e-01
1.524572771787643433e+01 -1.416956886649131775e+00 -9.290018604602607866e-01
1.525561541318893433e+01 -1.256556496024131775e+00 -9.228830860461982866e-01
1.526550310850143433e+01 -1.097254738211631775e+00 -9.168100879993232866e-01
1.527526873350143433e+01 -9.385633319616317749e-01 -9.107523487415107866e-01
1.528503435850143433e+01 -7.799939960241317749e-01 -9.046946094836982866e-01
1.529479998350143433e+01 -6.224012225866317749e-01 -8.986826465930732866e-01
1.762451189756393433e+01 -2.420496925711631775e+00 -9.673777149524482866e-01
1.764575213193893433e+01 -2.236903175711631775e+00 -9.603739307727607866e-01
1.765197771787643433e+01 -2.049769386649131775e+00 -9.532328174915107866e-01
1.765832537412643433e+01 -1.862757667899131775e+00 -9.461069629993232866e-01
1.766455096006393433e+01 -1.677332863211631775e+00 -9.390268848743232866e-01
1.763061541318893433e+01 -1.483241066336631775e+00 -9.304056690540107866e-01
1.758776873350143433e+01 -1.288294777274131775e+00 -9.214792774524482866e-01
1.753015154600143433e+01 -1.092738136649131775e+00 -9.125223682727607866e-01
2.073986834287643433e+01 -3.306605324149131775e+00 -9.962473438586982866e-01
2.080078142881393433e+01 -3.100306496024131775e+00 -9.899607227649482866e-01
2.086169451475143433e+01 -2.893885597586631775e+00 -9.836588428821357866e-01
2.092297381162643433e+01 -2.686488136649131775e+00 -9.773417042102607866e-01
2.087805193662643433e+01 -2.454188331961631775e+00 -9.673471973743232866e-01
2.080676287412643433e+01 -2.217738136649131775e+00 -9.565134571399482866e-01
2.073596209287643433e+01 -1.983363136649131775e+00 -9.457712696399482866e-01
2.066625994443893433e+01 -1.752406105399131775e+00 -9.351969288196357866e-01
2.505480974912643433e+01 -4.533778175711631775e+00 -1.033875517686823287e+00
2.513049334287643433e+01 -4.285365089774131775e+00 -1.026291899522760787e+00
2.523437517881393433e+01 -4.044032081961631775e+00 -1.018937163194635787e+00
2.531054705381393433e+01 -3.793910011649131775e+00 -1.011292509874323287e+00
2.534948748350143433e+01 -3.535365089774131775e+00 -1.002564482530573287e+00
2.533435076475143433e+01 -3.264857277274131775e+00 -9.922495411243232866e-01
2.528869646787643433e+01 -2.988368019461631775e+00 -9.817057178821357866e-01
2.527380388975143433e+01 -2.721522316336631775e+00 -9.715128467883857866e-01
3.243322771787643433e+01 -6.632044777274131775e+00 -1.112000517686823287e+00
3.261047381162643433e+01 -6.332118019461631775e+00 -1.104203276475885787e+00
3.272119158506393433e+01 -6.012782081961631775e+00 -1.094590239366510787e+00
3.282470721006393433e+01 -5.689784035086631775e+00 -1.084733061632135787e+00
3.274133318662643433e+01 -5.322352394461631775e+00 -1.070176176866510787e+00
3.270813006162643433e+01 -4.970057472586631775e+00 -1.056977324327448287e+00
3.268420428037643433e+01 -4.620936378836631775e+00 -1.044068388780573287e+00
3.245227068662643433e+01 -4.231532081961631775e+00 -1.026230864366510787e+00
4.523510760068893433e+01 -1.027266977727413177e+01 -1.240403227647760787e+00
4.538916033506393433e+01 -9.829188331961631775e+00 -1.226868681749323287e+00
4.554345721006393433e+01 -9.384974464774131775e+00 -1.213318877061823287e+00
4.569848650693893433e+01 -8.938319191336631775e+00 -1.199692778429010787e+00
4.574353045225143433e+01 -8.465907081961631775e+00 -1.183823637804010787e+00
4.560058611631393433e+01 -7.951502785086631775e+00 -1.164185576280573287e+00
4.529199236631393433e+01 -7.404383644461631775e+00 -1.141388945421198287e+00
4.476647967100143433e+01 -6.821986183524131775e+00 -1.114716582139948287e+00
7.309777849912643433e+01 -1.819674204289913177e+01 -1.506333403429010787e+00
7.294006365537643433e+01 -1.736934946477413177e+01 -1.477250151475885787e+00
7.196350115537643433e+01 -1.633394907414913177e+01 -1.434830717882135787e+00
7.120568865537643433e+01 -1.537569712102413177e+01 -1.396699004014948287e+00
7.047058123350143433e+01 -1.444539926946163177e+01 -1.359696440538385787e+00
6.914379900693893433e+01 -1.339754770696163177e+01 -1.314133696397760787e+00
6.844848650693893433e+01 -1.251778696477413177e+01 -1.279130034288385787e+00
6.724462908506393433e+01 -1.155184458196163177e+01 -1.237275175889948287e+00
9.927002131938934326e+00 5.069933086633682251e-01 -8.553934620227607866e-01
9.938476741313934326e+00 6.080675274133682251e-01 -8.515329883899482866e-01
9.945312678813934326e+00 7.098741680383682251e-01 -8.476419971790107866e-01
9.952270686626434326e+00 8.119249492883682251e-01 -8.437510059680732866e-01
9.958984553813934326e+00 9.133653789758682251e-01 -8.398905323352607866e-01
9.965820491313934326e+00 1.014561668038368225e+00 -8.360300587024482866e-01
9.972656428813934326e+00 1.115880027413368225e+00 -8.321543262805732866e-01
9.974853694438934326e+00 1.217320457100868225e+00 -8.282938526477607866e-01
1.088439959287643433e+01 3.056993633508682251e-01 -8.630991504993232866e-01
1.089074724912643433e+01 4.176378399133682251e-01 -8.588266895618232866e-01
1.090283221006393433e+01 5.283556133508682251e-01 -8.546000049915107866e-01
1.090917986631393433e+01 6.402940899133682251e-01 -8.503275440540107866e-01
1.091552752256393433e+01 7.516222149133682251e-01 -8.460856006946357866e-01
1.092187517881393433e+01 8.627061992883682251e-01 -8.418589161243232866e-01
1.092272967100143433e+01 9.746446758508682251e-01 -8.375864551868232866e-01
1.092907732725143433e+01 1.085118308663368225e+00 -8.333597706165107866e-01
1.204528826475143433e+01 6.155873835086822510e-02 -8.724680469836982866e-01
1.205078142881393433e+01 1.857042461633682251e-01 -8.677225635852607866e-01
1.205639666318893433e+01 3.096056133508682251e-01 -8.629923389758857866e-01
1.206201189756393433e+01 4.336290508508682251e-01 -8.582621143665107866e-01
1.206762713193893433e+01 5.569200664758682251e-01 -8.535624073352607866e-01
1.207312029600143433e+01 6.798448711633682251e-01 -8.488779590930732866e-01
1.207861346006393433e+01 8.028917461633682251e-01 -8.441782520618232866e-01
1.208422869443893433e+01 9.253282696008682251e-01 -8.395090626086982866e-01
1.347326678037643433e+01 -2.387342303991317749e-01 -8.839731739368232866e-01
1.348608416318893433e+01 -1.011609882116317749e-01 -8.787241504993232866e-01
1.349023455381393433e+01 3.775502741336822510e-02 -8.734293506946357866e-01
1.349438494443893433e+01 1.769151836633682251e-01 -8.681192921008857866e-01
1.349853533506393433e+01 3.150987774133682251e-01 -8.628397510852607866e-01
1.348388689756393433e+01 4.558458477258682251e-01 -8.567362354602607866e-01
1.346081560850143433e+01 5.975694805383682251e-01 -8.502359913196357866e-01
1.342932146787643433e+01 7.389269024133682251e-01 -8.437662647571357866e-01
1.529479998350143433e+01 -6.217908710241317749e-01 -8.986673878040107866e-01
1.529663103818893433e+01 -4.632215350866317749e-01 -8.926096485461982866e-01
1.529235857725143433e+01 -3.039197772741317749e-01 -8.863230274524482866e-01
1.526464861631393433e+01 -1.404676288366317749e-01 -8.790445850696357866e-01
1.523718279600143433e+01 2.115346491336822510e-02 -8.718576954211982866e-01
1.520983904600143433e+01 1.816759258508682251e-01 -8.647165821399482866e-01
1.518261736631393433e+01 3.415880352258682251e-01 -8.576059864368232866e-01
1.518115252256393433e+01 4.964952617883682251e-01 -8.515787647571357866e-01
1.752978533506393433e+01 -1.092005714774131775e+00 -9.124765919055732866e-01
1.749438494443893433e+01 -9.027967303991317749e-01 -9.038095997180732866e-01
1.746252459287643433e+01 -7.155408710241317749e-01 -8.957834766711982866e-01
1.743811053037643433e+01 -5.303602069616317749e-01 -8.880472706165107866e-01
1.742187517881393433e+01 -3.482313007116317749e-01 -8.806772754993232866e-01
1.741955584287643433e+01 -1.693982928991317749e-01 -8.738413379993232866e-01
1.741723650693893433e+01 9.556785225868225098e-03 -8.670206592883857866e-01
1.740063494443893433e+01 1.891222149133682251e-01 -8.601694629993232866e-01
2.066564959287643433e+01 -1.751551613211631775e+00 -9.351511524524482866e-01
2.062365740537643433e+01 -1.528529152274131775e+00 -9.258127735461982866e-01
2.061389178037643433e+01 -1.313075050711631775e+00 -9.176035450305732866e-01
2.060412615537643433e+01 -1.097987160086631775e+00 -9.093943165149482866e-01
2.059448260068893433e+01 -8.844861835241317749e-01 -9.012461231555732866e-01
2.058496111631393433e+01 -6.719617694616317749e-01 -8.931437061633857866e-01
2.057519549131393433e+01 -4.596814960241317749e-01 -8.850412891711982866e-01
2.056555193662643433e+01 -2.489881366491317749e-01 -8.769999073352607866e-01
2.527355974912643433e+01 -2.720667824149131775e+00 -9.714823292102607866e-01
2.524890154600143433e+01 -2.453211769461631775e+00 -9.612741993274482866e-01
2.522900408506393433e+01 -2.188197121024131775e+00 -9.506235645618232866e-01
2.513671892881393433e+01 -1.910609230399131775e+00 -9.386148975696357866e-01
2.504772967100143433e+01 -1.637293800711631775e+00 -9.268351124133857866e-01
2.503002947568893433e+01 -1.378016456961631775e+00 -9.170694874133857866e-01
2.493249529600143433e+01 -1.107142433524131775e+00 -9.058085010852607866e-01
2.481066912412643433e+01 -8.368787616491317749e-01 -8.934336231555732866e-01
3.245068377256393433e+01 -4.230067238211631775e+00 -1.026139311632135787e+00
3.221252459287643433e+01 -3.845667824149131775e+00 -1.008545927843073287e+00
3.206262224912643433e+01 -3.484095558524131775e+00 -9.932261036243232866e-01
3.200634783506393433e+01 -3.142420753836631775e+00 -9.801798389758857866e-01
3.195068377256393433e+01 -2.804163917899131775e+00 -9.672861622180732866e-01
3.180590838193893433e+01 -2.454188331961631775e+00 -9.524546192493232866e-01
3.158361834287643433e+01 -2.095667824149131775e+00 -9.360361622180732866e-01
3.136596697568893433e+01 -1.744471535086631775e+00 -9.199533985461982866e-01
4.476196306943893433e+01 -6.819422706961631775e+00 -1.114579253038385787e+00
4.424316424131393433e+01 -6.251429542899131775e+00 -1.088547758897760787e+00
4.370178240537643433e+01 -5.691493019461631775e+00 -1.062531523546198287e+00
4.341906756162643433e+01 -5.188929542899131775e+00 -1.041672758897760787e+00
4.314184588193893433e+01 -4.696375831961631775e+00 -1.021210722764948287e+00
4.286901873350143433e+01 -4.211634621024131775e+00 -1.001099638780573287e+00
4.256262224912643433e+01 -3.727503761649131775e+00 -9.805765674915107866e-01
4.297668474912643433e+01 -3.352015480399131775e+00 -9.726725147571357866e-01
6.724292010068893433e+01 -1.154903696477413177e+01 -1.237168364366510787e+00
6.652478045225143433e+01 -1.070809458196163177e+01 -1.203187041124323287e+00
6.704016131162643433e+01 -1.011800669133663177e+01 -1.187211088975885787e+00
6.782409685850143433e+01 -9.565394386649131775e+00 -1.174576811632135787e+00
6.862194842100143433e+01 -9.003748878836631775e+00 -1.161759428819635787e+00
6.943579119443893433e+01 -8.430750831961631775e+00 -1.148667387804010787e+00
7.138781756162643433e+01 -8.010096535086631775e+00 -1.149521879991510787e+00
7.061840838193893433e+01 -7.178431496024131775e+00 -1.115464262804010787e+00
9.127392596006393433e+01 -1.472115610539913177e+01 -1.103806547960260787e+00
8.704895037412643433e+01 -1.212728403508663177e+01 -1.004578642686823287e+00
7.494262713193893433e+01 -7.787440285086631775e+00 -8.224192188586982866e-01
9.577343767881393433e+01 -1.657833383977413177e+01 -7.291269825305732866e-01
9.116882342100143433e+01 -1.471505258977413177e+01 -6.774912403430732866e-01
8.670092791318893433e+01 -1.297152231633663177e+01 -6.271372364368232866e-01
8.242993181943893433e+01 -1.135933969914913177e+01 -5.807657764758857866e-01
7.835510271787643433e+01 -9.868861183524131775e+00 -5.380564258899482866e-01
7.441906756162643433e+01 -8.482386574149131775e+00 -4.966745899524482866e-01
7.071057146787643433e+01 -7.212733253836631775e+00 -4.606943653430732866e-01
8.705188006162643433e+01 -1.215413950383663177e+01 -1.930704639758857866e-01
7.525793474912643433e+01 -7.853968605399131775e+00 -1.268778370227607866e-01
8.712548846006393433e+01 -1.217977426946163177e+01 2.119435741100517134e-01
7.518322771787643433e+01 -7.855067238211631775e+00 2.225484325084892134e-01
8.716259783506393433e+01 -1.219930551946163177e+01 6.193990184459892134e-01
7.469665545225143433e+01 -7.798914894461631775e+00 5.649556590709892134e-01
8.717138689756393433e+01 -1.221395395696163177e+01 1.024596162000676713e+00
8.787670916318893433e+01 -1.143490122258663177e+01 1.060957856336614213e+00
7.485168474912643433e+01 -7.831873878836631775e+00 9.145497752819267134e-01
8.607775896787643433e+01 -1.292489145696163177e+01 1.385893769422551713e+00
8.669409197568893433e+01 -1.214608286321163177e+01 1.422697968641301713e+00
8.600268572568893433e+01 -1.114913462102413177e+01 1.434325165906926713e+00
7.470666521787643433e+01 -7.822962746024131775e+00 1.257689423719426713e+00
8.722998064756393433e+01 -1.314559458196163177e+01 1.813658662000676713e+00
8.592529314756393433e+01 -1.202852915227413177e+01 1.807219453016301713e+00
8.734533709287643433e+01 -1.137667368352413177e+01 1.865584321180364213e+00
8.718322771787643433e+01 -1.045919321477413177e+01 1.888365693250676713e+00
7.524658221006393433e+01 -7.909632667899131775e+00 1.618208832899114213e+00
8.710888689756393433e+01 -1.224300669133663177e+01 2.242262787977239213e+00
8.847705096006393433e+01 -1.157088755071163177e+01 2.305388398328801713e+00
7.418115252256393433e+01 -8.525843605399131775e+00 1.914687104383489213e+00
7.385046404600143433e+01 -7.726283058524131775e+00 1.926939912000676713e+00
9.974853694438934326e+00 1.217564597725868225e+00 -8.282785938586982866e-01
9.980468928813934326e+00 1.318272605538368225e+00 -8.244333790149482866e-01
9.981567561626434326e+00 1.419468894600868225e+00 -8.205729053821357866e-01
9.982544124126434326e+00 1.520909324288368225e+00 -8.167124317493232866e-01
9.983642756938934326e+00 1.621617332100868225e+00 -8.128672169055732866e-01
9.984619319438934326e+00 1.722325339913368225e+00 -8.090220020618232866e-01
9.985717952251434326e+00 1.823033347725868225e+00 -8.051767872180732866e-01
9.982055842876434326e+00 1.923619285225868225e+00 -8.013468311633857866e-01
1.092907732725143433e+01 1.085606589913368225e+00 -8.333445118274482866e-01
1.092919939756393433e+01 1.196690574288368225e+00 -8.291178272571357866e-01
1.093493670225143433e+01 1.306797996163368225e+00 -8.249064014758857866e-01
1.093505877256393433e+01 1.417881980538368225e+00 -8.206644581165107866e-01
1.093530291318893433e+01 1.528355613350868225e+00 -8.164530323352607866e-01
1.093542498350143433e+01 1.638707175850868225e+00 -8.122568653430732866e-01
1.093005388975143433e+01 1.749547019600868225e+00 -8.080149219836982866e-01
1.093029803037643433e+01 1.859288230538368225e+00 -8.038340137805732866e-01
1.208422869443893433e+01 9.256944805383682251e-01 -8.394938038196357866e-01
1.208313006162643433e+01 1.048619285225868225e+00 -8.348093555774482866e-01
1.208203142881393433e+01 1.171299949288368225e+00 -8.301249073352607866e-01
1.208093279600143433e+01 1.294102683663368225e+00 -8.254404590930732866e-01
1.207983416318893433e+01 1.416295066475868225e+00 -8.207865284290107866e-01
1.207873553037643433e+01 1.538121238350868225e+00 -8.161325977649482866e-01
1.207763689756393433e+01 1.660069480538368225e+00 -8.114786671008857866e-01
1.207653826475143433e+01 1.781407371163368225e+00 -8.068552540149482866e-01
1.342907732725143433e+01 7.395372539758682251e-01 -8.437357471790107866e-01
1.340771502256393433e+01 8.785753399133682251e-01 -8.373728321399482866e-01
1.337780779600143433e+01 1.017979636788368225e+00 -8.309793995227607866e-01
1.335644549131393433e+01 1.156163230538368225e+00 -8.249826954211982866e-01
1.335388201475143433e+01 1.291172996163368225e+00 -8.198557422961982866e-01
1.335144060850143433e+01 1.425938621163368225e+00 -8.147287891711982866e-01
1.334899920225143433e+01 1.560826316475868225e+00 -8.096018360461982866e-01
1.335375994443893433e+01 1.694493308663368225e+00 -8.051462696399482866e-01
1.518115252256393433e+01 4.969835430383682251e-01 -8.515635059680732866e-01
1.517626971006393433e+01 6.517686992883682251e-01 -8.456888721790107866e-01
1.517138689756393433e+01 8.060655742883682251e-01 -8.398294971790107866e-01
1.515795916318893433e+01 9.614610821008682251e-01 -8.336496876086982866e-01
1.511792010068893433e+01 1.118321433663368225e+00 -8.264627979602607866e-01
1.507812517881393433e+01 1.274083152413368225e+00 -8.193369434680732866e-01
1.506872576475143433e+01 1.426915183663368225e+00 -8.133707569446357866e-01
1.509545916318893433e+01 1.576207175850868225e+00 -8.088236378040107866e-01
1.740039080381393433e+01 1.897325664758682251e-01 -8.601389454211982866e-01
1.740417498350143433e+01 3.658800274133682251e-01 -8.534098194446357866e-01
1.739355486631393433e+01 5.433702617883682251e-01 -8.466501758899482866e-01
1.738305681943893433e+01 7.209825664758682251e-01 -8.398752735461982866e-01
1.737255877256393433e+01 8.973741680383682251e-01 -8.331461475696357866e-01
1.736218279600143433e+01 1.073155418038368225e+00 -8.264322803821357866e-01
1.735168474912643433e+01 1.249058738350868225e+00 -8.197184131946357866e-01
1.734350603818893433e+01 1.423619285225868225e+00 -8.135691212024482866e-01
2.056518572568893433e+01 -2.482557147741317749e-01 -8.769693897571357866e-01
2.054663103818893433e+01 -3.719614446163177490e-02 -8.689127491321357866e-01
2.052807635068893433e+01 1.730089336633682251e-01 -8.608866260852607866e-01
2.050964373350143433e+01 3.832140117883682251e-01 -8.528757618274482866e-01
2.049133318662643433e+01 5.918321758508682251e-01 -8.449106739368232866e-01
2.047302263975143433e+01 7.995958477258682251e-01 -8.369913624133857866e-01
2.045471209287643433e+01 1.007359519600868225e+00 -8.290567921008857866e-01
2.043664568662643433e+01 1.213536277413368225e+00 -8.211985157336982866e-01
2.480957049131393433e+01 -8.357801288366317749e-01 -8.933725879993232866e-01
2.470703142881393433e+01 -5.711316913366317749e-01 -8.818064258899482866e-01
2.470336931943893433e+01 -3.206434100866317749e-01 -8.722544239368232866e-01
2.467065447568893433e+01 -6.673716008663177490e-02 -8.625650928821357866e-01
2.463818377256393433e+01 1.852159649133682251e-01 -8.529520557727607866e-01
2.468188494443893433e+01 4.292345196008682251e-01 -8.452463672961982866e-01
2.485119646787643433e+01 6.648302227258682251e-01 -8.411570118274482866e-01
2.506396502256393433e+01 8.994493633508682251e-01 -8.374186085071357866e-01
3.136389178037643433e+01 -1.743128761649131775e+00 -9.198771046008857866e-01
3.135864275693893433e+01 -1.424525246024131775e+00 -9.086618946399482866e-01
3.143896502256393433e+01 -1.116663917899131775e+00 -8.992624805774482866e-01
3.151989763975143433e+01 -8.067273944616317749e-01 -8.898020313586982866e-01
3.166320818662643433e+01 -5.031385272741317749e-01 -8.816233204211982866e-01
3.206469744443893433e+01 -2.198133319616317749e-01 -8.784952686633857866e-01
3.240478533506393433e+01 7.681752741336822510e-02 -8.738718555774482866e-01
3.275634783506393433e+01 3.775987774133682251e-01 -8.692942188586982866e-01
4.298242205381393433e+01 -3.351283058524131775e+00 -9.727182911243232866e-01
4.353356951475143433e+01 -2.986170753836631775e+00 -9.669199512805732866e-01
4.411535662412643433e+01 -2.614344581961631775e+00 -9.612589405383857866e-01
4.471398943662643433e+01 -2.232020363211631775e+00 -9.554453419055732866e-01
4.543701189756393433e+01 -1.852137550711631775e+00 -9.512491749133857866e-01
4.606103533506393433e+01 -1.450160011649131775e+00 -9.450693653430732866e-01
4.692822283506393433e+01 -1.053675636649131775e+00 -9.420786426868232866e-01
4.782263201475143433e+01 -6.442518085241317749e-01 -9.389658497180732866e-01
7.059387224912643433e+01 -7.172572121024131775e+00 -1.115067534288385787e+00
6.706896990537643433e+01 -6.006068214774131775e+00 -1.048279814561823287e+00
7.129760760068893433e+01 -5.826624855399131775e+00 -1.074769072374323287e+00
7.023425310850143433e+01 -4.990199074149131775e+00 -1.038163237413385787e+00
7.042102068662643433e+01 -4.301356300711631775e+00 -1.016190581163385787e+00
6.468652361631393433e+01 -3.090785011649131775e+00 -9.308786915149482866e-01
6.472644060850143433e+01 -2.442957863211631775e+00 -9.091806934680732866e-01
6.602539080381393433e+01 -1.883021339774131775e+00 -9.001627491321357866e-01
7.494128435850143433e+01 -7.784632667899131775e+00 -8.223276661243232866e-01
6.786010760068893433e+01 -6.117762550711631775e+00 -7.442331837024482866e-01
6.471264666318893433e+01 -3.102992042899131775e+00 -6.333323047961982866e-01
6.488098162412643433e+01 -2.464930519461631775e+00 -6.124887989368232866e-01
6.602478045225143433e+01 -1.893153175711631775e+00 -5.969248340930732866e-01
7.068591326475143433e+01 -7.206873878836631775e+00 -4.605417774524482866e-01
6.714782732725143433e+01 -6.036707863211631775e+00 -4.270029590930732866e-01
6.379907244443893433e+01 -4.961878761649131775e+00 -3.979197071399482866e-01
6.061621111631393433e+01 -3.971888527274131775e+00 -3.697367237415107866e-01
5.762316912412643433e+01 -3.067957863211631775e+00 -3.441324756946357866e-01
5.480041521787643433e+01 -2.240565285086631775e+00 -3.208017872180732866e-01
5.212866228818893433e+01 -1.480799660086631775e+00 -2.982187794055732866e-01
4.962683123350143433e+01 -7.890271991491317749e-01 -2.789927051868232866e-01
7.470776385068893433e+01 -7.775111183524131775e+00 -1.276102588977607866e-01
7.501293963193893433e+01 -7.057459816336631775e+00 -1.024179981555732866e-01
6.481799334287643433e+01 -3.132166847586631775e+00 -3.584390147588578657e-02
6.474206560850143433e+01 -2.474085792899131775e+00 -1.487832530401078657e-02
7.469396990537643433e+01 -7.784510597586631775e+00 2.196187450084892134e-01
7.506250017881393433e+01 -7.075282081961631775e+00 2.444295360241142134e-01
6.465002459287643433e+01 -2.476771339774131775e+00 2.819508983288017134e-01
7.469726580381393433e+01 -7.796351417899131775e+00 5.650472118053642134e-01
7.476818865537643433e+01 -7.048914894461631775e+00 5.897511912975517134e-01
6.471972674131393433e+01 -2.492274269461631775e+00 5.815419627819267134e-01
7.484912127256393433e+01 -7.828822121024131775e+00 9.145955516491142134e-01
7.451745623350143433e+01 -7.027918800711631775e+00 9.311513377819267134e-01
6.460766619443893433e+01 -3.143397316336631775e+00 8.567647411022392134e-01
6.454992693662643433e+01 -2.488856300711631775e+00 8.760213328991142134e-01
7.471228045225143433e+01 -7.821131691336631775e+00 1.257887787977239213e+00
7.502099627256393433e+01 -7.104334816336631775e+00 1.287367768445989213e+00
7.592480486631393433e+01 -6.453577980399131775e+00 1.329298920789739213e+00
6.461792010068893433e+01 -3.154261574149131775e+00 1.155760712781926713e+00
6.469177263975143433e+01 -2.509974464774131775e+00 1.177306122938176713e+00
7.524707049131393433e+01 -7.907069191336631775e+00 1.618285126844426713e+00
7.437097185850143433e+01 -7.031702980399131775e+00 1.619429536024114213e+00
7.611645525693893433e+01 -6.488001808524131775e+00 1.684386201063176713e+00
6.361657732725143433e+01 -3.714198097586631775e+00 1.407439179578801713e+00
6.355456560850143433e+01 -3.069666847586631775e+00 1.425124116102239213e+00
6.469641131162643433e+01 -2.520350441336631775e+00 1.476256318250676713e+00
7.385217303037643433e+01 -7.723963722586631775e+00 1.927061982313176713e+00
7.405651873350143433e+01 -7.002406105399131775e+00 1.953520722547551713e+00
7.400146502256393433e+01 -6.247279152274131775e+00 1.974135346570989213e+00
6.344543474912643433e+01 -3.706995949149131775e+00 1.696654267469426713e+00
6.329760760068893433e+01 -3.056483253836631775e+00 1.711058564344426713e+00
6.489538592100143433e+01 -2.545985206961631775e+00 1.779662079969426713e+00
9.982055842876434326e+00 1.923985496163368225e+00 -8.013315723743232866e-01
9.982055842876434326e+00 2.024083152413368225e+00 -7.975168751086982866e-01
9.977417171001434326e+00 2.124424949288368225e+00 -7.936869190540107866e-01
9.972778499126434326e+00 2.224888816475868225e+00 -7.898569629993232866e-01
9.968139827251434326e+00 2.324864402413368225e+00 -7.860422657336982866e-01
9.972778499126434326e+00 2.424595847725868225e+00 -7.827311085071357866e-01
9.982299983501434326e+00 2.524571433663368225e+00 -7.796793506946357866e-01
9.987304866313934326e+00 2.624302878975868225e+00 -7.766428516711982866e-01
1.093029803037643433e+01 1.859654441475868225e+00 -8.038187549915107866e-01
1.092443865537643433e+01 1.969517722725868225e+00 -7.996225879993232866e-01
1.092395037412643433e+01 2.079014793038368225e+00 -7.954569385852607866e-01
1.091809099912643433e+01 2.189122214913368225e+00 -7.912607715930732866e-01
1.091223162412643433e+01 2.298497214913368225e+00 -7.870798633899482866e-01
1.091381853818893433e+01 2.407628074288368225e+00 -7.832956837024482866e-01
1.091943377256393433e+01 2.517125144600868225e+00 -7.799540088977607866e-01
1.093054217100143433e+01 2.626256003975868225e+00 -7.766123340930732866e-01
1.207641619443893433e+01 1.781773582100868225e+00 -8.068247364368232866e-01
1.206884783506393433e+01 1.903355613350868225e+00 -8.022013233508857866e-01
1.206115740537643433e+01 2.024571433663368225e+00 -7.975626514758857866e-01
1.205358904600143433e+01 2.146031394600868225e+00 -7.929392383899482866e-01
1.204602068662643433e+01 2.266881003975868225e+00 -7.883310840930732866e-01
1.204321306943893433e+01 2.387364402413368225e+00 -7.839518116321357866e-01
1.205639666318893433e+01 2.507969871163368225e+00 -7.802591846790107866e-01
1.206945818662643433e+01 2.628453269600868225e+00 -7.765970753040107866e-01
1.335388201475143433e+01 1.694981589913368225e+00 -8.051310108508857866e-01
1.337768572568893433e+01 1.827427878975868225e+00 -8.010874317493232866e-01
1.339343279600143433e+01 1.960728660225868225e+00 -7.970285938586982866e-01
1.340917986631393433e+01 2.094639793038368225e+00 -7.929392383899482866e-01
1.342492693662643433e+01 2.228306785225868225e+00 -7.888651417102607866e-01
1.344116228818893433e+01 2.362217918038368225e+00 -7.847910450305732866e-01
1.348266619443893433e+01 2.496617332100868225e+00 -7.817240284290107866e-01
1.351586931943893433e+01 2.631382957100868225e+00 -7.786264942493232866e-01
1.509533709287643433e+01 1.576695457100868225e+00 -8.087931202258857866e-01
1.511474627256393433e+01 1.726841941475868225e+00 -8.042154835071357866e-01
1.513403338193893433e+01 1.877232566475868225e+00 -7.996225879993232866e-01
1.515344256162643433e+01 2.028477683663368225e+00 -7.950144337024482866e-01
1.517297381162643433e+01 2.179478660225868225e+00 -7.904062794055732866e-01
1.519238299131393433e+01 2.330723777413368225e+00 -7.857981251086982866e-01
1.526513689756393433e+01 2.482457175850868225e+00 -7.830515430774482866e-01
1.535070818662643433e+01 2.635045066475868225e+00 -7.807169483508857866e-01
1.734350603818893433e+01 1.424107566475868225e+00 -8.135386036243232866e-01
1.738195818662643433e+01 1.595616355538368225e+00 -8.083048389758857866e-01
1.740661638975143433e+01 1.768345847725868225e+00 -8.030405567493232866e-01
1.743151873350143433e+01 1.942173972725868225e+00 -7.977304981555732866e-01
1.745629900693893433e+01 2.115635886788368225e+00 -7.924356983508857866e-01
1.748120135068893433e+01 2.289586082100868225e+00 -7.871408985461982866e-01
1.755834978818893433e+01 2.464146628975868225e+00 -7.834177540149482866e-01
1.767346209287643433e+01 2.639683738350868225e+00 -7.812510059680732866e-01
2.043627947568893433e+01 1.214268699288368225e+00 -8.211527393665107866e-01
2.044482439756393433e+01 1.418370261788368225e+00 -8.142862842883857866e-01
2.053588885068893433e+01 1.618565574288368225e+00 -8.097086475696357866e-01
2.062805193662643433e+01 1.821080222725868225e+00 -8.050852344836982866e-01
2.072070330381393433e+01 2.024693503975868225e+00 -8.004313038196357866e-01
2.084509295225143433e+01 2.229405418038368225e+00 -7.965555713977607866e-01
2.106408709287643433e+01 2.436558738350868225e+00 -7.950754688586982866e-01
2.128686541318893433e+01 2.647130027413368225e+00 -7.935648487415107866e-01
2.506494158506393433e+01 9.003038555383682251e-01 -8.374033497180732866e-01
2.526721209287643433e+01 1.139439597725868225e+00 -8.334818409290107866e-01
2.552783221006393433e+01 1.379796043038368225e+00 -8.301401661243232866e-01
2.572656267881393433e+01 1.628331199288368225e+00 -8.258066700305732866e-01
2.593920916318893433e+01 1.879429832100868225e+00 -8.216867969836982866e-01
2.615527361631393433e+01 2.134556785225868225e+00 -8.175058887805732866e-01
2.634851092100143433e+01 2.394932761788368225e+00 -8.132944629993232866e-01
2.668103045225143433e+01 2.658360496163368225e+00 -8.113413379993232866e-01
3.275854510068893433e+01 3.785753399133682251e-01 -8.692942188586982866e-01
3.310827654600143433e+01 6.861925274133682251e-01 -8.646097706165107866e-01
3.346545428037643433e+01 1.000157371163368225e+00 -8.598185108508857866e-01
3.384741228818893433e+01 1.321202293038368225e+00 -8.552256153430732866e-01
3.420422381162643433e+01 1.649327293038368225e+00 -8.499460743274482866e-01
3.458496111631393433e+01 1.983922019600868225e+00 -8.448496387805732866e-01
3.525476092100143433e+01 2.324864402413368225e+00 -8.444223926868232866e-01
3.572424334287643433e+01 2.677159324288368225e+00 -8.402262256946357866e-01
4.782580584287643433e+01 -6.429090350866317749e-01 -9.389505909290107866e-01
4.715991228818893433e+01 -1.265516132116317749e-01 -9.130564258899482866e-01
4.495886248350143433e+01 4.491319805383682251e-01 -8.662272022571357866e-01
4.289038103818893433e+01 9.770860821008682251e-01 -8.226786182727607866e-01
4.784265154600143433e+01 1.268712058663368225e+00 -8.736124561633857866e-01
4.744506853818893433e+01 1.752720847725868225e+00 -8.521280811633857866e-01
4.699743670225143433e+01 2.230504050850868225e+00 -8.302469776477607866e-01
3.676782244443893433e+01 2.674107566475868225e+00 -6.891642139758857866e-01
6.602661150693893433e+01 -1.880946144461631775e+00 -9.000864551868232866e-01
6.337231463193893433e+01 -1.068202003836631775e+00 -8.519297169055732866e-01
5.007580584287643433e+01 1.982774883508682251e-01 -7.063913868274482866e-01
6.770678728818893433e+01 3.629018366336822510e-02 -8.475809620227607866e-01
6.718090838193893433e+01 7.262315899133682251e-01 -8.199778126086982866e-01
6.668762224912643433e+01 1.404576316475868225e+00 -7.930307911243232866e-01
6.658447283506393433e+01 2.071934714913368225e+00 -7.694559620227607866e-01
6.669763201475143433e+01 2.735020652413368225e+00 -7.476969288196357866e-01
6.602600115537643433e+01 -1.891077980399131775e+00 -5.968485401477607866e-01
6.337182635068893433e+01 -1.077967628836631775e+00 -5.609598682727607866e-01
5.010498064756393433e+01 1.891222149133682251e-01 -4.766550587024482866e-01
4.961035174131393433e+01 -7.863416522741317749e-01 -2.789164112415107866e-01
4.726232928037643433e+01 -1.543836444616317749e-01 -2.610636280383857866e-01
4.506713885068893433e+01 4.230089336633682251e-01 -2.459269092883857866e-01
4.300024431943893433e+01 9.529161602258682251e-01 -2.310495899524482866e-01
4.107910174131393433e+01 1.435582175850868225e+00 -2.175455616321357866e-01
3.926354998350143433e+01 1.877964988350868225e+00 -2.052622364368232866e-01
3.756018084287643433e+01 2.284214988350868225e+00 -1.931162403430732866e-01
3.598461931943893433e+01 2.655186668038368225e+00 -1.829233692493232866e-01
4.755725115537643433e+01 -1.787977069616317749e-01 -4.283242686651078657e-02
4.528930681943893433e+01 4.053087383508682251e-01 -3.695779307744828657e-02
4.315832537412643433e+01 9.400987774133682251e-01 -3.190713389776078657e-02
4.117858904600143433e+01 1.426426902413368225e+00 -2.757363780401078657e-02
3.930517596006393433e+01 1.871006980538368225e+00 -2.400308116338578657e-02
3.755554217100143433e+01 2.278355613350868225e+00 -2.093606456182328657e-02
3.594873064756393433e+01 2.649449363350868225e+00 -1.820474131963578657e-02
5.047424334287643433e+01 -3.560438007116317749e-01 2.009114696178642134e-01
5.018481463193893433e+01 1.620226055383682251e-01 2.151936961803642134e-01
5.016064471006393433e+01 1.553087383508682251e-01 4.463948680553642134e-01
5.057702654600143433e+01 6.417589336633682251e-01 4.689931346569267134e-01
5.014831560850143433e+01 1.482286602258682251e-01 6.763295604381767134e-01
5.054687517881393433e+01 6.350450664758682251e-01 7.004231883678642134e-01
5.045520037412643433e+01 -3.783826678991317749e-01 8.979939891491142134e-01
5.017492693662643433e+01 1.390733867883682251e-01 9.082478953991142134e-01
5.024951189756393433e+01 6.387071758508682251e-01 9.265889598522392134e-01
5.023742693662643433e+01 1.282091289758682251e-01 1.140150971570989213e+00
5.078527849912643433e+01 6.100206524133682251e-01 1.171919770399114213e+00
5.051416033506393433e+01 -3.975477069616317749e-01 1.364165253797551713e+00
5.018383806943893433e+01 1.230821758508682251e-01 1.370116181531926713e+00
5.066894549131393433e+01 6.066026836633682251e-01 1.402281708875676713e+00
3.656359881162643433e+01 2.971226707100868225e+00 5.746144725475517134e-01
5.055529803037643433e+01 -2.099256366491317749e-01 9.972066356334892134e-01
5.022851580381393433e+01 3.382921367883682251e-01 1.007735200086614213e+00
3.652087420225143433e+01 2.964756980538368225e+00 7.548207713756767134e-01
5.022094744443893433e+01 -1.986951678991317749e-01 1.233977265516301713e+00
5.025048846006393433e+01 3.287706524133682251e-01 1.252791352430364213e+00
3.666345232725143433e+01 2.958653464913368225e+00 9.401235057506767134e-01
3.658801287412643433e+01 3.350499168038368225e+00 9.512166453991142134e-01
5.049877947568893433e+01 -2.234754413366317749e-01 1.487364716688176713e+00
5.003979510068893433e+01 3.307237774133682251e-01 1.489149995008489213e+00
5.168420428037643433e+01 7.937364727258682251e-01 1.561049409070989213e+00
3.657336443662643433e+01 2.952305808663368225e+00 1.117781586805364213e+00
3.664379900693893433e+01 3.344761863350868225e+00 1.134459443250676713e+00
3.761193865537643433e+01 4.320225730538368225e+00 1.352446503797551713e+00
2.301916521787643433e+01 6.125279441475868225e+00 1.362425751844426713e+00
2.294946306943893433e+01 6.546544089913368225e+00 1.375914521375676713e+00
8.747192561626434326e+00 1.014175893366336823e+01 1.879164643445989213e+00
9.335693538188934326e+00 9.409947410225868225e+00 2.493025727430364213e+00
1.477661311626434326e+00 1.086478139460086823e+01 2.244643159070989213e+00
1.772705256938934326e+00 1.213589955866336823e+01 2.300688691297551713e+00
9.042968928813934326e+00 1.065787221491336823e+01 1.919585175672551713e+00
1.431396663188934326e+00 1.093265248835086823e+01 2.416075654188176713e+00
