1.024142682552337646e+01 -1.011708281934261322e+00 -9.160260545555445333e-01
1.027353131771087646e+01 -9.152727350592613220e-01 -9.128369676414820333e-01
1.030172955989837646e+01 -8.174944147467613220e-01 -9.096478807274195333e-01
1.033017194271087646e+01 -7.193498834967613220e-01 -9.064282762352320333e-01
1.035837018489837646e+01 -6.216936334967613220e-01 -9.032391893211695333e-01
1.037900006771087646e+01 -5.218401178717613220e-01 -8.995313035789820333e-01
1.038266217708587646e+01 -4.166155084967613220e-01 -8.946942674461695333e-01
1.038229596614837646e+01 -3.112688288092613220e-01 -8.898724901024195333e-01
1.113180768489837646e+01 -1.339345000684261322e+00 -9.270276414696070333e-01
1.115109479427337646e+01 -1.228261016309261322e+00 -9.228009568992945333e-01
1.117563092708587646e+01 -1.119374297559261322e+00 -9.186353074852320333e-01
1.119479596614837646e+01 -1.008534453809261322e+00 -9.144086229149195333e-01
1.121383893489837646e+01 -8.984270319342613220e-01 -9.102124559227320333e-01
1.123288190364837646e+01 -7.885637506842613220e-01 -9.060162889305445333e-01
1.124655377864837646e+01 -6.771135553717613220e-01 -9.017590867821070333e-01
1.126535260677337646e+01 -5.679826959967613220e-01 -8.976086961571070333e-01
1.224472272396087646e+01 -1.748768828809261322e+00 -9.426984178367945333e-01
1.226413190364837646e+01 -1.625355742871761322e+00 -9.379834520164820333e-01
1.228354108333587646e+01 -1.502186797559261322e+00 -9.332837449852320333e-01
1.230295026302337646e+01 -1.379139922559261322e+00 -9.285840379539820333e-01
1.232211530208587646e+01 -1.256825469434261322e+00 -9.239148485008570333e-01
1.234128034114837646e+01 -1.134877227246761322e+00 -9.192761766258570333e-01
1.236056745052337646e+01 -1.012928985059261322e+00 -9.146222459617945333e-01
1.237961041927337646e+01 -8.918352350592613220e-01 -9.099988328758570333e-01
1.355356061458587646e+01 -2.230458281934261322e+00 -9.586285936180445333e-01
1.359677350521087646e+01 -2.100697539746761322e+00 -9.543408738914820333e-01
1.363351666927337646e+01 -1.968617461621761322e+00 -9.500226365867945333e-01
1.367025983333587646e+01 -1.836293242871761322e+00 -9.457043992821070333e-01
1.369845807552337646e+01 -1.701771758496761322e+00 -9.409436570946070333e-01
1.371750104427337646e+01 -1.564686797559261322e+00 -9.357251512352320333e-01
1.373642194271087646e+01 -1.427723906934261322e+00 -9.304913865867945333e-01
1.374704205989837646e+01 -1.289174102246761322e+00 -9.252118455711695333e-01
1.509982526302337646e+01 -2.799672149121761322e+00 -9.734143602196070333e-01
1.514816510677337646e+01 -2.654286406934261322e+00 -9.689740526024195333e-01
1.519650495052337646e+01 -2.508900664746761322e+00 -9.645337449852320333e-01
1.524508893489837646e+01 -2.363026641309261322e+00 -9.600781785789820333e-01
1.529330670833587646e+01 -2.217640899121761322e+00 -9.556378709617945333e-01
1.534164655208587646e+01 -2.072133086621761322e+00 -9.512128221336695333e-01
1.539023053646087646e+01 -1.926259063184261322e+00 -9.467572557274195333e-01
1.543857038021087646e+01 -1.780873320996761322e+00 -9.423169481102320333e-01
1.715353620052337646e+01 -3.555409453809261322e+00 -9.965772020164820333e-01
1.725485455989837646e+01 -3.405751250684261322e+00 -9.931439744774195333e-01
1.734482038021087646e+01 -3.251210235059261322e+00 -9.896039354149195333e-01
1.743551862239837646e+01 -3.095448516309261322e+00 -9.860486375633570333e-01
1.752621686458587646e+01 -2.939564727246761322e+00 -9.824780809227320333e-01
1.761740338802337646e+01 -2.783070586621761322e+00 -9.789075242821070333e-01
1.770932233333587646e+01 -2.625233672559261322e+00 -9.752911912742945333e-01
1.774386823177337646e+01 -2.450795195996761322e+00 -9.696759568992945333e-01
1.990609967708587646e+01 -4.568348906934261322e+00 -1.027644096547732033e+00
2.004477155208587646e+01 -4.401112578809261322e+00 -1.024714409047732033e+00
2.019113385677337646e+01 -4.234730742871761322e+00 -1.022028862172732033e+00
2.033932721614837646e+01 -4.066517852246761322e+00 -1.019312797719607033e+00
2.042514264583587646e+01 -3.876942656934261322e+00 -1.014124809438357033e+00
2.049069440364837646e+01 -3.680653594434261322e+00 -1.008143364125857033e+00
2.055649030208587646e+01 -3.483632110059261322e+00 -1.002131401235232033e+00
2.062191998958587646e+01 -3.287343047559261322e+00 -9.961346971336695333e-01
2.422665631771087646e+01 -6.158070586621761322e+00 -1.088465629750857033e+00
2.422287213802337646e+01 -5.891469024121761322e+00 -1.078288017446169533e+00
2.424728620052337646e+01 -5.636342070996761322e+00 -1.068552910024294533e+00
2.430246198177337646e+01 -5.391835235059261322e+00 -1.060511528188357033e+00
2.438131940364837646e+01 -5.156361602246761322e+00 -1.053324638539919533e+00
2.446005475521087646e+01 -4.920887969434261322e+00 -1.046137748891482033e+00
2.451376569271087646e+01 -4.676869414746761322e+00 -1.038691459828982033e+00
2.459250104427337646e+01 -4.441517852246761322e+00 -1.031519828969607033e+00
2.859921491146087646e+01 -7.768178008496761322e+00 -1.107981620961794533e+00
3.060702741146087646e+01 -8.168690703809261322e+00 -1.157786308461794533e+00
3.057235944271087646e+01 -7.821888945996761322e+00 -1.144541679555544533e+00
3.057187116146087646e+01 -7.488270781934261322e+00 -1.132395683461794533e+00
3.067184674739837646e+01 -7.190541289746761322e+00 -1.123301445180544533e+00
3.077182233333587646e+01 -6.892689727246761322e+00 -1.114222465688357033e+00
3.087228620052337646e+01 -6.593739531934261322e+00 -1.105097709828982033e+00
3.100351178646087646e+01 -6.304799102246761322e+00 -1.096873222524294533e+00
2.930661237239837646e+01 -8.032338164746761322e+00 -9.900159227196070333e-01
4.089340436458587646e+01 -1.183836843818426132e+01 -1.275843559438357033e+00
4.177951276302337646e+01 -1.169432546943426132e+01 -1.282496391469607033e+00
3.691513288021087646e+01 -9.611317656934261322e+00 -1.145518242055544533e+00
4.047897565364837646e+01 -1.036217214912176132e+01 -1.218760429555544533e+00
4.283517682552337646e+01 -1.066075613349676132e+01 -1.260264335805544533e+00
4.277108991146087646e+01 -1.018040945380926132e+01 -1.242625175649294533e+00
4.265255963802337646e+01 -9.690297149121761322e+00 -1.223917900258669533e+00
2.930697858333587646e+01 -8.036610625684261322e+00 -8.494519578758570333e-01
5.313498151302337646e+01 -1.620799734443426132e+01 -1.333109794789919533e+00
5.756271588802337646e+01 -1.715001394599676132e+01 -1.403666435414919533e+00
3.721298444271087646e+01 -9.716176055371761322e+00 -9.753369676414820333e-01
4.244455182552337646e+01 -1.100316336005926132e+01 -1.064524589711794533e+00
5.027719342708587646e+01 -1.298985769599676132e+01 -1.200053154164919533e+00
6.710006940364837646e+01 -1.751476003974676132e+01 -1.499812065297732033e+00
6.586166608333587646e+01 -1.643614675849676132e+01 -1.452753959828982033e+00
2.930722272396087646e+01 -8.041005156934261322e+00 -7.096356736961695333e-01
8.550277936458587646e+01 -2.775841238349676132e+01 -1.592097221547732033e+00
3.721335065364837646e+01 -9.721791289746761322e+00 -7.987012254539820333e-01
4.244491803646087646e+01 -1.100951101630926132e+01 -8.632764207664820333e-01
5.027755963802337646e+01 -1.299730398505926132e+01 -9.618634568992945333e-01
2.930758893489837646e+01 -8.045277617871761322e+00 -5.690869676414820333e-01
3.721371686458587646e+01 -9.727284453809261322e+00 -6.220807420555445333e-01
4.095102155208587646e+01 -1.053258230537176132e+01 -6.470898973289820333e-01
4.768063580989837646e+01 -1.219334890693426132e+01 -6.985883104149195333e-01
2.864340436458587646e+01 -7.805043242871761322e+00 -4.250134813133570333e-01
3.078634870052337646e+01 -8.254872344434261322e+00 -4.289655076805445333e-01
3.337765729427337646e+01 -8.813954375684261322e+00 -4.341687547508570333e-01
3.639254987239837646e+01 -9.457997344434261322e+00 -4.400433885399195333e-01
4.035397565364837646e+01 -1.034532644599676132e+01 -4.489545213524195333e-01
4.694809186458587646e+01 -1.197130300849676132e+01 -4.681500779930445333e-01
2.858505475521087646e+01 -7.787709258496761322e+00 -2.876691209617945333e-01
3.079525983333587646e+01 -8.262562774121761322e+00 -2.824658738914820333e-01
1.038217389583587646e+01 -3.109026178717613220e-01 -8.898419725242945333e-01
1.038498151302337646e+01 -2.070207819342613220e-01 -8.850659715477320333e-01
1.038363873958587646e+01 -1.025285944342613220e-01 -8.802899705711695333e-01
1.038778913021087646e+01 2.546086907386779785e-04 -8.758801805321070333e-01
1.040060651302337646e+01 1.002301946282386780e-01 -8.720654832664820333e-01
1.041342389583587646e+01 1.999616399407386780e-01 -8.682660447899195333e-01
1.042611920833587646e+01 2.996930852532386780e-01 -8.644666063133570333e-01
1.043441998958587646e+01 3.999128118157386780e-01 -8.606366502586695333e-01
1.126535260677337646e+01 -5.676164850592613220e-01 -8.975781785789820333e-01
1.127829205989837646e+01 -4.571428522467613220e-01 -8.933667527977320333e-01
1.129660260677337646e+01 -3.482561334967613220e-01 -8.892163621727320333e-01
1.130954205989837646e+01 -2.379045709967613220e-01 -8.850049363914820333e-01
1.132235944271087646e+01 -1.281633600592613220e-01 -8.808240281883570333e-01
1.133505475521087646e+01 -1.878836005926132202e-02 -8.766431199852320333e-01
1.134250104427337646e+01 9.192941337823867798e-02 -8.724164354149195333e-01
1.135531842708587646e+01 2.006940618157386780e-01 -8.682660447899195333e-01
1.237948834896087646e+01 -8.913469538092613220e-01 -9.099683152977320333e-01
1.239218366146087646e+01 -7.687883600592613220e-01 -9.052991258446070333e-01
1.240475690364837646e+01 -6.465959772467613220e-01 -9.006299363914820333e-01
1.241745221614837646e+01 -5.242815241217613220e-01 -8.959607469383570333e-01
1.242990338802337646e+01 -4.026994928717613220e-01 -8.913373338524195333e-01
1.244247663021087646e+01 -2.816057428717613220e-01 -8.867139207664820333e-01
1.245492780208587646e+01 -1.603899225592613220e-01 -8.820905076805445333e-01
1.246737897396087646e+01 -3.990652412176132202e-02 -8.774976121727320333e-01
1.374679791927337646e+01 -1.288685820996761322e+00 -9.251813279930445333e-01
1.376693952083587646e+01 -1.153431914746761322e+00 -9.200238572899195333e-01
1.377878034114837646e+01 -1.016346953809261322e+00 -9.147900926414820333e-01
1.379062116146087646e+01 -8.791399225592613220e-01 -9.095563279930445333e-01
1.380233991146087646e+01 -7.429094538092613220e-01 -9.043530809227320333e-01
1.381405866146087646e+01 -6.070451959967613220e-01 -8.991803514305445333e-01
1.382577741146087646e+01 -4.711809381842613220e-01 -8.939923631492945333e-01
1.382931745052337646e+01 -3.344621881842613220e-01 -8.887738572899195333e-01
1.543857038021087646e+01 -1.780262969434261322e+00 -9.422864305321070333e-01
1.547983014583587646e+01 -1.632802031934261322e+00 -9.377850877586695333e-01
1.550619733333587646e+01 -1.481190703809261322e+00 -9.325970994774195333e-01
1.551645123958587646e+01 -1.325184844434261322e+00 -9.266309129539820333e-01
1.552658307552337646e+01 -1.170155547559261322e+00 -9.207257615867945333e-01
1.553659284114837646e+01 -1.015858672559261322e+00 -9.148358690086695333e-01
1.554672467708587646e+01 -8.614397272467613220e-01 -9.089459764305445333e-01
1.555673444271087646e+01 -7.082414850592613220e-01 -9.031018602196070333e-01
1.774362409114837646e+01 -2.450062774121761322e+00 -9.696454393211695333e-01
1.776437604427337646e+01 -2.272084258496761322e+00 -9.628552781883570333e-01
1.777133405208587646e+01 -2.090809844434261322e+00 -9.559430467430445333e-01
1.777816998958587646e+01 -1.909657500684261322e+00 -9.490308152977320333e-01
1.778500592708587646e+01 -1.729970000684261322e+00 -9.421643602196070333e-01
1.779049909114837646e+01 -1.550648711621761322e+00 -9.352826463524195333e-01
1.775119245052337646e+01 -1.361439727246761322e+00 -9.266156541649195333e-01
1.769796979427337646e+01 -1.171620391309261322e+00 -9.179334031883570333e-01
2.062191998958587646e+01 -3.286610625684261322e+00 -9.961041795555445333e-01
2.067941510677337646e+01 -3.087880156934261322e+00 -9.900464402977320333e-01
2.073691022396087646e+01 -2.889027617871761322e+00 -9.839734422508570333e-01
2.079477155208587646e+01 -2.689320586621761322e+00 -9.778851854149195333e-01
2.081088483333587646e+01 -2.479847930371761322e+00 -9.703015672508570333e-01
2.074594342708587646e+01 -2.252064727246761322e+00 -9.598798143211695333e-01
2.068149030208587646e+01 -2.026112578809261322e+00 -9.495190965477320333e-01
2.061801373958587646e+01 -1.803334258496761322e+00 -9.393262254539820333e-01
2.459286725521087646e+01 -4.440785430371761322e+00 -1.031489311391482033e+00
2.466330182552337646e+01 -4.202870391309261322e+00 -1.024226127797732033e+00
2.475937116146087646e+01 -3.971791289746761322e+00 -1.017176567250857033e+00
2.483029401302337646e+01 -3.732411406934261322e+00 -1.009867607289919533e+00
2.487826764583587646e+01 -3.488148711621761322e+00 -1.001872001821169533e+00
2.486569440364837646e+01 -3.229847930371761322e+00 -9.920148240867945333e-01
2.482541120052337646e+01 -2.965931914746761322e+00 -9.819440233055445333e-01
2.481308209896087646e+01 -2.711049102246761322e+00 -9.722241746727320333e-01
3.100424420833587646e+01 -6.303944610059261322e+00 -1.096857963735232033e+00
3.115780866146087646e+01 -6.020375274121761322e+00 -1.089381157094607033e+00
3.131210553646087646e+01 -5.735341094434261322e+00 -1.081858574086794533e+00
3.146774518489837646e+01 -5.447865508496761322e+00 -1.074274955922732033e+00
3.157919538021087646e+01 -5.148915313184261322e+00 -1.065501152211794533e+00
3.153708112239837646e+01 -4.812977813184261322e+00 -1.052683769399294533e+00
3.145468366146087646e+01 -4.469349883496761322e+00 -1.038859306508669533e+00
3.125082623958587646e+01 -4.103871367871761322e+00 -1.022120414907107033e+00
4.265146100521087646e+01 -9.688466094434261322e+00 -1.223841606313357033e+00
4.272360455989837646e+01 -9.256825469434261322e+00 -1.209757744008669533e+00
4.285824811458587646e+01 -8.842762969434261322e+00 -1.197123466664919533e+00
4.290585553646087646e+01 -8.404042266309261322e+00 -1.182475029164919533e+00
4.278537213802337646e+01 -7.926503203809261322e+00 -1.164256035024294533e+00
4.258468854427337646e+01 -7.434926055371761322e+00 -1.144480644399294533e+00
4.213278424739837646e+01 -6.891224883496761322e+00 -1.119578300649294533e+00
4.186715924739837646e+01 -6.400990508496761322e+00 -1.098994194203982033e+00
6.586288678646087646e+01 -1.643407156318426132e+01 -1.452692924672732033e+00
6.609347760677337646e+01 -1.579710867255926132e+01 -1.433253227407107033e+00
6.588608014583587646e+01 -1.504088308662176132e+01 -1.405955253774294533e+00
6.501169049739837646e+01 -1.411803152412176132e+01 -1.367213188344607033e+00
6.439340436458587646e+01 -1.328307058662176132e+01 -1.333674369985232033e+00
6.349276959896087646e+01 -1.239757253974676132e+01 -1.295969902211794533e+00
6.263669049739837646e+01 -1.154234793037176132e+01 -1.259653984243044533e+00
6.213705670833587646e+01 -1.078746511787176132e+01 -1.229853569203982033e+00
1.043429791927337646e+01 4.002790227532386780e-01 -8.606213914696070333e-01
1.044589459896087646e+01 4.995221868157386780e-01 -8.568372117821070333e-01
1.045309674739837646e+01 5.994977727532386780e-01 -8.530225145164820333e-01
1.046017682552337646e+01 6.995954290032386780e-01 -8.491925584617945333e-01
1.046737897396087646e+01 7.992048040032386780e-01 -8.453931199852320333e-01
1.047445905208587646e+01 8.985700383782386780e-01 -8.416089402977320333e-01
1.048153913021087646e+01 9.980573430657386780e-01 -8.378095018211695333e-01
1.048410260677337646e+01 1.097544647753238678e+00 -8.340100633446070333e-01
1.135507428646087646e+01 2.011823430657386780e-01 -8.682507860008570333e-01
1.136191022396087646e+01 3.109235540032386780e-01 -8.640546190086695333e-01
1.137399518489837646e+01 4.194440618157386780e-01 -8.599194871727320333e-01
1.138070905208587646e+01 5.291852727532386780e-01 -8.557385789696070333e-01
1.138742291927337646e+01 6.381940618157386780e-01 -8.515729295555445333e-01
1.139413678646087646e+01 7.470807805657386780e-01 -8.474225389305445333e-01
1.139547955989837646e+01 8.568219915032386780e-01 -8.432263719383570333e-01
1.140207135677337646e+01 9.650983586907386780e-01 -8.391064988914820333e-01
1.246737897396087646e+01 -3.941824287176132202e-02 -8.774670945946070333e-01
1.247336041927337646e+01 8.204171806573867798e-02 -8.728436815086695333e-01
1.247934186458587646e+01 2.032575383782386780e-01 -8.682050096336695333e-01
1.248532330989837646e+01 3.245954290032386780e-01 -8.635815965477320333e-01
1.249130475521087646e+01 4.450788274407386780e-01 -8.589887010399195333e-01
1.247641217708587646e+01 5.687360540032386780e-01 -8.533276902977320333e-01
1.246164166927337646e+01 6.921491399407386780e-01 -8.476819383446070333e-01
1.244687116146087646e+01 8.142194524407386780e-01 -8.420819627586695333e-01
1.382943952083587646e+01 -3.340959772467613220e-01 -8.887738572899195333e-01
1.384225690364837646e+01 -1.998186334967613220e-01 -8.836469041649195333e-01
1.384701764583587646e+01 -6.419851630926132202e-02 -8.784741746727320333e-01
1.385177838802337646e+01 7.154367119073867798e-02 -8.732861863914820333e-01
1.385641705989837646e+01 2.063092961907386780e-01 -8.681439744774195333e-01
1.386105573177337646e+01 3.408307805657386780e-01 -8.630170213524195333e-01
1.385995709896087646e+01 4.762067571282386780e-01 -8.576154100242945333e-01
1.383053815364837646e+01 6.146344915032386780e-01 -8.512677537742945333e-01
1.555685651302337646e+01 -7.077532038092613220e-01 -9.030866014305445333e-01
1.555893170833587646e+01 -5.533342584967613220e-01 -8.971814500633570333e-01
1.552743756771087646e+01 -3.928117975592613220e-01 -8.898267137352320333e-01
1.549606549739837646e+01 -2.331438288092613220e-01 -8.825177537742945333e-01
1.546493756771087646e+01 -7.518484443426132202e-02 -8.752850877586695333e-01
1.543417584896087646e+01 8.155343681573867798e-02 -8.681134568992945333e-01
1.540365827083587646e+01 2.375592961907386780e-01 -8.609570848289820333e-01
1.537338483333587646e+01 3.918561711907386780e-01 -8.538922654930445333e-01
1.769772565364837646e+01 -1.170887969434261322e+00 -9.179028856102320333e-01
1.766525495052337646e+01 -9.871721491217613220e-01 -9.094800340477320333e-01
1.761886823177337646e+01 -8.019914850592613220e-01 -9.010114061180445333e-01
1.757260358333587646e+01 -6.179094538092613220e-01 -8.925732957664820333e-01
1.755624616146087646e+01 -4.411516413092613220e-01 -8.853558885399195333e-01
1.755490338802337646e+01 -2.678117975592613220e-01 -8.787488328758570333e-01
1.755368268489837646e+01 -9.459402412176132202e-02 -8.721265184227320333e-01
1.753903424739837646e+01 7.935617119073867798e-02 -8.654889451805445333e-01
2.061740338802337646e+01 -1.802479766309261322e+00 -9.392804490867945333e-01
2.054550397396087646e+01 -1.580311797559261322e+00 -9.291028367821070333e-01
2.053073346614837646e+01 -1.371571563184261322e+00 -9.209699022117945333e-01
2.052267682552337646e+01 -1.164296172559261322e+00 -9.130505906883570333e-01
2.051474225521087646e+01 -9.587297663092613220e-01 -9.052075731102320333e-01
2.050680768489837646e+01 -7.540178522467613220e-01 -8.974103318992945333e-01
2.049887311458587646e+01 -5.494280084967613220e-01 -8.895978318992945333e-01
2.049093854427337646e+01 -3.465471491217613220e-01 -8.818616258446070333e-01
2.481320416927337646e+01 -2.710194610059261322e+00 -9.721936570946070333e-01
2.479184186458587646e+01 -2.454701445996761322e+00 -9.624585496727320333e-01
2.473385846614837646e+01 -2.193593047559261322e+00 -9.510754930321070333e-01
2.464987409114837646e+01 -1.928822539746761322e+00 -9.396008836571070333e-01
2.456698834896087646e+01 -1.667714141309261322e+00 -9.282636033836695333e-01
2.452292096614837646e+01 -1.415638945996761322e+00 -9.181470262352320333e-01
2.448752057552337646e+01 -1.165638945996761322e+00 -9.088696824852320333e-01
2.444455182552337646e+01 -9.171037897467613220e-01 -8.988904344383570333e-01
3.124936139583587646e+01 -4.102528594434261322e+00 -1.022059379750857033e+00
3.103976666927337646e+01 -3.741444610059261322e+00 -1.005518852407107033e+00
3.091037213802337646e+01 -3.401722930371761322e+00 -9.911755906883570333e-01
3.086191022396087646e+01 -3.079579375684261322e+00 -9.788770067039820333e-01
3.081393659114837646e+01 -2.760609649121761322e+00 -9.667157518211695333e-01
3.071164166927337646e+01 -2.434926055371761322e+00 -9.533337938133570333e-01
3.051523053646087646e+01 -2.096913360059261322e+00 -9.378613817039820333e-01
3.032284772396087646e+01 -1.765614531934261322e+00 -9.226788865867945333e-01
4.186618268489837646e+01 -6.399281524121761322e+00 -1.098933159047732033e+00
4.179196393489837646e+01 -5.955800078809261322e+00 -1.082575737172732033e+00
4.152621686458587646e+01 -5.478016875684261322e+00 -1.062479911977419533e+00
4.110507428646087646e+01 -4.977162383496761322e+00 -1.039530693227419533e+00
4.073935163021087646e+01 -4.497426055371761322e+00 -1.018061577016482033e+00
4.055587995052337646e+01 -4.056752227246761322e+00 -1.000346122914919533e+00
4.031845319271087646e+01 -3.611561797559261322e+00 -9.817609178367945333e-01
4.047751080989837646e+01 -3.231068633496761322e+00 -9.706830369774195333e-01
6.212692487239837646e+01 -1.078307058662176132e+01 -1.229624687368044533e+00
6.096042096614837646e+01 -9.904286406934261322e+00 -1.189707695180544533e+00
6.062472760677337646e+01 -9.214345000684261322e+00 -1.163432060414919533e+00
6.007553327083587646e+01 -8.491932891309261322e+00 -1.134196220571169533e+00
6.070712506771087646e+01 -7.991444610059261322e+00 -1.122767387563357033e+00
6.226169049739837646e+01 -7.632069610059261322e+00 -1.124155937368044533e+00
6.274289166927337646e+01 -7.075306914746761322e+00 -1.109507499868044533e+00
6.430038678646087646e+01 -6.668202422559261322e+00 -1.109309135610232033e+00
9.693771588802337646e+01 -1.731810476630926132e+01 -1.303553520375857033e+00
9.317953717708587646e+01 -1.558665945380926132e+01 -1.230555473500857033e+00
8.024533307552337646e+01 -1.060118582099676132e+01 -1.011485038930544533e+00
7.239901959896087646e+01 -7.845448516309261322e+00 -8.874616014305445333e-01
9.317746198177337646e+01 -1.560008718818426132e+01 -7.986401902977320333e-01
8.024411237239837646e+01 -1.061290457099676132e+01 -6.419629442039820333e-01
7.239828717708587646e+01 -7.856190703809261322e+00 -5.537824022117945333e-01
8.642807233333587646e+01 -1.164464285224676132e+01 -2.725476610008570333e-01
8.643991315364837646e+01 -1.165953543037176132e+01 1.256609571632054667e-01
8.652206647396087646e+01 -1.168614675849676132e+01 5.266924513038304667e-01
8.615378034114837646e+01 -1.163817312568426132e+01 9.201708448585179667e-01
8.539169538021087646e+01 -1.239281179755926132e+01 1.280705512827267967e+00
8.636093366146087646e+01 -1.168541433662176132e+01 1.322850288217892967e+00
8.521896588802337646e+01 -1.237511160224676132e+01 1.670674384897580467e+00
8.622067487239837646e+01 -1.167503836005926132e+01 1.717305244272580467e+00
8.550790631771087646e+01 -1.068822195380926132e+01 1.726811469858517967e+00
8.539572370052337646e+01 -1.241905691474676132e+01 2.070653022592892967e+00
8.530832135677337646e+01 -1.153673269599676132e+01 2.091237129038205467e+00
8.796017682552337646e+01 -1.108250906318426132e+01 2.188099922006955467e+00
7.324984967708587646e+01 -8.056141875684261322e+00 1.799626411264767967e+00
1.048422467708587646e+01 1.097910858690738678e+00 -8.339948045555445333e-01
1.049020612239837646e+01 1.196787811815738678e+00 -8.302258836571070333e-01
1.049167096614837646e+01 1.296153046190738678e+00 -8.264417039696070333e-01
1.049325788021087646e+01 1.395640350878238678e+00 -8.226422654930445333e-01
1.049472272396087646e+01 1.494517304003238678e+00 -8.188733445946070333e-01
1.049630963802337646e+01 1.593272186815738678e+00 -8.151044236961695333e-01
1.049789655208587646e+01 1.692271210253238678e+00 -8.113202440086695333e-01
1.049496686458587646e+01 1.791026093065738678e+00 -8.075665818992945333e-01
1.140207135677337646e+01 9.654645696282386780e-01 -8.390912401024195333e-01
1.140292584896087646e+01 1.074351288378238678e+00 -8.349408494774195333e-01
1.140890729427337646e+01 1.182383514940738678e+00 -8.308209764305445333e-01
1.140963971614837646e+01 1.291270233690738678e+00 -8.266553270164820333e-01
1.141037213802337646e+01 1.399546600878238678e+00 -8.225354539696070333e-01
1.141122663021087646e+01 1.507578827440738678e+00 -8.184003221336695333e-01
1.140658795833587646e+01 1.616221405565738678e+00 -8.142651902977320333e-01
1.140732038021087646e+01 1.723765350878238678e+00 -8.101605760399195333e-01
1.244687116146087646e+01 8.147077336907386780e-01 -8.420667039696070333e-01
1.242575299739837646e+01 9.370221868157386780e-01 -8.364667283836695333e-01
1.242062604427337646e+01 1.056773163378238678e+00 -8.316754686180445333e-01
1.242025983333587646e+01 1.176035858690738678e+00 -8.271283494774195333e-01
1.241989362239837646e+01 1.294566132128238678e+00 -8.226117479149195333e-01
1.241952741146087646e+01 1.412852264940738678e+00 -8.180951463524195333e-01
1.241916120052337646e+01 1.531382538378238678e+00 -8.135785447899195333e-01
1.241879498958587646e+01 1.649058319628238678e+00 -8.090924608055445333e-01
1.383029401302337646e+01 6.151227727532386780e-01 -8.512524949852320333e-01
1.381064069271087646e+01 7.513532415032386780e-01 -8.450116502586695333e-01
1.378280866146087646e+01 8.879499211907386780e-01 -8.387555467430445333e-01
1.375509870052337646e+01 1.024058319628238678e+00 -8.325299608055445333e-01
1.372763288021087646e+01 1.158823944628238678e+00 -8.263654100242945333e-01
1.370041120052337646e+01 1.292735077440738678e+00 -8.202313768211695333e-01
1.367318952083587646e+01 1.426279999315738678e+00 -8.141126024071070333e-01
1.368026959896087646e+01 1.556040741503238678e+00 -8.098554002586695333e-01
1.537301862239837646e+01 3.924665227532386780e-01 -8.538617479149195333e-01
1.535714948177337646e+01 5.438337102532386780e-01 -8.476971971336695333e-01
1.535238873958587646e+01 6.931257024407386780e-01 -8.419904100242945333e-01
1.534762799739837646e+01 8.425397649407386780e-01 -8.362836229149195333e-01
1.534274518489837646e+01 9.910993352532386780e-01 -8.306226121727320333e-01
1.533798444271087646e+01 1.139170624315738678e+00 -8.249768602196070333e-01
1.533334577083587646e+01 1.287363983690738678e+00 -8.193158494774195333e-01
1.532858502864837646e+01 1.434580780565738678e+00 -8.137006151024195333e-01
1.753891217708587646e+01 7.996652275323867798e-02 -8.654736863914820333e-01
1.754318463802337646e+01 2.506208196282386780e-01 -8.589581834617945333e-01
1.753415143489837646e+01 4.226178899407386780e-01 -8.523969041649195333e-01
1.752511823177337646e+01 5.946149602532386780e-01 -8.458356248680445333e-01
1.751620709896087646e+01 7.655133977532386780e-01 -8.393048631492945333e-01
1.750717389583587646e+01 9.358014836907386780e-01 -8.328198777977320333e-01
1.749826276302337646e+01 1.106211639940738678e+00 -8.263196336571070333e-01
1.747616803646087646e+01 1.276377655565738678e+00 -8.198193895164820333e-01
2.049081647396087646e+01 -3.458147272467613220e-01 -8.818311082664820333e-01
2.047458112239837646e+01 -1.425676569342613220e-01 -8.740643846336695333e-01
2.042038190364837646e+01 6.470773369073867798e-02 -8.651532518211695333e-01
2.036191022396087646e+01 2.714948430657386780e-01 -8.561200486961695333e-01
2.031759870052337646e+01 4.746198430657386780e-01 -8.476209031883570333e-01
2.034848248958587646e+01 6.694440618157386780e-01 -8.414410936180445333e-01
2.037948834896087646e+01 8.651227727532386780e-01 -8.352307664696070333e-01
2.037826764583587646e+01 1.062632538378238678e+00 -8.280896531883570333e-01
2.444357526302337646e+01 -9.162492975592613220e-01 -8.988446580711695333e-01
2.432577741146087646e+01 -6.592912897467613220e-01 -8.870648729149195333e-01
2.428805768489837646e+01 -4.151506647467613220e-01 -8.769788133446070333e-01
2.425924909114837646e+01 -1.724748834967613220e-01 -8.677167283836695333e-01
2.423068463802337646e+01 6.836984306573867798e-02 -8.585309373680445333e-01
2.420224225521087646e+01 3.079938665032386780e-01 -8.493756639305445333e-01
2.424728620052337646e+01 5.412702336907386780e-01 -8.426923143211695333e-01
2.444748151302337646e+01 7.628278508782386780e-01 -8.393201219383570333e-01
3.032101666927337646e+01 -1.764271758496761322e+00 -9.226025926414820333e-01
3.022336041927337646e+01 -1.450428985059261322e+00 -9.098767625633570333e-01
3.029635846614837646e+01 -1.160267852246761322e+00 -9.010266649071070333e-01
3.036984479427337646e+01 -8.682756647467613220e-01 -8.921155320946070333e-01
3.044333112239837646e+01 -5.765276178717613220e-01 -8.832043992821070333e-01
3.062692487239837646e+01 -2.941789850592613220e-01 -8.765973436180445333e-01
3.082101666927337646e+01 -8.656524121761322021e-03 -8.700665818992945333e-01
3.108066022396087646e+01 2.743024602532386780e-01 -8.648022996727320333e-01
4.047848737239837646e+01 -3.229847930371761322e+00 -9.706677781883570333e-01
4.070761334896087646e+01 -2.856678985059261322e+00 -9.608258592430445333e-01
4.089840924739837646e+01 -2.474965117871761322e+00 -9.501904832664820333e-01
4.147860944271087646e+01 -2.133046172559261322e+00 -9.461011277977320333e-01
4.194491803646087646e+01 -1.770009063184261322e+00 -9.397687303367945333e-01
4.247616803646087646e+01 -1.404408477246761322e+00 -9.342145311180445333e-01
4.309811627864837646e+01 -1.035267852246761322e+00 -9.297284471336695333e-01
4.362668073177337646e+01 -6.491594538092613220e-01 -9.234265672508570333e-01
6.432150495052337646e+01 -6.669056914746761322e+00 -1.109522758657107033e+00
6.531222760677337646e+01 -6.155995391309261322e+00 -1.100703178578982033e+00
6.494064557552337646e+01 -5.455800078809261322e+00 -1.073649345571169533e+00
6.173666608333587646e+01 -4.440541289746761322e+00 -1.011256157094607033e+00
5.921444928646087646e+01 -3.564076445996761322e+00 -9.595288621727320333e-01
5.657089459896087646e+01 -2.728261016309261322e+00 -9.081067430321070333e-01
5.391183698177337646e+01 -1.943715117871761322e+00 -8.583020555321070333e-01
5.123715436458587646e+01 -1.214345000684261322e+00 -8.102368699852320333e-01
7.240036237239837646e+01 -7.843129180371761322e+00 -8.874005662742945333e-01
7.372104108333587646e+01 -7.292592070996761322e+00 -8.744153367821070333e-01
9.844198834896087646e+01 -9.615712188184261322e+00 -1.054530082875857033e+00
9.910788190364837646e+01 -8.700795195996761322e+00 -1.026621757680544533e+00
5.921408307552337646e+01 -3.572987578809261322e+00 -6.897687303367945333e-01
5.657065045833587646e+01 -2.736805938184261322e+00 -6.508130418602320333e-01
5.391147077083587646e+01 -1.951893828809261322e+00 -6.135205613914820333e-01
5.123691022396087646e+01 -1.222157500684261322e+00 -5.779981004539820333e-01
7.239962995052337646e+01 -7.853871367871761322e+00 -5.537213670555445333e-01
6.873349225521087646e+01 -6.634633086621761322e+00 -5.151166307274195333e-01
6.534079205989837646e+01 -5.524891875684261322e+00 -4.815930711571070333e-01
6.211398541927337646e+01 -4.502064727246761322e+00 -4.491986619774195333e-01
5.907077252864837646e+01 -3.567006133496761322e+00 -4.196118699852320333e-01
5.619711530208587646e+01 -2.710316680371761322e+00 -3.925580369774195333e-01
5.348129498958587646e+01 -1.924061797559261322e+00 -3.664502488914820333e-01
5.094308698177337646e+01 -1.208241485059261322e+00 -3.439587938133570333e-01
7.374765241146087646e+01 -7.318348906934261322e+00 -1.973370897117945333e-01
6.218417584896087646e+01 -4.519520781934261322e+00 -1.642407762352320333e-01
5.909677350521087646e+01 -3.578724883496761322e+00 -1.491040574852320333e-01
5.617294538021087646e+01 -2.716542266309261322e+00 -1.357220994774195333e-01
5.341220319271087646e+01 -1.926381133496761322e+00 -1.238507615867945333e-01
5.082358014583587646e+01 -1.207142852246761322e+00 -1.134290086571070333e-01
7.397494733333587646e+01 -7.359974883496761322e+00 1.415606153663304667e-01
6.395504987239837646e+01 -2.820179961621761322e+00 1.910601270850804667e-01
6.412985455989837646e+01 -2.199696563184261322e+00 2.141619337257054667e-01
7.381003034114837646e+01 -7.348988555371761322e+00 4.804583204444554667e-01
6.395785748958587646e+01 -2.830189727246761322e+00 4.834795606788304667e-01
7.396884381771087646e+01 -7.381459258496761322e+00 8.206835401710179667e-01
6.380746686458587646e+01 -2.827137969434261322e+00 7.718859327491429667e-01
6.409054791927337646e+01 -2.216298125684261322e+00 7.976885450538304667e-01
7.389120709896087646e+01 -7.382069610059261322e+00 1.159627021616330467e+00
6.376449811458587646e+01 -2.833241485059261322e+00 1.062642158335080467e+00
6.415732038021087646e+01 -2.230946563184261322e+00 1.090169013803830467e+00
7.381149518489837646e+01 -7.382557891309261322e+00 1.497761787241330467e+00
7.510141217708587646e+01 -6.049550078809261322e+00 1.571888984506955467e+00
6.386215436458587646e+01 -2.851307891309261322e+00 1.356541694467892967e+00
6.440024030208587646e+01 -2.258900664746761322e+00 1.389317573374142967e+00
7.324875104427337646e+01 -8.053456328809261322e+00 1.799656928842892967e+00
7.335116803646087646e+01 -7.331288360059261322e+00 1.822499336069455467e+00
7.288595807552337646e+01 -6.537831328809261322e+00 1.830845893686642967e+00
7.514413678646087646e+01 -6.065785430371761322e+00 1.917988838022580467e+00
6.279550397396087646e+01 -3.395741485059261322e+00 1.596455634897580467e+00
6.271994245052337646e+01 -2.764149688184261322e+00 1.612660468881955467e+00
6.403756940364837646e+01 -2.241688750684261322e+00 1.672368110483517967e+00
1.049484479427337646e+01 1.791270233690738678e+00 -8.075360643211695333e-01
1.049533307552337646e+01 1.889658905565738678e+00 -8.037976610008570333e-01
1.049130475521087646e+01 1.988169647753238678e+00 -8.000287401024195333e-01
1.048739850521087646e+01 2.086802460253238678e+00 -7.962750779930445333e-01
1.048337018489837646e+01 2.184946991503238678e+00 -7.925214158836695333e-01
1.047946393489837646e+01 2.282969452440738678e+00 -7.887830125633570333e-01
1.047543561458587646e+01 2.381236054003238678e+00 -7.850446092430445333e-01
1.047177350521087646e+01 2.478892304003238678e+00 -7.815656053367945333e-01
1.140719830989837646e+01 1.724131561815738678e+00 -8.101453172508570333e-01
1.140207135677337646e+01 1.831919647753238678e+00 -8.060254442039820333e-01
1.140231549739837646e+01 1.939219452440738678e+00 -8.019360887352320333e-01
1.139718854427337646e+01 2.047129608690738678e+00 -7.978162156883570333e-01
1.139206159114837646e+01 2.154429413378238678e+00 -7.937268602196070333e-01
1.138693463802337646e+01 2.261485077440738678e+00 -7.896375047508570333e-01
1.137655866146087646e+01 2.368784882128238678e+00 -7.855481492821070333e-01
1.137594830989837646e+01 2.475474335253238678e+00 -7.817029344383570333e-01
1.241867291927337646e+01 1.649546600878238678e+00 -8.090619432274195333e-01
1.241293561458587646e+01 1.767466522753238678e+00 -8.046063768211695333e-01
1.240732038021087646e+01 1.885142304003238678e+00 -8.001660692039820333e-01
1.241147077083587646e+01 2.002696014940738678e+00 -7.961682664696070333e-01
1.242441022396087646e+01 2.119517304003238678e+00 -7.925977098289820333e-01
1.243747174739837646e+01 2.236460663378238678e+00 -7.890424119774195333e-01
1.245065534114837646e+01 2.354014374315738678e+00 -7.854413377586695333e-01
1.246798932552337646e+01 2.471323944628238678e+00 -7.820538865867945333e-01
1.368014752864837646e+01 1.556529022753238678e+00 -8.098401414696070333e-01
1.370346295833587646e+01 1.685313202440738678e+00 -8.059033738914820333e-01
1.371896588802337646e+01 1.814829804003238678e+00 -8.019513475242945333e-01
1.373459088802337646e+01 1.944956757128238678e+00 -7.979840623680445333e-01
1.375009381771087646e+01 2.074839569628238678e+00 -7.940167772117945333e-01
1.376571881771087646e+01 2.204966522753238678e+00 -7.900494920555445333e-01
1.378134381771087646e+01 2.335825897753238678e+00 -7.860516893211695333e-01
1.379294049739837646e+01 2.466319061815738678e+00 -7.822217332664820333e-01
1.532821881771087646e+01 1.435191132128238678e+00 -8.136700975242945333e-01
1.534518659114837646e+01 1.580698944628238678e+00 -8.091534959617945333e-01
1.536410748958587646e+01 1.726450897753238678e+00 -8.046979295555445333e-01
1.538315045833587646e+01 1.872935272753238678e+00 -8.002423631492945333e-01
1.540219342708587646e+01 2.019175507128238678e+00 -7.957715379539820333e-01
1.542123639583587646e+01 2.165781952440738678e+00 -7.913007127586695333e-01
1.544052350521087646e+01 2.312998749315738678e+00 -7.868146287742945333e-01
1.546542584896087646e+01 2.460093475878238678e+00 -7.825421678367945333e-01
1.747580182552337646e+01 1.276988007128238678e+00 -8.197888719383570333e-01
1.747262799739837646e+01 1.445322968065738678e+00 -8.133649217430445333e-01
1.753598248958587646e+01 1.609995819628238678e+00 -8.096112596336695333e-01
1.759994733333587646e+01 1.776255585253238678e+00 -8.057965623680445333e-01
1.766403424739837646e+01 1.943125702440738678e+00 -8.019818651024195333e-01
1.772873151302337646e+01 2.111216522753238678e+00 -7.981366502586695333e-01
1.779403913021087646e+01 2.280894257128238678e+00 -7.942609178367945333e-01
1.782919538021087646e+01 2.451304413378238678e+00 -7.898206102196070333e-01
2.037777936458587646e+01 1.063364960253238678e+00 -8.280438768211695333e-01
2.035373151302337646e+01 1.261973358690738678e+00 -8.204755174461695333e-01
2.033810651302337646e+01 1.459483124315738678e+00 -8.131512986961695333e-01
2.042379987239837646e+01 1.652964569628238678e+00 -8.087262498680445333e-01
2.050998151302337646e+01 1.847300507128238678e+00 -8.042859422508570333e-01
2.070688092708587646e+01 2.040659882128238678e+00 -8.028821336571070333e-01
2.090683209896087646e+01 2.238413788378238678e+00 -8.013867723289820333e-01
2.105319440364837646e+01 2.439463593065738678e+00 -7.983350145164820333e-01
2.444894635677337646e+01 7.635602727532386780e-01 -8.393201219383570333e-01
2.464425885677337646e+01 9.890241399407386780e-01 -8.358868943992945333e-01
2.486789166927337646e+01 1.216807343065738678e+00 -8.324231492821070333e-01
2.507040631771087646e+01 1.450571991503238678e+00 -8.288678514305445333e-01
2.527548444271087646e+01 1.687266327440738678e+00 -8.252515184227320333e-01
2.548373639583587646e+01 1.927744843065738678e+00 -8.215894090477320333e-01
2.568271100521087646e+01 2.173228241503238678e+00 -8.181561815086695333e-01
2.588034284114837646e+01 2.421641327440738678e+00 -8.139752733055445333e-01
3.108273541927337646e+01 2.752790227532386780e-01 -8.648022996727320333e-01
3.148275983333587646e+01 5.540876165032386780e-01 -8.623303758446070333e-01
3.197592389583587646e+01 8.358258977532386780e-01 -8.614301072899195333e-01
3.229941022396087646e+01 1.135508514940738678e+00 -8.568677293602320333e-01
3.262814557552337646e+01 1.440196014940738678e+00 -8.522290574852320333e-01
3.298983991146087646e+01 1.750498749315738678e+00 -8.479718553367945333e-01
3.330734479427337646e+01 2.069346405565738678e+00 -8.426465379539820333e-01
3.365683209896087646e+01 2.393076874315738678e+00 -8.377179490867945333e-01
4.362838971614837646e+01 -6.478166803717613220e-01 -9.234113084617945333e-01
4.493307721614837646e+01 -3.007707819342613220e-01 -9.288281785789820333e-01
4.505856549739837646e+01 1.347760930657386780e-01 -9.155377733055445333e-01
4.389999616146087646e+01 6.294049993157386780e-01 -8.831586229149195333e-01
4.194650495052337646e+01 1.125620819628238678e+00 -8.401440965477320333e-01
4.050168073177337646e+01 1.570567108690738678e+00 -8.056439744774195333e-01
4.508053815364837646e+01 1.907847382128238678e+00 -8.549451219383570333e-01
4.446701276302337646e+01 2.351939179003238678e+00 -8.315381395164820333e-01
5.123800885677337646e+01 -1.212636016309261322e+00 -8.101910936180445333e-01
4.856820905208587646e+01 -5.379533991217613220e-01 -7.639569627586695333e-01
4.959152448177337646e+01 -1.141252741217613220e-01 -7.583569871727320333e-01
4.945053327083587646e+01 3.819684758782386780e-01 -7.401837693992945333e-01
5.735043561458587646e+01 6.047467961907386780e-01 -8.011884080711695333e-01
4.050155866146087646e+01 1.564341522753238678e+00 -6.220654832664820333e-01
6.197519147396087646e+01 1.673960663378238678e+00 -8.048199998680445333e-01
6.153903424739837646e+01 2.285532929003238678e+00 -7.801465379539820333e-01
5.123776471614837646e+01 -1.220448516309261322e+00 -5.779523240867945333e-01
4.860299909114837646e+01 -5.475969538092613220e-01 -5.442761766258570333e-01
4.951205670833587646e+01 -1.174211725592613220e-01 -5.333814012352320333e-01
4.942318952083587646e+01 3.756208196282386780e-01 -5.162610399071070333e-01
5.735006940364837646e+01 5.959577336907386780e-01 -5.412701951805445333e-01
4.050143659114837646e+01 1.558115936815738678e+00 -4.394788133446070333e-01
5.092587506771087646e+01 -1.205311797559261322e+00 -3.438672410789820333e-01
4.854867780208587646e+01 -5.515032038092613220e-01 -3.229627000633570333e-01
4.631039655208587646e+01 4.688546806573867798e-02 -3.049878465477320333e-01
4.420443952083587646e+01 5.959577336907386780e-01 -2.874402391258570333e-01
4.224203717708587646e+01 1.096323944628238678e+00 -2.714642869774195333e-01
4.041452252864837646e+01 1.553965546190738678e+00 -2.568768846336695333e-01
3.867624127864837646e+01 1.974986054003238678e+00 -2.425488817039820333e-01
3.706698834896087646e+01 2.359385468065738678e+00 -2.303723680321070333e-01
5.080612409114837646e+01 -1.204091094434261322e+00 -1.134137498680445333e-01
4.838363873958587646e+01 -5.483293756842613220e-01 -1.036939012352320333e-01
4.610580670833587646e+01 5.091378837823867798e-02 -9.513372057116953329e-02
4.401352155208587646e+01 5.975446477532386780e-01 -8.738225572741953329e-02
4.208481061458587646e+01 1.095103241503238678e+00 -8.047002428210703329e-02
4.028793561458587646e+01 1.550791718065738678e+00 -7.429021471179453329e-02
3.858505475521087646e+01 1.970347382128238678e+00 -6.884282701648203329e-02
3.700082623958587646e+01 2.353892304003238678e+00 -6.400579088366953329e-02
6.383261334896087646e+01 -2.175526641309261322e+00 2.120867384132054667e-01
4.987179791927337646e+01 -1.595354303717613220e-01 1.429491651710179667e-01
4.948092877864837646e+01 3.503522649407386780e-01 1.562243116553929667e-01
4.979196393489837646e+01 -1.628313288092613220e-01 3.688555372413304667e-01
4.950241315364837646e+01 3.418073430657386780e-01 3.815203321632054667e-01
6.409274518489837646e+01 -2.214222930371761322e+00 7.977953565772679667e-01
4.952340924739837646e+01 3.333844915032386780e-01 6.057940138038304667e-01
6.416086041927337646e+01 -2.229115508496761322e+00 1.090321601694455467e+00
4.984482038021087646e+01 -1.808977350592613220e-01 8.218126905616429667e-01
4.946371686458587646e+01 3.283796086907386780e-01 8.296404493507054667e-01
6.439816510677337646e+01 -2.256581328809261322e+00 1.389332832163205467e+00
4.978183209896087646e+01 -1.850481256842613220e-01 1.045674384897580467e+00
4.953122174739837646e+01 3.178815618157386780e-01 1.055119575327267967e+00
4.995041120052337646e+01 7.905378118157386780e-01 1.082356513803830467e+00
6.403964459896087646e+01 -2.239613555371761322e+00 1.672490180796017967e+00
4.955551373958587646e+01 3.090924993157386780e-01 1.281041206186642967e+00
4.997311627864837646e+01 7.819928899407386780e-01 1.310078681772580467e+00
5.092160260677337646e+01 1.249644257128238678e+00 1.356267036264767967e+00
4.981442487239837646e+01 -3.105364069342613220e-01 1.366307319467892967e+00
4.948410260677337646e+01 2.100934758782386780e-01 1.372258247202267967e+00
4.996921002864837646e+01 6.936139836907386780e-01 1.404423774546017967e+00
3.586386334896087646e+01 3.058238007128238678e+00 5.767565382178929667e-01
4.985556256771087646e+01 -1.229143366217613220e-01 9.993487013038304667e-01
4.952878034114837646e+01 4.253034368157386780e-01 1.009877265756955467e+00
3.582113873958587646e+01 3.051768280565738678e+00 7.569628370460179667e-01
4.952121198177337646e+01 -1.116838678717613220e-01 1.236119331186642967e+00
4.955075299739837646e+01 4.157819524407386780e-01 1.254933418100705467e+00
3.596371686458587646e+01 3.045664764940738678e+00 9.422655714210179667e-01
3.588827741146087646e+01 3.437510468065738678e+00 9.533587110694554667e-01
4.979904401302337646e+01 -1.364641413092613220e-01 1.489506782358517967e+00
4.934005963802337646e+01 4.177350774407386780e-01 1.491292060678830467e+00
5.098446881771087646e+01 8.807477727532386780e-01 1.563191474741330467e+00
3.587362897396087646e+01 3.039317108690738678e+00 1.119923652475705467e+00
3.594406354427337646e+01 3.431773163378238678e+00 1.136601508921017967e+00
3.691220319271087646e+01 4.407237030565738678e+00 1.354588569467892967e+00
2.231942975521087646e+01 6.212290741503238678e+00 1.364567817514767967e+00
2.224972760677337646e+01 6.633555389940738678e+00 1.378056587046017967e+00
8.047457098960876465e+00 1.022877023369073868e+01 1.881306709116330467e+00
8.635958075523376465e+00 9.496958710253238678e+00 2.495167793100705467e+00
8.343233466148376465e+00 1.074488351494073868e+01 1.921727241342892967e+00
