9.541856169700622559e+00 -9.226035922765731812e-01 -9.140035155229213615e-01
9.573960661888122559e+00 -8.261680454015731812e-01 -9.108144286088588615e-01
9.602158904075622559e+00 -7.283897250890731812e-01 -9.076253416947963615e-01
9.630601286888122559e+00 -6.302451938390731812e-01 -9.044057372026088615e-01
9.658799529075622559e+00 -5.325889438390731812e-01 -9.012166502885463615e-01
9.679429411888122559e+00 -4.327354282140731812e-01 -8.975087645463588615e-01
9.683091521263122559e+00 -3.275108188390731812e-01 -8.926717284135463615e-01
9.682725310325622559e+00 -2.221641391515731812e-01 -8.878499510697963615e-01
1.043223702907562256e+01 -1.250240311026573181e+00 -9.250051024369838615e-01
1.045152413845062256e+01 -1.139156326651573181e+00 -9.207784178666713615e-01
1.047606027126312256e+01 -1.030269607901573181e+00 -9.166127684526088615e-01
1.049522531032562256e+01 -9.194297641515731812e-01 -9.123860838822963615e-01
1.051426827907562256e+01 -8.093223422765731812e-01 -9.081899168901088615e-01
1.053331124782562256e+01 -6.994590610265731812e-01 -9.039937498979213615e-01
1.054698312282562256e+01 -5.880088657140731812e-01 -8.997365477494838615e-01
1.056578195095062256e+01 -4.788780063390731812e-01 -8.955861571244838615e-01
1.154515206813812256e+01 -1.659664139151573181e+00 -9.406758788041713615e-01
1.156456124782562256e+01 -1.536251053214073181e+00 -9.359609129838588615e-01
1.158397042751312256e+01 -1.413082107901573181e+00 -9.312612059526088615e-01
1.160337960720062256e+01 -1.290035232901573181e+00 -9.265614989213588615e-01
1.162254464626312256e+01 -1.167720779776573181e+00 -9.218923094682338615e-01
1.164170968532562256e+01 -1.045772537589073181e+00 -9.172536375932338615e-01
1.166099679470062256e+01 -9.238242954015731812e-01 -9.125997069291713615e-01
1.168003976345062256e+01 -8.027305454015731812e-01 -9.079762938432338615e-01
1.285398995876312256e+01 -2.141353592276573181e+00 -9.566060545854213615e-01
1.289720284938812256e+01 -2.011592850089073181e+00 -9.523183348588588615e-01
1.293394601345062256e+01 -1.879512771964073181e+00 -9.480000975541713615e-01
1.297068917751312256e+01 -1.747188553214073181e+00 -9.436818602494838615e-01
1.299888741970062256e+01 -1.612667068839073181e+00 -9.389211180619838615e-01
1.301793038845062256e+01 -1.475582107901573181e+00 -9.337026122026088615e-01
1.303685128688812256e+01 -1.338619217276573181e+00 -9.284688475541713615e-01
1.304747140407562256e+01 -1.200069412589073181e+00 -9.231893065385463615e-01
1.440025460720062256e+01 -2.710567459464073181e+00 -9.713918211869838615e-01
1.444859445095062256e+01 -2.565181717276573181e+00 -9.669515135697963615e-01
1.449693429470062256e+01 -2.419795975089073181e+00 -9.625112059526088615e-01
1.454551827907562256e+01 -2.273921951651573181e+00 -9.580556395463588615e-01
1.459373605251312256e+01 -2.128536209464073181e+00 -9.536153319291713615e-01
1.464207589626312256e+01 -1.983028396964073181e+00 -9.491902831010463615e-01
1.469065988063812256e+01 -1.837154373526573181e+00 -9.447347166947963615e-01
1.473899972438812256e+01 -1.691768631339073181e+00 -9.402944090776088615e-01
1.645396554470062256e+01 -3.466304764151573181e+00 -9.945546629838588615e-01
1.655528390407562256e+01 -3.316646561026573181e+00 -9.911214354447963615e-01
1.664524972438812256e+01 -3.162105545401573181e+00 -9.875813963822963615e-01
1.673594796657562256e+01 -3.006343826651573181e+00 -9.840260985307338615e-01
1.682664620876312256e+01 -2.850460037589073181e+00 -9.804555418901088615e-01
1.691783273220062256e+01 -2.693965896964073181e+00 -9.768849852494838615e-01
1.700975167751312256e+01 -2.536128982901573181e+00 -9.732686522416713615e-01
1.704429757595062256e+01 -2.361690506339073181e+00 -9.676534178666713615e-01
1.920652902126312256e+01 -4.479244217276573181e+00 -1.025621557515108861e+00
1.934520089626312256e+01 -4.312007889151573181e+00 -1.022691870015108861e+00
1.949156320095062256e+01 -4.145626053214073181e+00 -1.020006323140108861e+00
1.963975656032562256e+01 -3.977413162589073181e+00 -1.017290258686983861e+00
1.972557199001312256e+01 -3.787837967276573181e+00 -1.012102270405733861e+00
1.979112374782562256e+01 -3.591548904776573181e+00 -1.006120825093233861e+00
1.985691964626312256e+01 -3.394527420401573181e+00 -1.000108862202608861e+00
1.992234933376312256e+01 -3.198238357901573181e+00 -9.941121581010463615e-01
2.352708566188812256e+01 -6.068965896964073181e+00 -1.086443090718233861e+00
2.352330148220062256e+01 -5.802364334464073181e+00 -1.076265478413546361e+00
2.354771554470062256e+01 -5.547237381339073181e+00 -1.066530370991671361e+00
2.360289132595062256e+01 -5.302730545401573181e+00 -1.058488989155733861e+00
2.368174874782562256e+01 -5.067256912589073181e+00 -1.051302099507296361e+00
2.376048409938812256e+01 -4.831783279776573181e+00 -1.044115209858858861e+00
2.381419503688812256e+01 -4.587764725089073181e+00 -1.036668920796358861e+00
2.389293038845062256e+01 -4.352413162589073181e+00 -1.029497289936983861e+00
2.789964425563812256e+01 -7.679073318839073181e+00 -1.105959081929171361e+00
2.990745675563812256e+01 -8.079586014151573181e+00 -1.155763769429171361e+00
2.987278878688812256e+01 -7.732784256339073181e+00 -1.142519140522921361e+00
2.987230050563812256e+01 -7.399166092276573181e+00 -1.130373144429171361e+00
2.997227609157562256e+01 -7.101436600089073181e+00 -1.121278906147921361e+00
3.007225167751312256e+01 -6.803585037589073181e+00 -1.112199926655733861e+00
3.017271554470062256e+01 -6.504634842276573181e+00 -1.103075170796358861e+00
3.030394113063812256e+01 -6.215694412589073181e+00 -1.094850683491671361e+00
2.860704171657562256e+01 -7.943233475089073181e+00 -9.879933836869838615e-01
4.019383370876312256e+01 -1.174926374852657318e+01 -1.273821020405733861e+00
4.107994210720062256e+01 -1.160522077977657318e+01 -1.280473852436983861e+00
3.621556222438812256e+01 -9.522212967276573181e+00 -1.143495703022921361e+00
3.977940499782562256e+01 -1.027306745946407318e+01 -1.216737890522921361e+00
4.213560616970062256e+01 -1.057165144383907318e+01 -1.258241796772921361e+00
4.207151925563812256e+01 -1.009130476415157318e+01 -1.240602636616671361e+00
4.195298898220062256e+01 -9.601192459464073181e+00 -1.221895361226046361e+00
2.860740792751312256e+01 -7.947505936026573181e+00 -8.474294188432338615e-01
5.243541085720062256e+01 -1.611889265477657318e+01 -1.331087255757296361e+00
5.686314523220062256e+01 -1.706090925633907318e+01 -1.401643896382296361e+00
3.651341378688812256e+01 -9.627071365714073181e+00 -9.733144286088588615e-01
4.174498116970062256e+01 -1.091405867040157318e+01 -1.062502050679171361e+00
4.957762277126312256e+01 -1.290075300633907318e+01 -1.198030615132296361e+00
6.640049874782562256e+01 -1.742565535008907318e+01 -1.497789526265108861e+00
6.516209542751312256e+01 -1.634704206883907318e+01 -1.450731420796358861e+00
2.860765206813812256e+01 -7.951900467276573181e+00 -7.076131346635463615e-01
8.480320870876312256e+01 -2.766930769383907318e+01 -1.590074682515108861e+00
3.651377999782562256e+01 -9.632686600089073181e+00 -7.966786864213588615e-01
4.174534738063812256e+01 -1.092040632665157318e+01 -8.612538817338588615e-01
4.957798898220062256e+01 -1.290819929540157318e+01 -9.598409178666713615e-01
2.860801827907562256e+01 -7.956172928214073181e+00 -5.670644286088588615e-01
3.651414620876312256e+01 -9.638179764151573181e+00 -6.200582030229213615e-01
4.025145089626312256e+01 -1.044347761571407318e+01 -6.450673582963588615e-01
4.698106515407562256e+01 -1.210424421727657318e+01 -6.965657713822963615e-01
2.794383370876312256e+01 -7.715938553214073181e+00 -4.229909422807338615e-01
3.008677804470062256e+01 -8.165767654776573181e+00 -4.269429686479213615e-01
3.267808663845062256e+01 -8.724849686026573181e+00 -4.321462157182338615e-01
3.569297921657562256e+01 -9.368892654776573181e+00 -4.380208495072963615e-01
3.965440499782562256e+01 -1.025622175633907318e+01 -4.469319823197963615e-01
4.624852120876312256e+01 -1.188219831883907318e+01 -4.661275389604213615e-01
2.788548409938812256e+01 -7.698604568839073181e+00 -2.856465819291713615e-01
3.009568917751312256e+01 -8.173458084464073181e+00 -2.804433348588588615e-01
9.682603240013122559e+00 -2.217979282140731812e-01 -8.878194334916713615e-01
9.685410857200622559e+00 -1.179160922765731812e-01 -8.830434325151088615e-01
9.684068083763122559e+00 -1.342390477657318115e-02 -8.782674315385463615e-01
9.688218474388122559e+00 8.935929834842681885e-02 -8.738576414994838615e-01
9.701035857200622559e+00 1.893348842859268188e-01 -8.700429442338588615e-01
9.713853240013122559e+00 2.890663295984268188e-01 -8.662435057572963615e-01
9.726548552513122559e+00 3.887977749109268188e-01 -8.624440672807338615e-01
9.734849333763122559e+00 4.890175014734268188e-01 -8.586141112260463615e-01
1.056578195095062256e+01 -4.785117954015731812e-01 -8.955556395463588615e-01
1.057872140407562256e+01 -3.680381625890731812e-01 -8.913442137651088615e-01
1.059703195095062256e+01 -2.591514438390731812e-01 -8.871938231401088615e-01
1.060997140407562256e+01 -1.487998813390731812e-01 -8.829823973588588615e-01
1.062278878688812256e+01 -3.905867040157318115e-02 -8.788014891557338615e-01
1.063548409938812256e+01 7.031632959842681885e-02 -8.746205809526088615e-01
1.064293038845062256e+01 1.810341030359268188e-01 -8.703938963822963615e-01
1.065574777126312256e+01 2.897987514734268188e-01 -8.662435057572963615e-01
1.167991769313812256e+01 -8.022422641515731812e-01 -9.079457762651088615e-01
1.169261300563812256e+01 -6.796836704015731812e-01 -9.032765868119838615e-01
1.170518624782562256e+01 -5.574912875890731812e-01 -8.986073973588588615e-01
1.171788156032562256e+01 -4.351768344640731812e-01 -8.939382079057338615e-01
1.173033273220062256e+01 -3.135948032140731812e-01 -8.893147948197963615e-01
1.174290597438812256e+01 -1.925010532140731812e-01 -8.846913817338588615e-01
1.175535714626312256e+01 -7.128523290157318115e-02 -8.800679686479213615e-01
1.176780831813812256e+01 4.919816553592681885e-02 -8.754750731401088615e-01
1.304722726345062256e+01 -1.199581131339073181e+00 -9.231587889604213615e-01
1.306736886501312256e+01 -1.064327225089073181e+00 -9.180013182572963615e-01
1.307920968532562256e+01 -9.272422641515731812e-01 -9.127675536088588615e-01
1.309105050563812256e+01 -7.900352329015731812e-01 -9.075337889604213615e-01
1.310276925563812256e+01 -6.538047641515731812e-01 -9.023305418901088615e-01
1.311448800563812256e+01 -5.179405063390731812e-01 -8.971578123979213615e-01
1.312620675563812256e+01 -3.820762485265731812e-01 -8.919698241166713615e-01
1.312974679470062256e+01 -2.453574985265731812e-01 -8.867513182572963615e-01
1.473899972438812256e+01 -1.691158279776573181e+00 -9.402638914994838615e-01
1.478025949001312256e+01 -1.543697342276573181e+00 -9.357625487260463615e-01
1.480662667751312256e+01 -1.392086014151573181e+00 -9.305745604447963615e-01
1.481688058376312256e+01 -1.236080154776573181e+00 -9.246083739213588615e-01
1.482701241970062256e+01 -1.081050857901573181e+00 -9.187032225541713615e-01
1.483702218532562256e+01 -9.267539829015731812e-01 -9.128133299760463615e-01
1.484715402126312256e+01 -7.723350375890731812e-01 -9.069234373979213615e-01
1.485716378688812256e+01 -6.191367954015731812e-01 -9.010793211869838615e-01
1.704405343532562256e+01 -2.360958084464073181e+00 -9.676229002885463615e-01
1.706480538845062256e+01 -2.182979568839073181e+00 -9.608327391557338615e-01
1.707176339626312256e+01 -2.001705154776573181e+00 -9.539205077104213615e-01
1.707859933376312256e+01 -1.820552811026573181e+00 -9.470082762651088615e-01
1.708543527126312256e+01 -1.640865311026573181e+00 -9.401418211869838615e-01
1.709092843532562256e+01 -1.461544021964073181e+00 -9.332601073197963615e-01
1.705162179470062256e+01 -1.272335037589073181e+00 -9.245931151322963615e-01
1.699839913845062256e+01 -1.082515701651573181e+00 -9.159108641557338615e-01
1.992234933376312256e+01 -3.197505936026573181e+00 -9.940816405229213615e-01
1.997984445095062256e+01 -2.998775467276573181e+00 -9.880239012651088615e-01
2.003733956813812256e+01 -2.799922928214073181e+00 -9.819509032182338615e-01
2.009520089626312256e+01 -2.600215896964073181e+00 -9.758626463822963615e-01
2.011131417751312256e+01 -2.390743240714073181e+00 -9.682790282182338615e-01
2.004637277126312256e+01 -2.162960037589073181e+00 -9.578572752885463615e-01
1.998191964626312256e+01 -1.937007889151573181e+00 -9.474965575151088615e-01
1.991844308376312256e+01 -1.714229568839073181e+00 -9.373036864213588615e-01
2.389329659938812256e+01 -4.351680740714073181e+00 -1.029466772358858861e+00
2.396373116970062256e+01 -4.113765701651573181e+00 -1.022203588765108861e+00
2.405980050563812256e+01 -3.882686600089073181e+00 -1.015154028218233861e+00
2.413072335720062256e+01 -3.643306717276573181e+00 -1.007845068257296361e+00
2.417869699001312256e+01 -3.399044021964073181e+00 -9.998494627885463615e-01
2.416612374782562256e+01 -3.140743240714073181e+00 -9.899922850541713615e-01
2.412584054470062256e+01 -2.876827225089073181e+00 -9.799214842729213615e-01
2.411351144313812256e+01 -2.621944412589073181e+00 -9.702016356401088615e-01
3.030467355251312256e+01 -6.214839920401573181e+00 -1.094835424702608861e+00
3.045823800563812256e+01 -5.931270584464073181e+00 -1.087358618061983861e+00
3.061253488063812256e+01 -5.646236404776573181e+00 -1.079836035054171361e+00
3.076817452907562256e+01 -5.358760818839073181e+00 -1.072252416890108861e+00
3.087962472438812256e+01 -5.059810623526573181e+00 -1.063478613179171361e+00
3.083751046657562256e+01 -4.723873123526573181e+00 -1.050661230366671361e+00
3.075511300563812256e+01 -4.380245193839073181e+00 -1.036836767476046361e+00
3.055125558376312256e+01 -4.014766678214073181e+00 -1.020097875874483861e+00
4.195189034938812256e+01 -9.599361404776573181e+00 -1.221819067280733861e+00
4.202403390407562256e+01 -9.167720779776573181e+00 -1.207735204976046361e+00
4.215867745876312256e+01 -8.753658279776573181e+00 -1.195100927632296361e+00
4.220628488063812256e+01 -8.314937576651573181e+00 -1.180452490132296361e+00
4.208580148220062256e+01 -7.837398514151573181e+00 -1.162233495991671361e+00
4.188511788845062256e+01 -7.345821365714073181e+00 -1.142458105366671361e+00
4.143321359157562256e+01 -6.802120193839073181e+00 -1.117555761616671361e+00
4.116758859157562256e+01 -6.311885818839073181e+00 -1.096971655171358861e+00
6.516331613063812256e+01 -1.634496687352657318e+01 -1.450670385640108861e+00
6.539390695095062256e+01 -1.570800398290157318e+01 -1.431230688374483861e+00
6.518650949001312256e+01 -1.495177839696407318e+01 -1.403932714741671361e+00
6.431211984157562256e+01 -1.402892683446407318e+01 -1.365190649311983861e+00
6.369383370876312256e+01 -1.319396589696407318e+01 -1.331651830952608861e+00
6.279319894313812256e+01 -1.230846785008907318e+01 -1.293947363179171361e+00
6.193711984157562256e+01 -1.145324324071407318e+01 -1.257631445210421361e+00
6.143748605251312256e+01 -1.069836042821407318e+01 -1.227831030171358861e+00
9.734727263450622559e+00 4.893837124109268188e-01 -8.585988524369838615e-01
9.746323943138122559e+00 5.886268764734268188e-01 -8.548146727494838615e-01
9.753526091575622559e+00 6.886024624109268188e-01 -8.509999754838588615e-01
9.760606169700622559e+00 7.887001186609268188e-01 -8.471700194291713615e-01
9.767808318138122559e+00 8.883094936609268188e-01 -8.433705809526088615e-01
9.774888396263122559e+00 9.876747280359268188e-01 -8.395864012651088615e-01
9.781968474388122559e+00 1.087162032723426819e+00 -8.357869627885463615e-01
9.784531950950622559e+00 1.186649337410926819e+00 -8.319875243119838615e-01
1.065550363063812256e+01 2.902870327234268188e-01 -8.662282469682338615e-01
1.066233956813812256e+01 4.000282436609268188e-01 -8.620320799760463615e-01
1.067442452907562256e+01 5.085487514734268188e-01 -8.578969481401088615e-01
1.068113839626312256e+01 6.182899624109268188e-01 -8.537160399369838615e-01
1.068785226345062256e+01 7.272987514734268188e-01 -8.495503905229213615e-01
1.069456613063812256e+01 8.361854702234268188e-01 -8.453999998979213615e-01
1.069590890407562256e+01 9.459266811609268188e-01 -8.412038329057338615e-01
1.070250070095062256e+01 1.054203048348426819e+00 -8.370839598588588615e-01
1.176780831813812256e+01 4.968644678592681885e-02 -8.754445555619838615e-01
1.177378976345062256e+01 1.711464077234268188e-01 -8.708211424760463615e-01
1.177977120876312256e+01 2.923622280359268188e-01 -8.661824706010463615e-01
1.178575265407562256e+01 4.137001186609268188e-01 -8.615590575151088615e-01
1.179173409938812256e+01 5.341835170984268188e-01 -8.569661620072963615e-01
1.177684152126312256e+01 6.578407436609268188e-01 -8.513051512651088615e-01
1.176207101345062256e+01 7.812538295984268188e-01 -8.456593993119838615e-01
1.174730050563812256e+01 9.033241420984268188e-01 -8.400594237260463615e-01
1.312986886501312256e+01 -2.449912875890731812e-01 -8.867513182572963615e-01
1.314268624782562256e+01 -1.107139438390731812e-01 -8.816243651322963615e-01
1.314744699001312256e+01 2.490617334842681885e-02 -8.764516356401088615e-01
1.315220773220062256e+01 1.606483608484268188e-01 -8.712636473588588615e-01
1.315684640407562256e+01 2.954139858484268188e-01 -8.661214354447963615e-01
1.316148507595062256e+01 4.299354702234268188e-01 -8.609944823197963615e-01
1.316038644313812256e+01 5.653114467859268188e-01 -8.555928709916713615e-01
1.313096749782562256e+01 7.037391811609268188e-01 -8.492452147416713615e-01
1.485728585720062256e+01 -6.186485141515731812e-01 -9.010640623979213615e-01
1.485936105251312256e+01 -4.642295688390731812e-01 -8.951589110307338615e-01
1.482786691188812256e+01 -3.037071079015731812e-01 -8.878041747026088615e-01
1.479649484157562256e+01 -1.440391391515731812e-01 -8.804952147416713615e-01
1.476536691188812256e+01 1.391984522342681885e-02 -8.732625487260463615e-01
1.473460519313812256e+01 1.706581264734268188e-01 -8.660909178666713615e-01
1.470408761501312256e+01 3.266639858484268188e-01 -8.589345457963588615e-01
1.467381417751312256e+01 4.809608608484268188e-01 -8.518697264604213615e-01
1.699815499782562256e+01 -1.081783279776573181e+00 -9.158803465776088615e-01
1.696568429470062256e+01 -8.980674594640731812e-01 -9.074574950151088615e-01
1.691929757595062256e+01 -7.128867954015731812e-01 -8.989888670854213615e-01
1.687303292751312256e+01 -5.288047641515731812e-01 -8.905507567338588615e-01
1.685667550563812256e+01 -3.520469516515731812e-01 -8.833333495072963615e-01
1.685533273220062256e+01 -1.787071079015731812e-01 -8.767262938432338615e-01
1.685411202907562256e+01 -5.489334464073181152e-03 -8.701039793901088615e-01
1.683946359157562256e+01 1.684608608484268188e-01 -8.634664061479213615e-01
1.991783273220062256e+01 -1.713375076651573181e+00 -9.372579100541713615e-01
1.984593331813812256e+01 -1.491207107901573181e+00 -9.270802977494838615e-01
1.983116281032562256e+01 -1.282466873526573181e+00 -9.189473631791713615e-01
1.982310616970062256e+01 -1.075191482901573181e+00 -9.110280516557338615e-01
1.981517159938812256e+01 -8.696250766515731812e-01 -9.031850340776088615e-01
1.980723702907562256e+01 -6.649131625890731812e-01 -8.953877928666713615e-01
1.979930245876312256e+01 -4.603233188390731812e-01 -8.875752928666713615e-01
1.979136788845062256e+01 -2.574424594640731812e-01 -8.798390868119838615e-01
2.411363351345062256e+01 -2.621089920401573181e+00 -9.701711180619838615e-01
2.409227120876312256e+01 -2.365596756339073181e+00 -9.604360106401088615e-01
2.403428781032562256e+01 -2.104488357901573181e+00 -9.490529539994838615e-01
2.395030343532562256e+01 -1.839717850089073181e+00 -9.375783446244838615e-01
2.386741769313812256e+01 -1.578609451651573181e+00 -9.262410643510463615e-01
2.382335031032562256e+01 -1.326534256339073181e+00 -9.161244872026088615e-01
2.378794991970062256e+01 -1.076534256339073181e+00 -9.068471434526088615e-01
2.374498116970062256e+01 -8.279991000890731812e-01 -8.968678954057338615e-01
3.054979074001312256e+01 -4.013423904776573181e+00 -1.020036840718233861e+00
3.034019601345062256e+01 -3.652339920401573181e+00 -1.003496313374483861e+00
3.021080148220062256e+01 -3.312618240714073181e+00 -9.891530516557338615e-01
3.016233956813812256e+01 -2.990474686026573181e+00 -9.768544676713588615e-01
3.011436593532562256e+01 -2.671504959464073181e+00 -9.646932127885463615e-01
3.001207101345062256e+01 -2.345821365714073181e+00 -9.513112547807338615e-01
2.981565988063812256e+01 -2.007808670401573181e+00 -9.358388426713588615e-01
2.962327706813812256e+01 -1.676509842276573181e+00 -9.206563475541713615e-01
4.116661202907562256e+01 -6.310176834464073181e+00 -1.096910620015108861e+00
4.109239327907562256e+01 -5.866695389151573181e+00 -1.080553198140108861e+00
4.082664620876312256e+01 -5.388912186026573181e+00 -1.060457372944796361e+00
4.040550363063812256e+01 -4.888057693839073181e+00 -1.037508154194796361e+00
4.003978097438812256e+01 -4.408321365714073181e+00 -1.016039037983858861e+00
3.985630929470062256e+01 -3.967647537589073181e+00 -9.983235838822963615e-01
3.961888253688812256e+01 -3.522457107901573181e+00 -9.797383788041713615e-01
3.977794015407562256e+01 -3.141963943839073181e+00 -9.686604979447963615e-01
6.142735421657562256e+01 -1.069396589696407318e+01 -1.227602148335421361e+00
6.026085031032562256e+01 -9.815181717276573181e+00 -1.187685156147921361e+00
5.992515695095062256e+01 -9.125240311026573181e+00 -1.161409521382296361e+00
5.937596261501312256e+01 -8.402828201651573181e+00 -1.132173681538546361e+00
6.000755441188812256e+01 -7.902339920401573181e+00 -1.120744848530733861e+00
6.156211984157562256e+01 -7.542964920401573181e+00 -1.122133398335421361e+00
6.204332101345062256e+01 -6.986202225089073181e+00 -1.107484960835421361e+00
6.360081613063812256e+01 -6.579097732901573181e+00 -1.107286596577608861e+00
9.623814523220062256e+01 -1.722900007665157318e+01 -1.301530981343233861e+00
9.247996652126312256e+01 -1.549755476415157318e+01 -1.228532934468233861e+00
7.954576241970062256e+01 -1.051208113133907318e+01 -1.009462499897921361e+00
7.169944894313812256e+01 -7.756343826651573181e+00 -8.854390623979213615e-01
9.247789132595062256e+01 -1.551098249852657318e+01 -7.966176512651088615e-01
7.954454171657562256e+01 -1.052379988133907318e+01 -6.399404051713588615e-01
7.169871652126312256e+01 -7.767086014151573181e+00 -5.517598631791713615e-01
8.572850167751312256e+01 -1.155553816258907318e+01 -2.705251219682338615e-01
8.574034249782562256e+01 -1.157043074071407318e+01 1.276834961958286385e-01
8.582249581813812256e+01 -1.159704206883907318e+01 5.287149903364536385e-01
8.545420968532562256e+01 -1.154906843602657318e+01 9.221933838911411385e-01
8.469212472438812256e+01 -1.230370710790157318e+01 1.282728051859891139e+00
8.566136300563812256e+01 -1.159630964696407318e+01 1.324872827250516139e+00
8.451939523220062256e+01 -1.228600691258907318e+01 1.672696923930203639e+00
8.552110421657562256e+01 -1.158593367040157318e+01 1.719327783305203639e+00
8.480833566188812256e+01 -1.059911726415157318e+01 1.728834008891141139e+00
8.469615304470062256e+01 -1.232995222508907318e+01 2.072675561625516139e+00
8.460875070095062256e+01 -1.144762800633907318e+01 2.093259668070828639e+00
8.726060616970062256e+01 -1.099340437352657318e+01 2.190122461039578639e+00
7.255027902126312256e+01 -7.967037186026573181e+00 1.801648950297391139e+00
9.784654021263122559e+00 1.187015548348426819e+00 -8.319722655229213615e-01
9.790635466575622559e+00 1.285892501473426819e+00 -8.282033446244838615e-01
9.792100310325622559e+00 1.385257735848426819e+00 -8.244191649369838615e-01
9.793687224388122559e+00 1.484745040535926819e+00 -8.206197264604213615e-01
9.795152068138122559e+00 1.583621993660926819e+00 -8.168508055619838615e-01
9.796738982200622559e+00 1.682376876473426819e+00 -8.130818846635463615e-01
9.798325896263122559e+00 1.781375899910926819e+00 -8.092977049760463615e-01
9.795396208763122559e+00 1.880130782723426819e+00 -8.055440428666713615e-01
1.070250070095062256e+01 1.054569259285926819e+00 -8.370687010697963615e-01
1.070335519313812256e+01 1.163455978035926819e+00 -8.329183104447963615e-01
1.070933663845062256e+01 1.271488204598426819e+00 -8.287984373979213615e-01
1.071006906032562256e+01 1.380374923348426819e+00 -8.246327879838588615e-01
1.071080148220062256e+01 1.488651290535926819e+00 -8.205129149369838615e-01
1.071165597438812256e+01 1.596683517098426819e+00 -8.163777831010463615e-01
1.070701730251312256e+01 1.705326095223426819e+00 -8.122426512651088615e-01
1.070774972438812256e+01 1.812870040535926819e+00 -8.081380370072963615e-01
1.174730050563812256e+01 9.038124233484268188e-01 -8.400441649369838615e-01
1.172618234157562256e+01 1.026126876473426819e+00 -8.344441893510463615e-01
1.172105538845062256e+01 1.145877853035926819e+00 -8.296529295854213615e-01
1.172068917751312256e+01 1.265140548348426819e+00 -8.251058104447963615e-01
1.172032296657562256e+01 1.383670821785926819e+00 -8.205892088822963615e-01
1.171995675563812256e+01 1.501956954598426819e+00 -8.160726073197963615e-01
1.171959054470062256e+01 1.620487228035926819e+00 -8.115560057572963615e-01
1.171922433376312256e+01 1.738163009285926819e+00 -8.070699217729213615e-01
1.313072335720062256e+01 7.042274624109268188e-01 -8.492299559526088615e-01
1.311107003688812256e+01 8.404579311609268188e-01 -8.429891112260463615e-01
1.308323800563812256e+01 9.770546108484268188e-01 -8.367330077104213615e-01
1.305552804470062256e+01 1.113163009285926819e+00 -8.305074217729213615e-01
1.302806222438812256e+01 1.247928634285926819e+00 -8.243428709916713615e-01
1.300084054470062256e+01 1.381839767098426819e+00 -8.182088377885463615e-01
1.297361886501312256e+01 1.515384688973426819e+00 -8.120900633744838615e-01
1.298069894313812256e+01 1.645145431160926819e+00 -8.078328612260463615e-01
1.467344796657562256e+01 4.815712124109268188e-01 -8.518392088822963615e-01
1.465757882595062256e+01 6.329383999109268188e-01 -8.456746581010463615e-01
1.465281808376312256e+01 7.822303920984268188e-01 -8.399678709916713615e-01
1.464805734157562256e+01 9.316444545984268188e-01 -8.342610838822963615e-01
1.464317452907562256e+01 1.080204024910926819e+00 -8.286000731401088615e-01
1.463841378688812256e+01 1.228275313973426819e+00 -8.229543211869838615e-01
1.463377511501312256e+01 1.376468673348426819e+00 -8.172933104447963615e-01
1.462901437282562256e+01 1.523685470223426819e+00 -8.116780760697963615e-01
1.683934152126312256e+01 1.690712124109268188e-01 -8.634511473588588615e-01
1.684361398220062256e+01 3.397255092859268188e-01 -8.569356444291713615e-01
1.683458077907562256e+01 5.117225795984268188e-01 -8.503743651322963615e-01
1.682554757595062256e+01 6.837196499109268188e-01 -8.438130858354213615e-01
1.681663644313812256e+01 8.546180874109268188e-01 -8.372823241166713615e-01
1.680760324001312256e+01 1.024906173348426819e+00 -8.307973387651088615e-01
1.679869210720062256e+01 1.195316329598426819e+00 -8.242970946244838615e-01
1.677659738063812256e+01 1.365482345223426819e+00 -8.177968504838588615e-01
1.979124581813812256e+01 -2.567100375890731812e-01 -8.798085692338588615e-01
1.977501046657562256e+01 -5.346296727657318115e-02 -8.720418456010463615e-01
1.972081124782562256e+01 1.538124233484268188e-01 -8.631307127885463615e-01
1.966233956813812256e+01 3.605995327234268188e-01 -8.540975096635463615e-01
1.961802804470062256e+01 5.637245327234268188e-01 -8.455983641557338615e-01
1.964891183376312256e+01 7.585487514734268188e-01 -8.394185545854213615e-01
1.967991769313812256e+01 9.542274624109268188e-01 -8.332082274369838615e-01
1.967869699001312256e+01 1.151737228035926819e+00 -8.260671141557338615e-01
2.374400460720062256e+01 -8.271446079015731812e-01 -8.968221190385463615e-01
2.362620675563812256e+01 -5.701866000890731812e-01 -8.850423338822963615e-01
2.358848702907562256e+01 -3.260459750890731812e-01 -8.749562743119838615e-01
2.355967843532562256e+01 -8.337019383907318115e-02 -8.656941893510463615e-01
2.353111398220062256e+01 1.574745327234268188e-01 -8.565083983354213615e-01
2.350267159938812256e+01 3.970985561609268188e-01 -8.473531248979213615e-01
2.354771554470062256e+01 6.303749233484268188e-01 -8.406697752885463615e-01
2.374791085720062256e+01 8.519325405359268188e-01 -8.372975829057338615e-01
2.962144601345062256e+01 -1.675167068839073181e+00 -9.205800536088588615e-01
2.952378976345062256e+01 -1.361324295401573181e+00 -9.078542235307338615e-01
2.959678781032562256e+01 -1.071163162589073181e+00 -8.990041258744838615e-01
2.967027413845062256e+01 -7.791709750890731812e-01 -8.900929930619838615e-01
2.974376046657562256e+01 -4.874229282140731812e-01 -8.811818602494838615e-01
2.992735421657562256e+01 -2.050742954015731812e-01 -8.745748045854213615e-01
3.012144601345062256e+01 8.044816553592681885e-02 -8.680440428666713615e-01
3.038108956813812256e+01 3.634071499109268188e-01 -8.627797606401088615e-01
3.977891671657562256e+01 -3.140743240714073181e+00 -9.686452391557338615e-01
4.000804269313812256e+01 -2.767574295401573181e+00 -9.588033202104213615e-01
4.019883859157562256e+01 -2.385860428214073181e+00 -9.481679442338588615e-01
4.077903878688812256e+01 -2.043941482901573181e+00 -9.440785887651088615e-01
4.124534738063812256e+01 -1.680904373526573181e+00 -9.377461913041713615e-01
4.177659738063812256e+01 -1.315303787589073181e+00 -9.321919920854213615e-01
4.239854562282562256e+01 -9.461631625890731812e-01 -9.277059081010463615e-01
4.292711007595062256e+01 -5.600547641515731812e-01 -9.214040282182338615e-01
6.362193429470062256e+01 -6.579952225089073181e+00 -1.107500219624483861e+00
6.461265695095062256e+01 -6.066890701651573181e+00 -1.098680639546358861e+00
6.424107491970062256e+01 -5.366695389151573181e+00 -1.071626806538546361e+00
6.103709542751312256e+01 -4.351436600089073181e+00 -1.009233618061983861e+00
5.851487863063812256e+01 -3.474971756339073181e+00 -9.575063231401088615e-01
5.587132394313812256e+01 -2.639156326651573181e+00 -9.060842039994838615e-01
5.321226632595062256e+01 -1.854610428214073181e+00 -8.562795164994838615e-01
5.053758370876312256e+01 -1.125240311026573181e+00 -8.082143309526088615e-01
7.170079171657562256e+01 -7.754024490714073181e+00 -8.853780272416713615e-01
7.302147042751312256e+01 -7.203487381339073181e+00 -8.723927977494838615e-01
9.774241769313812256e+01 -9.526607498526573181e+00 -1.052507543843233861e+00
9.840831124782562256e+01 -8.611690506339073181e+00 -1.024599218647921361e+00
5.851451241970062256e+01 -3.483882889151573181e+00 -6.877461913041713615e-01
5.587107980251312256e+01 -2.647701248526573181e+00 -6.487905028276088615e-01
5.321190011501312256e+01 -1.862789139151573181e+00 -6.114980223588588615e-01
5.053733956813812256e+01 -1.133052811026573181e+00 -5.759755614213588615e-01
7.170005929470062256e+01 -7.764766678214073181e+00 -5.516988280229213615e-01
6.803392159938812256e+01 -6.545528396964073181e+00 -5.130940916947963615e-01
6.464122140407562256e+01 -5.435787186026573181e+00 -4.795705321244838615e-01
6.141441476345062256e+01 -4.412960037589073181e+00 -4.471761229447963615e-01
5.837120187282562256e+01 -3.477901443839073181e+00 -4.175893309526088615e-01
5.549754464626312256e+01 -2.621211990714073181e+00 -3.905354979447963615e-01
5.278172433376312256e+01 -1.834957107901573181e+00 -3.644277098588588615e-01
5.024351632595062256e+01 -1.119136795401573181e+00 -3.419362547807338615e-01
7.304808175563812256e+01 -7.229244217276573181e+00 -1.953145506791713615e-01
6.148460519313812256e+01 -4.430416092276573181e+00 -1.622182372026088615e-01
5.839720284938812256e+01 -3.489620193839073181e+00 -1.470815184526088615e-01
5.547337472438812256e+01 -2.627437576651573181e+00 -1.336995604447963615e-01
5.271263253688812256e+01 -1.837276443839073181e+00 -1.218282225541713615e-01
5.012400949001312256e+01 -1.118038162589073181e+00 -1.114064696244838615e-01
7.327537667751312256e+01 -7.270870193839073181e+00 1.435831543989536385e-01
6.325547921657562256e+01 -2.731075271964073181e+00 1.930826661177036385e-01
6.343028390407562256e+01 -2.110591873526573181e+00 2.161844727583286385e-01
7.311045968532562256e+01 -7.259883865714073181e+00 4.824808594770786385e-01
6.325828683376312256e+01 -2.741085037589073181e+00 4.855020997114536385e-01
7.326927316188812256e+01 -7.292354568839073181e+00 8.227060792036411385e-01
6.310789620876312256e+01 -2.738033279776573181e+00 7.739084717817661385e-01
6.339097726345062256e+01 -2.127193436026573181e+00 7.997110840864536385e-01
7.319163644313812256e+01 -7.292964920401573181e+00 1.161649560648953639e+00
6.306492745876312256e+01 -2.744136795401573181e+00 1.064664697367703639e+00
6.345774972438812256e+01 -2.141841873526573181e+00 1.092191552836453639e+00
7.311192452907562256e+01 -7.293453201651573181e+00 1.499784326273953639e+00
7.440184152126312256e+01 -5.960445389151573181e+00 1.573911523539578639e+00
6.316258370876312256e+01 -2.762203201651573181e+00 1.358564233500516139e+00
6.370066964626312256e+01 -2.169795975089073181e+00 1.391340112406766139e+00
7.254918038845062256e+01 -7.964351639151573181e+00 1.801679467875516139e+00
7.265159738063812256e+01 -7.242183670401573181e+00 1.824521875102078639e+00
7.218638741970062256e+01 -6.448726639151573181e+00 1.832868432719266139e+00
7.444456613063812256e+01 -5.976680740714073181e+00 1.920011377055203639e+00
6.209593331813812256e+01 -3.306636795401573181e+00 1.598478173930203639e+00
6.202037179470062256e+01 -2.675044998526573181e+00 1.614683007914578639e+00
6.333799874782562256e+01 -2.152584061026573181e+00 1.674390649516141139e+00
9.795274138450622559e+00 1.880374923348426819e+00 -8.055135252885463615e-01
9.795762419700622559e+00 1.978763595223426819e+00 -8.017751219682338615e-01
9.791734099388122559e+00 2.077274337410926819e+00 -7.980062010697963615e-01
9.787827849388122559e+00 2.175907149910926819e+00 -7.942525389604213615e-01
9.783799529075622559e+00 2.274051681160926819e+00 -7.904988768510463615e-01
9.779893279075622559e+00 2.372074142098426819e+00 -7.867604735307338615e-01
9.775864958763122559e+00 2.470340743660926819e+00 -7.830220702104213615e-01
9.772202849388122559e+00 2.567996993660926819e+00 -7.795430663041713615e-01
1.070762765407562256e+01 1.813236251473426819e+00 -8.081227782182338615e-01
1.070250070095062256e+01 1.921024337410926819e+00 -8.040029051713588615e-01
1.070274484157562256e+01 2.028324142098426819e+00 -7.999135497026088615e-01
1.069761788845062256e+01 2.136234298348426819e+00 -7.957936766557338615e-01
1.069249093532562256e+01 2.243534103035926819e+00 -7.917043211869838615e-01
1.068736398220062256e+01 2.350589767098426819e+00 -7.876149657182338615e-01
1.067698800563812256e+01 2.457889571785926819e+00 -7.835256102494838615e-01
1.067637765407562256e+01 2.564579024910926819e+00 -7.796803954057338615e-01
1.171910226345062256e+01 1.738651290535926819e+00 -8.070394041947963615e-01
1.171336495876312256e+01 1.856571212410926819e+00 -8.025838377885463615e-01
1.170774972438812256e+01 1.974246993660926819e+00 -7.981435301713588615e-01
1.171190011501312256e+01 2.091800704598426819e+00 -7.941457274369838615e-01
1.172483956813812256e+01 2.208621993660926819e+00 -7.905751707963588615e-01
1.173790109157562256e+01 2.325565353035926819e+00 -7.870198729447963615e-01
1.175108468532562256e+01 2.443119063973426819e+00 -7.834187987260463615e-01
1.176841866970062256e+01 2.560428634285926819e+00 -7.800313475541713615e-01
1.298057687282562256e+01 1.645633712410926819e+00 -8.078176024369838615e-01
1.300389230251312256e+01 1.774417892098426819e+00 -8.038808348588588615e-01
1.301939523220062256e+01 1.903934493660926819e+00 -7.999288084916713615e-01
1.303502023220062256e+01 2.034061446785926819e+00 -7.959615233354213615e-01
1.305052316188812256e+01 2.163944259285926819e+00 -7.919942381791713615e-01
1.306614816188812256e+01 2.294071212410926819e+00 -7.880269530229213615e-01
1.308177316188812256e+01 2.424930587410926819e+00 -7.840291502885463615e-01
1.309336984157562256e+01 2.555423751473426819e+00 -7.801991942338588615e-01
1.462864816188812256e+01 1.524295821785926819e+00 -8.116475584916713615e-01
1.464561593532562256e+01 1.669803634285926819e+00 -8.071309569291713615e-01
1.466453683376312256e+01 1.815555587410926819e+00 -8.026753905229213615e-01
1.468357980251312256e+01 1.962039962410926819e+00 -7.982198241166713615e-01
1.470262277126312256e+01 2.108280196785926819e+00 -7.937489989213588615e-01
1.472166574001312256e+01 2.254886642098426819e+00 -7.892781737260463615e-01
1.474095284938812256e+01 2.402103438973426819e+00 -7.847920897416713615e-01
1.476585519313812256e+01 2.549198165535926819e+00 -7.805196288041713615e-01
1.677623116970062256e+01 1.366092696785926819e+00 -8.177663329057338615e-01
1.677305734157562256e+01 1.534427657723426819e+00 -8.113423827104213615e-01
1.683641183376312256e+01 1.699100509285926819e+00 -8.075887206010463615e-01
1.690037667751312256e+01 1.865360274910926819e+00 -8.037740233354213615e-01
1.696446359157562256e+01 2.032230392098426819e+00 -7.999593260697963615e-01
1.702916085720062256e+01 2.200321212410926819e+00 -7.961141112260463615e-01
1.709446847438812256e+01 2.369998946785926819e+00 -7.922383788041713615e-01
1.712962472438812256e+01 2.540409103035926819e+00 -7.877980711869838615e-01
1.967820870876312256e+01 1.152469649910926819e+00 -8.260213377885463615e-01
1.965416085720062256e+01 1.351078048348426819e+00 -8.184529784135463615e-01
1.963853585720062256e+01 1.548587813973426819e+00 -8.111287596635463615e-01
1.972422921657562256e+01 1.742069259285926819e+00 -8.067037108354213615e-01
1.981041085720062256e+01 1.936405196785926819e+00 -8.022634032182338615e-01
2.000731027126312256e+01 2.129764571785926819e+00 -8.008595946244838615e-01
2.020726144313812256e+01 2.327518478035926819e+00 -7.993642332963588615e-01
2.035362374782562256e+01 2.528568282723426819e+00 -7.963124754838588615e-01
2.374937570095062256e+01 8.526649624109268188e-01 -8.372975829057338615e-01
2.394468820095062256e+01 1.078128829598426819e+00 -8.338643553666713615e-01
2.416832101345062256e+01 1.305912032723426819e+00 -8.304006102494838615e-01
2.437083566188812256e+01 1.539676681160926819e+00 -8.268453123979213615e-01
2.457591378688812256e+01 1.776371017098426819e+00 -8.232289793901088615e-01
2.478416574001312256e+01 2.016849532723426819e+00 -8.195668700151088615e-01
2.498314034938812256e+01 2.262332931160926819e+00 -8.161336424760463615e-01
2.518077218532562256e+01 2.510746017098426819e+00 -8.119527342729213615e-01
3.038316476345062256e+01 3.643837124109268188e-01 -8.627797606401088615e-01
3.078318917751312256e+01 6.431923061609268188e-01 -8.603078368119838615e-01
3.127635324001312256e+01 9.249305874109268188e-01 -8.594075682572963615e-01
3.159983956813812256e+01 1.224613204598426819e+00 -8.548451903276088615e-01
3.192857491970062256e+01 1.529300704598426819e+00 -8.502065184526088615e-01
3.229026925563812256e+01 1.839603438973426819e+00 -8.459493163041713615e-01
3.260777413845062256e+01 2.158451095223426819e+00 -8.406239989213588615e-01
3.295726144313812256e+01 2.482181563973426819e+00 -8.356954100541713615e-01
4.292881906032562256e+01 -5.587119907140731812e-01 -9.213887694291713615e-01
4.423350656032562256e+01 -2.116660922765731812e-01 -9.268056395463588615e-01
4.435899484157562256e+01 2.238807827234268188e-01 -9.135152342729213615e-01
4.320042550563812256e+01 7.185096889734268188e-01 -8.811360838822963615e-01
4.124693429470062256e+01 1.214725509285926819e+00 -8.381215575151088615e-01
3.980211007595062256e+01 1.659671798348426819e+00 -8.036214354447963615e-01
4.438096749782562256e+01 1.996952071785926819e+00 -8.529225829057338615e-01
4.376744210720062256e+01 2.441043868660926819e+00 -8.295156004838588615e-01
5.053843820095062256e+01 -1.123531326651573181e+00 -8.081685545854213615e-01
4.786863839626312256e+01 -4.488487094640731812e-01 -7.619344237260463615e-01
4.889195382595062256e+01 -2.502058446407318115e-02 -7.563344481401088615e-01
4.875096261501312256e+01 4.710731655359268188e-01 -7.381612303666713615e-01
5.665086495876312256e+01 6.938514858484268188e-01 -7.991658690385463615e-01
3.980198800563812256e+01 1.653446212410926819e+00 -6.200429442338588615e-01
6.127562081813812256e+01 1.763065353035926819e+00 -8.027974608354213615e-01
6.083946359157562256e+01 2.374637618660926819e+00 -7.781239989213588615e-01
5.053819406032562256e+01 -1.131343826651573181e+00 -5.759297850541713615e-01
4.790342843532562256e+01 -4.584922641515731812e-01 -5.422536375932338615e-01
4.881248605251312256e+01 -2.831648290157318115e-02 -5.313588622026088615e-01
4.872361886501312256e+01 4.647255092859268188e-01 -5.142385008744838615e-01
5.665049874782562256e+01 6.850624233484268188e-01 -5.392476561479213615e-01
3.980186593532562256e+01 1.647220626473426819e+00 -4.374562743119838615e-01
5.022630441188812256e+01 -1.116207107901573181e+00 -3.418447020463588615e-01
4.784910714626312256e+01 -4.623985141515731812e-01 -3.209401610307338615e-01
4.561082589626312256e+01 1.359901577234268188e-01 -3.029653075151088615e-01
4.350486886501312256e+01 6.850624233484268188e-01 -2.854177000932338615e-01
4.154246652126312256e+01 1.185428634285926819e+00 -2.694417479447963615e-01
3.971495187282562256e+01 1.643070235848426819e+00 -2.548543456010463615e-01
3.797667062282562256e+01 2.064090743660926819e+00 -2.405263426713588615e-01
3.636741769313812256e+01 2.448490157723426819e+00 -2.283498289994838615e-01
5.010655343532562256e+01 -1.114986404776573181e+00 -1.113912108354213615e-01
4.768406808376312256e+01 -4.592246860265731812e-01 -1.016713622026088615e-01
4.540623605251312256e+01 1.400184780359268188e-01 -9.311118153854636148e-02
4.331395089626312256e+01 6.866493374109268188e-01 -8.535971669479636148e-02
4.138523995876312256e+01 1.184207931160926819e+00 -7.844748524948386148e-02
3.958836495876312256e+01 1.639896407723426819e+00 -7.226767567917136148e-02
3.788548409938812256e+01 2.059452071785926819e+00 -6.682028798385886148e-02
3.630125558376312256e+01 2.442996993660926819e+00 -6.198325185104636148e-02
6.313304269313812256e+01 -2.086421951651573181e+00 2.141092774458286385e-01
4.917222726345062256e+01 -7.043074071407318115e-02 1.449717042036411385e-01
4.878135812282562256e+01 4.394569545984268188e-01 1.582468506880161385e-01
4.909239327907562256e+01 -7.372663915157318115e-02 3.708780762739536385e-01
4.880284249782562256e+01 4.309120327234268188e-01 3.835428711958286385e-01
6.339317452907562256e+01 -2.125118240714073181e+00 7.998178956098911385e-01
4.882383859157562256e+01 4.224891811609268188e-01 6.078165528364536385e-01
6.346128976345062256e+01 -2.140010818839073181e+00 1.092344140727078639e+00
4.914524972438812256e+01 -9.179304540157318115e-02 8.238352295942661385e-01
4.876414620876312256e+01 4.174842983484268188e-01 8.316629883833286385e-01
6.369859445095062256e+01 -2.167476639151573181e+00 1.391355371195828639e+00
4.908226144313812256e+01 -9.594343602657318115e-02 1.047696923930203639e+00
4.883165109157562256e+01 4.069862514734268188e-01 1.057142114359891139e+00
4.925084054470062256e+01 8.796425014734268188e-01 1.084379052836453639e+00
6.334007394313812256e+01 -2.150508865714073181e+00 1.674512719828641139e+00
4.885594308376312256e+01 3.981971889734268188e-01 1.283063745219266139e+00
4.927354562282562256e+01 8.710975795984268188e-01 1.312101220805203639e+00
5.022203195095062256e+01 1.338748946785926819e+00 1.358289575297391139e+00
4.911485421657562256e+01 -2.214317172765731812e-01 1.368329858500516139e+00
4.878453195095062256e+01 2.991981655359268188e-01 1.374280786234891139e+00
4.926963937282562256e+01 7.827186733484268188e-01 1.406446313578641139e+00
3.516429269313812256e+01 3.147342696785926819e+00 5.787790772505161385e-01
4.915599191188812256e+01 -3.380964696407318115e-02 1.001371240336453639e+00
4.882920968532562256e+01 5.144081264734268188e-01 1.011899804789578639e+00
3.512156808376312256e+01 3.140872970223426819e+00 7.589853760786411385e-01
4.882164132595062256e+01 -2.257917821407318115e-02 1.238141870219266139e+00
4.885118234157562256e+01 5.048866420984268188e-01 1.256955957133328639e+00
3.526414620876312256e+01 3.134769454598426819e+00 9.442881104536411385e-01
3.518870675563812256e+01 3.526615157723426819e+00 9.553812501020786385e-01
4.909947335720062256e+01 -4.735945165157318115e-02 1.491529321391141139e+00
4.864048898220062256e+01 5.068397670984268188e-01 1.493314599711453639e+00
5.028489816188812256e+01 9.698524624109268188e-01 1.565214013773953639e+00
3.517405831813812256e+01 3.128421798348426819e+00 1.121946191508328639e+00
3.524449288845062256e+01 3.520877853035926819e+00 1.138624047953641139e+00
3.621263253688812256e+01 4.496341720223426819e+00 1.356611108500516139e+00
2.161985909938812256e+01 6.301395431160926819e+00 1.366590356547391139e+00
2.155015695095062256e+01 6.722660079598426819e+00 1.380079126078641139e+00
7.347886443138122559e+00 1.031787492334842682e+01 1.883329248148953639e+00
7.936387419700622559e+00 9.586063399910926819e+00 2.497190332133328639e+00
7.643662810325622559e+00 1.083398820459842682e+01 1.923749780375516139e+00
