1.962273259460926056e+01 -2.558906845748424530e+00 7.791310731321630101e-01
1.998650212585926056e+01 -2.453682236373424530e+00 8.031789246946630101e-01
1.801299138367176056e+01 -3.245918564498424530e+00 7.500325623899755101e-01
1.841741032898426056e+01 -3.188057236373424530e+00 7.769185487181005101e-01
1.879033513367176056e+01 -3.112617783248424530e+00 8.018056336790380101e-01
1.905217595398426056e+01 -2.996040634810924530e+00 8.212148133665380101e-01
1.931926579773426056e+01 -2.877022080123424530e+00 8.410207215696630101e-01
1.962724919617176056e+01 -2.764961533248424530e+00 8.632222596556005101e-01
1.999565739929676056e+01 -2.662910751998424530e+00 8.894368592649755101e-01
2.035808415710926056e+01 -2.553291611373424530e+00 9.150105897337255101e-01
1.836528630554676056e+01 -3.367500595748424530e+00 8.536549989134130101e-01
1.875493474304676056e+01 -3.301094345748424530e+00 8.814717713743505101e-01
1.907060857117176056e+01 -3.204048447310924530e+00 9.050466004759130101e-01
1.933989568054676056e+01 -3.086616806685924530e+00 9.259969178587255101e-01
1.964836736023426056e+01 -2.976509384810924530e+00 9.493886414915380101e-01
2.000542302429676056e+01 -2.874580673873424530e+00 9.758626405149755101e-01
2.038188786804676056e+01 -2.770576767623424530e+00 1.003679412975913010e+00
2.085051579773426056e+01 -2.684395126998424530e+00 1.037294525280600510e+00
1.871025700867176056e+01 -3.486763291060924530e+00 9.607411805540380101e-01
1.908855290710926056e+01 -3.412788681685924530e+00 9.890767518431005101e-01
1.935832829773426056e+01 -3.297798447310924530e+00 1.011049408093100510e+00
1.967461247742176056e+01 -3.191353134810924530e+00 1.036134857311850510e+00
2.003362126648426056e+01 -3.092354111373424530e+00 1.064134735241538010e+00
2.041643376648426056e+01 -2.993477158248424530e+00 1.093828338757163010e+00
2.087041325867176056e+01 -2.906074814498424530e+00 1.128374237194663010e+00
2.134355778992176056e+01 -2.815864853560924530e+00 1.164858001843100510e+00
1.905193181335926056e+01 -3.605171494185924530e+00 1.070528167858725510e+00
1.937944646179676056e+01 -3.510933212935924530e+00 1.097475189343100510e+00
1.970195622742176056e+01 -3.409248642623424530e+00 1.124208587780600510e+00
2.007329411804676056e+01 -3.315620712935924530e+00 1.154497284069663010e+00
2.049272771179676056e+01 -3.229927353560924530e+00 1.188264984264975510e+00
2.097441716492176056e+01 -3.153877548873424530e+00 1.226579803600913010e+00
2.144145818054676056e+01 -3.063911728560924530e+00 1.264070648327475510e+00
2.209953923523426056e+01 -3.015449814498424530e+00 1.315218109264975510e+00
1.940068669617176056e+01 -3.726021103560924530e+00 1.184663910046225510e+00
1.973406071960926056e+01 -3.629829697310924530e+00 1.212984222546225510e+00
2.014153142273426056e+01 -3.550850205123424530e+00 1.247408050671225510e+00
2.057707829773426056e+01 -3.471870712935924530e+00 1.284074920788413010e+00
2.107854314148426056e+01 -3.404609970748424530e+00 1.325838226452475510e+00
2.157402653992176056e+01 -3.325996689498424530e+00 1.367326873913413010e+00
2.222783513367176056e+01 -3.279976181685924530e+00 1.420930999889975510e+00
2.295281071960926056e+01 -3.240547470748424530e+00 1.480699676647788010e+00
1.981206364929676056e+01 -3.867988876998424530e+00 1.306703704968100510e+00
2.021477361023426056e+01 -3.789741806685924530e+00 1.342409271374350510e+00
2.066411443054676056e+01 -3.718574814498424530e+00 1.381944793835288010e+00
2.117546696960926056e+01 -3.656929306685924530e+00 1.426576751843100510e+00
2.173296208679676056e+01 -3.599434189498424530e+00 1.475053924694663010e+00
2.232597966492176056e+01 -3.541206650435924530e+00 1.526552337780600510e+00
2.308269353210926056e+01 -3.514961533248424530e+00 1.591371673718100510e+00
2.402287907898426056e+01 -3.522285751998424530e+00 1.671159881725913010e+00
2.035100407898426056e+01 -4.052925400435924530e+00 1.443925995007163010e+00
2.080412907898426056e+01 -3.985176376998424530e+00 1.485658783093100510e+00
2.129570622742176056e+01 -3.920723251998424530e+00 1.530229705944663010e+00
2.183867497742176056e+01 -3.861763291060924530e+00 1.579836029186850510e+00
2.242388005554676056e+01 -3.805244736373424530e+00 1.633165496960288010e+00
2.321611638367176056e+01 -3.795479111373424530e+00 1.704179901257163010e+00
2.414568181335926056e+01 -3.806465439498424530e+00 1.787706512585288010e+00
2.521367497742176056e+01 -3.835640244185924530e+00 1.882722992077475510e+00
2.099236150085926056e+01 -4.272529892623424530e+00 1.595537323132163010e+00
2.152141423523426056e+01 -4.222358994185924530e+00 1.645509857311850510e+00
2.211797185242176056e+01 -4.183052353560924530e+00 1.702150482311850510e+00
2.277446599304676056e+01 -4.149360947310924530e+00 1.764314788952475510e+00
2.358257146179676056e+01 -4.147774033248424530e+00 1.840212005749350510e+00
2.455156560242176056e+01 -4.175361923873424530e+00 1.930727142468100510e+00
2.562871403992176056e+01 -4.211860947310924530e+00 2.031267303600913010e+00
2.670171208679676056e+01 -4.226631455123424530e+00 2.132402557507163010e+00
9.343801930546760559e+00 3.098675683140754700e-01 -1.846903380006494899e-01
9.662771657109260559e+00 3.204876855015754700e-01 -1.811655577272119899e-01
1.000530095398426056e+01 3.320843651890754700e-01 -1.776102598756494899e-01
1.037529607117176056e+01 3.445355370640754700e-01 -1.737650450318994899e-01
1.077348943054676056e+01 3.579632714390754700e-01 -1.696299131959619899e-01
1.120476384460926056e+01 3.724896386265754700e-01 -1.651590880006494899e-01
1.151592107117176056e+01 4.189984276890754700e-01 -1.605509337037744899e-01
1.151042790710926056e+01 5.289837792515754700e-01 -1.566904600709619899e-01
9.500906422734260559e+00 2.679974511265754700e-01 -1.441172178834619899e-01
9.683889821171760559e+00 3.136517480015754700e-01 -1.399363096803369899e-01
1.002825017273426056e+01 3.248822167515754700e-01 -1.346109922975244899e-01
1.040019841492176056e+01 3.370892480015754700e-01 -1.291025694459619899e-01
1.080058903992176056e+01 3.502728417515754700e-01 -1.231669005006494899e-01
1.123430486023426056e+01 3.645550683140754700e-01 -1.167429503053369899e-01
1.170732732117176056e+01 3.801800683140754700e-01 -1.099985655397119899e-01
1.223247380554676056e+01 3.950726464390754700e-01 -1.023081358522119899e-01
1.022746892273426056e+01 8.013124018907546997e-02 -9.696755968033698991e-02
1.028825993835926056e+01 1.636273339390754700e-01 -9.287820421158698991e-02
1.034941716492176056e+01 2.477337792515754700e-01 -8.874307237564948991e-02
1.042510075867176056e+01 3.297650292515754700e-01 -8.442483507096198991e-02
1.082768864929676056e+01 3.427044823765754700e-01 -7.667337022721198991e-02
1.126396794617176056e+01 3.566204980015754700e-01 -6.828103624283698991e-02
1.173992009460926056e+01 3.718792870640754700e-01 -5.912576280533698991e-02
1.225786443054676056e+01 3.884808495640754700e-01 -4.917703233658698991e-02
1.852178044617176056e+01 -2.047310166060924530e+00 5.966391004622551009e-02
1.871513982117176056e+01 -1.908760361373424530e+00 6.932272352278801009e-02
1.877153630554676056e+01 -1.734932236373424530e+00 7.667745985091301009e-02
1.130266423523426056e+01 1.307904198765754700e-01 -2.668557725846198991e-02
1.137505193054676056e+01 2.235638573765754700e-01 -2.180276475846198991e-02
1.144829411804676056e+01 3.171917870640754700e-01 -1.687417589127448991e-02
1.177275700867176056e+01 3.635785058140754700e-01 -7.932525500649489913e-03
1.228606267273426056e+01 3.812787011265754700e-01 3.999847546225510087e-03
1.862956853210926056e+01 -2.078438095748424530e+00 1.452199403196630101e-01
1.882463689148426056e+01 -1.939155869185924530e+00 1.552449647337255101e-01
1.894475407898426056e+01 -1.779121689498424530e+00 1.639424744993505101e-01
1.884355778992176056e+01 -1.566841416060924530e+00 1.684132996946630101e-01
1.874419255554676056e+01 -1.358589462935924530e+00 1.728078309446630101e-01
1.864641423523426056e+01 -1.153511337935924530e+00 1.771413270384130101e-01
1.259892888367176056e+01 2.015912011265754700e-01 5.958761610091301009e-02
1.267986150085926056e+01 3.070599511265754700e-01 6.535543836653801009e-02
1.873821111023426056e+01 -2.109810166060924530e+00 2.314168397337255101e-01
1.893608708679676056e+01 -1.970161728560924530e+00 2.427236024290380101e-01
1.912236638367176056e+01 -1.824409775435924530e+00 2.534200135618505101e-01
1.901872868835926056e+01 -1.609688095748424530e+00 2.572499696165380101e-01
1.891704411804676056e+01 -1.398994736373424530e+00 2.609883729368505101e-01
1.881694646179676056e+01 -1.191597275435924530e+00 2.646809998899755101e-01
1.930095525085926056e+01 -1.099556259810924530e+00 2.830068055540380101e-01
2.006731267273426056e+01 -1.050972275435924530e+00 3.083211366087255101e-01
1.884892888367176056e+01 -2.141792587935924530e+00 3.191853944212255101e-01
1.904839177429676056e+01 -2.001289658248424530e+00 3.308888856321630101e-01
1.925139470398426056e+01 -1.858345322310924530e+00 3.427907411009130101e-01
1.919658513367176056e+01 -1.653145126998424530e+00 3.473836366087255101e-01
1.910222478210926056e+01 -1.442085556685924530e+00 3.507558289915380101e-01
1.983794255554676056e+01 -1.403511337935924530e+00 3.785115662962255101e-01
2.021697087585926056e+01 -1.280586533248424530e+00 3.961049500852880101e-01
2.060771794617176056e+01 -1.153633408248424530e+00 4.142629090696630101e-01
1.896037907898426056e+01 -2.174019150435924530e+00 4.076253358274755101e-01
1.916216130554676056e+01 -2.032905869185924530e+00 4.201985780149755101e-01
1.936821599304676056e+01 -1.889351181685924530e+00 4.334737244993505101e-01
1.958684392273426056e+01 -1.744575791060924530e+00 4.468404237181005101e-01
1.990703435242176056e+01 -1.618477158248424530e+00 4.637319032102880101e-01
2.023699040710926056e+01 -1.488594345748424530e+00 4.811574403196630101e-01
2.064433903992176056e+01 -1.367134384810924530e+00 5.009633485227880101e-01
2.146965642273426056e+01 -1.315620712935924530e+00 5.360127869993505101e-01
1.907390446960926056e+01 -2.206733994185924530e+00 4.976979676634130101e-01
1.930303044617176056e+01 -2.071235947310924530e+00 5.121022645384130101e-01
1.960588689148426056e+01 -1.949043564498424530e+00 5.294209901243505101e-01
1.992510075867176056e+01 -1.824409775435924530e+00 5.475484315306005101e-01
2.025639958679676056e+01 -1.697212509810924530e+00 5.663014832884130101e-01
2.068279118835926056e+01 -1.583442978560924530e+00 5.889302674681005101e-01
2.141118474304676056e+01 -1.519722275435924530e+00 6.236592713743505101e-01
2.235613103210926056e+01 -1.482490830123424530e+00 6.673451844602880101e-01
1.930669255554676056e+01 -2.270332626998424530e+00 5.934468690306005101e-01
1.961186833679676056e+01 -2.151069931685924530e+00 6.120320741087255101e-01
1.994817204773426056e+01 -2.033516220748424530e+00 6.321126405149755101e-01
2.027825017273426056e+01 -1.907783798873424530e+00 6.521169129759130101e-01
2.072014470398426056e+01 -1.800728134810924530e+00 6.771260682493505101e-01
2.135649724304676056e+01 -1.725166611373424530e+00 7.108479920774755101e-01
2.223601384460926056e+01 -1.683906845748424530e+00 7.556172791868505101e-01
2.319609685242176056e+01 -1.641060166060924530e+00 8.044148866087255101e-01
1.961931462585926056e+01 -2.354561142623424530e+00 6.956502381712255101e-01
1.997466130554676056e+01 -2.244331650435924530e+00 7.179433289915380101e-01
2.030534978210926056e+01 -2.121650986373424530e+00 7.392751161009130101e-01
2.077178044617176056e+01 -2.023018173873424530e+00 7.672597352415380101e-01
2.139922185242176056e+01 -1.950752548873424530e+00 8.032094422727880101e-01
2.213579411804676056e+01 -1.888862900435924530e+00 8.447591248899755101e-01
2.306206364929676056e+01 -1.848701767623424530e+00 8.959523621946630101e-01
2.418120427429676056e+01 -1.826729111373424530e+00 9.570638123899755101e-01
1.998906560242176056e+01 -2.453560166060924530e+00 8.033315125852880101e-01
2.033183903992176056e+01 -2.336372666060924530e+00 8.265706483274755101e-01
2.082012028992176056e+01 -2.247261337935924530e+00 8.575765077024755101e-01
2.138542790710926056e+01 -2.165474228560924530e+00 8.929006043821630101e-01
2.208916325867176056e+01 -2.103462509810924530e+00 9.357778016477880101e-01
2.300334782898426056e+01 -2.070869736373424530e+00 9.901906434446630101e-01
2.404277653992176056e+01 -2.043892197310924530e+00 1.051775116100913010e+00
2.524114079773426056e+01 -2.026558212935924530e+00 1.122392791882163010e+00
2.036040349304676056e+01 -2.553169541060924530e+00 9.151631776243505101e-01
2.086846013367176056e+01 -2.472969345748424530e+00 9.492818299681005101e-01
2.136980290710926056e+01 -2.381294541060924530e+00 9.827748719602880101e-01
2.204253239929676056e+01 -2.318184189498424530e+00 1.026842254772788010e+00
2.294804997742176056e+01 -2.292793564498424530e+00 1.084596771374350510e+00
2.390752263367176056e+01 -2.260689072310924530e+00 1.145906585827475510e+00
2.511101384460926056e+01 -2.256416611373424530e+00 1.222490448132163010e+00
2.632634587585926056e+01 -2.231392197310924530e+00 1.299806732311850510e+00
2.085393376648426056e+01 -2.684517197310924530e+00 1.037523407116538010e+00
2.135845036804676056e+01 -2.598213486373424530e+00 1.073778289929038010e+00
2.201824040710926056e+01 -2.539009384810924530e+00 1.119829315319663010e+00
2.288713689148426056e+01 -2.513496689498424530e+00 1.179186004772788010e+00
2.382768864929676056e+01 -2.487129501998424530e+00 1.243394989147788010e+00
2.496843571960926056e+01 -2.483223251998424530e+00 1.320558685436850510e+00
2.614787907898426056e+01 -2.463325791060924530e+00 1.400743621960288010e+00
2.731450505554676056e+01 -2.418648056685924530e+00 1.480684417858725510e+00
2.134721989929676056e+01 -2.815986923873424530e+00 1.165117401257163010e+00
2.200029607117176056e+01 -2.761299423873424530e+00 1.212984222546225510e+00
2.280888982117176056e+01 -2.730781845748424530e+00 1.271989959850913010e+00
2.374309392273426056e+01 -2.711860947310924530e+00 1.339769500866538010e+00
2.483074040710926056e+01 -2.708320908248424530e+00 1.418214935436850510e+00
2.599370427429676056e+01 -2.698677353560924530e+00 1.502260345593100510e+00
2.713616032898426056e+01 -2.661079697310924530e+00 1.585481781139975510e+00
2.806279607117176056e+01 -2.561958603560924530e+00 1.655336517468100510e+00
2.210442204773426056e+01 -3.015938095748424530e+00 1.315584320202475510e+00
2.283696599304676056e+01 -2.972969345748424530e+00 1.372667450085288010e+00
2.376054997742176056e+01 -2.961006455123424530e+00 1.443681854382163010e+00
2.481462712585926056e+01 -2.959297470748424530e+00 1.524446624889975510e+00
2.597429509460926056e+01 -2.960396103560924530e+00 1.613237518444663010e+00
2.703606267273426056e+01 -2.918037705123424530e+00 1.695528167858725510e+00
2.791655583679676056e+01 -2.818550400435924530e+00 1.765260833874350510e+00
2.868437810242176056e+01 -2.681953720748424530e+00 1.827226776257163010e+00
2.295903630554676056e+01 -3.241401962935924530e+00 1.481172699108725510e+00
2.389983220398426056e+01 -3.241157822310924530e+00 1.556902069225913010e+00
2.494133611023426056e+01 -3.246040634810924530e+00 1.641252655163413010e+00
2.611650700867176056e+01 -3.259590439498424530e+00 1.736238617077475510e+00
2.713396306335926056e+01 -3.216255478560924530e+00 1.819688934460288010e+00
2.797795720398426056e+01 -3.117134384810924530e+00 1.890321869030600510e+00
2.870451970398426056e+01 -2.977730087935924530e+00 1.952333587780600510e+00
2.931596989929676056e+01 -2.804146103560924530e+00 2.006471771374350510e+00
2.402934880554676056e+01 -3.523018173873424530e+00 1.671693939343100510e+00
2.508061833679676056e+01 -3.539131455123424530e+00 1.761369842663413010e+00
2.623076482117176056e+01 -3.557442001998424530e+00 1.859438079968100510e+00
2.723882146179676056e+01 -3.519478134810924530e+00 1.946535247936850510e+00
2.804888005554676056e+01 -3.419624619185924530e+00 2.018007415905600510e+00
2.875908513367176056e+01 -3.283394150435924530e+00 2.081697601452475510e+00
2.938408513367176056e+01 -3.115913681685924530e+00 2.138750213757163010e+00
3.003056950867176056e+01 -2.941841416060924530e+00 2.197801727429038010e+00
2.522234196960926056e+01 -3.836983017623424530e+00 1.883485931530600510e+00
2.637065739929676056e+01 -3.864570908248424530e+00 1.986436981335288010e+00
2.733574528992176056e+01 -3.825386337935924530e+00 2.073549408093100510e+00
2.809392400085926056e+01 -3.719063095748424530e+00 2.144029754772788010e+00
2.880412907898426056e+01 -3.588569931685924530e+00 2.210664886608725510e+00
2.946245427429676056e+01 -3.433906845748424530e+00 2.273119110241538010e+00
3.012627263367176056e+01 -3.266792587935924530e+00 2.337053436413413010e+00
3.085075993835926056e+01 -3.099556259810924530e+00 2.405748504772788010e+00
2.670744939148426056e+01 -4.227119736373424530e+00 2.132936615124350510e+00
2.760124821960926056e+01 -4.175850205123424530e+00 2.217867035046225510e+00
2.824858708679676056e+01 -4.048042587935924530e+00 2.281587738171225510e+00
2.888554997742176056e+01 -3.904609970748424530e+00 2.344637054577475510e+00
2.954949040710926056e+01 -3.755806259810924530e+00 2.410341400280600510e+00
3.023296208679676056e+01 -3.598457626998424530e+00 2.478059906139975510e+00
3.097258611023426056e+01 -3.438301376998424530e+00 2.551134246960288010e+00
3.180913396179676056e+01 -3.283150009810924530e+00 2.634065765514975510e+00
1.151018376648426056e+01 5.293499901890754700e-01 -1.566752012818994899e-01
1.150859685242176056e+01 6.381146386265754700e-01 -1.526316221803369899e-01
1.150188298523426056e+01 7.474896386265754700e-01 -1.488627012818994899e-01
1.149529118835926056e+01 8.566204980015754700e-01 -1.451090391725244899e-01
1.148869939148426056e+01 9.650189355015754700e-01 -1.413858946412744899e-01
1.148210759460926056e+01 1.072807021439075470e+00 -1.376627501100244899e-01
1.147734685242176056e+01 1.180473037064075470e+00 -1.339396055787744899e-01
1.148137517273426056e+01 1.286307998001575470e+00 -1.304758604615869899e-01
1.223515935242176056e+01 3.949505761265754700e-01 -1.022776182740869899e-01
1.254973454773426056e+01 4.567181542515754700e-01 -9.605203233658698991e-02
1.254619450867176056e+01 5.761029198765754700e-01 -9.171853624283698991e-02
1.253642888367176056e+01 6.964642480015754700e-01 -8.772073350846198991e-02
1.252678532898426056e+01 8.158490136265754700e-01 -8.375344835221198991e-02
1.251714177429676056e+01 9.347454980015754700e-01 -7.980142198502448991e-02
1.250151677429676056e+01 1.054130263626575470e+00 -7.620034776627448991e-02
1.249016423523426056e+01 1.172050185501575470e+00 -7.230935655533698991e-02
1.226042790710926056e+01 3.883587792515754700e-01 -4.913125596939948991e-02
1.277409978210926056e+01 4.159466698765754700e-01 -3.913674913346198991e-02
1.333952946960926056e+01 4.452435448765754700e-01 -2.818093858658698991e-02
1.373650212585926056e+01 5.117718651890754700e-01 -1.893411241471198991e-02
1.369841618835926056e+01 6.475140526890754700e-01 -1.504312120377448991e-02
1.366069646179676056e+01 7.819134667515754700e-01 -1.118264757096198991e-02
1.362309880554676056e+01 9.157025292515754700e-01 -7.352691516274489913e-03
1.358598943054676056e+01 1.047782607376575470e+00 -3.568511828774489913e-03
1.228935857117176056e+01 3.810345605015754700e-01 4.060882702475510087e-03
1.281035466492176056e+01 4.075238183140754700e-01 1.678671278060051009e-02
1.337932439148426056e+01 4.365765526890754700e-01 3.038229383528801009e-02
1.400591130554676056e+01 4.685589745640754700e-01 4.535116590560051009e-02
1.469426579773426056e+01 5.035931542515754700e-01 6.180014051497551009e-02
1.512480778992176056e+01 5.863568261265754700e-01 7.408346571028801009e-02
1.508354802429676056e+01 7.355267480015754700e-01 7.808126844466301009e-02
1.503508611023426056e+01 8.835980370640754700e-01 8.152975477278801009e-02
1.268034978210926056e+01 3.073040917515754700e-01 6.538595594466301009e-02
1.284660954773426056e+01 3.992230370640754700e-01 7.278646863997551009e-02
1.341924138367176056e+01 4.279095605015754700e-01 8.903707899153801009e-02
1.405010075867176056e+01 4.596478417515754700e-01 1.069203797727880101e-01
1.474333806335926056e+01 4.944378808140754700e-01 1.265889588743505101e-01
1.549614568054676056e+01 5.349652245640754700e-01 1.480275575071630101e-01
1.626250310242176056e+01 5.891644433140754700e-01 1.702748719602880101e-01
1.681706853210926056e+01 6.816937401890754700e-01 1.880971375852880101e-01
2.007329411804676056e+01 -1.051338486373424530e+00 3.085042420774755101e-01
2.057402653992176056e+01 -9.415972754359245300e-01 3.281270448118505101e-01
1.418950505554676056e+01 3.002240136265754700e-01 1.674977723509130101e-01
1.428533025085926056e+01 4.214398339390754700e-01 1.743184510618505101e-01
1.479302068054676056e+01 4.850384667515754700e-01 1.922322694212255101e-01
1.554607243835926056e+01 5.259320214390754700e-01 2.171040955931005101e-01
1.631792302429676056e+01 5.800091698765754700e-01 2.429677430540380101e-01
1.716972966492176056e+01 6.395794823765754700e-01 2.711202088743505101e-01
2.061199040710926056e+01 -1.153755478560924530e+00 4.144154969602880101e-01
2.154521794617176056e+01 -1.113472275435924530e+00 4.491139832884130101e-01
2.261430974304676056e+01 -1.076729111373424530e+00 4.885732118040380101e-01
2.391863103210926056e+01 -1.054146103560924530e+00 5.360433045774755101e-01
1.609099431335926056e+01 2.974163964390754700e-01 2.972585145384130101e-01
1.620110173523426056e+01 4.366986230015754700e-01 3.055135194212255101e-01
1.637346501648426056e+01 5.707318261265754700e-01 3.158284608274755101e-01
1.723210759460926056e+01 6.300579980015754700e-01 3.484517518431005101e-01
2.147832341492176056e+01 -1.316475205123424530e+00 5.363332215696630101e-01
2.247868962585926056e+01 -1.279121689498424530e+00 5.778829041868505101e-01
2.365996403992176056e+01 -1.251289658248424530e+00 6.270009461790380101e-01
2.496330876648426056e+01 -1.217964462935924530e+00 6.806813661009130101e-01
2.652202458679676056e+01 -1.195991806685924530e+00 7.443410340696630101e-01
2.827104802429676056e+01 -1.168403916060924530e+00 8.158742371946630101e-01
2.882866521179676056e+01 -9.590533301234245300e-01 8.440572205931005101e-01
1.860539861023426056e+01 4.729535058140754700e-01 4.744740907102880101e-01
2.236235661804676056e+01 -1.482857041060924530e+00 6.676045838743505101e-01
2.341167302429676056e+01 -1.445015244185924530e+00 7.159139100462255101e-01
2.469182439148426056e+01 -1.424019150435924530e+00 7.740956727415380101e-01
2.614812321960926056e+01 -1.403633408248424530e+00 8.401662293821630101e-01
2.770744939148426056e+01 -1.369942001998424530e+00 9.112721864134130101e-01
2.873393864929676056e+01 -1.234443955123424530e+00 9.614430848509130101e-01
2.904460759460926056e+01 -9.900591894984245300e-01 9.826375428587255101e-01
2.923442693054676056e+01 -7.276080176234245300e-01 9.989491883665380101e-01
2.320366521179676056e+01 -1.641670517623424530e+00 8.047810975462255101e-01
2.444316716492176056e+01 -1.628364853560924530e+00 8.665334168821630101e-01
2.577605290710926056e+01 -1.605537705123424530e+00 9.331685487181005101e-01
2.707854314148426056e+01 -1.550728134810924530e+00 9.992391053587255101e-01
2.840471501648426056e+01 -1.474312119185924530e+00 1.067110199108725510e+00
2.903716130554676056e+01 -1.279365830123424530e+00 1.104066986218100510e+00
2.926274724304676056e+01 -1.021431259810924530e+00 1.122697967663413010e+00
2.946562810242176056e+01 -7.582476660609245300e-01 1.140367645397788010e+00
2.419035954773426056e+01 -1.827583603560924530e+00 9.575368348509130101e-01
2.540715642273426056e+01 -1.800239853560924530e+00 1.024110931530600510e+00
2.673003239929676056e+01 -1.766182236373424530e+00 1.096605438366538010e+00
2.797209782898426056e+01 -1.692451767623424530e+00 1.165865081921225510e+00
2.882890935242176056e+01 -1.539741806685924530e+00 1.216524261608725510e+00
2.925676579773426056e+01 -1.313301376998424530e+00 1.246065277233725510e+00
2.948564763367176056e+01 -1.053535751998424530e+00 1.265794891491538010e+00
3.009099431335926056e+01 -8.334429785609245300e-01 1.304750579968100510e+00
2.525066228210926056e+01 -2.027412705123424530e+00 1.122926849499350510e+00
2.650981755554676056e+01 -1.996773056685924530e+00 1.197603363171225510e+00
2.764031071960926056e+01 -1.919990830123424530e+00 1.266008514538413010e+00
2.852812810242176056e+01 -1.782539658248424530e+00 1.321855682507163010e+00
2.923161931335926056e+01 -1.602241806685924530e+00 1.368074554577475510e+00
2.947868962585926056e+01 -1.347603134810924530e+00 1.389589447155600510e+00
3.007585759460926056e+01 -1.130928330123424530e+00 1.430589813366538010e+00
3.091985173523426056e+01 -9.319537207484245300e-01 1.485567230358725510e+00
2.633598943054676056e+01 -2.232246689498424530e+00 1.300371307507163010e+00
2.750261540710926056e+01 -2.174507431685924530e+00 1.375673431530600510e+00
2.833293767273426056e+01 -2.038276962935924530e+00 1.431139129772788010e+00
2.893352361023426056e+01 -1.849556259810924530e+00 1.474168914929038010e+00
2.947258611023426056e+01 -1.641548447310924530e+00 1.513841766491538010e+00
3.005742497742176056e+01 -1.429512314498424530e+00 1.556505340710288010e+00
3.078288884460926056e+01 -1.222847275435924530e+00 1.608644622936850510e+00
3.225432439148426056e+01 -1.087959580123424530e+00 1.705293792858725510e+00
2.732182927429676056e+01 -2.419136337935924530e+00 1.481157440319663010e+00
2.820378728210926056e+01 -2.301582626998424530e+00 1.544008392468100510e+00
2.884880681335926056e+01 -2.127876572310924530e+00 1.592287201061850510e+00
2.940447087585926056e+01 -1.926948837935924530e+00 1.635225433483725510e+00
3.004448552429676056e+01 -1.728706650435924530e+00 1.683794159069663010e+00
3.075945134460926056e+01 -1.528267197310924530e+00 1.737505096569663010e+00
3.201384587585926056e+01 -1.379829697310924530e+00 1.826402801647788010e+00
3.347185368835926056e+01 -1.231025986373424530e+00 1.929109710827475510e+00
2.806877751648426056e+01 -2.562080673873424530e+00 1.655763763561850510e+00
2.876360173523426056e+01 -2.404243759810924530e+00 1.709367889538413010e+00
2.937187810242176056e+01 -2.218696884810924530e+00 1.758104461804038010e+00
3.004216618835926056e+01 -2.030220322310924530e+00 1.811418670788413010e+00
3.073906560242176056e+01 -1.833687119185924530e+00 1.866838592663413010e+00
3.177275700867176056e+01 -1.668892197310924530e+00 1.945818084850913010e+00
3.303984685242176056e+01 -1.511787705123424530e+00 2.041475433483725510e+00
3.459575505554676056e+01 -1.363960556685924530e+00 2.158617157116538010e+00
2.868877263367176056e+01 -2.681831650435924530e+00 1.827562469616538010e+00
2.934636540710926056e+01 -2.511177353560924530e+00 1.882387298718100510e+00
3.004900212585926056e+01 -2.335274033248424530e+00 1.940813202038413010e+00
3.075224919617176056e+01 -2.144844345748424530e+00 1.999635833874350510e+00
3.163139958679676056e+01 -1.967354111373424530e+00 2.071672577038413010e+00
3.277568669617176056e+01 -1.808418564498424530e+00 2.163622039929038010e+00
3.419646306335926056e+01 -1.660347275435924530e+00 2.276582855358725510e+00
3.548943181335926056e+01 -1.471016220748424530e+00 2.380739349499350510e+00
2.932073064148426056e+01 -2.804024033248424530e+00 2.006868499889975510e+00
3.002458806335926056e+01 -2.634956650435924530e+00 2.067598480358725510e+00
3.075835271179676056e+01 -2.457222275435924530e+00 2.131670135632163010e+00
3.162602849304676056e+01 -2.284981064498424530e+00 2.206545013561850510e+00
3.272856755554676056e+01 -2.130928330123424530e+00 2.300096649304038010e+00
3.391545720398426056e+01 -1.966743759810924530e+00 2.400774139538413010e+00
3.511284489929676056e+01 -1.779487900435924530e+00 2.502855438366538010e+00
3.611345525085926056e+01 -1.547676376998424530e+00 2.590868133679038010e+00
3.003533025085926056e+01 -2.941719345748424530e+00 2.198198455944663010e+00
3.076262517273426056e+01 -2.769478134810924530e+00 2.264848846569663010e+00
3.162261052429676056e+01 -2.605049423873424530e+00 2.342729705944663010e+00
3.271037907898426056e+01 -2.458076767623424530e+00 2.439790863171225510e+00
3.384953923523426056e+01 -2.298408798873424530e+00 2.541597503796225510e+00
3.498845525085926056e+01 -2.116401962935924530e+00 2.643892425671225510e+00
3.597417302429676056e+01 -1.892036728560924530e+00 2.734010833874350510e+00
3.691155095398426056e+01 -1.644478134810924530e+00 2.820512909069663010e+00
3.085613103210926056e+01 -3.099434189498424530e+00 2.406221527233725510e+00
3.166399236023426056e+01 -2.932930283248424530e+00 2.483263153210288010e+00
3.266789861023426056e+01 -2.783150009810924530e+00 2.576906341686850510e+00
3.379277653992176056e+01 -2.631294541060924530e+00 2.682314056530600510e+00
3.491875310242176056e+01 -2.458687119185924530e+00 2.788301605358725510e+00
3.595818181335926056e+01 -2.252510361373424530e+00 2.887209076061850510e+00
3.682182927429676056e+01 -2.003242783248424530e+00 2.972078460827475510e+00
3.773088689148426056e+01 -1.743843369185924530e+00 3.060411590710288010e+00
3.181584782898426056e+01 -3.283272080123424530e+00 2.634691375866538010e+00
3.281352849304676056e+01 -3.140327744185924530e+00 2.732088226452475510e+00
3.382951970398426056e+01 -2.980781845748424530e+00 2.832368988171225510e+00
3.485454411804676056e+01 -2.801582626998424530e+00 2.933946746960288010e+00
3.590459294617176056e+01 -2.607368759810924530e+00 3.038240570202475510e+00
3.680718083679676056e+01 -2.372749619185924530e+00 3.129381317272788010e+00
3.777031560242176056e+01 -2.127144150435924530e+00 3.226549286022788010e+00
3.872820134460926056e+01 -1.863838486373424530e+00 3.324541229382163010e+00
1.148137517273426056e+01 1.286674208939075470e+00 -1.304606016725244899e-01
1.148906560242176056e+01 1.392020888626575470e+00 -1.267679747193994899e-01
1.149187321960926056e+01 1.497733779251575470e+00 -1.233805235475244899e-01
1.149468083679676056e+01 1.603812880814075470e+00 -1.199625547975244899e-01
1.149748845398426056e+01 1.709403701126575470e+00 -1.165751036256494899e-01
1.150029607117176056e+01 1.814872451126575470e+00 -1.131876524537744899e-01
1.150310368835926056e+01 1.920585341751575470e+00 -1.097849424928369899e-01
1.150102849304676056e+01 2.026054091751575470e+00 -1.067026671022119899e-01
1.249101872742176056e+01 1.172416396439075470e+00 -7.227883897721198991e-02
1.246147771179676056e+01 1.291679091751575470e+00 -6.889138780533698991e-02
1.243962712585926056e+01 1.409476943314075470e+00 -6.516824327408698991e-02
1.241313786804676056e+01 1.527518935501575470e+00 -6.178079210221198991e-02
1.238701482117176056e+01 1.644340224564075470e+00 -5.843911729752448991e-02
1.236101384460926056e+01 1.760429091751575470e+00 -5.509744249283698991e-02
1.233061833679676056e+01 1.876517958939075470e+00 -5.210671983658698991e-02
1.230498357117176056e+01 1.991264052689075470e+00 -4.881082139908698991e-02
1.358562321960926056e+01 1.048270888626575470e+00 -3.553253039711989913e-03
1.354399724304676056e+01 1.179862685501575470e+00 -1.810606568994899135e-04
1.352361150085926056e+01 1.308402724564075470e+00 3.481048718100510087e-03
1.350322575867176056e+01 1.436820693314075470e+00 7.143158093100510087e-03
1.348247380554676056e+01 1.564262099564075470e+00 1.075949110091301009e-02
1.346538396179676056e+01 1.690849013626575470e+00 1.440634168685051009e-02
1.344829411804676056e+01 1.817313857376575470e+00 1.806845106185051009e-02
1.343132634460926056e+01 1.942802138626575470e+00 2.168478406966301009e-02
1.503459782898426056e+01 8.842083886265754700e-01 8.154501356185051009e-02
1.499553532898426056e+01 1.030082412064075470e+00 8.552755750716301009e-02
1.495183415710926056e+01 1.175468154251575470e+00 8.906759656966301009e-02
1.495293278992176056e+01 1.316459365189075470e+00 9.344686903060051009e-02
1.495390935242176056e+01 1.456962294876575470e+00 9.779562391341301009e-02
1.495500798523426056e+01 1.597099013626575470e+00 1.021443787962255101e-01
1.490862126648426056e+01 1.740043349564075470e+00 1.055470887571630101e-01
1.483013005554676056e+01 1.882743544876575470e+00 1.078816834837255101e-01
1.681670232117176056e+01 6.823040917515754700e-01 1.881123963743505101e-01
1.678056950867176056e+01 8.458783105015754700e-01 1.921407166868505101e-01
1.671135564148426056e+01 1.011527724564075470e+00 1.953603211790380101e-01
1.663982243835926056e+01 1.176322646439075470e+00 1.984883729368505101e-01
1.663823552429676056e+01 1.333793349564075470e+00 2.032491151243505101e-01
1.660942693054676056e+01 1.492728896439075470e+00 2.073384705931005101e-01
1.658061833679676056e+01 1.651420302689075470e+00 2.114125672727880101e-01
1.655205388367176056e+01 1.808768935501575470e+00 2.154561463743505101e-01
1.717583318054676056e+01 6.395794823765754700e-01 2.713185731321630101e-01
1.815239568054676056e+01 7.033001855015754700e-01 3.040486756712255101e-01
1.882964177429676056e+01 8.141400292515754700e-01 3.284932557493505101e-01
1.873125310242176056e+01 1.002494521439075470e+00 3.311025086790380101e-01
1.864494939148426056e+01 1.187064833939075470e+00 3.339864198118505101e-01
1.864287419617176056e+01 1.364432998001575470e+00 3.392812196165380101e-01
1.864079900085926056e+01 1.542167373001575470e+00 3.445760194212255101e-01
1.862419743835926056e+01 1.719535537064075470e+00 3.489705506712255101e-01
1.723821111023426056e+01 6.299359276890754700e-01 3.486653748899755101e-01
1.825530095398426056e+01 6.901165917515754700e-01 3.867970887571630101e-01
1.917119450867176056e+01 7.798382714390754700e-01 4.221974793821630101e-01
2.027251286804676056e+01 8.730999901890754700e-01 4.643117371946630101e-01
2.147588200867176056e+01 9.802777245640754700e-01 5.105000916868505101e-01
2.154375310242176056e+01 1.181693740189075470e+00 5.189229432493505101e-01
2.144096989929676056e+01 1.393729873001575470e+00 5.215779725462255101e-01
2.133965153992176056e+01 1.602714248001575470e+00 5.242024842649755101e-01
1.860625310242176056e+01 4.734417870640754700e-01 4.745198670774755101e-01
1.873381657898426056e+01 6.384808495640754700e-01 4.845296327024755101e-01
1.924382634460926056e+01 7.703167870640754700e-01 5.094167176634130101e-01
2.035442204773426056e+01 8.634564355015754700e-01 5.569478455931005101e-01
2.153923650085926056e+01 9.725872948765754700e-01 6.079579774290380101e-01
2.276933903992176056e+01 1.102348037064075470e+00 6.613789979368505101e-01
2.415788884460926056e+01 1.248832412064075470e+00 7.211171571165380101e-01
2.503410954773426056e+01 1.443656630814075470e+00 7.621785584837255101e-01
2.923540349304676056e+01 -7.267535254359245300e-01 9.990102235227880101e-01
2.937383122742176056e+01 -4.558795019984245300e-01 1.013124603405600510e+00
2.953935857117176056e+01 -1.850054785609245300e-01 1.028444427624350510e+00
2.194536443054676056e+01 7.294232323765754700e-01 7.140523377806005101e-01
2.210259099304676056e+01 9.287640526890754700e-01 7.269307557493505101e-01
2.286150212585926056e+01 1.093436904251575470e+00 7.658101502806005101e-01
2.428728337585926056e+01 1.238700576126575470e+00 8.340627137571630101e-01
2.565276189148426056e+01 1.413993544876575470e+00 9.004842225462255101e-01
2.946660466492176056e+01 -7.573931738734245300e-01 1.140428680554038010e+00
2.981194157898426056e+01 -5.053179785609245300e-01 1.164781707897788010e+00
3.137724919617176056e+01 -3.598101660609245300e-01 1.246431488171225510e+00
3.386711736023426056e+01 -2.584918066859245300e-01 1.372575897350913010e+00
3.588091130554676056e+01 -7.428770512342453003e-02 1.477541107311850510e+00
3.615874333679676056e+01 2.583538964390754700e-01 1.500856536999350510e+00
3.636223454773426056e+01 6.011273339390754700e-01 1.520799774304038010e+00
2.658232732117176056e+01 1.370902724564075470e+00 1.058946746960288010e+00
3.009404607117176056e+01 -8.328326269984245300e-01 1.304933685436850510e+00
3.115263982117176056e+01 -6.477740332484245300e-01 1.367464203014975510e+00
3.321892400085926056e+01 -5.354693457484245300e-01 1.482439178600913010e+00
3.552251286804676056e+01 -4.005816504359245300e-01 1.610902923718100510e+00
3.612541814148426056e+01 -9.735899418592453003e-02 1.652132171764975510e+00
3.641411443054676056e+01 2.371136620640754700e-01 1.677248138561850510e+00
3.681340642273426056e+01 5.721966698765754700e-01 1.708391327038413010e+00
4.055986638367176056e+01 7.706829980015754700e-01 1.916704315319663010e+00
3.093083806335926056e+01 -9.320757910609245300e-01 1.486208099499350510e+00
3.254900212585926056e+01 -7.964556738734245300e-01 1.584978241100913010e+00
3.470940251648426056e+01 -6.790240332484245300e-01 1.715059417858725510e+00
3.599199528992176056e+01 -4.446490332484245300e-01 1.796907562389975510e+00
3.637212224304676056e+01 -1.205523535609245300e-01 1.828325409069663010e+00
3.695867009460926056e+01 1.976849511265754700e-01 1.871675628796225510e+00
3.857500310242176056e+01 4.740521386265754700e-01 1.974290985241538010e+00
4.102483220398426056e+01 7.451703026890754700e-01 2.125673431530600510e+00
3.226213689148426056e+01 -1.087715439498424530e+00 1.705797332897788010e+00
3.392546696960926056e+01 -9.434283301234245300e-01 1.815080780163413010e+00
3.547368474304676056e+01 -7.554400488734245300e-01 1.917451995983725510e+00
3.630730290710926056e+01 -4.761431738734245300e-01 1.977937835827475510e+00
3.680827946960926056e+01 -1.576617285609245300e-01 2.018465179577475510e+00
3.780864568054676056e+01 1.388470605015754700e-01 2.089983123913413010e+00
4.025066228210926056e+01 3.798138573765754700e-01 2.252168792858725510e+00
4.128374333679676056e+01 7.283245995640754700e-01 2.327211517468100510e+00
3.348662419617176056e+01 -1.231636337935924530e+00 1.930101532116538010e+00
3.496892400085926056e+01 -1.056465439498424530e+00 2.035539764538413010e+00
3.596050114929676056e+01 -8.062212988734245300e-01 2.109712738171225510e+00
3.663469548523426056e+01 -5.088580176234245300e-01 2.163622039929038010e+00
3.749785466492176056e+01 -2.135699316859245300e-01 2.230302948132163010e+00
3.914739079773426056e+01 4.888124018907546997e-02 2.349489349499350510e+00
4.093425603210926056e+01 3.378216698765754700e-01 2.478700775280600510e+00
4.159673161804676056e+01 7.091595605015754700e-01 2.533846038952475510e+00
3.460527653992176056e+01 -1.363960556685924530e+00 2.159303802624350510e+00
3.571562810242176056e+01 -1.139107041060924530e+00 2.245042938366538010e+00
3.646123357117176056e+01 -8.583453223109245300e-01 2.306673187389975510e+00
3.730901189148426056e+01 -5.705035254359245300e-01 2.375902313366538010e+00
3.854778142273426056e+01 -2.959673926234245300e-01 2.473116058483725510e+00
4.028899236023426056e+01 -2.899961918592453003e-02 2.606538910046225510e+00
4.144194646179676056e+01 3.051068261265754700e-01 2.699144500866538010e+00
4.257353825867176056e+01 6.610638573765754700e-01 2.791811126843100510e+00
3.549883122742176056e+01 -1.470894150435924530e+00 2.381471771374350510e+00
3.628349919617176056e+01 -1.203438095748424530e+00 2.449098724499350510e+00
3.714824528992176056e+01 -9.281695410609245300e-01 2.523119110241538010e+00
3.812419743835926056e+01 -6.441119238734245300e-01 2.605943817272788010e+00
3.970110173523426056e+01 -3.862994238734245300e-01 2.734422821179038010e+00
4.101897282898426056e+01 -8.100157231092453003e-02 2.844164032116538010e+00
4.218218083679676056e+01 2.596966698765754700e-01 2.942949432507163010e+00
4.401213689148426056e+01 5.927044823765754700e-01 3.092943328991538010e+00
3.612053532898426056e+01 -1.547310166060924530e+00 2.591463226452475510e+00
3.706365056335926056e+01 -1.289985947310924530e+00 2.674410003796225510e+00
3.794060368835926056e+01 -1.008003525435924530e+00 2.753481048718100510e+00
3.914201970398426056e+01 -7.348101660609245300e-01 2.858842987194663010e+00
4.069597478210926056e+01 -4.652789160609245300e-01 2.992891449108725510e+00
4.196086736023426056e+01 -1.467974707484245300e-01 3.104631561413413010e+00
4.333769841492176056e+01 1.918255761265754700e-01 3.226030487194663010e+00
4.510796208679676056e+01 5.388714745640754700e-01 3.380891937389975510e+00
3.691863103210926056e+01 -1.643989853560924530e+00 2.821138519421225510e+00
3.783647771179676056e+01 -1.376045517623424530e+00 2.907335418835288010e+00
3.892754216492176056e+01 -1.106514267623424530e+00 3.008516449108725510e+00
4.024187321960926056e+01 -8.328326269984245300e-01 3.129091400280600510e+00
4.171550603210926056e+01 -5.464556738734245300e-01 3.263734954968100510e+00
4.309990544617176056e+01 -2.255328223109245300e-01 3.391588348522788010e+00
4.457268376648426056e+01 1.194378808140754700e-01 3.527681488171225510e+00
4.597014470398426056e+01 4.949261620640754700e-01 3.658083099499350510e+00
3.773796696960926056e+01 -1.743355087935924530e+00 3.061082977429038010e+00
3.882817693054676056e+01 -1.485176376998424530e+00 3.166841644421225510e+00
4.011540837585926056e+01 -1.224067978560924530e+00 3.289644378796225510e+00
4.149236150085926056e+01 -9.437945410609245300e-01 3.422029632702475510e+00
4.287273259460926056e+01 -6.381304785609245300e-01 3.555376190319663010e+00
4.432219548523426056e+01 -3.097613379359245300e-01 3.695589203014975510e+00
4.573833318054676056e+01 5.034608393907546997e-02 3.834688324108725510e+00
4.736711736023426056e+01 4.272992089390754700e-01 3.992494720593100510e+00
3.873576970398426056e+01 -1.863350205123424530e+00 3.325273651257163010e+00
3.998027653992176056e+01 -1.611275009810924530e+00 3.449632782116538010e+00
4.141142888367176056e+01 -1.352241806685924530e+00 3.592943328991538010e+00
4.275993962585926056e+01 -1.056709580123424530e+00 3.729265350475913010e+00
4.409416814148426056e+01 -7.349322363734245300e-01 3.864885467663413010e+00
4.559538884460926056e+01 -3.976519629359245300e-01 4.016863006725913010e+00
4.715581364929676056e+01 -3.266172856092453003e-02 4.175203460827475510e+00
4.872600407898426056e+01 3.610150292515754700e-01 4.336366790905600510e+00
1.150102849304676056e+01 2.026420302689075470e+00 -1.066874083131494899e-01
1.150261540710926056e+01 2.131644912064075470e+00 -1.033762510865869899e-01
1.148796696960926056e+01 2.237235732376575470e+00 -1.004465635865869899e-01
1.147258611023426056e+01 2.342826552689075470e+00 -9.751687608658698991e-02
1.145830388367176056e+01 2.447807021439075470e+00 -9.460244737564948991e-02
1.144402165710926056e+01 2.552543349564075470e+00 -9.170327745377448991e-02
1.142973943054676056e+01 2.657279677689075470e+00 -8.878884874283698991e-02
1.141179509460926056e+01 2.761283583939075470e+00 -8.619485460221198991e-02
1.230473943054676056e+01 1.991630263626575470e+00 -4.879556261002448991e-02
1.227434392273426056e+01 2.105888076126575470e+00 -4.589639268814948991e-02
1.226091618835926056e+01 2.219169326126575470e+00 -4.250894151627448991e-02
1.225786443054676056e+01 2.332450576126575470e+00 -3.928933702408698991e-02
1.225493474304676056e+01 2.445243544876575470e+00 -3.606973253189948991e-02
1.225200505554676056e+01 2.557914443314075470e+00 -3.285012803971198991e-02
1.224468083679676056e+01 2.670951552689075470e+00 -2.996621690689948991e-02
1.224162907898426056e+01 2.783500380814075470e+00 -2.676187120377448991e-02
1.343120427429676056e+01 1.943290419876575470e+00 2.170004285872551009e-02
1.340849919617176056e+01 2.068534560501575470e+00 2.491964735091301009e-02
1.337370915710926056e+01 2.193534560501575470e+00 2.792562879622551009e-02
1.336308903992176056e+01 2.318046279251575470e+00 3.132833875716301009e-02
1.334062810242176056e+01 2.441947646439075470e+00 3.450216688216301009e-02
1.331828923523426056e+01 2.565360732376575470e+00 3.767599500716301009e-02
1.329582829773426056e+01 2.688651748001575470e+00 4.083456434310051009e-02
1.327361150085926056e+01 2.811210341751575470e+00 4.399313367903801009e-02
1.482988591492176056e+01 1.883231826126575470e+00 1.078969422727880101e-01
1.476494450867176056e+01 2.023734755814075470e+00 1.108571473509130101e-01
1.468962712585926056e+01 2.163261123001575470e+00 1.132222596556005101e-01
1.467986150085926056e+01 2.300956435501575470e+00 1.169759217649755101e-01
1.467241521179676056e+01 2.437919326126575470e+00 1.207448426634130101e-01
1.466484685242176056e+01 2.574760146439075470e+00 1.245290223509130101e-01
1.465727849304676056e+01 2.711845107376575470e+00 1.283132020384130101e-01
1.463921208679676056e+01 2.847953505814075470e+00 1.315022889524755101e-01
1.655193181335926056e+01 1.809257216751575470e+00 2.154714051634130101e-01
1.651701970398426056e+01 1.966117568314075470e+00 2.190572205931005101e-01
1.648222966492176056e+01 2.122123427689075470e+00 2.226277772337255101e-01
1.642754216492176056e+01 2.278251357376575470e+00 2.256642762571630101e-01
1.636516423523426056e+01 2.432792373001575470e+00 2.284718934446630101e-01
1.630327458679676056e+01 2.586112685501575470e+00 2.312337342649755101e-01
1.624175114929676056e+01 2.738578505814075470e+00 2.339955750852880101e-01
1.618096013367176056e+01 2.889457412064075470e+00 2.367268983274755101e-01
1.862407536804676056e+01 1.720145888626575470e+00 3.490010682493505101e-01
1.862810368835926056e+01 1.896415419876575470e+00 3.546163026243505101e-01
1.861748357117176056e+01 2.073051162064075470e+00 3.593617860227880101e-01
1.860686345398426056e+01 2.250053115189075470e+00 3.641225282102880101e-01
1.859636540710926056e+01 2.426200576126575470e+00 3.688527528196630101e-01
1.858598943054676056e+01 2.602103896439075470e+00 3.735829774290380101e-01
1.857536931335926056e+01 2.778495498001575470e+00 3.783284608274755101e-01
1.855058903992176056e+01 2.953544326126575470e+00 3.821431580931005101e-01
2.133904118835926056e+01 1.603324599564075470e+00 5.242024842649755101e-01
2.123186345398426056e+01 1.810355849564075470e+00 5.263081971556005101e-01
2.116545720398426056e+01 2.014213271439075470e+00 5.297872010618505101e-01
2.111821599304676056e+01 2.217094130814075470e+00 5.339375916868505101e-01
2.107134099304676056e+01 2.418510146439075470e+00 5.380422059446630101e-01
2.102471013367176056e+01 2.618827529251575470e+00 5.421315614134130101e-01
2.097820134460926056e+01 2.818900771439075470e+00 5.462056580931005101e-01
2.093193669617176056e+01 3.017387099564075470e+00 5.502644959837255101e-01
2.503252263367176056e+01 1.444511123001575470e+00 7.621480409056005101e-01
2.482304997742176056e+01 1.691703505814075470e+00 7.607900086790380101e-01
2.474162907898426056e+01 1.931693740189075470e+00 7.649861756712255101e-01
2.463335271179676056e+01 2.171195693314075470e+00 7.674886170774755101e-01
2.461235661804676056e+01 2.407523818314075470e+00 7.734242860227880101e-01
2.459136052429676056e+01 2.643485732376575470e+00 7.793446961790380101e-01
2.454241032898426056e+01 2.879203505814075470e+00 7.835408631712255101e-01
2.452153630554676056e+01 3.113944716751575470e+00 7.894307557493505101e-01
2.566289372742176056e+01 1.414359755814075470e+00 9.009572450071630101e-01
2.725420232117176056e+01 1.609550185501575470e+00 9.779683534056005101e-01
2.888274236023426056e+01 1.835624404251575470e+00 1.057542938366538010e+00
2.891069646179676056e+01 2.114921279251575470e+00 1.066805023327475510e+00
2.869206853210926056e+01 2.394462294876575470e+00 1.065004486218100510e+00
2.849358220398426056e+01 2.669730849564075470e+00 1.063966888561850510e+00
2.829082341492176056e+01 2.941825576126575470e+00 1.062669891491538010e+00
2.820891423523426056e+01 3.212333388626575470e+00 1.066743988171225510e+00
2.658367009460926056e+01 1.371757216751575470e+00 1.059038299694663010e+00
2.743559880554676056e+01 1.600028701126575470e+00 1.107729095593100510e+00
2.900359196960926056e+01 1.829032607376575470e+00 1.191866058483725510e+00
3.080351872742176056e+01 2.087455458939075470e+00 1.288332122936850510e+00
3.260747380554676056e+01 2.380668349564075470e+00 1.385988372936850510e+00
3.448589177429676056e+01 2.710380263626575470e+00 1.488374847546225510e+00
3.501506657898426056e+01 3.055350966751575470e+00 1.524431366100913010e+00
3.444487614929676056e+01 3.379569716751575470e+00 1.505495208874350510e+00
4.056865544617176056e+01 7.716595605015754700e-01 1.917207855358725510e+00
4.112822575867176056e+01 1.148856826126575470e+00 1.958269256725913010e+00
4.139116521179676056e+01 1.543998427689075470e+00 1.983797210827475510e+00
4.463030095398426056e+01 1.907890029251575470e+00 2.169466156139975510e+00
3.311138005554676056e+01 2.375053115189075470e+00 1.559572357311850510e+00
3.462578435242176056e+01 2.707084365189075470e+00 1.651003021374350510e+00
3.669304509460926056e+01 3.079887099564075470e+00 1.773515838757163010e+00
