2.163814635574817657e+01 -3.233066859189420938e+00 1.455954268202191315e+00
2.247078795731067657e+01 -3.241001429501920938e+00 1.526129439100628815e+00
2.341622252762317657e+01 -3.260776820126920938e+00 1.605627730116253815e+00
2.436348815262317657e+01 -3.262852015439420938e+00 1.685583784803753815e+00
2.518819518387317657e+01 -3.216831507626920938e+00 1.756064131483441315e+00
2.587044616043567657e+01 -3.121006312314420938e+00 1.815375044569378815e+00
2.649276061356067657e+01 -3.000034632626920938e+00 1.870077803358441315e+00
2.174507994949817657e+01 -3.487461390439420938e+00 1.558966353163128815e+00
2.258651061356067657e+01 -3.504673304501920938e+00 1.633536055311566315e+00
2.353133483231067657e+01 -3.532871546689420938e+00 1.716528609022503815e+00
2.444808287918567657e+01 -3.533970179501920938e+00 1.798025801405316315e+00
2.527779479324817657e+01 -3.495762171689420938e+00 1.872458174452191315e+00
2.591451354324817657e+01 -3.395054163876920938e+00 1.930731489881878815e+00
2.654012389481067657e+01 -3.278843226376920938e+00 1.988943770155316315e+00
2.710030455887317657e+01 -3.137241663876920938e+00 2.041113569960003815e+00
2.273311705887317657e+01 -3.781162562314420938e+00 1.745291426405316315e+00
2.367794127762317657e+01 -3.816929163876920938e+00 1.832449629530316315e+00
2.457747741043567657e+01 -3.821323695126920938e+00 1.916418745741253815e+00
2.535616393387317657e+01 -3.775303187314420938e+00 1.989874556288128815e+00
2.596248717606067657e+01 -3.671665492001920938e+00 2.048117354139691315e+00
2.658248229324817657e+01 -3.559727015439420938e+00 2.107763960585003815e+00
2.717623229324817657e+01 -3.429111781064420938e+00 2.165274336561566315e+00
2.775460143387317657e+01 -3.284824671689420938e+00 2.222204878553753815e+00
1.057466979324817657e+01 5.031391954980790615e-01 -1.516354534774961849e-01
1.094539733231067657e+01 5.229145861230790615e-01 -1.478054974228086849e-01
1.134554381668567657e+01 5.443989611230790615e-01 -1.439297650009336849e-01
1.162142272293567657e+01 5.970112658105790615e-01 -1.399624798446836849e-01
1.160091491043567657e+01 7.061421251855790615e-01 -1.364376995712461849e-01
1.157650084793567657e+01 8.151509142480790615e-01 -1.329281780868711849e-01
1.155220885574817657e+01 9.235493517480790615e-01 -1.294491741806211849e-01
1.152340026199817657e+01 1.031459507998079062e+00 -1.262753460556211849e-01
1.059847350418567657e+01 4.964253283105790615e-01 -1.081021282821836849e-01
1.097103209793567657e+01 5.160786486230790615e-01 -1.028225872665586849e-01
1.137349791824817657e+01 5.373188829980790615e-01 -9.688691832124618486e-02
1.181087584793567657e+01 5.603901720605790615e-01 -9.069184996187118486e-02
1.228463073074817657e+01 5.854145861230790615e-01 -8.397798277437118486e-02
1.250631041824817657e+01 6.610981798730790615e-01 -7.872895933687118486e-02
1.248848815262317657e+01 7.780415392480790615e-01 -7.535676695405868486e-02
1.247652526199817657e+01 8.930317736230790615e-01 -7.169465757905868486e-02
1.062239928543567657e+01 4.895893908105790615e-01 -6.430940367280868486e-02
1.099691100418567657e+01 5.091206408105790615e-01 -5.733613707124618486e-02
1.140157409012317657e+01 5.301167345605790615e-01 -4.981355406343368486e-02
1.184151549637317657e+01 5.529438829980790615e-01 -4.163484312593368486e-02
1.231807799637317657e+01 5.778462267480790615e-01 -3.276948668062118486e-02
1.286568541824817657e+01 6.003071642480790615e-01 -2.277497984468368486e-02
1.338472838699817657e+01 6.383931017480790615e-01 -1.274995543062118486e-02
1.359102721512317657e+01 7.311665392480790615e-01 -6.264970079058684860e-03
1.119649596512317657e+01 3.641011095605790615e-01 -1.246003843843368486e-02
1.125753112137317657e+01 4.539448595605790615e-01 -8.065507188433684860e-03
1.142989440262317657e+01 5.229145861230790615e-01 -2.206132188433684860e-03
1.187239928543567657e+01 5.454975939355790615e-01 8.001997694378815140e-03
1.235201354324817657e+01 5.700337267480790615e-01 1.906461976469131514e-02
1.291939635574817657e+01 5.895649767480790615e-01 3.186674378812881514e-02
1.342208190262317657e+01 6.307026720605790615e-01 4.395170472562881514e-02
1.399141784012317657e+01 6.717182970605790615e-01 5.713529847562881514e-02
1.727205748856067657e+01 -9.501078748144209385e-01 1.515261676162538151e-01
1.785933776199817657e+01 -9.053080701269209385e-01 1.681582476943788151e-01
1.230184264481067657e+01 3.509175158105790615e-01 6.230802796781631514e-02
1.236922545731067657e+01 4.518696642480790615e-01 6.716032288969131514e-02
1.243697448074817657e+01 5.534321642480790615e-01 7.202787660062881514e-02
1.297493834793567657e+01 5.785786486230790615e-01 8.676786683500381514e-02
1.345955748856067657e+01 6.230122423730790615e-01 1.007296588271913151e-01
1.403267760574817657e+01 6.637837267480790615e-01 1.168581988662538151e-01
1.801924987137317657e+01 -1.114414515439420938e+00 2.441317584365663151e-01
1.832589049637317657e+01 -1.004185023251920938e+00 2.571932818740663151e-01
1.900325866043567657e+01 -9.607279920019209385e-01 2.791506793350038151e-01
1.989144225418567657e+01 -9.422953748144209385e-01 3.068148639053163151e-01
2.073348326981067657e+01 -8.987162732519209385e-01 3.338076617568788151e-01
1.373531432449817657e+01 4.516255236230790615e-01 1.605593707412538151e-01
1.381075377762317657e+01 5.669819689355790615e-01 1.662966754287538151e-01
1.407405944168567657e+01 6.558491564355790615e-01 1.766726519912538151e-01
1.835506530106067657e+01 -1.189976038876920938e+00 3.323733355850038151e-01
1.895626159012317657e+01 -1.136997523251920938e+00 3.549716021865663151e-01
1.983443541824817657e+01 -1.126255335751920938e+00 3.860537555068788151e-01
2.056539244949817657e+01 -1.070225062314420938e+00 4.132906939834413151e-01
2.160042662918567657e+01 -1.053623499814420938e+00 4.500338580459413151e-01
2.265035338699817657e+01 -1.018955531064420938e+00 4.878146197646913151e-01
2.396798034012317657e+01 -1.004185023251920938e+00 5.343997027725038151e-01
2.537142272293567657e+01 -9.765971326269209385e-01 5.843722369521913151e-01
1.890926451981067657e+01 -1.312900843564420938e+00 4.307009723037538151e-01
1.975496764481067657e+01 -1.304600062314420938e+00 4.643923785537538151e-01
2.045589537918567657e+01 -1.251133265439420938e+00 4.941012408584413151e-01
2.140511412918567657e+01 -1.229160609189420938e+00 5.322787310928163151e-01
2.243355651199817657e+01 -1.202915492001920938e+00 5.737216021865663151e-01
2.362960143387317657e+01 -1.183872523251920938e+00 6.215884234756288151e-01
2.480123229324817657e+01 -1.136631312314420938e+00 6.687075641006288151e-01
2.618868346512317657e+01 -1.098301234189420938e+00 7.246615435928163151e-01
1.966524596512317657e+01 -1.479893031064420938e+00 5.424258258193788151e-01
2.034615416824817657e+01 -1.429844202939420938e+00 5.738131549209413151e-01
2.120809264481067657e+01 -1.401768031064420938e+00 6.126009967178163151e-01
2.223445983231067657e+01 -1.386387171689420938e+00 6.582705523818788151e-01
2.329891295731067657e+01 -1.358066859189420938e+00 7.059847857803163151e-01
2.446004576981067657e+01 -1.324497523251920938e+00 7.581088092178163151e-01
2.581771178543567657e+01 -1.297764124814420938e+00 8.187167193740663151e-01
2.655831237137317657e+01 -1.155674281064420938e+00 8.552615191787538151e-01
2.023983092606067657e+01 -1.607700648251920938e+00 6.530520465225038151e-01
2.103878112137317657e+01 -1.576084437314420938e+00 6.927401568740663151e-01
2.202437682449817657e+01 -1.565220179501920938e+00 7.409579303115663151e-01
2.300740905106067657e+01 -1.533481898251920938e+00 7.895876910537538151e-01
2.416866393387317657e+01 -1.514194788876920938e+00 8.465640094131288151e-01
2.536910338699817657e+01 -1.478428187314420938e+00 9.058749224990663151e-01
2.629659362137317657e+01 -1.375767054501920938e+00 9.536959674209413151e-01
2.681575866043567657e+01 -1.196934046689420938e+00 9.837100055068788151e-01
2.093257994949817657e+01 -1.761387171689420938e+00 7.752444293350038151e-01
2.182515807449817657e+01 -1.741977992001920938e+00 8.232028033584413151e-01
2.280062194168567657e+01 -1.721103968564420938e+00 8.756014849990663151e-01
2.386507506668567657e+01 -1.696567835751920938e+00 9.328372027725038151e-01
2.493636412918567657e+01 -1.652744593564420938e+00 9.909121539443788151e-01
2.593184752762317657e+01 -1.575352015439420938e+00 1.045843794569378815e+00
2.664376159012317657e+01 -1.433628382626920938e+00 1.087347700819378815e+00
2.701314635574817657e+01 -1.229404749814420938e+00 1.112250044569378815e+00
2.171749205887317657e+01 -1.935337367001920938e+00 9.083315875381288151e-01
2.268123717606067657e+01 -1.922519984189420938e+00 9.642550494521913151e-01
2.367403502762317657e+01 -1.896274867001920938e+00 1.022192671522503815e+00
2.472481627762317657e+01 -1.860264124814420938e+00 1.083716109022503815e+00
2.559151549637317657e+01 -1.771885218564420938e+00 1.135916426405316315e+00
2.637789244949817657e+01 -1.653232874814420938e+00 1.184256270155316315e+00
2.699898619949817657e+01 -1.492832484189420938e+00 1.224096968397503815e+00
2.721260924637317657e+01 -1.262363734189420938e+00 1.242178633436566315e+00
2.258077330887317657e+01 -2.126621546689420938e+00 1.053824141249066315e+00
2.354280944168567657e+01 -2.104648890439420938e+00 1.114248945936566315e+00
2.458773131668567657e+01 -2.079746546689420938e+00 1.179312422499066315e+00
2.548067565262317657e+01 -2.004917445126920938e+00 1.236685469374066315e+00
2.619893737137317657e+01 -1.882725062314420938e+00 1.284323408827191315e+00
2.672628112137317657e+01 -1.715000452939420938e+00 1.321188643202191315e+00
2.720919127762317657e+01 -1.529575648251920938e+00 1.356360151991253815e+00
2.766195006668567657e+01 -1.331699671689420938e+00 1.389334395155316315e+00
2.342427916824817657e+01 -2.313877406064420938e+00 1.205771162733441315e+00
2.445967955887317657e+01 -2.298374476376920938e+00 1.275274946913128815e+00
2.535860534012317657e+01 -2.235386195126920938e+00 1.336767866835003815e+00
2.608895201981067657e+01 -2.122349085751920938e+00 1.388174727186566315e+00
2.662703795731067657e+01 -1.962192835751920938e+00 1.427847578749066315e+00
2.711568541824817657e+01 -1.783603968564420938e+00 1.464651777967816315e+00
2.765084166824817657e+01 -1.602329554501920938e+00 1.504614546522503815e+00
2.822664733231067657e+01 -1.417881312314420938e+00 1.547384932264691315e+00
2.433260436356067657e+01 -2.515537562314420938e+00 1.370566084608441315e+00
2.522860045731067657e+01 -2.461826624814420938e+00 1.435095503553753815e+00
2.597371764481067657e+01 -2.360630335751920938e+00 1.490515425428753815e+00
2.655379576981067657e+01 -2.213169398251920938e+00 1.535193159803753815e+00
2.705904479324817657e+01 -2.042515101376920938e+00 1.575079634413128815e+00
2.764681334793567657e+01 -1.876011195126920938e+00 1.620749190077191315e+00
2.821614928543567657e+01 -1.694614710751920938e+00 1.665442183241253815e+00
2.897310729324817657e+01 -1.530796351376920938e+00 1.723791792616253815e+00
2.508004088699817657e+01 -2.682407679501920938e+00 1.531973555311566315e+00
2.585396666824817657e+01 -2.595737757626920938e+00 1.592581465467816315e+00
2.648116393387317657e+01 -2.464878382626920938e+00 1.643011763319378815e+00
2.703975768387317657e+01 -2.308262171689420938e+00 1.688788130506878815e+00
2.765584655106067657e+01 -2.152012171689420938e+00 1.738913252577191315e+00
2.822322936356067657e+01 -1.975986781064420938e+00 1.785788252577191315e+00
2.896712584793567657e+01 -1.815952601376920938e+00 1.845709517225628815e+00
2.991158385574817657e+01 -1.671787562314420938e+00 1.920492842420941315e+00
2.579976744949817657e+01 -2.843540492001920938e+00 1.698981001600628815e+00
2.643843932449817657e+01 -2.721348109189420938e+00 1.752279951795941315e+00
2.701534362137317657e+01 -2.574497523251920938e+00 1.801733687147503815e+00
2.763277526199817657e+01 -2.423374476376920938e+00 1.854544356092816315e+00
2.823287291824817657e+01 -2.258213343564420938e+00 1.906241133436566315e+00
2.897615905106067657e+01 -2.105625452939420938e+00 1.969198897108441315e+00
2.984334655106067657e+01 -1.957065882626920938e+00 2.042029097303753815e+00
3.089656920731067657e+01 -1.819980921689420938e+00 2.130316450819378815e+00
2.649666686356067657e+01 -3.000034632626920938e+00 1.870398237928753815e+00
2.702877135574817657e+01 -2.848423304501920938e+00 1.918661787733441315e+00
2.761080260574817657e+01 -2.696445765439420938e+00 1.971167280897503815e+00
2.824581237137317657e+01 -2.542393031064420938e+00 2.028219893202191315e+00
2.898104186356067657e+01 -2.394932093564420938e+00 2.093649580702191315e+00
2.983162780106067657e+01 -2.252476038876920938e+00 2.168783858045941315e+00
3.088350768387317657e+01 -2.124180140439420938e+00 2.260733320936566315e+00
3.191292662918567657e+01 -1.973057093564420938e+00 2.351233198866253815e+00
2.710360045731067657e+01 -3.136997523251920938e+00 2.041403486952191315e+00
2.767403502762317657e+01 -2.987095179501920938e+00 2.095373823866253815e+00
2.827547545731067657e+01 -2.832310023251920938e+00 2.151526167616253815e+00
2.898201842606067657e+01 -2.684849085751920938e+00 2.217611983045941315e+00
2.983199401199817657e+01 -2.550083460751920938e+00 2.296286299452191315e+00
3.083724303543567657e+01 -2.424717249814420938e+00 2.388678267225628815e+00
3.185567565262317657e+01 -2.280918421689420938e+00 2.483374312147503815e+00
3.287239928543567657e+01 -2.118076624814420938e+00 2.577551558241253815e+00
2.775826354324817657e+01 -3.284702601376920938e+00 2.222525313124066315e+00
2.838668151199817657e+01 -3.139927210751920938e+00 2.283652022108441315e+00
2.907332701981067657e+01 -2.994663538876920938e+00 2.350928023085003815e+00
2.988778014481067657e+01 -2.859165492001920938e+00 2.430060103163128815e+00
3.079769225418567657e+01 -2.725742640439420938e+00 2.518118574842816315e+00
3.180672545731067657e+01 -2.591221156064420938e+00 2.615515425428753815e+00
3.281722350418567657e+01 -2.436191859189420938e+00 2.713446333631878815e+00
3.376278014481067657e+01 -2.253330531064420938e+00 2.806585982069378815e+00
1.152327819168567657e+01 1.031825718935579062e+00 -1.262600872665586849e-01
1.149849791824817657e+01 1.138271031435579062e+00 -1.229031536728086849e-01
1.146883483231067657e+01 1.244594273623079062e+00 -1.198361370712461849e-01
1.145308776199817657e+01 1.348842320498079062e+00 -1.167386028915586849e-01
1.143904967606067657e+01 1.452113804873079062e+00 -1.136563275009336849e-01
1.142513366043567657e+01 1.554897007998079062e+00 -1.105893108993711849e-01
1.141121764481067657e+01 1.657436070498079062e+00 -1.075222942978086849e-01
1.139266295731067657e+01 1.759486851748079062e+00 -1.047604534774961849e-01
1.247652526199817657e+01 8.933979845605790615e-01 -7.167939878999618486e-02
1.245821471512317657e+01 1.008754429873079062e+00 -6.839875914155868486e-02
1.243758483231067657e+01 1.123622593935579062e+00 -6.488923765718368486e-02
1.240609069168567657e+01 1.239589390810579062e+00 -6.174592711030868486e-02
1.240132994949817657e+01 1.351405797060579062e+00 -5.840425230562118486e-02
1.237850280106067657e+01 1.464687047060579062e+00 -5.523042418062118486e-02
1.232918639481067657e+01 1.579799351748079062e+00 -5.259065367280868486e-02
1.228719420731067657e+01 1.692836461123079062e+00 -4.966096617280868486e-02
1.359078307449817657e+01 7.316548204980790615e-01 -6.249711289996184860e-03
1.354415221512317657e+01 8.620259142480790615e-01 -3.136918321246184860e-03
1.349800963699817657e+01 9.911763048730790615e-01 -3.938414155868485977e-05
1.345211119949817657e+01 1.119472203310579062e+00 3.042891249066315140e-03
1.340682311356067657e+01 1.246059117373079062e+00 6.064131483441315140e-03
1.340157409012317657e+01 1.367763218935579062e+00 9.619429335003815140e-03
1.339986510574817657e+01 1.489345250185579062e+00 1.322050355375381514e-02
1.339815612137317657e+01 1.610072789248079062e+00 1.680631898344131514e-02
1.399544616043567657e+01 6.714741564355790615e-01 5.722685121000381514e-02
1.461983580887317657e+01 7.163960314355790615e-01 7.207365296781631514e-02
1.484212584793567657e+01 8.232075548730790615e-01 7.991667054594131514e-02
1.477950377762317657e+01 9.671284533105790615e-01 8.281584046781631514e-02
1.471773619949817657e+01 1.108852086123079062e+00 8.568449281156631514e-02
1.465670104324817657e+01 1.248988804873079062e+00 8.850736878812881514e-02
1.465096373856067657e+01 1.383510289248079062e+00 9.233732484281631514e-02
1.464229674637317657e+01 1.517299351748079062e+00 9.577055238187881514e-02
1.403682799637317657e+01 6.635395861230790615e-01 1.169650103896913151e-01
1.466524596512317657e+01 7.082173204980790615e-01 1.344210650771913151e-01
1.535762877762317657e+01 7.574116564355790615e-01 1.536471392959413151e-01
1.613594909012317657e+01 8.110005236230790615e-01 1.752230670303163151e-01
1.627938170731067657e+01 9.452778673730790615e-01 1.827914264053163151e-01
1.621395201981067657e+01 1.101527867373079062e+00 1.856295611709413151e-01
1.613070006668567657e+01 1.258144078310579062e+00 1.880099322646913151e-01
1.612386412918567657e+01 1.406703648623079062e+00 1.921298053115663151e-01
1.407820983231067657e+01 6.556050158105790615e-01 1.767947223037538151e-01
1.471114440262317657e+01 7.000386095605790615e-01 1.975619342178163151e-01
1.540853209793567657e+01 7.489888048730790615e-01 2.200839068740663151e-01
1.617501159012317657e+01 8.044087267480790615e-01 2.448946978896913151e-01
1.695015807449817657e+01 8.735005236230790615e-01 2.703463580459413151e-01
1.782540221512317657e+01 9.485737658105790615e-01 2.990176226943788151e-01
1.838826842606067657e+01 1.067592320498079062e+00 3.194491412490663151e-01
1.833297057449817657e+01 1.242274937685579062e+00 3.223177935928163151e-01
2.538228698074817657e+01 -9.773295545019209385e-01 5.847384478896913151e-01
1.550692076981067657e+01 5.912739611230790615e-01 2.841708209365663151e-01
1.559688659012317657e+01 7.234761095605790615e-01 2.909914996475038151e-01
1.621407409012317657e+01 7.976948595605790615e-01 3.145968463271913151e-01
1.700862975418567657e+01 8.651997423730790615e-01 3.441836383193788151e-01
1.789083190262317657e+01 9.401509142480790615e-01 3.770358111709413151e-01
1.887960143387317657e+01 1.024013218935579062e+00 4.138552691787538151e-01
1.985225768387317657e+01 1.128017125185579062e+00 4.506899859756288151e-01
2.619393248856067657e+01 -1.098301234189420938e+00 7.248751666396913151e-01
2.662777037918567657e+01 -9.043315076269209385e-01 7.473055865615663151e-01
2.680269713699817657e+01 -6.699565076269209385e-01 7.612673785537538151e-01
1.760555358231067657e+01 6.369282579980790615e-01 4.341952349990663151e-01
1.771090026199817657e+01 7.898823595605790615e-01 4.425417926162538151e-01
1.795711608231067657e+01 9.314839220605790615e-01 4.561373736709413151e-01
1.897042174637317657e+01 1.014003453310579062e+00 4.979617144912538151e-01
1.992586608231067657e+01 1.120082554873079062e+00 5.385500933975038151e-01
2.656185241043567657e+01 -1.155308070126920938e+00 8.554293658584413151e-01
2.682186217606067657e+01 -9.343608045019209385e-01 8.728396441787538151e-01
2.700789733231067657e+01 -6.993754529394209385e-01 8.873507525771913151e-01
2.713240905106067657e+01 -4.532817029394209385e-01 8.994662310928163151e-01
2.725753112137317657e+01 -2.062113904394209385e-01 9.116274859756288151e-01
2.818416686356067657e+01 -3.250533575192093849e-02 9.570986773818788151e-01
3.114803405106067657e+01 -1.089889043942093849e-02 1.088171675428753815e+00
2.063094420731067657e+01 1.065395054873079062e+00 6.541201617568788151e-01
2.681685729324817657e+01 -1.196201624814420938e+00 9.837862994521913151e-01
2.701802916824817657e+01 -9.646342420019209385e-01 9.996859576553163151e-01
2.721651549637317657e+01 -7.291606091894209385e-01 1.015555098280316315e+00
2.747896666824817657e+01 -4.967387341894209385e-01 1.034445479139691315e+00
2.817025084793567657e+01 -3.050883435644209385e-01 1.073111250624066315e+00
3.017879576981067657e+01 -2.241557263769209385e-01 1.172857954725628815e+00
3.303096862137317657e+01 -1.733744763769209385e-01 1.312811568006878815e+00
3.371968932449817657e+01 9.322708612307906151e-02 1.353323652967816315e+00
2.701424498856067657e+01 -1.228794398251920938e+00 1.112341597303753815e+00
2.721834655106067657e+01 -9.955180310644209385e-01 1.129248335585003815e+00
2.768636412918567657e+01 -7.916606091894209385e-01 1.159430220350628815e+00
2.817867369949817657e+01 -5.807231091894209385e-01 1.191092207655316315e+00
2.967794127762317657e+01 -4.663432263769209385e-01 1.273794844374066315e+00
3.170394225418567657e+01 -3.721049451269209385e-01 1.384009077772503815e+00
3.355672545731067657e+01 -2.220805310644209385e-01 1.486456587538128815e+00
3.394576354324817657e+01 7.198685174807906151e-02 1.514776900038128815e+00
2.721370787918567657e+01 -1.261631312314420938e+00 1.242270186170941315e+00
2.767427916824817657e+01 -1.060947718564420938e+00 1.273977949842816315e+00
2.825069518387317657e+01 -8.660014295019209385e-01 1.312231734022503815e+00
2.947371764481067657e+01 -7.330668591894209385e-01 1.386267378553753815e+00
3.114791198074817657e+01 -6.241801404394209385e-01 1.485754683241253815e+00
3.299031920731067657e+01 -4.979594373144209385e-01 1.595373823866253815e+00
3.388814635574817657e+01 -2.545512341894209385e-01 1.653433516249066315e+00
3.417391295731067657e+01 5.050247674807906151e-02 1.677710249647503815e+00
2.766512389481067657e+01 -1.331333460751920938e+00 1.389548018202191315e+00
2.824190612137317657e+01 -1.141758265439420938e+00 1.430243208631878815e+00
2.928463073074817657e+01 -9.991801404394209385e-01 1.498129561170941315e+00
3.063802428543567657e+01 -8.708842420019209385e-01 1.585699751600628815e+00
3.226558776199817657e+01 -7.453959607519209385e-01 1.690298750624066315e+00
3.353011412918567657e+01 -5.535014295019209385e-01 1.773916914686566315e+00
3.411702819168567657e+01 -2.784770154394209385e-01 1.818182661756878815e+00
3.461653991043567657e+01 1.302689081057906151e-02 1.856604292616253815e+00
2.823018737137317657e+01 -1.417515101376920938e+00 1.547629072889691315e+00
2.910909362137317657e+01 -1.263096156064420938e+00 1.610251143202191315e+00
3.034444518387317657e+01 -1.136020960751920938e+00 1.696051314100628815e+00
3.187654967606067657e+01 -1.017490687314420938e+00 1.801504805311566315e+00
3.307589049637317657e+01 -8.348734998144209385e-01 1.886252119764691315e+00
3.396736998856067657e+01 -5.996440076269209385e-01 1.951697066053753815e+00
3.445809264481067657e+01 -3.120463513769209385e-01 1.991583540663128815e+00
3.525179381668567657e+01 -3.897506231442093849e-02 2.051382734999066315e+00
2.897835631668567657e+01 -1.530552210751920938e+00 1.724173262342816315e+00
3.012618346512317657e+01 -1.404941859189420938e+00 1.808600142225628815e+00
3.148507018387317657e+01 -1.283115687314420938e+00 1.908697798475628815e+00
3.274105162918567657e+01 -1.121494593564420938e+00 2.002402022108441315e+00
3.363533873856067657e+01 -8.982279920019209385e-01 2.071707442030316315e+00
3.429818053543567657e+01 -6.356547498144209385e-01 2.125403120741253815e+00
3.508272643387317657e+01 -3.696635388769209385e-01 2.187903120741253815e+00
3.622994323074817657e+01 -1.167338513769209385e-01 2.276861860975628815e+00
2.991878600418567657e+01 -1.671909632626920938e+00 1.921042158827191315e+00
3.108968444168567657e+01 -1.539951624814420938e+00 2.013281538710003815e+00
3.241243834793567657e+01 -1.403965296689420938e+00 2.117163374647503815e+00
3.344381041824817657e+01 -1.207187952939420938e+00 2.200293257460003815e+00
3.414327330887317657e+01 -9.563334607519209385e-01 2.259436323866253815e+00
3.491573424637317657e+01 -6.991313123144209385e-01 2.324270918592816315e+00
3.583113951981067657e+01 -4.379008435644209385e-01 2.400091841444378815e+00
3.733016295731067657e+01 -2.040141248144209385e-01 2.519690230116253815e+00
3.090413756668567657e+01 -1.820102992001920938e+00 2.130942061170941315e+00
3.206197448074817657e+01 -1.676426234189420938e+00 2.226950361952191315e+00
3.322445006668567657e+01 -1.510654749814420938e+00 2.324576094374066315e+00
3.399495787918567657e+01 -1.275547327939420938e+00 2.392172529920941315e+00
3.482918639481067657e+01 -1.033359827939420938e+00 2.465063765272503815e+00
3.562166686356067657e+01 -7.710307263769209385e-01 2.535040571913128815e+00
3.684554381668567657e+01 -5.290873670019209385e-01 2.639380171522503815e+00
3.834468932449817657e+01 -2.851908826269209385e-01 2.766897871717816315e+00
3.192012877762317657e+01 -1.973057093564420938e+00 2.351858809217816315e+00
3.293502135574817657e+01 -1.799839320126920938e+00 2.442343428358441315e+00
3.384847350418567657e+01 -1.593906702939420938e+00 2.524908735975628815e+00
3.473287291824817657e+01 -1.365635218564420938e+00 2.605490401014691315e+00
3.553279967606067657e+01 -1.112339320126920938e+00 2.679434492811566315e+00
3.650460143387317657e+01 -8.601420545019209385e-01 2.768011763319378815e+00
3.783882994949817657e+01 -6.186869763769209385e-01 2.887274458631878815e+00
3.911007018387317657e+01 -3.478129529394209385e-01 3.001822188124066315e+00
3.287923522293567657e+01 -2.117954554501920938e+00 2.578161909803753815e+00
3.377632994949817657e+01 -1.919102015439420938e+00 2.663214400038128815e+00
3.458223815262317657e+01 -1.691074671689420938e+00 2.739874556288128815e+00
3.543978209793567657e+01 -1.452305140439420938e+00 2.822226240858441315e+00
3.641549010574817657e+01 -1.210483851376920938e+00 2.915259077772503815e+00
3.753926940262317657e+01 -9.639018201269209385e-01 3.021704390272503815e+00
3.886458678543567657e+01 -7.114604138769209385e-01 3.147330000624066315e+00
4.017586608231067657e+01 -4.332621716894209385e-01 3.271383955702191315e+00
3.376876159012317657e+01 -2.253086390439420938e+00 2.807165816053753815e+00
3.455355162918567657e+01 -2.029819788876920938e+00 2.885336592420941315e+00
3.537532897293567657e+01 -1.796055140439420938e+00 2.968023970350628815e+00
3.632711119949817657e+01 -1.560093226376920938e+00 3.063055708631878815e+00
3.745137877762317657e+01 -1.325107874814420938e+00 3.174368574842816315e+00
3.877706237137317657e+01 -1.087559046689420938e+00 3.304770186170941315e+00
3.999288268387317657e+01 -8.132670545019209385e-01 3.425589277967816315e+00
4.133724303543567657e+01 -5.262797498144209385e-01 3.559805586561566315e+00
1.139254088699817657e+01 1.759853062685579062e+00 -1.047451946884336849e-01
1.137764830887317657e+01 1.861171422060579062e+00 -1.017849896103086849e-01
1.135823912918567657e+01 1.962367711123079062e+00 -9.911470152437118486e-02
1.133882994949817657e+01 2.063441929873079062e+00 -9.642915464937118486e-02
1.131966491043567657e+01 2.163661656435579062e+00 -9.377412535249618486e-02
1.129549498856067657e+01 2.263637242373079062e+00 -9.118013121187118486e-02
1.128145690262317657e+01 2.363124547060579062e+00 -8.850984312593368486e-02
1.125801940262317657e+01 2.462123570498079062e+00 -8.615998961030868486e-02
1.228682799637317657e+01 1.693202672060579062e+00 -4.966096617280868486e-02
1.224215026199817657e+01 1.805385289248079062e+00 -4.708223082124618486e-02
1.221163268387317657e+01 1.915736851748079062e+00 -4.412202574312118486e-02
1.217647643387317657e+01 2.026088414248079062e+00 -4.148225523530868486e-02
1.214168639481067657e+01 2.135219273623079062e+00 -3.887300230562118486e-02
1.210714049637317657e+01 2.243617711123079062e+00 -3.627900816499618486e-02
1.209359069168567657e+01 2.351283726748079062e+00 -3.373079039155868486e-02
1.208821959793567657e+01 2.458339390810579062e+00 -3.083162046968368486e-02
1.339827819168567657e+01 1.610439000185579062e+00 1.682157777250381514e-02
1.338997741043567657e+01 1.731532750185579062e+00 2.001066468656631514e-02
1.338179869949817657e+01 1.852260289248079062e+00 2.319975160062881514e-02
1.337361998856067657e+01 1.973109898623079062e+00 2.638883851469131514e-02
1.336556334793567657e+01 2.093349156435579062e+00 2.956266663969131514e-02
1.334859557449817657e+01 2.213588414248079062e+00 3.258390687406631514e-02
1.331270690262317657e+01 2.333949742373079062e+00 3.531523011625381514e-02
1.327095885574817657e+01 2.453212437685579062e+00 3.790922425687881514e-02
1.464205260574817657e+01 1.517787632998079062e+00 9.577055238187881514e-02
1.463875670731067657e+01 1.650966343935579062e+00 9.966154359281631514e-02
1.460811705887317657e+01 1.785365757998079062e+00 1.026980426162538151e-01
1.457759948074817657e+01 1.919521031435579062e+00 1.057192828506288151e-01
1.454744811356067657e+01 2.052455601748079062e+00 1.087252642959413151e-01
1.451729674637317657e+01 2.184779820498079062e+00 1.117007281631288151e-01
1.447762389481067657e+01 2.316981968935579062e+00 1.144778277725038151e-01
1.442012877762317657e+01 2.447841343935579062e+00 1.165377642959413151e-01
1.612361998856067657e+01 1.407314000185579062e+00 1.921450641006288151e-01
1.610945983231067657e+01 1.555995640810579062e+00 1.958071734756288151e-01
1.609542174637317657e+01 1.704189000185579062e+00 1.994845416396913151e-01
1.608126159012317657e+01 1.852626500185579062e+00 2.031466510146913151e-01
1.606722350418567657e+01 2.000087437685579062e+00 2.067935016006288151e-01
1.605330748856067657e+01 2.147182164248079062e+00 2.104250933975038151e-01
1.603926940262317657e+01 2.294398961123079062e+00 2.140719439834413151e-01
1.602547545731067657e+01 2.440761265810579062e+00 2.176882769912538151e-01
1.833272643387317657e+01 1.242885289248079062e+00 3.223330523818788151e-01
1.828756041824817657e+01 1.415614781435579062e+00 3.260409381240663151e-01
1.824337096512317657e+01 1.587367711123079062e+00 3.293368365615663151e-01
1.819356627762317657e+01 1.758876500185579062e+00 3.324648883193788151e-01
1.814412780106067657e+01 1.928554234560579062e+00 3.355471637100038151e-01
1.809505553543567657e+01 2.097255406435579062e+00 3.386141803115663151e-01
1.804622741043567657e+01 2.265346226748079062e+00 3.416811969131288151e-01
1.798726744949817657e+01 2.431972203310579062e+00 3.439852740615663151e-01
1.985933776199817657e+01 1.128139195498079062e+00 4.509341266006288151e-01
2.057759948074817657e+01 1.267665562685579062e+00 4.796511676162538151e-01
2.056026549637317657e+01 1.460780797060579062e+00 4.842288043350038151e-01
2.047322936356067657e+01 1.657191929873079062e+00 4.864718463271913151e-01
2.033150573074817657e+01 1.852870640810579062e+00 4.867922808975038151e-01
2.020772643387317657e+01 2.045131382998079062e+00 4.876315142959413151e-01
2.010115905106067657e+01 2.235316929873079062e+00 4.890200641006288151e-01
2.007100768387317657e+01 2.422206578310579062e+00 4.929720904678163151e-01
1.993294616043567657e+01 1.120204625185579062e+00 5.388247516006288151e-01
2.103072448074817657e+01 1.236171422060579062e+00 5.851351764053163151e-01
2.226192565262317657e+01 1.366786656435579062e+00 6.376254107803163151e-01
2.347213073074817657e+01 1.523524937685579062e+00 6.894747760146913151e-01
2.378035826981067657e+01 1.733974156435579062e+00 7.072207476943788151e-01
2.366268248856067657e+01 1.960658726748079062e+00 7.086245562881288151e-01
2.353096862137317657e+01 2.185634312685579062e+00 7.088839557021913151e-01
2.344722838699817657e+01 2.406947789248079062e+00 7.114779498428163151e-01
2.063179869949817657e+01 1.066005406435579062e+00 6.541811969131288151e-01
2.111470885574817657e+01 1.228114781435579062e+00 6.797244098037538151e-01
2.232271666824817657e+01 1.360683140810579062e+00 7.363650348037538151e-01
2.356807799637317657e+01 1.516444859560579062e+00 7.952639605850038151e-01
2.498360534012317657e+01 1.690395054873079062e+00 8.621432330459413151e-01
2.644295592606067657e+01 1.891322789248079062e+00 9.316622760146913151e-01
2.723445983231067657e+01 2.131435093935579062e+00 9.728304889053163151e-01
2.699276061356067657e+01 2.390224156435579062e+00 9.690463092178163151e-01
3.372164244949817657e+01 9.420364862307906151e-02 1.353445723280316315e+00
3.395711608231067657e+01 4.031636095605790615e-01 1.373007490858441315e+00
3.414315123856067657e+01 7.193257189355790615e-01 1.390356734022503815e+00
2.449898619949817657e+01 1.472621617373079062e+00 9.415957476943788151e-01
2.511373229324817657e+01 1.682948765810579062e+00 9.769961383193788151e-01
2.655208678543567657e+01 1.885585484560579062e+00 1.052206709608441315e+00
2.816365905106067657e+01 2.115199742373079062e+00 1.136542036756878815e+00
2.979940123856067657e+01 2.375697789248079062e+00 1.222861006483441315e+00
3.394771666824817657e+01 7.296341424807906151e-02 1.514914229139691315e+00
3.419307799637317657e+01 3.836323595605790615e-01 1.536078169569378815e+00
3.455989928543567657e+01 6.923481798730790615e-01 1.563650801405316315e+00
3.824715514481067657e+01 8.627583361230790615e-01 1.764273359999066315e+00
3.884066100418567657e+01 1.211147007998079062e+00 1.804953291639691315e+00
3.909151549637317657e+01 1.579311070498079062e+00 1.827917769178753815e+00
3.944551940262317657e+01 1.952113804873079062e+00 1.856482222303753815e+00
3.006185241043567657e+01 2.371181187685579062e+00 1.368170454725628815e+00
3.417586608231067657e+01 5.147903924807906151e-02 1.677847578749066315e+00
3.469905944168567657e+01 3.466450548730790615e-01 1.715750410780316315e+00
3.627925963699817657e+01 5.945698595605790615e-01 1.813513472303753815e+00
3.874788756668567657e+01 8.357807970605790615e-01 1.962454512342816315e+00
3.908187194168567657e+01 1.198085484560579062e+00 1.991156294569378815e+00
3.946273131668567657e+01 1.565517125185579062e+00 2.022711470350628815e+00
4.250679869949817657e+01 1.903651890810579062e+00 2.207419111952191315e+00
4.302462096512317657e+01 2.311732945498079062e+00 2.247931196913128815e+00
3.462203307449817657e+01 1.375931268557906151e-02 1.856970503553753815e+00
3.558358092606067657e+01 2.851216173730790615e-01 1.923987105116253815e+00
3.793331237137317657e+01 4.998432970605790615e-01 2.075293257460003815e+00
3.898799987137317657e+01 8.202778673730790615e-01 2.149359419569378815e+00
3.941195006668567657e+01 1.181850132998079062e+00 2.185126021131878815e+00
4.145955748856067657e+01 1.512050328310579062e+00 2.321402266249066315e+00
4.279073424637317657e+01 1.894496617373079062e+00 2.415335371717816315e+00
4.364119811356067657e+01 2.303920445498079062e+00 2.478979780897503815e+00
3.525740905106067657e+01 -3.824264043942093849e-02 2.051779463514691315e+00
3.676802916824817657e+01 2.039448595605790615e-01 2.159231856092816315e+00
3.861263366043567657e+01 4.579731798730790615e-01 2.289358809217816315e+00
3.923262877762317657e+01 8.044087267480790615e-01 2.339773848280316315e+00
4.032515807449817657e+01 1.145473179873079062e+00 2.421728804335003815e+00
4.245076842606067657e+01 1.482631382998079062e+00 2.572821333631878815e+00
4.326949401199817657e+01 1.882411656435579062e+00 2.637930586561566315e+00
4.505233092606067657e+01 2.292323765810579062e+00 2.767920210585003815e+00
3.624080748856067657e+01 -1.164897107519209385e-01 2.277655318006878815e+00
3.788204284012317657e+01 1.270405626855790615e-01 2.400534346327191315e+00
3.913692565262317657e+01 4.242817736230790615e-01 2.497976973280316315e+00
3.996553893387317657e+01 7.666890001855790615e-01 2.566031172499066315e+00
4.185787291824817657e+01 1.087245640810579062e+00 2.709723189100628815e+00
4.301619811356067657e+01 1.463466343935579062e+00 2.802252485975628815e+00
4.423372741043567657e+01 1.863002476748079062e+00 2.899618818983441315e+00
4.646822448074817657e+01 2.280360875185579062e+00 3.071387007460003815e+00
3.734139342606067657e+01 -2.036479138769209385e-01 2.520559981092816315e+00
3.864278502762317657e+01 7.271927362307906151e-02 2.626776411756878815e+00
3.961837096512317657e+01 3.927876329980790615e-01 2.709250166639691315e+00
4.119783873856067657e+01 7.065083361230790615e-01 2.837607100233441315e+00
4.277816100418567657e+01 1.050014195498079062e+00 2.966803267225628815e+00
4.382369323074817657e+01 1.438197789248079062e+00 3.056326582655316315e+00
4.569710631668567657e+01 1.836147007998079062e+00 3.209234907850628815e+00
4.715511412918567657e+01 2.271693882998079062e+00 3.331412031874066315e+00
3.835018248856067657e+01 -2.843363904394209385e-01 2.767355635389691315e+00
3.936971373856067657e+01 2.047317987307906151e-02 2.856527998670941315e+00
4.059090514481067657e+01 3.343159533105790615e-01 2.963141157850628815e+00
4.237069030106067657e+01 6.485249376855790615e-01 3.114950850233441315e+00
4.350374694168567657e+01 1.019374547060579062e+00 3.215857222303753815e+00
4.498311705887317657e+01 1.403896031435579062e+00 3.345129683241253815e+00
4.670394225418567657e+01 1.815639195498079062e+00 3.494604780897503815e+00
4.800545592606067657e+01 2.261928257998079062e+00 3.612189009413128815e+00
3.911898131668567657e+01 -3.472026013769209385e-01 3.002600386366253815e+00
4.034407897293567657e+01 -4.813033575192093849e-02 3.114783003553753815e+00
4.176375670731067657e+01 2.643696642480790615e-01 3.243948652967816315e+00
4.322213073074817657e+01 6.048237658105790615e-01 3.377112105116253815e+00
4.457808776199817657e+01 9.762837267480790615e-01 3.502295210585003815e+00
4.623714537918567657e+01 1.366908726748079062e+00 3.653860762342816315e+00
4.775496764481067657e+01 1.794154820498079062e+00 3.794272139295941315e+00
4.912178893387317657e+01 2.250575718935579062e+00 3.922491743788128815e+00
4.018270201981067657e+01 -4.325297498144209385e-01 3.272009566053753815e+00
4.153756041824817657e+01 -1.313822888769209385e-01 3.401571943983441315e+00
4.284334655106067657e+01 1.994282579980790615e-01 3.526419356092816315e+00
4.429598326981067657e+01 5.507466173730790615e-01 3.666006758436566315e+00
4.586043639481067657e+01 9.256245470605790615e-01 3.816244795545941315e+00
4.733358092606067657e+01 1.333705601748079062e+00 3.959082319960003815e+00
4.880880065262317657e+01 1.772426304873079062e+00 4.104025557264691315e+00
5.048360534012317657e+01 2.237758336123079062e+00 4.266485884413128815e+00
4.134542174637317657e+01 -5.256693982519209385e-01 3.560599043592816315e+00
4.264754576981067657e+01 -2.093852185644209385e-01 3.690741255506878815e+00
4.407784362137317657e+01 1.254536486230790615e-01 3.834479048475628815e+00
4.561849303543567657e+01 4.851948595605790615e-01 3.989279463514691315e+00
4.712545104324817657e+01 8.752095079980790615e-01 4.141638472303753815e+00
4.849996276199817657e+01 1.298305211123079062e+00 4.282248213514691315e+00
5.024947448074817657e+01 1.744594273623079062e+00 4.458975508436566315e+00
5.176717467606067657e+01 2.224940953310579062e+00 4.615805342420941315e+00
1.125801940262317657e+01 2.462367711123079062e+00 -8.615998961030868486e-02
1.123995299637317657e+01 2.560878453310579062e+00 -8.359651304780868486e-02
1.121859069168567657e+01 2.659022984560579062e+00 -8.132295347749618486e-02
1.119722838699817657e+01 2.757045445498079062e+00 -7.904939390718368486e-02
1.117611022293567657e+01 2.854457554873079062e+00 -7.677583433687118486e-02
1.115499205887317657e+01 2.951503453310579062e+00 -7.453279234468368486e-02
1.113387389481067657e+01 3.048549351748079062e+00 -7.227449156343368486e-02
1.110909362137317657e+01 3.144618687685579062e+00 -7.030610777437118486e-02
1.208834166824817657e+01 2.458705601748079062e+00 -3.081636168062118486e-02
1.207784362137317657e+01 2.565517125185579062e+00 -2.828340269624618486e-02
1.207198424637317657e+01 2.672206578310579062e+00 -2.543000914155868486e-02
1.206148619949817657e+01 2.779140172060579062e+00 -2.288179136812118486e-02
1.205098815262317657e+01 2.885585484560579062e+00 -2.034883238374618486e-02
1.204061217606067657e+01 2.991908726748079062e+00 -1.783113218843368486e-02
1.201497741043567657e+01 3.097499547060579062e+00 -1.575593687593368486e-02
1.198690123856067657e+01 3.202235875185579062e+00 -1.346711851655868486e-02
1.327059264481067657e+01 2.453578648623079062e+00 3.790922425687881514e-02
1.322371764481067657e+01 2.571864781435579062e+00 4.010648988187881514e-02
1.317720885574817657e+01 2.689418492373079062e+00 4.230375550687881514e-02
1.313082213699817657e+01 2.806483922060579062e+00 4.447050355375381514e-02
1.308504576981067657e+01 2.922328648623079062e+00 4.662199281156631514e-02
1.303951354324817657e+01 3.037318882998079062e+00 4.875822328031631514e-02
1.299410338699817657e+01 3.151820836123079062e+00 5.089445374906631514e-02
1.296102233231067657e+01 3.266078648623079062e+00 5.321378968656631514e-02
1.442000670731067657e+01 2.448329625185579062e+00 1.165377642959413151e-01
1.437081237137317657e+01 2.578090367373079062e+00 1.191012408584413151e-01
1.431527037918567657e+01 2.706874547060579062e+00 1.211916949600038151e-01
1.425997252762317657e+01 2.835170445498079062e+00 1.232668902725038151e-01
1.420528502762317657e+01 2.961879429873079062e+00 1.253115680068788151e-01
1.415108580887317657e+01 3.087733922060579062e+00 1.273409869521913151e-01
1.409700866043567657e+01 3.212978062685579062e+00 1.293704058975038151e-01
1.415999694168567657e+01 3.344569859560579062e+00 1.337039019912538151e-01
1.602559752762317657e+01 2.441249547060579062e+00 2.177035357803163151e-01
1.600435729324817657e+01 2.587245640810579062e+00 2.208621051162538151e-01
1.598323912918567657e+01 2.732875523623079062e+00 2.240206744521913151e-01
1.596212096512317657e+01 2.878749547060579062e+00 2.271792437881288151e-01
1.594112487137317657e+01 3.023769078310579062e+00 2.303225543350038151e-01
1.592012877762317657e+01 3.168422398623079062e+00 2.334658648818788151e-01
1.594991393387317657e+01 3.316127476748079062e+00 2.379824664443788151e-01
1.605965514481067657e+01 3.469447789248079062e+00 2.446810748428163151e-01
1.798690123856067657e+01 2.432460484560579062e+00 3.439852740615663151e-01
1.794320006668567657e+01 2.597865757998079062e+00 3.472964312881288151e-01
1.788924498856067657e+01 2.762294468935579062e+00 3.498599078506288151e-01
1.783541198074817657e+01 2.926479039248079062e+00 3.524233844131288151e-01
1.778194518387317657e+01 3.088954625185579062e+00 3.549716021865663151e-01
1.772896666824817657e+01 3.250575718935579062e+00 3.574893023818788151e-01
1.776973815262317657e+01 3.417079625185579062e+00 3.629824664443788151e-01
1.780367369949817657e+01 3.583461461123079062e+00 3.678500201553163151e-01
2.007088561356067657e+01 2.422816929873079062e+00 4.929873492568788151e-01
2.004427428543567657e+01 2.609096226748079062e+00 4.968478228896913151e-01
2.001766295731067657e+01 2.795009312685579062e+00 5.006930377334413151e-01
1.999288268387317657e+01 2.981166539248079062e+00 5.046145465225038151e-01
1.990596862137317657e+01 3.164027867373079062e+00 5.062930133193788151e-01
1.989840026199817657e+01 3.349086461123079062e+00 5.107790973037538151e-01
1.997408385574817657e+01 3.539272007998079062e+00 5.183016803115663151e-01
1.995394225418567657e+01 3.724208531435579062e+00 5.223452594131288151e-01
2.344674010574817657e+01 2.407680211123079062e+00 7.114779498428163151e-01
2.337337584793567657e+01 2.627406773623079062e+00 7.142703082412538151e-01
2.331502623856067657e+01 2.846034703310579062e+00 7.181460406631288151e-01
2.323653502762317657e+01 3.063808140810579062e+00 7.206789996475038151e-01
2.314022155106067657e+01 3.278773961123079062e+00 7.224490191787538151e-01
2.299617858231067657e+01 3.489711461123079062e+00 7.222201373428163151e-01
2.283614440262317657e+01 3.697841343935579062e+00 7.207552935928163151e-01
2.273922057449817657e+01 3.906337437685579062e+00 7.223269488662538151e-01
2.699117369949817657e+01 2.391200718935579062e+00 9.690005328506288151e-01
2.678682799637317657e+01 2.645351109560579062e+00 9.666201617568788151e-01
2.658565612137317657e+01 2.895717320498079062e+00 9.642703082412538151e-01
2.638680358231067657e+01 3.143275914248079062e+00 9.619509723037538151e-01
2.623970885574817657e+01 3.387904820498079062e+00 9.618289019912538151e-01
2.614754576981067657e+01 3.632289586123079062e+00 9.641329791396913151e-01
2.605562682449817657e+01 3.875819859560579062e+00 9.664217974990663151e-01
2.596480651199817657e+01 4.116908726748079062e+00 9.686800982803163151e-01
2.981111998856067657e+01 2.376674351748079062e+00 1.223440840467816315e+00
3.156111998856067657e+01 2.670619664248079062e+00 1.316153242811566315e+00
3.245845885574817657e+01 2.986171422060579062e+00 1.367987349256878815e+00
3.185421080887317657e+01 3.281947789248079062e+00 1.346365645155316315e+00
3.174788756668567657e+01 3.582729039248079062e+00 1.349051192030316315e+00
3.164205260574817657e+01 3.881557164248079062e+00 1.351721480116253815e+00
3.142415709793567657e+01 4.173305211123079062e+00 1.348746016249066315e+00
3.122200866043567657e+01 4.460780797060579062e+00 1.346441939100628815e+00
3.006295104324817657e+01 2.372157750185579062e+00 1.368262007460003815e+00
3.168770690262317657e+01 2.667812047060579062e+00 1.462469771131878815e+00
3.348897643387317657e+01 2.998744664248079062e+00 1.567007734999066315e+00
3.538851256668567657e+01 3.369594273623079062e+00 1.677817061170941315e+00
3.746224303543567657e+01 3.783656773623079062e+00 1.799017622694378815e+00
3.938338561356067657e+01 4.232509312685579062e+00 1.913016035780316315e+00
3.921370787918567657e+01 4.604579625185579062e+00 1.913778975233441315e+00
3.869417662918567657e+01 4.949306187685579062e+00 1.895193770155316315e+00
4.302340026199817657e+01 2.313197789248079062e+00 2.247900679335003815e+00
4.412276549637317657e+01 2.734828648623079062e+00 2.322592451795941315e+00
4.689193053543567657e+01 3.204921422060579062e+00 2.495062544569378815e+00
4.722530455887317657e+01 3.669521031435579062e+00 2.526617720350628815e+00
3.797322936356067657e+01 3.797939000185579062e+00 1.995215132460003815e+00
3.954305358231067657e+01 4.235561070498079062e+00 2.097525313124066315e+00
4.160909362137317657e+01 4.733974156435579062e+00 2.230108931288128815e+00
4.376705260574817657e+01 5.278529820498079062e+00 2.369223311170941315e+00
4.365157409012317657e+01 2.305385289248079062e+00 2.479666426405316315e+00
4.666805358231067657e+01 2.743861851748079062e+00 2.679632857069378815e+00
4.720467467606067657e+01 3.204433140810579062e+00 2.724234297499066315e+00
4.942842955887317657e+01 3.720668492373079062e+00 2.876715376600628815e+00
5.014888854324817657e+01 4.226527867373079062e+00 2.935110762342816315e+00
5.262484069168567657e+01 4.827113804873079062e+00 3.105566694960003815e+00
5.320516295731067657e+01 5.373988804873079062e+00 3.157599165663128815e+00
5.588924498856067657e+01 6.069057164248079062e+00 3.343619063124066315e+00
4.507308287918567657e+01 2.293788609560579062e+00 2.769354536756878815e+00
4.706380553543567657e+01 2.740688023623079062e+00 2.914725020155316315e+00
4.801290221512317657e+01 3.211513218935579062e+00 2.990912153944378815e+00
5.000814147293567657e+01 3.729823765810579062e+00 3.138510420545941315e+00
5.094735045731067657e+01 4.249355015810579062e+00 3.215338423475628815e+00
5.309407897293567657e+01 4.842860875185579062e+00 3.375082686170941315e+00
5.501644225418567657e+01 5.468959507998079062e+00 3.520666792616253815e+00
5.630757994949817657e+01 6.090785679873079062e+00 3.623831465467816315e+00
4.647933287918567657e+01 2.281947789248079062e+00 3.072226240858441315e+00
4.753072448074817657e+01 2.737758336123079062e+00 3.158667280897503815e+00
4.933174987137317657e+01 3.226283726748079062e+00 3.300802901014691315e+00
5.046175475418567657e+01 3.735805211123079062e+00 3.395453169569378815e+00
5.249617858231067657e+01 4.298549351748079062e+00 3.556296065077191315e+00
5.389730162918567657e+01 4.873500523623079062e+00 3.672110274061566315e+00
5.614522643387317657e+01 5.525600132998079062e+00 3.850668623670941315e+00
5.793624205887317657e+01 6.191371617373079062e+00 3.998236372694378815e+00
4.716597838699817657e+01 2.273158726748079062e+00 3.332281782850628815e+00
4.854805846512317657e+01 2.737514195498079062e+00 3.450216963514691315e+00
5.009444518387317657e+01 3.232265172060579062e+00 3.581518843397503815e+00
5.160396666824817657e+01 3.758998570498079062e+00 3.710867598280316315e+00
5.338301940262317657e+01 4.323939976748079062e+00 3.861822798475628815e+00
5.541683287918567657e+01 4.936488804873079062e+00 4.033468916639691315e+00
5.713948912918567657e+01 5.574672398623079062e+00 4.182089522108441315e+00
5.915975280106067657e+01 6.265346226748079062e+00 4.354819014295941315e+00
4.801497741043567657e+01 2.263393101748079062e+00 3.612997725233441315e+00
4.964290709793567657e+01 2.737514195498079062e+00 3.756384566053753815e+00
5.099971862137317657e+01 3.240199742373079062e+00 3.879767134413128815e+00
5.287313170731067657e+01 3.784999547060579062e+00 4.046072676405316315e+00
