1.788342668116092682e+01 -1.170852754730731249e+00 3.145094016566929440e-01
1.854199601709842682e+01 -1.141311739105731249e+00 3.392133811488804440e-01
1.932178117334842682e+01 -1.124221895355731249e+00 3.678388694301304440e-01
1.674414445459842682e+01 -1.721878145355731249e+00 3.264570334926304440e-01
1.699060441553592682e+01 -1.625564668793231249e+00 3.397016623988804440e-01
1.724536515772342682e+01 -1.526809785980731249e+00 3.537702659145054440e-01
1.750683976709842682e+01 -1.424636934418231249e+00 3.678388694301304440e-01
1.790478898584842682e+01 -1.350418184418231249e+00 3.864698508754429440e-01
1.848682023584842682e+01 -1.310134981293231249e+00 4.113721946254429440e-01
1.922546769678592682e+01 -1.291458223480731249e+00 4.414320090785679440e-01
1.989502336084842682e+01 -1.244949434418231249e+00 4.700727561488804440e-01
1.700220109522342682e+01 -1.797073457855731249e+00 4.082899192348179440e-01
1.725464250147342682e+01 -1.699539278168231249e+00 4.228620627895054440e-01
1.751623918116092682e+01 -1.599807832855731249e+00 4.379072288051304440e-01
1.792383195459842682e+01 -1.530716035980731249e+00 4.584913352504429440e-01
1.843054582178592682e+01 -1.477859590668231249e+00 4.829969504848179440e-01
1.913025285303592682e+01 -1.458694551605731249e+00 5.150404075160679440e-01
1.978613664209842682e+01 -1.415603731293231249e+00 5.459089377895054440e-01
2.060620500147342682e+01 -1.393997285980731249e+00 5.834455588832554440e-01
1.726794816553592682e+01 -1.874466035980731249e+00 4.925489524379429440e-01
1.752783586084842682e+01 -1.776199434418231249e+00 5.085249045863804440e-01
1.794141007959842682e+01 -1.712600801605731249e+00 5.309858420863804440e-01
1.841821672022342682e+01 -1.656082246918231249e+00 5.563306907191929440e-01
1.903503800928592682e+01 -1.624099825043231249e+00 5.878095725551304440e-01
1.967212297022342682e+01 -1.584549043793231249e+00 6.205244163051304440e-01
2.042627336084842682e+01 -1.556961153168231249e+00 6.586256125941929440e-01
2.134521867334842682e+01 -1.549148653168231249e+00 7.042341331020054440e-01
1.754468156397342682e+01 -1.955154512543231249e+00 5.802717307582554440e-01
1.797131730616092682e+01 -1.898513887543231249e+00 6.050062278285679440e-01
1.844678117334842682e+01 -1.846267793793231249e+00 6.322279075160679440e-01
1.896216203272342682e+01 -1.794021700043231249e+00 6.616163352504429440e-01
1.957483293116092682e+01 -1.755325410980731249e+00 6.958112815395054440e-01
2.030871964991092682e+01 -1.732009981293231249e+00 7.360487082973179440e-01
2.115051652491092682e+01 -1.716873262543231249e+00 7.818555930629429440e-01
2.205688859522342682e+01 -1.699050996918231249e+00 8.312177756801304440e-01
1.799975968897342682e+01 -2.085647676605731249e+00 6.791944602504429440e-01
1.843310929834842682e+01 -2.026077364105731249e+00 7.062482932582554440e-01
1.891662980616092682e+01 -1.971023653168231249e+00 7.360944846645054440e-01
1.952991105616092682e+01 -1.937942598480731249e+00 7.728681663051304440e-01
2.025659562647342682e+01 -1.920364473480731249e+00 8.157758811488804440e-01
2.103235246241092682e+01 -1.899368379730731249e+00 8.616438010707554440e-01
2.193237687647342682e+01 -1.889358614105731249e+00 9.144544700160679440e-01
2.285254289209842682e+01 -1.866287325043231249e+00 9.688062766566929440e-01
1.841760636866092682e+01 -2.206009004730731249e+00 7.808790305629429440e-01
1.888830949366092682e+01 -2.152053926605731249e+00 8.120069602504429440e-01
1.948291398584842682e+01 -2.120803926605731249e+00 8.498029807582554440e-01
2.020434953272342682e+01 -2.108596895355731249e+00 8.954725364223179440e-01
2.092541886866092682e+01 -2.082595918793231249e+00 9.415083030238804440e-01
2.182031632959842682e+01 -2.081741426605731249e+00 9.977216819301304440e-01
2.272729875147342682e+01 -2.065017793793231249e+00 1.055705080367630444e+00
2.371313859522342682e+01 -2.047317598480731249e+00 1.118159304000442944e+00
1.886597062647342682e+01 -2.335037325043231249e+00 8.879804709926304440e-01
1.944116593897342682e+01 -2.304397676605731249e+00 9.275465110316929440e-01
2.013855363428592682e+01 -2.293899629730731249e+00 9.747724631801304440e-01
2.085510636866092682e+01 -2.273513887543231249e+00 1.023554811812942944e+00
2.171594621241092682e+01 -2.274002168793231249e+00 1.081492433883255444e+00
2.260339738428592682e+01 -2.263259981293231249e+00 1.141505251266067944e+00
2.357776261866092682e+01 -2.253006075043231249e+00 1.207377443648880444e+00
2.447534562647342682e+01 -2.208450410980731249e+00 1.269022951461380444e+00
1.939941789209842682e+01 -2.488113496918231249e+00 1.005335817672317944e+00
2.007178117334842682e+01 -2.477981660980731249e+00 1.053416262008255444e+00
2.077856828272342682e+01 -2.463211153168231249e+00 1.104533205367630444e+00
2.160803605616092682e+01 -2.464187715668231249e+00 1.164057741500442944e+00
2.248328019678592682e+01 -2.460159395355731249e+00 1.226984987594192944e+00
2.342346574366092682e+01 -2.453445528168231249e+00 1.294657717086380444e+00
2.432300187647342682e+01 -2.418533418793231249e+00 1.360148439742630444e+00
2.507483293116092682e+01 -2.336380098480731249e+00 1.416895876266067944e+00
2.000854875147342682e+01 -2.662551973480731249e+00 1.132594118453567944e+00
2.070849992334842682e+01 -2.653396700043231249e+00 1.186228762008255444e+00
2.149805070459842682e+01 -2.653396700043231249e+00 1.246470461227005444e+00
2.236792375147342682e+01 -2.656814668793231249e+00 1.312739382125442944e+00
2.329358293116092682e+01 -2.656814668793231249e+00 1.383341799117630444e+00
2.417261125147342682e+01 -2.627884004730731249e+00 1.451136598922317944e+00
2.494836808741092682e+01 -2.558425996918231249e+00 1.512095461227005444e+00
2.563708879053592682e+01 -2.456863496918231249e+00 1.567240724898880444e+00
2.073840714991092682e+01 -2.871170137543231249e+00 1.275156984664505444e+00
2.152380754053592682e+01 -2.877273653168231249e+00 1.337946901656692944e+00
2.237915422022342682e+01 -2.885818575043231249e+00 1.406825075484817944e+00
2.331518937647342682e+01 -2.896316621918231249e+00 1.482157717086380444e+00
2.413489152491092682e+01 -2.861282442230731249e+00 1.549220095016067944e+00
2.486230851709842682e+01 -2.789138887543231249e+00 1.609736452437942944e+00
2.554626847803592682e+01 -2.692581270355731249e+00 1.667338381148880444e+00
2.609424211084842682e+01 -2.555862520355731249e+00 1.715571413375442944e+00
2.160754777491092682e+01 -3.119217012543231249e+00 1.435206423141067944e+00
2.247778703272342682e+01 -3.138992403168231249e+00 1.508936891891067944e+00
2.340222550928592682e+01 -3.155227754730731249e+00 1.587382326461380444e+00
2.420947648584842682e+01 -3.123001192230731249e+00 1.656977663375442944e+00
2.492407609522342682e+01 -3.053665254730731249e+00 1.719538698531692944e+00
2.556042863428592682e+01 -2.952591035980731249e+00 1.776179323531692944e+00
2.609473039209842682e+01 -2.816360567230731249e+00 1.824931154586380444e+00
2.663672257959842682e+01 -2.672683809418231249e+00 1.874522219039505444e+00
2.257776261866092682e+01 -3.395950410980731249e+00 1.612589845992630444e+00
2.348547746241092682e+01 -3.415481660980731249e+00 1.693644533492630444e+00
2.427746964991092682e+01 -3.386795137543231249e+00 1.764811525680130444e+00
2.498266984522342682e+01 -3.320022676605731249e+00 1.829600344039505444e+00
2.559387589991092682e+01 -3.217971895355731249e+00 1.886744509078567944e+00
2.615369035303592682e+01 -3.092483614105731249e+00 1.939799318648880444e+00
2.668664933741092682e+01 -2.949783418793231249e+00 1.991465578414505444e+00
2.725452043116092682e+01 -2.805252168793231249e+00 2.045680055953567944e+00
2.356982804834842682e+01 -3.679153535980731249e+00 1.801280031539505444e+00
2.435364152491092682e+01 -3.654861543793231249e+00 1.875117311812942944e+00
2.501611711084842682e+01 -3.583328340668231249e+00 1.939097414352005444e+00
2.562781144678592682e+01 -3.485550020355731249e+00 1.998850832320755444e+00
2.621606828272342682e+01 -3.371170137543231249e+00 2.056727419234817944e+00
2.675281144678592682e+01 -3.233963106293231249e+00 2.110255251266067944e+00
2.733130265772342682e+01 -3.094925020355731249e+00 2.167750368453567944e+00
2.796826554834842682e+01 -2.957962129730731249e+00 2.231364260055130444e+00
1.105676652491092682e+01 5.754851358942687511e-01 -1.366624733433070560e-01
1.145532609522342682e+01 5.967253702692687511e-01 -1.322069069370570560e-01
1.165430070459842682e+01 6.622771280817687511e-01 -1.279802223667445560e-01
1.165539933741092682e+01 7.659148233942687511e-01 -1.239519020542445560e-01
1.165649797022342682e+01 8.689421671442687511e-01 -1.199540993198695560e-01
1.165759660303592682e+01 9.717253702692687511e-01 -1.159715553745570560e-01
1.165869523584842682e+01 1.074508573394268751e+00 -1.119890114292445560e-01
1.165503312647342682e+01 1.177169706206768751e+00 -1.082963844761195560e-01
1.108142472803592682e+01 5.685271280817687511e-01 -9.199999775736955598e-02
1.148205949366092682e+01 5.896452921442687511e-01 -8.598803486674455598e-02
1.191638566553592682e+01 6.124724405817687511e-01 -7.919787373393205598e-02
1.241040422022342682e+01 6.339568155817687511e-01 -7.193469014018205598e-02
1.256970597803592682e+01 7.190398233942687511e-01 -6.662463154643205598e-02
1.255359269678592682e+01 8.337859171442687511e-01 -6.248949971049455598e-02
1.253259660303592682e+01 9.487761515192687511e-01 -5.867480244486955598e-02
1.251660539209842682e+01 1.062057401519268751e+00 -5.457018818705705598e-02
1.110632707178592682e+01 5.615691202692687511e-01 -4.707812275736955598e-02
1.150903703272342682e+01 5.824431437067687511e-01 -3.923510517924455598e-02
1.194580461084842682e+01 6.051482218317687511e-01 -3.072070088236955598e-02
1.243347550928592682e+01 6.279753702692687511e-01 -2.130602803080705598e-02
1.289929582178592682e+01 6.636199015192687511e-01 -1.179980244486955598e-02
1.341418839991092682e+01 7.008513468317687511e-01 -1.362790726119555984e-03
1.364648820459842682e+01 7.888640421442687511e-01 5.991945602005444016e-03
1.364380265772342682e+01 9.115447062067687511e-01 1.050854716450544402e-02
1.125329972803592682e+01 5.298308390192687511e-01 -3.557106479945559840e-04
1.153625871241092682e+01 5.752409952692687511e-01 7.807741500442944016e-03
1.197546769678592682e+01 5.977019327692687511e-01 1.832104716450544402e-02
1.245666886866092682e+01 6.218718546442687511e-01 2.985669169575544402e-02
1.293188859522342682e+01 6.561736124567687511e-01 4.160595927388044402e-02
1.344995500147342682e+01 6.932829874567687511e-01 5.440808329731794402e-02
1.401745988428592682e+01 7.339324015192687511e-01 6.844616923481794402e-02
1.463733293116092682e+01 7.783659952692687511e-01 8.344555888325544402e-02
1.792908097803592682e+01 -8.327179891057312489e-01 1.744184592738804440e-01
1.236450578272342682e+01 4.131316202692687511e-01 7.065869364888044402e-02
1.240454484522342682e+01 5.171355265192687511e-01 7.543469462544294402e-02
1.248559953272342682e+01 6.147917765192687511e-01 8.108044657856794402e-02
1.296460343897342682e+01 6.487273233942687511e-01 9.505749735981794402e-02
1.348572160303592682e+01 6.855925577692687511e-01 1.102552512660679440e-01
1.405688859522342682e+01 7.261199015192687511e-01 1.269178489223179440e-01
1.468103410303592682e+01 7.703093546442687511e-01 1.451063254848179440e-01
1.860034562647342682e+01 -9.728547078557312489e-01 2.670393088832554440e-01
1.942151261866092682e+01 -9.557648641057312489e-01 2.936658957973179440e-01
2.019861222803592682e+01 -9.141388875432312489e-01 3.193616965785679440e-01
1.360498429834842682e+01 4.191130655817687511e-01 1.603040793910679440e-01
1.369202043116092682e+01 5.282439249567687511e-01 1.668348411098179440e-01
1.378003312647342682e+01 6.385954874567687511e-01 1.734418967738804440e-01
1.409668351709842682e+01 7.181853312067687511e-01 1.860914329066929440e-01
1.472473527491092682e+01 7.621306437067687511e-01 2.068891623988804440e-01
1.932580949366092682e+01 -1.124343965668231249e+00 3.679761985316929440e-01
2.002808000147342682e+01 -1.076736543793231249e+00 3.946790793910679440e-01
2.099914933741092682e+01 -1.064651582855731249e+00 4.297742942348179440e-01
2.195471574366092682e+01 -1.029861543793231249e+00 4.650983909145054440e-01
2.315613175928592682e+01 -1.016800020355731249e+00 5.084486106410679440e-01
2.439453507959842682e+01 -9.856720906682312489e-01 5.537366965785679440e-01
2.564612199366092682e+01 -9.311066609807312489e-01 6.003065207973179440e-01
1.549048234522342682e+01 6.583708780817687511e-01 2.919416526332554440e-01
1.989966203272342682e+01 -1.245193575043231249e+00 4.702558616176304440e-01
2.080224992334842682e+01 -1.230667207855731249e+00 5.070600608363804440e-01
2.174780656397342682e+01 -1.206009004730731249e+00 5.464429954066929440e-01
2.283777238428592682e+01 -1.186843965668231249e+00 5.909681418910679440e-01
2.391186906397342682e+01 -1.144119356293231249e+00 6.356458762660679440e-01
2.530603410303592682e+01 -1.129226778168231249e+00 6.922712424770054440e-01
2.590576554834842682e+01 -9.724884969182312489e-01 7.210645774379429440e-01
2.609802629053592682e+01 -7.510529500432312489e-01 7.362012961879429440e-01
2.061304093897342682e+01 -1.394729707855731249e+00 5.837202170863804440e-01
2.155286027491092682e+01 -1.380203340668231249e+00 6.263074973598179440e-01
2.252295304834842682e+01 -1.352371309418231249e+00 6.706647971645054440e-01
2.363574601709842682e+01 -1.329422090668231249e+00 7.212629416957554440e-01
2.489416886866092682e+01 -1.308792207855731249e+00 7.783155540004429440e-01
2.571594621241092682e+01 -1.196365450043231249e+00 8.187971213832554440e-01
2.609106828272342682e+01 -1.003372285980731249e+00 8.419141868129429440e-01
2.628601457178592682e+01 -7.803498250432312489e-01 8.579206565395054440e-01
2.135132218897342682e+01 -1.549759004730731249e+00 7.045240500941929440e-01
2.226147843897342682e+01 -1.521804903168231249e+00 7.503156760707554440e-01
2.333630754053592682e+01 -1.506179903168231249e+00 8.038435081020054440e-01
2.435571672022342682e+01 -1.458694551605731249e+00 8.556318381801304440e-01
2.540527726709842682e+01 -1.396682832855731249e+00 9.093885520473179440e-01
2.604504777491092682e+01 -1.251297090668231249e+00 9.455976584926304440e-01
2.627832414209842682e+01 -1.034622285980731249e+00 9.640150168910679440e-01
2.647595597803592682e+01 -8.100129109807312489e-01 9.809217551723179440e-01
2.206287004053592682e+01 -1.699539278168231249e+00 8.315382102504429440e-01
2.304602433741092682e+01 -1.678543184418231249e+00 8.851728538051304440e-01
2.405615617334842682e+01 -1.643020723480731249e+00 9.407148459926304440e-01
2.504846574366092682e+01 -1.583572481293231249e+00 9.960279563441929440e-01
2.578845597803592682e+01 -1.463943575043231249e+00 1.039637575484817944e+00
2.627099992334842682e+01 -1.290481660980731249e+00 1.071040163375442944e+00
2.646960832178592682e+01 -1.066482637543231249e+00 1.088725099898880444e+00
2.679724504053592682e+01 -8.572541219182312489e-01 1.112895021773880444e+00
2.285876847803592682e+01 -1.866897676605731249e+00 9.691572288051304440e-01
2.385132218897342682e+01 -1.839675996918231249e+00 1.027979860641067944e+00
2.474377824366092682e+01 -1.774246309418231249e+00 1.082102785445755444e+00
2.550818254053592682e+01 -1.668045137543231249e+00 1.130000124312942944e+00
2.612024308741092682e+01 -1.522781465668231249e+00 1.170176515914505444e+00
2.646155168116092682e+01 -1.324295137543231249e+00 1.196146974898880444e+00
2.677820207178592682e+01 -1.115188692230731249e+00 1.221003542281692944e+00
2.732666398584842682e+01 -9.323273641057312489e-01 1.258601198531692944e+00
2.371924211084842682e+01 -2.047805879730731249e+00 1.118525514937942944e+00
2.462659074366092682e+01 -1.995193575043231249e+00 1.177241335250442944e+00
2.530810929834842682e+01 -1.882888887543231249e+00 1.222895632125442944e+00
2.586450578272342682e+01 -1.734695528168231249e+00 1.262324343062942944e+00
2.645410539209842682e+01 -1.582229707855731249e+00 1.303965578414505444e+00
2.675732804834842682e+01 -1.374343965668231249e+00 1.329218874312942944e+00
2.731079484522342682e+01 -1.196365450043231249e+00 1.369975099898880444e+00
2.799975968897342682e+01 -1.026809785980731249e+00 1.418391237594192944e+00
2.448071672022342682e+01 -2.208694551605731249e+00 1.269373903609817944e+00
2.519592668116092682e+01 -2.110794160980731249e+00 1.320490846969192944e+00
2.578918839991092682e+01 -1.976394746918231249e+00 1.364436159469192944e+00
2.625708390772342682e+01 -1.807815645355731249e+00 1.400904665328567944e+00
2.674109269678592682e+01 -1.633987520355731249e+00 1.438609133102005444e+00
2.729016496241092682e+01 -1.461135957855731249e+00 1.480677614547317944e+00
2.793762589991092682e+01 -1.291092012543231249e+00 1.529307375289505444e+00
2.910022355616092682e+01 -1.178665254730731249e+00 1.611063967086380444e+00
2.507947160303592682e+01 -2.336502168793231249e+00 1.417231569625442944e+00
2.571350480616092682e+01 -2.216629121918231249e+00 1.465708742477005444e+00
2.617786027491092682e+01 -2.052932832855731249e+00 1.503764162398880444e+00
2.673047257959842682e+01 -1.895217989105731249e+00 1.548029909469192944e+00
2.727148820459842682e+01 -1.725906465668231249e+00 1.591776857711380444e+00
2.791150285303592682e+01 -1.561721895355731249e+00 1.642527590133255444e+00
2.890271379053592682e+01 -1.434890840668231249e+00 1.717539797164505444e+00
2.998205949366092682e+01 -1.301590059418231249e+00 1.799769411422317944e+00
2.564014054834842682e+01 -2.456619356293231249e+00 1.567469606734817944e+00
2.612500382959842682e+01 -2.301834200043231249e+00 1.608881960250442944e+00
2.670032121241092682e+01 -2.154495332855731249e+00 1.656992922164505444e+00
2.727417375147342682e+01 -1.995071504730731249e+00 1.705332765914505444e+00
2.790137101709842682e+01 -1.834426973480731249e+00 1.757792482711380444e+00
2.869690324366092682e+01 -1.687820528168231249e+00 1.822779665328567944e+00
2.974951554834842682e+01 -1.561966035980731249e+00 1.906886110641067944e+00
3.104065324366092682e+01 -1.448562715668231249e+00 2.008952150680130444e+00
2.609814836084842682e+01 -2.555862520355731249e+00 1.715891847945755444e+00
2.666919328272342682e+01 -2.413162325043231249e+00 1.765437136031692944e+00
2.727222062647342682e+01 -2.265457246918231249e+00 1.818324098922317944e+00
2.790271379053592682e+01 -2.110061739105731249e+00 1.873637209273880444e+00
2.865015031397342682e+01 -1.962844942230731249e+00 1.938227663375442944e+00
2.958728410303592682e+01 -1.830520723480731249e+00 2.017832765914505444e+00
3.069079972803592682e+01 -1.703079317230731249e+00 2.110819826461380444e+00
3.186011125147342682e+01 -1.563919160980731249e+00 2.210200319625442944e+00
2.664111711084842682e+01 -2.672683809418231249e+00 1.874903688766067944e+00
2.726050187647342682e+01 -2.533889864105731249e+00 1.931605348922317944e+00
2.790552140772342682e+01 -2.388015840668231249e+00 1.990687380172317944e+00
2.864294816553592682e+01 -2.244827364105731249e+00 2.057627687789505444e+00
2.956494523584842682e+01 -2.118850801605731249e+00 2.139948854781692944e+00
3.060449601709842682e+01 -1.993118379730731249e+00 2.232340822555130444e+00
3.163562394678592682e+01 -1.844925020355731249e+00 2.324610720016067944e+00
3.262683488428592682e+01 -1.672317598480731249e+00 2.414057741500442944e+00
2.725854875147342682e+01 -2.805252168793231249e+00 2.046046266891067944e+00
2.789966203272342682e+01 -2.664383028168231249e+00 2.107493410445755444e+00
2.862817765772342682e+01 -2.527298067230731249e+00 2.176066408492630444e+00
2.953747941553592682e+01 -2.406936739105731249e+00 2.261195192672317944e+00
3.054602433741092682e+01 -2.286209200043231249e+00 2.355311403609817944e+00
3.156030656397342682e+01 -2.146682832855731249e+00 2.450404177047317944e+00
3.252820207178592682e+01 -1.979568575043231249e+00 2.542765627242630444e+00
3.332739640772342682e+01 -1.772171114105731249e+00 2.620158205367630444e+00
2.797253800928592682e+01 -2.957962129730731249e+00 2.231776247359817944e+00
2.865808488428592682e+01 -2.818435762543231249e+00 2.299540529586380444e+00
2.951440812647342682e+01 -2.697464082855731249e+00 2.383738527633255444e+00
3.049267961084842682e+01 -2.580154512543231249e+00 2.479426393844192944e+00
3.148840714991092682e+01 -2.447586153168231249e+00 2.577128420211380444e+00
3.245605851709842682e+01 -2.291214082855731249e+00 2.672739992477005444e+00
3.331128312647342682e+01 -2.098709200043231249e+00 2.758570680953567944e+00
3.408459855616092682e+01 -1.879959200043231249e+00 2.838068971969192944e+00
1.165503312647342682e+01 1.177535917144268751e+00 -1.082811256870570560e-01
1.164587785303592682e+01 1.280563260894268751e+00 -1.044206520542445560e-01
1.164429093897342682e+01 1.382369901519268751e+00 -1.008043190464320560e-01
1.162109757959842682e+01 1.486495878081768751e+00 -9.727953877299455598e-02
1.159802629053592682e+01 1.589645292144268751e+00 -9.378527607768205598e-02
1.157568742334842682e+01 1.692062284331768751e+00 -9.030627217143205598e-02
1.155871964991092682e+01 1.793746854644268751e+00 -8.681200947611955598e-02
1.153784562647342682e+01 1.894821073394268751e+00 -8.362292256205705598e-02
1.251648332178592682e+01 1.062423612456768751e+00 -5.457018818705705598e-02
1.249524308741092682e+01 1.175704862456768751e+00 -5.084704365580705598e-02
1.248266984522342682e+01 1.287277128081768751e+00 -4.680346455424455598e-02
1.249194718897342682e+01 1.396652128081768751e+00 -4.282092060893205598e-02
1.250110246241092682e+01 1.505538846831768751e+00 -3.886889424174455598e-02
1.251037980616092682e+01 1.614425565581768751e+00 -3.491686787455705598e-02
1.251477433741092682e+01 1.724044706206768751e+00 -3.125475849955705598e-02
1.252405168116092682e+01 1.832931424956768751e+00 -2.730273213236955598e-02
1.364331437647342682e+01 9.120329874567687511e-01 1.052380595356794402e-02
1.363391496241092682e+01 1.035324003081768751e+00 1.464367900044294402e-02
1.362451554834842682e+01 1.158004667144268751e+00 1.876355204731794402e-02
1.360657121241092682e+01 1.281661893706768751e+00 2.276135478169294402e-02
1.360181047022342682e+01 1.403121854644268751e+00 2.689648661763044402e-02
1.359387589991092682e+01 1.524459745269268751e+00 3.098584208638044402e-02
1.358606339991092682e+01 1.645919706206768751e+00 3.507519755513044402e-02
1.357825089991092682e+01 1.766525174956768751e+00 3.914929423481794402e-02
1.464172746241092682e+01 7.782439249567687511e-01 8.353711161763044402e-02
1.484094621241092682e+01 8.861540812067687511e-01 9.192944560200544402e-02
1.477209855616092682e+01 1.027755643706768751e+00 9.528637919575544402e-02
1.470373918116092682e+01 1.168136503081768751e+00 9.862805400044294402e-02
1.465539933741092682e+01 1.304611112456768751e+00 1.022596457973179440e-01
1.466821672022342682e+01 1.434982206206768751e+00 1.070203879848179440e-01
1.468115617334842682e+01 1.565719510894268751e+00 1.117963889613804440e-01
1.468579484522342682e+01 1.696456815581768751e+00 1.160688498988804440e-01
1.468542863428592682e+01 7.701872843317687511e-01 1.452283957973179440e-01
1.540600968897342682e+01 8.148650187067687511e-01 1.657667258754429440e-01
1.606457902491092682e+01 8.809050577692687511e-01 1.854047873988804440e-01
1.649524308741092682e+01 9.835661905817687511e-01 2.002515891566929440e-01
1.644226457178592682e+01 1.138595487456768751e+00 2.041120627895054440e-01
1.639746476709842682e+01 1.291549589019268751e+00 2.081251243129429440e-01
1.641211320459842682e+01 1.439498807769268751e+00 2.135267356410679440e-01
1.642663957178592682e+01 1.586959745269268751e+00 2.189283469691929440e-01
1.472925187647342682e+01 7.620085733942687511e-01 2.070264915004429440e-01
1.543848039209842682e+01 8.085173624567687511e-01 2.308912375941929440e-01
1.611474992334842682e+01 8.727263468317687511e-01 2.540083030238804440e-01
1.689941789209842682e+01 9.398650187067687511e-01 2.805738547816929440e-01
1.776855851709842682e+01 1.014205839019268751e+00 3.099928000941929440e-01
1.848035050928592682e+01 1.118575956206768751e+00 3.355512717738804440e-01
1.845581437647342682e+01 1.290328885894268751e+00 3.405561545863804440e-01
1.838843156397342682e+01 1.463424589019268751e+00 3.438520530238804440e-01
1.549072648584842682e+01 6.588591593317687511e-01 2.919569114223179440e-01
1.554065324366092682e+01 7.936247843317687511e-01 2.981977561488804440e-01
1.616504289209842682e+01 8.646697062067687511e-01 3.227491477504429440e-01
1.695532609522342682e+01 9.315642374567687511e-01 3.530683616176304440e-01
1.783118058741092682e+01 1.005782987456768751e+00 3.866682151332554440e-01
1.873901750147342682e+01 1.094528104644268751e+00 4.218855002895054440e-01
1.970752336084842682e+01 1.197555448394268751e+00 4.597425559535679440e-01
2.058618547022342682e+01 1.324508573394268751e+00 4.951887229457554440e-01
2.609912492334842682e+01 -7.503205281682312489e-01 7.362623313441929440e-01
2.622632218897342682e+01 -5.177765828557312489e-01 7.489576438441929440e-01
1.755969621241092682e+01 7.053679483942687511e-01 4.414167502895054440e-01
1.768909074366092682e+01 8.539275187067687511e-01 4.514570334926304440e-01
1.789477922022342682e+01 9.971159952692687511e-01 4.643812278285679440e-01
1.880224992334842682e+01 1.086471464019268751e+00 5.037489036098179440e-01
1.977795793116092682e+01 1.189498807769268751e+00 5.458326438441929440e-01
2.086499406397342682e+01 1.304122831206768751e+00 5.932111838832554440e-01
2.628723527491092682e+01 -7.797394734807312489e-01 8.579969504848179440e-01
2.642602922022342682e+01 -5.465851766057312489e-01 8.717146018520054440e-01
2.654858781397342682e+01 -3.092804891057312489e-01 8.848219016566929440e-01
2.682068254053592682e+01 -8.442697348073124886e-02 9.042310813441929440e-01
2.879834367334842682e+01 -1.301584066823124886e-02 9.950056174770054440e-01
3.228137589991092682e+01 -2.644357504323124886e-02 1.150385866500442944e+00
2.065161515772342682e+01 1.123336698394268751e+00 6.671400168910679440e-01
2.094543839991092682e+01 1.295944120269268751e+00 6.858320334926304440e-01
2.647717668116092682e+01 -8.094025594182312489e-01 9.809980491176304440e-01
2.669263078272342682e+01 -5.836945516057312489e-01 9.987897971645054440e-01
2.705139543116092682e+01 -3.701935750432312489e-01 1.023264894820755444e+00
2.859045793116092682e+01 -2.703400594182312489e-01 1.102320680953567944e+00
3.073279191553592682e+01 -1.966095906682312489e-01 1.210291872359817944e+00
3.282519914209842682e+01 -7.637033285573124886e-02 1.317286501266067944e+00
3.316785050928592682e+01 2.133025187067687511e-01 1.343379030562942944e+00
3.336951066553592682e+01 5.168913858942687511e-01 1.362956056930130444e+00
2.680078507959842682e+01 -8.568879109807312489e-01 1.113093386031692944e+00
2.729162980616092682e+01 -6.616974812932312489e-01 1.145655641891067944e+00
2.838672257959842682e+01 -5.254670125432312489e-01 1.208964357711380444e+00
3.016455461084842682e+01 -4.367218953557312489e-01 1.307597170211380444e+00
3.224890519678592682e+01 -3.421174031682312489e-01 1.422923097945755444e+00
3.310901261866092682e+01 -1.049347859807312489e-01 1.476710329391067944e+00
3.338830949366092682e+01 1.920622843317687511e-01 1.501063356734817944e+00
3.359936906397342682e+01 4.973601358942687511e-01 1.521998415328567944e+00
2.733093644678592682e+01 -9.320832234807312489e-01 1.258845339156692944e+00
2.818725968897342682e+01 -7.765656453557312489e-01 1.313731203414505444e+00
2.950622941553592682e+01 -6.566925984807312489e-01 1.394587526656692944e+00
3.124292375147342682e+01 -5.526886922307312489e-01 1.499369631148880444e+00
3.279504777491092682e+01 -3.980256062932312489e-01 1.594935427047317944e+00
3.332776261866092682e+01 -1.282502156682312489e-01 1.634409914352005444e+00
3.362048722803592682e+01 1.700896280817687511e-01 1.660746584273880444e+00
3.424121476709842682e+01 4.519499796442687511e-01 1.705744753219192944e+00
2.800915910303592682e+01 -1.027175996918231249e+00 1.418971071578567944e+00
2.930701066553592682e+01 -9.193879109807312489e-01 1.504145632125442944e+00
3.073913957178592682e+01 -8.011017781682312489e-01 1.597376833297317944e+00
3.219592668116092682e+01 -6.559601766057312489e-01 1.693675051070755444e+00
3.321130754053592682e+01 -4.419709187932312489e-01 1.764231691695755444e+00
3.354956437647342682e+01 -1.519318562932312489e-01 1.794383058883255444e+00
3.423364640772342682e+01 1.201628702692687511e-01 1.846613893844192944e+00
3.548828507959842682e+01 3.682097452692687511e-01 1.933329592086380444e+00
2.910889054834842682e+01 -1.178909395355731249e+00 1.611643801070755444e+00
3.033630754053592682e+01 -1.051467989105731249e+00 1.698527345992630444e+00
3.175171281397342682e+01 -9.209748250432312489e-01 1.798243532516067944e+00
3.276489640772342682e+01 -7.199250203557312489e-01 1.872843752242630444e+00
3.349072648584842682e+01 -4.733429891057312489e-01 1.929362306930130444e+00
3.406543351709842682e+01 -2.001496297307312489e-01 1.976435671187942944e+00
3.495178605616092682e+01 6.230154214426875114e-02 2.044291506148880444e+00
3.670093156397342682e+01 2.863005655817687511e-01 2.169398317672317944e+00
2.998913957178592682e+01 -1.301590059418231249e+00 1.800288210250442944e+00
3.140491105616092682e+01 -1.188675020355731249e+00 1.905222902633255444e+00
3.252881242334842682e+01 -1.014480684418231249e+00 1.991587648727005444e+00
3.321680070459842682e+01 -7.720490437932312489e-01 2.048472414352005444e+00
3.389856339991092682e+01 -5.168000203557312489e-01 2.105280886031692944e+00
3.468921281397342682e+01 -2.575226766057312489e-01 2.170069704391067944e+00
3.612854386866092682e+01 -2.937326254323124886e-02 2.280833254195755444e+00
3.763489152491092682e+01 2.216032999567687511e-01 2.397990236617630444e+00
3.104822160303592682e+01 -1.448562715668231249e+00 2.009531984664505444e+00
3.219482804834842682e+01 -1.291824434418231249e+00 2.102229128219192944e+00
3.301880265772342682e+01 -1.075637910980731249e+00 2.171870241500442944e+00
3.376294328272342682e+01 -8.340607625432312489e-01 2.236109743453567944e+00
3.450244523584842682e+01 -5.786896687932312489e-01 2.300379762984817944e+00
3.559045793116092682e+01 -3.382111531682312489e-01 2.391032228805130444e+00
3.713391496241092682e+01 -1.088410359807312489e-01 2.516367922164505444e+00
3.820190812647342682e+01 1.798552530817687511e-01 2.606867800094192944e+00
3.186767961084842682e+01 -1.563797090668231249e+00 2.210810671187942944e+00
3.282263566553592682e+01 -1.375076387543231249e+00 2.293269167281692944e+00
3.361816789209842682e+01 -1.149368379730731249e+00 2.364542970992630444e+00
3.437805558741092682e+01 -9.033967000432312489e-01 2.433497438766067944e+00
3.524829484522342682e+01 -6.541291219182312489e-01 2.511546144820755444e+00
3.656433488428592682e+01 -4.253693562932312489e-01 2.625315676070755444e+00
3.790381242334842682e+01 -1.712189656682312489e-01 2.741724977828567944e+00
3.897839738428592682e+01 1.245574015192687511e-01 2.838664064742630444e+00
3.263074113428592682e+01 -1.671829317230731249e+00 2.414408693648880444e+00
3.346643449366092682e+01 -1.460525606293231249e+00 2.492304811812942944e+00
3.429809953272342682e+01 -1.232498262543231249e+00 2.570338259078567944e+00
3.512121964991092682e+01 -9.862824422307312489e-01 2.648142824508255444e+00
3.610522843897342682e+01 -7.403107625432312489e-01 2.739787111617630444e+00
3.760742570459842682e+01 -5.186310750432312489e-01 2.875361452437942944e+00
3.876269914209842682e+01 -2.405549031682312489e-01 2.982661257125442944e+00
3.997339250147342682e+01 5.522146401926875114e-02 3.095225344039505444e+00
3.333240129053592682e+01 -1.771804903168231249e+00 2.620631227828567944e+00
3.418066789209842682e+01 -1.555008028168231249e+00 2.703593263961380444e+00
3.501428605616092682e+01 -1.320022676605731249e+00 2.784892092086380444e+00
3.601782609522342682e+01 -1.085403535980731249e+00 2.882411012984817944e+00
3.718738175928592682e+01 -8.478547078557312489e-01 2.995051393844192944e+00
3.849927140772342682e+01 -5.995636922307312489e-01 3.120905886031692944e+00
3.977319718897342682e+01 -3.213654500432312489e-01 3.245097170211380444e+00
4.112573625147342682e+01 -2.461252035573124886e-02 3.376017580367630444e+00
3.408984757959842682e+01 -1.879470918793231249e+00 2.838587770797317944e+00
3.492493058741092682e+01 -1.653518770355731249e+00 2.923533449508255444e+00
3.591443254053592682e+01 -1.428909395355731249e+00 3.023966799117630444e+00
3.708130265772342682e+01 -1.202224825043231249e+00 3.141352663375442944e+00
3.835693742334842682e+01 -9.641877156682312489e-01 3.269419679977005444e+00
3.957275773584842682e+01 -6.959992391057312489e-01 3.392619142867630444e+00
4.091040422022342682e+01 -4.118195516057312489e-01 3.527857790328567944e+00
4.219104386866092682e+01 -9.919748129323124886e-02 3.659449587203567944e+00
1.153772355616092682e+01 1.895187284331768751e+00 -8.360766377299455598e-02
1.152002336084842682e+01 1.995651151519268751e+00 -8.022021260111955598e-02
1.149841691553592682e+01 2.095748807769268751e+00 -7.712267842143205598e-02
1.147668839991092682e+01 2.195724393706768751e+00 -7.402514424174455598e-02
1.146045304834842682e+01 2.294845487456768751e+00 -7.092761006205705598e-02
1.146399308741092682e+01 2.393356229644268751e+00 -6.767748799174455598e-02
1.146741105616092682e+01 2.492111112456768751e+00 -6.442736592143205598e-02
1.146692277491092682e+01 2.590621854644268751e+00 -6.145190205424455598e-02
1.252392961084842682e+01 1.833297635894268751e+00 -2.728747334330705598e-02
1.252783586084842682e+01 1.942428495269268751e+00 -2.368639912455705598e-02
1.253650285303592682e+01 2.051437284331768751e+00 -1.976489033549455598e-02
1.254040910303592682e+01 2.161056424956768751e+00 -1.614855732768205598e-02
1.253332902491092682e+01 2.270553495269268751e+00 -1.268481221049455598e-02
1.251953507959842682e+01 2.379928495269268751e+00 -9.297361038619555984e-03
1.248889543116092682e+01 2.489303495269268751e+00 -6.382932327682055984e-03
1.246338273584842682e+01 2.597824003081768751e+00 -3.178586624557055984e-03
1.357812882959842682e+01 1.766891385894268751e+00 3.916455302388044402e-02
1.356470109522342682e+01 1.887496854644268751e+00 4.284192118794294402e-02
1.355127336084842682e+01 2.007736112456768751e+00 4.650403056294294402e-02
1.353796769678592682e+01 2.128097440581768751e+00 5.018139872700544402e-02
1.352466203272342682e+01 2.247726346831768751e+00 5.382824931294294402e-02
1.349756242334842682e+01 2.367111112456768751e+00 5.723095927388044402e-02
1.346667863428592682e+01 2.486373807769268751e+00 6.057263407856794402e-02
1.343603898584842682e+01 2.604537870269268751e+00 6.388379130513044402e-02
1.468579484522342682e+01 1.696945096831768751e+00 1.160841086879429440e-01
1.469983293116092682e+01 1.827194120269268751e+00 1.209211448207554440e-01
1.470569230616092682e+01 1.957931424956768751e+00 1.252698997035679440e-01
1.471167375147342682e+01 2.089279081206768751e+00 1.296339133754429440e-01
1.471753312647342682e+01 2.220138456206768751e+00 1.339979270473179440e-01
1.472351457178592682e+01 2.351119901519268751e+00 1.383466819301304440e-01
1.472937394678592682e+01 2.482589628081768751e+00 1.427259543910679440e-01
1.472717668116092682e+01 2.613571073394268751e+00 1.465864280238804440e-01
1.642651750147342682e+01 1.587570096831768751e+00 2.189436057582554440e-01
1.643359757959842682e+01 1.735519315581768751e+00 2.238874534145054440e-01
1.644067765772342682e+01 1.883590604644268751e+00 2.288313010707554440e-01
1.644775773584842682e+01 2.032272245269268751e+00 2.338056663051304440e-01
1.645471574366092682e+01 2.180465604644268751e+00 2.387647727504429440e-01
1.646179582178592682e+01 2.328781034331768751e+00 2.437238791957554440e-01
1.645251847803592682e+01 2.477584745269268751e+00 2.482557395473179440e-01
1.643164445459842682e+01 2.625656034331768751e+00 2.524824241176304440e-01
1.838782121241092682e+01 1.464034940581768751e+00 3.438520530238804440e-01
1.833667375147342682e+01 1.634689237456768751e+00 3.481550315395054440e-01
1.827490617334842682e+01 1.804611112456768751e+00 3.516950706020054440e-01
1.822497941553592682e+01 1.973434354644268751e+00 3.555555442348179440e-01
1.820264054834842682e+01 2.140060331206768751e+00 3.602094748988804440e-01
1.818030168116092682e+01 2.306075956206768751e+00 3.648481467738804440e-01
1.815796281397342682e+01 2.472213651519268751e+00 3.694868186488804440e-01
1.812683488428592682e+01 2.637130643706768751e+00 3.734083274379429440e-01
2.058618547022342682e+01 1.325118924956768751e+00 4.952039817348179440e-01
2.059277726709842682e+01 1.514816190581768751e+00 5.014906028285679440e-01
2.060803605616092682e+01 1.704025174956768751e+00 5.080823997035679440e-01
2.061853410303592682e+01 1.894332792144268751e+00 5.145368674770054440e-01
2.062915422022342682e+01 2.084152128081768751e+00 5.209760764613804440e-01
2.062707902491092682e+01 2.274215604644268751e+00 5.269727805629429440e-01
2.059131242334842682e+01 2.464767362456768751e+00 5.317945579066929440e-01
2.055591203272342682e+01 2.653976346831768751e+00 5.365705588832554440e-01
2.087292863428592682e+01 1.304244901519268751e+00 5.935316184535679440e-01
2.200134660303592682e+01 1.438400174956768751e+00 6.430311301723179440e-01
2.323401261866092682e+01 1.590499784331768751e+00 6.978254416957554440e-01
2.387610246241092682e+01 1.786788846831768751e+00 7.298231223598179440e-01
2.378955461084842682e+01 2.011276151519268751e+00 7.334852317348179440e-01
2.370361711084842682e+01 2.233932401519268751e+00 7.371320823207554440e-01
2.364123918116092682e+01 2.455367948394268751e+00 7.411298850551304440e-01
2.360278703272342682e+01 2.674972440581768751e+00 7.465772727504429440e-01
2.095325089991092682e+01 1.296188260894268751e+00 6.861982444301304440e-01
2.208301164209842682e+01 1.430831815581768751e+00 7.409620383754429440e-01
2.332568742334842682e+01 1.583175565581768751e+00 8.013563254848179440e-01
2.474451066553592682e+01 1.755416776519268751e+00 8.702344993129429440e-01
2.612500382959842682e+01 1.955856229644268751e+00 9.383039573207554440e-01
2.774390031397342682e+01 2.180709745269268751e+00 1.017802248336380444e+00
2.787073136866092682e+01 2.442306424956768751e+00 1.031764040328567944e+00
2.771728898584842682e+01 2.703170682769268751e+00 1.033183107711380444e+00
3.337073136866092682e+01 5.179900187067687511e-01 1.363047609664505444e+00
3.355505754053592682e+01 8.260954874567687511e-01 1.381861696578567944e+00
2.472266007959842682e+01 1.520553495269268751e+00 9.683790305629429440e-01
2.483032609522342682e+01 1.749069120269268751e+00 9.809064963832554440e-01
2.622925187647342682e+01 1.949874784331768751e+00 1.056208620406692944e+00
2.781824113428592682e+01 2.175949003081768751e+00 1.141688356734817944e+00
2.940820695459842682e+01 2.434615995269268751e+00 1.228236208297317944e+00
3.110754777491092682e+01 2.724777128081768751e+00 1.321177492477005444e+00
3.360071183741092682e+01 4.984587687067687511e-01 1.522105226852005444e+00
3.514636613428592682e+01 7.373503702692687511e-01 1.612971315719192944e+00
3.794397355616092682e+01 9.536589640192687511e-01 1.770625124312942944e+00
3.826208879053592682e+01 1.307784940581768751e+00 1.798914919234817944e+00
3.849951554834842682e+01 1.668746854644268751e+00 1.823069582320755444e+00
4.169934464991092682e+01 1.996749784331768751e+00 2.005946169234817944e+00
3.052673722803592682e+01 2.427657987456768751e+00 1.417063722945755444e+00
3.122839738428592682e+01 2.721359159331768751e+00 1.464137087203567944e+00
3.424487687647342682e+01 4.529265421442687511e-01 1.705988893844192944e+00
3.702026750147342682e+01 6.332243937067687511e-01 1.874064455367630444e+00
3.817554093897342682e+01 9.381560343317687511e-01 1.951228151656692944e+00
3.850134660303592682e+01 1.294479276519268751e+00 1.981455812789505444e+00
3.908093644678592682e+01 1.649948026519268751e+00 2.026515016891067944e+00
4.197217179834842682e+01 1.987350370269268751e+00 2.206294069625442944e+00
4.236560441553592682e+01 2.390548612456768751e+00 2.241953859664505444e+00
4.396594621241092682e+01 2.808761503081768751e+00 2.348719606734817944e+00
3.550134660303592682e+01 3.686980265192687511e-01 1.934153566695755444e+00
3.777283097803592682e+01 5.878142374567687511e-01 2.084452638961380444e+00
3.841016007959842682e+01 9.224089640192687511e-01 2.134226808883255444e+00
3.908545304834842682e+01 1.269576932769268751e+00 2.187693605758255444e+00
4.130591203272342682e+01 1.593307401519268751e+00 2.337962160445755444e+00
4.224878312647342682e+01 1.977828885894268751e+00 2.409480104781692944e+00
4.332495500147342682e+01 2.381759549956768751e+00 2.491053591109817944e+00
4.617334367334842682e+01 2.818160917144268751e+00 2.684550295211380444e+00
3.671558000147342682e+01 2.866667765192687511e-01 2.170390138961380444e+00
3.829492570459842682e+01 5.544890421442687511e-01 2.285731325484817944e+00
3.873718644678592682e+01 9.026335733942687511e-01 2.326518068648880444e+00
4.034900285303592682e+01 1.222091581206768751e+00 2.445658693648880444e+00
4.191296769678592682e+01 1.573409940581768751e+00 2.562556276656692944e+00
4.286560441553592682e+01 1.963668729644268751e+00 2.639231691695755444e+00
4.516614152491092682e+01 2.370040799956768751e+00 2.807734499312942944e+00
4.647827531397342682e+01 2.813888456206768751e+00 2.910441408492630444e+00
3.764172746241092682e+01 2.224577921442687511e-01 2.398509035445755444e+00
3.855286027491092682e+01 5.349577921442687511e-01 2.473216066695755444e+00
3.961377336084842682e+01 8.589324015192687511e-01 2.560023317672317944e+00
4.162402726709842682e+01 1.173873807769268751e+00 2.715235720016067944e+00
4.255481339991092682e+01 1.552413846831768751e+00 2.794322023727005444e+00
4.411401750147342682e+01 1.941085721831768751e+00 2.919184694625442944e+00
4.607214738428592682e+01 2.360885526519268751e+00 3.073878298141067944e+00
4.714709855616092682e+01 2.811935331206768751e+00 3.166758547164505444e+00
3.820874406397342682e+01 1.807097452692687511e-01 2.607417116500442944e+00
3.925989152491092682e+01 4.913786905817687511e-01 2.697932253219192944e+00
4.098852922022342682e+01 7.933806437067687511e-01 2.840342531539505444e+00
4.230725480616092682e+01 1.144943143706768751e+00 2.952723512984817944e+00
4.341955949366092682e+01 1.526046659331768751e+00 3.050120363570755444e+00
4.547034074366092682e+01 1.916549589019268751e+00 3.220057497359817944e+00
4.666516496241092682e+01 2.352340604644268751e+00 3.325510988570755444e+00
4.819946672022342682e+01 2.812423612456768751e+00 3.457835207320755444e+00
3.898657609522342682e+01 1.254118937067687511e-01 2.839350710250442944e+00
4.030017472803592682e+01 4.297331827692687511e-01 2.954966554977005444e+00
4.202014543116092682e+01 7.423552530817687511e-01 3.104929933883255444e+00
4.307922746241092682e+01 1.112838651519268751e+00 3.202738771773880444e+00
4.469104386866092682e+01 1.489791776519268751e+00 3.345866213180130444e+00
4.623010636866092682e+01 1.899825956206768751e+00 3.484049806930130444e+00
4.757251359522342682e+01 2.342574979644268751e+00 3.607218752242630444e+00
4.915747453272342682e+01 2.811935331206768751e+00 3.752146730758255444e+00
3.998376847803592682e+01 5.595388589426875114e-02 3.096125612594192944e+00
4.146484757959842682e+01 3.610075968317687511e-01 3.233195314742630444e+00
4.275964738428592682e+01 7.037810343317687511e-01 3.355357179977005444e+00
4.419421769678592682e+01 1.068893339019268751e+00 3.490244875289505444e+00
4.579980851709842682e+01 1.457076932769268751e+00 3.640604982711380444e+00
4.728320695459842682e+01 1.878829862456768751e+00 3.781443605758255444e+00
4.872021867334842682e+01 2.331710721831768751e+00 3.919245729781692944e+00
5.035742570459842682e+01 2.812667753081768751e+00 4.075160036422317944e+00
4.113562394678592682e+01 -2.388009848073124886e-02 3.376933107711380444e+00
4.243542863428592682e+01 3.024138468317687511e-01 3.505000124312942944e+00
4.390686418116092682e+01 6.470183390192687511e-01 3.648188600875442944e+00
4.545154191553592682e+01 1.019943143706768751e+00 3.799906740523880444e+00
4.691565324366092682e+01 1.423873807769268751e+00 3.945246706344192944e+00
4.838000871241092682e+01 1.856857206206768751e+00 4.091502199508255444e+00
5.006128312647342682e+01 2.319747831206768751e+00 4.259562502242630444e+00
5.158679582178592682e+01 2.813278104644268751e+00 4.413249025680130444e+00
4.219958879053592682e+01 -9.834298910573124886e-02 3.660288820602005444e+00
4.363550187647342682e+01 2.311247843317687511e-01 3.806406984664505444e+00
4.518591691553592682e+01 5.841521280817687511e-01 3.965189943648880444e+00
4.665893937647342682e+01 9.722136515192687511e-01 4.117640505172317944e+00
4.806750871241092682e+01 1.389449979644268751e+00 4.264842043258255444e+00
4.979578019678592682e+01 1.830123807769268751e+00 4.443263063766067944e+00
5.126770402491092682e+01 2.307907010894268751e+00 4.598338137008255444e+00
5.321033097803592682e+01 2.815841581206768751e+00 4.800578127242630444e+00
1.146692277491092682e+01 2.590988065581768751e+00 -6.145190205424455598e-02
1.146936418116092682e+01 2.689498807769268751e+00 -5.826281514018205598e-02
1.146789933741092682e+01 2.788131620269268751e+00 -5.536364521830705598e-02
1.146643449366092682e+01 2.887008573394268751e+00 -5.244921650736955598e-02
1.146496964991092682e+01 2.985763456206768751e+00 -4.953478779643205598e-02
1.146350480616092682e+01 3.084518339019268751e+00 -4.662035908549455598e-02
1.145862199366092682e+01 3.183395292144268751e+00 -4.373644795268205598e-02
1.144556047022342682e+01 3.281295682769268751e+00 -4.117297139018205598e-02
1.246338273584842682e+01 2.598190214019268751e+00 -3.163327835494555984e-03
1.243274308741092682e+01 2.706100370269268751e+00 -3.404518589320559840e-04
1.240686418116092682e+01 2.813522245269268751e+00 2.818117477005444016e-03
1.237634660303592682e+01 2.920822049956768751e+00 5.625734664505444016e-03
1.234595109522342682e+01 3.027145292144268751e+00 8.418093062942944016e-03
1.231579972803592682e+01 3.133102323394268751e+00 1.119519267231794402e-02
1.228113175928592682e+01 3.238449003081768751e+00 1.363659892231794402e-02
1.234180070459842682e+01 3.350509549956768751e+00 1.774121318013044402e-02
1.343616105616092682e+01 2.604904081206768751e+00 6.389905009419294402e-02
1.340015031397342682e+01 2.722335721831768751e+00 6.679822001606794402e-02
1.336438371241092682e+01 2.839279081206768751e+00 6.969738993794294402e-02
1.332861711084842682e+01 2.955856229644268751e+00 7.258130107075544402e-02
1.329321672022342682e+01 3.071578885894268751e+00 7.544995341450544402e-02
1.325806047022342682e+01 3.186691190581768751e+00 7.830334696919294402e-02
1.326123429834842682e+01 3.304122831206768751e+00 8.187390360981794402e-02
1.339197160303592682e+01 3.431442167144268751e+00 8.793164286763044402e-02
1.472729875147342682e+01 2.614059354644268751e+00 1.466016868129429440e-01
1.473450089991092682e+01 2.745162870269268751e+00 1.510419944301304440e-01
1.473352433741092682e+01 2.876266385894268751e+00 1.549787620082554440e-01
1.473242570459842682e+01 3.007980253081768751e+00 1.589460471645054440e-01
1.473132707178592682e+01 3.139449979644268751e+00 1.628828147426304440e-01
1.473035050928592682e+01 3.270797635894268751e+00 1.668348411098179440e-01
1.483411027491092682e+01 3.409957792144268751e+00 1.732893088832554440e-01
1.493384172022342682e+01 3.550582792144268751e+00 1.793775657191929440e-01
1.643201066553592682e+01 2.626144315581768751e+00 2.524976829066929440e-01
1.640503312647342682e+01 2.773605253081768751e+00 2.562818625941929440e-01
1.637805558741092682e+01 2.920822049956768751e+00 2.600355247035679440e-01
1.635120011866092682e+01 3.068038846831768751e+00 2.638044456020054440e-01
1.632446672022342682e+01 3.214279081206768751e+00 2.675581077113804440e-01
1.634497453272342682e+01 3.362960721831768751e+00 2.726240256801304440e-01
1.639929582178592682e+01 3.514938260894268751e+00 2.786665061488804440e-01
1.645410539209842682e+01 3.667648221831768751e+00 2.847547629848179440e-01
1.812683488428592682e+01 2.637740995269268751e+00 3.734083274379429440e-01
1.810852433741092682e+01 2.802291776519268751e+00 3.782911399379429440e-01
1.808118058741092682e+01 2.966354276519268751e+00 3.824720481410679440e-01
1.805395890772342682e+01 3.130660917144268751e+00 3.866529563441929440e-01
1.803650285303592682e+01 3.294479276519268751e+00 3.911390403285679440e-01
1.809338761866092682e+01 3.462325956206768751e+00 3.980360129848179440e-01
1.815100480616092682e+01 3.632125760894268751e+00 4.050092795863804440e-01
1.819946672022342682e+01 3.801925565581768751e+00 4.112959006801304440e-01
