2.390801057219505310e+01 -2.856267483904957771e+00 1.535819009505217991e+00
2.463542756438255310e+01 -2.784123929217457771e+00 1.596335366927092991e+00
2.531938752532005310e+01 -2.687566312029957771e+00 1.653937295638030491e+00
2.586736115813255310e+01 -2.550847562029957771e+00 1.702170327864592991e+00
2.138066682219505310e+01 -3.114202054217457771e+00 1.421805337630217991e+00
2.225090608000755310e+01 -3.133977444842457771e+00 1.495535806380217991e+00
2.317534455657005310e+01 -3.150212796404957771e+00 1.573981240950530491e+00
2.398259553313255310e+01 -3.117986233904957771e+00 1.643576577864592991e+00
2.469719514250755310e+01 -3.048650296404957771e+00 1.706137613020842991e+00
2.533354768157005310e+01 -2.947576077654957771e+00 1.762778238020842991e+00
2.586784943938255310e+01 -2.811345608904957771e+00 1.811530069075530491e+00
2.640984162688255310e+01 -2.667668851092457771e+00 1.861121133528655491e+00
2.235088166594505310e+01 -3.390935452654957771e+00 1.599188760481780491e+00
2.325859650969505310e+01 -3.410466702654957771e+00 1.680243447981780491e+00
2.405058869719505310e+01 -3.381780179217457771e+00 1.751410440169280491e+00
2.475578889250755310e+01 -3.315007718279957771e+00 1.816199258528655491e+00
2.536699494719505310e+01 -3.212956937029957771e+00 1.873343423567717991e+00
2.592680940032005310e+01 -3.087468655779957771e+00 1.926398233138030491e+00
2.645976838469505310e+01 -2.944768460467457771e+00 1.978064492903655491e+00
2.702763947844505310e+01 -2.800237210467457771e+00 2.032278970442717991e+00
2.334294709563255310e+01 -3.674138577654957771e+00 1.787878946028655491e+00
2.412676057219505310e+01 -3.649846585467457771e+00 1.861716226302092991e+00
2.478923615813255310e+01 -3.578313382342457771e+00 1.925696328841155491e+00
2.540093049407005310e+01 -3.480535062029957771e+00 1.985449746809905491e+00
2.598918733000755310e+01 -3.366155179217457771e+00 2.043326333723967991e+00
2.652593049407005310e+01 -3.228948147967457771e+00 2.096854165755217991e+00
2.710442170500755310e+01 -3.089910062029957771e+00 2.154349282942717991e+00
2.774138459563255310e+01 -2.952947171404957771e+00 2.217963174544280491e+00
1.082988557219505310e+01 5.805000942200422287e-01 -1.500635588541570087e-01
1.122844514250755310e+01 6.017403285950422287e-01 -1.456079924479070087e-01
1.142741975188255310e+01 6.672920864075422287e-01 -1.413813078775945087e-01
1.142851838469505310e+01 7.709297817200422287e-01 -1.373529875650945087e-01
1.142961701750755310e+01 8.739571254700422287e-01 -1.333551848307195087e-01
1.143071565032005310e+01 9.767403285950422287e-01 -1.293726408854070087e-01
1.143181428313255310e+01 1.079523531720042229e+00 -1.253900969400945087e-01
1.142815217375755310e+01 1.182184664532542229e+00 -1.216974699869695087e-01
1.085454377532005310e+01 5.735420864075422287e-01 -1.054010832682195087e-01
1.125517854094505310e+01 5.946602504700422287e-01 -9.938912037759450868e-02
1.168950471282005310e+01 6.174873989075422287e-01 -9.259895924478200868e-02
1.218352326750755310e+01 6.389717739075422287e-01 -8.533577565103200868e-02
1.234282502532005310e+01 7.240547817200422287e-01 -8.002571705728200868e-02
1.232671174407005310e+01 8.388008754700422287e-01 -7.589058522134450868e-02
1.230571565032005310e+01 9.537911098450422287e-01 -7.207588795571950868e-02
1.228972443938255310e+01 1.067072359845042229e+00 -6.797127369790700868e-02
1.087944611907005310e+01 5.665840785950422287e-01 -6.047920826821950868e-02
1.128215608000755310e+01 5.874581020325422287e-01 -5.263619069009450868e-02
1.171892365813255310e+01 6.101631801575422287e-01 -4.412178639321950868e-02
1.220659455657005310e+01 6.329903285950422287e-01 -3.470711354165700868e-02
1.267241486907005310e+01 6.686348598450422287e-01 -2.520088795571950868e-02
1.318730744719505310e+01 7.058663051575422287e-01 -1.476387623696950868e-02
1.341960725188255310e+01 7.938790004700422287e-01 -7.409139908844508682e-03
1.341692170500755310e+01 9.165596645325422287e-01 -2.892538346344508682e-03
1.102641877532005310e+01 5.348457973450422287e-01 -1.375679615884450868e-02
1.130937775969505310e+01 5.802559535950422287e-01 -5.593344010407008682e-03
1.174858674407005310e+01 6.027168910950422287e-01 4.919961653655491318e-03
1.222978791594505310e+01 6.268868129700422287e-01 1.645560618490549132e-02
1.270500764250755310e+01 6.611885707825422287e-01 2.820487376303049132e-02
1.322307404875755310e+01 6.982979457825422287e-01 4.100699778646799132e-02
1.379057893157005310e+01 7.389473598450422287e-01 5.504508372396799132e-02
1.441045197844505310e+01 7.833809535950422287e-01 7.004447337240549132e-02
1.770220002532005310e+01 -8.277030307799577713e-01 1.610173737630304913e-01
1.213762483000755310e+01 4.181465785950422287e-01 5.725760813803049132e-02
1.217766389250755310e+01 5.221504848450422287e-01 6.203360911459299132e-02
1.225871858000755310e+01 6.198067348450422287e-01 6.767936106771799132e-02
1.273772248625755310e+01 6.537422817200422287e-01 8.165641184896799132e-02
1.325884065032005310e+01 6.906075160950422287e-01 9.685416575521799132e-02
1.383000764250755310e+01 7.311348598450422287e-01 1.135167634114679913e-01
1.445415315032005310e+01 7.753243129700422287e-01 1.317052399739679913e-01
1.837346467375755310e+01 -9.678397495299577713e-01 2.536382233724054913e-01
1.919463166594505310e+01 -9.507499057799577713e-01 2.802648102864679913e-01
1.997173127532005310e+01 -9.091239292174577713e-01 3.059606110677179913e-01
1.337810334563255310e+01 4.241280239075422287e-01 1.469029938802179913e-01
1.346513947844505310e+01 5.332588832825422287e-01 1.534337555989679913e-01
1.355315217375755310e+01 6.436104457825422287e-01 1.600408112630304913e-01
1.386980256438255310e+01 7.232002895325422287e-01 1.726903473958429913e-01
1.449785432219505310e+01 7.671456020325422287e-01 1.934880768880304913e-01
1.909892854094505310e+01 -1.119329007342457771e+00 3.545751130208429913e-01
1.980119904875755310e+01 -1.071721585467457771e+00 3.812779938802179913e-01
2.077226838469505310e+01 -1.059636624529957771e+00 4.163732087239679913e-01
2.172783479094505310e+01 -1.024846585467457771e+00 4.516973054036554913e-01
2.292925080657005310e+01 -1.011785062029957771e+00 4.950475251302179913e-01
2.416765412688255310e+01 -9.806571323424577713e-01 5.403356110677179913e-01
2.541924104094505310e+01 -9.260917026549577713e-01 5.869054352864679913e-01
1.526360139250755310e+01 6.633858364075422287e-01 2.785405671224054913e-01
1.967278108000755310e+01 -1.240178616717457771e+00 4.568547761067804913e-01
2.057536897063255310e+01 -1.225652249529957771e+00 4.936589753255304913e-01
2.152092561125755310e+01 -1.200994046404957771e+00 5.330419098958429913e-01
2.261089143157005310e+01 -1.181829007342457771e+00 5.775670563802179913e-01
2.368498811125755310e+01 -1.139104397967457771e+00 6.222447907552179913e-01
2.507915315032005310e+01 -1.124211819842457771e+00 6.788701569661554913e-01
2.567888459563255310e+01 -9.674735385924577713e-01 7.076634919270929913e-01
2.587114533782005310e+01 -7.460379917174577713e-01 7.228002106770929913e-01
2.038615998625755310e+01 -1.389714749529957771e+00 5.703191315755304913e-01
2.132597932219505310e+01 -1.375188382342457771e+00 6.129064118489679913e-01
2.229607209563255310e+01 -1.347356351092457771e+00 6.572637116536554913e-01
2.340886506438255310e+01 -1.324407132342457771e+00 7.078618561849054913e-01
2.466728791594505310e+01 -1.303777249529957771e+00 7.649144684895929913e-01
2.548906525969505310e+01 -1.191350491717457771e+00 8.053960358724054913e-01
2.586418733000755310e+01 -9.983573276549577713e-01 8.285131013020929913e-01
2.605913361907005310e+01 -7.753348667174577713e-01 8.445195710286554913e-01
2.112444123625755310e+01 -1.544744046404957771e+00 6.911229645833429913e-01
2.203459748625755310e+01 -1.516789944842457771e+00 7.369145905599054913e-01
2.310942658782005310e+01 -1.501164944842457771e+00 7.904424225911554913e-01
2.412883576750755310e+01 -1.453679593279957771e+00 8.422307526692804913e-01
2.517839631438255310e+01 -1.391667874529957771e+00 8.959874665364679913e-01
2.581816682219505310e+01 -1.246282132342457771e+00 9.321965729817804913e-01
2.605144318938255310e+01 -1.029607327654957771e+00 9.506139313802179913e-01
2.624907502532005310e+01 -8.049979526549577713e-01 9.675206696614679913e-01
2.183598908782005310e+01 -1.694524319842457771e+00 8.181371247395929913e-01
2.281914338469505310e+01 -1.673528226092457771e+00 8.717717682942804913e-01
2.382927522063255310e+01 -1.638005765154957771e+00 9.273137604817804913e-01
2.482158479094505310e+01 -1.578557522967457771e+00 9.826268708333429913e-01
2.556157502532005310e+01 -1.458928616717457771e+00 1.026236489973967991e+00
2.604411897063255310e+01 -1.285466702654957771e+00 1.057639077864592991e+00
2.624272736907005310e+01 -1.061467679217457771e+00 1.075324014388030491e+00
2.657036408782005310e+01 -8.522391635924577713e-01 1.099493936263030491e+00
2.263188752532005310e+01 -1.861882718279957771e+00 9.557561432942804913e-01
2.362444123625755310e+01 -1.834661038592457771e+00 1.014578775130217991e+00
2.451689729094505310e+01 -1.769231351092457771e+00 1.068701699934905491e+00
2.528130158782005310e+01 -1.663030179217457771e+00 1.116599038802092991e+00
2.589336213469505310e+01 -1.517766507342457771e+00 1.156775430403655491e+00
2.623467072844505310e+01 -1.319280179217457771e+00 1.182745889388030491e+00
2.655132111907005310e+01 -1.110173733904957771e+00 1.207602456770842991e+00
2.709978303313255310e+01 -9.273124057799577713e-01 1.245200113020842991e+00
2.349236115813255310e+01 -2.042790921404957771e+00 1.105124429427092991e+00
2.439970979094505310e+01 -1.990178616717457771e+00 1.163840249739592991e+00
2.508122834563255310e+01 -1.877873929217457771e+00 1.209494546614592991e+00
2.563762483000755310e+01 -1.729680569842457771e+00 1.248923257552092991e+00
2.622722443938255310e+01 -1.577214749529957771e+00 1.290564492903655491e+00
2.653044709563255310e+01 -1.369329007342457771e+00 1.315817788802092991e+00
2.708391389250755310e+01 -1.191350491717457771e+00 1.356574014388030491e+00
2.777287873625755310e+01 -1.021794827654957771e+00 1.404990152083342991e+00
2.425383576750755310e+01 -2.203679593279957771e+00 1.255972818098967991e+00
2.496904572844505310e+01 -2.105779202654957771e+00 1.307089761458342991e+00
2.556230744719505310e+01 -1.971379788592457771e+00 1.351035073958342991e+00
2.603020295500755310e+01 -1.802800687029957771e+00 1.387503579817717991e+00
2.651421174407005310e+01 -1.628972562029957771e+00 1.425208047591155491e+00
2.706328400969505310e+01 -1.456120999529957771e+00 1.467276529036467991e+00
2.771074494719505310e+01 -1.286077054217457771e+00 1.515906289778655491e+00
2.887334260344505310e+01 -1.173650296404957771e+00 1.597662881575530491e+00
2.485259065032005310e+01 -2.331487210467457771e+00 1.403830484114592991e+00
2.548662385344505310e+01 -2.211614163592457771e+00 1.452307656966155491e+00
2.595097932219505310e+01 -2.047917874529957771e+00 1.490363076888030491e+00
2.650359162688255310e+01 -1.890203030779957771e+00 1.534628823958342991e+00
2.704460725188255310e+01 -1.720891507342457771e+00 1.578375772200530491e+00
2.768462190032005310e+01 -1.556706937029957771e+00 1.629126504622405491e+00
2.867583283782005310e+01 -1.429875882342457771e+00 1.704138711653655491e+00
2.975517854094505310e+01 -1.296575101092457771e+00 1.786368325911467991e+00
2.541325959563255310e+01 -2.451604397967457771e+00 1.554068521223967991e+00
2.589812287688255310e+01 -2.296819241717457771e+00 1.595480874739592991e+00
2.647344025969505310e+01 -2.149480374529957771e+00 1.643591836653655491e+00
2.704729279875755310e+01 -1.990056546404957771e+00 1.691931680403655491e+00
2.767449006438255310e+01 -1.829412015154957771e+00 1.744391397200530491e+00
2.847002229094505310e+01 -1.682805569842457771e+00 1.809378579817717991e+00
2.952263459563255310e+01 -1.556951077654957771e+00 1.893485025130217991e+00
3.081377229094505310e+01 -1.443547757342457771e+00 1.995551065169280491e+00
2.587126740813255310e+01 -2.550847562029957771e+00 1.702490762434905491e+00
2.644231233000755310e+01 -2.408147366717457771e+00 1.752036050520842991e+00
2.704533967375755310e+01 -2.260442288592457771e+00 1.804923013411467991e+00
2.767583283782005310e+01 -2.105046780779957771e+00 1.860236123763030491e+00
2.842326936125755310e+01 -1.957829983904957771e+00 1.924826577864592991e+00
2.936040315032005310e+01 -1.825505765154957771e+00 2.004431680403655491e+00
3.046391877532005310e+01 -1.698064358904957771e+00 2.097418740950530491e+00
3.163323029875755310e+01 -1.558904202654957771e+00 2.196799234114592991e+00
2.641423615813255310e+01 -2.667668851092457771e+00 1.861502603255217991e+00
2.703362092375755310e+01 -2.528874905779957771e+00 1.918204263411467991e+00
2.767864045500755310e+01 -2.383000882342457771e+00 1.977286294661467991e+00
2.841606721282005310e+01 -2.239812405779957771e+00 2.044226602278655491e+00
2.933806428313255310e+01 -2.113835843279957771e+00 2.126547769270842991e+00
3.037761506438255310e+01 -1.988103421404957771e+00 2.218939737044280491e+00
3.140874299407005310e+01 -1.839910062029957771e+00 2.311209634505217991e+00
3.239995393157005310e+01 -1.667302640154957771e+00 2.400656655989592991e+00
2.703166779875755310e+01 -2.800237210467457771e+00 2.032645181380217991e+00
2.767278108000755310e+01 -2.659368069842457771e+00 2.094092324934905491e+00
2.840129670500755310e+01 -2.522283108904957771e+00 2.162665322981780491e+00
2.931059846282005310e+01 -2.401921780779957771e+00 2.247794107161467991e+00
3.031914338469505310e+01 -2.281194241717457771e+00 2.341910318098967991e+00
3.133342561125755310e+01 -2.141667874529957771e+00 2.437003091536467991e+00
3.230132111907005310e+01 -1.974553616717457771e+00 2.529364541731780491e+00
3.310051545500755310e+01 -1.767156155779957771e+00 2.606757119856780491e+00
2.774565705657005310e+01 -2.952947171404957771e+00 2.218375161848967991e+00
2.843120393157005310e+01 -2.813420804217457771e+00 2.286139444075530491e+00
2.928752717375755310e+01 -2.692449124529957771e+00 2.370337442122405491e+00
3.026579865813255310e+01 -2.575139554217457771e+00 2.466025308333342991e+00
3.126152619719505310e+01 -2.442571194842457771e+00 2.563727334700530491e+00
3.222917756438255310e+01 -2.286199124529957771e+00 2.659338906966155491e+00
3.308440217375755310e+01 -2.093694241717457771e+00 2.745169595442717991e+00
3.385771760344505310e+01 -1.874944241717457771e+00 2.824667886458342991e+00
1.142815217375755310e+01 1.182550875470042229e+00 -1.216822111979070087e-01
1.141899690032005310e+01 1.285578219220042229e+00 -1.178217375650945087e-01
1.141740998625755310e+01 1.387384859845042229e+00 -1.142054045572820087e-01
1.139421662688255310e+01 1.491510836407542229e+00 -1.106806242838445087e-01
1.137114533782005310e+01 1.594660250470042229e+00 -1.071863615885320087e-01
1.134880647063255310e+01 1.697077242657542229e+00 -1.037073576822820087e-01
1.133183869719505310e+01 1.798761812970042229e+00 -1.002130949869695087e-01
1.131096467375755310e+01 1.899836031720042229e+00 -9.702400807290700868e-02
1.228960236907005310e+01 1.067438570782542229e+00 -6.797127369790700868e-02
1.226836213469505310e+01 1.180719820782542229e+00 -6.424812916665700868e-02
1.225578889250755310e+01 1.292292086407542229e+00 -6.020455006509450868e-02
1.226506623625755310e+01 1.401667086407542229e+00 -5.622200611978200868e-02
1.227422150969505310e+01 1.510553805157542229e+00 -5.226997975259450868e-02
1.228349885344505310e+01 1.619440523907542229e+00 -4.831795338540700868e-02
1.228789338469505310e+01 1.729059664532542229e+00 -4.465584401040700868e-02
1.229717072844505310e+01 1.837946383282542229e+00 -4.070381764321950868e-02
1.341643342375755310e+01 9.170479457825422287e-01 -2.877279557282008682e-03
1.340703400969505310e+01 1.040338961407542229e+00 1.242593489592991318e-03
1.339763459563255310e+01 1.163019625470042229e+00 5.362466536467991318e-03
1.337969025969505310e+01 1.286676852032542229e+00 9.360269270842991318e-03
1.337492951750755310e+01 1.408136812970042229e+00 1.349540110678049132e-02
1.336699494719505310e+01 1.529474703595042229e+00 1.758475657553049132e-02
1.335918244719505310e+01 1.650934664532542229e+00 2.167411204428049132e-02
1.335136994719505310e+01 1.771540133282542229e+00 2.574820872396799132e-02
1.441484650969505310e+01 7.832588832825422287e-01 7.013602610678049132e-02
1.461406525969505310e+01 8.911690395325422287e-01 7.852836009115549132e-02
1.454521760344505310e+01 1.032770602032542229e+00 8.188529368490549132e-02
1.447685822844505310e+01 1.173151461407542229e+00 8.522696848959299132e-02
1.442851838469505310e+01 1.309626070782542229e+00 8.885856028646799132e-02
1.444133576750755310e+01 1.439997164532542229e+00 9.361930247396799132e-02
1.445427522063255310e+01 1.570734469220042229e+00 9.839530345053049132e-02
1.445891389250755310e+01 1.701471773907542229e+00 1.026677643880304913e-01
1.445854768157005310e+01 7.752022426575422287e-01 1.318273102864679913e-01
1.517912873625755310e+01 8.198799770325422287e-01 1.523656403645929913e-01
1.583769807219505310e+01 8.859200160950422287e-01 1.720037018880304913e-01
1.626836213469505310e+01 9.885811489075422287e-01 1.868505036458429913e-01
1.621538361907005310e+01 1.143610445782542229e+00 1.907109772786554913e-01
1.617058381438255310e+01 1.296564547345042229e+00 1.947240388020929913e-01
1.618523225188255310e+01 1.444513766095042229e+00 2.001256501302179913e-01
1.619975861907005310e+01 1.591974703595042229e+00 2.055272614583429913e-01
1.450237092375755310e+01 7.670235317200422287e-01 1.936254059895929913e-01
1.521159943938255310e+01 8.135323207825422287e-01 2.174901520833429913e-01
1.588786897063255310e+01 8.777413051575422287e-01 2.406072175130304913e-01
1.667253693938255310e+01 9.448799770325422287e-01 2.671727692708429913e-01
1.754167756438255310e+01 1.019220797345042229e+00 2.965917145833429913e-01
1.825346955657005310e+01 1.123590914532542229e+00 3.221501862630304913e-01
1.822893342375755310e+01 1.295343844220042229e+00 3.271550690755304913e-01
1.816155061125755310e+01 1.468439547345042229e+00 3.304509675130304913e-01
1.526384553313255310e+01 6.638741176575422287e-01 2.785558259114679913e-01
1.531377229094505310e+01 7.986397426575422287e-01 2.847966706380304913e-01
1.593816193938255310e+01 8.696846645325422287e-01 3.093480622395929913e-01
1.672844514250755310e+01 9.365791957825422287e-01 3.396672761067804913e-01
1.760429963469505310e+01 1.010797945782542229e+00 3.732671296224054913e-01
1.851213654875755310e+01 1.099543062970042229e+00 4.084844147786554913e-01
1.948064240813255310e+01 1.202570406720042229e+00 4.463414704427179913e-01
2.035930451750755310e+01 1.329523531720042229e+00 4.817876374349054913e-01
2.587224397063255310e+01 -7.453055698424577713e-01 7.228612458333429913e-01
2.599944123625755310e+01 -5.127616245299577713e-01 7.355565583333429913e-01
1.733281525969505310e+01 7.103829067200422287e-01 4.280156647786554913e-01
1.746220979094505310e+01 8.589424770325422287e-01 4.380559479817804913e-01
1.766789826750755310e+01 1.002130953595042229e+00 4.509801423177179913e-01
1.857536897063255310e+01 1.091486422345042229e+00 4.903478180989679913e-01
1.955107697844505310e+01 1.194513766095042229e+00 5.324315583333429913e-01
2.063811311125755310e+01 1.309137789532542229e+00 5.798100983724054913e-01
2.606035432219505310e+01 -7.747245151549577713e-01 8.445958649739679913e-01
2.619914826750755310e+01 -5.415702182799577713e-01 8.583135163411554913e-01
2.632170686125755310e+01 -3.042655307799577713e-01 8.714208161458429913e-01
2.659380158782005310e+01 -7.941201515495777130e-02 8.908299958333429913e-01
2.857146272063255310e+01 -8.000882342457771301e-03 9.816045319661554913e-01
3.205449494719505310e+01 -2.142861671745777130e-02 1.136984780989592991e+00
2.042473420500755310e+01 1.128351656720042229e+00 6.537389313802179913e-01
2.071855744719505310e+01 1.300959078595042229e+00 6.724309479817804913e-01
2.625029572844505310e+01 -8.043876010924577713e-01 9.675969636067804913e-01
2.646574983000755310e+01 -5.786795932799577713e-01 9.853887116536554913e-01
2.682451447844505310e+01 -3.651786167174577713e-01 1.009863809309905491e+00
2.836357697844505310e+01 -2.653251010924577713e-01 1.088919595442717991e+00
3.050591096282005310e+01 -1.915946323424577713e-01 1.196890786848967991e+00
3.259831818938255310e+01 -7.135537452995777130e-02 1.303885415755217991e+00
3.294096955657005310e+01 2.183174770325422287e-01 1.329977945052092991e+00
3.314262971282005310e+01 5.219063442200422287e-01 1.349554971419280491e+00
2.657390412688255310e+01 -8.518729526549577713e-01 1.099692300520842991e+00
2.706474885344505310e+01 -6.566825229674577713e-01 1.132254556380217991e+00
2.815984162688255310e+01 -5.204520542174577713e-01 1.195563272200530491e+00
2.993767365813255310e+01 -4.317069370299577713e-01 1.294196084700530491e+00
3.202202424407005310e+01 -3.371024448424577713e-01 1.409522012434905491e+00
3.288213166594505310e+01 -9.991982765495777130e-02 1.463309243880217991e+00
3.316142854094505310e+01 1.970772426575422287e-01 1.487662271223967991e+00
3.337248811125755310e+01 5.023750942200422287e-01 1.508597329817717991e+00
2.710405549407005310e+01 -9.270682651549577713e-01 1.245444253645842991e+00
2.796037873625755310e+01 -7.715506870299577713e-01 1.300330117903655491e+00
2.927934846282005310e+01 -6.516776401549577713e-01 1.381186441145842991e+00
3.101604279875755310e+01 -5.476737339049577713e-01 1.485968545638030491e+00
3.256816682219505310e+01 -3.930106479674577713e-01 1.581534341536467991e+00
3.310088166594505310e+01 -1.232352573424577713e-01 1.621008828841155491e+00
3.339360627532005310e+01 1.751045864075422287e-01 1.647345498763030491e+00
3.401433381438255310e+01 4.569649379700422287e-01 1.692343667708342991e+00
2.778227815032005310e+01 -1.022161038592457771e+00 1.405569986067717991e+00
2.908012971282005310e+01 -9.143729526549577713e-01 1.490744546614592991e+00
3.051225861907005310e+01 -7.960868198424577713e-01 1.583975747786467991e+00
3.196904572844505310e+01 -6.509452182799577713e-01 1.680273965559905491e+00
3.298442658782005310e+01 -4.369559604674577713e-01 1.750830606184905491e+00
3.332268342375755310e+01 -1.469168979674577713e-01 1.780981973372405491e+00
3.400676545500755310e+01 1.251778285950422287e-01 1.833212808333342991e+00
3.526140412688255310e+01 3.732247035950422287e-01 1.919928506575530491e+00
2.888200959563255310e+01 -1.173894437029957771e+00 1.598242715559905491e+00
3.010942658782005310e+01 -1.046453030779957771e+00 1.685126260481780491e+00
3.152483186125755310e+01 -9.159598667174577713e-01 1.784842447005217991e+00
3.253801545500755310e+01 -7.149100620299577713e-01 1.859442666731780491e+00
3.326384553313255310e+01 -4.683280307799577713e-01 1.915961221419280491e+00
3.383855256438255310e+01 -1.951346714049577713e-01 1.963034585677092991e+00
3.472490510344505310e+01 6.731650047004222870e-02 2.030890420638030491e+00
3.647405061125755310e+01 2.913155239075422287e-01 2.155997232161467991e+00
2.976225861907005310e+01 -1.296575101092457771e+00 1.786887124739592991e+00
3.117803010344505310e+01 -1.183660062029957771e+00 1.891821817122405491e+00
3.230193147063255310e+01 -1.009465726092457771e+00 1.978186563216155491e+00
3.298991975188255310e+01 -7.670340854674577713e-01 2.035071328841155491e+00
3.367168244719505310e+01 -5.117850620299577713e-01 2.091879800520842991e+00
3.446233186125755310e+01 -2.525077182799577713e-01 2.156668618880217991e+00
3.590166291594505310e+01 -2.435830421745777130e-02 2.267432168684905491e+00
3.740801057219505310e+01 2.266182582825422287e-01 2.384589151106780491e+00
3.082134065032005310e+01 -1.443547757342457771e+00 1.996130899153655491e+00
3.196794709563255310e+01 -1.286809476092457771e+00 2.088828042708342991e+00
3.279192170500755310e+01 -1.070622952654957771e+00 2.158469155989592991e+00
3.353606233000755310e+01 -8.290458042174577713e-01 2.222708657942717991e+00
3.427556428313255310e+01 -5.736747104674577713e-01 2.286978677473967991e+00
3.536357697844505310e+01 -3.331961948424577713e-01 2.377631143294280491e+00
3.690703400969505310e+01 -1.038260776549577713e-01 2.502966836653655491e+00
3.797502717375755310e+01 1.848702114075422287e-01 2.593466714583342991e+00
3.164079865813255310e+01 -1.558782132342457771e+00 2.197409585677092991e+00
3.259575471282005310e+01 -1.370061429217457771e+00 2.279868081770842991e+00
3.339128693938255310e+01 -1.144353421404957771e+00 2.351141885481780491e+00
3.415117463469505310e+01 -8.983817417174577713e-01 2.420096353255217991e+00
3.502141389250755310e+01 -6.491141635924577713e-01 2.498145059309905491e+00
3.633745393157005310e+01 -4.203543979674577713e-01 2.611914590559905491e+00
3.767693147063255310e+01 -1.662040073424577713e-01 2.728323892317717991e+00
3.875151643157005310e+01 1.295723598450422287e-01 2.825262979231780491e+00
3.240386018157005310e+01 -1.666814358904957771e+00 2.401007608138030491e+00
3.323955354094505310e+01 -1.455510647967457771e+00 2.478903726302092991e+00
3.407121858000755310e+01 -1.227483304217457771e+00 2.556937173567717991e+00
3.489433869719505310e+01 -9.812674839049577713e-01 2.634741738997405491e+00
3.587834748625755310e+01 -7.352958042174577713e-01 2.726386026106780491e+00
3.738054475188255310e+01 -5.136161167174577713e-01 2.861960366927092991e+00
3.853581818938255310e+01 -2.355399448424577713e-01 2.969260171614592991e+00
3.974651154875755310e+01 6.023642234504222870e-02 3.081824258528655491e+00
3.310552033782005310e+01 -1.766789944842457771e+00 2.607230142317717991e+00
3.395378693938255310e+01 -1.549993069842457771e+00 2.690192178450530491e+00
3.478740510344505310e+01 -1.315007718279957771e+00 2.771491006575530491e+00
3.579094514250755310e+01 -1.080388577654957771e+00 2.869009927473967991e+00
3.696050080657005310e+01 -8.428397495299577713e-01 2.981650308333342991e+00
3.827239045500755310e+01 -5.945487339049577713e-01 3.107504800520842991e+00
3.954631623625755310e+01 -3.163504917174577713e-01 3.231696084700530491e+00
4.089885529875755310e+01 -1.959756202995777130e-02 3.362616494856780491e+00
3.386296662688255310e+01 -1.874455960467457771e+00 2.825186685286467991e+00
3.469804963469505310e+01 -1.648503812029957771e+00 2.910132363997405491e+00
3.568755158782005310e+01 -1.423894437029957771e+00 3.010565713606780491e+00
3.685442170500755310e+01 -1.197209866717457771e+00 3.127951577864592991e+00
3.813005647063255310e+01 -9.591727573424577713e-01 3.256018594466155491e+00
3.934587678313255310e+01 -6.909842807799577713e-01 3.379218057356780491e+00
4.068352326750755310e+01 -4.068045932799577713e-01 3.514456704817717991e+00
4.196416291594505310e+01 -9.418252296745777130e-02 3.646048501692717991e+00
1.131084260344505310e+01 1.900202242657542229e+00 -9.700874928384450868e-02
1.129314240813255310e+01 2.000666109845042229e+00 -9.362129811196950868e-02
1.127153596282005310e+01 2.100763766095042229e+00 -9.052376393228200868e-02
1.124980744719505310e+01 2.200739352032542229e+00 -8.742622975259450868e-02
1.123357209563255310e+01 2.299860445782542229e+00 -8.432869557290700868e-02
1.123711213469505310e+01 2.398371187970042229e+00 -8.107857350259450868e-02
1.124053010344505310e+01 2.497126070782542229e+00 -7.782845143228200868e-02
1.124004182219505310e+01 2.595636812970042229e+00 -7.485298756509450868e-02
1.229704865813255310e+01 1.838312594220042229e+00 -4.068855885415700868e-02
1.230095490813255310e+01 1.947443453595042229e+00 -3.708748463540700868e-02
1.230962190032005310e+01 2.056452242657542229e+00 -3.316597584634450868e-02
1.231352815032005310e+01 2.166071383282542229e+00 -2.954964283853200868e-02
1.230644807219505310e+01 2.275568453595042229e+00 -2.608589772134450868e-02
1.229265412688255310e+01 2.384943453595042229e+00 -2.269844654946950868e-02
1.226201447844505310e+01 2.494318453595042229e+00 -1.978401783853200868e-02
1.223650178313255310e+01 2.602838961407542229e+00 -1.657967213540700868e-02
1.335124787688255310e+01 1.771906344220042229e+00 2.576346751303049132e-02
1.333782014250755310e+01 1.892511812970042229e+00 2.944083567709299132e-02
1.332439240813255310e+01 2.012751070782542229e+00 3.310294505209299132e-02
1.331108674407005310e+01 2.133112398907542229e+00 3.678031321615549132e-02
1.329778108000755310e+01 2.252741305157542229e+00 4.042716380209299132e-02
1.327068147063255310e+01 2.372126070782542229e+00 4.382987376303049132e-02
1.323979768157005310e+01 2.491388766095042229e+00 4.717154856771799132e-02
1.320915803313255310e+01 2.609552828595042229e+00 5.048270579428049132e-02
1.445891389250755310e+01 1.701960055157542229e+00 1.026830231770929913e-01
1.447295197844505310e+01 1.832209078595042229e+00 1.075200593099054913e-01
1.447881135344505310e+01 1.962946383282542229e+00 1.118688141927179913e-01
1.448479279875755310e+01 2.094294039532542229e+00 1.162328278645929913e-01
1.449065217375755310e+01 2.225153414532542229e+00 1.205968415364679913e-01
1.449663361907005310e+01 2.356134859845042229e+00 1.249455964192804913e-01
1.450249299407005310e+01 2.487604586407542229e+00 1.293248688802179913e-01
1.450029572844505310e+01 2.618586031720042229e+00 1.331853425130304913e-01
1.619963654875755310e+01 1.592585055157542229e+00 2.055425202474054913e-01
1.620671662688255310e+01 1.740534273907542229e+00 2.104863679036554913e-01
1.621379670500755310e+01 1.888605562970042229e+00 2.154302155599054913e-01
1.622087678313255310e+01 2.037287203595042229e+00 2.204045807942804913e-01
1.622783479094505310e+01 2.185480562970042229e+00 2.253636872395929913e-01
1.623491486907005310e+01 2.333795992657542229e+00 2.303227936849054913e-01
1.622563752532005310e+01 2.482599703595042229e+00 2.348546540364679913e-01
1.620476350188255310e+01 2.630670992657542229e+00 2.390813386067804913e-01
1.816094025969505310e+01 1.469049898907542229e+00 3.304509675130304913e-01
1.810979279875755310e+01 1.639704195782542229e+00 3.347539460286554913e-01
1.804802522063255310e+01 1.809626070782542229e+00 3.382939850911554913e-01
1.799809846282005310e+01 1.978449312970042229e+00 3.421544587239679913e-01
1.797575959563255310e+01 2.145075289532542229e+00 3.468083893880304913e-01
1.795342072844505310e+01 2.311090914532542229e+00 3.514470612630304913e-01
1.793108186125755310e+01 2.477228609845042229e+00 3.560857331380304913e-01
1.789995393157005310e+01 2.642145602032542229e+00 3.600072419270929913e-01
2.035930451750755310e+01 1.330133883282542229e+00 4.818028962239679913e-01
2.036589631438255310e+01 1.519831148907542229e+00 4.880895173177179913e-01
2.038115510344505310e+01 1.709040133282542229e+00 4.946813141927179913e-01
2.039165315032005310e+01 1.899347750470042229e+00 5.011357819661554913e-01
2.040227326750755310e+01 2.089167086407542229e+00 5.075749909505304913e-01
2.040019807219505310e+01 2.279230562970042229e+00 5.135716950520929913e-01
2.036443147063255310e+01 2.469782320782542229e+00 5.183934723958429913e-01
2.032903108000755310e+01 2.658991305157542229e+00 5.231694733724054913e-01
2.064604768157005310e+01 1.309259859845042229e+00 5.801305329427179913e-01
2.177446565032005310e+01 1.443415133282542229e+00 6.296300446614679913e-01
2.300713166594505310e+01 1.595514742657542229e+00 6.844243561849054913e-01
2.364922150969505310e+01 1.791803805157542229e+00 7.164220368489679913e-01
2.356267365813255310e+01 2.016291109845042229e+00 7.200841462239679913e-01
2.347673615813255310e+01 2.238947359845042229e+00 7.237309968099054913e-01
2.341435822844505310e+01 2.460382906720042229e+00 7.277287995442804913e-01
2.337590608000755310e+01 2.679987398907542229e+00 7.331761872395929913e-01
2.072636994719505310e+01 1.301203219220042229e+00 6.727971589192804913e-01
2.185613068938255310e+01 1.435846773907542229e+00 7.275609528645929913e-01
2.309880647063255310e+01 1.588190523907542229e+00 7.879552399739679913e-01
2.451762971282005310e+01 1.760431734845042229e+00 8.568334138020929913e-01
2.589812287688255310e+01 1.960871187970042229e+00 9.249028718099054913e-01
2.751701936125755310e+01 2.185724703595042229e+00 1.004401162825530491e+00
2.764385041594505310e+01 2.447321383282542229e+00 1.018362954817717991e+00
2.749040803313255310e+01 2.708185641095042229e+00 1.019782022200530491e+00
3.314385041594505310e+01 5.230049770325422287e-01 1.349646524153655491e+00
3.332817658782005310e+01 8.311104457825422287e-01 1.368460611067717991e+00
2.449577912688255310e+01 1.525568453595042229e+00 9.549779450520929913e-01
2.460344514250755310e+01 1.754084078595042229e+00 9.675054108724054913e-01
2.600237092375755310e+01 1.954889742657542229e+00 1.042807534895842991e+00
2.759136018157005310e+01 2.180963961407542229e+00 1.128287271223967991e+00
2.918132600188255310e+01 2.439630953595042229e+00 1.214835122786467991e+00
3.088066682219505310e+01 2.729792086407542229e+00 1.307776406966155491e+00
3.337383088469505310e+01 5.034737270325422287e-01 1.508704141341155491e+00
3.491948518157005310e+01 7.423653285950422287e-01 1.599570230208342991e+00
3.771709260344505310e+01 9.586739223450422287e-01 1.757224038802092991e+00
3.803520783782005310e+01 1.312799898907542229e+00 1.785513833723967991e+00
3.827263459563255310e+01 1.673761812970042229e+00 1.809668496809905491e+00
4.147246369719505310e+01 2.001764742657542229e+00 1.992545083723967991e+00
3.029985627532005310e+01 2.432672945782542229e+00 1.403662637434905491e+00
3.100151643157005310e+01 2.726374117657542229e+00 1.450736001692717991e+00
3.401799592375755310e+01 4.579415004700422287e-01 1.692587808333342991e+00
3.679338654875755310e+01 6.382393520325422287e-01 1.860663369856780491e+00
3.794865998625755310e+01 9.431709926575422287e-01 1.937827066145842991e+00
3.827446565032005310e+01 1.299494234845042229e+00 1.968054727278655491e+00
3.885405549407005310e+01 1.654962984845042229e+00 2.013113931380217991e+00
4.174529084563255310e+01 1.992365328595042229e+00 2.192892984114592991e+00
4.213872346282005310e+01 2.395563570782542229e+00 2.228552774153655491e+00
4.373906525969505310e+01 2.813776461407542229e+00 2.335318521223967991e+00
3.527446565032005310e+01 3.737129848450422287e-01 1.920752481184905491e+00
3.754595002532005310e+01 5.928291957825422287e-01 2.071051553450530491e+00
3.818327912688255310e+01 9.274239223450422287e-01 2.120825723372405491e+00
3.885857209563255310e+01 1.274591891095042229e+00 2.174292520247405491e+00
4.107903108000755310e+01 1.598322359845042229e+00 2.324561074934905491e+00
4.202190217375755310e+01 1.982843844220042229e+00 2.396079019270842991e+00
4.309807404875755310e+01 2.386774508282542229e+00 2.477652505598967991e+00
4.594646272063255310e+01 2.823175875470042229e+00 2.671149209700530491e+00
3.648869904875755310e+01 2.916817348450422287e-01 2.156989053450530491e+00
3.806804475188255310e+01 5.595040004700422287e-01 2.272330239973967991e+00
3.851030549407005310e+01 9.076485317200422287e-01 2.313116983138030491e+00
4.012212190032005310e+01 1.227106539532542229e+00 2.432257608138030491e+00
4.168608674407005310e+01 1.578424898907542229e+00 2.549155191145842991e+00
4.263872346282005310e+01 1.968683687970042229e+00 2.625830606184905491e+00
4.493926057219505310e+01 2.375055758282542229e+00 2.794333413802092991e+00
4.625139436125755310e+01 2.818903414532542229e+00 2.897040322981780491e+00
3.741484650969505310e+01 2.274727504700422287e-01 2.385107949934905491e+00
3.832597932219505310e+01 5.399727504700422287e-01 2.459814981184905491e+00
3.938689240813255310e+01 8.639473598450422287e-01 2.546622232161467991e+00
4.139714631438255310e+01 1.178888766095042229e+00 2.701834634505217991e+00
4.232793244719505310e+01 1.557428805157542229e+00 2.780920938216155491e+00
4.388713654875755310e+01 1.946100680157542229e+00 2.905783609114592991e+00
4.584526643157005310e+01 2.365900484845042229e+00 3.060477212630217991e+00
4.692021760344505310e+01 2.816950289532542229e+00 3.153357461653655491e+00
3.798186311125755310e+01 1.857247035950422287e-01 2.594016030989592991e+00
3.903301057219505310e+01 4.963936489075422287e-01 2.684531167708342991e+00
4.076164826750755310e+01 7.983956020325422287e-01 2.826941446028655491e+00
4.208037385344505310e+01 1.149958102032542229e+00 2.939322427473967991e+00
4.319267854094505310e+01 1.531061617657542229e+00 3.036719278059905491e+00
4.524345979094505310e+01 1.921564547345042229e+00 3.206656411848967991e+00
4.643828400969505310e+01 2.357355562970042229e+00 3.312109903059905491e+00
4.797258576750755310e+01 2.817438570782542229e+00 3.444434121809905491e+00
3.875969514250755310e+01 1.304268520325422287e-01 2.825949624739592991e+00
4.007329377532005310e+01 4.347481410950422287e-01 2.941565469466155491e+00
4.179326447844505310e+01 7.473702114075422287e-01 3.091528848372405491e+00
4.285234650969505310e+01 1.117853609845042229e+00 3.189337686263030491e+00
4.446416291594505310e+01 1.494806734845042229e+00 3.332465127669280491e+00
4.600322541594505310e+01 1.904840914532542229e+00 3.470648721419280491e+00
4.734563264250755310e+01 2.347589937970042229e+00 3.593817666731780491e+00
4.893059358000755310e+01 2.816950289532542229e+00 3.738745645247405491e+00
3.975688752532005310e+01 6.096884422004222870e-02 3.082724527083342991e+00
4.123796662688255310e+01 3.660225551575422287e-01 3.219794229231780491e+00
4.253276643157005310e+01 7.087959926575422287e-01 3.341956094466155491e+00
4.396733674407005310e+01 1.073908297345042229e+00 3.476843789778655491e+00
4.557292756438255310e+01 1.462091891095042229e+00 3.627203897200530491e+00
4.705632600188255310e+01 1.883844820782542229e+00 3.768042520247405491e+00
4.849333772063255310e+01 2.336725680157542229e+00 3.905844644270842991e+00
5.013054475188255310e+01 2.817682711407542229e+00 4.061758950911467991e+00
4.090874299407005310e+01 -1.886514015495777130e-02 3.363532022200530491e+00
4.220854768157005310e+01 3.074288051575422287e-01 3.491599038802092991e+00
4.367998322844505310e+01 6.520332973450422287e-01 3.634787515364592991e+00
4.522466096282005310e+01 1.024958102032542229e+00 3.786505655013030491e+00
4.668877229094505310e+01 1.428888766095042229e+00 3.931845620833342991e+00
4.815312775969505310e+01 1.861872164532542229e+00 4.078101113997405491e+00
4.983440217375755310e+01 2.324762789532542229e+00 4.246161416731780491e+00
5.135991486907005310e+01 2.818293062970042229e+00 4.399847940169280491e+00
4.197270783782005310e+01 -9.332803077995777130e-02 3.646887735091155491e+00
4.340862092375755310e+01 2.361397426575422287e-01 3.793005899153655491e+00
4.495903596282005310e+01 5.891670864075422287e-01 3.951788858138030491e+00
4.643205842375755310e+01 9.772286098450422287e-01 4.104239419661467991e+00
4.784062775969505310e+01 1.394464937970042229e+00 4.251440957747405491e+00
4.956889924407005310e+01 1.835138766095042229e+00 4.429861978255217991e+00
5.104082307219505310e+01 2.312921969220042229e+00 4.584937051497405491e+00
5.298345002532005310e+01 2.820856539532542229e+00 4.787177041731780491e+00
1.124004182219505310e+01 2.596003023907542229e+00 -7.485298756509450868e-02
1.124248322844505310e+01 2.694513766095042229e+00 -7.166390065103200868e-02
1.124101838469505310e+01 2.793146578595042229e+00 -6.876473072915700868e-02
1.123955354094505310e+01 2.892023531720042229e+00 -6.585030201821950868e-02
1.123808869719505310e+01 2.990778414532542229e+00 -6.293587330728200868e-02
1.123662385344505310e+01 3.089533297345042229e+00 -6.002144459634450868e-02
1.123174104094505310e+01 3.188410250470042229e+00 -5.713753346353200868e-02
1.121867951750755310e+01 3.286310641095042229e+00 -5.457405690103200868e-02
1.223650178313255310e+01 2.603205172345042229e+00 -1.656441334634450868e-02
1.220586213469505310e+01 2.711115328595042229e+00 -1.374153736978200868e-02
1.217998322844505310e+01 2.818537203595042229e+00 -1.058296803384450868e-02
1.214946565032005310e+01 2.925837008282542229e+00 -7.775350846344508682e-03
1.211907014250755310e+01 3.032160250470042229e+00 -4.982992447907008682e-03
1.208891877532005310e+01 3.138117281720042229e+00 -2.205892838532008682e-03
1.205425080657005310e+01 3.243463961407542229e+00 2.355134114679913182e-04
1.211491975188255310e+01 3.355524508282542229e+00 4.340127669280491318e-03
1.320928010344505310e+01 2.609919039532542229e+00 5.049796458334299132e-02
1.317326936125755310e+01 2.727350680157542229e+00 5.339713450521799132e-02
1.313750275969505310e+01 2.844294039532542229e+00 5.629630442709299132e-02
1.310173615813255310e+01 2.960871187970042229e+00 5.918021555990549132e-02
1.306633576750755310e+01 3.076593844220042229e+00 6.204886790365549132e-02
1.303117951750755310e+01 3.191706148907542229e+00 6.490226145834299132e-02
1.303435334563255310e+01 3.309137789532542229e+00 6.847281809896799132e-02
1.316509065032005310e+01 3.436457125470042229e+00 7.453055735678049132e-02
1.450041779875755310e+01 2.619074312970042229e+00 1.332006013020929913e-01
1.450761994719505310e+01 2.750177828595042229e+00 1.376409089192804913e-01
1.450664338469505310e+01 2.881281344220042229e+00 1.415776764974054913e-01
1.450554475188255310e+01 3.012995211407542229e+00 1.455449616536554913e-01
1.450444611907005310e+01 3.144464937970042229e+00 1.494817292317804913e-01
1.450346955657005310e+01 3.275812594220042229e+00 1.534337555989679913e-01
1.460722932219505310e+01 3.414972750470042229e+00 1.598882233724054913e-01
1.470696076750755310e+01 3.555597750470042229e+00 1.659764802083429913e-01
1.620512971282005310e+01 2.631159273907542229e+00 2.390965973958429913e-01
1.617815217375755310e+01 2.778620211407542229e+00 2.428807770833429913e-01
1.615117463469505310e+01 2.925837008282542229e+00 2.466344391927179913e-01
1.612431916594505310e+01 3.073053805157542229e+00 2.504033600911554913e-01
1.609758576750755310e+01 3.219294039532542229e+00 2.541570222005304913e-01
1.611809358000755310e+01 3.367975680157542229e+00 2.592229401692804913e-01
1.617241486907005310e+01 3.519953219220042229e+00 2.652654206380304913e-01
1.622722443938255310e+01 3.672663180157542229e+00 2.713536774739679913e-01
1.789995393157005310e+01 2.642755953595042229e+00 3.600072419270929913e-01
1.788164338469505310e+01 2.807306734845042229e+00 3.648900544270929913e-01
1.785429963469505310e+01 2.971369234845042229e+00 3.690709626302179913e-01
1.782707795500755310e+01 3.135675875470042229e+00 3.732518708333429913e-01
1.780962190032005310e+01 3.299494234845042229e+00 3.777379548177179913e-01
1.786650666594505310e+01 3.467340914532542229e+00 3.846349274739679913e-01
1.792412385344505310e+01 3.637140719220042229e+00 3.916081940755304913e-01
1.797258576750755310e+01 3.806940523907542229e+00 3.978948151692804913e-01
2.032903108000755310e+01 2.659601656720042229e+00 5.231999909505304913e-01
2.028740510344505310e+01 2.848078219220042229e+00 5.275182282552179913e-01
2.024577912688255310e+01 3.035822359845042229e+00 5.318364655599054913e-01
2.020427522063255310e+01 3.223444430157542229e+00 5.361394440755304913e-01
2.019292268157005310e+01 3.411310641095042229e+00 5.415257966145929913e-01
2.019463166594505310e+01 3.599909273907542229e+00 5.474004304036554913e-01
2.019634065032005310e+01 3.789240328595042229e+00 5.532903229817804913e-01
2.019804963469505310e+01 3.978205172345042229e+00 5.591802155599054913e-01
2.337590608000755310e+01 2.680719820782542229e+00 7.331914460286554913e-01
2.333281525969505310e+01 2.899469820782542229e+00 7.382573639974054913e-01
2.330461701750755310e+01 3.117975680157542229e+00 7.444371735677179913e-01
2.324992951750755310e+01 3.335871187970042229e+00 7.490148102864679913e-01
2.318108186125755310e+01 3.551325289532542229e+00 7.529363190755304913e-01
2.312724885344505310e+01 3.766657320782542229e+00 7.574529206380304913e-01
2.305498322844505310e+01 3.980524508282542229e+00 7.606572663411554913e-01
2.300176057219505310e+01 4.193781344220042229e+00 7.651280915364679913e-01
2.748967561125755310e+01 2.709040133282542229e+00 1.019766763411467991e+00
2.731694611907005310e+01 2.966486422345042229e+00 1.020087197981780491e+00
2.709123811125755310e+01 3.219294039532542229e+00 1.017889932356780491e+00
2.686833772063255310e+01 3.468927828595042229e+00 1.015707925520842991e+00
2.664995393157005310e+01 3.713556734845042229e+00 1.013586953841155491e+00
2.643498811125755310e+01 3.954157320782542229e+00 1.011496499739592991e+00
2.626970490813255310e+01 4.195002047345042229e+00 1.011618570052092991e+00
2.637944611907005310e+01 4.453302828595042229e+00 1.024588540755217991e+00
3.089214143157005310e+01 2.730890719220042229e+00 1.308371499739592991e+00
3.265727815032005310e+01 3.056208102032542229e+00 1.405615762434905491e+00
3.316777619719505310e+01 3.382502047345042229e+00 1.441046670638030491e+00
3.281999787688255310e+01 3.688410250470042229e+00 1.433508828841155491e+00
3.248064240813255310e+01 3.986750094220042229e+00 1.426154092513030491e+00
3.201457795500755310e+01 4.271418062970042229e+00 1.412116006575530491e+00
3.183171662688255310e+01 4.567194430157542229e+00 1.412390664778655491e+00
3.166374787688255310e+01 4.859674898907542229e+00 1.413306192122405491e+00
3.101311311125755310e+01 2.727472750470042229e+00 1.451392129622405491e+00
3.279363068938255310e+01 3.054132906720042229e+00 1.557715371809905491e+00
3.464238557219505310e+01 3.418390719220042229e+00 1.668936685286467991e+00
3.664751252532005310e+01 3.826960055157542229e+00 1.789969400130217991e+00
3.858525666594505310e+01 4.271418062970042229e+00 1.908499673567717991e+00
4.061394318938255310e+01 4.760309664532542229e+00 2.033347085677092991e+00
4.008965119719505310e+01 5.119440523907542229e+00 2.016440347395842991e+00
3.957402619719505310e+01 5.467829195782542229e+00 1.999655679427092991e+00
4.375774201750755310e+01 2.815363375470042229e+00 2.336462930403655491e+00
4.609087190032005310e+01 3.278254000470042229e+00 2.487723306380217991e+00
4.640691193938255310e+01 3.733454195782542229e+00 2.520697549544280491e+00
4.899736604094505310e+01 4.281305758282542229e+00 2.689734414778655491e+00
3.920171174407005310e+01 4.295587984845042229e+00 2.116965249739592991e+00
4.076531037688255310e+01 4.763727633282542229e+00 2.223364785872405491e+00
4.290422639250755310e+01 5.303644625470042229e+00 2.365714029036467991e+00
4.502593049407005310e+01 5.884088961407542229e+00 2.508337930403655491e+00
4.594927033782005310e+01 2.824762789532542229e+00 2.671378091536467991e+00
4.639970979094505310e+01 3.277277437970042229e+00 2.714301065169280491e+00
4.879399690032005310e+01 3.791681734845042229e+00 2.880789712630217991e+00
4.934209260344505310e+01 4.287653414532542229e+00 2.931281045638030491e+00
5.190324983000755310e+01 4.888117281720042229e+00 3.112158731184905491e+00
5.239238557219505310e+01 5.421930758282542229e+00 3.160132363997405491e+00
5.509294709563255310e+01 6.116144625470042229e+00 3.354147866927092991e+00
5.584001740813255310e+01 6.712580172345042229e+00 3.420416787825530491e+00
4.625444611907005310e+01 2.820490328595042229e+00 2.897284463606780491e+00
4.744548615813255310e+01 3.288629977032542229e+00 2.993063882552092991e+00
4.919804963469505310e+01 3.795954195782542229e+00 3.128149942122405491e+00
5.032817658782005310e+01 4.317438570782542229e+00 3.221503213606780491e+00
5.228911408782005310e+01 4.899347750470042229e+00 3.373114541731780491e+00
5.456999787688255310e+01 5.539118258282542229e+00 3.548239663802092991e+00
5.570195588469505310e+01 6.149958102032542229e+00 3.644614175520842991e+00
5.822588166594505310e+01 6.889337984845042229e+00 3.839423135481780491e+00
4.693083772063255310e+01 2.818659273907542229e+00 3.154166177473967991e+00
4.866069611907005310e+01 3.302545992657542229e+00 3.293890908919280491e+00
4.985613068938255310e+01 3.806940523907542229e+00 3.396735147200530491e+00
5.187517365813255310e+01 4.367731539532542229e+00 3.560996011458342991e+00
5.328838166594505310e+01 4.939264742657542229e+00 3.681769326888030491e+00
5.533672150969505310e+01 5.575617281720042229e+00 3.850607827864592991e+00
5.748332795500755310e+01 6.262018648907542229e+00 4.028174356184905491e+00
5.899211701750755310e+01 6.940973727032542229e+00 4.160773233138030491e+00
4.798760041594505310e+01 2.819147555157542229e+00 3.445624307356780491e+00
4.940215119719505310e+01 3.308161227032542229e+00 3.570486978255217991e+00
5.111479768157005310e+01 3.833673922345042229e+00 3.719473794661467991e+00
5.275005158782005310e+01 4.392878023907542229e+00 3.863593057356780491e+00
5.474419221282005310e+01 5.000177828595042229e+00 4.036932901106780491e+00
5.655852326750755310e+01 5.637751070782542229e+00 4.197394326888030491e+00
5.847429475188255310e+01 6.320856539532542229e+00 4.367163613997405491e+00
6.014653596282005310e+01 7.022272555157542229e+00 4.518790200911467991e+00
