8.756807103753089905e+00 1.888737874105572701e-01 -1.902777621522488971e-01
8.806733861565589905e+00 2.544255452230572701e-01 -1.869208285584988971e-01
8.857148900628089905e+00 3.205876545980572701e-01 -1.835181185975613971e-01
9.101411595940589905e+00 3.341374592855572701e-01 -1.806494662538113971e-01
9.379853978753089905e+00 3.435368733480572701e-01 -1.776740023866238971e-01
9.678437963128089905e+00 3.535466389730572701e-01 -1.744696566834988971e-01
9.997041478753089905e+00 3.642888264730572701e-01 -1.712653109803738971e-01
1.543576218187808990e+01 -2.010467032901942730e+00 -1.584784457459988971e-01
1.585226608812808990e+01 -1.984466056339442730e+00 -1.516730258241238971e-01
9.365693822503089905e+00 8.767749834805727005e-02 -1.506812045350613971e-01
9.422456517815589905e+00 1.581120686605572701e-01 -1.468665072694363971e-01
9.479341283440589905e+00 2.290349202230572701e-01 -1.430365512147488971e-01
9.536836400628089905e+00 3.004460530355572701e-01 -1.391608187928738971e-01
9.697480931878089905e+00 3.469548420980572701e-01 -1.351782748475613971e-01
1.001767136156558990e+01 3.574528889730572701e-01 -1.303564975038113971e-01
1.571335007250308990e+01 -2.101897696964442730e+00 -8.926457855849889711e-02
1.614608933031558990e+01 -2.077849845401942730e+00 -8.044499848037389711e-02
1.660324265062808990e+01 -2.052581290714442730e+00 -7.110661957412389711e-02
1.704855515062808990e+01 -2.014373282901942730e+00 -6.144780609756139711e-02
1.327231003344058990e+01 -8.117365641519427299e-01 -7.940740082412389711e-02
1.020626999437808990e+01 1.224675374105572701e-01 -9.574956391006139711e-02
1.027231003344058990e+01 1.999821858480572701e-01 -9.130925629287389711e-02
1.033871628344058990e+01 2.779851155355572701e-01 -8.683843109756139711e-02
1.600070358812808990e+01 -2.196380118839442730e+00 -1.762456391006139711e-02
1.645224167406558990e+01 -2.175139884464442730e+00 -6.210989691311397110e-03
1.689547897875308990e+01 -2.142425040714442730e+00 5.095773004001102890e-03
1.727487351000308990e+01 -2.082366446964442730e+00 1.608210112900110289e-02
1.782077194750308990e+01 -2.061248282901942730e+00 2.923517730087610289e-02
1.815426804125308990e+01 -1.973479728214442730e+00 4.032831694931360289e-02
1.833920456469058990e+01 -1.841399650089442730e+00 4.984980132431360289e-02
1.830856491625308990e+01 -1.654876212589442730e+00 5.631952788681360289e-02
1.630172897875308990e+01 -2.295501212589442730e+00 5.738764312118860289e-02
1.674240280687808990e+01 -2.267669181339442730e+00 7.035761382431360289e-02
1.714425827562808990e+01 -2.219573478214442730e+00 8.308344390243860289e-02
1.756271530687808990e+01 -2.167937736026942730e+00 9.638910796493860289e-02
1.807223679125308990e+01 -2.133880118839442730e+00 1.114647915586886029e-01
1.825558640062808990e+01 -2.003875236026942730e+00 1.215203335508761029e-01
1.844247604906558990e+01 -1.871184806339442730e+00 1.317894985899386029e-01
1.847458054125308990e+01 -1.698699454776942730e+00 1.394494106993136029e-01
1.659140183031558990e+01 -2.391082267276942730e+00 1.347344448790011029e-01
1.701230026781558990e+01 -2.354094962589442730e+00 1.497490933165011029e-01
1.737411667406558990e+01 -2.291228751651942730e+00 1.634972622618136029e-01
1.787960983812808990e+01 -2.262053946964442730e+00 1.804802944883761029e-01
1.817343308031558990e+01 -2.165374259464442730e+00 1.933892300352511029e-01
1.835873581469058990e+01 -2.034759025089442730e+00 2.041924526915011029e-01
1.854770065844058990e+01 -1.901580314151942730e+00 2.152092983946261029e-01
1.864291550219058990e+01 -1.743255118839442730e+00 2.237999966368136029e-01
1.685678268969058990e+01 -2.479094962589442730e+00 2.147057583555636029e-01
1.724289108812808990e+01 -2.428557853214442730e+00 2.304070523008761029e-01
1.761703659594058990e+01 -2.366912345401942730e+00 2.460778286680636029e-01
1.809103561937808990e+01 -2.326140861026942730e+00 2.645562222227511029e-01
1.827523972094058990e+01 -2.197112540714442730e+00 2.759240200743136029e-01
1.846261765062808990e+01 -2.066009025089442730e+00 2.874749233946261029e-01
1.865365768969058990e+01 -1.932097892276942730e+00 2.992547085508761029e-01
1.881564499437808990e+01 -1.788909415714442730e+00 3.103478481993136029e-01
1.711313034594058990e+01 -2.564422111026942730e+00 2.966149380430636029e-01
1.747519089281558990e+01 -2.503631095401942730e+00 3.133538296446261029e-01
1.793722702562808990e+01 -2.465667228214442730e+00 3.337243130430636029e-01
1.819272018969058990e+01 -2.358977775089442730e+00 3.478234341368136029e-01
1.837899948656558990e+01 -2.229461173526942730e+00 3.599389126524386029e-01
1.856833054125308990e+01 -2.097625236026942730e+00 3.722680142149386029e-01
1.876095749437808990e+01 -1.963103751651942730e+00 3.843834927305636029e-01
1.895688034594058990e+01 -1.826873282901942730e+00 3.971245815977511029e-01
1.734359909594058990e+01 -2.641570548526942730e+00 3.805687954649386029e-01
1.771579147875308990e+01 -2.581389884464442730e+00 3.992760708555636029e-01
1.810934616625308990e+01 -2.520476798526942730e+00 4.189599087461886029e-01
1.829513718187808990e+01 -2.392058829776942730e+00 4.316857388243136029e-01
1.848349167406558990e+01 -2.261931876651942730e+00 4.445946743711886029e-01
1.867501999437808990e+01 -2.129607657901942730e+00 4.577019741758761029e-01
1.888351608812808990e+01 -1.998015861026942730e+00 4.715569546446261029e-01
1.917013718187808990e+01 -1.882537345401942730e+00 4.883416226133761029e-01
1.757968308031558990e+01 -2.720550040714442730e+00 4.665978481993136029e-01
1.799594284594058990e+01 -2.671477775089442730e+00 4.886773159727511029e-01
1.821103073656558990e+01 -2.554534415714442730e+00 5.031273892149386029e-01
1.839889694750308990e+01 -2.425628165714442730e+00 5.166314175352511029e-01
1.862277390062808990e+01 -2.304046134464442730e+00 5.316613247618136029e-01
1.888241745531558990e+01 -2.188323478214442730e+00 5.482628872618136029e-01
1.917636276781558990e+01 -2.076140861026942730e+00 5.664208462461886029e-01
1.949081589281558990e+01 -1.964446525089442730e+00 5.855706265196261029e-01
1.782418991625308990e+01 -2.802459220401942730e+00 5.557244351133761029e-01
1.812838913500308990e+01 -2.716155509464442730e+00 5.747826626524386029e-01
1.836801315844058990e+01 -2.605071525089442730e+00 5.911706021055636029e-01
1.862314011156558990e+01 -2.493621329776942730e+00 6.083825161680636029e-01
1.888363815844058990e+01 -2.379851798526942730e+00 6.259758999571261029e-01
1.917782761156558990e+01 -2.270476798526942730e+00 6.452324917540011029e-01
1.951168991625308990e+01 -2.165374259464442730e+00 6.664727261290011029e-01
1.982516647875308990e+01 -2.049773673526942730e+00 6.869652798399386029e-01
1.812179733812808990e+01 -2.901336173526942730e+00 6.493828823790011029e-01
1.836642624437808990e+01 -2.793426017276942730e+00 6.668847134336886029e-01
1.862130905687808990e+01 -2.684295157901942730e+00 6.850121548399386029e-01
1.888351608812808990e+01 -2.572234611026942730e+00 7.036736538633761029e-01
1.917856003344058990e+01 -2.465178946964442730e+00 7.240746548399386029e-01
1.952340866625308990e+01 -2.366057853214442730e+00 7.471154263243136029e-01
1.984604050219058990e+01 -2.254363517276942730e+00 7.692559292540011029e-01
2.026632858812808990e+01 -2.161345939151942730e+00 7.964928677305636029e-01
1.837851120531558990e+01 -2.987395743839442730e+00 7.442162564024386029e-01
1.862655808031558990e+01 -2.877654532901942730e+00 7.629387905821261029e-01
1.888241745531558990e+01 -2.766082267276942730e+00 7.817528774961886029e-01
1.917941452562808990e+01 -2.660979728214442730e+00 8.033898403868136029e-01
1.952536179125308990e+01 -2.564910392276942730e+00 8.278344204649386029e-01
1.986593796312808990e+01 -2.460906486026942730e+00 8.521569302305636029e-01
2.030978561937808990e+01 -2.376555900089442730e+00 8.828270962461886029e-01
2.082138229906558990e+01 -2.300994376651942730e+00 9.170067837461886029e-01
1.863986374437808990e+01 -3.074920157901942730e+00 8.413994839415011029e-01
1.889486862719058990e+01 -2.964568595401942730e+00 8.615716030821261029e-01
1.918539597094058990e+01 -2.860320548526942730e+00 8.839562466368136029e-01
1.952914597094058990e+01 -2.765471915714442730e+00 9.096215298399386029e-01
1.988791061937808990e+01 -2.669158439151942730e+00 9.363396694883761029e-01
2.032846237719058990e+01 -2.587859611026942730e+00 9.680932095274386029e-01
2.080331589281558990e+01 -2.506438712589442730e+00 1.002150826714938603e+00
2.137912155687808990e+01 -2.441375236026942730e+00 1.042510323785251103e+00
1.891098190844058990e+01 -3.165740470401942730e+00 9.422143032774386029e-01
1.920529343187808990e+01 -3.064544181339442730e+00 9.654839565977511029e-01
1.954501511156558990e+01 -2.971648673526942730e+00 9.922326138243136029e-01
1.989718796312808990e+01 -2.875335196964442730e+00 1.019942574761813603e+00
2.030966354906558990e+01 -2.789885978214442730e+00 1.051665597222751103e+00
2.078354050219058990e+01 -2.713103751651942730e+00 1.087539010308688603e+00
2.135592819750308990e+01 -2.651702384464442730e+00 1.130004220269626103e+00
2.208078171312808990e+01 -2.617278556339442730e+00 1.183150582574313603e+00
1.922726608812808990e+01 -3.271209220401942730e+00 1.048293404839938603e+00
1.956881882250308990e+01 -3.181243400089442730e+00 1.076491647027438603e+00
1.994674851000308990e+01 -3.095794181339442730e+00 1.107329659722751103e+00
2.038900925219058990e+01 -3.020965079776942730e+00 1.142775826714938603e+00
2.082650925219058990e+01 -2.937224845401942730e+00 1.178084664605563603e+00
2.137326218187808990e+01 -2.874236564151942730e+00 1.221129708550876103e+00
2.203878952562808990e+01 -2.830413321964442730e+00 1.272689156793063603e+00
2.285946823656558990e+01 -2.812346915714442730e+00 1.335341744683688603e+00
1.961349655687808990e+01 -3.399260978214442730e+00 1.162993722222751103e+00
2.000924851000308990e+01 -3.321746329776942730e+00 1.196166329644626103e+00
2.047628952562808990e+01 -3.258147696964442730e+00 1.235198312066501103e+00
2.092172409594058990e+01 -3.178557853214442730e+00 1.272872262261813603e+00
2.151352097094058990e+01 -3.131926993839442730e+00 1.321486764214938603e+00
2.214279343187808990e+01 -3.083587150089442730e+00 1.373137765191501103e+00
2.296774460375308990e+01 -3.072356681339442730e+00 1.439589791558688603e+00
2.392953659594058990e+01 -3.079192618839442730e+00 1.517134957574313603e+00
2.007956101000308990e+01 -3.553069571964442730e+00 1.287185006402438603e+00
2.055636765062808990e+01 -3.495696525089442730e+00 1.328887276910251103e+00
2.101974655687808990e+01 -3.425017814151942730e+00 1.369765572808688603e+00
2.163009811937808990e+01 -3.387053946964442730e+00 1.422332101129001103e+00
2.225741745531558990e+01 -3.342620353214442730e+00 1.476485543511813603e+00
2.308261276781558990e+01 -3.338714103214442730e+00 1.546447091363376103e+00
2.403109909594058990e+01 -3.349212150089442730e+00 1.626509957574313603e+00
2.510226608812808990e+01 -3.371673087589442730e+00 1.716689400933688603e+00
2.063754440844058990e+01 -3.736541251651942730e+00 1.423949532769626103e+00
2.115011765062808990e+01 -3.684173087589442730e+00 1.470794015191501103e+00
2.170956589281558990e+01 -3.635833243839442730e+00 1.521193795464938603e+00
2.236923386156558990e+01 -3.604705314151942730e+00 1.580672555230563603e+00
2.320334030687808990e+01 -3.609832267276942730e+00 1.654891305230563603e+00
2.413778854906558990e+01 -3.624968986026942730e+00 1.737822823785251103e+00
2.523166061937808990e+01 -3.661468009464442730e+00 1.835097604058688603e+00
2.626657272875308990e+01 -3.662566642276942730e+00 1.927321725152438603e+00
2.131466843187808990e+01 -3.958709220401942730e+00 1.576537423394626103e+00
2.184848190844058990e+01 -3.905486564151942730e+00 1.627074532769626103e+00
2.254257370531558990e+01 -3.889983634464442730e+00 1.692366891168063603e+00
2.337545944750308990e+01 -3.899749259464442730e+00 1.770095162652438603e+00
2.437106491625308990e+01 -3.938933829776942730e+00 1.862441354058688603e+00
2.543673874437808990e+01 -3.976775626651942730e+00 1.961379342339938603e+00
2.644931198656558990e+01 -3.978728751651942730e+00 2.056090646050876103e+00
2.726779343187808990e+01 -3.913909415714442730e+00 2.134703927300876103e+00
9.999238744378089905e+00 3.641667561605572701e-01 -1.712500521913113971e-01
1.034164597094058990e+01 3.756413655355572701e-01 -1.676489779725613971e-01
1.071066452562808990e+01 3.880925374105572701e-01 -1.639868685975613971e-01
1.111093308031558990e+01 4.016423420980572701e-01 -1.600195834413113971e-01
1.157260300219058990e+01 4.104314045980572701e-01 -1.557166049256863971e-01
1.161422897875308990e+01 5.079655842855572701e-01 -1.513220736756863971e-01
1.162057663500308990e+01 6.127019124105572701e-01 -1.469428012147488971e-01
1.162216354906558990e+01 7.174382405355572701e-01 -1.428381869569363971e-01
1.001986862719058990e+01 3.573308186605572701e-01 -1.303412387147488971e-01
1.036386276781558990e+01 3.685612874105572701e-01 -1.253973910584988971e-01
1.073495651781558990e+01 3.807683186605572701e-01 -1.198431918397488971e-01
1.113742233812808990e+01 3.940739827230572701e-01 -1.140601107850613971e-01
1.161374069750308990e+01 4.001774983480572701e-01 -1.076056430116238971e-01
1.202304245531558990e+01 4.283757405355572701e-01 -1.011359164491238971e-01
1.249716354906558990e+01 4.534001545980572701e-01 -9.422368500381139711e-02
1.261264206469058990e+01 5.478825764730572701e-01 -8.889836762099889711e-02
1.033908249437808990e+01 2.781071858480572701e-01 -8.682317230849889711e-02
1.040231491625308990e+01 3.578190999105572701e-01 -8.256597016006139711e-02
1.075924851000308990e+01 3.734440999105572701e-01 -7.569951508193639711e-02
1.116391159594058990e+01 3.865056233480572701e-01 -6.808537933974889711e-02
1.165500046312808990e+01 3.898015217855572701e-01 -5.935735199599889711e-02
1.205221726000308990e+01 4.208073811605572701e-01 -5.117864105849889711e-02
1.252914597094058990e+01 4.454655842855572701e-01 -4.184026215224889711e-02
1.304647995531558990e+01 4.723210530355572701e-01 -3.170842621474889711e-02
1.830783249437808990e+01 -1.654021720401942730e+00 5.633478667587610289e-02
1.122653366625308990e+01 1.649480061605572701e-01 -2.906865570693639711e-02
1.130075241625308990e+01 2.517399983480572701e-01 -2.407903168349889711e-02
1.137594772875308990e+01 3.397526936605572701e-01 -1.902837250381139711e-02
1.167819382250308990e+01 3.830876545980572701e-01 -1.069707367568639711e-02
1.208163620531558990e+01 4.129948811605572701e-01 -6.415316834988971095e-04
1.256125046312808990e+01 4.375310139730572701e-01 1.086359526962610289e-02
1.308151413500308990e+01 4.641423420980572701e-01 2.307062651962610289e-02
1.847372604906558990e+01 -1.697967032901942730e+00 1.394494106993136029e-01
1.837899948656558990e+01 -1.496184806339442730e+00 1.445458462461886029e-01
1.828561569750308990e+01 -1.297454337589442730e+00 1.495507290586886029e-01
1.819333054125308990e+01 -1.101043204776942730e+00 1.545098355040011029e-01
1.242953659594058990e+01 2.302556233480572701e-01 5.177240874618860289e-02
1.251303268969058990e+01 3.287663655355572701e-01 5.769281890243860289e-02
1.259762741625308990e+01 4.287419514730572701e-01 6.370478179306360289e-02
1.311703659594058990e+01 4.558415608480572701e-01 7.850580718368860289e-02
1.864218308031558990e+01 -1.742400626651942730e+00 2.238152554258761029e-01
1.854599167406558990e+01 -1.538543204776942730e+00 2.287591030821261029e-01
1.845041061937808990e+01 -1.337493400089442730e+00 2.331841519102511029e-01
1.835605026781558990e+01 -1.138762931339442730e+00 2.375481655821261029e-01
1.888949753344058990e+01 -1.069549064151942730e+00 2.566674282774386029e-01
1.960873581469058990e+01 -1.025359611026942730e+00 2.806084683165011029e-01
2.008566452562808990e+01 -9.228205485269427299e-01 2.991936733946261029e-01
1.392331101000308990e+01 3.165593342855572701e-01 1.531060269102511029e-01
1.881479050219058990e+01 -1.788054923526942730e+00 3.103478481993136029e-01
1.871554733812808990e+01 -1.581511954776942730e+00 3.142235806211886029e-01
1.868649460375308990e+01 -1.393401603214442730e+00 3.199303677305636029e-01
1.937057663500308990e+01 -1.356780509464442730e+00 3.455498745665011029e-01
1.975998093187808990e+01 -1.248015861026942730e+00 3.632958462461886029e-01
2.011032272875308990e+01 -1.124602775089442730e+00 3.801720669493136029e-01
2.093441940844058990e+01 -1.079558829776942730e+00 4.110711148008761029e-01
2.197335983812808990e+01 -1.055510978214442730e+00 4.488671353086886029e-01
1.895810104906558990e+01 -1.826507071964442730e+00 3.971856167540011029e-01
1.913412643969058990e+01 -1.682464103214442730e+00 4.092705776915011029e-01
1.946188522875308990e+01 -1.569182853214442730e+00 4.268029263243136029e-01
1.977597214281558990e+01 -1.446258048526942730e+00 4.436791470274386029e-01
2.014035202562808990e+01 -1.328338126651942730e+00 4.623864224180636029e-01
2.086642624437808990e+01 -1.272674064151942730e+00 4.934227993711886029e-01
2.185263229906558990e+01 -1.249236564151942730e+00 5.332482388243136029e-01
2.283957077562808990e+01 -1.207000236026942730e+00 5.742333462461886029e-01
1.917209030687808990e+01 -1.882415275089442730e+00 4.884331753477511029e-01
1.947494675219058990e+01 -1.765593986026942730e+00 5.059044888243136029e-01
1.978915573656558990e+01 -1.645720939151942730e+00 5.239861538633761029e-01
2.016732956469058990e+01 -1.532927970401942730e+00 5.446618130430636029e-01
2.079696823656558990e+01 -1.464446525089442730e+00 5.750573208555636029e-01
2.173373581469058990e+01 -1.442351798526942730e+00 6.175530483946261029e-01
2.262216354906558990e+01 -1.392302970401942730e+00 6.588433315977511029e-01
2.385690476000308990e+01 -1.384734611026942730e+00 7.141411831602511029e-01
1.949276901781558990e+01 -1.964202384464442730e+00 5.856621792540011029e-01
1.980453659594058990e+01 -1.846160392276942730e+00 6.048729946836886029e-01
2.019259811937808990e+01 -1.739226798526942730e+00 6.274560024961886029e-01
2.078891159594058990e+01 -1.668548087589442730e+00 6.590416958555636029e-01
2.161471726000308990e+01 -1.633147696964442730e+00 7.007439663633761029e-01
2.247580124437808990e+01 -1.588347892276942730e+00 7.444756558165011029e-01
2.360788132250308990e+01 -1.574798087589442730e+00 8.004754116758761029e-01
2.474984909594058990e+01 -1.541472892276942730e+00 8.576043179258761029e-01
1.982699753344058990e+01 -2.049529532901942730e+00 6.870720913633761029e-01
2.023068405687808990e+01 -1.949431876651942730e+00 7.119286587461886029e-01
2.082480026781558990e+01 -1.884002189151942730e+00 7.458642056211886029e-01
2.150412155687808990e+01 -1.824309806339442730e+00 7.841942837461886029e-01
2.233822800219058990e+01 -1.783294181339442730e+00 8.302147915586886029e-01
2.336398483812808990e+01 -1.762664298526942730e+00 8.858635952696261029e-01
2.450412155687808990e+01 -1.741546134464442730e+00 9.476464321836886029e-01
2.575277878344058990e+01 -1.717376212589442730e+00 1.015349679254001103e+00
2.026986862719058990e+01 -2.161590079776942730e+00 7.966912319883761029e-01
2.084079147875308990e+01 -2.095794181339442730e+00 8.319085171446261029e-01
2.144967819750308990e+01 -2.027312736026942730e+00 8.694298794493136029e-01
2.226486374437808990e+01 -1.990081290714442730e+00 9.179528286680636029e-01
2.320199753344058990e+01 -1.962127189151942730e+00 9.732659390196261029e-01
2.432565476000308990e+01 -1.951385001651942730e+00 1.038893990777438603e+00
2.548422409594058990e+01 -1.923919181339442730e+00 1.107070260308688603e+00
2.668210007250308990e+01 -1.881072501651942730e+00 1.178008370660251103e+00
2.082443405687808990e+01 -2.300994376651942730e+00 9.171898892149386029e-01
2.140817429125308990e+01 -2.232390861026942730e+00 9.558251431211886029e-01
2.220028854906558990e+01 -2.198943595401942730e+00 1.005935006402438603e+00
2.311251999437808990e+01 -2.174651603214442730e+00 1.063781075738376103e+00
2.419247604906558990e+01 -2.166839103214442730e+00 1.131636910699313603e+00
2.530856491625308990e+01 -2.144500236026942730e+00 1.202193551324313603e+00
2.652072311937808990e+01 -2.116790275089442730e+00 1.279555611871188603e+00
2.745736862719058990e+01 -2.018767814151942730e+00 1.341185860894626103e+00
2.138339401781558990e+01 -2.441741446964442730e+00 1.042769723199313603e+00
2.214352585375308990e+01 -2.408538321964442730e+00 1.094786935113376103e+00
2.302670456469058990e+01 -2.387908439151942730e+00 1.154692940972751103e+00
2.406527878344058990e+01 -2.381926993839442730e+00 1.224608712457126103e+00
2.516525436937808990e+01 -2.368377189151942730e+00 1.298857980035251103e+00
2.635141159594058990e+01 -2.349700431339442730e+00 1.379042916558688603e+00
2.731955124437808990e+01 -2.266936759464442730e+00 1.446471505425876103e+00
2.810238815844058990e+01 -2.134368400089442730e+00 1.502929024957126103e+00
2.208688522875308990e+01 -2.618010978214442730e+00 1.183562569879001103e+00
2.294394089281558990e+01 -2.600310782901942730e+00 1.244963937066501103e+00
2.392160202562808990e+01 -2.592376212589442730e+00 1.315230660699313603e+00
2.501791550219058990e+01 -2.589446525089442730e+00 1.393874459527438603e+00
2.618747116625308990e+01 -2.580413321964442730e+00 1.477935128472751103e+00
2.717111374437808990e+01 -2.512298087589442730e+00 1.550353341363376103e+00
2.799643112719058990e+01 -2.395110587589442730e+00 1.612822823785251103e+00
2.854269577562808990e+01 -2.215178946964442730e+00 1.657759957574313603e+00
2.286557175219058990e+01 -2.813079337589442730e+00 1.335784249566501103e+00
2.382040573656558990e+01 -2.810149650089442730e+00 1.408614449761813603e+00
2.487314011156558990e+01 -2.810027579776942730e+00 1.488829903863376103e+00
2.602853561937808990e+01 -2.809905509464442730e+00 1.576857857964938603e+00
2.702414108812808990e+01 -2.755095939151942730e+00 1.654219918511813603e+00
2.786142136156558990e+01 -2.650359611026942730e+00 1.720900826714938603e+00
2.847799851000308990e+01 -2.488128165714442730e+00 1.772338204644626103e+00
2.912631393969058990e+01 -2.320769767276942730e+00 1.826339059136813603e+00
2.393576218187808990e+01 -3.079925040714442730e+00 1.517623238824313603e+00
2.498471237719058990e+01 -3.087859611026942730e+00 1.601485543511813603e+00
2.610531784594058990e+01 -3.090911368839442730e+00 1.691848092339938603e+00
2.704220749437808990e+01 -3.031341056339442730e+00 1.769042306207126103e+00
2.778659226000308990e+01 -2.915130118839442730e+00 1.832213692925876103e+00
2.844320847094058990e+01 -2.767669181339442730e+00 1.889113717339938603e+00
2.909237839281558990e+01 -2.605437736026942730e+00 1.945815377496188603e+00
2.978537155687808990e+01 -2.439544181339442730e+00 2.006865792535251103e+00
2.510824753344058990e+01 -3.372283439151942730e+00 1.717177682183688603e+00
2.618820358812808990e+01 -3.375335196964442730e+00 1.809157662652438603e+00
2.711044479906558990e+01 -3.321380118839442730e+00 1.889159493707126103e+00
2.784152390062808990e+01 -3.207366446964442730e+00 1.954406075738376103e+00
2.849667526781558990e+01 -3.064788321964442730e+00 2.013900094293063603e+00
2.908908249437808990e+01 -2.897674064151942730e+00 2.068694405816501103e+00
2.976364304125308990e+01 -2.733367423526942730e+00 2.130416207574313603e+00
3.051657272875308990e+01 -2.570891837589442730e+00 2.198760323785251103e+00
2.627194382250308990e+01 -3.662932853214442730e+00 1.927794747613376103e+00
2.717929245531558990e+01 -3.613372306339442730e+00 2.010497384332126103e+00
2.787497116625308990e+01 -3.498260001651942730e+00 2.075133614800876103e+00
2.855771042406558990e+01 -3.366057853214442730e+00 2.139678292535251103e+00
2.916317917406558990e+01 -3.205901603214442730e+00 2.197982125543063603e+00
2.980929733812808990e+01 -3.042327384464442730e+00 2.260039620660251103e+00
3.053488327562808990e+01 -2.879973868839442730e+00 2.329909615777438603e+00
3.138546921312808990e+01 -2.726409415714442730e+00 2.410079293511813603e+00
2.727182175219058990e+01 -3.913909415714442730e+00 2.135070138238376103e+00
2.791513229906558990e+01 -3.791839103214442730e+00 2.197997384332126103e+00
2.859555222094058990e+01 -3.665618400089442730e+00 2.265151314996188603e+00
2.924167038500308990e+01 -3.518035392276942730e+00 2.329604439996188603e+00
2.991024948656558990e+01 -3.363738517276942730e+00 2.396331124566501103e+00
3.064145065844058990e+01 -3.208831290714442730e+00 2.468978219293063603e+00
3.148178268969058990e+01 -3.058928946964442730e+00 2.551802926324313603e+00
3.245712448656558990e+01 -2.917327384464442730e+00 2.647918038629001103e+00
1.162216354906558990e+01 7.178044514730572701e-01 -1.428229281678738971e-01
1.162741257250308990e+01 8.216862874105572701e-01 -1.385504672303738971e-01
1.162777878344058990e+01 9.261784749105572701e-01 -1.345374057069363971e-01
1.162826706469058990e+01 1.030792732723057270e+00 -1.305243441834988971e-01
1.162863327562808990e+01 1.134674568660557270e+00 -1.265265414491238971e-01
1.163583542406558990e+01 1.237579842098057270e+00 -1.225287387147488971e-01
1.165109421312808990e+01 1.339752693660557270e+00 -1.184851596131863971e-01
1.166147018969058990e+01 1.442169685848057270e+00 -1.147162387147488971e-01
1.261264206469058990e+01 5.483708577230572701e-01 -8.888310883193639711e-02
1.260482956469058990e+01 6.644597249105572701e-01 -8.459538910537389711e-02
1.259323288500308990e+01 7.806706624105572701e-01 -8.006352875381139711e-02
1.257650925219058990e+01 8.974919514730572701e-01 -7.586736176162389711e-02
1.256002976000308990e+01 1.013214607723057270e+00 -7.170171234756139711e-02
1.254355026781558990e+01 1.128326912410557270e+00 -6.756658051162389711e-02
1.252939011156558990e+01 1.242828865535557270e+00 -6.369084808974889711e-02
1.252853561937808990e+01 1.355255623348057270e+00 -5.946416351943639711e-02
1.305014206469058990e+01 4.720769124105572701e-01 -3.166264984756139711e-02
1.361581589281558990e+01 5.013737874105572701e-01 -2.088994476943639711e-02
1.369455124437808990e+01 6.145329670980572701e-01 -1.533574555068639711e-02
1.369210983812808990e+01 7.406315999105572701e-01 -1.069707367568639711e-02
1.368576218187808990e+01 8.663640217855572701e-01 -6.134695745998897110e-03
1.366061569750308990e+01 9.939274983480572701e-01 -1.816458441311397110e-03
1.363571335375308990e+01 1.121002693660557270e+00 2.471261285251102890e-03
1.362082077562808990e+01 1.245758553035557270e+00 6.865792535251102890e-03
1.308517624437808990e+01 4.638982014730572701e-01 2.314692046493860289e-02
1.365475632250308990e+01 4.929509358480572701e-01 3.684931304306360289e-02
1.428048874437808990e+01 5.248112874105572701e-01 5.158930327743860289e-02
1.496823288500308990e+01 5.610661702230572701e-01 6.782465483993860289e-02
1.499704147875308990e+01 6.952214436605572701e-01 7.334833648056360289e-02
1.496933151781558990e+01 8.363347249105572701e-01 7.791071441025110289e-02
1.494162155687808990e+01 9.769597249105572701e-01 8.244257476181360289e-02
1.490707565844058990e+01 1.116974373348057270e+00 8.648615386337610289e-02
1.312082077562808990e+01 4.555974202230572701e-01 7.859735991806360289e-02
1.369369675219058990e+01 4.844060139730572701e-01 9.466486480087610289e-02
1.432357956469058990e+01 5.160222249105572701e-01 1.123192837461886029e-01
1.501156784594058990e+01 5.525212483480572701e-01 1.316826870665011029e-01
1.570395065844058990e+01 6.015935139730572701e-01 1.516106655821261029e-01
1.646823288500308990e+01 6.556706624105572701e-01 1.735985806211886029e-01
1.661105515062808990e+01 7.929997639730572701e-01 1.822808315977511029e-01
1.655551315844058990e+01 9.518132405355572701e-01 1.865380337461886029e-01
1.392392136156558990e+01 3.169255452230572701e-01 1.531365444883761029e-01
1.403048874437808990e+01 4.282536702230572701e-01 1.606743862852511029e-01
1.436728073656558990e+01 5.069890217855572701e-01 1.738274624571261029e-01
1.505539108812808990e+01 5.438542561605572701e-01 1.963341763243136029e-01
1.575253464281558990e+01 5.926823811605572701e-01 2.195275356993136029e-01
1.652218796312808990e+01 6.465153889730572701e-01 2.451470425352511029e-01
1.737948776781558990e+01 7.065739827230572701e-01 2.736657192930636029e-01
1.827804733812808990e+01 7.788396077230572701e-01 3.034813931211886029e-01
2.197885300219058990e+01 -1.055755118839442730e+00 4.490502407774386029e-01
2.307711960375308990e+01 -1.020598868839442730e+00 4.891045620665011029e-01
2.437863327562808990e+01 -9.941096110269427299e-01 5.360405972227511029e-01
1.581247116625308990e+01 4.356999592855572701e-01 2.828209927305636029e-01
1.592941452562808990e+01 5.671696858480572701e-01 2.915185024961886029e-01
1.657638718187808990e+01 6.373601155355572701e-01 3.168328335508761029e-01
1.744015671312808990e+01 6.971745686605572701e-01 3.494561245665011029e-01
1.834066940844058990e+01 7.696843342855572701e-01 3.838189175352511029e-01
2.284872604906558990e+01 -1.207854728214442730e+00 5.745842983946261029e-01
2.410873581469058990e+01 -1.189910392276942730e+00 6.254723599180636029e-01
2.552963425219058990e+01 -1.170867423526942730e+00 6.834404995665011029e-01
2.708725143969058990e+01 -1.141814689151942730e+00 7.466271450743136029e-01
2.827462936937808990e+01 -1.034636954776942730e+00 7.976983120665011029e-01
2.848202683031558990e+01 -7.872004313394427299e-01 8.144219448790011029e-01
1.819052292406558990e+01 6.123357014730572701e-01 4.507897427305636029e-01
1.840341354906558990e+01 7.605290608480572701e-01 4.643395474180636029e-01
2.386508347094058990e+01 -1.385344962589442730e+00 7.144768765196261029e-01
2.512314011156558990e+01 -1.356780509464442730e+00 7.714074185118136029e-01
2.645297409594058990e+01 -1.313933829776942730e+00 8.320000698790011029e-01
2.795053268969058990e+01 -1.267302970401942730e+00 9.001763394102511029e-01
2.848105026781558990e+01 -1.066375236026942730e+00 9.305108120665011029e-01
2.869845749437808990e+01 -8.179621500894427299e-01 9.485161831602511029e-01
2.883651901781558990e+01 -5.562434000894427299e-01 9.634240200743136029e-01
2.897299362719058990e+01 -2.933039469644427299e-01 9.783013394102511029e-01
2.475802780687808990e+01 -1.541961173526942730e+00 8.580010464415011029e-01
2.611789108812808990e+01 -1.520843009464442730e+00 9.253838589415011029e-01
2.752511765062808990e+01 -1.479705314151942730e+00 9.957573940977511029e-01
2.835763718187808990e+01 -1.329192618839442730e+00 1.041533761285251103e+00
2.868979050219058990e+01 -1.098357657901942730e+00 1.065413766168063603e+00
2.891037155687808990e+01 -8.482355875894427299e-01 1.084456734918063603e+00
2.907113815844058990e+01 -5.867609782144427299e-01 1.100951485894626103e+00
2.947372604906558990e+01 -3.478693766519427299e-01 1.128554635308688603e+00
2.576242233812808990e+01 -1.718230704776942730e+00 1.015837960504001103e+00
2.704135300219058990e+01 -1.673919181339442730e+00 1.085845284722751103e+00
2.806491257250308990e+01 -1.565886954776942730e+00 1.144225411675876103e+00
2.868222214281558990e+01 -1.379729728214442730e+00 1.183348946832126103e+00
2.890304733812808990e+01 -1.131072501651942730e+00 1.203215890191501103e+00
2.924862839281558990e+01 -8.937678141519427299e-01 1.229415231011813603e+00
2.974154831469058990e+01 -6.653742594644427299e-01 1.263213448785251103e+00
3.121847702562808990e+01 -5.269465250894427299e-01 1.346892648004001103e+00
2.669076706469058990e+01 -1.881682853214442730e+00 1.178496651910251103e+00
2.764425827562808990e+01 -1.775725821964442730e+00 1.237319283746188603e+00
2.844125534594058990e+01 -1.627532462589442730e+00 1.288390450738376103e+00
2.889462448656558990e+01 -1.414519767276942730e+00 1.321517281793063603e+00
2.922628952562808990e+01 -1.178191642276942730e+00 1.348311715386813603e+00
2.984921433031558990e+01 -9.709162516519427299e-01 1.391127877496188603e+00
3.097897507250308990e+01 -8.064875407144427299e-01 1.462065987847751103e+00
3.277292038500308990e+01 -6.874689860269427299e-01 1.570220284722751103e+00
2.746298386156558990e+01 -2.018767814151942730e+00 1.341536813043063603e+00
2.819174362719058990e+01 -1.868987540714442730e+00 1.391936593316501103e+00
2.882846237719058990e+01 -1.691009025089442730e+00 1.436751656793063603e+00
2.920395065844058990e+01 -1.463103751651942730e+00 1.467391305230563603e+00
2.982687546312808990e+01 -1.261687736026942730e+00 1.512740426324313603e+00
3.075741745531558990e+01 -1.085296134464442730e+00 1.576613717339938603e+00
3.221188522875308990e+01 -9.476008219644427299e-01 1.672927193902438603e+00
3.400277878344058990e+01 -8.160090250894427299e-01 1.789428048394626103e+00
2.810605026781558990e+01 -2.134124259464442730e+00 1.503188424371188603e+00
2.863180710375308990e+01 -1.945037345401942730e+00 1.544356637261813603e+00
2.918271042406558990e+01 -1.749602775089442730e+00 1.587401681207126103e+00
2.980783249437808990e+01 -1.553313712589442730e+00 1.635466866754001103e+00
3.057150436937808990e+01 -1.364104728214442730e+00 1.692656808160251103e+00
3.194784714281558990e+01 -1.233977775089442730e+00 1.789290719293063603e+00
3.355685593187808990e+01 -1.101409415714442730e+00 1.901671700738376103e+00
3.487863327562808990e+01 -9.095148844644427299e-01 1.996520333550876103e+00
2.854623581469058990e+01 -2.214812736026942730e+00 1.658034615777438603e+00
2.916391159594058990e+01 -2.036101798526942730e+00 1.707091622613376103e+00
2.978561569750308990e+01 -1.846038321964442730e+00 1.757476144097751103e+00
3.054257370531558990e+01 -1.662200431339442730e+00 1.817397408746188603e+00
3.170346237719058990e+01 -1.517425040714442730e+00 1.905165963433688603e+00
3.311581589281558990e+01 -1.380462150089442730e+00 2.010817818902438603e+00
3.450644089281558990e+01 -1.212127189151942730e+00 2.115828805230563603e+00
3.546200729906558990e+01 -9.739680094644427299e-01 2.192473702691501103e+00
2.913119675219058990e+01 -2.320647696964442730e+00 1.826705270074313603e+00
2.978769089281558990e+01 -2.142180900089442730e+00 1.882155709527438603e+00
3.052951218187808990e+01 -1.963958243839442730e+00 1.944091134332126103e+00
3.146713425219058990e+01 -1.798064689151942730e+00 2.020674996636813603e+00
3.271420456469058990e+01 -1.655486564151942730e+00 2.120238595269626103e+00
3.414230515062808990e+01 -1.510222892276942730e+00 2.233718209527438603e+00
3.524765183031558990e+01 -1.300017814151942730e+00 2.324416451714938603e+00
3.603293015062808990e+01 -1.037444571964442730e+00 2.392165475152438603e+00
2.978988815844058990e+01 -2.439300040714442730e+00 2.007247262261813603e+00
3.052914597094058990e+01 -2.267547111026942730e+00 2.071379952691501103e+00
3.141769577562808990e+01 -2.104094962589442730e+00 2.148085885308688603e+00
3.254818893969058990e+01 -1.956389884464442730e+00 2.243941598199313603e+00
3.374264694750308990e+01 -1.796111564151942730e+00 2.345366769097751103e+00
3.500656296312808990e+01 -1.620696525089442730e+00 2.452834420464938603e+00
3.586325241625308990e+01 -1.374358634464442730e+00 2.529341988824313603e+00
3.674374558031558990e+01 -1.115081290714442730e+00 2.609008126519626103e+00
3.052267624437808990e+01 -2.571013907901942730e+00 2.199294381402438603e+00
3.140341354906558990e+01 -2.414641837589442730e+00 2.279097848199313603e+00
3.251278854906558990e+01 -2.275969962589442730e+00 2.378020577691501103e+00
3.363888718187808990e+01 -2.116546134464442730e+00 2.478942208550876103e+00
3.474020554125308990e+01 -1.933074454776942730e+00 2.578429513238376103e+00
3.569552780687808990e+01 -1.710296134464442730e+00 2.666503243707126103e+00
3.664401413500308990e+01 -1.467132071964442730e+00 2.754546456597751103e+00
3.752475143969058990e+01 -1.200164298526942730e+00 2.837477975152438603e+00
3.139279343187808990e+01 -2.726653556339442730e+00 2.410735421441501103e+00
3.245956589281558990e+01 -2.591765861026942730e+00 2.510711007379001103e+00
3.355294968187808990e+01 -2.439788321964442730e+00 2.612761788629001103e+00
3.466037155687808990e+01 -2.267302970401942730e+00 2.717406564019626103e+00
3.562814499437808990e+01 -2.055877189151942730e+00 2.810530953668063603e+00
3.647226120531558990e+01 -1.810760001651942730e+00 2.893416695855563603e+00
3.742196823656558990e+01 -1.560027579776942730e+00 2.986876778863376103e+00
3.850741745531558990e+01 -1.305877189151942730e+00 3.091811471246188603e+00
3.246420456469058990e+01 -2.917449454776942730e+00 2.648589425347751103e+00
3.349130417406558990e+01 -2.765105704776942730e+00 2.749282174371188603e+00
3.458236862719058990e+01 -2.602508048526942730e+00 2.857116036675876103e+00
3.560348679125308990e+01 -2.407317618839442730e+00 2.959182076714938603e+00
3.645431686937808990e+01 -2.170989493839442730e+00 3.046202950738376103e+00
3.737045456469058990e+01 -1.926238517276942730e+00 3.139632516168063603e+00
3.839254929125308990e+01 -1.674529532901942730e+00 3.243300729058688603e+00
3.965890671312808990e+01 -1.429046134464442730e+00 3.370925240777438603e+00
1.166134811937808990e+01 1.442535896785557270e+00 -1.147009799256863971e-01
1.167526413500308990e+01 1.544586678035557270e+00 -1.107336947694363971e-01
1.166061569750308990e+01 1.649078865535557270e+00 -1.071631381288113971e-01
1.164474655687808990e+01 1.753571053035557270e+00 -1.035925814881863971e-01
1.162899948656558990e+01 1.857208748348057270e+00 -1.000525424256863971e-01
1.161325241625308990e+01 1.960358162410557270e+00 -9.652776215224889711e-02
1.159750534594058990e+01 2.063507576473057270e+00 -9.300298187881139711e-02
1.157834030687808990e+01 2.165924568660557270e+00 -8.978337738662389711e-02
1.252829147875308990e+01 1.355621834285557270e+00 -5.944890473037389711e-02
1.252206589281558990e+01 1.468170662410557270e+00 -5.558843109756139711e-02
1.252084518969058990e+01 1.580109138973057270e+00 -5.140752289443639711e-02
1.251095749437808990e+01 1.692780037410557270e+00 -4.757756683974889711e-02
1.248605515062808990e+01 1.805695076473057270e+00 -4.391545746474889711e-02
1.246139694750308990e+01 1.917877693660557270e+00 -4.029912445693639711e-02
1.243112351000308990e+01 2.030060310848057270e+00 -3.700322601943639711e-02
1.240670944750308990e+01 2.141022224910557270e+00 -3.341741058974889711e-02
1.362057663500308990e+01 1.246246834285557270e+00 6.865792535251102890e-03
1.361105515062808990e+01 1.370148201473057270e+00 1.101618316025110289e-02
1.360165573656558990e+01 1.493561287410557270e+00 1.515131499618860289e-02
1.359213425219058990e+01 1.617218513973057270e+00 1.928644683212610289e-02
1.356833054125308990e+01 1.740753670223057270e+00 2.317743804306360289e-02
1.354220749437808990e+01 1.863922615535557270e+00 2.702265288681360289e-02
1.351596237719058990e+01 1.986847420223057270e+00 3.085260894150110289e-02
1.349008347094058990e+01 2.108551521785557270e+00 3.465204741806360289e-02
1.490670944750308990e+01 1.117462654598057270e+00 8.648615386337610289e-02
1.490182663500308990e+01 1.253815193660557270e+00 9.141474273056360289e-02
1.491305710375308990e+01 1.388580818660557270e+00 9.631281401962610289e-02
1.492440964281558990e+01 1.523956795223057270e+00 1.012108853086886029e-01
1.493564011156558990e+01 1.658966560848057270e+00 1.061089565977511029e-01
1.494699265062808990e+01 1.793854256160557270e+00 1.110070278868136029e-01
1.495822311937808990e+01 1.929474373348057270e+00 1.159203579649386029e-01
1.496249558031558990e+01 2.064728279598057270e+00 1.203454067930636029e-01
1.655502487719058990e+01 9.524235920980572701e-01 1.865532925352511029e-01
1.649460007250308990e+01 1.110260506160557270e+00 1.903679898008761029e-01
1.646957565844058990e+01 1.263947029598057270e+00 1.949761440977511029e-01
1.648056198656558990e+01 1.414948006160557270e+00 2.004235317930636029e-01
1.649154831469058990e+01 1.565582771785557270e+00 2.058556606993136029e-01
1.649142624437808990e+01 1.716705818660557270e+00 2.110131314024386029e-01
1.647726608812808990e+01 1.868683357723057270e+00 2.158349087461886029e-01
1.646310593187808990e+01 2.019684334285557270e+00 2.206414273008761029e-01
1.828427292406558990e+01 7.788396077230572701e-01 3.036797573790011029e-01
1.858481003344058990e+01 9.220280842855572701e-01 3.181603481993136029e-01
1.851498581469058990e+01 1.100250740535557270e+00 3.220665981993136029e-01
1.848935104906558990e+01 1.274323006160557270e+00 3.271782925352511029e-01
1.850814987719058990e+01 1.444611092098057270e+00 3.335259487852511029e-01
1.852707077562808990e+01 1.614899178035557270e+00 3.398888638243136029e-01
1.854611374437808990e+01 1.786041756160557270e+00 3.462670376524386029e-01
1.855124069750308990e+01 1.957184334285557270e+00 3.518059780821261029e-01
1.834701706469058990e+01 7.696843342855572701e-01 3.840325405821261029e-01
1.932895065844058990e+01 8.528142170980572701e-01 4.214318325743136029e-01
2.042978073656558990e+01 9.460759358480572701e-01 4.633782437071261029e-01
2.121261765062808990e+01 1.083771248348057270e+00 4.955895474180636029e-01
2.116330124437808990e+01 1.285309334285557270e+00 5.006249478086886029e-01
2.108993698656558990e+01 1.486725349910557270e+00 5.048058560118136029e-01
2.101681686937808990e+01 1.687164803035557270e+00 5.089715054258761029e-01
2.094455124437808990e+01 1.885162849910557270e+00 5.130761196836886029e-01
1.840988327562808990e+01 7.605290608480572701e-01 4.645989468321261029e-01
1.939938522875308990e+01 8.435368733480572701e-01 5.067742398008761029e-01
2.050985886156558990e+01 9.365544514730572701e-01 5.545800259336886029e-01
2.162924362719058990e+01 1.051666756160557270e+00 6.030266812071261029e-01
2.286178757250308990e+01 1.181671638973057270e+00 6.564782192930636029e-01
2.418600632250308990e+01 1.331573982723057270e+00 7.142479946836886029e-01
2.440231491625308990e+01 1.551666756160557270e+00 7.296288540586886029e-01
2.434970261156558990e+01 1.782867928035557270e+00 7.352440884336886029e-01
2.897384811937808990e+01 -2.923273844644427299e-01 9.783776333555636029e-01
2.921750046312808990e+01 -3.671215008944272995e-02 9.976494839415011029e-01
2.136337448656558990e+01 8.656315999105572701e-01 6.784203579649386029e-01
2.170919968187808990e+01 1.042755623348057270e+00 6.996453335508761029e-01
2.295199753344058990e+01 1.172882576473057270e+00 7.591698696836886029e-01
2.427780319750308990e+01 1.323395271785557270e+00 8.230584194883761029e-01
2.569589401781558990e+01 1.497223396785557270e+00 8.918297817930636029e-01
2.728512741625308990e+01 1.693390388973057270e+00 9.689324429258761029e-01
2.947641159594058990e+01 -3.472590250894427299e-01 1.128707223199313603e+00
3.146627976000308990e+01 -2.427668375894427299e-01 1.229689889214938603e+00
3.486825729906558990e+01 -2.110285563394427299e-01 1.397506051324313603e+00
3.552536179125308990e+01 8.023120928555727005e-02 1.439269356988376103e+00
3.575839401781558990e+01 4.084782795980572701e-01 1.461425118707126103e+00
2.558102585375308990e+01 1.255280037410557270e+00 9.902031948790011029e-01
2.580783249437808990e+01 1.489044685848057270e+00 1.008971505425876103e+00
2.738961960375308990e+01 1.686310310848057270e+00 1.092986398004001103e+00
3.122958542406558990e+01 -5.269465250894427299e-01 1.347472481988376103e+00
3.342550827562808990e+01 -4.236750407144427299e-01 1.468612008355563603e+00
3.540121628344058990e+01 -2.592463297769427299e-01 1.579924874566501103e+00
3.576413132250308990e+01 5.801441241055727005e-02 1.609694772027438603e+00
3.600741745531558990e+01 3.879704670980572701e-01 1.633452706597751103e+00
3.646774460375308990e+01 7.115788655355572701e-01 1.668654732964938603e+00
4.040524460375308990e+01 9.076237874105572701e-01 1.886214547418063603e+00
4.073092819750308990e+01 1.287384529598057270e+00 1.916014962457126103e+00
3.278732468187808990e+01 -6.877131266519427299e-01 1.571044259332126103e+00
3.481088425219058990e+01 -5.536799235269427299e-01 1.693190865777438603e+00
3.569772507250308990e+01 -2.886652750894427299e-01 1.753356271050876103e+00
3.600497604906558990e+01 3.543140459805727005e-02 1.781676583550876103e+00
3.660458542406558990e+01 3.465886311605572701e-01 1.826598458550876103e+00
3.867172409594058990e+01 5.962224202230572701e-01 1.955001168511813603e+00
4.065414597094058990e+01 8.915105061605572701e-01 2.079940133355563603e+00
4.098764206469058990e+01 1.273590584285557270e+00 2.111663155816501103e+00
3.401449753344058990e+01 -8.161310954019427299e-01 1.790160470269626103e+00
3.536679245531558990e+01 -6.094660563394427299e-01 1.881728463433688603e+00
3.593795944750308990e+01 -3.135676188394427299e-01 1.926207833550876103e+00
3.655954147875308990e+01 -9.124259464442729950e-03 1.974959664605563603e+00
3.781869675219058990e+01 2.680974202230572701e-01 2.062911324761813603e+00
4.025570847094058990e+01 5.111394124105572701e-01 2.223769479058688603e+00
4.090768601000308990e+01 8.751530842855572701e-01 2.277312569879001103e+00
4.170749069750308990e+01 1.245880623348057270e+00 2.339385323785251103e+00
3.488791061937808990e+01 -9.092707438394427299e-01 1.997145943902438603e+00
3.582870651781558990e+01 -6.569514079019427299e-01 2.068572335504001103e+00
3.637826706469058990e+01 -3.548273844644427299e-01 2.115187936089938603e+00
3.727475143969058990e+01 -6.515453290194272995e-02 2.184798531793063603e+00
3.911740280687808990e+01 1.839909749105572701e-01 2.316954903863376103e+00
4.080356003344058990e+01 4.774480061605572701e-01 2.439956002496188603e+00
4.138156296312808990e+01 8.498845295980572701e-01 2.490691476129001103e+00
4.330551315844058990e+01 1.191559334285557270e+00 2.631255440972751103e+00
3.546713425219058990e+01 -9.733576579019427299e-01 2.192870431207126103e+00
3.619748093187808990e+01 -6.962580485269427299e-01 2.253310494683688603e+00
3.703915573656558990e+01 -4.137873454019427299e-01 2.322799020074313603e+00
3.852108933031558990e+01 -1.586603922769427299e-01 2.437545113824313603e+00
4.013412643969058990e+01 1.166081624105572701e-01 2.562377267144626103e+00
4.105807663500308990e+01 4.582829670980572701e-01 2.639632516168063603e+00
4.239560104906558990e+01 8.027653889730572701e-01 2.746779732964938603e+00
4.435824753344058990e+01 1.153107185848057270e+00 2.900191598199313603e+00
3.603927780687808990e+01 -1.036834220401942730e+00 2.392669015191501103e+00
3.685092331469058990e+01 -7.613215250894427299e-01 2.463439278863376103e+00
3.794198776781558990e+01 -4.925226969644427299e-01 2.555419259332126103e+00
3.961654831469058990e+01 -2.420344157144427299e-01 2.691573434136813603e+00
4.075045944750308990e+01 7.302906084805727005e-02 2.788283639214938603e+00
4.194284226000308990e+01 4.072575764730572701e-01 2.890075021050876103e+00
4.386496140062808990e+01 7.368474202230572701e-01 3.047652535699313603e+00
4.505710007250308990e+01 1.125153084285557270e+00 3.151091866754001103e+00
3.674899460375308990e+01 -1.114470939151942730e+00 2.609465890191501103e+00
3.764340378344058990e+01 -8.393244547769427299e-01 2.689727120660251103e+00
3.899301315844058990e+01 -5.834650797769427299e-01 2.807265572808688603e+00
4.042440964281558990e+01 -3.053889079019427299e-01 2.932143502496188603e+00
4.164962936937808990e+01 1.211597491055727005e-02 3.041472726129001103e+00
4.319882370531558990e+01 3.371892170980572701e-01 3.177367501519626103e+00
4.479745651781558990e+01 6.922917561605572701e-01 3.318190865777438603e+00
4.598361374437808990e+01 1.089996834285557270e+00 3.427916817925876103e+00
3.753146530687808990e+01 -1.199553946964442730e+00 2.838073067925876103e+00
3.861129929125308990e+01 -9.335627360269427299e-01 2.938918404839938603e+00
4.010324265062808990e+01 -6.796564860269427299e-01 3.074797921441501103e+00
4.144601608812808990e+01 -3.842463297769427299e-01 3.199126534722751103e+00
4.280502487719058990e+01 -6.478832196444272995e-02 3.325591378472751103e+00
4.431784226000308990e+01 2.737126545980572701e-01 3.465850167535251103e+00
4.567221237719058990e+01 6.498112874105572701e-01 3.593627267144626103e+00
4.730880905687808990e+01 1.042267342098057270e+00 3.746169381402438603e+00
3.851547409594058990e+01 -1.305388907901942730e+00 3.092543893121188603e+00
3.981356979906558990e+01 -1.049529532901942730e+00 3.217772774957126103e+00
4.115939499437808990e+01 -7.716975016519427299e-01 3.346999459527438603e+00
4.256515671312808990e+01 -4.703059000894427299e-01 3.483306222222751103e+00
4.400985886156558990e+01 -1.449885172769427299e-01 3.623870187066501103e+00
4.536215378344058990e+01 2.135319905355572701e-01 3.757079415582126103e+00
4.704001022875308990e+01 5.868230061605572701e-01 3.921309762261813603e+00
4.861093308031558990e+01 9.949040608480572701e-01 4.075820260308688603e+00
3.966793991625308990e+01 -1.428679923526942730e+00 3.371779732964938603e+00
4.105307175219058990e+01 -1.169158439151942730e+00 3.510360055230563603e+00
