1.811123223602771759e+01 -1.618192603811621666e+00 6.385723091662498518e-02
1.801967950165271759e+01 -1.422635963186621666e+00 6.895366646349998518e-02
1.674831719696521759e+01 -2.263212135061621666e+00 8.149639107287498518e-02
1.709987969696521759e+01 -2.203641822561621666e+00 9.309307076037498518e-02
1.758120293915271759e+01 -2.174955299124121666e+00 1.069938275963124852e-01
1.792214532196521759e+01 -2.097196510061621666e+00 1.189872357994374852e-01
1.810073418915271759e+01 -1.970121314749121666e+00 1.284934613853749852e-01
1.828225274384021759e+01 -1.841092994436621666e+00 1.381522748619374852e-01
1.827273125946521759e+01 -1.661405494436621666e+00 1.446220014244374852e-01
1.817983575165271759e+01 -1.463773658499121666e+00 1.495353315025624852e-01
1.697573418915271759e+01 -2.337308814749121666e+00 1.587363813072499852e-01
1.733803887665271759e+01 -2.278592994436621666e+00 1.725303266197499852e-01
1.784279961884021759e+01 -2.254056861624121666e+00 1.891013715416249852e-01
1.802102227509021759e+01 -2.128202369436621666e+00 1.992026899009999852e-01
1.820144219696521759e+01 -2.000638892874121666e+00 2.094260785728749852e-01
1.838503594696521759e+01 -1.870878150686621666e+00 2.198325727134999852e-01
1.843838067352771759e+01 -1.705594947561621666e+00 2.274619672447499852e-01
1.834218926727771759e+01 -1.505399635061621666e+00 2.312919232994374852e-01
1.719753594696521759e+01 -2.409696510061621666e+00 2.384635541588124852e-01
1.763784356415271759e+01 -2.372098853811621666e+00 2.554160688072499852e-01
1.794033379852771759e+01 -2.285917213186621666e+00 2.691794965416249852e-01
1.812050957977771759e+01 -2.159452369436621666e+00 2.799979779869374852e-01
1.830300469696521759e+01 -2.031278541311621666e+00 2.909690473228749852e-01
1.848855157196521759e+01 -1.901029517874121666e+00 3.021079633384999852e-01
1.860647149384021759e+01 -1.750516822561621666e+00 3.115684125572499852e-01
1.850881524384021759e+01 -1.548124244436621666e+00 3.151694867759999852e-01
1.742470879852771759e+01 -2.483915260061621666e+00 3.200980756431874852e-01
1.786062188446521759e+01 -2.442533424124121666e+00 3.389121625572499852e-01
1.803969903290271759e+01 -2.318265845999121666e+00 3.506919477134999852e-01
1.822182793915271759e+01 -2.191312720999121666e+00 3.622581098228749852e-01
1.840627618134021759e+01 -2.062528541311621666e+00 3.739768598228749852e-01
1.859389825165271759e+01 -1.931791236624121666e+00 3.858939740806874852e-01
1.877798028290271759e+01 -1.796415260061621666e+00 3.973991010338124852e-01
1.901638360321521759e+01 -1.671537330374121666e+00 4.111320111900624852e-01
1.769521661102771759e+01 -2.571805885061621666e+00 4.058677289634999852e-01
1.795937676727771759e+01 -2.475858619436621666e+00 4.207145307213124852e-01
1.813979668915271759e+01 -2.350858619436621666e+00 4.327994916588124852e-01
1.832387872040271759e+01 -2.223295142874121666e+00 4.451285932213124852e-01
1.851040215790271759e+01 -2.094022681936621666e+00 4.576255414634999852e-01
1.874257989227771759e+01 -1.973539283499121666e+00 4.718467328697499852e-01
1.903225274384021759e+01 -1.862699439749121666e+00 4.883262250572499852e-01
1.932705254852771759e+01 -1.748685767874121666e+00 5.051414106041249852e-01
1.787929864227771759e+01 -2.632841041311621666e+00 4.904777143150624852e-01
1.805874200165271759e+01 -2.509305885061621666e+00 5.031119916588124852e-01
1.824306817352771759e+01 -2.384427955374121666e+00 5.160361859947499852e-01
1.849062676727771759e+01 -2.273466041311621666e+00 5.316001508384999852e-01
1.874343438446521759e+01 -2.160184791311621666e+00 5.474998090416249852e-01
1.904702325165271759e+01 -2.055692603811621666e+00 5.656119916588124852e-01
1.934524102509021759e+01 -1.943754127249121666e+00 5.836783979088124852e-01
1.964834161102771759e+01 -1.828275611624121666e+00 6.021110150963124852e-01
1.800197930634021759e+01 -2.674833228811621666e+00 5.746299359947499852e-01
1.824367852509021759e+01 -2.568754127249121666e+00 5.906974408775624852e-01
1.849111504852771759e+01 -2.460111549124121666e+00 6.071616742759999852e-01
1.874563165009021759e+01 -2.348417213186621666e+00 6.240989301353749852e-01
1.905080743134021759e+01 -2.246488502249121666e+00 6.434318158775624852e-01
1.936587090790271759e+01 -2.141630103811621666e+00 6.633903119713124852e-01
1.967153497040271759e+01 -2.028226783499121666e+00 6.831046674400624852e-01
2.010610528290271759e+01 -1.940458228811621666e+00 7.089072797447499852e-01
1.824294610321521759e+01 -2.753690650686621666e+00 6.653281781822499852e-01
1.849111504852771759e+01 -2.647001197561621666e+00 6.827537152916249852e-01
1.874550957977771759e+01 -2.537626197561621666e+00 7.006064984947499852e-01
1.905276055634021759e+01 -2.438016822561621666e+00 7.212211225181874852e-01
1.938589043915271759e+01 -2.340360572561621666e+00 7.432853315025624852e-01
1.969216485321521759e+01 -2.229642799124121666e+00 7.641746137291249852e-01
2.014699883759021759e+01 -2.149686744436621666e+00 7.927543256431874852e-01
2.068142266571521759e+01 -2.080594947561621666e+00 8.256064984947499852e-01
1.849502129852771759e+01 -2.836210181936621666e+00 7.594291303306874852e-01
1.874770684540271759e+01 -2.728177955374121666e+00 7.781364057213124852e-01
1.905361504852771759e+01 -2.631009986624121666e+00 7.994224164634999852e-01
1.939138360321521759e+01 -2.536527564749121666e+00 8.230277631431874852e-01
1.971389336884021759e+01 -2.432401588186621666e+00 8.459769818931874852e-01
2.018642754852771759e+01 -2.361234595999121666e+00 8.773337934166249852e-01
2.066787286102771759e+01 -2.282621314749121666e+00 9.099265668541249852e-01
2.125124688446521759e+01 -2.219755103811621666e+00 9.479514691978749852e-01
1.875735040009021759e+01 -2.922025611624121666e+00 8.561545941978749852e-01
1.905971856415271759e+01 -2.826078345999121666e+00 8.788596723228749852e-01
1.939516778290271759e+01 -2.734159400686621666e+00 9.036399457603749852e-01
1.973769707977771759e+01 -2.637479713186621666e+00 9.290458295494374852e-01
2.018996758759021759e+01 -2.564603736624121666e+00 9.611045453697499852e-01
2.065017266571521759e+01 -2.485135963186621666e+00 9.938804242759999852e-01
2.123000665009021759e+01 -2.426053931936621666e+00 1.034102592244749985e+00
2.197744317352771759e+01 -2.396390845999121666e+00 1.084700736775999985e+00
1.908230157196521759e+01 -3.027616431936621666e+00 9.598685834556874852e-01
1.941103692352771759e+01 -2.936063697561621666e+00 9.850913617759999852e-01
1.975234551727771759e+01 -2.842069556936621666e+00 1.011733207479124985e+00
2.017324395477771759e+01 -2.763456275686621666e+00 1.043639335408812485e+00
2.063405938446521759e+01 -2.688260963186621666e+00 1.078307304158812485e+00
2.120742364227771759e+01 -2.633451392874121666e+00 1.120452079549437485e+00
2.192373223602771759e+01 -2.602445533499121666e+00 1.172148856893187485e+00
2.275185723602771759e+01 -2.584623267874121666e+00 1.232009086385374985e+00
1.943557305634021759e+01 -3.142240455374121666e+00 1.068221244588499985e+00
1.981167168915271759e+01 -3.061185767874121666e+00 1.098586234822874985e+00
2.024233575165271759e+01 -2.988920142874121666e+00 1.132857475057249985e+00
2.066909356415271759e+01 -2.906644752249121666e+00 1.167082938924437485e+00
2.122085137665271759e+01 -2.850614478811621666e+00 1.210127982869749985e+00
2.187014336884021759e+01 -2.809354713186621666e+00 1.260176810994749985e+00
2.267739434540271759e+01 -2.793973853811621666e+00 1.321532401815062485e+00
2.359829278290271759e+01 -2.790433814749121666e+00 1.391204032674437485e+00
1.988405938446521759e+01 -3.286771705374121666e+00 1.187422904744749985e+00
2.033169122040271759e+01 -3.222562720999121666e+00 1.224242362752562485e+00
2.076223321259021759e+01 -3.144559791311621666e+00 1.260466727986937485e+00
2.136001153290271759e+01 -3.104764869436621666e+00 1.309203300252562485e+00
2.197561211884021759e+01 -3.058744361624121666e+00 1.359496269002562485e+00
2.277553887665271759e+01 -3.048490455374121666e+00 1.423720512166624985e+00
2.370571465790271759e+01 -3.054105689749121666e+00 1.498000297322874985e+00
2.472207207977771759e+01 -3.062650611624121666e+00 1.579711112752562485e+00
2.042007012665271759e+01 -3.459012916311621666e+00 1.317351493611937485e+00
2.087502618134021759e+01 -3.391141822561621666e+00 1.357253227010374985e+00
2.146694512665271759e+01 -3.354520728811621666e+00 1.408034477010374985e+00
2.208986993134021759e+01 -3.314115455374121666e+00 1.461531791463499985e+00
2.289565606415271759e+01 -3.311796119436621666e+00 1.529647025838499985e+00
2.380947442352771759e+01 -3.321439674124121666e+00 1.606627616658812485e+00
2.484487481415271759e+01 -3.342313697561621666e+00 1.693633231893187485e+00
2.590090508759021759e+01 -3.348295142874121666e+00 1.782714042440062485e+00
2.100820489227771759e+01 -3.647977760061621666e+00 1.457289848104124985e+00
2.155178399384021759e+01 -3.600492408499121666e+00 1.506606254354124985e+00
2.219887872040271759e+01 -3.572660377249121666e+00 1.564192924275999985e+00
2.301638360321521759e+01 -3.579130103811621666e+00 1.636748466268187485e+00
2.391921563446521759e+01 -3.593168189749121666e+00 1.716750297322874985e+00
2.496596856415271759e+01 -3.626615455374121666e+00 1.809142265096312485e+00
2.599099297821521759e+01 -3.632718970999121666e+00 1.900771293416624985e+00
2.688515801727771759e+01 -3.588163306936621666e+00 1.981215629354124985e+00
2.167055840790271759e+01 -3.860380103811621666e+00 1.609450492635374985e+00
2.234939141571521759e+01 -3.846708228811621666e+00 1.672591361775999985e+00
2.315859551727771759e+01 -3.857694556936621666e+00 1.747954520955687485e+00
2.412002129852771759e+01 -3.894437720999121666e+00 1.837035331502562485e+00
2.516091485321521759e+01 -3.934110572561621666e+00 1.933486137166624985e+00
2.615383477509021759e+01 -3.940336158499121666e+00 2.026106986775999985e+00
2.697793145477771759e+01 -3.883939674124121666e+00 2.104155692830687485e+00
2.761306329071521759e+01 -3.767118385061621666e+00 2.166365775838499985e+00
1.035244317352771759e+01 3.892536852508783340e-01 -1.556404497474375148e-01
1.070803399384021759e+01 4.013386461883783340e-01 -1.520393755286875148e-01
1.109194512665271759e+01 4.142780993133783340e-01 -1.483772661536875148e-01
1.153213067352771759e+01 4.236775133758783340e-01 -1.443794634193125148e-01
1.182216973602771759e+01 4.705525133758783340e-01 -1.401680376380625148e-01
1.182436700165271759e+01 5.756550524383783340e-01 -1.360176470130625148e-01
1.182656426727771759e+01 6.807575915008783340e-01 -1.318825151771250148e-01
1.182387872040271759e+01 7.859822008758783340e-01 -1.280220415443125148e-01
1.037429375946521759e+01 3.824177477508783340e-01 -1.141365434974375148e-01
1.073159356415271759e+01 3.941364977508783340e-01 -1.091469194740000148e-01
1.111770196259021759e+01 4.069538805633783340e-01 -1.035164263099375148e-01
1.155251641571521759e+01 4.176960680633783340e-01 -9.756549857556251482e-02
1.195608086884021759e+01 4.427204821258783340e-01 -9.146198295056251482e-02
1.240932793915271759e+01 4.666462633758783340e-01 -8.477863334118751482e-02
1.276980157196521759e+01 5.158405993133783340e-01 -7.858356498181251482e-02
1.275429864227771759e+01 6.326618883758783340e-01 -7.429584525525001482e-02
1.056167168915271759e+01 3.365193102508783340e-01 -7.101520560681251482e-02
1.075539727509021759e+01 3.870564196258783340e-01 -6.578144095837501482e-02
1.114345879852771759e+01 3.995075915008783340e-01 -5.862506888806251482e-02
1.157290215790271759e+01 4.115925524383783340e-01 -5.078205130993751482e-02
1.198440118134021759e+01 4.352741930633783340e-01 -4.280170463025001482e-02
1.244008965790271759e+01 4.589558336883783340e-01 -3.407367728650001482e-02
1.293728204071521759e+01 4.847126696258783340e-01 -2.453693412243751482e-02
1.347805352509021759e+01 5.127888415008783340e-01 -1.417621634900001482e-02
1.801882500946521759e+01 -1.421903541311621666e+00 6.895366646349998518e-02
1.151015801727771759e+01 2.153034899383783340e-01 -1.228412650525001482e-02
1.154922051727771759e+01 3.105183336883783340e-01 -7.965889200562514816e-03
1.159353204071521759e+01 4.054890368133783340e-01 -3.525581583375014816e-03
1.201296563446521759e+01 4.277058336883783340e-01 6.407890096312485184e-03
1.247133965790271759e+01 4.511433336883783340e-01 1.722637154162498518e-02
1.297146172821521759e+01 4.767780993133783340e-01 2.903667427599998518e-02
1.351540704071521759e+01 5.046101305633783340e-01 4.159465767443748518e-02
1.817898125946521759e+01 -1.463041236624121666e+00 1.495353315025624852e-01
1.808681817352771759e+01 -1.268339088186621666e+00 1.540671918541249852e-01
1.799611993134021759e+01 -1.076566627249121666e+00 1.585227582603749852e-01
1.254726739227771759e+01 2.085896227508783340e-01 6.137004829943748518e-02
1.262527032196521759e+01 3.069782946258783340e-01 6.692424751818748518e-02
1.270400567352771759e+01 4.063435290008783340e-01 7.253948189318748518e-02
1.300564141571521759e+01 4.687214586883783340e-01 8.268657661974998518e-02
1.355324883759021759e+01 4.961872790008783340e-01 9.803691841662498518e-02
1.834133477509021759e+01 -1.504667213186621666e+00 2.312919232994374852e-01
1.824795098602771759e+01 -1.308011939749121666e+00 2.356864545494374852e-01
1.829409356415271759e+01 -1.143949439749121666e+00 2.428123090416249852e-01
1.890273614227771759e+01 -1.094144752249121666e+00 2.632743451744374852e-01
1.958779473602771759e+01 -1.047880103811621666e+00 2.859489057213124852e-01
1.995400567352771759e+01 -9.294719006866216660e-01 3.013450238853749852e-01
1.401784844696521759e+01 2.907429430633783340e-01 1.611320111900624852e-01
1.410695977509021759e+01 4.035359118133783340e-01 1.674796674400624852e-01
1.850796075165271759e+01 -1.547391822561621666e+00 3.151694867759999852e-01
1.870486016571521759e+01 -1.414335181936621666e+00 3.266135785728749852e-01
1.929909844696521759e+01 -1.363553931936621666e+00 3.493033979088124852e-01
1.960305352509021759e+01 -1.240873267874121666e+00 3.641654584556874852e-01
1.998244805634021759e+01 -1.127958228811621666e+00 3.813773725181874852e-01
2.081215997040271759e+01 -1.090970924124121666e+00 4.118949506431874852e-01
2.179250665009021759e+01 -1.063138892874121666e+00 4.474174115806874852e-01
2.285232110321521759e+01 -1.029691627249121666e+00 4.859305951744374852e-01
1.901821465790271759e+01 -1.671415260061621666e+00 4.112083051353749852e-01
1.931325860321521759e+01 -1.555204322561621666e+00 4.267722699791249852e-01
1.961892266571521759e+01 -1.435941627249121666e+00 4.433280561119374852e-01
2.001418633759021759e+01 -1.328641822561621666e+00 4.625846479088124852e-01
2.075344415009021759e+01 -1.281644752249121666e+00 4.935599897056874852e-01
2.167885918915271759e+01 -1.254301002249121666e+00 5.312949750572499852e-01
2.263552422821521759e+01 -1.213529517874121666e+00 5.701896283775624852e-01
2.384865899384021759e+01 -1.196683814749121666e+00 6.189872357994374852e-01
1.932912774384021759e+01 -1.748441627249121666e+00 5.052329633384999852e-01
1.963430352509021759e+01 -1.631376197561621666e+00 5.225059125572499852e-01
2.004104180634021759e+01 -1.530424049124121666e+00 5.437614057213124852e-01
2.069008965790271759e+01 -1.470975806936621666e+00 5.744315717369374852e-01
2.156521172821521759e+01 -1.443387916311621666e+00 6.140891645103749852e-01
2.242519707977771759e+01 -1.395780494436621666e+00 6.537162397056874852e-01
2.361403985321521759e+01 -1.387967994436621666e+00 7.066337201744374852e-01
2.480019707977771759e+01 -1.356840064749121666e+00 7.601768109947499852e-01
1.965053887665271759e+01 -1.828153541311621666e+00 6.022178266197499852e-01
2.007009454071521759e+01 -1.733549049124121666e+00 6.256400678306874852e-01
2.064577813446521759e+01 -1.664579322561621666e+00 6.558982465416249852e-01
2.145241875946521759e+01 -1.631254127249121666e+00 6.963035199791249852e-01
2.228896661102771759e+01 -1.588407447561621666e+00 7.384788129478749852e-01
2.337380547821521759e+01 -1.574979713186621666e+00 7.918387982994374852e-01
2.447719903290271759e+01 -1.542509010061621666e+00 8.467094037681874852e-01
2.578701348602771759e+01 -1.522977760061621666e+00 9.112540815025624852e-01
2.011001153290271759e+01 -1.940702369436621666e+00 7.091056440025624852e-01
2.068569512665271759e+01 -1.876615455374121666e+00 7.417594525963124852e-01
2.134695000946521759e+01 -1.819852760061621666e+00 7.787620160728749852e-01
2.215883965790271759e+01 -1.780301978811621666e+00 8.232566449791249852e-01
2.314577813446521759e+01 -1.759550025686621666e+00 8.765250775963124852e-01
2.424013848602771759e+01 -1.739286353811621666e+00 9.355308149009999852e-01
2.544131036102771759e+01 -1.715116431936621666e+00 1.000334892049437485e+00
2.662942071259021759e+01 -1.665800025686621666e+00 1.065200004354124985e+00
2.068435235321521759e+01 -2.080717017874121666e+00 8.257743451744374852e-01
2.129970879852771759e+01 -2.019681861624121666e+00 8.631736371666249852e-01
2.209121270477771759e+01 -1.984647681936621666e+00 9.099876020103749852e-01
2.299648614227771759e+01 -1.956693580374121666e+00 9.631797406822499852e-01
2.407888360321521759e+01 -1.946073463186621666e+00 1.026122245565062485e+00
2.518777032196521759e+01 -1.918851783499121666e+00 1.091063651815062485e+00
2.635476250946521759e+01 -1.879178931936621666e+00 1.159758720174437485e+00
2.729958672821521759e+01 -1.780668189749121666e+00 1.217299613729124985e+00
2.125625176727771759e+01 -2.220365455374121666e+00 9.482566449791249852e-01
2.203994317352771759e+01 -2.191556861624121666e+00 9.979697797447499852e-01
2.290920586884021759e+01 -2.165677955374121666e+00 1.052397880330687485e+00
2.395400567352771759e+01 -2.157987525686621666e+00 1.117781791463499985e+00
2.503115411102771759e+01 -2.136625220999121666e+00 1.185576591268187485e+00
2.619411797821521759e+01 -2.109769752249121666e+00 1.258864555135374985e+00
2.714895196259021759e+01 -2.022611549124121666e+00 1.321547660604124985e+00
2.789590020477771759e+01 -1.883573463186621666e+00 1.372115287557249985e+00
2.198440118134021759e+01 -2.397245338186621666e+00 1.085127982869749985e+00
2.283156915009021759e+01 -2.375394752249121666e+00 1.142424735799437485e+00
2.383156915009021759e+01 -2.369779517874121666e+00 1.209487113729124985e+00
2.489699883759021759e+01 -2.356840064749121666e+00 1.281127128377562485e+00
2.604372735321521759e+01 -2.339384010061621666e+00 1.358321342244749985e+00
2.701076836884021759e+01 -2.265897681936621666e+00 1.425048026815062485e+00
2.780385918915271759e+01 -2.142118385061621666e+00 1.481536063924437485e+00
2.832534356415271759e+01 -1.959134986624121666e+00 1.521468314900999985e+00
2.275857110321521759e+01 -2.585477760061621666e+00 1.232466850057249985e+00
2.369936700165271759e+01 -2.576810767874121666e+00 1.299346122518187485e+00
2.475503106415271759e+01 -2.574369361624121666e+00 1.374816093221312485e+00
2.588943047821521759e+01 -2.566068580374121666e+00 1.456053886190062485e+00
2.687197442352771759e+01 -2.506376197561621666e+00 1.527831229940062485e+00
2.767251153290271759e+01 -2.393461158499121666e+00 1.588011894002562485e+00
2.824282403290271759e+01 -2.223905494436621666e+00 1.633284721150999985e+00
2.882302422821521759e+01 -2.046171119436621666e+00 1.680144462361937485e+00
2.360464043915271759e+01 -2.791166236624121666e+00 1.391661796346312485e+00
2.462258477509021759e+01 -2.791288306936621666e+00 1.468993339315062485e+00
2.573049493134021759e+01 -2.790555885061621666e+00 1.553160819783812485e+00
2.671206231415271759e+01 -2.740751197561621666e+00 1.629012260213499985e+00
2.754250665009021759e+01 -2.642728736624121666e+00 1.694625053182249985e+00
2.816457696259021759e+01 -2.489896705374121666e+00 1.745833549275999985e+00
2.879372735321521759e+01 -2.325590064749121666e+00 1.797866019979124985e+00
2.944204278290271759e+01 -2.153470924124121666e+00 1.851561698690062485e+00
2.473086114227771759e+01 -3.063871314749121666e+00 1.580382499471312485e+00
2.582192559540271759e+01 -3.068998267874121666e+00 1.667479667440062485e+00
2.672390313446521759e+01 -3.011136939749121666e+00 1.741515311971312485e+00
2.747219415009021759e+01 -2.902738502249121666e+00 1.804442558065062485e+00
2.813515801727771759e+01 -2.764066627249121666e+00 1.861266288533812485e+00
2.876223321259021759e+01 -2.605985572561621666e+00 1.915663871541624985e+00
2.944192071259021759e+01 -2.444486549124121666e+00 1.974394950643187485e+00
3.012905450165271759e+01 -2.272245338186621666e+00 2.034697685018187485e+00
2.590761895477771759e+01 -3.349027564749121666e+00 1.783263358846312485e+00
2.681594415009021759e+01 -3.300321510061621666e+00 1.861678275838499985e+00
2.753506036102771759e+01 -3.192411353811621666e+00 1.925398978963499985e+00
2.819143243134021759e+01 -3.056669166311621666e+00 1.984465751424437485e+00
2.876589532196521759e+01 -2.893094947561621666e+00 2.037245902791624985e+00
2.941262383759021759e+01 -2.732328345999121666e+00 2.096099052205687485e+00
3.013296075165271759e+01 -2.571195533499121666e+00 2.161223563924437485e+00
3.094900079071521759e+01 -2.413236549124121666e+00 2.234404716268187485e+00
2.688991875946521759e+01 -3.588407447561621666e+00 1.981627616658812485e+00
2.757656426727771759e+01 -3.478910377249121666e+00 2.045668754354124985e+00
2.824013848602771759e+01 -3.350980689749121666e+00 2.107405814900999985e+00
2.883730645477771759e+01 -3.195585181936621666e+00 2.164458427205687485e+00
2.946450372040271759e+01 -3.035795142874121666e+00 2.224318656697874985e+00
3.014882989227771759e+01 -2.874784400686621666e+00 2.289321098104124985e+00
3.094753594696521759e+01 -2.719877174124121666e+00 2.365172538533812485e+00
3.195998711884021759e+01 -2.586210181936621666e+00 2.458953056111937485e+00
2.761843438446521759e+01 -3.767484595999121666e+00 2.166869315877562485e+00
2.828188653290271759e+01 -3.645048072561621666e+00 2.231352958455687485e+00
2.891408868134021759e+01 -3.503080299124121666e+00 2.294005546346312485e+00
2.955984063446521759e+01 -3.350736549124121666e+00 2.358153495565062485e+00
3.026198907196521759e+01 -3.198270728811621666e+00 2.427626762166624985e+00
3.104214043915271759e+01 -3.046903541311621666e+00 2.504393729940062485e+00
3.198195977509021759e+01 -2.907743385061621666e+00 2.595931205525999985e+00
3.298769707977771759e+01 -2.762357642874121666e+00 2.694579276815062485e+00
1.182375665009021759e+01 7.863484118133783340e-01 -1.280067827552500148e-01
1.182485528290271759e+01 8.905964586883783340e-01 -1.239784624427500148e-01
1.182107110321521759e+01 9.952107165008783340e-01 -1.202095415443125148e-01
1.181740899384021759e+01 1.099824974313378334e+00 -1.164406206458750148e-01
1.181411309540271759e+01 1.203828880563378334e+00 -1.127022173255625148e-01
1.179922051727771759e+01 1.308687279000878334e+00 -1.090248491615000148e-01
1.178457207977771759e+01 1.413301536813378334e+00 -1.053322222083750148e-01
1.176650567352771759e+01 1.517427513375878334e+00 -1.019600298255625148e-01
1.275393243134021759e+01 6.331501696258783340e-01 -7.428058646618751482e-02
1.273293633759021759e+01 7.502155993133783340e-01 -7.035907767712501482e-02
1.271706719696521759e+01 8.658161852508783340e-01 -6.616291068493751482e-02
1.269631524384021759e+01 9.819050524383783340e-01 -6.227191947400001482e-02
1.267568536102771759e+01 1.096895286813378334e+00 -5.842670463025001482e-02
1.265652032196521759e+01 1.210908958688378334e+00 -5.459674857556251482e-02
1.264675469696521759e+01 1.323823997750878334e+00 -5.096515677868751482e-02
1.264187188446521759e+01 1.435396263375878334e+00 -4.704364798962501482e-02
1.348183770477771759e+01 5.125447008758783340e-01 -1.411518119275001482e-02
1.382949395477771759e+01 5.807820055633783340e-01 -5.860176309937514816e-03
1.382033868134021759e+01 7.067585680633783340e-01 -1.602974161500014816e-03
1.381289239227771759e+01 8.322468493133783340e-01 2.669486775999985184e-03
1.380556817352771759e+01 9.568806383758783340e-01 6.926688924437485184e-03
1.379824395477771759e+01 1.081148216500878334e+00 1.115337349474998518e-02
1.378628106415271759e+01 1.205659935250878334e+00 1.531902290881248518e-02
1.376430840790271759e+01 1.330293724313378334e+00 1.933208443224998518e-02
1.351919122040271759e+01 5.043659899383783340e-01 4.167095161974998518e-02
1.411623711884021759e+01 5.347614977508783340e-01 5.580059029162498518e-02
1.476674981415271759e+01 5.695515368133783340e-01 7.092205025256248518e-02
1.517934747040271759e+01 6.490193102508783340e-01 8.248821236193748518e-02
1.513869805634021759e+01 7.915974352508783340e-01 8.654705025256248518e-02
1.509853692352771759e+01 9.329548571258783340e-01 9.056011177599998518e-02
1.505849786102771759e+01 1.073701927438378334e+00 9.455791451037498518e-02
1.501528497040271759e+01 1.212984154000878334e+00 9.811321236193748518e-02
1.355703301727771759e+01 4.959431383758783340e-01 9.812847115099998518e-02
1.415786309540271759e+01 5.262165758758783340e-01 1.147452924400624852e-01
1.480861993134021759e+01 5.612507555633783340e-01 1.328269574791249852e-01
1.547011895477771759e+01 6.081257555633783340e-01 1.515952680259999852e-01
1.619668145477771759e+01 6.596394274383783340e-01 1.721946332603749852e-01
1.666750665009021759e+01 7.542439196258783340e-01 1.876365277916249852e-01
1.660610528290271759e+01 9.129353258758783340e-01 1.914207074791249852e-01
1.654543633759021759e+01 1.069551536813378334e+00 1.951591107994374852e-01
1.410757012665271759e+01 4.039021227508783340e-01 1.675101850181874852e-01
1.420827813446521759e+01 5.162068102508783340e-01 1.746512982994374852e-01
1.485085625946521759e+01 5.528279040008783340e-01 1.954948041588124852e-01
1.551687188446521759e+01 5.994587633758783340e-01 2.173759076744374852e-01
1.624856133759021759e+01 6.507282946258783340e-01 2.414390180259999852e-01
1.705923028290271759e+01 7.076130602508783340e-01 2.680808637291249852e-01
1.792373223602771759e+01 7.753620836883783340e-01 2.967368695884999852e-01
1.871950860321521759e+01 8.659382555633783340e-01 3.236381147056874852e-01
2.286172051727771759e+01 -1.030424049124121666e+00 4.862357709556874852e-01
2.409731622040271759e+01 -1.002836158499121666e+00 5.304862592369374852e-01
1.584865899384021759e+01 4.075642321258783340e-01 2.872916791588124852e-01
1.595681329071521759e+01 5.385456774383783340e-01 2.953788373619374852e-01
1.630056329071521759e+01 6.419392321258783340e-01 3.108207318931874852e-01
1.711721368134021759e+01 6.984577868133783340e-01 3.413230512291249852e-01
1.798354668915271759e+01 7.665730211883783340e-01 3.739616010338124852e-01
1.891250176727771759e+01 8.453083727508783340e-01 4.091331098228749852e-01
2.385622735321521759e+01 -1.197172095999121666e+00 6.192771527916249852e-01
2.518398614227771759e+01 -1.173734595999121666e+00 6.726676557213124852e-01
2.662868829071521759e+01 -1.140653541311621666e+00 7.316276166588124852e-01
2.795449395477771759e+01 -1.062040260061621666e+00 7.867423627525624852e-01
2.823806329071521759e+01 -8.298625256866216660e-01 8.054648969322499852e-01
1.816445489227771759e+01 5.774861071258783340e-01 4.511710736900624852e-01
1.828261895477771759e+01 7.330036852508783340e-01 4.604636762291249852e-01
1.897988457977771759e+01 8.362751696258783340e-01 4.914237592369374852e-01
2.480984063446521759e+01 -1.357572486624121666e+00 7.605887982994374852e-01
2.611782403290271759e+01 -1.321561744436621666e+00 8.195640180259999852e-01
2.759353204071521759e+01 -1.283597877249121666e+00 8.860313031822499852e-01
2.823025079071521759e+01 -1.103422095999121666e+00 9.198752973228749852e-01
2.844265313446521759e+01 -8.596476819366216660e-01 9.369803998619374852e-01
2.859426446259021759e+01 -6.053752209991216660e-01 9.517203900963124852e-01
2.872793145477771759e+01 -3.459758069366216660e-01 9.658347699791249852e-01
2.891237969696521759e+01 -9.011643193662166595e-02 9.820701215416249852e-01
2.579482598602771759e+01 -1.523466041311621666e+00 9.116202924400624852e-01
2.718825860321521759e+01 -1.490629127249121666e+00 9.806205365806874852e-01
2.803493829071521759e+01 -1.351591041311621666e+00 1.026244315877562485e+00
2.843508477509021759e+01 -1.135404517874121666e+00 1.052458915486937485e+00
2.865053887665271759e+01 -8.899211194366216660e-01 1.070586356893187485e+00
2.881435723602771759e+01 -6.349162366241216660e-01 1.086501273885374985e+00
2.916750665009021759e+01 -3.957804944366216660e-01 1.111144218221312485e+00
3.085854668915271759e+01 -2.759074475616216660e-01 1.197356376424437485e+00
2.663772149384021759e+01 -1.666288306936621666e+00 1.065627250447874985e+00
2.771584649384021759e+01 -1.576566627249121666e+00 1.125899467244749985e+00
2.841067071259021759e+01 -1.410306861624121666e+00 1.168044242635374985e+00
2.864419122040271759e+01 -1.167997291311621666e+00 1.187895927205687485e+00
2.890932793915271759e+01 -9.265422131866216660e-01 1.209395560994749985e+00
2.943056817352771759e+01 -7.093791272491216660e-01 1.243819389119749985e+00
3.063808770477771759e+01 -5.523967053741216660e-01 1.313048515096312485e+00
3.270424981415271759e+01 -4.529094006866216660e-01 1.426345023885374985e+00
2.730630059540271759e+01 -1.780912330374121666e+00 1.217696342244749985e+00
2.812050957977771759e+01 -1.643705299124121666e+00 1.268965873494749985e+00
2.863613457977771759e+01 -1.447538306936621666e+00 1.304686698690062485e+00
2.888991875946521759e+01 -1.205594947561621666e+00 1.326613578572874985e+00
2.949404473602771759e+01 -1.003568580374121666e+00 1.367659721150999985e+00
3.041079278290271759e+01 -8.254679944366216660e-01 1.426085624471312485e+00
3.205703301727771759e+01 -7.041301038116216660e-01 1.525084647908812485e+00
3.415749688446521759e+01 -5.939006116241216660e-01 1.650054130330687485e+00
2.789944024384021759e+01 -1.883207252249121666e+00 1.372344169393187485e+00
2.849929375946521759e+01 -1.706937720999121666e+00 1.415007743611937485e+00
2.886855645477771759e+01 -1.485868385061621666e+00 1.443892631307249985e+00
2.947475762665271759e+01 -1.288846900686621666e+00 1.487548026815062485e+00
3.020840020477771759e+01 -1.096830299124121666e+00 1.539031181111937485e+00
3.167019219696521759e+01 -9.736613538116216660e-01 1.633986625447874985e+00
3.331020684540271759e+01 -8.391398694366216660e-01 1.741210136190062485e+00
3.487380547821521759e+01 -6.662883069366216660e-01 1.844023856893187485e+00
2.832876153290271759e+01 -1.958768775686621666e+00 1.521712455525999985e+00
2.885232110321521759e+01 -1.766385963186621666e+00 1.562361869588499985e+00
2.945656915009021759e+01 -1.575712135061621666e+00 1.608367118611937485e+00
3.015945000946521759e+01 -1.385648658499121666e+00 1.660979423299437485e+00
3.143972344696521759e+01 -1.254667213186621666e+00 1.750640067830687485e+00
3.288430352509021759e+01 -1.117216041311621666e+00 1.851500663533812485e+00
3.431008477509021759e+01 -9.482707288116216660e-01 1.952010307088499985e+00
3.532241387665271759e+01 -7.137736584991216660e-01 2.026641044393187485e+00
2.882693047821521759e+01 -2.045926978811621666e+00 1.680434379354124985e+00
2.944155450165271759e+01 -1.862455299124121666e+00 1.728957328572874985e+00
3.013198418915271759e+01 -1.678251197561621666e+00 1.783614310994749985e+00
3.120766778290271759e+01 -1.531400611624121666e+00 1.864821586385374985e+00
3.241909356415271759e+01 -1.381376197561621666e+00 1.955855521932249985e+00
3.395034356415271759e+01 -1.244169166311621666e+00 2.069441947713499985e+00
3.503139825165271759e+01 -1.028837135061621666e+00 2.152968559041624985e+00
3.578591485321521759e+01 -7.629679944366216660e-01 2.215361747518187485e+00
2.944619317352771759e+01 -2.153226783499121666e+00 1.851882133260374985e+00
3.012758965790271759e+01 -1.973905494436621666e+00 1.908766898885374985e+00
3.098134942352771759e+01 -1.806302955374121666e+00 1.978499564900999985e+00
3.216494317352771759e+01 -1.665433814749121666e+00 2.072631034627562485e+00
3.357058282196521759e+01 -1.530057838186621666e+00 2.183547172322874985e+00
3.480776543915271759e+01 -1.347684791311621666e+00 2.282912406697874985e+00
3.553420586884021759e+01 -1.086820533499121666e+00 2.345488700643187485e+00
3.635720391571521759e+01 -8.222941663116216660e-01 2.415526542440062485e+00
3.013515801727771759e+01 -2.272245338186621666e+00 2.035185966268187485e+00
3.096242852509021759e+01 -2.108549049124121666e+00 2.105757865682249985e+00
3.201870293915271759e+01 -1.961942603811621666e+00 2.195082816854124985e+00
3.318325372040271759e+01 -1.808011939749121666e+00 2.293364677205687485e+00
3.444131036102771759e+01 -1.644071510061621666e+00 2.399474296346312485e+00
3.535598321259021759e+01 -1.416044166311621666e+00 2.479552421346312485e+00
3.627492852509021759e+01 -1.169706275686621666e+00 2.560469779744749985e+00
3.708217950165271759e+01 -8.963908459991216660e-01 2.633971366658812485e+00
3.095608086884021759e+01 -2.413358619436621666e+00 2.234999809041624985e+00
3.199331231415271759e+01 -2.273954322561621666e+00 2.327284965291624985e+00
3.310610528290271759e+01 -2.125150611624121666e+00 2.426268729940062485e+00
3.421596856415271759e+01 -1.952909400686621666e+00 2.525618705525999985e+00
3.519924493134021759e+01 -1.744291236624121666e+00 2.615126762166624985e+00
3.612490411102771759e+01 -1.510038306936621666e+00 2.700377616658812485e+00
3.697695489227771759e+01 -1.248929908499121666e+00 2.780059013143187485e+00
3.798672051727771759e+01 -9.875773694366216660e-01 2.873213920369749985e+00
3.196792168915271759e+01 -2.586454322561621666e+00 2.459670219197874985e+00
3.305056329071521759e+01 -2.443876197561621666e+00 2.560805473104124985e+00
3.413906426727771759e+01 -2.280912330374121666e+00 2.662200126424437485e+00
3.515517754852771759e+01 -2.085477760061621666e+00 2.758696708455687485e+00
3.598195977509021759e+01 -1.847928931936621666e+00 2.839232597127562485e+00
3.686867852509021759e+01 -1.601224830374121666e+00 2.925414237752562485e+00
3.788430352509021759e+01 -1.349882056936621666e+00 3.024199638143187485e+00
3.905276055634021759e+01 -1.094510963186621666e+00 3.135985526815062485e+00
3.299502129852771759e+01 -2.762479713186621666e+00 2.695281181111937485e+00
3.407094903290271759e+01 -2.608426978811621666e+00 2.800154838338499985e+00
3.509377618134021759e+01 -2.425565650686621666e+00 2.901534232869749985e+00
3.596889825165271759e+01 -2.201444556936621666e+00 2.989974174275999985e+00
3.682253594696521759e+01 -1.959012916311621666e+00 3.076857719197874985e+00
3.777968926727771759e+01 -1.712064674124121666e+00 3.173644218221312485e+00
3.894204278290271759e+01 -1.466825416311621666e+00 3.289794120565062485e+00
4.033950372040271759e+01 -1.222684791311621666e+00 3.429122123494749985e+00
1.176626153290271759e+01 1.517793724313378334e+00 -1.019447710365000148e-01
1.175112481415271759e+01 1.621065208688378334e+00 -9.837421439587501482e-02
1.173220391571521759e+01 1.724214622750878334e+00 -9.509357474743751482e-02
1.171340508759021759e+01 1.827241966500878334e+00 -9.181293509900001482e-02
1.169472832977771759e+01 1.929292747750878334e+00 -8.856281302868751482e-02
1.167617364227771759e+01 2.030977318063378334e+00 -8.532794974743751482e-02
1.165761895477771759e+01 2.132539818063378334e+00 -8.209308646618751482e-02
1.164284844696521759e+01 2.233125755563378334e+00 -7.911762259900001482e-02
1.264174981415271759e+01 1.435762474313378334e+00 -4.704364798962501482e-02
1.263149590790271759e+01 1.547456810250878334e+00 -4.348835013806251482e-02
1.262612481415271759e+01 1.658418724313378334e+00 -3.961261771618751482e-02
1.261587090790271759e+01 1.769868919625878334e+00 -3.607257865368751482e-02
1.260573907196521759e+01 1.880586693063378334e+00 -3.254779838025001482e-02
1.259377618134021759e+01 1.991060325875878334e+00 -2.905353568493751482e-02
1.255910821259021759e+01 2.102388450875878334e+00 -2.606281302868751482e-02
1.253396172821521759e+01 2.212129661813378334e+00 -2.275165580212501482e-02
1.376406426727771759e+01 1.330659935250878334e+00 1.933208443224998518e-02
1.373269219696521759e+01 1.455415794625878334e+00 2.288738228381248518e-02
1.370156426727771759e+01 1.579317161813378334e+00 2.642742134631248518e-02
1.367043633759021759e+01 1.702852318063378334e+00 2.995220161974998518e-02
1.363967461884021759e+01 1.825288841500878334e+00 3.343120552599998518e-02
1.360903497040271759e+01 1.946870872750878334e+00 3.689495064318748518e-02
1.357851739227771759e+01 2.068086693063378334e+00 4.035869576037498518e-02
1.354824395477771759e+01 2.188203880563378334e+00 4.377666451037498518e-02
1.501540704071521759e+01 1.213472435250878334e+00 9.812847115099998518e-02
1.503005547821521759e+01 1.346895286813378334e+00 1.031028363853749852e-01
1.503652520477771759e+01 1.481172630563378334e+00 1.075889203697499852e-01
1.504299493134021759e+01 1.615816185250878334e+00 1.120902631431874852e-01
1.504946465790271759e+01 1.749971458688378334e+00 1.165763471275624852e-01
1.505593438446521759e+01 1.884126732125878334e+00 1.210624311119374852e-01
1.505227227509021759e+01 2.019014427438378334e+00 1.253654096275624852e-01
1.502907891571521759e+01 2.153657982125878334e+00 1.289054486900624852e-01
1.654507012665271759e+01 1.070039818063378334e+00 1.951591107994374852e-01
1.649123711884021759e+01 1.224580833688378334e+00 1.987449262291249852e-01
1.649611993134021759e+01 1.373506614938378334e+00 2.036582563072499852e-01
1.650100274384021759e+01 1.522920677438378334e+00 2.086021039634999852e-01
1.650588555634021759e+01 1.671846458688378334e+00 2.135154340416249852e-01
1.651076836884021759e+01 1.820528099313378334e+00 2.184287641197499852e-01
1.650258965790271759e+01 1.970186302438378334e+00 2.230216596275624852e-01
1.648183770477771759e+01 2.119356224313378334e+00 2.272788617759999852e-01
1.871902032196521759e+01 8.666706774383783340e-01 3.236381147056874852e-01
1.865236993134021759e+01 1.044038841500878334e+00 3.276969525963124852e-01
1.858266778290271759e+01 1.220064232125878334e+00 3.311912152916249852e-01
1.859048028290271759e+01 1.390230247750878334e+00 3.368674848228749852e-01
1.859817071259021759e+01 1.559907982125878334e+00 3.425132367759999852e-01
1.860586114227771759e+01 1.729463646188378334e+00 3.481589887291249852e-01
1.861355157196521759e+01 1.899629661813378334e+00 3.538199994713124852e-01
1.860769219696521759e+01 2.069429466500878334e+00 3.586417768150624852e-01
1.891909356415271759e+01 8.453083727508783340e-01 4.093619916588124852e-01
1.995827813446521759e+01 9.334431383758783340e-01 4.485007856041249852e-01
2.104323907196521759e+01 1.038789818063378334e+00 4.897910688072499852e-01
2.117849297821521759e+01 1.225801536813378334e+00 5.004417035728749852e-01
2.109450860321521759e+01 1.426118919625878334e+00 5.038444135338124852e-01
2.101125665009021759e+01 1.624483177438378334e+00 5.072166059166249852e-01
2.092849297821521759e+01 1.821748802438378334e+00 5.105582807213124852e-01
2.084682793915271759e+01 2.016328880563378334e+00 5.138694379478749852e-01
1.898659844696521759e+01 8.361530993133783340e-01 4.916831586509999852e-01
2.003420586884021759e+01 9.241657946258783340e-01 5.359031293541249852e-01
2.111928887665271759e+01 1.030122825875878334e+00 5.826408002525624852e-01
2.228591485321521759e+01 1.153291771188378334e+00 6.326896283775624852e-01
2.361049981415271759e+01 1.290498802438378334e+00 6.894523236900624852e-01
2.457278008759021759e+01 1.469453880563378334e+00 7.331687543541249852e-01
2.430202813446521759e+01 1.708467552438378334e+00 7.293845746666249852e-01
2.423025079071521759e+01 1.936616966500878334e+00 7.337028119713124852e-01
2.891482110321521759e+01 -8.950608037412166595e-02 9.822074506431874852e-01
2.122658868134021759e+01 8.223591540008783340e-01 6.709281537681874852e-01
2.138222832977771759e+01 1.007906029000878334e+00 6.835776899009999852e-01
2.237185235321521759e+01 1.144624779000878334e+00 7.315513227134999852e-01
2.373537774384021759e+01 1.280611107125878334e+00 7.960349652916249852e-01
2.499428887665271759e+01 1.447969505563378334e+00 8.568564984947499852e-01
2.650112481415271759e+01 1.632906029000878334e+00 9.291831586509999852e-01
2.805153985321521759e+01 1.845796654000878334e+00 1.004317435994749985e+00
3.086757989227771759e+01 -2.757853772491216660e-01 1.197798881307249985e+00
3.353408379852771759e+01 -2.032756116241216660e-01 1.330077323690062485e+00
3.521499200165271759e+01 -5.765845999121665955e-03 1.418151054158812485e+00
3.547524590790271759e+01 3.158894274383783340e-01 1.440779838338499985e+00
2.529055352509021759e+01 1.194673607125878334e+00 9.712211225181874852e-01
2.549257989227771759e+01 1.422945091500878334e+00 9.881126020103749852e-01
2.661440606415271759e+01 1.625459739938378334e+00 1.049071464315062485e+00
2.816396661102771759e+01 1.839326927438378334e+00 1.131255302205687485e+00
3.271596856415271759e+01 -4.529094006866216660e-01 1.426970634236937485e+00
3.491006036102771759e+01 -3.230265881866216660e-01 1.548079643025999985e+00
3.544948907196521759e+01 -2.822678349912166595e-02 1.585890922322874985e+00
3.572024102509021759e+01 2.950154040008783340e-01 1.610243949666624985e+00
3.604641290009021759e+01 6.193562243133783340e-01 1.637587699666624985e+00
3.973281426727771759e+01 8.046589586883783340e-01 1.840056571736937485e+00
4.040517754852771759e+01 1.164522239938378334e+00 1.886962089315062485e+00
4.066457696259021759e+01 1.545625755563378334e+00 1.912474784627562485e+00
3.416762872040271759e+01 -5.936564709991216660e-01 1.650649223104124985e+00
3.535927911102771759e+01 -3.658732678741216660e-01 1.726653251424437485e+00
3.568618340790271759e+01 -5.105393193662166595e-02 1.755156669393187485e+00
3.618288750946521759e+01 2.604695055633783340e-01 1.793410453572874985e+00
3.770766778290271759e+01 5.254841540008783340e-01 1.889861259236937485e+00
4.030471368134021759e+01 7.741413805633783340e-01 2.047972831502562485e+00
4.065432305634021759e+01 1.150484154000878334e+00 2.079665336385374985e+00
4.108523125946521759e+01 1.530122825875878334e+00 2.116164359822874985e+00
3.487966485321521759e+01 -6.656779553741216660e-01 1.844420585408812485e+00
3.562368340790271759e+01 -3.933390881866216660e-01 1.899184379354124985e+00
3.605874200165271759e+01 -8.376877568662166595e-02 1.934889945760374985e+00
3.696316094696521759e+01 2.055378649383783340e-01 2.000182304158812485e+00
3.939577813446521759e+01 4.296589586883783340e-01 2.159133109822874985e+00
4.055276055634021759e+01 7.574177477508783340e-01 2.241393241658812485e+00
4.103518243134021759e+01 1.131929466500878334e+00 2.283812675252562485e+00
4.319424004852771759e+01 1.474824974313378334e+00 2.429289970174437485e+00
3.532851739227771759e+01 -7.132853772491216660e-01 2.027068290486937485e+00
3.588857598602771759e+01 -4.210490491241216660e-01 2.073424491658812485e+00
3.672195000946521759e+01 -1.382121350616216660e-01 2.137862357869749985e+00
3.819887872040271759e+01 1.213093493133783340e-01 2.244841727986937485e+00
4.013564629852771759e+01 3.841267321258783340e-01 2.382826957479124985e+00
4.080544610321521759e+01 7.404499743133783340e-01 2.438460502400999985e+00
4.201601739227771759e+01 1.092989036813378334e+00 2.530318412557249985e+00
4.407070489227771759e+01 1.447969505563378334e+00 2.678969535604124985e+00
3.579238457977771759e+01 -7.623576428741216660e-01 2.215834769979124985e+00
3.653701348602771759e+01 -4.809855725616216660e-01 2.276778373494749985e+00
3.764113946259021759e+01 -2.115763928741216660e-01 2.364012870565062485e+00
3.937734551727771759e+01 4.037673212587833405e-02 2.496108207479124985e+00
4.069887872040271759e+01 3.478718493133783340e-01 2.600081596150999985e+00
4.158657403290271759e+01 7.004109118133783340e-01 2.674239310994749985e+00
4.357741875946521759e+01 1.034273216500878334e+00 2.827040824666624985e+00
4.470473809540271759e+01 1.426729271188378334e+00 2.920638236775999985e+00
3.636245293915271759e+01 -8.215617444366216660e-01 2.415938529744749985e+00
3.728689141571521759e+01 -5.497111584991216660e-01 2.494567069783812485e+00
3.879555840790271759e+01 -3.027629163116216660e-01 2.617079887166624985e+00
4.018960137665271759e+01 -1.748459599912166595e-02 2.731978568807249985e+00
4.121950860321521759e+01 3.138142321258783340e-01 2.820403251424437485e+00
4.291067071259021759e+01 6.360798571258783340e-01 2.959090385213499985e+00
4.444594903290271759e+01 9.986286852508783340e-01 3.087035331502562485e+00
4.557229180634021759e+01 1.399629661813378334e+00 3.184859428182249985e+00
3.708901543915271759e+01 -8.957804944366216660e-01 2.634535941854124985e+00
3.828518243134021759e+01 -6.394328381866216660e-01 2.738021049275999985e+00
3.987234063446521759e+01 -3.885783459991216660e-01 2.873900565877562485e+00
4.096548028290271759e+01 -7.327072881162166595e-02 2.971633109822874985e+00
4.224160332977771759e+01 2.524128649383783340e-01 3.084487113729124985e+00
4.405129571259021759e+01 5.795613024383783340e-01 3.240615043416624985e+00
4.522964043915271759e+01 9.655476305633783340e-01 3.347304496541624985e+00
4.685488457977771759e+01 1.362276146188378334e+00 3.491637382283812485e+00
3.799416680634021759e+01 -9.870890881866216660e-01 2.873870048299437485e+00
3.928835625946521759e+01 -7.301310803741216660e-01 2.992125663533812485e+00
4.068850274384021759e+01 -4.553508069366216660e-01 3.119948539510374985e+00
4.199111504852771759e+01 -1.452922131866216660e-01 3.240447196736937485e+00
4.345070977509021759e+01 1.805134508758783340e-01 3.374846610799437485e+00
4.489944024384021759e+01 5.356159899383783340e-01 3.509169730916624985e+00
4.640261407196521759e+01 9.189167711883783340e-01 3.648955497518187485e+00
4.803274102509021759e+01 1.327119896188378334e+00 3.800322685018187485e+00
3.906203790009021759e+01 -1.094144752249121666e+00 3.136824760213499985e+00
4.042885918915271759e+01 -8.325480725616216660e-01 3.267684135213499985e+00
4.178713555634021759e+01 -5.433635022491216660e-01 3.397582206502562485e+00
4.320461602509021759e+01 -2.297648694366216660e-01 3.534468803182249985e+00
4.455556817352771759e+01 1.139851305633783340e-01 3.666213187947874985e+00
4.610183282196521759e+01 4.756794665008783340e-01 3.816100272908812485e+00
4.772524590790271759e+01 8.666706774383783340e-01 3.974929008260374985e+00
4.921584649384021759e+01 1.291475364938378334e+00 4.121627006307249985e+00
4.034817071259021759e+01 -1.222196510061621666e+00 3.429946098104124985e+00
4.161318536102771759e+01 -9.392375256866216660e-01 3.557036552205687485e+00
4.298818536102771759e+01 -6.394328381866216660e-01 3.695983085408812485e+00
4.434121270477771759e+01 -3.097209241241216660e-01 3.833693656697874985e+00
4.587990899384021759e+01 3.512770868837833405e-02 3.989470634236937485e+00
4.744753594696521759e+01 4.089070055633783340e-01 4.148787650838499985e+00
4.898391290009021759e+01 8.163777086883783340e-01 4.306105766072874985e+00
5.045278497040271759e+01 1.254121849313378334e+00 4.459075126424437485e+00
1.164284844696521759e+01 2.233491966500878334e+00 -7.910236380993751482e-02
1.164590020477771759e+01 2.333467552438378334e+00 -7.580646537243751482e-02
1.164541192352771759e+01 2.433687279000878334e+00 -7.280048392712501482e-02
1.164492364227771759e+01 2.534151146188378334e+00 -6.976398490368751482e-02
1.164431329071521759e+01 2.634370872750878334e+00 -6.674274466931251482e-02
1.164382500946521759e+01 2.734590599313378334e+00 -6.373676322400001482e-02
1.164321465790271759e+01 2.835176536813378334e+00 -6.070026420056251482e-02
1.163918633759021759e+01 2.935274193063378334e+00 -5.795368216931251482e-02
1.253396172821521759e+01 2.212495872750878334e+00 -2.273639701306251482e-02
1.253322930634021759e+01 2.321504661813378334e+00 -1.945575736462501482e-02
1.253811211884021759e+01 2.430513450875878334e+00 -1.583942435681251482e-02
1.252932305634021759e+01 2.539888450875878334e+00 -1.263507865368751482e-02
1.251406426727771759e+01 2.648653099313378334e+00 -9.537544474000014816e-03
1.249892754852771759e+01 2.757173607125878334e+00 -6.440010294312514816e-03
1.247903008759021759e+01 2.865572044625878334e+00 -3.662910684937514816e-03
1.246389336884021759e+01 2.973482200875878334e+00 -5.806352943125148158e-04
1.354824395477771759e+01 2.188692161813378334e+00 4.379192329943748518e-02
1.354421563446521759e+01 2.307832786813378334e+00 4.733196236193748518e-02
1.354360528290271759e+01 2.426851341500878334e+00 5.093303658068748518e-02
1.354311700165271759e+01 2.546358177438378334e+00 5.454936958849998518e-02
1.354250665009021759e+01 2.665498802438378334e+00 5.813518501818748518e-02
1.354201836884021759e+01 2.784761497750878334e+00 6.173625923693748518e-02
1.354140801727771759e+01 2.904268333688378334e+00 6.535259224474998518e-02
