2.051816192269325256e+01 -3.053157814778387547e+00 1.271350525878375493e+00
2.114975371956825256e+01 -3.022151955403387547e+00 1.322467469237750493e+00
2.193429961800575256e+01 -3.018733986653387547e+00 1.385318421386187993e+00
2.280270782113075256e+01 -3.021907814778387547e+00 1.454745911620562993e+00
2.376620879769325256e+01 -3.031185158528387547e+00 1.531665467284625493e+00
2.477365508675575256e+01 -3.030818947590887547e+00 1.612292908690875493e+00
2.562302032113075256e+01 -2.975887306965887547e+00 1.681888245604937993e+00
2.060397735238075256e+01 -3.290340431965887547e+00 1.366840027831500493e+00
2.125754180550575256e+01 -3.270565041340887547e+00 1.422412537597125493e+00
2.205868926644325256e+01 -3.278743752278387547e+00 1.489978455565875493e+00
2.292233672738075256e+01 -3.286800392903387547e+00 1.562808655761187993e+00
2.389926543831825256e+01 -3.307430275715887547e+00 1.645007752440875493e+00
2.486349883675575256e+01 -3.305355080403387547e+00 1.726520203612750493e+00
2.571933379769325256e+01 -3.257747658528387547e+00 1.799686097167437993e+00
2.639145293831825256e+01 -3.153011330403387547e+00 1.858325623534625493e+00
2.137399688363075256e+01 -3.525203713215887547e+00 1.524615906737750493e+00
2.217001739144325256e+01 -3.538265236653387547e+00 1.595248841308062993e+00
2.303512969613075256e+01 -3.554378517903387547e+00 1.671405457519000493e+00
2.401791778206825256e+01 -3.583919533528387547e+00 1.758350037597125493e+00
2.495248809456825256e+01 -3.582088478840887547e+00 1.841525696776812993e+00
2.578952422738075256e+01 -3.537654885090887547e+00 1.916721009276812993e+00
2.644150176644325256e+01 -3.432308205403387547e+00 1.977115296386187993e+00
2.707175078988075256e+01 -3.310604103840887547e+00 2.035220765136187993e+00
2.231174102425575256e+01 -3.810604103840887547e+00 1.704791687987750493e+00
2.323703399300575256e+01 -3.850887306965887547e+00 1.790103577636187993e+00
2.420322051644325256e+01 -3.883968361653387547e+00 1.879886292479937993e+00
2.511679473519325256e+01 -3.882503517903387547e+00 1.965289734862750493e+00
2.587961211800575256e+01 -3.824886330403387547e+00 2.037463807128375493e+00
2.648605743050575256e+01 -3.713802346028387547e+00 2.095843934081500493e+00
2.711838164925575256e+01 -3.596492775715887547e+00 2.156757020019000493e+00
2.772092071175575256e+01 -3.461483010090887547e+00 2.215808533690875493e+00
1.045273223519325256e+01 4.602699195966124535e-01 -1.549800405278745075e-01
1.079977813363075256e+01 4.816322242841124535e-01 -1.512263784184995075e-01
1.118466582894325256e+01 5.022621070966124535e-01 -1.474269399419370075e-01
1.160190215706825256e+01 5.246009742841124535e-01 -1.433070668950620075e-01
1.165793243050575256e+01 6.200599586591124535e-01 -1.395839223638120075e-01
1.163730254769325256e+01 7.293128883466124535e-01 -1.359981069341245075e-01
1.161679473519325256e+01 8.380775367841124535e-01 -1.324275502934995075e-01
1.159213653206825256e+01 9.463539039716124535e-01 -1.291621694341245075e-01
1.047092071175575256e+01 4.546546852216124535e-01 -1.120112905278745075e-01
1.082443633675575256e+01 4.747962867841124535e-01 -1.068995961919370075e-01
1.121139922738075256e+01 4.951820289716124535e-01 -1.011165151372495075e-01
1.163107696175575256e+01 5.172767555341124535e-01 -9.510455224662450746e-02
1.208469024300575256e+01 5.412025367841124535e-01 -8.860430810599950746e-02
1.257455840706825256e+01 5.679359352216124535e-01 -8.155474755912450746e-02
1.255978789925575256e+01 6.854896461591124535e-01 -7.807574365287450746e-02
1.255026641488075256e+01 8.010902320966124535e-01 -7.432208154349950746e-02
1.048910918831825256e+01 4.489173805341124535e-01 -6.884417627006200746e-02
1.084921661019325256e+01 4.678382789716124535e-01 -6.208453271537450746e-02
1.123825469613075256e+01 4.881019508466124535e-01 -5.477557275443700746e-02
1.166025176644325256e+01 5.099525367841124535e-01 -4.685626123099950746e-02
1.211655059456825256e+01 5.337562477216124535e-01 -3.829608056693700746e-02
1.261325469613075256e+01 5.595130836591124535e-01 -2.897296044974950746e-02
1.315768828988075256e+01 5.878333961591124535e-01 -1.876483056693700746e-02
1.367062774300575256e+01 6.310462867841124535e-01 -8.587218262249507461e-03
1.125082793831825256e+01 2.778968727216124535e-01 -1.493487451224950746e-02
1.131283965706825256e+01 3.678626930341124535e-01 -1.047930810599950746e-02
1.137070098519325256e+01 4.596595680341124535e-01 -6.313658691937007461e-03
1.168979278206825256e+01 5.026283180341124535e-01 1.941346190875492539e-03
1.214889922738075256e+01 5.260658180341124535e-01 1.260723974556299254e-02
1.264853301644325256e+01 5.515785133466124535e-01 2.420391943306299254e-02
1.319662871956825256e+01 5.796546852216124535e-01 3.694500830025049254e-02
1.377597442269325256e+01 6.133460914716124535e-01 5.022015478462549254e-02
1.694736114144325256e+01 -9.920005882158875465e-01 1.411777963861879925e-01
1.746005645394325256e+01 -9.381675804033875465e-01 1.562382211908754925e-01
1.803696075081825256e+01 -8.873863304033875465e-01 1.728703012690004925e-01
1.243063750863075256e+01 3.590736305341124535e-01 6.512799169868799254e-02
1.249960723519325256e+01 4.607582008466124535e-01 7.008709814400049254e-02
1.268393340706825256e+01 5.437660133466124535e-01 7.747235205025049254e-02
1.324570098519325256e+01 5.698890602216124535e-01 9.294476415962549254e-02
1.381528106331825256e+01 6.054115211591124535e-01 1.089207163080629925e-01
1.786484161019325256e+01 -1.199153908528387547e+00 2.363163461908754925e-01
1.838266387581825256e+01 -1.136898049153387547e+00 2.544590463861879925e-01
1.866769805550575256e+01 -1.017635353840887547e+00 2.668034067377504925e-01
1.928232207894325256e+01 -9.556236350908875465e-01 2.874943247065004925e-01
2.018490996956825256e+01 -9.345054710283875465e-01 3.157993784174379925e-01
1.382272735238075256e+01 3.471107399091124535e-01 1.594883432611879925e-01
1.389950957894325256e+01 4.628333961591124535e-01 1.653324594721254925e-01
1.396933379769325256e+01 5.802650367841124535e-01 1.707035532221254925e-01
1.839926543831825256e+01 -1.321224221028387547e+00 3.295628061518129925e-01
1.868552032113075256e+01 -1.204280861653387547e+00 3.430515756830629925e-01
1.923105254769325256e+01 -1.134456642903387547e+00 3.642765512690004925e-01
2.012936797738075256e+01 -1.121150978840887547e+00 3.962437143549379925e-01
2.092453399300575256e+01 -1.071834572590887547e+00 4.256474008783754925e-01
2.197751250863075256e+01 -1.050960549153387547e+00 4.632603159174379925e-01
2.308591094613075256e+01 -1.017635353840887547e+00 5.032078256830629925e-01
2.445578399300575256e+01 -1.002498635090887547e+00 5.518070688471254925e-01
1.870346465706825256e+01 -1.392025002278387547e+00 4.197880258783754925e-01
1.921078887581825256e+01 -1.319026955403387547e+00 4.419895639643129925e-01
2.007553496956825256e+01 -1.308406838215887547e+00 4.770695200190004925e-01
2.081430450081825256e+01 -1.255794533528387547e+00 5.078922739252504925e-01
2.177487578988075256e+01 -1.229549416340887547e+00 5.467564096674379925e-01
2.285812774300575256e+01 -1.205257424153387547e+00 5.904423227533754925e-01
2.410214629769325256e+01 -1.184749611653387547e+00 6.398350229486879925e-01
2.535434356331825256e+01 -1.141658791340887547e+00 6.907383432611879925e-01
1.924728789925575256e+01 -1.516658791340887547e+00 5.224644174799379925e-01
2.000583282113075256e+01 -1.491390236653387547e+00 5.566898813471254925e-01
2.069955840706825256e+01 -1.438045510090887547e+00 5.888401499018129925e-01
2.158017364144325256e+01 -1.406185158528387547e+00 6.286503305658754925e-01
2.265036407113075256e+01 -1.392025002278387547e+00 6.763493051752504925e-01
2.375864043831825256e+01 -1.363216408528387547e+00 7.261387338861879925e-01
2.496054473519325256e+01 -1.326839455403387547e+00 7.802769174799379925e-01
2.634286895394325256e+01 -1.294857033528387547e+00 8.422733774408754925e-01
1.991098418831825256e+01 -1.668148049153387547e+00 6.349827280268129925e-01
2.059921661019325256e+01 -1.621150978840887547e+00 6.697727670893129925e-01
2.141537871956825256e+01 -1.586483010090887547e+00 7.104679575190004925e-01
2.243649688363075256e+01 -1.574275978840887547e+00 7.605473032221254925e-01
2.345383086800575256e+01 -1.541805275715887547e+00 8.109928598627504925e-01
2.465976348519325256e+01 -1.521663674153387547e+00 8.702885141596254925e-01
2.594931426644325256e+01 -1.490291603840887547e+00 9.339634409174379925e-01
2.680795684456825256e+01 -1.369075783528387547e+00 9.790531625971254925e-01
2.051767364144325256e+01 -1.807064064778387547e+00 7.515598764643129925e-01
2.130575957894325256e+01 -1.775081642903387547e+00 7.943607797846254925e-01
2.222678008675575256e+01 -1.754451760090887547e+00 8.439671030268129925e-01
2.324338164925575256e+01 -1.733089455403387547e+00 8.986698618158754925e-01
2.434494414925575256e+01 -1.707820900715887547e+00 9.580112924799379925e-01
2.545309844613075256e+01 -1.661800392903387547e+00 1.018237732909625493e+00
2.646469512581825256e+01 -1.577571877278387547e+00 1.074313782714312993e+00
2.716525664925575256e+01 -1.427181252278387547e+00 1.115527771972125493e+00
2.126083770394325256e+01 -1.976863869465887547e+00 8.805424204096254925e-01
2.211471953988075256e+01 -1.951229103840887547e+00 9.305302133783754925e-01
2.311581817269325256e+01 -1.938533791340887547e+00 9.886967172846254925e-01
2.414950957894325256e+01 -1.911312111653387547e+00 1.049121521972125493e+00
2.523129668831825256e+01 -1.873226174153387547e+00 1.112598084472125493e+00
2.610055938363075256e+01 -1.777156838215887547e+00 1.165240906737750493e+00
2.689426055550575256e+01 -1.651058205403387547e+00 1.214282654784625493e+00
2.748422637581825256e+01 -1.479671486653387547e+00 1.252673768065875493e+00
2.202219024300575256e+01 -2.150936135090887547e+00 1.018100403808062993e+00
2.301193633675575256e+01 -2.146541603840887547e+00 1.079913758300250493e+00
2.400412383675575256e+01 -2.122737892903387547e+00 1.141772889159625493e+00
2.509274688363075256e+01 -2.097103127278387547e+00 1.210239075683062993e+00
2.598825469613075256e+01 -2.015316017903387547e+00 1.268024109862750493e+00
2.672324004769325256e+01 -1.888362892903387547e+00 1.316898011229937993e+00
2.725473418831825256e+01 -1.713558205403387547e+00 1.354922913573687993e+00
2.768918243050575256e+01 -1.514949806965887547e+00 1.386813782714312993e+00
2.290390411019325256e+01 -2.352352150715887547e+00 1.169818543456500493e+00
2.388657012581825256e+01 -2.337215431965887547e+00 1.235873841308062993e+00
2.495651641488075256e+01 -2.320369728840887547e+00 1.307803772948687993e+00
2.586594024300575256e+01 -2.250301369465887547e+00 1.370257996581500493e+00
2.661362090706825256e+01 -2.133602150715887547e+00 1.422992371581500493e+00
2.713620391488075256e+01 -1.963680275715887547e+00 1.461902283690875493e+00
2.763937774300575256e+01 -1.779964455403387547e+00 1.499850892089312993e+00
2.819784942269325256e+01 -1.596248635090887547e+00 1.541507386229937993e+00
2.376962676644325256e+01 -2.550472267903387547e+00 1.329379700683062993e+00
2.481991973519325256e+01 -2.540950783528387547e+00 1.404010437987750493e+00
2.573776641488075256e+01 -2.483455666340887547e+00 1.470843934081500493e+00
2.649753203988075256e+01 -2.376400002278387547e+00 1.527484559081500493e+00
2.706113067269325256e+01 -2.219661721028387547e+00 1.571277283690875493e+00
2.759714141488075256e+01 -2.047420510090887547e+00 1.613422059081500493e+00
2.819479766488075256e+01 -1.874324806965887547e+00 1.660007142089312993e+00
2.879965606331825256e+01 -1.692073830403387547e+00 1.707980774901812993e+00
2.468747344613075256e+01 -2.760555275715887547e+00 1.500308655761187993e+00
2.559006133675575256e+01 -2.709896096028387547e+00 1.569965027831500493e+00
2.637460723519325256e+01 -2.617366799153387547e+00 1.631549500487750493e+00
2.698837676644325256e+01 -2.475521096028387547e+00 1.681247376464312993e+00
2.757761016488075256e+01 -2.318416603840887547e+00 1.729419373534625493e+00
2.820468536019325256e+01 -2.156673439778387547e+00 1.780551575683062993e+00
2.880649200081825256e+01 -1.977962502278387547e+00 1.830142640136187993e+00
2.958578887581825256e+01 -1.815975197590887547e+00 1.892856263183062993e+00
2.562900176644325256e+01 -2.976253517903387547e+00 1.682361268065875493e+00
2.632455840706825256e+01 -2.871517189778387547e+00 1.739917420409625493e+00
2.695920196175575256e+01 -2.740901955403387547e+00 1.793719910644000493e+00
2.755490508675575256e+01 -2.589534767903387547e+00 1.844821595214312993e+00
2.819186797738075256e+01 -2.435237892903387547e+00 1.899310730956500493e+00
2.881711211800575256e+01 -2.266902931965887547e+00 1.953143738769000493e+00
2.959091582894325256e+01 -2.109920510090887547e+00 2.018695496581500493e+00
3.052951446175575256e+01 -1.964290627278387547e+00 2.097995423339312993e+00
2.639584746956825256e+01 -3.153133400715887547e+00 1.858707093261187993e+00
2.702475371956825256e+01 -3.026180275715887547e+00 1.914722107909625493e+00
2.756894317269325256e+01 -2.869686135090887547e+00 1.964130066894000493e+00
2.817184844613075256e+01 -2.713436135090887547e+00 2.018527649901812993e+00
2.883456817269325256e+01 -2.557552346028387547e+00 2.078006409667437993e+00
2.959396758675575256e+01 -2.405941017903387547e+00 2.145633362792437993e+00
3.051633086800575256e+01 -2.265071877278387547e+00 2.226886414550250493e+00
3.158932891488075256e+01 -2.130428322590887547e+00 2.320819520019000493e+00
2.707614532113075256e+01 -3.310726174153387547e+00 2.035602234862750493e+00
2.764645782113075256e+01 -3.164119728840887547e+00 2.089511536620562993e+00
2.823337188363075256e+01 -3.009944924153387547e+00 2.144382142089312993e+00
2.887106719613075256e+01 -2.853450783528387547e+00 2.204501770995562993e+00
2.959555450081825256e+01 -2.701839455403387547e+00 2.272311829589312993e+00
3.050119414925575256e+01 -2.567562111653387547e+00 2.356006287597125493e+00
3.154916778206825256e+01 -2.438045510090887547e+00 2.453113221190875493e+00
3.259640899300575256e+01 -2.288997658528387547e+00 2.549808167479937993e+00
2.772507110238075256e+01 -3.461483010090887547e+00 2.216190003417437993e+00
2.832651153206825256e+01 -3.314754494465887547e+00 2.274844788573687993e+00
2.898398223519325256e+01 -3.168025978840887547e+00 2.339419983886187993e+00
2.969467559456825256e+01 -3.018001564778387547e+00 2.409061097167437993e+00
3.056369414925575256e+01 -2.884334572590887547e+00 2.493320130370562993e+00
3.150021758675575256e+01 -2.745540627278387547e+00 2.584033631347125493e+00
3.253415313363075256e+01 -2.603450783528387547e+00 2.683963440917437993e+00
3.355295196175575256e+01 -2.440242775715887547e+00 2.783664368651812993e+00
1.159213653206825256e+01 9.467201149091124535e-01 -1.291469106450620075e-01
1.157101836800575256e+01 1.053653708659112453e+00 -1.256984243169370075e-01
1.154574981331825256e+01 1.160465232096612453e+00 -1.225398549809995075e-01
1.152365508675575256e+01 1.266544333659112453e+00 -1.193965444341245075e-01
1.151205840706825256e+01 1.370304099284112453e+00 -1.162227163091245075e-01
1.150046172738075256e+01 1.473697653971612453e+00 -1.130641469731870075e-01
1.148898711800575256e+01 1.576969138346612453e+00 -1.099208364263120075e-01
1.147336211800575256e+01 1.679752341471612453e+00 -1.070674428716245075e-01
1.255026641488075256e+01 8.014564430341124535e-01 -7.430682275443700746e-02
1.253512969613075256e+01 9.173011695966124535e-01 -7.091937158256200746e-02
1.252524200081825256e+01 1.031925193034112453e+00 -6.724200341849950746e-02
1.249472442269325256e+01 1.148868552409112453e+00 -6.400714013724950746e-02
1.246274200081825256e+01 1.264835349284112453e+00 -6.081805322318700746e-02
1.244565215706825256e+01 1.378360739909112453e+00 -5.753741357474950746e-02
1.242294707894325256e+01 1.492130271159112453e+00 -5.457720849662450746e-02
1.239682403206825256e+01 1.605167380534112453e+00 -5.141863916068700746e-02
1.367013946175575256e+01 6.315345680341124535e-01 -8.587218262249507461e-03
1.363119903206825256e+01 7.621498024091124535e-01 -5.276061035687007461e-03
1.359262481331825256e+01 8.916664039716124535e-01 -1.995421387249507461e-03
1.355429473519325256e+01 1.020450583659112453e+00 1.254700683062992539e-03
1.351633086800575256e+01 1.147769919596612453e+00 4.474305175250492539e-03
1.348801055550575256e+01 1.273014060221612453e+00 7.800721190875492539e-03
1.348752227425575256e+01 1.395328513346612453e+00 1.149334814400049254e-02
1.348703399300575256e+01 1.517032614909112453e+00 1.517071630806299254e-02
1.377975860238075256e+01 6.132240211591124535e-01 5.029644872993799254e-02
1.437595000863075256e+01 6.559486305341124535e-01 6.456341650337549254e-02
1.497592559456825256e+01 7.100257789716124535e-01 7.895245458931299254e-02
1.494601836800575256e+01 8.518714820966124535e-01 8.253827001900049254e-02
1.491635528206825256e+01 9.923744117841124535e-01 8.607830908150049254e-02
1.486545196175575256e+01 1.133975974284112453e+00 8.922161962837549254e-02
1.481857696175575256e+01 1.274356833659112453e+00 9.239544775337549254e-02
1.480087676644325256e+01 1.410831443034112453e+00 9.575238134712549254e-02
1.381918731331825256e+01 6.052894508466124535e-01 1.090122690424379925e-01
1.441904082894325256e+01 6.478919899091124535e-01 1.257664194330629925e-01
1.507797637581825256e+01 6.946449195966124535e-01 1.441685190424379925e-01
1.580771270394325256e+01 7.465248024091124535e-01 1.645390024408754925e-01
1.645224395394325256e+01 8.215980445966124535e-01 1.833988657221254925e-01
1.637936797738075256e+01 9.808998024091124535e-01 1.861607065424379925e-01
1.626840606331825256e+01 1.142398825846612453e+00 1.880222788080629925e-01
1.619797149300575256e+01 1.297550193034112453e+00 1.907383432611879925e-01
1.396982207894325256e+01 5.806312477216124535e-01 1.707188120111879925e-01
1.446261993050575256e+01 6.397132789716124535e-01 1.877323618158754925e-01
1.512619414925575256e+01 6.863441383466124535e-01 2.092472543940004925e-01
1.586130157113075256e+01 7.378578102216124535e-01 2.330967416986879925e-01
1.665256133675575256e+01 7.973060524091124535e-01 2.588840952143129925e-01
1.747824493050575256e+01 8.689613258466124535e-01 2.860599985346254925e-01
1.840451446175575256e+01 9.483070289716124535e-01 3.165318002924379925e-01
1.850693145394325256e+01 1.111148825846612453e+00 3.239017954096254925e-01
2.446982207894325256e+01 -1.003719338215887547e+00 5.522648325190004925e-01
1.560751739144325256e+01 4.767494117841124535e-01 2.839695444330629925e-01
1.569919219613075256e+01 6.094398414716124535e-01 2.909122934565004925e-01
1.591513457894325256e+01 7.291908180341124535e-01 3.018528452143129925e-01
1.670358672738075256e+01 7.894935524091124535e-01 3.311344614252504925e-01
1.753989043831825256e+01 8.604164039716124535e-01 3.623844614252504925e-01
1.847360625863075256e+01 9.396400367841124535e-01 3.972965708002504925e-01
1.956161895394325256e+01 1.024356833659112453e+00 4.377476206049379925e-01
2.536935821175575256e+01 -1.143123635090887547e+00 6.912876596674379925e-01
2.672763457894325256e+01 -1.090023049153387547e+00 7.464786997065004925e-01
2.709701934456825256e+01 -8.807945335283875465e-01 7.675205698236879925e-01
2.726132598519325256e+01 -6.390953147783875465e-01 7.807041635736879925e-01
1.784958282113075256e+01 6.607093727216124535e-01 4.442478647455629925e-01
1.795810332894325256e+01 8.161048805341124535e-01 4.528385629877504925e-01
1.854330840706825256e+01 9.309730445966124535e-01 4.787479868158754925e-01
1.960702911019325256e+01 1.018131247721612453e+00 5.232273569330629925e-01
2.635019317269325256e+01 -1.295101174153387547e+00 8.425938120111879925e-01
2.708200469613075256e+01 -1.143856056965887547e+00 8.789860239252504925e-01
2.729428496956825256e+01 -9.105796897783875465e-01 8.947025766596254925e-01
2.747055450081825256e+01 -6.682701194658875465e-01 9.090610971674379925e-01
2.759714141488075256e+01 -4.183921897783875465e-01 9.214359750971254925e-01
2.773678985238075256e+01 -1.679039085283875465e-01 9.343906870111879925e-01
2.945541778206825256e+01 -5.681992415338754654e-02 1.013263367675250493e+00
2.081699004769325256e+01 9.185218727216124535e-01 6.584965219721254925e-01
2.681320586800575256e+01 -1.369075783528387547e+00 9.793125620111879925e-01
2.728915801644325256e+01 -1.177059181965887547e+00 1.007602356933062993e+00
2.749460235238075256e+01 -9.407310569658875465e-01 1.023898743651812993e+00
2.768320098519325256e+01 -6.978111350908875465e-01 1.039554261229937993e+00
2.798752227425575256e+01 -4.653892600908875465e-01 1.060565613769000493e+00
2.925046172738075256e+01 -3.239097679033875465e-01 1.125842713378375493e+00
3.142270293831825256e+01 -2.387046897783875465e-01 1.233905457519000493e+00
3.380710235238075256e+01 -1.287193382158875465e-01 1.352954529784625493e+00
2.717062774300575256e+01 -1.427181252278387547e+00 1.115817688964312993e+00
2.749069610238075256e+01 -1.209651955403387547e+00 1.138553284667437993e+00
2.769919219613075256e+01 -9.714927757158875465e-01 1.155887269042437993e+00
2.823862090706825256e+01 -7.688560569658875465e-01 1.189914368651812993e+00
2.905856719613075256e+01 -5.879478538408875465e-01 1.238345765136187993e+00
3.051303496956825256e+01 -4.550132835283875465e-01 1.319324158690875493e+00
3.311459746956825256e+01 -3.962974632158875465e-01 1.459506653808062993e+00
3.418820586800575256e+01 -1.639976585283875465e-01 1.522784852050250493e+00
2.748581328988075256e+01 -1.478939064778387547e+00 1.252780579589312993e+00
2.769455352425575256e+01 -1.242488869465887547e+00 1.270908020995562993e+00
2.822433868050575256e+01 -1.044490822590887547e+00 1.306628846190875493e+00
2.886874786019325256e+01 -8.491783225908875465e-01 1.348926209472125493e+00
3.023141875863075256e+01 -7.221031272783875465e-01 1.431018494628375493e+00
3.200583282113075256e+01 -6.097984397783875465e-01 1.536563538573687993e+00
3.378525176644325256e+01 -4.617271507158875465e-01 1.643329285644000493e+00
3.441684356331825256e+01 -1.870689475908875465e-01 1.686893128417437993e+00
2.769089141488075256e+01 -1.514217385090887547e+00 1.386935853026812993e+00
2.821506133675575256e+01 -1.320247658528387547e+00 1.424533509276812993e+00
2.882870879769325256e+01 -1.127864846028387547e+00 1.467013978026812993e+00
3.003708282113075256e+01 -9.949302757158875465e-01 1.545795105956500493e+00
3.149386993050575256e+01 -8.666343772783875465e-01 1.639957093261187993e+00
3.306955352425575256e+01 -7.216148460283875465e-01 1.741977356933062993e+00
3.422433868050575256e+01 -5.062828147783875465e-01 1.820285462401812993e+00
3.464999786019325256e+01 -2.105064475908875465e-01 1.854282044433062993e+00
2.820273223519325256e+01 -1.596126564778387547e+00 1.541827820800250493e+00
2.881735625863075256e+01 -1.409725197590887547e+00 1.587604187987750493e+00
2.984921661019325256e+01 -1.266292580403387547e+00 1.660297059081500493e+00
3.107614532113075256e+01 -1.125301369465887547e+00 1.745990418456500493e+00
3.267355743050575256e+01 -1.002254494465887547e+00 1.856097840331500493e+00
3.379245391488075256e+01 -7.993736350908875465e-01 1.936084412597125493e+00
3.459103789925575256e+01 -5.443687522783875465e-01 1.995868348144000493e+00
3.514804473519325256e+01 -2.555503929033875465e-01 2.040301941894000493e+00
2.880600371956825256e+01 -1.692073830403387547e+00 1.708438538573687993e+00
2.966171661019325256e+01 -1.533748635090887547e+00 1.772830628417437993e+00
3.083688750863075256e+01 -1.400691994465887547e+00 1.860187195800250493e+00
3.230160918831825256e+01 -1.278621681965887547e+00 1.968005799315875493e+00
3.349594512581825256e+01 -1.098445900715887547e+00 2.057849549315875493e+00
3.427475371956825256e+01 -8.529625022783875465e-01 2.119525574706500493e+00
3.498398223519325256e+01 -5.848960960283875465e-01 2.176746033690875493e+00
3.580209746956825256e+01 -3.132896507158875465e-01 2.242709778808062993e+00
2.959213653206825256e+01 -1.815975197590887547e+00 1.893329285644000493e+00
3.061581817269325256e+01 -1.673519142903387547e+00 1.974689148925250493e+00
3.193845000863075256e+01 -1.550350197590887547e+00 2.078387879394000493e+00
3.315976348519325256e+01 -1.387630471028387547e+00 2.175281189940875493e+00
3.407822051644325256e+01 -1.168148049153387547e+00 2.250445984862750493e+00
3.485776153206825256e+01 -9.168052757158875465e-01 2.315753602050250493e+00
3.561667266488075256e+01 -6.475181663408875465e-01 2.379932068847125493e+00
3.673593536019325256e+01 -3.941001975908875465e-01 2.471179627440875493e+00
3.053781524300575256e+01 -1.964534767903387547e+00 2.098666810058062993e+00
3.164047637581825256e+01 -1.823787697590887547e+00 2.190265320800250493e+00
3.282138457894325256e+01 -1.671566017903387547e+00 2.289157532714312993e+00
3.388095489144325256e+01 -1.480281838215887547e+00 2.379153870604937993e+00
3.471005645394325256e+01 -1.243587502278387547e+00 2.451587342284625493e+00
3.550693145394325256e+01 -9.876060569658875465e-01 2.521838807128375493e+00
3.639755645394325256e+01 -7.238121116533875465e-01 2.599856995604937993e+00
3.774789825081825256e+01 -4.813804710283875465e-01 2.715411805175250493e+00
3.159762969613075256e+01 -2.130672463215887547e+00 2.321521424315875493e+00
3.267038360238075256e+01 -1.975032814778387547e+00 2.416629456542437993e+00
3.367551055550575256e+01 -1.789241799153387547e+00 2.506641053222125493e+00
3.456247344613075256e+01 -1.568294533528387547e+00 2.587344788573687993e+00
3.543613067269325256e+01 -1.329647072590887547e+00 2.667300843261187993e+00
3.628989043831825256e+01 -1.072200783528387547e+00 2.745990418456500493e+00
3.732101836800575256e+01 -8.134117210283875465e-01 2.839847229979937993e+00
3.879660430550575256e+01 -5.720787132158875465e-01 2.971286438964312993e+00
3.260556426644325256e+01 -2.289363869465887547e+00 2.550601624511187993e+00
3.361789336800575256e+01 -2.114803322590887547e+00 2.645557068847125493e+00
3.446530547738075256e+01 -1.898616799153387547e+00 2.725742005370562993e+00
3.530978789925575256e+01 -1.664485939778387547e+00 2.806857728026812993e+00
3.619980254769325256e+01 -1.420223244465887547e+00 2.892291687987750493e+00
3.724179473519325256e+01 -1.174251564778387547e+00 2.991443299315875493e+00
3.849264922738075256e+01 -9.260826194658875465e-01 3.110355042479937993e+00
3.980331817269325256e+01 -6.596031272783875465e-01 3.234180115722125493e+00
3.356027618050575256e+01 -2.440120705403387547e+00 2.784351014159625493e+00
3.445981231331825256e+01 -2.239925392903387547e+00 2.872928284667437993e+00
3.526059356331825256e+01 -2.009090431965887547e+00 2.953616761229937993e+00
3.612338653206825256e+01 -1.769100197590887547e+00 3.040362977050250493e+00
3.715549102425575256e+01 -1.532527931965887547e+00 3.143039368651812993e+00
3.837118926644325256e+01 -1.294734963215887547e+00 3.263126038573687993e+00
3.968759551644325256e+01 -1.041194924153387547e+00 3.393069886229937993e+00
4.092599883675575256e+01 -7.568931663408875465e-01 3.517276429198687993e+00
1.147336211800575256e+01 1.680118552409112453e+00 -1.070521840825620075e-01
1.146091094613075256e+01 1.782291403971612453e+00 -1.040156850591245075e-01
1.144455352425575256e+01 1.884220114909112453e+00 -1.012538442388120075e-01
1.142587676644325256e+01 1.986270896159112453e+00 -9.849200341849950746e-02
1.139267364144325256e+01 2.088077536784112453e+00 -9.586749169974950746e-02
1.135983672738075256e+01 2.189151755534112453e+00 -9.324297998099950746e-02
1.134030547738075256e+01 2.289493552409112453e+00 -9.054217431693700746e-02
1.133163848519325256e+01 2.388980857096612453e+00 -8.803973291068700746e-02
1.239657989144325256e+01 1.605533591471612453e+00 -5.140338037162450746e-02
1.236142364144325256e+01 1.718448630534112453e+00 -4.864153955131200746e-02
1.233127227425575256e+01 1.830265036784112453e+00 -4.558978173881200746e-02
1.229648223519325256e+01 1.942081443034112453e+00 -4.287371728568700746e-02
1.226193633675575256e+01 2.052677146159112453e+00 -4.017291162162450746e-02
1.222775664925575256e+01 2.162418357096612453e+00 -3.750262353568700746e-02
1.219675078988075256e+01 2.271671286784112453e+00 -3.507647607474950746e-02
1.219211211800575256e+01 2.379703513346612453e+00 -3.208575341849950746e-02
1.348691192269325256e+01 1.517398825846612453e+00 1.518597509712549254e-02
1.348080840706825256e+01 1.639347068034112453e+00 1.848187353462549254e-02
1.347470489144325256e+01 1.760929099284112453e+00 2.177777197212549254e-02
1.346847930550575256e+01 1.882755271159112453e+00 2.507367040962549254e-02
1.346225371956825256e+01 2.003971091471612453e+00 2.833905126900049254e-02
1.340280547738075256e+01 2.126407614909112453e+00 3.078045751900049254e-02
1.334592071175575256e+01 2.247989646159112453e+00 3.323712255806299254e-02
1.333737578988075256e+01 2.367496482096612453e+00 3.642620947212549254e-02
1.480075469613075256e+01 1.411319724284112453e+00 9.576764013618799254e-02
1.477768340706825256e+01 1.547428122721612453e+00 9.936871435493799254e-02
1.474777618050575256e+01 1.683536521159112453e+00 1.025120249018129925e-01
1.471786895394325256e+01 1.819278708659112453e+00 1.056400766596254925e-01
1.468820586800575256e+01 1.953800193034112453e+00 1.087376108393129925e-01
1.465866485238075256e+01 2.087711325846612453e+00 1.118198862299379925e-01
1.462924590706825256e+01 2.221378318034112453e+00 1.149021616205629925e-01
1.457541289925575256e+01 2.354068747721612453e+00 1.171146860346254925e-01
1.619784942269325256e+01 1.298038474284112453e+00 1.907536020502504925e-01
1.618490996956825256e+01 1.447574607096612453e+00 1.945225229486879925e-01
1.617209258675575256e+01 1.596744528971612453e+00 1.982914438471254925e-01
1.615915313363075256e+01 1.745914450846612453e+00 2.020603647455629925e-01
1.614633575081825256e+01 1.894229880534112453e+00 2.058140268549379925e-01
1.613364043831825256e+01 2.042179099284112453e+00 2.095524301752504925e-01
1.612082305550575256e+01 2.190250388346612453e+00 2.132908334955629925e-01
1.610824981331825256e+01 2.337467185221612453e+00 2.170139780268129925e-01
1.850644317269325256e+01 1.111759177409112453e+00 3.239017954096254925e-01
1.843698516488075256e+01 1.288394919596612453e+00 3.270298471674379925e-01
1.841879668831825256e+01 1.460269919596612453e+00 3.311802377924379925e-01
1.838351836800575256e+01 1.633243552409112453e+00 3.348270883783754925e-01
1.833481231331825256e+01 1.805240622721612453e+00 3.380466928705629925e-01
1.828635039925575256e+01 1.976139060221612453e+00 3.412357797846254925e-01
1.823801055550575256e+01 2.146427146159112453e+00 3.444248666986879925e-01
1.817941680550575256e+01 2.315250388346612453e+00 3.468357553705629925e-01
1.956625762581825256e+01 1.024600974284112453e+00 4.379154672846254925e-01
2.052780547738075256e+01 1.139713278971612453e+00 4.745823374018129925e-01
2.080429473519325256e+01 1.315006247721612453e+00 4.889866342768129925e-01
2.068136993050575256e+01 1.516300193034112453e+00 4.901463022455629925e-01
2.057199493050575256e+01 1.713687888346612453e+00 4.916721811518129925e-01
2.046384063363075256e+01 1.908756247721612453e+00 4.931828012690004925e-01
2.035666289925575256e+01 2.101993552409112453e+00 4.946781625971254925e-01
2.027365508675575256e+01 2.292179099284112453e+00 4.969364633783754925e-01
1.961203399300575256e+01 1.018375388346612453e+00 5.234409799799379925e-01
2.060568633675575256e+01 1.131656638346612453e+00 5.657078256830629925e-01
2.176877227425575256e+01 1.254459372721612453e+00 6.154362192377504925e-01
2.300143828988075256e+01 1.397525778971612453e+00 6.679874887690004925e-01
2.413156524300575256e+01 1.568546286784112453e+00 7.172276010736879925e-01
2.401279082894325256e+01 1.799503318034112453e+00 7.187534799799379925e-01
2.387973418831825256e+01 2.028873435221612453e+00 7.191044321283754925e-01
2.376620879769325256e+01 2.254459372721612453e+00 7.206913461908754925e-01
2.081784453988075256e+01 9.191322242841124535e-01 6.585422983393129925e-01
2.094443145394325256e+01 1.105167380534112453e+00 6.690861215815004925e-01
2.185739532113075256e+01 1.246402732096612453e+00 7.131229868158754925e-01
2.309164825081825256e+01 1.390201560221612453e+00 7.713810434565004925e-01
2.442392364144325256e+01 1.553897849284112453e+00 8.344913950190004925e-01
2.592465606331825256e+01 1.738834372721612453e+00 9.056126108393129925e-01
2.741672149300575256e+01 1.954532614909112453e+00 9.771610727533754925e-01
2.741672149300575256e+01 2.214298239909112453e+00 9.840885629877504925e-01
3.381247344613075256e+01 -1.279869163408875465e-01 1.353229187987750493e+00
3.424692168831825256e+01 1.666908180341124535e-01 1.382190369628375493e+00
3.445798125863075256e+01 4.832191383466124535e-01 1.400851868651812993e+00
2.474350371956825256e+01 1.304141989909112453e+00 9.496036997065004925e-01
2.490427032113075256e+01 1.531436911784112453e+00 9.634434213861879925e-01
2.602719512581825256e+01 1.732608786784112453e+00 1.023440979979937993e+00
2.753244414925575256e+01 1.948917380534112453e+00 1.102466248534625493e+00
2.920346465706825256e+01 2.192569724284112453e+00 1.190265320800250493e+00
3.418991485238075256e+01 -1.630210960283875465e-01 1.522906922362750493e+00
3.447739043831825256e+01 1.458167945966124535e-01 1.546344422362750493e+00
3.469809356331825256e+01 4.641761695966124535e-01 1.566470765136187993e+00
3.517966094613075256e+01 7.746009742841124535e-01 1.600299500487750493e+00
3.906906524300575256e+01 9.553871070966124535e-01 1.812381409667437993e+00
3.938376250863075256e+01 1.322452536784112453e+00 1.838809632323687993e+00
3.962790313363075256e+01 1.698184958659112453e+00 1.861682557128375493e+00
3.041244903206825256e+01 2.176456443034112453e+00 1.383014344237750493e+00
3.441855254769325256e+01 -1.859703147783875465e-01 1.687015198729937993e+00
3.471005645394325256e+01 1.248207008466124535e-01 1.712009095214312993e+00
3.532028594613075256e+01 4.219398414716124535e-01 1.755084656737750493e+00
3.817868438363075256e+01 6.184730445966124535e-01 1.925708436034625493e+00
3.931027618050575256e+01 9.406165992841124535e-01 1.999637269042437993e+00
3.963254180550575256e+01 1.309879294596612453e+00 2.027927063964312993e+00
4.025107207894325256e+01 1.680484763346612453e+00 2.073398255370562993e+00
4.318698516488075256e+01 2.037174216471612453e+00 2.252704285644000493e+00
3.465170684456825256e+01 -2.095298850908875465e-01 1.854419373534625493e+00
3.531686797738075256e+01 7.733534928411245346e-02 1.903415345214312993e+00
3.659360137581825256e+01 3.400306617841124535e-01 1.989169739745562993e+00
3.894199004769325256e+01 5.747718727216124535e-01 2.142017029784625493e+00
3.955478301644325256e+01 9.257240211591124535e-01 2.189395569823687993e+00
4.026877227425575256e+01 1.285465232096612453e+00 2.243335389159625493e+00
4.284799590706825256e+01 1.621768943034112453e+00 2.414249085448687993e+00
4.347714629769325256e+01 2.028873435221612453e+00 2.464114808104937993e+00
3.515243926644325256e+01 -2.546959007158875465e-01 2.040607117675250493e+00
3.605124297738075256e+01 2.057265397161245346e-02 2.108005188964312993e+00
3.787204375863075256e+01 2.573890602216124535e-01 2.236301087401812993e+00
3.946091094613075256e+01 5.433998024091124535e-01 2.350299500487750493e+00
3.996506133675575256e+01 9.039955055341124535e-01 2.393390320800250493e+00
4.178158965706825256e+01 1.233829489909112453e+00 2.523791932128375493e+00
4.314926543831825256e+01 1.610294333659112453e+00 2.625262879394000493e+00
4.422165313363075256e+01 2.015567771159112453e+00 2.707645081542437993e+00
3.580746856331825256e+01 -3.125572288408875465e-01 2.243106507323687993e+00
3.729220977425575256e+01 -7.244492415338754654e-02 2.354861878417437993e+00
3.880575957894325256e+01 1.953773414716124535e-01 2.470248841308062993e+00
3.970749297738075256e+01 5.256996070966124535e-01 2.543338440917437993e+00
4.091928496956825256e+01 8.598060524091124535e-01 2.638766907714312993e+00
4.290109649300575256e+01 1.193912497721612453e+00 2.789416932128375493e+00
4.385678496956825256e+01 1.590274802409112453e+00 2.868060730956500493e+00
4.568332305550575256e+01 1.994205466471612453e+00 3.010455750487750493e+00
3.674789825081825256e+01 -3.937339866533875465e-01 2.472095154784625493e+00
3.833383575081825256e+01 -1.515464866533875465e-01 2.599307679198687993e+00
3.940268340706825256e+01 1.537513649091124535e-01 2.688632630370562993e+00
4.052890411019325256e+01 4.785804664716124535e-01 2.782825135253375493e+00
4.236301055550575256e+01 7.952308570966124535e-01 2.930865906737750493e+00
4.358176055550575256e+01 1.167423239909112453e+00 3.033328675292437993e+00
4.489950957894325256e+01 1.562808982096612453e+00 3.143939637206500493e+00
4.691110625863075256e+01 1.975040427409112453e+00 3.307941102050250493e+00
3.775778594613075256e+01 -4.808921897783875465e-01 2.716235779784625493e+00
3.909824004769325256e+01 -2.111167991533875465e-01 2.830615662597125493e+00
4.024325957894325256e+01 9.711073990911245346e-02 2.931033753417437993e+00
4.172470489144325256e+01 4.121742164716124535e-01 3.058856629394000493e+00
4.334201446175575256e+01 7.495765602216124535e-01 3.198260926269000493e+00
4.443442168831825256e+01 1.135318747721612453e+00 3.296374939940875493e+00
4.621396270394325256e+01 1.529483786784112453e+00 3.450320862792437993e+00
4.770553985238075256e+01 1.960514060221612453e+00 3.583026551269000493e+00
3.880136504769325256e+01 -5.711021507158875465e-01 2.971713685058062993e+00
4.006027618050575256e+01 -2.850914085283875465e-01 3.086566590331500493e+00
4.133810821175575256e+01 2.460097428411245346e-02 3.203647278808062993e+00
4.285129180550575256e+01 3.488197242841124535e-01 3.341220520995562993e+00
4.412009063363075256e+01 7.118568336591124535e-01 3.458850525878375493e+00
4.566135039925575256e+01 1.091251364909112453e+00 3.600192688964312993e+00
4.727768340706825256e+01 1.501041403971612453e+00 3.748737000487750493e+00
4.870822539925575256e+01 1.943424216471612453e+00 3.882175110839312993e+00
3.981125274300575256e+01 -6.588707054033875465e-01 3.234897278808062993e+00
4.114035430550575256e+01 -3.678550804033875465e-01 3.361987732909625493e+00
4.251767364144325256e+01 -5.352402571588754654e-02 3.492999695800250493e+00
4.380514922738075256e+01 2.941322242841124535e-01 3.617709778808062993e+00
4.540500274300575256e+01 6.528968727216124535e-01 3.770862244628375493e+00
4.696054473519325256e+01 1.044620505534112453e+00 3.920840882323687993e+00
4.844748321175575256e+01 1.470157614909112453e+00 4.066623353026812993e+00
5.000510039925575256e+01 1.922550193034112453e+00 4.218310975097125493e+00
4.093454375863075256e+01 -7.561607444658875465e-01 3.518100403808062993e+00
4.229648223519325256e+01 -4.562339866533875465e-01 3.653613709472125493e+00
4.365610137581825256e+01 -1.293296897783875465e-01 3.790561341308062993e+00
4.513534942269325256e+01 2.197914039716124535e-01 3.939380311034625493e+00
4.670969024300575256e+01 5.928382789716124535e-01 4.097812317870562993e+00
4.814853301644325256e+01 1.001163474284112453e+00 4.244250916503375493e+00
4.966012969613075256e+01 1.438053122721612453e+00 4.398303650878375493e+00
5.138913360238075256e+01 1.900455466471612453e+00 4.574832581542437993e+00
1.133163848519325256e+01 2.389347068034112453e+00 -8.802447412162450746e-02
1.132651153206825256e+01 2.488590232096612453e+00 -8.532366845756200746e-02
1.131674590706825256e+01 2.587833396159112453e+00 -8.288226220756200746e-02
1.130063262581825256e+01 2.687076560221612453e+00 -8.050189111381200746e-02
1.128000274300575256e+01 2.785587302409112453e+00 -7.816729638724950746e-02
1.125937286019325256e+01 2.883731833659112453e+00 -7.583270166068700746e-02
1.123874297738075256e+01 2.981876364909112453e+00 -7.351336572318700746e-02
1.121432891488075256e+01 3.079044333659112453e+00 -7.146868798881200746e-02
1.219211211800575256e+01 2.380069724284112453e+00 -3.208575341849950746e-02
1.218234649300575256e+01 2.487979880534112453e+00 -2.946124169974950746e-02
1.217721953988075256e+01 2.595645896159112453e+00 -2.653155419974950746e-02
1.216745391488075256e+01 2.703678122721612453e+00 -2.390704248099950746e-02
1.214047637581825256e+01 2.810733786784112453e+00 -2.151141259818700746e-02
1.211276641488075256e+01 2.917179099284112453e+00 -1.913104150443700746e-02
1.207980743050575256e+01 3.023258200846612453e+00 -1.710162255912450746e-02
1.205246368050575256e+01 3.128604880534112453e+00 -1.475176904349950746e-02
1.333725371956825256e+01 2.367862693034112453e+00 3.642620947212549254e-02
1.332101836800575256e+01 2.487125388346612453e+00 3.920330908150049254e-02
1.330490508675575256e+01 2.606143943034112453e+00 4.196514990181299254e-02
1.326840606331825256e+01 2.724918357096612453e+00 4.439129736275049254e-02
1.322275176644325256e+01 2.842349997721612453e+00 4.663433935493799254e-02
1.317746368050575256e+01 2.958927146159112453e+00 4.886212255806299254e-02
1.313229766488075256e+01 3.075016013346612453e+00 5.107464697212549254e-02
1.308749786019325256e+01 3.190006247721612453e+00 5.325665380806299254e-02
1.457504668831825256e+01 2.354557028971612453e+00 1.171146860346254925e-01
1.452597442269325256e+01 2.486148825846612453e+00 1.197697153315004925e-01
1.447055450081825256e+01 2.616764060221612453e+00 1.219517221674379925e-01
1.441550078988075256e+01 2.746768943034112453e+00 1.241184702143129925e-01
1.436093536019325256e+01 2.875431052409112453e+00 1.262547006830629925e-01
1.430673614144325256e+01 3.002994528971612453e+00 1.283756723627504925e-01
1.425290313363075256e+01 3.130069724284112453e+00 1.304966440424379925e-01
1.421139922738075256e+01 3.256412497721612453e+00 1.325413217768129925e-01
1.610812774300575256e+01 2.337955466471612453e+00 2.170292368158754925e-01
1.608823028206825256e+01 2.484928122721612453e+00 2.202946176752504925e-01
1.606833282113075256e+01 2.631534568034112453e+00 2.235599985346254925e-01
1.604843536019325256e+01 2.778263083659112453e+00 2.268253793940004925e-01
1.602865996956825256e+01 2.924259177409112453e+00 2.300602426752504925e-01
1.600888457894325256e+01 3.069889060221612453e+00 2.333103647455629925e-01
1.598910918831825256e+01 3.215641013346612453e+00 2.365452280268129925e-01
1.607541289925575256e+01 3.367008200846612453e+00 2.426640024408754925e-01
1.817905059456825256e+01 2.315738669596612453e+00 3.468357553705629925e-01
1.813608184456825256e+01 2.483341208659112453e+00 3.502842416986879925e-01
1.808261504769325256e+01 2.649967185221612453e+00 3.529697885736879925e-01
1.802927032113075256e+01 2.816349021159112453e+00 3.556400766596254925e-01
1.797641387581825256e+01 2.981021872721612453e+00 3.582951059565004925e-01
1.792392364144325256e+01 3.144840232096612453e+00 3.609348764643129925e-01
1.791061797738075256e+01 3.310123435221612453e+00 3.648106088861879925e-01
1.794626250863075256e+01 3.477725974284112453e+00 3.698154916986879925e-01
2.027341094613075256e+01 2.292789450846612453e+00 4.969364633783754925e-01
2.024802032113075256e+01 2.481266013346612453e+00 5.009495249018129925e-01
2.022262969613075256e+01 2.669376364909112453e+00 5.049320688471254925e-01
2.016098418831825256e+01 2.856876364909112453e+00 5.076633920893129925e-01
2.007468047738075256e+01 3.041934958659112453e+00 5.094486704096254925e-01
1.998910918831825256e+01 3.225406638346612453e+00 5.112339487299379925e-01
2.005087676644325256e+01 3.415225974284112453e+00 5.183140268549379925e-01
2.012924590706825256e+01 3.606632224284112453e+00 5.260197153315004925e-01
2.376572051644325256e+01 2.255313864909112453e+00 7.206913461908754925e-01
2.368735137581825256e+01 2.478580466471612453e+00 7.234074106440004925e-01
2.361423125863075256e+01 2.700382224284112453e+00 7.268711557611879925e-01
2.352280059456825256e+01 2.921329489909112453e+00 7.290073862299379925e-01
2.343234649300575256e+01 3.139835349284112453e+00 7.311436166986879925e-01
2.331369414925575256e+01 3.355533591471612453e+00 7.320744028315004925e-01
2.315195098519325256e+01 3.567569724284112453e+00 7.306858530268129925e-01
2.305807891488075256e+01 3.779727927409112453e+00 7.325169077143129925e-01
2.741452422738075256e+01 2.215274802409112453e+00 9.840122690424379925e-01
2.719894805550575256e+01 2.474918357096612453e+00 9.813114633783754925e-01
2.699509063363075256e+01 2.730655661784112453e+00 9.790226450190004925e-01
2.679367461800575256e+01 2.983219138346612453e+00 9.767643442377504925e-01
2.662131133675575256e+01 3.231998435221612453e+00 9.756809702143129925e-01
2.652890411019325256e+01 3.480655661784112453e+00 9.781223764643129925e-01
2.643686309456825256e+01 3.728336325846612453e+00 9.805485239252504925e-01
2.634567657113075256e+01 3.973697653971612453e+00 9.829594125971254925e-01
2.921445098519325256e+01 2.193424216471612453e+00 1.190829895995562993e+00
3.091623321175575256e+01 2.470401755534112453e+00 1.280978821776812993e+00
3.268466582894325256e+01 2.782169333659112453e+00 1.375278138183062993e+00
3.262936797738075256e+01 3.094669333659112453e+00 1.380801819823687993e+00
3.215854278206825256e+01 3.392887107096612453e+00 1.365726136229937993e+00
3.205478301644325256e+01 3.696353903971612453e+00 1.368671082519000493e+00
3.195138946175575256e+01 3.999088278971612453e+00 1.371600770019000493e+00
3.175461211800575256e+01 4.293155661784112453e+00 1.369754456542437993e+00
3.041366973519325256e+01 2.177433005534112453e+00 1.383105896972125493e+00
3.105112090706825256e+01 2.466739646159112453e+00 1.424731873534625493e+00
3.281882110238075256e+01 2.779727927409112453e+00 1.527240418456500493e+00
3.477695098519325256e+01 3.132877341471612453e+00 1.640948914550250493e+00
3.664157500863075256e+01 3.521427146159112453e+00 1.750629090331500493e+00
3.866659942269325256e+01 3.953800193034112453e+00 1.870013855956500493e+00
4.008212676644325256e+01 4.397891989909112453e+00 1.957202576659625493e+00
3.949948516488075256e+01 4.750431052409112453e+00 1.935458802245562993e+00
4.319137969613075256e+01 2.038639060221612453e+00 2.252994202636187993e+00
4.341037383675575256e+01 2.455509177409112453e+00 2.276736878417437993e+00
4.704440703988075256e+01 2.909000388346612453e+00 2.499210022948687993e+00
4.748813262581825256e+01 3.375064841471612453e+00 2.537295960448687993e+00
4.791952911019325256e+01 3.848453513346612453e+00 2.574847840331500493e+00
3.881760039925575256e+01 3.955509177409112453e+00 2.050616883300250493e+00
4.095895782113075256e+01 4.436954489909112453e+00 2.187396668456500493e+00
4.299155059456825256e+01 4.953678122721612453e+00 2.318820618651812993e+00
4.348166289925575256e+01 2.030338278971612453e+00 2.464435242675250493e+00
4.470688262581825256e+01 2.449405661784112453e+00 2.552234314940875493e+00
4.738278594613075256e+01 2.906681052409112453e+00 2.730624817870562993e+00
4.790671172738075256e+01 3.377750388346612453e+00 2.775943421386187993e+00
5.031222930550575256e+01 3.913028708659112453e+00 2.940585755370562993e+00
5.076047149300575256e+01 4.419742575846612453e+00 2.982120179198687993e+00
5.338864532113075256e+01 5.044742575846612453e+00 3.164355896972125493e+00
5.392709746956825256e+01 5.597110739909112453e+00 3.212772034667437993e+00
4.423178496956825256e+01 2.016910544596612453e+00 2.708362244628375493e+00
4.685434356331825256e+01 2.442325583659112453e+00 2.895831727050250493e+00
4.770090118050575256e+01 2.904117575846612453e+00 2.965030335448687993e+00
4.958469024300575256e+01 3.404483786784112453e+00 3.104907654784625493e+00
5.067062774300575256e+01 3.917789450846612453e+00 3.191577576659625493e+00
5.286545196175575256e+01 4.496524802409112453e+00 3.354434632323687993e+00
5.380026641488075256e+01 5.059268943034112453e+00 3.432269715331500493e+00
5.643686309456825256e+01 5.739933005534112453e+00 3.627505921386187993e+00
4.569723907113075256e+01 1.995548239909112453e+00 3.011478089354937993e+00
4.754526153206825256e+01 2.436222068034112453e+00 3.154819153808062993e+00
4.860043731331825256e+01 2.906681052409112453e+00 3.243182801269000493e+00
5.044369903206825256e+01 3.415103903971612453e+00 3.389102601073687993e+00
5.160910430550575256e+01 3.939395896159112453e+00 3.486819886229937993e+00
5.363644805550575256e+01 4.520816794596612453e+00 3.647922181151812993e+00
5.530649200081825256e+01 5.127384177409112453e+00 3.784061097167437993e+00
5.706283965706825256e+01 5.770938864909112453e+00 3.928744935058062993e+00
4.691940703988075256e+01 1.976505271159112453e+00 3.308612488769000493e+00
4.811777129769325256e+01 2.429874411784112453e+00 3.412387513183062993e+00
4.984177032113075256e+01 2.912052146159112453e+00 3.557101868651812993e+00
5.111459746956825256e+01 3.422061911784112453e+00 3.668094300292437993e+00
