2.295872004330158234e+01 -3.787943545728921890e+00 1.757504674233501873e+00
2.390354426205158234e+01 -3.823710147291421890e+00 1.844662877358501873e+00
2.480308039486408234e+01 -3.828104678541421890e+00 1.928631993569439373e+00
2.558176691830158234e+01 -3.782084170728921890e+00 2.002087804116314373e+00
2.618809016048908234e+01 -3.678446475416421890e+00 2.060330601967876873e+00
2.680808527767658234e+01 -3.566507998853921890e+00 2.119977208413189373e+00
2.740183527767658234e+01 -3.435892764478921890e+00 2.177487584389751873e+00
2.798020441830158234e+01 -3.291605655103921890e+00 2.234418126381939373e+00
1.080027277767658234e+01 4.963582120835781097e-01 -1.394222056493106265e-01
1.117100031673908234e+01 5.161336027085781097e-01 -1.355922495946231265e-01
1.157114680111408234e+01 5.376179777085781097e-01 -1.317165171727481265e-01
1.184702570736408234e+01 5.902302823960781097e-01 -1.277492320164981265e-01
1.182651789486408234e+01 6.993611417710781097e-01 -1.242244517430606265e-01
1.180210383236408234e+01 8.083699308335781097e-01 -1.207149302586856265e-01
1.177781184017658234e+01 9.167683683335781097e-01 -1.172359263524356265e-01
1.174900324642658234e+01 1.024678524583578110e+00 -1.140620982274356265e-01
1.082407648861408234e+01 4.896443448960781097e-01 -9.588888045399812654e-02
1.119663508236408234e+01 5.092976652085781097e-01 -9.060933943837312654e-02
1.159910090267658234e+01 5.305378995835781097e-01 -8.467367049306062654e-02
1.203647883236408234e+01 5.536091886460781097e-01 -7.847860213368562654e-02
1.251023371517658234e+01 5.786336027085781097e-01 -7.176473494618562654e-02
1.273191340267658234e+01 6.543171964585781097e-01 -6.651571150868562654e-02
1.271409113705158234e+01 7.712605558335781097e-01 -6.314351912587312654e-02
1.270212824642658234e+01 8.862507902085781097e-01 -5.948140975087312654e-02
1.084800226986408234e+01 4.828084073960781097e-01 -5.209615584462312654e-02
1.122251398861408234e+01 5.023396573960781097e-01 -4.512288924306062654e-02
1.162717707455158234e+01 5.233357511460781097e-01 -3.760030623524812654e-02
1.206711848080158234e+01 5.461628995835781097e-01 -2.942159529774812654e-02
1.254368098080158234e+01 5.710652433335781097e-01 -2.055623885243562654e-02
1.309128840267658234e+01 5.935261808335781097e-01 -1.056173201649812654e-02
1.361033137142658234e+01 6.316121183335781097e-01 -5.367076024356265407e-04
1.381663019955158234e+01 7.243855558335781097e-01 5.948277749126873459e-03
1.142209894955158234e+01 3.573201261460781097e-01 -2.467906102481265407e-04
1.148313410580158234e+01 4.471638761460781097e-01 4.147740639751873459e-03
1.165549738705158234e+01 5.161336027085781097e-01 1.000711563975187346e-02
1.209800226986408234e+01 5.387166105210781097e-01 2.021524552256437346e-02
1.257761652767658234e+01 5.632527433335781097e-01 3.127786759287687346e-02
1.314499934017658234e+01 5.827839933335781097e-01 4.407999161631437346e-02
1.364768488705158234e+01 6.239216886460781097e-01 5.616495255381437346e-02
1.421702082455158234e+01 6.649373136460781097e-01 6.934854630381437346e-02
1.749766047298908234e+01 -9.568888582289218903e-01 1.637394154444393735e-01
1.808494074642658234e+01 -9.120890535414218903e-01 1.803714955225643735e-01
1.252744562923908234e+01 3.441365323960781097e-01 7.452127579600187346e-02
1.259482844173908234e+01 4.450886808335781097e-01 7.937357071787687346e-02
1.266257746517658234e+01 5.466511808335781097e-01 8.424112442881437346e-02
1.320054133236408234e+01 5.717976652085781097e-01 9.898111466318937346e-02
1.368516047298908234e+01 6.162312589585781097e-01 1.129429066553768735e-01
1.425828059017658234e+01 6.570027433335781097e-01 1.290714466944393735e-01
1.824485285580158234e+01 -1.121195498853921890e+00 2.563450062647518735e-01
1.855149348080158234e+01 -1.010966006666421890e+00 2.694065297022518735e-01
1.922886164486408234e+01 -9.675089754164218903e-01 2.913639271631893735e-01
2.011704523861408234e+01 -9.490763582289218903e-01 3.190281117335018735e-01
2.095908625423908234e+01 -9.054972566664218903e-01 3.460209095850643735e-01
1.396091730892658234e+01 4.448445402085781097e-01 1.727726185694393735e-01
1.403635676205158234e+01 5.602009855210781097e-01 1.785099232569393735e-01
1.429966242611408234e+01 6.490681730210781097e-01 1.888858998194393735e-01
1.858066828548908234e+01 -1.196757022291421890e+00 3.445865834131893735e-01
1.918186457455158234e+01 -1.143778506666421890e+00 3.671848500147518735e-01
2.006003840267658234e+01 -1.133036319166421890e+00 3.982670033350643735e-01
2.079099543392658234e+01 -1.077006045728921890e+00 4.255039418116268735e-01
2.182602961361408234e+01 -1.060404483228921890e+00 4.622471058741268735e-01
2.287595637142658234e+01 -1.025736514478921890e+00 5.000278675928768735e-01
2.419358332455158234e+01 -1.010966006666421890e+00 5.466129506006893735e-01
2.559702570736408234e+01 -9.833781160414218903e-01 5.965854847803768735e-01
1.913486750423908234e+01 -1.319681826978921890e+00 4.429142201319393735e-01
1.998057062923908234e+01 -1.311381045728921890e+00 4.766056263819393735e-01
2.068149836361408234e+01 -1.257914248853921890e+00 5.063144886866268735e-01
2.163071711361408234e+01 -1.235941592603921890e+00 5.444919789210018735e-01
2.265915949642658234e+01 -1.209696475416421890e+00 5.859348500147518735e-01
2.385520441830158234e+01 -1.190653506666421890e+00 6.338016713038143735e-01
2.502683527767658234e+01 -1.143412295728921890e+00 6.809208119288143735e-01
2.641428644955158234e+01 -1.105082217603921890e+00 7.368747914210018735e-01
1.989084894955158234e+01 -1.486674014478921890e+00 5.546390736475643735e-01
2.057175715267658234e+01 -1.436625186353921890e+00 5.860264027491268735e-01
2.143369562923908234e+01 -1.408549014478921890e+00 6.248142445460018735e-01
2.246006281673908234e+01 -1.393168155103921890e+00 6.704838002100643735e-01
2.352451594173908234e+01 -1.364847842603921890e+00 7.181980336085018735e-01
2.468564875423908234e+01 -1.331278506666421890e+00 7.703220570460018735e-01
2.604331476986408234e+01 -1.304545108228921890e+00 8.309299672022518735e-01
2.678391535580158234e+01 -1.162455264478921890e+00 8.674747670069393735e-01
2.046543391048908234e+01 -1.614481631666421890e+00 6.652652943506893735e-01
2.126438410580158234e+01 -1.582865420728921890e+00 7.049534047022518735e-01
2.224997980892658234e+01 -1.572001162916421890e+00 7.531711781397518735e-01
2.323301203548908234e+01 -1.540262881666421890e+00 8.018009388819393735e-01
2.439426691830158234e+01 -1.520975772291421890e+00 8.587772572413143735e-01
2.559470637142658234e+01 -1.485209170728921890e+00 9.180881703272518735e-01
2.652219660580158234e+01 -1.382548037916421890e+00 9.659092152491268735e-01
2.704136164486408234e+01 -1.203715030103921890e+00 9.959232533350643735e-01
2.115818293392658234e+01 -1.768168155103921890e+00 7.874576771631893735e-01
2.205076105892658234e+01 -1.748758975416421890e+00 8.354160511866268735e-01
2.302622492611408234e+01 -1.727884951978921890e+00 8.878147328272518735e-01
2.409067805111408234e+01 -1.703348819166421890e+00 9.450504506006893735e-01
2.516196711361408234e+01 -1.659525576978921890e+00 1.003125401772564373e+00
2.615745051205158234e+01 -1.582132998853921890e+00 1.058057042397564373e+00
2.686936457455158234e+01 -1.440409366041421890e+00 1.099560948647564373e+00
2.723874934017658234e+01 -1.236185733228921890e+00 1.124463292397564373e+00
2.194309504330158234e+01 -1.942118350416421890e+00 9.205448353663143735e-01
2.290684016048908234e+01 -1.929300967603921890e+00 9.764682972803768735e-01
2.389963801205158234e+01 -1.903055850416421890e+00 1.034405919350689373e+00
2.495041926205158234e+01 -1.867045108228921890e+00 1.095929356850689373e+00
2.581711848080158234e+01 -1.778666201978921890e+00 1.148129674233501873e+00
2.660349543392658234e+01 -1.660013858228921890e+00 1.196469517983501873e+00
2.722458918392658234e+01 -1.499613467603921890e+00 1.236310216225689373e+00
2.743821223080158234e+01 -1.269144717603921890e+00 1.254391881264751873e+00
2.280637629330158234e+01 -2.133402530103921890e+00 1.066037389077251873e+00
2.376841242611408234e+01 -2.111429873853921890e+00 1.126462193764751873e+00
2.481333430111408234e+01 -2.086527530103921890e+00 1.191525670327251873e+00
2.570627863705158234e+01 -2.011698428541421890e+00 1.248898717202251873e+00
2.642454035580158234e+01 -1.889506045728921890e+00 1.296536656655376873e+00
2.695188410580158234e+01 -1.721781436353921890e+00 1.333401891030376873e+00
2.743479426205158234e+01 -1.536356631666421890e+00 1.368573399819439373e+00
2.788755305111408234e+01 -1.338480655103921890e+00 1.401547642983501873e+00
2.364988215267658234e+01 -2.320658389478921890e+00 1.217984410561626873e+00
2.468528254330158234e+01 -2.305155459791421890e+00 1.287488194741314373e+00
2.558420832455158234e+01 -2.242167178541421890e+00 1.348981114663189373e+00
2.631455500423908234e+01 -2.129130069166421890e+00 1.400387975014751873e+00
2.685264094173908234e+01 -1.968973819166421890e+00 1.440060826577251873e+00
2.734128840267658234e+01 -1.790384951978921890e+00 1.476865025796001873e+00
2.787644465267658234e+01 -1.609110537916421890e+00 1.516827794350689373e+00
2.845225031673908234e+01 -1.424662295728921890e+00 1.559598180092876873e+00
2.455820734798908234e+01 -2.522318545728921890e+00 1.382779332436626873e+00
2.545420344173908234e+01 -2.468607608228921890e+00 1.447308751381939373e+00
2.619932062923908234e+01 -2.367411319166421890e+00 1.502728673256939373e+00
2.677939875423908234e+01 -2.219950381666421890e+00 1.547406407631939373e+00
2.728464777767658234e+01 -2.049296084791421890e+00 1.587292882241314373e+00
2.787241633236408234e+01 -1.882792178541421890e+00 1.632962437905376873e+00
2.844175226986408234e+01 -1.701395694166421890e+00 1.677655431069439373e+00
2.919871027767658234e+01 -1.537577334791421890e+00 1.736005040444439373e+00
2.530564387142658234e+01 -2.689188662916421890e+00 1.544186803139751873e+00
2.607956965267658234e+01 -2.602518741041421890e+00 1.604794713296001873e+00
2.670676691830158234e+01 -2.471659366041421890e+00 1.655225011147564373e+00
2.726536066830158234e+01 -2.315043155103921890e+00 1.701001378335064373e+00
2.788144953548908234e+01 -2.158793155103921890e+00 1.751126500405376873e+00
2.844883234798908234e+01 -1.982767764478921890e+00 1.798001500405376873e+00
2.919272883236408234e+01 -1.822733584791421890e+00 1.857922765053814373e+00
3.013718684017658234e+01 -1.678568545728921890e+00 1.932706090249126873e+00
2.602537043392658234e+01 -2.850321475416421890e+00 1.711194249428814373e+00
2.666404230892658234e+01 -2.728129092603921890e+00 1.764493199624126873e+00
2.724094660580158234e+01 -2.581278506666421890e+00 1.813946934975689373e+00
2.785837824642658234e+01 -2.430155459791421890e+00 1.866757603921001873e+00
2.845847590267658234e+01 -2.264994326978921890e+00 1.918454381264751873e+00
2.920176203548908234e+01 -2.112406436353921890e+00 1.981412144936626873e+00
3.006894953548908234e+01 -1.963846866041421890e+00 2.054242345131939373e+00
3.112217219173908234e+01 -1.826761905103921890e+00 2.142529698647564373e+00
2.672226984798908234e+01 -3.006815616041421890e+00 1.882611485756939373e+00
2.725437434017658234e+01 -2.855204287916421890e+00 1.930875035561626873e+00
2.783640559017658234e+01 -2.703226748853921890e+00 1.983380528725689373e+00
2.847141535580158234e+01 -2.549174014478921890e+00 2.040433141030376873e+00
2.920664484798908234e+01 -2.401713076978921890e+00 2.105862828530376873e+00
3.005723078548908234e+01 -2.259257022291421890e+00 2.180997105874126873e+00
3.110911066830158234e+01 -2.130961123853921890e+00 2.272946568764751873e+00
3.213852961361408234e+01 -1.979838076978921890e+00 2.363446446694439373e+00
2.732920344173908234e+01 -3.143778506666421890e+00 2.053616734780376873e+00
2.789963801205158234e+01 -2.993876162916421890e+00 2.107587071694439373e+00
2.850107844173908234e+01 -2.839091006666421890e+00 2.163739415444439373e+00
2.920762141048908234e+01 -2.691630069166421890e+00 2.229825230874126873e+00
3.005759699642658234e+01 -2.556864444166421890e+00 2.308499547280376873e+00
3.106284601986408234e+01 -2.431498233228921890e+00 2.400891515053814373e+00
3.208127863705158234e+01 -2.287699405103921890e+00 2.495587559975689373e+00
3.309800226986408234e+01 -2.124857608228921890e+00 2.589764806069439373e+00
2.798386652767658234e+01 -3.291483584791421890e+00 2.234738560952251873e+00
2.861228449642658234e+01 -3.146708194166421890e+00 2.295865269936626873e+00
2.929893000423908234e+01 -3.001444522291421890e+00 2.363141270913189373e+00
3.011338312923908234e+01 -2.865946475416421890e+00 2.442273350991314373e+00
3.102329523861408234e+01 -2.732523623853921890e+00 2.530331822671001873e+00
3.203232844173908234e+01 -2.598002139478921890e+00 2.627728673256939373e+00
3.304282648861408234e+01 -2.442972842603921890e+00 2.725659581460064373e+00
3.398838312923908234e+01 -2.260111514478921890e+00 2.818799229897564373e+00
1.174888117611408234e+01 1.025044735521078110e+00 -1.140468394383731265e-01
1.172410090267658234e+01 1.131490048021078110e+00 -1.106899058446231265e-01
1.169443781673908234e+01 1.237813290208578110e+00 -1.076228892430606265e-01
1.167869074642658234e+01 1.342061337083578110e+00 -1.045253550633731265e-01
1.166465266048908234e+01 1.445332821458578110e+00 -1.014430796727481265e-01
1.165073664486408234e+01 1.548116024583578110e+00 -9.837606307118562654e-02
1.163682062923908234e+01 1.650655087083578110e+00 -9.530904646962312654e-02
1.161826594173908234e+01 1.752705868333578110e+00 -9.254720564931062654e-02
1.270212824642658234e+01 8.866170011460781097e-01 -5.946615096181062654e-02
1.268381769955158234e+01 1.001973446458578110e+00 -5.618551131337312654e-02
1.266318781673908234e+01 1.116841610521078110e+00 -5.267598982899812654e-02
1.263169367611408234e+01 1.232808407396078110e+00 -4.953267928212312654e-02
1.262693293392658234e+01 1.344624813646078110e+00 -4.619100447743562654e-02
1.260410578548908234e+01 1.457906063646078110e+00 -4.301717635243562654e-02
1.255478937923908234e+01 1.573018368333578110e+00 -4.037740584462312654e-02
1.251279719173908234e+01 1.686055477708578110e+00 -3.744771834462312654e-02
1.381638605892658234e+01 7.248738370835781097e-01 5.963536538189373459e-03
1.376975519955158234e+01 8.552449308335781097e-01 9.076329506939373459e-03
1.372361262142658234e+01 9.843953214585781097e-01 1.217386368662687346e-02
1.367771418392658234e+01 1.112691219896078110e+00 1.525613907725187346e-02
1.363242609798908234e+01 1.239278133958578110e+00 1.827737931162687346e-02
1.362717707455158234e+01 1.360982235521078110e+00 2.183267716318937346e-02
1.362546809017658234e+01 1.482564266771078110e+00 2.543375138193937346e-02
1.362375910580158234e+01 1.603291805833578110e+00 2.901956681162687346e-02
1.422104914486408234e+01 6.646931730210781097e-01 6.944009903818937346e-02
1.484543879330158234e+01 7.096150480210781097e-01 8.428690079600187346e-02
1.506772883236408234e+01 8.164265714585781097e-01 9.212991837412687346e-02
1.500510676205158234e+01 9.603474698960781097e-01 9.502908829600187346e-02
1.494333918392658234e+01 1.102071102708578110e+00 9.789774063975187346e-02
1.488230402767658234e+01 1.242207821458578110e+00 1.007206166163143735e-01
1.487656672298908234e+01 1.376729305833578110e+00 1.045505726710018735e-01
1.486789973080158234e+01 1.510518368333578110e+00 1.079838002100643735e-01
1.426243098080158234e+01 6.567586027085781097e-01 1.291782582178768735e-01
1.489084894955158234e+01 7.014363370835781097e-01 1.466343129053768735e-01
1.558323176205158234e+01 7.506306730210781097e-01 1.658603871241268735e-01
1.636155207455158234e+01 8.042195402085781097e-01 1.874363148585018735e-01
1.650498469173908234e+01 9.384968839585781097e-01 1.950046742335018735e-01
1.643955500423908234e+01 1.094746883958578110e+00 1.978428089991268735e-01
1.635630305111408234e+01 1.251363094896078110e+00 2.002231800928768735e-01
1.634946711361408234e+01 1.399922665208578110e+00 2.043430531397518735e-01
1.430381281673908234e+01 6.488240323960781097e-01 1.890079701319393735e-01
1.493674738705158234e+01 6.932576261460781097e-01 2.097751820460018735e-01
1.563413508236408234e+01 7.422078214585781097e-01 2.322971547022518735e-01
1.640061457455158234e+01 7.976277433335781097e-01 2.571079457178768735e-01
1.717576105892658234e+01 8.667195402085781097e-01 2.825596058741268735e-01
1.805100519955158234e+01 9.417927823960781097e-01 3.112308705225643735e-01
1.861387141048908234e+01 1.060811337083578110e+00 3.316623890772518735e-01
1.855857355892658234e+01 1.235493954271078110e+00 3.345310414210018735e-01
2.560788996517658234e+01 -9.841105379164218903e-01 5.969516957178768735e-01
1.573252375423908234e+01 5.844929777085781097e-01 2.963840687647518735e-01
1.582248957455158234e+01 7.166951261460781097e-01 3.032047474756893735e-01
1.643967707455158234e+01 7.909138761460781097e-01 3.268100941553768735e-01
1.723423273861408234e+01 8.584187589585781097e-01 3.563968861475643735e-01
1.811643488705158234e+01 9.333699308335781097e-01 3.892490589991268735e-01
1.910520441830158234e+01 1.017232235521078110e+00 4.260685170069393735e-01
2.007786066830158234e+01 1.121236141771078110e+00 4.629032338038143735e-01
2.641953547298908234e+01 -1.105082217603921890e+00 7.370884144678768735e-01
2.685337336361408234e+01 -9.111124910414218903e-01 7.595188343897518735e-01
2.702830012142658234e+01 -6.767374910414218903e-01 7.734806263819393735e-01
1.783115656673908234e+01 6.301472745835781097e-01 4.464084828272518735e-01
1.793650324642658234e+01 7.831013761460781097e-01 4.547550404444393735e-01
1.818271906673908234e+01 9.247029386460781097e-01 4.683506214991268735e-01
1.919602473080158234e+01 1.007222469896078110e+00 5.101749623194393735e-01
2.015146906673908234e+01 1.113301571458578110e+00 5.507633412256893735e-01
2.678745539486408234e+01 -1.162089053541421890e+00 8.676426136866268735e-01
2.704746516048908234e+01 -9.411417879164218903e-01 8.850528920069393735e-01
2.723350031673908234e+01 -7.061564363539218903e-01 8.995640004053768735e-01
2.735801203548908234e+01 -4.600626863539218903e-01 9.116794789210018735e-01
2.748313410580158234e+01 -2.129923738539218903e-01 9.238407338038143735e-01
2.840976984798908234e+01 -3.928631916642189026e-02 9.693119252100643735e-01
3.137363703548908234e+01 -1.767987385392189026e-02 1.100384923256939373e+00
2.085654719173908234e+01 1.058614071458578110e+00 6.663334095850643735e-01
2.704246027767658234e+01 -1.202982608228921890e+00 9.959995472803768735e-01
2.724363215267658234e+01 -9.714152254164218903e-01 1.011899205483501873e+00
2.744211848080158234e+01 -7.359415926039218903e-01 1.027768346108501873e+00
2.770456965267658234e+01 -5.035197176039218903e-01 1.046658726967876873e+00
2.839585383236408234e+01 -3.118693269789218903e-01 1.085324498452251873e+00
3.040439875423908234e+01 -2.309367097914218903e-01 1.185071202553814373e+00
3.325657160580158234e+01 -1.801554597914218903e-01 1.325024815835064373e+00
3.394529230892658234e+01 8.644610270857810974e-02 1.365536900796001873e+00
2.723984797298908234e+01 -1.235575381666421890e+00 1.124554845131939373e+00
2.744394953548908234e+01 -1.002299014478921890e+00 1.141461583413189373e+00
2.791196711361408234e+01 -7.984415926039218903e-01 1.171643468178814373e+00
2.840427668392658234e+01 -5.875040926039218903e-01 1.203305455483501873e+00
2.990354426205158234e+01 -4.731242097914218903e-01 1.286008092202251873e+00
3.192954523861408234e+01 -3.788859285414218903e-01 1.396222325600689373e+00
3.378232844173908234e+01 -2.288615144789218903e-01 1.498669835366314373e+00
3.417136652767658234e+01 6.520586833357810974e-02 1.526990147866314373e+00
2.743931086361408234e+01 -1.268412295728921890e+00 1.254483433999126873e+00
2.789988215267658234e+01 -1.067728701978921890e+00 1.286191197671001873e+00
2.847629816830158234e+01 -8.727824129164218903e-01 1.324444981850689373e+00
2.969932062923908234e+01 -7.398478426039218903e-01 1.398480626381939373e+00
3.137351496517658234e+01 -6.309611238539218903e-01 1.497967931069439373e+00
3.321592219173908234e+01 -5.047404207289218903e-01 1.607587071694439373e+00
3.411374934017658234e+01 -2.613322176039218903e-01 1.665646764077251873e+00
3.439951594173908234e+01 4.372149333357810974e-02 1.689923497475689373e+00
2.789072687923908234e+01 -1.338114444166421890e+00 1.401761266030376873e+00
2.846750910580158234e+01 -1.148539248853921890e+00 1.442456456460064373e+00
2.951023371517658234e+01 -1.005961123853921890e+00 1.510342808999126873e+00
3.086362726986408234e+01 -8.776652254164218903e-01 1.597912999428814373e+00
3.249119074642658234e+01 -7.521769441664218903e-01 1.702511998452251873e+00
3.375571711361408234e+01 -5.602824129164218903e-01 1.786130162514751873e+00
3.434263117611408234e+01 -2.852579988539218903e-01 1.830395909585064373e+00
3.484214289486408234e+01 6.245907396078109741e-03 1.868817540444439373e+00
2.845579035580158234e+01 -1.424296084791421890e+00 1.559842320717876873e+00
2.933469660580158234e+01 -1.269877139478921890e+00 1.622464391030376873e+00
3.057004816830158234e+01 -1.142801944166421890e+00 1.708264561928814373e+00
3.210215266048908234e+01 -1.024271670728921890e+00 1.813718053139751873e+00
3.330149348080158234e+01 -8.416544832289218903e-01 1.898465367592876873e+00
3.419297297298908234e+01 -6.064249910414218903e-01 1.963910313881939373e+00
3.468369562923908234e+01 -3.188273347914218903e-01 2.003796788491314373e+00
3.547739680111408234e+01 -4.575604572892189026e-02 2.063595982827251873e+00
2.920395930111408234e+01 -1.537333194166421890e+00 1.736386510171001873e+00
3.035178644955158234e+01 -1.411722842603921890e+00 1.820813390053814373e+00
3.171067316830158234e+01 -1.289896670728921890e+00 1.920911046303814373e+00
3.296665461361408234e+01 -1.128275576978921890e+00 2.014615269936626873e+00
3.386094172298908234e+01 -9.050089754164218903e-01 2.083920689858501873e+00
3.452378351986408234e+01 -6.424357332289218903e-01 2.137616368569439373e+00
3.530832941830158234e+01 -3.764445222914218903e-01 2.200116368569439373e+00
3.645554621517658234e+01 -1.235148347914218903e-01 2.289075108803814373e+00
3.014438898861408234e+01 -1.678690616041421890e+00 1.933255406655376873e+00
3.131528742611408234e+01 -1.546732608228921890e+00 2.025494786538189373e+00
3.263804133236408234e+01 -1.410746280103921890e+00 2.129376622475689373e+00
3.366941340267658234e+01 -1.213968936353921890e+00 2.212506505288189373e+00
3.436887629330158234e+01 -9.631144441664218903e-01 2.271649571694439373e+00
3.514133723080158234e+01 -7.059122957289218903e-01 2.336484166421001873e+00
3.605674250423908234e+01 -4.446818269789218903e-01 2.412305089272564373e+00
3.755576594173908234e+01 -2.107951082289218903e-01 2.531903477944439373e+00
3.112974055111408234e+01 -1.826883975416421890e+00 2.143155308999126873e+00
3.228757746517658234e+01 -1.683207217603921890e+00 2.239163609780376873e+00
3.345005305111408234e+01 -1.517435733228921890e+00 2.336789342202251873e+00
3.422056086361408234e+01 -1.282328311353921890e+00 2.404385777749126873e+00
3.505478937923908234e+01 -1.040140811353921890e+00 2.477277013100689373e+00
3.584726984798908234e+01 -7.778117097914218903e-01 2.547253819741314373e+00
3.707114680111408234e+01 -5.358683504164218903e-01 2.651593419350689373e+00
3.857029230892658234e+01 -2.919718660414218903e-01 2.779111119546001873e+00
3.214573176205158234e+01 -1.979838076978921890e+00 2.364072057046001873e+00
3.316062434017658234e+01 -1.806620303541421890e+00 2.454556676186626873e+00
3.407407648861408234e+01 -1.600687686353921890e+00 2.537121983803814373e+00
3.495847590267658234e+01 -1.372416201978921890e+00 2.617703648842876873e+00
3.575840266048908234e+01 -1.119120303541421890e+00 2.691647740639751873e+00
3.673020441830158234e+01 -8.669230379164218903e-01 2.780225011147564373e+00
3.806443293392658234e+01 -6.254679597914218903e-01 2.899487706460064373e+00
3.933567316830158234e+01 -3.545939363539218903e-01 3.014035435952251873e+00
3.310483820736408234e+01 -2.124735537916421890e+00 2.590375157631939373e+00
3.400193293392658234e+01 -1.925882998853921890e+00 2.675427647866314373e+00
3.480784113705158234e+01 -1.697855655103921890e+00 2.752087804116314373e+00
3.566538508236408234e+01 -1.459086123853921890e+00 2.834439488686626873e+00
3.664109309017658234e+01 -1.217264834791421890e+00 2.927472325600689373e+00
3.776487238705158234e+01 -9.706828035414218903e-01 3.033917638100689373e+00
3.909018976986408234e+01 -7.182413972914218903e-01 3.159543248452251873e+00
4.040146906673908234e+01 -4.400431551039218903e-01 3.283597203530376873e+00
3.399436457455158234e+01 -2.259867373853921890e+00 2.819379063881939373e+00
3.477915461361408234e+01 -2.036600772291421890e+00 2.897549840249126873e+00
3.560093195736408234e+01 -1.802836123853921890e+00 2.980237218178814373e+00
3.655271418392658234e+01 -1.566874209791421890e+00 3.075268956460064373e+00
3.767698176205158234e+01 -1.331888858228921890e+00 3.186581822671001873e+00
3.900266535580158234e+01 -1.094340030103921890e+00 3.316983433999126873e+00
4.021848566830158234e+01 -8.200480379164218903e-01 3.437802525796001873e+00
4.156284601986408234e+01 -5.330607332289218903e-01 3.572018834389751873e+00
1.161814387142658234e+01 1.753072079271078110e+00 -9.253194686024812654e-02
1.160325129330158234e+01 1.854390438646078110e+00 -8.957174178212312654e-02
1.158384211361408234e+01 1.955586727708578110e+00 -8.690145369618562654e-02
1.156443293392658234e+01 2.056660946458578110e+00 -8.421590682118562654e-02
1.154526789486408234e+01 2.156880673021078110e+00 -8.156087752431062654e-02
1.152109797298908234e+01 2.256856258958578110e+00 -7.896688338368562654e-02
1.150705988705158234e+01 2.356343563646078110e+00 -7.629659529774812654e-02
1.148362238705158234e+01 2.455342587083578110e+00 -7.394674178212312654e-02
1.251243098080158234e+01 1.686421688646078110e+00 -3.744771834462312654e-02
1.246775324642658234e+01 1.798604305833578110e+00 -3.486898299306062654e-02
1.243723566830158234e+01 1.908955868333578110e+00 -3.190877791493562654e-02
1.240207941830158234e+01 2.019307430833578110e+00 -2.926900740712312654e-02
1.236728937923908234e+01 2.128438290208578110e+00 -2.665975447743562654e-02
1.233274348080158234e+01 2.236836727708578110e+00 -2.406576033681062654e-02
1.231919367611408234e+01 2.344502743333578110e+00 -2.151754256337312654e-02
1.231382258236408234e+01 2.451558407396078110e+00 -1.861837264149812654e-02
1.362388117611408234e+01 1.603658016771078110e+00 2.903482560068937346e-02
1.361558039486408234e+01 1.724751766771078110e+00 3.222391251475187346e-02
1.360740168392658234e+01 1.845479305833578110e+00 3.541299942881437346e-02
1.359922297298908234e+01 1.966328915208578110e+00 3.860208634287687346e-02
1.359116633236408234e+01 2.086568173021078110e+00 4.177591446787687346e-02
1.357419855892658234e+01 2.206807430833578110e+00 4.479715470225187346e-02
1.353830988705158234e+01 2.327168758958578110e+00 4.752847794443937346e-02
1.349656184017658234e+01 2.446431454271078110e+00 5.012247208506437346e-02
1.486765559017658234e+01 1.511006649583578110e+00 1.079838002100643735e-01
1.486435969173908234e+01 1.644185360521078110e+00 1.118747914210018735e-01
1.483372004330158234e+01 1.778584774583578110e+00 1.149112904444393735e-01
1.480320246517658234e+01 1.912740048021078110e+00 1.179325306788143735e-01
1.477305109798908234e+01 2.045674618333578110e+00 1.209385121241268735e-01
1.474289973080158234e+01 2.177998837083578110e+00 1.239139759913143735e-01
1.470322687923908234e+01 2.310200985521078110e+00 1.266910756006893735e-01
1.464573176205158234e+01 2.441060360521078110e+00 1.287510121241268735e-01
1.634922297298908234e+01 1.400533016771078110e+00 2.043583119288143735e-01
1.633506281673908234e+01 1.549214657396078110e+00 2.080204213038143735e-01
1.632102473080158234e+01 1.697408016771078110e+00 2.116977894678768735e-01
1.630686457455158234e+01 1.845845516771078110e+00 2.153598988428768735e-01
1.629282648861408234e+01 1.993306454271078110e+00 2.190067494288143735e-01
1.627891047298908234e+01 2.140401180833578110e+00 2.226383412256893735e-01
1.626487238705158234e+01 2.287617977708578110e+00 2.262851918116268735e-01
1.625107844173908234e+01 2.433980282396078110e+00 2.299015248194393735e-01
1.855832941830158234e+01 1.236104305833578110e+00 3.345463002100643735e-01
1.851316340267658234e+01 1.408833798021078110e+00 3.382541859522518735e-01
1.846897394955158234e+01 1.580586727708578110e+00 3.415500843897518735e-01
1.841916926205158234e+01 1.752095516771078110e+00 3.446781361475643735e-01
1.836973078548908234e+01 1.921773251146078110e+00 3.477604115381893735e-01
1.832065851986408234e+01 2.090474423021078110e+00 3.508274281397518735e-01
1.827183039486408234e+01 2.258565243333578110e+00 3.538944447413143735e-01
1.821287043392658234e+01 2.425191219896078110e+00 3.561985218897518735e-01
2.008494074642658234e+01 1.121358212083578110e+00 4.631473744288143735e-01
2.080320246517658234e+01 1.260884579271078110e+00 4.918644154444393735e-01
2.078586848080158234e+01 1.453999813646078110e+00 4.964420521631893735e-01
2.069883234798908234e+01 1.650410946458578110e+00 4.986850941553768735e-01
2.055710871517658234e+01 1.846089657396078110e+00 4.990055287256893735e-01
2.043332941830158234e+01 2.038350399583578110e+00 4.998447621241268735e-01
2.032676203548908234e+01 2.228535946458578110e+00 5.012333119288143735e-01
2.029661066830158234e+01 2.415425594896078110e+00 5.051853382960018735e-01
2.015854914486408234e+01 1.113423641771078110e+00 5.510379994288143735e-01
2.125632746517658234e+01 1.229390438646078110e+00 5.973484242335018735e-01
2.248752863705158234e+01 1.360005673021078110e+00 6.498386586085018735e-01
2.369773371517658234e+01 1.516743954271078110e+00 7.016880238428768735e-01
2.400596125423908234e+01 1.727193173021078110e+00 7.194339955225643735e-01
2.388828547298908234e+01 1.953877743333578110e+00 7.208378041163143735e-01
2.375657160580158234e+01 2.178853329271078110e+00 7.210972035303768735e-01
2.367283137142658234e+01 2.400166805833578110e+00 7.236911976710018735e-01
2.085740168392658234e+01 1.059224423021078110e+00 6.663944447413143735e-01
2.134031184017658234e+01 1.221333798021078110e+00 6.919376576319393735e-01
2.254831965267658234e+01 1.353902157396078110e+00 7.485782826319393735e-01
2.379368098080158234e+01 1.509663876146078110e+00 8.074772084131893735e-01
2.520920832455158234e+01 1.683614071458578110e+00 8.743564808741268735e-01
2.666855891048908234e+01 1.884541805833578110e+00 9.438755238428768735e-01
2.746006281673908234e+01 2.124654110521078110e+00 9.850437367335018735e-01
2.721836359798908234e+01 2.383443173021078110e+00 9.812595570460018735e-01
3.394724543392658234e+01 8.742266520857810974e-02 1.365658971108501873e+00
3.418271906673908234e+01 3.963826261460781097e-01 1.385220738686626873e+00
3.436875422298908234e+01 7.125447355210781097e-01 1.402569981850689373e+00
2.472458918392658234e+01 1.465840633958578110e+00 9.538089955225643735e-01
2.533933527767658234e+01 1.676167782396078110e+00 9.892093861475643735e-01
2.677768976986408234e+01 1.878804501146078110e+00 1.064419957436626873e+00
2.838926203548908234e+01 2.108418758958578110e+00 1.148755284585064373e+00
3.002500422298908234e+01 2.368916805833578110e+00 1.235074254311626873e+00
3.417331965267658234e+01 6.618243083357810974e-02 1.527127476967876873e+00
3.441868098080158234e+01 3.768513761460781097e-01 1.548291417397564373e+00
3.478550226986408234e+01 6.855671964585781097e-01 1.575864049233501873e+00
3.847275812923908234e+01 8.559773527085781097e-01 1.776486607827251873e+00
3.906626398861408234e+01 1.204366024583578110e+00 1.817166539467876873e+00
3.931711848080158234e+01 1.572530087083578110e+00 1.840131017006939373e+00
3.967112238705158234e+01 1.945332821458578110e+00 1.868695470131939373e+00
3.028745539486408234e+01 2.364400204271078110e+00 1.380383702553814373e+00
3.440146906673908234e+01 4.469805583357810974e-02 1.690060826577251873e+00
3.492466242611408234e+01 3.398640714585781097e-01 1.727963658608501873e+00
3.650486262142658234e+01 5.877888761460781097e-01 1.825726720131939373e+00
3.897349055111408234e+01 8.289998136460781097e-01 1.974667760171001873e+00
3.930747492611408234e+01 1.191304501146078110e+00 2.003369542397564373e+00
3.968833430111408234e+01 1.558736141771078110e+00 2.034924718178814373e+00
4.273240168392658234e+01 1.896870907396078110e+00 2.219632359780376873e+00
4.325022394955158234e+01 2.304951962083578110e+00 2.260144444741314373e+00
3.484763605892658234e+01 6.978329271078109741e-03 1.869183751381939373e+00
3.580918391048908234e+01 2.783406339585781097e-01 1.936200352944439373e+00
3.815891535580158234e+01 4.930623136460781097e-01 2.087506505288189373e+00
3.921360285580158234e+01 8.134968839585781097e-01 2.161572667397564373e+00
3.963755305111408234e+01 1.175069149583578110e+00 2.197339268960064373e+00
4.168516047298908234e+01 1.505269344896078110e+00 2.333615514077251873e+00
4.301633723080158234e+01 1.887715633958578110e+00 2.427548619546001873e+00
4.386680109798908234e+01 2.297139462083578110e+00 2.491193028725689373e+00
3.548301203548908234e+01 -4.502362385392189026e-02 2.063992711342876873e+00
3.699363215267658234e+01 1.971638761460781097e-01 2.171445103921001873e+00
3.883823664486408234e+01 4.511921964585781097e-01 2.301572057046001873e+00
3.945823176205158234e+01 7.976277433335781097e-01 2.351987096108501873e+00
4.055076105892658234e+01 1.138692196458578110e+00 2.433942052163189373e+00
4.267637141048908234e+01 1.475850399583578110e+00 2.585034581460064373e+00
4.349509699642658234e+01 1.875630673021078110e+00 2.650143834389751873e+00
4.527793391048908234e+01 2.285542782396078110e+00 2.780133458413189373e+00
3.646641047298908234e+01 -1.232706941664218903e-01 2.289868565835064373e+00
3.810764582455158234e+01 1.202595792710781097e-01 2.412747594155376873e+00
3.936252863705158234e+01 4.175007902085781097e-01 2.510190221108501873e+00
4.019114191830158234e+01 7.599080167710781097e-01 2.578244420327251873e+00
4.208347590267658234e+01 1.080464657396078110e+00 2.721936436928814373e+00
4.324180109798908234e+01 1.456685360521078110e+00 2.814465733803814373e+00
4.445933039486408234e+01 1.856221493333578110e+00 2.911832066811626873e+00
4.669382746517658234e+01 2.273579891771078110e+00 3.083600255288189373e+00
3.756699641048908234e+01 -2.104288972914218903e-01 2.532773228921001873e+00
3.886838801205158234e+01 6.593829020857810974e-02 2.638989659585064373e+00
3.984397394955158234e+01 3.860066495835781097e-01 2.721463414467876873e+00
4.142344172298908234e+01 6.997273527085781097e-01 2.849820348061626873e+00
4.300376398861408234e+01 1.043233212083578110e+00 2.979016515053814373e+00
4.404929621517658234e+01 1.431416805833578110e+00 3.068539830483501873e+00
4.592270930111408234e+01 1.829366024583578110e+00 3.221448155678814373e+00
4.738071711361408234e+01 2.264912899583578110e+00 3.343625279702251873e+00
3.857578547298908234e+01 -2.911173738539218903e-01 2.779568883217876873e+00
3.959531672298908234e+01 1.369219645857810974e-02 2.868741246499126873e+00
4.081650812923908234e+01 3.275349698960781097e-01 2.975354405678814373e+00
4.259629328548908234e+01 6.417439542710781097e-01 3.127164098061626873e+00
4.372934992611408234e+01 1.012593563646078110e+00 3.228070470131939373e+00
4.520872004330158234e+01 1.397115048021078110e+00 3.357342931069439373e+00
4.692954523861408234e+01 1.808858212083578110e+00 3.506818028725689373e+00
4.823105891048908234e+01 2.255147274583578110e+00 3.624402257241314373e+00
3.934458430111408234e+01 -3.539835847914218903e-01 3.014813634194439373e+00
4.056968195736408234e+01 -5.491131916642189026e-02 3.126996251381939373e+00
4.198935969173908234e+01 2.575886808335781097e-01 3.256161900796001873e+00
4.344773371517658234e+01 5.980427823960781097e-01 3.389325352944439373e+00
4.480369074642658234e+01 9.695027433335781097e-01 3.514508458413189373e+00
4.646274836361408234e+01 1.360127743333578110e+00 3.666074010171001873e+00
4.798057062923908234e+01 1.787373837083578110e+00 3.806485387124126873e+00
4.934739191830158234e+01 2.243794735521078110e+00 3.934704991616314373e+00
4.040830500423908234e+01 -4.393107332289218903e-01 3.284222813881939373e+00
4.176316340267658234e+01 -1.381632722914218903e-01 3.413785191811626873e+00
4.306894953548908234e+01 1.926472745835781097e-01 3.538632603921001873e+00
4.452158625423908234e+01 5.439656339585781097e-01 3.678220006264751873e+00
4.608603937923908234e+01 9.188435636460781097e-01 3.828458043374126873e+00
4.755918391048908234e+01 1.326924618333578110e+00 3.971295567788189373e+00
4.903440363705158234e+01 1.765645321458578110e+00 4.116238805092876873e+00
5.070920832455158234e+01 2.230977352708578110e+00 4.278699132241314373e+00
4.157102473080158234e+01 -5.324503816664218903e-01 3.572812291421001873e+00
4.287314875423908234e+01 -2.161662019789218903e-01 3.702954503335064373e+00
4.430344660580158234e+01 1.186726652085781097e-01 3.846692296303814373e+00
4.584409601986408234e+01 4.784138761460781097e-01 4.001492711342876873e+00
4.735105402767658234e+01 8.684285245835781097e-01 4.153851720131939373e+00
4.872556574642658234e+01 1.291524227708578110e+00 4.294461461342876873e+00
5.047507746517658234e+01 1.737813290208578110e+00 4.471188756264751873e+00
5.199277766048908234e+01 2.218159969896078110e+00 4.628018590249126873e+00
1.148362238705158234e+01 2.455586727708578110e+00 -7.394674178212312654e-02
1.146555598080158234e+01 2.554097469896078110e+00 -7.138326521962312654e-02
1.144419367611408234e+01 2.652242001146078110e+00 -6.910970564931062654e-02
1.142283137142658234e+01 2.750264462083578110e+00 -6.683614607899812654e-02
1.140171320736408234e+01 2.847676571458578110e+00 -6.456258650868562654e-02
1.138059504330158234e+01 2.944722469896078110e+00 -6.231954451649812654e-02
1.135947687923908234e+01 3.041768368333578110e+00 -6.006124373524812654e-02
1.133469660580158234e+01 3.137837704271078110e+00 -5.809285994618562654e-02
1.231394465267658234e+01 2.451924618333578110e+00 -1.860311385243562654e-02
1.230344660580158234e+01 2.558736141771078110e+00 -1.607015486806062654e-02
1.229758723080158234e+01 2.665425594896078110e+00 -1.321676131337312654e-02
1.228708918392658234e+01 2.772359188646078110e+00 -1.066854353993562654e-02
1.227659113705158234e+01 2.878804501146078110e+00 -8.135584555560626541e-03
1.226621516048908234e+01 2.985127743333578110e+00 -5.617884360248126541e-03
1.224058039486408234e+01 3.090718563646078110e+00 -3.542689047748126541e-03
1.221250422298908234e+01 3.195454891771078110e+00 -1.253870688373126541e-03
1.349619562923908234e+01 2.446797665208578110e+00 5.012247208506437346e-02
1.344932062923908234e+01 2.565083798021078110e+00 5.231973771006437346e-02
1.340281184017658234e+01 2.682637508958578110e+00 5.451700333506437346e-02
1.335642512142658234e+01 2.799702938646078110e+00 5.668375138193937346e-02
1.331064875423908234e+01 2.915547665208578110e+00 5.883524063975187346e-02
1.326511652767658234e+01 3.030537899583578110e+00 6.097147110850187346e-02
1.321970637142658234e+01 3.145039852708578110e+00 6.310770157725187346e-02
1.318662531673908234e+01 3.259297665208578110e+00 6.542703751475187346e-02
1.464560969173908234e+01 2.441548641771078110e+00 1.287510121241268735e-01
1.459641535580158234e+01 2.571309383958578110e+00 1.313144886866268735e-01
1.454087336361408234e+01 2.700093563646078110e+00 1.334049427881893735e-01
1.448557551205158234e+01 2.828389462083578110e+00 1.354801381006893735e-01
1.443088801205158234e+01 2.955098446458578110e+00 1.375248158350643735e-01
1.437668879330158234e+01 3.080952938646078110e+00 1.395542347803768735e-01
1.432261164486408234e+01 3.206197079271078110e+00 1.415836537256893735e-01
1.438559992611408234e+01 3.337788876146078110e+00 1.459171498194393735e-01
1.625120051205158234e+01 2.434468563646078110e+00 2.299167836085018735e-01
1.622996027767658234e+01 2.580464657396078110e+00 2.330753529444393735e-01
1.620884211361408234e+01 2.726094540208578110e+00 2.362339222803768735e-01
1.618772394955158234e+01 2.871968563646078110e+00 2.393924916163143735e-01
1.616672785580158234e+01 3.016988094896078110e+00 2.425358021631893735e-01
1.614573176205158234e+01 3.161641415208578110e+00 2.456791127100643735e-01
1.617551691830158234e+01 3.309346493333578110e+00 2.501957142725643735e-01
1.628525812923908234e+01 3.462666805833578110e+00 2.568943226710018735e-01
1.821250422298908234e+01 2.425679501146078110e+00 3.561985218897518735e-01
1.816880305111408234e+01 2.591084774583578110e+00 3.595096791163143735e-01
1.811484797298908234e+01 2.755513485521078110e+00 3.620731556788143735e-01
1.806101496517658234e+01 2.919698055833578110e+00 3.646366322413143735e-01
1.800754816830158234e+01 3.082173641771078110e+00 3.671848500147518735e-01
1.795456965267658234e+01 3.243794735521078110e+00 3.697025502100643735e-01
1.799534113705158234e+01 3.410298641771078110e+00 3.751957142725643735e-01
1.802927668392658234e+01 3.576680477708578110e+00 3.800632679835018735e-01
2.029648859798908234e+01 2.416035946458578110e+00 5.052005970850643735e-01
2.026987726986408234e+01 2.602315243333578110e+00 5.090610707178768735e-01
2.024326594173908234e+01 2.788228329271078110e+00 5.129062855616268735e-01
2.021848566830158234e+01 2.974385555833578110e+00 5.168277943506893735e-01
2.013157160580158234e+01 3.157246883958578110e+00 5.185062611475643735e-01
2.012400324642658234e+01 3.342305477708578110e+00 5.229923451319393735e-01
2.019968684017658234e+01 3.532491024583578110e+00 5.305149281397518735e-01
2.017954523861408234e+01 3.717427548021078110e+00 5.345585072413143735e-01
2.367234309017658234e+01 2.400899227708578110e+00 7.236911976710018735e-01
2.359897883236408234e+01 2.620625790208578110e+00 7.264835560694393735e-01
2.354062922298908234e+01 2.839253719896078110e+00 7.303592884913143735e-01
2.346213801205158234e+01 3.057027157396078110e+00 7.328922474756893735e-01
2.336582453548908234e+01 3.271992977708578110e+00 7.346622670069393735e-01
2.322178156673908234e+01 3.482930477708578110e+00 7.344333851710018735e-01
2.306174738705158234e+01 3.691060360521078110e+00 7.329685414210018735e-01
2.296482355892658234e+01 3.899556454271078110e+00 7.345401966944393735e-01
2.721677668392658234e+01 2.384419735521078110e+00 9.812137806788143735e-01
2.701243098080158234e+01 2.638570126146078110e+00 9.788334095850643735e-01
2.681125910580158234e+01 2.888936337083578110e+00 9.764835560694393735e-01
2.661240656673908234e+01 3.136494930833578110e+00 9.741642201319393735e-01
2.646531184017658234e+01 3.381123837083578110e+00 9.740421498194393735e-01
2.637314875423908234e+01 3.625508602708578110e+00 9.763462269678768735e-01
2.628122980892658234e+01 3.869038876146078110e+00 9.786350453272518735e-01
2.619040949642658234e+01 4.110127743333578110e+00 9.808933461085018735e-01
3.003672297298908234e+01 2.369893368333578110e+00 1.235654088296001873e+00
3.178672297298908234e+01 2.663838680833578110e+00 1.328366490639751873e+00
3.268406184017658234e+01 2.979390438646078110e+00 1.380200597085064373e+00
3.207981379330158234e+01 3.275166805833578110e+00 1.358578892983501873e+00
3.197349055111408234e+01 3.575948055833578110e+00 1.361264439858501873e+00
3.186765559017658234e+01 3.874776180833578110e+00 1.363934727944439373e+00
3.164976008236408234e+01 4.166524227708578110e+00 1.360959264077251873e+00
3.144761164486408234e+01 4.453999813646078110e+00 1.358655186928814373e+00
3.028855402767658234e+01 2.365376766771078110e+00 1.380475255288189373e+00
3.191330988705158234e+01 2.661031063646078110e+00 1.474683018960064373e+00
3.371457941830158234e+01 2.991963680833578110e+00 1.579220982827251873e+00
3.561411555111408234e+01 3.362813290208578110e+00 1.690030308999126873e+00
3.768784601986408234e+01 3.776875790208578110e+00 1.811230870522564373e+00
3.960898859798908234e+01 4.225728329271078110e+00 1.925229283608501873e+00
3.943931086361408234e+01 4.597798641771078110e+00 1.925992223061626873e+00
3.891977961361408234e+01 4.942525204271078110e+00 1.907407017983501873e+00
4.324900324642658234e+01 2.306416805833578110e+00 2.260113927163189373e+00
4.434836848080158234e+01 2.728047665208578110e+00 2.334805699624126873e+00
4.711753351986408234e+01 3.198140438646078110e+00 2.507275792397564373e+00
4.745090754330158234e+01 3.662740048021078110e+00 2.538830968178814373e+00
3.819883234798908234e+01 3.791158016771078110e+00 2.007428380288189373e+00
3.976865656673908234e+01 4.228780087083578110e+00 2.109738560952251873e+00
4.183469660580158234e+01 4.727193173021078110e+00 2.242322179116314373e+00
4.399265559017658234e+01 5.271748837083578110e+00 2.381436558999126873e+00
4.387717707455158234e+01 2.298604305833578110e+00 2.491879674233501873e+00
4.689365656673908234e+01 2.737080868333578110e+00 2.691846104897564373e+00
4.743027766048908234e+01 3.197652157396078110e+00 2.736447545327251873e+00
4.965403254330158234e+01 3.713887508958578110e+00 2.888928624428814373e+00
5.037449152767658234e+01 4.219746883958578110e+00 2.947324010171001873e+00
5.285044367611408234e+01 4.820332821458578110e+00 3.117779942788189373e+00
5.343076594173908234e+01 5.367207821458578110e+00 3.169812413491314373e+00
5.611484797298908234e+01 6.062276180833578110e+00 3.355832310952251873e+00
4.529868586361408234e+01 2.287007626146078110e+00 2.781567784585064373e+00
4.728940851986408234e+01 2.733907040208578110e+00 2.926938267983501873e+00
4.823850519955158234e+01 3.204732235521078110e+00 3.003125401772564373e+00
5.023374445736408234e+01 3.723042782396078110e+00 3.150723668374126873e+00
5.117295344173908234e+01 4.242574032396078110e+00 3.227551671303814373e+00
5.331968195736408234e+01 4.836079891771078110e+00 3.387295933999126873e+00
5.524204523861408234e+01 5.462178524583578110e+00 3.532880040444439373e+00
5.653318293392658234e+01 6.084004696458578110e+00 3.636044713296001873e+00
4.670493586361408234e+01 2.275166805833578110e+00 3.084439488686626873e+00
4.775632746517658234e+01 2.730977352708578110e+00 3.170880528725689373e+00
4.955735285580158234e+01 3.219502743333578110e+00 3.313016148842876873e+00
5.068735773861408234e+01 3.729024227708578110e+00 3.407666417397564373e+00
5.272178156673908234e+01 4.291768368333578110e+00 3.568509312905376873e+00
5.412290461361408234e+01 4.866719540208578110e+00 3.684323521889751873e+00
5.637082941830158234e+01 5.518819149583578110e+00 3.862881871499126873e+00
5.816184504330158234e+01 6.184590633958578110e+00 4.010449620522564373e+00
4.739158137142658234e+01 2.266377743333578110e+00 3.344495030678814373e+00
4.877366144955158234e+01 2.730733212083578110e+00 3.462430211342876873e+00
5.032004816830158234e+01 3.225484188646078110e+00 3.593732091225689373e+00
5.182956965267658234e+01 3.752217587083578110e+00 3.723080846108501873e+00
5.360862238705158234e+01 4.317158993333578110e+00 3.874036046303814373e+00
5.564243586361408234e+01 4.929707821458578110e+00 4.045682164467876873e+00
5.736509211361408234e+01 5.567891415208578110e+00 4.194302769936626873e+00
5.938535578548908234e+01 6.258565243333578110e+00 4.367032262124126873e+00
4.824058039486408234e+01 2.256612118333578110e+00 3.625210973061626873e+00
4.986851008236408234e+01 2.730733212083578110e+00 3.768597813881939373e+00
5.122532160580158234e+01 3.233418758958578110e+00 3.891980382241314373e+00
5.309873469173908234e+01 3.778218563646078110e+00 4.058285924233501873e+00
5.487009699642658234e+01 4.355611141771078110e+00 4.217236729897564373e+00
5.686899836361408234e+01 4.979024227708578110e+00 4.395825597085064373e+00
5.885752375423908234e+01 5.644185360521078110e+00 4.574704381264751873e+00
6.054880793392658234e+01 6.328267391771078110e+00 4.731534215249126873e+00
4.935776789486408234e+01 2.245381649583578110e+00 3.935635777749126873e+00
5.109104426205158234e+01 2.730977352708578110e+00 4.097104283608501873e+00
5.260203059017658234e+01 3.248189266771078110e+00 4.240430089272564373e+00
5.450449641048908234e+01 3.807515438646078110e+00 4.418393346108501873e+00
5.641038019955158234e+01 4.403462704271078110e+00 4.597638341225689373e+00
5.835520441830158234e+01 5.039815243333578110e+00 4.781323643960064373e+00
6.031894953548908234e+01 5.718404110521078110e+00 4.967770787514751873e+00
6.193052180111408234e+01 6.411885555833578110e+00 5.124524327553814373e+00
5.071946223080158234e+01 2.232564266771078110e+00 4.279660435952251873e+00
5.228379328548908234e+01 2.730855282396078110e+00 4.434354039467876873e+00
5.415256769955158234e+01 3.265279110521078110e+00 4.616208287514751873e+00
