-1.438145960867404938e+01 1.349636606872081757e+01 -4.714261523913592100e-01
-1.261607874929904938e+01 1.321865610778331757e+01 -3.507749072741717100e-01
-6.905995741486549377e+00 6.830594584345817566e+00 -1.604285161010921001e-02
-1.315819300711154938e+01 1.336404184997081757e+01 -3.632718555163592100e-01
-1.340916956961154938e+01 1.340627817809581757e+01 -3.680020801257342100e-01
-1.367711390554904938e+01 1.346182017028331757e+01 -3.734952441882342100e-01
-1.392784632742404938e+01 1.349392466247081757e+01 -3.777982227038592100e-01
-1.418309535086154938e+01 1.352651743590831757e+01 -3.821774951647967100e-01
-1.457372035086154938e+01 1.368703989684581757e+01 -3.934995166491717100e-01
-1.273473109304904938e+01 1.335134653747081757e+01 -2.748776904772967100e-01
-6.905873671174049377e+00 6.831693217158317566e+00 2.643761713989078999e-02
-1.325926722586154938e+01 1.347378306090831757e+01 -2.841092578601092100e-01
-1.340965785086154938e+01 1.340920786559581757e+01 -2.829190723132342100e-01
-1.377269496023654938e+01 1.356265024840831757e+01 -2.919522754382342100e-01
-1.402635706961154938e+01 1.359609751403331757e+01 -2.954312793444842100e-01
-1.438414515554904938e+01 1.372927622497081757e+01 -3.036405078601092100e-01
-1.475938929617404938e+01 1.387136606872081757e+01 -3.123380176257342100e-01
-1.283019007742404938e+01 1.345864634215831757e+01 -1.967832080554217100e-01
-6.905873671174049377e+00 6.832913920283317566e+00 6.867394526489078999e-02
-1.336131800711154938e+01 1.358486704528331757e+01 -2.041226855944842100e-01
-1.341014613211154938e+01 1.341225962340831757e+01 -1.983090869616717100e-01
-1.386925257742404938e+01 1.366445688903331757e+01 -2.096768848132342100e-01
-1.417870081961154938e+01 1.375283579528331757e+01 -2.144681445788592100e-01
-1.457762660086154938e+01 1.392434458434581757e+01 -2.226773730944842100e-01
-1.494908656179904938e+01 1.405959849059581757e+01 -2.294522754382342100e-01
-1.292760218679904938e+01 1.356826548278331757e+01 -1.170407764147967100e-01
-6.905751600861549377e+00 6.834012553095817566e+00 1.111391552258282900e-01
-1.346507777273654938e+01 1.369766001403331757e+01 -1.228238574694842100e-01
-1.341063441336154938e+01 1.341518931090831757e+01 -1.136838428210467100e-01
-1.397459925711154938e+01 1.377541880309581757e+01 -1.264401904772967100e-01
-1.438585413992404938e+01 1.396499399840831757e+01 -1.334134570788592100e-01
-1.476500453054904938e+01 1.411343149840831757e+01 -1.385098926257342100e-01
-1.514439906179904938e+01 1.425356821715831757e+01 -1.438352100085467100e-01
-1.302611292898654938e+01 1.367898325622081757e+01 -3.644385258667171001e-02
-6.905751600861549377e+00 6.835233256220817566e+00 1.533602245617657900e-01
-1.355943812429904938e+01 1.380056528747081757e+01 -3.941931645385921001e-02
-1.341100062429904938e+01 1.341824106872081757e+01 -2.861609379760921001e-02
-1.417833460867404938e+01 1.398757700622081757e+01 -4.416479985229671001e-02
-1.366747035086154938e+01 1.324087290465831757e+01 -2.330603520385921001e-02
-1.492931117117404938e+01 1.427969126403331757e+01 -5.180945317260921001e-02
-1.433958949148654938e+01 1.346865610778331757e+01 -2.918066899292171001e-02
-1.312682093679904938e+01 1.379214243590831757e+01 4.587731440551578999e-02
-6.905629530549049377e+00 6.836331889033317566e+00 1.955812938977032900e-01
-1.365453089773654938e+01 1.390420298278331757e+01 4.477868159301578999e-02
-8.426137343049049377e+00 8.205472514033317566e+00 1.672457226086407900e-01
-1.438719691336154938e+01 1.420522837340831757e+01 4.018578608520328999e-02
-1.372435511648654938e+01 1.330093149840831757e+01 6.031212885864078999e-02
-1.374718226492404938e+01 1.310586313903331757e+01 6.534752924926578999e-02
-1.376317347586154938e+01 1.290701059997081757e+01 7.088646967895328999e-02
-1.322850550711154938e+01 1.390652231872081757e+01 1.290987499523907900e-01
-6.905507460236549377e+00 6.837430521845817566e+00 2.380159862805157900e-01
-8.430898085236549377e+00 8.348783060908317566e+00 2.159975536633282900e-01
-8.441274061799049377e+00 8.222684428095817566e+00 2.188509472180157900e-01
-1.085704554617404938e+01 1.057473520934581757e+01 1.849001415539532900e-01
-1.481114710867404938e+01 1.440359263122081757e+01 1.297853954602032900e-01
-1.376756800711154938e+01 1.312869028747081757e+01 1.501253612805157900e-01
-8.049428358674049377e+00 7.314969584345817566e+00 2.359102733898907900e-01
-6.567128553986549377e+00 6.579984232783317566e+00 2.817171581555157900e-01
-6.750600233674049377e+00 6.671048685908317566e+00 2.817324169445782900e-01
-6.941884413361549377e+00 6.765775248408317566e+00 2.819612987805157900e-01
-7.131337538361549377e+00 6.853299662470817566e+00 2.823275097180157900e-01
-7.323842421174049377e+00 6.939725443720817566e+00 2.827394970227032900e-01
-7.525136366486549377e+00 7.030057474970817566e+00 2.831667431164532900e-01
-7.734486952424049377e+00 7.124051615595817566e+00 2.836092479992657900e-01
-7.952748671174049377e+00 7.221707865595817566e+00 2.843264110852032900e-01
-6.495229139924049377e+00 6.501981303095817566e+00 3.222139843273907900e-01
-6.674428358674049377e+00 6.589871928095817566e+00 3.233278759289532900e-01
-6.861562147736549377e+00 6.681546732783317566e+00 3.244722851086407900e-01
-7.069203749299049377e+00 6.789578959345817566e+00 3.256624706555157900e-01
-7.265492811799049377e+00 6.880887553095817566e+00 3.269594677258282900e-01
-7.476186171174049377e+00 6.981839701533317566e+00 3.282869823742657900e-01
-7.696156874299049377e+00 7.087064310908317566e+00 3.296907909680157900e-01
-7.926625624299049377e+00 7.197415873408317566e+00 3.311556347180157900e-01
-6.530263319611549377e+00 6.541776224970817566e+00 3.623293407727032900e-01
-6.723378553986549377e+00 6.643949076533317566e+00 3.643587597180157900e-01
-6.925771132111549377e+00 6.751004740595817566e+00 3.664949901867657900e-01
-7.127065077424049377e+00 6.851346537470817566e+00 3.684633739758282900e-01
-7.331288710236549377e+00 6.949979349970817566e+00 3.707216747570782900e-01
-7.546010389924049377e+00 7.053861185908317566e+00 3.733309276867657900e-01
-7.769887343049049377e+00 7.162015482783317566e+00 3.758181103039532900e-01
-8.004628553986549377e+00 7.275296732783317566e+00 3.784121044445782900e-01
-6.589589491486549377e+00 6.608304545283317566e+00 4.031771190930157900e-01
-6.770375624299049377e+00 6.696073099970817566e+00 4.058168896008282900e-01
-6.958608046174049377e+00 6.787259623408317566e+00 4.088076122570782900e-01
-7.143666639924049377e+00 6.870023295283317566e+00 4.117983349133282900e-01
-7.333119764924049377e+00 6.953153178095817566e+00 4.148653515148907900e-01
-7.531117811799049377e+00 7.040067240595817566e+00 4.180849560070782900e-01
-7.736806288361549377e+00 7.130399271845817566e+00 4.214266308117657900e-01
-7.951039686799049377e+00 7.224149271845817566e+00 4.251497753430157900e-01
-6.820302382111549377e+00 6.093045756220817566e+00 -3.420163623522967100e-01
-6.862050428986549377e+00 6.033841654658317566e+00 -3.394376270007342100e-01
-6.901234999299049377e+00 5.972196146845817566e+00 -3.367978564929217100e-01
-6.940297499299049377e+00 5.910672709345817566e+00 -3.341428271960467100e-01
-6.979115858674049377e+00 5.849393412470817566e+00 -3.315183154772967100e-01
-7.019399061799049377e+00 5.789456889033317566e+00 -3.290311328601092100e-01
-7.067860975861549377e+00 5.737210795283317566e+00 -3.274289600085467100e-01
-7.113637343049049377e+00 5.682645365595817566e+00 -3.257657520007342100e-01
-7.257069960236549377e+00 6.520780131220817566e+00 -3.477078906726092100e-01
-7.320546522736549377e+00 6.475369974970817566e+00 -3.471585742663592100e-01
-7.384389296174049377e+00 6.429837748408317566e+00 -3.465939990710467100e-01
-7.451772108674049377e+00 6.386868998408317566e+00 -3.461362353991717100e-01
-7.515981093049049377e+00 6.340970560908317566e+00 -3.455716602038592100e-01
-7.570058241486549377e+00 6.285184428095817566e+00 -3.441831103991717100e-01
-7.622670546174049377e+00 6.228543803095817566e+00 -3.424588672351092100e-01
-7.675404921174049377e+00 6.171903178095817566e+00 -3.407193652819842100e-01
-7.887196913361549377e+00 7.137479349970817566e+00 -3.666593066882342100e-01
-7.957997694611549377e+00 7.088895365595817566e+00 -3.660947314929217100e-01
-8.029164686799049377e+00 7.040189310908317566e+00 -3.655148975085467100e-01
-8.100697889924049377e+00 6.990994974970817566e+00 -3.649350635241717100e-01
-8.170644178986549377e+00 6.940335795283317566e+00 -3.642026416491717100e-01
-8.228505507111549377e+00 6.878202006220817566e+00 -3.623105518054217100e-01
-8.286244764924049377e+00 6.816190287470817566e+00 -3.604184619616717100e-01
-8.343984022736549377e+00 6.754178568720817566e+00 -3.585263721179217100e-01
-8.519032850861549377e+00 7.756009623408317566e+00 -3.779050342272967100e-01
-8.611562147736549377e+00 7.718167826533317566e+00 -3.783170215319842100e-01
-8.701161757111549377e+00 7.676541849970817566e+00 -3.786832324694842100e-01
-8.791737928986549377e+00 7.634549662470817566e+00 -3.790647021960467100e-01
-8.867177382111549377e+00 7.578275248408317566e+00 -3.780881396960467100e-01
-8.930898085236549377e+00 7.510770365595817566e+00 -3.760587207507342100e-01
-8.994496718049049377e+00 7.443509623408317566e+00 -3.740293018054217100e-01
-9.054311171174049377e+00 7.372830912470817566e+00 -3.719541064929217100e-01
-9.953236952424049377e+00 9.158719584345817566e+00 -4.488431445788592100e-01
-9.824574843049049377e+00 8.885160014033317566e+00 -4.294492236804217100e-01
-9.701283827424049377e+00 8.623197123408317566e+00 -4.108640186022967100e-01
-9.582753553986549377e+00 8.371243998408317566e+00 -3.929959766101092100e-01
-9.686513319611549377e+00 8.328763529658317566e+00 -3.935452930163592100e-01
-9.469960585236549377e+00 7.996854349970817566e+00 -3.682614795397967100e-01
-9.912221327424049377e+00 8.256131693720817566e+00 -3.958798877429217100e-01
-1.000511683523654938e+01 8.200955912470817566e+00 -3.953916064929217100e-01
-1.380296839773654938e+01 1.292239145934581757e+01 -6.911832324694842100e-01
-1.412779749929904938e+01 1.302273325622081757e+01 -7.044278613757342100e-01
-1.440025843679904938e+01 1.306643442809581757e+01 -7.137357227038592100e-01
-1.462718714773654938e+01 1.306203989684581757e+01 -7.192594043444842100e-01
-1.473631800711154938e+01 1.294692759215831757e+01 -7.157804004382342100e-01
-9.469838514924049377e+00 7.998441264033317566e+00 -3.135282031726092100e-01
-1.100352992117404938e+01 9.222806498408317566e+00 -4.189206592272967100e-01
-1.108763636648654938e+01 9.143827006220817566e+00 -4.171048633288592100e-01
-1.414220179617404938e+01 1.325637583434581757e+01 -6.307736865710467100e-01
-1.439952601492404938e+01 1.328640513122081757e+01 -6.379758350085467100e-01
-1.470238246023654938e+01 1.335464243590831757e+01 -6.481534473132342100e-01
-1.498143519461154938e+01 1.339407114684581757e+01 -6.563168994616717100e-01
-1.472740687429904938e+01 1.294143442809581757e+01 -6.275693408679217100e-01
-9.469716444611549377e+00 8.000028178095817566e+00 -2.590848437976092100e-01
-1.584569300711154938e+01 1.350649790465831757e+01 -6.811124316882342100e-01
-1.526280726492404938e+01 1.277651743590831757e+01 -6.309415332507342100e-01
-1.424168910086154938e+01 1.335622934997081757e+01 -5.507565967272967100e-01
-1.457249964773654938e+01 1.345547251403331757e+01 -5.616971484851092100e-01
-1.488646449148654938e+01 1.353152231872081757e+01 -5.707303516101092100e-01
-1.517149867117404938e+01 1.357351450622081757e+01 -5.780545703601092100e-01
-1.471849574148654938e+01 1.293594126403331757e+01 -5.390225879382342100e-01
-9.469594374299049377e+00 8.001615092158317566e+00 -2.043515674304217100e-01
-1.605687464773654938e+01 1.369619517028331757e+01 -6.009580127429217100e-01
-1.526830042898654938e+01 1.278396372497081757e+01 -5.424558154772967100e-01
-1.438463343679904938e+01 1.349868540465831757e+01 -4.715787402819842100e-01
-1.475670374929904938e+01 1.363528208434581757e+01 -4.833890430163592100e-01
-1.507433070242404938e+01 1.371206431090831757e+01 -4.916898242663592100e-01
-1.536546839773654938e+01 1.375686411559581757e+01 -4.981442920397967100e-01
-1.470958460867404938e+01 1.293057017028331757e+01 -4.510556689929217100e-01
-9.469594374299049377e+00 8.003202006220817566e+00 -1.499387256335467100e-01
-1.570702113211154938e+01 1.338967661559581757e+01 -4.868833057116717100e-01
-1.526830042898654938e+01 1.278677134215831757e+01 -4.531308643054217100e-01
-1.457640589773654938e+01 1.368887095153331757e+01 -3.936215869616717100e-01
-1.395811976492404938e+01 1.286990122497081757e+01 -3.520566455554217100e-01
-1.526732386648654938e+01 1.389736704528331757e+01 -4.105435840319842100e-01
-1.556175746023654938e+01 1.394216684997081757e+01 -4.159146777819842100e-01
-1.470079554617404938e+01 1.292519907653331757e+01 -3.632108203601092100e-01
-9.469472303986549377e+00 8.004788920283317566e+00 -9.551062504760921001e-02
-1.570348109304904938e+01 1.338943247497081757e+01 -3.945218555163592100e-01
-1.526830042898654938e+01 1.278957895934581757e+01 -3.643094531726092100e-01
-1.476207484304904938e+01 1.387331919372081757e+01 -3.124448291491717100e-01
-1.400560511648654938e+01 1.291811899840831757e+01 -2.691098682116717100e-01
-1.425853480398654938e+01 1.294570688903331757e+01 -2.723294727038592100e-01
-1.539269007742404938e+01 1.378774790465831757e+01 -3.145047656726092100e-01
-1.469090785086154938e+01 1.291885142028331757e+01 -2.749692432116717100e-01
-9.469350233674049377e+00 8.006497904658317566e+00 -4.082312504760921001e-02
-1.687865199148654938e+01 1.443240122497081757e+01 -3.520566455554217100e-01
-1.494981898367404938e+01 1.251516489684581757e+01 -2.615872852038592100e-01
-1.495189417898654938e+01 1.406167368590831757e+01 -2.295285693835467100e-01
-1.533739222586154938e+01 1.420217661559581757e+01 -2.365018359851092100e-01
-1.432396449148654938e+01 1.301016001403331757e+01 -1.889707080554217100e-01
-1.542577113211154938e+01 1.382143931090831757e+01 -2.234403125476092100e-01
-1.468077601492404938e+01 1.291225962340831757e+01 -1.873380176257342100e-01
-9.469228163361549377e+00 8.008084818720817566e+00 1.358971674926578999e-02
-1.481798304617404938e+01 1.261123423278331757e+01 -1.773587695788592100e-01
-1.485985316336154938e+01 1.243960337340831757e+01 -1.714688770007342100e-01
-1.514659632742404938e+01 1.425503306090831757e+01 -1.438809863757342100e-01
-1.410020960867404938e+01 1.301431040465831757e+01 -1.018735400866717100e-01
-1.530125941336154938e+01 1.393789438903331757e+01 -1.343747607897967100e-01
-1.459642542898654938e+01 1.305215220153331757e+01 -1.044370166491717100e-01
-1.467064417898654938e+01 1.290566782653331757e+01 -9.982886235229671001e-02
-9.469106093049049377e+00 8.009671732783317566e+00 6.797204096801578999e-02
-1.713866175711154938e+01 1.466872934997081757e+01 -1.607724658679217100e-01
-1.526817835867404938e+01 1.279775767028331757e+01 -9.691443364135921001e-02
-1.433958949148654938e+01 1.346792368590831757e+01 -2.915015141479671001e-02
-1.414623011648654938e+01 1.306130747497081757e+01 -1.756873051635921001e-02
-1.566783656179904938e+01 1.428774790465831757e+01 -5.100073735229671001e-02
-1.549266566336154938e+01 1.388931040465831757e+01 -3.963293950073421001e-02
-1.427428187429904938e+01 1.254543833434581757e+01 -2.264165086671710014e-03
-9.469106093049049377e+00 8.011258646845817566e+00 1.226442821789532900e-01
-1.591075648367404938e+01 1.358450083434581757e+01 -3.003516118042171001e-02
-1.527013148367404938e+01 1.280227427184581757e+01 -8.184575242921710014e-03
-1.376280726492404938e+01 1.290603403747081757e+01 7.091698725707828999e-02
-1.571910609304904938e+01 1.457827524840831757e+01 3.647790034301578999e-02
-1.607188929617404938e+01 1.467324595153331757e+01 3.574547846801578999e-02
-1.437242640554904938e+01 1.284902720153331757e+01 7.499108393676578999e-02
-1.425340785086154938e+01 1.252895884215831757e+01 8.275780756957828999e-02
-9.468984022736549377e+00 8.012845560908317566e+00 1.770266063977032900e-01
-1.595323695242404938e+01 1.362502817809581757e+01 6.257042963989078999e-02
-1.527501429617404938e+01 1.280935434997081757e+01 8.098778803832828999e-02
-8.050771132111549377e+00 7.315824076533317566e+00 2.359102733898907900e-01
-8.284657850861549377e+00 7.421781107783317566e+00 2.354219921398907900e-01
-8.529897108674049377e+00 7.532865092158317566e+00 2.349184521008282900e-01
-8.788075819611549377e+00 7.649930521845817566e+00 2.343843944836407900e-01
-9.058339491486549377e+00 7.772367045283317566e+00 2.338198192883282900e-01
-9.343739882111549377e+00 7.901761576533317566e+00 2.332399853039532900e-01
-9.636220350861549377e+00 8.031156107783317566e+00 2.327059276867657900e-01
-9.915395155549049377e+00 8.142362162470817566e+00 2.324770458508282900e-01
-7.954091444611549377e+00 7.222562357783317566e+00 2.843264110852032900e-01
-8.183095350861549377e+00 7.325467631220817566e+00 2.847231396008282900e-01
-8.422475233674049377e+00 7.432767435908317566e+00 2.853945263195782900e-01
-8.674428358674049377e+00 7.545682474970817566e+00 2.860964306164532900e-01
-8.938100233674049377e+00 7.663724467158317566e+00 2.868288524914532900e-01
-9.216176405549049377e+00 7.788358256220817566e+00 2.876223095227032900e-01
-9.507924452424049377e+00 7.919095560908317566e+00 2.884310253430157900e-01
-9.789296522736549377e+00 8.034207865595817566e+00 2.897432812023907900e-01
-7.927968397736549377e+00 7.198514506220817566e+00 3.311556347180157900e-01
-8.170400038361549377e+00 7.314603373408317566e+00 3.328646190930157900e-01
-8.425282850861549377e+00 7.436917826533317566e+00 3.346651562023907900e-01
-8.694692030549049377e+00 7.566068217158317566e+00 3.365725048352032900e-01
-8.977773085236549377e+00 7.701810404658317566e+00 3.385714062023907900e-01
-9.074574843049049377e+00 7.662381693720817566e+00 3.406923778820782900e-01
-9.570180311799049377e+00 7.976102396845817566e+00 3.429201610852032900e-01
-9.887685194611549377e+00 8.121732279658317566e+00 3.452700146008282900e-01
-8.006093397736549377e+00 7.276395365595817566e+00 3.784273632336407900e-01
-8.253041639924049377e+00 7.395780131220817566e+00 3.813570507336407900e-01
-8.498036757111549377e+00 7.507352396845817566e+00 3.843630321789532900e-01
-8.749745741486549377e+00 7.618924662470817566e+00 3.872316845227032900e-01
-9.012318983674049377e+00 7.735013529658317566e+00 3.904970653820782900e-01
-9.064931288361549377e+00 7.655301615595817566e+00 3.928316601086407900e-01
-9.570058241486549377e+00 7.977689310908317566e+00 3.977602489758282900e-01
-9.850575819611549377e+00 8.091214701533317566e+00 4.014070995617657900e-01
-7.952260389924049377e+00 7.225125834345817566e+00 4.251802929211407900e-01
-8.176625624299049377e+00 7.323514506220817566e+00 4.287813671398907900e-01
-8.410878553986549377e+00 7.426175639033317566e+00 4.328249462414532900e-01
-8.657094374299049377e+00 7.534085795283317566e+00 4.370668896008282900e-01
-8.914296522736549377e+00 7.646878764033317566e+00 4.414919384289532900e-01
-9.055287733674049377e+00 7.648343607783317566e+00 4.445589550305157900e-01
-9.502187147736549377e+00 7.919095560908317566e+00 4.514711864758282900e-01
-9.813954725861549377e+00 8.060941264033317566e+00 4.570864208508282900e-01
-7.113759413361549377e+00 5.682401224970817566e+00 -3.257504932116717100e-01
-7.162587538361549377e+00 5.630643412470817566e+00 -3.241788379382342100e-01
-7.208730116486549377e+00 5.576322123408317566e+00 -3.225156299304217100e-01
-7.254994764924049377e+00 5.521878764033317566e+00 -3.208524219226092100e-01
-7.301259413361549377e+00 5.467679545283317566e+00 -3.192044727038592100e-01
-7.347524061799049377e+00 5.413236185908317566e+00 -3.175412646960467100e-01
-7.393788710236549377e+00 5.358914896845817566e+00 -3.158780566882342100e-01
-7.437123671174049377e+00 5.302274271845817566e+00 -3.141538135241717100e-01
-7.675526991486549377e+00 6.171659037470817566e+00 -3.407041064929217100e-01
-7.725697889924049377e+00 6.112821146845817566e+00 -3.389188281726092100e-01
-7.775990858674049377e+00 6.053983256220817566e+00 -3.371182910632342100e-01
-7.829701796174049377e+00 5.997586771845817566e+00 -3.354093066882342100e-01
-7.879994764924049377e+00 5.938748881220817566e+00 -3.336087695788592100e-01
-7.926991835236549377e+00 5.876859232783317566e+00 -3.317166797351092100e-01
-7.977284803986549377e+00 5.818021342158317566e+00 -3.299161426257342100e-01
-8.027577772736549377e+00 5.759061381220817566e+00 -3.281156055163592100e-01
-8.344228163361549377e+00 6.753934428095817566e+00 -3.585111133288592100e-01
-8.399281874299049377e+00 6.689603373408317566e+00 -3.565579883288592100e-01
-8.454335585236549377e+00 6.625272318720817566e+00 -3.545896045397967100e-01
-8.509755507111549377e+00 6.560575053095817566e+00 -3.526212207507342100e-01
-8.564809218049049377e+00 6.496243998408317566e+00 -3.506528369616717100e-01
-8.620229139924049377e+00 6.431546732783317566e+00 -3.486844531726092100e-01
-8.675404921174049377e+00 6.367093607783317566e+00 -3.467160693835467100e-01
-8.730580702424049377e+00 6.302640482783317566e+00 -3.447476855944842100e-01
-9.054555311799049377e+00 7.372708842158317566e+00 -3.719541064929217100e-01
-9.119740858674049377e+00 7.306668803095817566e+00 -3.699552051257342100e-01
-9.181142225861549377e+00 7.237332865595817566e+00 -3.678952686022967100e-01
-9.242909803986549377e+00 7.167752787470817566e+00 -3.658353320788592100e-01
-9.304311171174049377e+00 7.098294779658317566e+00 -3.637753955554217100e-01
-9.366078749299049377e+00 7.028714701533317566e+00 -3.617002002429217100e-01
-9.427724257111549377e+00 6.959134623408317566e+00 -3.596402637194842100e-01
-9.488026991486549377e+00 6.888700053095817566e+00 -3.577634326647967100e-01
-1.000548304617404938e+01 8.200711771845817566e+00 -3.953916064929217100e-01
-1.008727015554904938e+01 8.135282084345817566e+00 -3.941403857897967100e-01
-1.016942347586154938e+01 8.069486185908317566e+00 -3.928891650866717100e-01
-1.025206507742404938e+01 8.003202006220817566e+00 -3.916226855944842100e-01
-1.033470667898654938e+01 7.937039896845817566e+00 -3.903562061022967100e-01
-1.041795863211154938e+01 7.870267435908317566e+00 -3.890897266101092100e-01
-1.048473109304904938e+01 7.790677592158317566e+00 -3.865872852038592100e-01
-1.053099574148654938e+01 7.695218607783317566e+00 -3.826047412585467100e-01
-1.108788050711154938e+01 9.143460795283317566e+00 -4.170896045397967100e-01
-1.118248499929904938e+01 9.073270365595817566e+00 -4.154874316882342100e-01
-1.127086390554904938e+01 8.997098490595817566e+00 -4.137479297351092100e-01
-1.135985316336154938e+01 8.920560404658317566e+00 -4.119931689929217100e-01
-1.144872035086154938e+01 8.844022318720817566e+00 -4.102536670397967100e-01
-1.155125941336154938e+01 8.777493998408317566e+00 -4.093839160632342100e-01
-1.165697230398654938e+01 8.713040873408317566e+00 -4.087125293444842100e-01
-1.175499476492404938e+01 8.641995951533317566e+00 -4.078427783679217100e-01
-1.526353968679904938e+01 1.277639536559581757e+01 -6.309567920397967100e-01
-1.542528285086154938e+01 1.270303110778331757e+01 -6.309262744616717100e-01
-1.698729456961154938e+01 1.380532602965831757e+01 -7.218839160632342100e-01
-1.727892054617404938e+01 1.381557993590831757e+01 -7.290097705554217100e-01
-1.755052699148654938e+01 1.380532602965831757e+01 -7.346555225085467100e-01
-1.315343226492404938e+01 1.005972056090831757e+01 -4.462033740710467100e-01
-1.209532679617404938e+01 9.059476420283317566e+00 -3.718015186022967100e-01
-1.329552210867404938e+01 9.833524271845817566e+00 -4.380094043444842100e-01
-1.526903285086154938e+01 1.278384165465831757e+01 -5.424710742663592100e-01
-1.696227015554904938e+01 1.402041392028331757e+01 -6.335507861804217100e-01
-1.517613734304904938e+01 1.228530649840831757e+01 -5.165463916491717100e-01
-1.760716761648654938e+01 1.409011606872081757e+01 -6.486417285632342100e-01
-1.799413050711154938e+01 1.416909556090831757e+01 -6.597806445788592100e-01
-1.840306605398654938e+01 1.425747446715831757e+01 -6.717893115710467100e-01
-1.208958949148654938e+01 9.057157084345817566e+00 -3.047086230944842100e-01
-1.911107386648654938e+01 1.432742075622081757e+01 -6.891843311022967100e-01
-1.526878871023654938e+01 1.278652720153331757e+01 -4.531308643054217100e-01
-1.726305140554904938e+01 1.428078989684581757e+01 -5.507108203601092100e-01
-1.761180628836154938e+01 1.433694224059581757e+01 -5.586301318835467100e-01
-1.793529261648654938e+01 1.436477427184581757e+01 -5.649014941882342100e-01
-1.826549281179904938e+01 1.439309458434581757e+01 -5.712949268054217100e-01
-1.860912074148654938e+01 1.442556528747081757e+01 -5.780850879382342100e-01
-1.208458460867404938e+01 9.055326029658317566e+00 -2.373715869616717100e-01
-1.938158167898654938e+01 1.453994517028331757e+01 -5.951749316882342100e-01
-1.526878871023654938e+01 1.278921274840831757e+01 -3.642941943835467100e-01
-1.556993617117404938e+01 1.283523325622081757e+01 -3.698331348132342100e-01
-1.524620570242404938e+01 1.234988169372081757e+01 -3.457242480944842100e-01
-1.812938441336154938e+01 1.452847056090831757e+01 -4.710446826647967100e-01
-1.545165003836154938e+01 1.210781626403331757e+01 -3.381101123522967100e-01
-1.882225550711154938e+01 1.459939341247081757e+01 -4.823056689929217100e-01
-1.208446253836154938e+01 9.057401224970817566e+00 -1.706906787585467100e-01
-1.977037562429904938e+01 1.484377817809581757e+01 -5.038510791491717100e-01
-1.494981898367404938e+01 1.251443247497081757e+01 -2.615720264147967100e-01
-1.502354945242404938e+01 1.237051157653331757e+01 -2.566129199694842100e-01
-1.799339808523654938e+01 1.466445688903331757e+01 -3.704587451647967100e-01
-1.523985804617404938e+01 1.214101938903331757e+01 -2.495481006335467100e-01
-1.867772425711154938e+01 1.473513559997081757e+01 -3.789578906726092100e-01
-1.545287074148654938e+01 1.190810923278331757e+01 -2.423306934069842100e-01
-1.208446253836154938e+01 9.059476420283317566e+00 -1.036588184069842100e-01
-2.017223109304904938e+01 1.515810923278331757e+01 -4.079343311022967100e-01
-1.485973109304904938e+01 1.243874888122081757e+01 -1.714536182116717100e-01
-1.491783656179904938e+01 1.228274302184581757e+01 -1.661435596179217100e-01
-1.533727015554904938e+01 1.243203501403331757e+01 -1.735440723132342100e-01
-1.571947230398654938e+01 1.254067759215831757e+01 -1.792966357897967100e-01
-1.581627406179904938e+01 1.241018442809581757e+01 -1.750852100085467100e-01
-1.595494593679904938e+01 1.231252817809581757e+01 -1.722775928210467100e-01
-1.208434046804904938e+01 9.061551615595817566e+00 -3.697791020385921001e-02
-2.041893519461154938e+01 1.535244517028331757e+01 -3.029080859851092100e-01
-1.526866663992404938e+01 1.279751352965831757e+01 -9.691443364135921001e-02
-1.521593226492404938e+01 1.254067759215831757e+01 -8.840002934448421001e-02
-1.503404749929904938e+01 1.217947153747081757e+01 -7.674231450073421001e-02
-1.514305628836154938e+01 1.206643442809581757e+01 -7.317175786010921001e-02
-1.547850550711154938e+01 1.213808970153331757e+01 -7.597937504760921001e-02
-1.972801722586154938e+01 1.533425669372081757e+01 -1.867887012194842100e-01
-1.208421839773654938e+01 9.063748881220817566e+00 3.003869135864078999e-02
-2.063890589773654938e+01 1.552627329528331757e+01 -1.937009326647967100e-01
-1.526866663992404938e+01 1.280032114684581757e+01 -8.123540086671710014e-03
-1.546190394461154938e+01 1.275405649840831757e+01 -6.307744188234210014e-03
-1.497166956961154938e+01 1.212966684997081757e+01 1.130089838989078999e-02
-1.508019007742404938e+01 1.201711802184581757e+01 1.491723139770328999e-02
-1.545323695242404938e+01 1.212026743590831757e+01 1.265893061645328999e-02
-1.988951624929904938e+01 1.546719126403331757e+01 -7.774939457885921001e-02
-1.208421839773654938e+01 9.065824076533317566e+00 9.668908198364078999e-02
-1.969652308523654938e+01 1.480105356872081757e+01 -5.821814457885921001e-02
-1.527269496023654938e+01 1.280666880309581757e+01 8.104882319457828999e-02
-1.542491663992404938e+01 1.272524790465831757e+01 8.365807612426578999e-02
-1.523290003836154938e+01 1.235244517028331757e+01 9.263024409301578999e-02
-1.868297328054904938e+01 1.500356821715831757e+01 4.081139643676578999e-02
-1.963084925711154938e+01 1.552480845153331757e+01 3.217492182739078999e-02
-2.005284632742404938e+01 1.560159067809581757e+01 3.254113276489078999e-02
-1.208409632742404938e+01 9.067899271845817566e+00 1.633242138195782900e-01
-2.109068812429904938e+01 1.588332895934581757e+01 3.153405268676578999e-02
-9.917226210236549377e+00 8.143460795283317566e+00 2.324617870617657900e-01
-1.021141566336154938e+01 8.261380717158317566e+00 2.323702343273907900e-01
-1.052061976492404938e+01 8.385282084345817566e+00 2.322634228039532900e-01
-1.084691371023654938e+01 8.516019389033317566e+00 2.321413524914532900e-01
-1.118932093679904938e+01 8.653226420283317566e+00 2.320345409680157900e-01
-1.155174769461154938e+01 8.798368021845817566e+00 2.319124706555157900e-01
-1.193321742117404938e+01 8.951200053095817566e+00 2.317751415539532900e-01
-1.231480921804904938e+01 9.095975443720817566e+00 2.318514354992657900e-01
-9.791005507111549377e+00 8.035306498408317566e+00 2.897432812023907900e-01
-1.009447230398654938e+01 8.162869974970817566e+00 2.906435497570782900e-01
-1.041759242117404938e+01 8.300321146845817566e+00 2.918795116711407900e-01
-1.075987757742404938e+01 8.445828959345817566e+00 2.931917675305157900e-01
-1.112059535086154938e+01 8.599149271845817566e+00 2.945803173352032900e-01
-1.150389613211154938e+01 8.762113139033317566e+00 2.960604198742657900e-01
-1.190916956961154938e+01 8.934476420283317566e+00 2.976168163586407900e-01
-1.231749476492404938e+01 9.100247904658317566e+00 2.997225292492657900e-01
-9.889516249299049377e+00 8.122830912470817566e+00 3.452852733898907900e-01
-1.020226038992404938e+01 8.257108256220817566e+00 3.479555614758282900e-01
-1.053209437429904938e+01 8.398587748408317566e+00 3.507936962414532900e-01
-1.087645472586154938e+01 8.544339701533317566e+00 3.537844188977032900e-01
-1.121458949148654938e+01 8.677762553095817566e+00 3.568972118664532900e-01
-1.157188929617404938e+01 8.818631693720817566e+00 3.601931103039532900e-01
-1.194774378836154938e+01 8.966947123408317566e+00 3.636415966320782900e-01
-1.232188929617404938e+01 9.105741068720817566e+00 3.672579296398907900e-01
-9.852284803986549377e+00 8.092191264033317566e+00 4.014223583508282900e-01
-1.013780726492404938e+01 8.203641459345817566e+00 4.054049022961407900e-01
-1.043724574148654938e+01 8.320584818720817566e+00 4.096010692883282900e-01
-1.075340785086154938e+01 8.444242045283317566e+00 4.136904247570782900e-01
-1.108421839773654938e+01 8.573392435908317566e+00 4.183138378430157900e-01
-1.144371546804904938e+01 8.718045756220817566e+00 4.236086376477032900e-01
-1.186034144461154938e+01 8.900174662470817566e+00 4.291323192883282900e-01
-1.228612269461154938e+01 9.080228373408317566e+00 4.348696239758282900e-01
-9.815785780549049377e+00 8.062161967158317566e+00 4.571016796398907900e-01
-1.013475550711154938e+01 8.202786967158317566e+00 4.625643261242657900e-01
-1.047252406179904938e+01 8.352078959345817566e+00 4.686373241711407900e-01
-1.083128871023654938e+01 8.510770365595817566e+00 4.751070507336407900e-01
-1.121056117117404938e+01 8.678372904658317566e+00 4.819277294445782900e-01
-1.161473597586154938e+01 8.857083842158317566e+00 4.892214306164532900e-01
-1.878648890554904938e+01 1.435964731872081757e+01 5.893038280773907900e-01
-2.207176722586154938e+01 1.666238169372081757e+01 6.385286815930157900e-01
-7.437367811799049377e+00 5.302274271845817566e+00 -3.141690723132342100e-01
-7.483998671174049377e+00 5.248197123408317566e+00 -3.125211230944842100e-01
-7.533070936799049377e+00 5.195828959345817566e+00 -3.113004199694842100e-01
-7.582631483674049377e+00 5.143460795283317566e+00 -3.100949756335467100e-01
-7.632192030549049377e+00 5.090970560908317566e+00 -3.089047900866717100e-01
-7.681874647736549377e+00 5.038358256220817566e+00 -3.076993457507342100e-01
-7.731679335236549377e+00 4.985745951533317566e+00 -3.064939014147967100e-01
-7.778676405549049377e+00 4.931058451533317566e+00 -3.052426807116717100e-01
-8.027943983674049377e+00 5.758939310908317566e+00 -3.281308643054217100e-01
-8.075551405549049377e+00 5.697904154658317566e+00 -3.262692920397967100e-01
-8.123280897736549377e+00 5.636868998408317566e+00 -3.244077197741717100e-01
-8.174672499299049377e+00 5.578153178095817566e+00 -3.226071826647967100e-01
-8.222524061799049377e+00 5.516995951533317566e+00 -3.207456103991717100e-01
-8.266957655549049377e+00 5.453153178095817566e+00 -3.187924853991717100e-01
-8.314809218049049377e+00 5.391995951533317566e+00 -3.169309131335467100e-01
-8.362660780549049377e+00 5.330716654658317566e+00 -3.150540820788592100e-01
-8.730824843049049377e+00 6.302518412470817566e+00 -3.447476855944842100e-01
-8.783315077424049377e+00 6.235868021845817566e+00 -3.427030078601092100e-01
-8.835805311799049377e+00 6.169217631220817566e+00 -3.406735889147967100e-01
-8.888417616486549377e+00 6.102201029658317566e+00 -3.386289111804217100e-01
-8.941029921174049377e+00 6.035428568720817566e+00 -3.365994922351092100e-01
-8.993764296174049377e+00 5.968411967158317566e+00 -3.345548145007342100e-01
-9.046376600861549377e+00 5.901639506220817566e+00 -3.325101367663592100e-01
-9.099110975861549377e+00 5.834744974970817566e+00 -3.304654590319842100e-01
-9.488515272736549377e+00 6.888577982783317566e+00 -3.577634326647967100e-01
-9.559682264924049377e+00 6.826200053095817566e+00 -3.563443652819842100e-01
-9.626698866486549377e+00 6.760282084345817566e+00 -3.548337451647967100e-01
-9.694081678986549377e+00 6.693875834345817566e+00 -3.533078662585467100e-01
-9.761464491486549377e+00 6.627469584345817566e+00 -3.517972461413592100e-01
-9.829213514924049377e+00 6.560819193720817566e+00 -3.502713672351092100e-01
-9.896840468049049377e+00 6.494046732783317566e+00 -3.487454883288592100e-01
-9.960072889924049377e+00 6.423978373408317566e+00 -3.471280566882342100e-01
-1.053111781179904938e+01 7.694852396845817566e+00 -3.825894824694842100e-01
-1.057420863211154938e+01 7.597440287470817566e+00 -3.785459033679217100e-01
-1.061717738211154938e+01 7.500394389033317566e+00 -3.745023242663592100e-01
-1.066637171804904938e+01 7.407865092158317566e+00 -3.709165088366717100e-01
-1.073094691336154938e+01 7.327298685908317566e+00 -3.684598437976092100e-01
-1.079601038992404938e+01 7.246366068720817566e+00 -3.660031787585467100e-01
-1.087230433523654938e+01 7.173734232783317566e+00 -3.643399707507342100e-01
-1.094884242117404938e+01 7.100736185908317566e+00 -3.626615039538592100e-01
-1.175560511648654938e+01 8.641873881220817566e+00 -4.078580371569842100e-01
-1.185497035086154938e+01 8.571073099970817566e+00 -4.064847461413592100e-01
-1.192870081961154938e+01 8.480252787470817566e+00 -4.037076465319842100e-01
-1.200267542898654938e+01 8.389066264033317566e+00 -4.009305469226092100e-01
-1.207640589773654938e+01 8.298123881220817566e+00 -3.981534473132342100e-01
-1.215721644461154938e+01 8.211453959345817566e+00 -3.957883350085467100e-01
-1.224583949148654938e+01 8.130399271845817566e+00 -3.939267627429217100e-01
-1.232738246023654938e+01 8.044095560908317566e+00 -3.919583789538592100e-01
-1.329625453054904938e+01 9.833524271845817566e+00 -4.380246631335467100e-01
-1.344371546804904938e+01 9.778958842158317566e+00 -4.387418262194842100e-01
-1.357506312429904938e+01 9.710477396845817566e+00 -4.383908740710467100e-01
-1.370470179617404938e+01 9.638944193720817566e+00 -4.378568164538592100e-01
-1.383495081961154938e+01 9.567044779658317566e+00 -4.373075000476092100e-01
-1.396666468679904938e+01 9.494290873408317566e+00 -4.367581836413592100e-01
-1.409898890554904938e+01 9.421292826533317566e+00 -4.361936084460467100e-01
-1.423228968679904938e+01 9.347562357783317566e+00 -4.356442920397967100e-01
-1.911290492117404938e+01 1.432803110778331757e+01 -6.892606250476092100e-01
-1.953099574148654938e+01 1.440224985778331757e+01 -7.009030811022967100e-01
-1.995836390554904938e+01 1.447561411559581757e+01 -7.120877734851092100e-01
-2.036327113211154938e+01 1.452358774840831757e+01 -7.222348682116717100e-01
-2.078673304617404938e+01 1.457839731872081757e+01 -7.330686084460467100e-01
-1.472569788992404938e+01 1.003408579528331757e+01 -4.015408984851092100e-01
-1.662987269461154938e+01 1.118411020934581757e+01 -4.931394092272967100e-01
-1.572398890554904938e+01 1.036941294372081757e+01 -4.372006885241717100e-01
-1.938438929617404938e+01 1.454128794372081757e+01 -5.952817432116717100e-01
-1.992052210867404938e+01 1.470168833434581757e+01 -6.108457080554217100e-01
-2.030492152273654938e+01 1.473782114684581757e+01 -6.185056201647967100e-01
-2.042186488211154938e+01 1.457021860778331757e+01 -6.129514209460467100e-01
-2.144798792898654938e+01 1.505874399840831757e+01 -6.507627002429217100e-01
-1.472569788992404938e+01 1.003677134215831757e+01 -3.224393359851092100e-01
-2.242491663992404938e+01 1.521890024840831757e+01 -6.732541553210467100e-01
-2.287267054617404938e+01 1.525832895934581757e+01 -6.820737353991717100e-01
-1.977330531179904938e+01 1.484524302184581757e+01 -5.039426318835467100e-01
-2.028856410086154938e+01 1.498476938903331757e+01 -5.159665576647967100e-01
-2.034496058523654938e+01 1.477139048278331757e+01 -5.077878467272967100e-01
-2.041783656179904938e+01 1.457095102965831757e+01 -5.003262988757342100e-01
-2.182005824148654938e+01 1.533083872497081757e+01 -5.488339893054217100e-01
-1.472569788992404938e+01 1.003933481872081757e+01 -2.433530322741717100e-01
-2.268993128836154938e+01 1.540737681090831757e+01 -5.625058643054217100e-01
-2.311144007742404938e+01 1.542556528747081757e+01 -5.683499805163592100e-01
-2.017552699148654938e+01 1.515969614684581757e+01 -4.080258838366717100e-01
-2.068944300711154938e+01 1.529299692809581757e+01 -4.174863330554217100e-01
-2.115160121023654938e+01 1.537734751403331757e+01 -4.246121875476092100e-01
-2.041380824148654938e+01 1.457168345153331757e+01 -3.871823779772967100e-01
-2.201732386648654938e+01 1.547695688903331757e+01 -4.357053271960467100e-01
-1.472569788992404938e+01 1.004189829528331757e+01 -1.638547412585467100e-01
-2.292918910086154938e+01 1.557790903747081757e+01 -4.472409717272967100e-01
-2.197679652273654938e+01 1.465383677184581757e+01 -4.034177295397967100e-01
-2.042198695242404938e+01 1.535391001403331757e+01 -3.029691211413592100e-01
-2.090367640554904938e+01 1.545950083434581757e+01 -3.090116016101092100e-01
-2.137450160086154938e+01 1.554763559997081757e+01 -3.143826953601092100e-01
-2.040977992117404938e+01 1.457241587340831757e+01 -2.746793262194842100e-01
-2.223521937429904938e+01 1.563808970153331757e+01 -3.216458789538592100e-01
-1.472569788992404938e+01 1.004458384215831757e+01 -8.478369633667171001e-02
-2.180540980398654938e+01 1.479958872497081757e+01 -2.893582812976092100e-01
-2.360374964773654938e+01 1.577065806090831757e+01 -3.327695361804217100e-01
-2.064195765554904938e+01 1.552773813903331757e+01 -1.937467090319842100e-01
-1.986705531179904938e+01 1.467544321715831757e+01 -1.645719043444842100e-01
-2.004161585867404938e+01 1.455581431090831757e+01 -1.613370410632342100e-01
-2.040575160086154938e+01 1.457314829528331757e+01 -1.622525684069842100e-01
-2.249718226492404938e+01 1.583108286559581757e+01 -2.062283984851092100e-01
-1.472569788992404938e+01 1.004714731872081757e+01 -5.712651414796710014e-03
-2.074962367117404938e+01 1.406826548278331757e+01 -1.450864307116717100e-01
-2.385851038992404938e+01 1.594924692809581757e+01 -2.107602588366717100e-01
-1.969701136648654938e+01 1.480056528747081757e+01 -5.820288578979671001e-02
-2.134740199148654938e+01 1.580434946715831757e+01 -8.440222661010921001e-02
-1.998338831961154938e+01 1.451589731872081757e+01 -4.866614262573421001e-02
-2.040172328054904938e+01 1.457375864684581757e+01 -4.927649418823421001e-02
-2.031725062429904938e+01 1.426199106872081757e+01 -3.993811528198421001e-02
-1.472569788992404938e+01 1.004971079528331757e+01 7.375512202270328999e-02
-2.187743128836154938e+01 1.485757212340831757e+01 -5.385413090698421001e-02
-2.092809046804904938e+01 1.394790415465831757e+01 -2.857031743042171001e-02
-2.109398402273654938e+01 1.588491587340831757e+01 3.151879389770328999e-02
-2.155968226492404938e+01 1.596963267028331757e+01 3.153405268676578999e-02
-1.999083460867404938e+01 1.452505259215831757e+01 6.179223139770328999e-02
-2.012584437429904938e+01 1.437490610778331757e+01 6.687340815551578999e-02
-2.031151331961154938e+01 1.426150278747081757e+01 7.125268061645328999e-02
-1.472569788992404938e+01 1.005239634215831757e+01 1.527956493664532900e-01
-2.031651820242404938e+01 1.377383188903331757e+01 8.493981440551578999e-02
-1.543077601492404938e+01 1.018813852965831757e+01 1.540163524914532900e-01
-1.231688441336154938e+01 9.097074076533317566e+00 2.318361767102032900e-01
-1.268077601492404938e+01 9.220120951533317566e+00 2.324465282727032900e-01
-1.306322230398654938e+01 9.349515482783317566e+00 2.330873974133282900e-01
-1.346703089773654938e+01 9.486112162470817566e+00 2.337587841320782900e-01
-1.389110316336154938e+01 9.629544779658317566e+00 2.344759472180157900e-01
-1.434019984304904938e+01 9.781522318720817566e+00 2.352236278820782900e-01
-1.483360804617404938e+01 9.955716654658317566e+00 2.358644970227032900e-01
-1.527855433523654938e+01 1.008669809997081757e+01 2.371157177258282900e-01
-1.231981410086154938e+01 9.101468607783317566e+00 2.997225292492657900e-01
-1.270811976492404938e+01 9.243192240595817566e+00 3.015688427258282900e-01
-1.311864222586154938e+01 9.393338724970817566e+00 3.039034374523907900e-01
-1.355418910086154938e+01 9.552640482783317566e+00 3.063601024914532900e-01
-1.401378382742404938e+01 9.720609232783317566e+00 3.089693554211407900e-01
-1.449767054617404938e+01 9.895780131220817566e+00 3.117617138195782900e-01
-1.483849085867404938e+01 9.961698099970817566e+00 3.150118358898907900e-01
-1.536375941336154938e+01 1.014773325622081757e+01 3.185671337414532900e-01
-1.232396449148654938e+01 9.106961771845817566e+00 3.672731884289532900e-01
-1.268297328054904938e+01 9.226346537470817566e+00 3.712252147961407900e-01
-1.305992640554904938e+01 9.351712748408317566e+00 3.753908642102032900e-01
-1.345763148367404938e+01 9.484036967158317566e+00 3.797853954602032900e-01
-1.387498988211154938e+01 9.622830912470817566e+00 3.843935497570782900e-01
-1.432323206961154938e+01 9.774564310908317566e+00 3.892916210461407900e-01
-1.484581507742404938e+01 9.969388529658317566e+00 3.946474560070782900e-01
-1.530016078054904938e+01 1.010683970153331757e+01 3.999269970227032900e-01
-1.228844203054904938e+01 9.081571146845817566e+00 4.349001415539532900e-01
-1.268822230398654938e+01 9.232572123408317566e+00 4.408510692883282900e-01
-1.311095179617404938e+01 9.392240092158317566e+00 4.471376903820782900e-01
-1.355931605398654938e+01 9.561185404658317566e+00 4.534395702648907900e-01
-1.403465785086154938e+01 9.740628764033317566e+00 4.605043896008282900e-01
-2.045604456961154938e+01 1.413125376403331757e+01 5.227755077648907900e-01
-2.470433558523654938e+01 1.684927134215831757e+01 5.669191845227032900e-01
-2.076451624929904938e+01 1.385452036559581757e+01 5.341280468273907900e-01
-2.207457484304904938e+01 1.666360239684581757e+01 6.385744579602032900e-01
-2.254027308523654938e+01 1.673586802184581757e+01 6.485537060070782900e-01
-2.299547328054904938e+01 1.679165415465831757e+01 6.591585644055157900e-01
-2.001610316336154938e+01 1.431228403747081757e+01 6.203402050305157900e-01
-2.060484828054904938e+01 1.449184946715831757e+01 6.325014599133282900e-01
-2.038670863211154938e+01 1.408559946715831757e+01 6.329134472180157900e-01
-2.051122035086154938e+01 1.392788462340831757e+01 6.383150585461407900e-01
-2.425096644461154938e+01 1.624831919372081757e+01 6.992128856945782900e-01
-7.778798475861549377e+00 4.930936381220817566e+00 -3.052426807116717100e-01
-7.829213514924049377e+00 4.878324076533317566e+00 -3.040372363757342100e-01
-7.876820936799049377e+00 4.823636576533317566e+00 -3.027860156726092100e-01
-7.924672499299049377e+00 4.768704935908317566e+00 -3.015195361804217100e-01
-7.972524061799049377e+00 4.713773295283317566e+00 -3.002683154772967100e-01
-8.020741835236549377e+00 4.658475443720817566e+00 -2.990018359851092100e-01
-8.068715468049049377e+00 4.603299662470817566e+00 -2.977353564929217100e-01
-8.114003553986549377e+00 4.546170756220817566e+00 -2.964383594226092100e-01
-8.362904921174049377e+00 5.330594584345817566e+00 -3.150540820788592100e-01
-8.408070936799049377e+00 5.267484232783317566e+00 -3.131314746569842100e-01
-8.457875624299049377e+00 5.207425639033317566e+00 -3.115903369616717100e-01
-8.513783827424049377e+00 5.150662943720817566e+00 -3.102933398913592100e-01
-8.566274061799049377e+00 5.091825053095817566e+00 -3.089505664538592100e-01
-8.615712538361549377e+00 5.030423685908317566e+00 -3.075467578601092100e-01
-8.668446913361549377e+00 4.971219584345817566e+00 -3.061887256335467100e-01
-8.721303358674049377e+00 4.912015482783317566e+00 -3.048306934069842100e-01
-9.099355116486549377e+00 5.834500834345817566e+00 -3.304654590319842100e-01
-9.149037733674049377e+00 5.765653178095817566e+00 -3.283597461413592100e-01
-9.198964491486549377e+00 5.696561381220817566e+00 -3.262540332507342100e-01
-9.249013319611549377e+00 5.627347514033317566e+00 -3.241483203601092100e-01
-9.298818007111549377e+00 5.558255717158317566e+00 -3.220426074694842100e-01
-9.348988905549049377e+00 5.488797709345817566e+00 -3.199216357897967100e-01
-9.399037733674049377e+00 5.419583842158317566e+00 -3.178006641101092100e-01
-9.101308241486549377e+00 5.141507670283317566e+00 -2.897550098132342100e-01
-9.960317030549049377e+00 6.423734232783317566e+00 -3.471433154772967100e-01
-1.003038538992404938e+01 6.358060404658317566e+00 -3.456326953601092100e-01
-1.009593714773654938e+01 6.288846537470817566e+00 -3.440457812976092100e-01
-1.015782679617404938e+01 6.216580912470817566e+00 -3.421689502429217100e-01
-1.021349085867404938e+01 6.140409037470817566e+00 -3.398496143054217100e-01
-1.026939906179904938e+01 6.063993021845817566e+00 -3.375150195788592100e-01
-1.032518519461154938e+01 5.987699076533317566e+00 -3.351804248522967100e-01
-9.040883436799049377e+00 5.106717631220817566e+00 -2.403317920397967100e-01
-1.094933070242404938e+01 7.100614115595817566e+00 -3.626767627429217100e-01
-1.102318324148654938e+01 7.025540873408317566e+00 -3.609525195788592100e-01
-1.109740199148654938e+01 6.950101420283317566e+00 -3.592282764147967100e-01
-1.117198695242404938e+01 6.874173685908317566e+00 -3.574887744616717100e-01
-1.124669398367404938e+01 6.798368021845817566e+00 -3.557492725085467100e-01
-1.132188929617404938e+01 6.721829935908317566e+00 -3.540097705554217100e-01
-1.139708460867404938e+01 6.645413920283317566e+00 -3.522550098132342100e-01
-9.004750624299049377e+00 5.086698099970817566e+00 -1.928769580554217100e-01
-1.232774867117404938e+01 8.043973490595817566e+00 -3.919583789538592100e-01
-1.242149867117404938e+01 7.965360209345817566e+00 -3.901578418444842100e-01
-1.250804652273654938e+01 7.881497904658317566e+00 -3.882352344226092100e-01
-1.259532679617404938e+01 7.796903178095817566e+00 -3.863126270007342100e-01
-1.268260706961154938e+01 7.712430521845817566e+00 -3.843747607897967100e-01
-1.277061976492404938e+01 7.627225443720817566e+00 -3.824216357897967100e-01
-1.285851038992404938e+01 7.541898295283317566e+00 -3.804685107897967100e-01
-8.980580702424049377e+00 5.073636576533317566e+00 -1.467648975085467100e-01
-1.423314417898654938e+01 9.347562357783317566e+00 -4.356595508288592100e-01
-1.436510218679904938e+01 9.271634623408317566e+00 -4.350797168444842100e-01
-1.446263636648654938e+01 9.171659037470817566e+00 -4.325009814929217100e-01
-1.457030238211154938e+01 9.077176615595817566e+00 -4.304410449694842100e-01
-1.467821253836154938e+01 8.982572123408317566e+00 -4.283811084460467100e-01
-1.478697718679904938e+01 8.887113139033317566e+00 -4.262906543444842100e-01
-1.489586390554904938e+01 8.791654154658317566e+00 -4.242154590319842100e-01
-8.963734999299049377e+00 5.064969584345817566e+00 -1.010495654772967100e-01
-1.572325648367404938e+01 1.036831431090831757e+01 -4.371243945788592100e-01
