-8.347291886806488037e+00 5.605786230415105820e+00 -2.897328612394574066e-01
-8.522706925868988037e+00 5.591870214790105820e+00 -2.881306883878949066e-01
-8.704103410243988037e+00 5.577465917915105820e+00 -2.864827391691449066e-01
-8.892579972743988037e+00 5.562451269477605820e+00 -2.847737547941449066e-01
-9.088991105556488037e+00 5.546948339790105820e+00 -2.829884764738324066e-01
-9.292726457118988037e+00 5.530835058540105820e+00 -2.811269042082074066e-01
-7.998781144618988037e+00 5.625073339790105820e+00 -2.554921385832074066e-01
-8.170778214931488037e+00 5.616772558540105820e+00 -2.535695311613324066e-01
-8.349855363368988037e+00 5.608227636665105820e+00 -2.513875243253949066e-01
-8.536622941493988037e+00 5.599316503852605820e+00 -2.490987059660199066e-01
-8.730348527431488037e+00 5.590039160102605820e+00 -2.467183348722699066e-01
-8.932130753993988037e+00 5.580395605415105820e+00 -2.442464110441449066e-01
-9.143190324306488037e+00 5.570385839790105820e+00 -2.416676756925824066e-01
-9.363038957118988037e+00 5.560009863227605820e+00 -2.387532469816449066e-01
-8.050783097743988037e+00 5.651196386665105820e+00 -2.184437987394574066e-01
-8.225343644618988037e+00 5.643383886665105820e+00 -2.156056639738324066e-01
-8.406740128993988037e+00 5.635327246040105820e+00 -2.126454588957074066e-01
-8.596071183681488037e+00 5.626904394477605820e+00 -2.095631835050824066e-01
-8.792482316493988037e+00 5.618115331977605820e+00 -2.063588378019574066e-01
-8.994630753993988037e+00 5.607983496040105820e+00 -2.030324217863324066e-01
-9.191774308681488037e+00 5.591504003852605820e+00 -1.996144530363324066e-01
-9.396120011806488037e+00 5.574536230415105820e+00 -1.960744139738324066e-01
-8.058229386806488037e+00 5.655957128852605820e+00 -1.810139891691449066e-01
-8.219972550868988037e+00 5.642163183540105820e+00 -1.777486083097699066e-01
-8.387086808681488037e+00 5.627636816352605820e+00 -1.741627928800824066e-01
-8.560792863368988037e+00 5.612622167915105820e+00 -1.704243895597699066e-01
-8.740480363368988037e+00 5.597119238227605820e+00 -1.665791747160199066e-01
-8.926881730556488037e+00 5.580883886665105820e+00 -1.625813719816449066e-01
-9.121095597743988037e+00 5.564160253852605820e+00 -1.584157225675824066e-01
-9.321779191493988037e+00 5.546582128852605820e+00 -1.538686034269574066e-01
-8.003786027431488037e+00 5.631054785102605820e+00 -1.444844481535199066e-01
-8.162965714931488037e+00 5.616772558540105820e+00 -1.404103514738324066e-01
-8.327760636806488037e+00 5.602002050727605820e+00 -1.361989256925824066e-01
-8.499147355556488037e+00 5.586621191352605820e+00 -1.318043944425824066e-01
-8.676149308681488037e+00 5.570752050727605820e+00 -1.272725340910199066e-01
-8.879030168056488037e+00 5.562329199165105820e+00 -1.223134276457074066e-01
-9.095338761806488037e+00 5.555004980415105820e+00 -1.170491454191449066e-01
-9.320680558681488037e+00 5.547558691352605820e+00 -1.115712401457074066e-01
-7.990358293056488037e+00 5.625927831977605820e+00 -1.075886962003949066e-01
-8.168580949306488037e+00 5.620678808540105820e+00 -1.025380370207074066e-01
-8.353517472743988037e+00 5.614941503852605820e+00 -9.748737784101990655e-02
-8.547365128993988037e+00 5.609326269477605820e+00 -9.199421377851990655e-02
-8.748781144618988037e+00 5.603344824165105820e+00 -8.627216788008240655e-02
-8.958986222743988037e+00 5.597119238227605820e+00 -8.032124014570740655e-02
-9.179689347743988037e+00 5.590771581977605820e+00 -7.383625479414490655e-02
-9.409181535243988037e+00 5.584057714790105820e+00 -6.732075186445740655e-02
-8.055543839931488037e+00 5.658276464790105820e+00 -6.904499502851990655e-02
-8.236207902431488037e+00 5.653515722602605820e+00 -6.338398428633240655e-02
-8.424806535243988037e+00 5.648632910102605820e+00 -5.726520987226990655e-02
-8.621950089931488037e+00 5.643628027290105820e+00 -5.085651846601990655e-02
-1.740979188680648804e+01 9.337719824165105820e+00 1.589060547761675934e-01
-1.514819520711898804e+01 8.193554785102605820e+00 1.086436036042925934e-01
-1.603332704305648804e+01 8.385693456977605820e+00 1.332407715730425934e-01
-1.572033876180648804e+01 8.084912206977605820e+00 1.294260743074175934e-01
-1.225183290243148804e+01 6.674511816352605820e+00 -1.036955761630082407e+00
-1.235119813680648804e+01 6.580395605415105820e+00 -1.036711621005082407e+00
-1.244934266805648804e+01 6.484448339790105820e+00 -1.036620068270707407e+00
-1.255847352743148804e+01 6.390820410102605820e+00 -1.037184643466019907e+00
-1.054089540243148804e+01 5.557080175727605820e+00 -8.949574706144574066e-01
-1.310156434774398804e+01 6.309033300727605820e+00 -1.059752392489457407e+00
-1.351294130086898804e+01 6.305615331977605820e+00 -1.079848217684769907e+00
-1.399853700399398804e+01 6.317822363227605820e+00 -1.104735302645707407e+00
-1.287695497274398804e+01 6.922192480415105820e+00 -1.020171093661332407e+00
-1.310437196493148804e+01 6.869702246040105820e+00 -1.027785229403519907e+00
-1.337500184774398804e+01 6.829174902290105820e+00 -1.037596630770707407e+00
-1.380591005086898804e+01 6.840405371040105820e+00 -1.057509350497269907e+00
-1.054138368368148804e+01 5.558789160102605820e+00 -8.470448729582074066e-01
-1.420593446493148804e+01 6.682690527290105820e+00 -1.067625927645707407e+00
-1.336377137899398804e+01 6.259106542915105820e+00 -1.009032177645707407e+00
-1.492895692586898804e+01 6.612622167915105820e+00 -1.096983837801957407e+00
-1.357715028524398804e+01 7.199536230415105820e+00 -1.001677441317582407e+00
-1.387097352743148804e+01 7.164379980415105820e+00 -1.011916088778519907e+00
-1.405993837118148804e+01 7.084912206977605820e+00 -1.015761303622269907e+00
-1.351159852743148804e+01 6.736889746040105820e+00 -9.766988036222699066e-01
-1.054187196493148804e+01 5.560620214790105820e+00 -7.993764159269574066e-01
-1.420471376180648804e+01 6.684521581977605820e+00 -1.002303051669144907e+00
-1.347155946493148804e+01 6.296337988227605820e+00 -9.538106200285199066e-01
-1.588647645711898804e+01 6.916211035102605820e+00 -1.081755566317582407e+00
-1.400476258993148804e+01 7.369824316352605820e+00 -9.617299315519574066e-01
-1.406775087118148804e+01 7.241772558540105820e+00 -9.576710936613324066e-01
-1.459509462118148804e+01 7.285351660102605820e+00 -9.788197753019574066e-01
-1.347632020711898804e+01 6.726391699165105820e+00 -9.121541258878949066e-01
-1.054236024618148804e+01 5.562451269477605820e+00 -7.514638182707074066e-01
-1.420361512899398804e+01 6.686474706977605820e+00 -9.366597411222699066e-01
-1.339172548055648804e+01 6.272412206977605820e+00 -8.878926512785199066e-01
-1.639929383993148804e+01 7.080151464790105820e+00 -1.035017895419144907e+00
-1.451111024618148804e+01 7.571240331977605820e+00 -9.211110350675824066e-01
-1.403723329305648804e+01 7.232251074165105820e+00 -8.906697508878949066e-01
-1.400720399618148804e+01 7.069775488227605820e+00 -8.823689696378949066e-01
-1.344140809774398804e+01 6.715893652290105820e+00 -8.483266112394574066e-01
-1.054284852743148804e+01 5.564160253852605820e+00 -7.037953612394574066e-01
-1.420239442586898804e+01 6.688305761665105820e+00 -8.713673827238324066e-01
-1.331335633993148804e+01 6.248974706977605820e+00 -8.231496092863324066e-01
-1.409106630086898804e+01 6.355664160102605820e+00 -8.527821776457074066e-01
-1.400012391805648804e+01 7.372387792915105820e+00 -8.303212401457074066e-01
-1.390881532430648804e+01 7.185376074165105820e+00 -8.192891356535199066e-01
-1.397693055868148804e+01 7.060742285102605820e+00 -8.157338378019574066e-01
-1.340649598836898804e+01 6.705517675727605820e+00 -7.845143553800824066e-01
-1.054333680868148804e+01 5.565991308540105820e+00 -6.558827635832074066e-01
-1.420129579305648804e+01 6.690136816352605820e+00 -8.057393309660199066e-01
-1.430676454305648804e+01 6.575024511665105820e+00 -8.036336180753949066e-01
-1.535559266805648804e+01 6.756420996040105820e+00 -8.408192870207074066e-01
-1.395800966024398804e+01 7.357983496040105820e+00 -7.628926512785199066e-01
-1.452038758993148804e+01 7.421460058540105820e+00 -7.786397215910199066e-01
-1.394690126180648804e+01 7.051709081977605820e+00 -7.497548338957074066e-01
-1.337195008993148804e+01 6.695141699165105820e+00 -7.213734862394574066e-01
-1.054382508993148804e+01 5.567822363227605820e+00 -6.082143065519574066e-01
-1.360852235555648804e+01 6.492382910102605820e+00 -7.183369872160199066e-01
-1.429687684774398804e+01 6.574047949165105820e+00 -7.377766844816449066e-01
-1.374682801961898804e+01 6.251538183540105820e+00 -7.114247557707074066e-01
-1.391638368368148804e+01 7.343701269477605820e+00 -6.962575194425824066e-01
-1.391699403524398804e+01 7.192944433540105820e+00 -6.901540038175824066e-01
-1.391674989461898804e+01 7.042797949165105820e+00 -6.837147948332074066e-01
-1.448632997274398804e+01 7.098217871040105820e+00 -6.967305419035199066e-01
-1.054431337118148804e+01 5.569531347602605820e+00 -5.603017088957074066e-01
-1.408349794149398804e+01 6.654736425727605820e+00 -6.711262938566449066e-01
-1.428711122274398804e+01 6.573071386665105820e+00 -6.720113036222699066e-01
-1.398779481649398804e+01 6.329785253852605820e+00 -6.564931151457074066e-01
-1.387475770711898804e+01 7.329541113227605820e+00 -6.296986815519574066e-01
-1.387561219930648804e+01 7.179272558540105820e+00 -6.238545653410199066e-01
-1.459314149618148804e+01 7.296093847602605820e+00 -6.388539549894574066e-01
-1.380322450399398804e+01 6.854565527290105820e+00 -6.101369139738324066e-01
-1.054480165243148804e+01 5.571362402290105820e+00 -5.126332518644574066e-01
-1.365637391805648804e+01 6.512768652290105820e+00 -5.946492430753949066e-01
-1.361169618368148804e+01 6.354687597602605820e+00 -5.878438231535199066e-01
-1.533728212118148804e+01 6.757763769477605820e+00 -6.286916014738324066e-01
-1.450695985555648804e+01 7.581005956977605820e+00 -5.807484862394574066e-01
-1.413025087118148804e+01 7.278881933540105820e+00 -5.655812499113324066e-01
-1.438916200399398804e+01 7.222607519477605820e+00 -5.661153075285199066e-01
-1.555493348836898804e+01 7.487744238227605820e+00 -5.879811522550824066e-01
-1.054528993368148804e+01 5.573193456977605820e+00 -4.649647948332074066e-01
-1.395495790243148804e+01 6.615673925727605820e+00 -5.389241454191449066e-01
-1.354663270711898804e+01 6.335522558540105820e+00 -5.242451903410199066e-01
-1.354992860555648804e+01 6.195752050727605820e+00 -5.190419432707074066e-01
-1.543872255086898804e+01 7.950879003852605820e+00 -5.312184569425824066e-01
-1.454077333211898804e+01 7.438427831977605820e+00 -5.075062987394574066e-01
-1.383850282430648804e+01 7.020214941352605820e+00 -4.883565184660199066e-01
-1.367419618368148804e+01 6.812451269477605820e+00 -4.799184081144574066e-01
-1.054577821493148804e+01 5.574902441352605820e+00 -4.170369383878949066e-01
-1.389123719930648804e+01 6.596386816352605820e+00 -4.734334227628949066e-01
-1.390246766805648804e+01 6.454052831977605820e+00 -4.683827635832074066e-01
-1.532495301961898804e+01 6.758740331977605820e+00 -4.877156493253949066e-01
-1.433044618368148804e+01 7.515942480415105820e+00 -4.419850585050824066e-01
-1.414843934774398804e+01 7.290356542915105820e+00 -4.339436766691449066e-01
-1.379882997274398804e+01 7.007641699165105820e+00 -4.236745116300824066e-01
-1.363574403524398804e+01 6.800610449165105820e+00 -4.163045165128949066e-01
-1.054626649618148804e+01 5.576733496040105820e+00 -3.693684813566449066e-01
-1.371106141805648804e+01 6.537670996040105820e+00 -4.073628661222699066e-01
-1.089734071493148804e+01 5.473217871040105820e+00 -3.663624999113324066e-01
-1.113794130086898804e+01 5.437573339790105820e+00 -3.655080077238324066e-01
-9.383546769618988037e+00 5.564892675727605820e+00 -3.242329833097699066e-01
-9.599611222743988037e+00 5.548535253852605820e+00 -3.230885741300824066e-01
-9.825563371181488037e+00 5.531689550727605820e+00 -3.221577879972699066e-01
-1.006189149618148804e+01 5.513745214790105820e+00 -3.209065672941449066e-01
-1.030810731649398804e+01 5.495068456977605820e+00 -3.196248290128949066e-01
-1.056579774618148804e+01 5.475537206977605820e+00 -3.182667967863324066e-01
-1.079345887899398804e+01 5.440869238227605820e+00 -3.162373778410199066e-01
-1.102954286336898804e+01 5.404980566352605820e+00 -3.144063231535199066e-01
-9.294191300868988037e+00 5.531079199165105820e+00 -2.811269042082074066e-01
-9.520387589931488037e+00 5.519604589790105820e+00 -2.791737792082074066e-01
-9.757081925868988037e+00 5.507641699165105820e+00 -2.771138426847699066e-01
-1.000598329305648804e+01 5.495068456977605820e+00 -2.749470946378949066e-01
-1.026611512899398804e+01 5.482006933540105820e+00 -2.726887938566449066e-01
-1.053918641805648804e+01 5.468212988227605820e+00 -2.703236815519574066e-01
-1.078564637899398804e+01 5.440014746040105820e+00 -2.676839110441449066e-01
-1.103735536336898804e+01 5.409130956977605820e+00 -2.649373290128949066e-01
-9.364503800868988037e+00 5.560254003852605820e+00 -2.387379881925824066e-01
-9.593751847743988037e+00 5.549267675727605820e+00 -2.360219237394574066e-01
-9.834230363368988037e+00 5.537915136665105820e+00 -2.329396483488324066e-01
-1.008716005086898804e+01 5.525952246040105820e+00 -2.296895262785199066e-01
-1.035156434774398804e+01 5.513501074165105820e+00 -2.263020751066449066e-01
-1.061706727743148804e+01 5.496167089790105820e+00 -2.227467772550824066e-01
-1.086572450399398804e+01 5.467846777290105820e+00 -2.190694090910199066e-01
-1.110266298055648804e+01 5.431591894477605820e+00 -2.150105712003949066e-01
-9.397340714931488037e+00 5.574658300727605820e+00 -1.960591551847699066e-01
-9.609865128993988037e+00 5.556836035102605820e+00 -1.921986815519574066e-01
-9.831300675868988037e+00 5.538281347602605820e+00 -1.881856200285199066e-01
-1.006311219930648804e+01 5.518872167915105820e+00 -1.839894530363324066e-01
-1.030444520711898804e+01 5.498608496040105820e+00 -1.796101805753949066e-01
-1.055688661336898804e+01 5.477368261665105820e+00 -1.750325438566449066e-01
-1.078259462118148804e+01 5.442334081977605820e+00 -1.704854247160199066e-01
-1.101440614461898804e+01 5.405346777290105820e+00 -1.657857176847699066e-01
-9.323121964931488037e+00 5.546704199165105820e+00 -1.538533446378949066e-01
-9.532472550868988037e+00 5.528637792915105820e+00 -1.493825194425824066e-01
-9.750368058681488037e+00 5.509594824165105820e+00 -1.444997069425824066e-01
-9.978395402431488037e+00 5.489697363227605820e+00 -1.393880126066449066e-01
-1.023474305868148804e+01 5.475659277290105820e+00 -1.338643309660199066e-01
-1.051684755086898804e+01 5.465405371040105820e+00 -1.279286620207074066e-01
-1.077404969930648804e+01 5.441113378852605820e+00 -1.221150633878949066e-01
-1.103418153524398804e+01 5.413281347602605820e+00 -1.158742186613324066e-01
-9.322145402431488037e+00 5.547802831977605820e+00 -1.115407225675824066e-01
-9.558595597743988037e+00 5.540112402290105820e+00 -1.055745360441449066e-01
-9.806520402431488037e+00 5.532055761665105820e+00 -9.931843252851990655e-02
-1.006775087118148804e+01 5.523632910102605820e+00 -9.272663565351990655e-02
-1.034155458211898804e+01 5.514721777290105820e+00 -8.581440420820740655e-02
-1.062976258993148804e+01 5.505322363227605820e+00 -7.853596182539490655e-02
-1.087390321493148804e+01 5.475537206977605820e+00 -7.182209463789490655e-02
-1.431103700399398804e+01 6.454052831977605820e+00 -1.248066397383240655e-02
-9.410646378993988037e+00 5.584301855415105820e+00 -6.729023428633240655e-02
-9.651735246181488037e+00 5.577343847602605820e+00 -6.019489737226990655e-02
-1.451696962118148804e+01 7.290600683540105820e+00 3.895671395585509345e-02
-1.459082216024398804e+01 7.160962011665105820e+00 4.412944344804259345e-02
-1.540002626180648804e+01 7.289135839790105820e+00 6.437785653398009345e-02
-1.421740907430648804e+01 6.724438574165105820e+00 4.371745614335509345e-02
-1.418347352743148804e+01 6.563549902290105820e+00 4.689128426835509345e-02
-1.428955262899398804e+01 6.449414160102605820e+00 5.262858895585509345e-02
-1.572009462118148804e+01 8.084179785102605820e+00 1.294260743074175934e-01
-1.488391298055648804e+01 7.590893652290105820e+00 1.122599366121050934e-01
-1.451501649618148804e+01 7.292187597602605820e+00 1.066447022371050934e-01
-1.456884950399398804e+01 7.155346777290105820e+00 1.114512207917925934e-01
-1.535449403524398804e+01 7.275586035102605820e+00 1.347971680574175934e-01
-1.474438661336898804e+01 6.905590917915105820e+00 1.227732422761675934e-01
-1.418664735555648804e+01 6.566845800727605820e+00 1.118021729402300934e-01
-1.426819032430648804e+01 6.444897558540105820e+00 1.175394776277300934e-01
-1.400195497274398804e+01 6.318432714790105820e+00 -1.104948925692582407e+00
-1.377807801961898804e+01 6.105664160102605820e+00 -1.083052563387894907e+00
-1.469018739461898804e+01 6.230786230415105820e+00 -1.134901928622269907e+00
-1.524829286336898804e+01 6.236889746040105820e+00 -1.163206982333207407e+00
-1.361718934774398804e+01 5.639111425727605820e+00 -1.052382397372269907e+00
-1.322021669149398804e+01 5.398266699165105820e+00 -1.020796704012894907e+00
-1.316748231649398804e+01 5.252026464790105820e+00 -1.011061596591019907e+00
-1.310571473836898804e+01 5.105908300727605820e+00 -1.001204418856644907e+00
-1.493078798055648804e+01 6.612622167915105820e+00 -1.097060131747269907e+00
-1.378381532430648804e+01 6.109570410102605820e+00 -1.020827221591019907e+00
-1.374109071493148804e+01 5.955395605415105820e+00 -1.011259960848832407e+00
-1.635058778524398804e+01 6.549878027290105820e+00 -1.158690380770707407e+00
-1.358667176961898804e+01 5.632885839790105820e+00 -9.889821288175824066e-01
-1.684179872274398804e+01 6.343457128852605820e+00 -1.171416210848832407e+00
-1.696667665243148804e+01 6.203076269477605820e+00 -1.170912670809769907e+00
-1.333508485555648804e+01 5.162915136665105820e+00 -9.556111571378949066e-01
-1.588891786336898804e+01 6.916455175727605820e+00 -1.081862377841019907e+00
-1.621362489461898804e+01 6.849560644477605820e+00 -1.092207836825394907e+00
-1.654773133993148804e+01 6.779370214790105820e+00 -1.102782177645707407e+00
-1.364612001180648804e+01 5.789868261665105820e+00 -9.374226805753949066e-01
-1.355639833211898804e+01 5.626904394477605820e+00 -9.262227294035199066e-01
-1.712487977743148804e+01 6.419873144477605820e+00 -1.110106396395707407e+00
-1.725500673055648804e+01 6.277783300727605820e+00 -1.108946728426957407e+00
-1.333581727743148804e+01 5.165112402290105820e+00 -8.958882567472699066e-01
-1.640210145711898804e+01 7.080395605415105820e+00 -1.035139965731644907e+00
-1.421399110555648804e+01 6.244580175727605820e+00 -9.166859862394574066e-01
-1.689673036336898804e+01 6.884228613227605820e+00 -1.044188427645707407e+00
-1.331030458211898804e+01 5.697216894477605820e+00 -8.588856932707074066e-01
-1.352624696493148804e+01 5.620800878852605820e+00 -8.634328124113324066e-01
-1.736865419149398804e+01 6.486157324165105820e+00 -1.043791699130082407e+00
-1.732629579305648804e+01 6.298413183540105820e+00 -1.033827709872269907e+00
-1.333667176961898804e+01 5.167431738227605820e+00 -8.364857909269574066e-01
-1.409143251180648804e+01 6.355297949165105820e+00 -8.527821776457074066e-01
-1.701233094930648804e+01 7.097485449165105820e+00 -9.798115965910199066e-01
-1.349743837118148804e+01 5.890332128852605820e+00 -8.132924315519574066e-01
-1.333825868368148804e+01 5.707104589790105820e+00 -8.001546141691449066e-01
-1.705078309774398804e+01 6.580151464790105820e+00 -9.585713622160199066e-01
-1.732116883993148804e+01 6.476513769477605820e+00 -9.628438231535199066e-01
-1.821643251180648804e+01 6.523877050727605820e+00 -9.939412352628949066e-01
-1.333740419149398804e+01 5.169629003852605820e+00 -7.767476317472699066e-01
-1.535717958211898804e+01 6.756298925727605820e+00 -8.408650633878949066e-01
-1.369091981649398804e+01 6.089917089790105820e+00 -7.656850096769574066e-01
-1.352649110555648804e+01 5.900952246040105820e+00 -7.530965087003949066e-01
-1.336645692586898804e+01 5.717114355415105820e+00 -7.408589598722699066e-01
-1.659387391805648804e+01 6.458691503852605820e+00 -8.625325438566449066e-01
-1.769726747274398804e+01 6.577465917915105820e+00 -8.984364745207074066e-01
-1.859753602743148804e+01 6.622265722602605820e+00 -9.255360838957074066e-01
-1.333825868368148804e+01 5.171948339790105820e+00 -7.173451659269574066e-01
-1.374670594930648804e+01 6.251049902290105820e+00 -7.113942381925824066e-01
-1.372070497274398804e+01 6.101025488227605820e+00 -7.046345946378949066e-01
-1.355542176961898804e+01 5.911572363227605820e+00 -6.929616210050824066e-01
-1.620141786336898804e+01 6.520581152290105820e+00 -7.803029295988324066e-01
-1.848584169149398804e+01 6.975781347602605820e+00 -8.528279540128949066e-01
-1.872705262899398804e+01 6.849316503852605820e+00 -8.533314940519574066e-01
-1.720239442586898804e+01 6.275586035102605820e+00 -7.938527342863324066e-01
-1.333899110555648804e+01 5.174145605415105820e+00 -6.576070067472699066e-01
-1.398828309774398804e+01 6.329419042915105820e+00 -6.564778563566449066e-01
-1.368347352743148804e+01 6.091870214790105820e+00 -6.412038085050824066e-01
-1.358471864461898804e+01 5.922314550727605820e+00 -6.322316405363324066e-01
-1.342309755086898804e+01 5.737378027290105820e+00 -6.217793700285199066e-01
-1.729040712118148804e+01 6.653393652290105820e+00 -7.321919676847699066e-01
-1.683459657430648804e+01 6.357495214790105820e+00 -7.116994139738324066e-01
-1.715612977743148804e+01 6.266674902290105820e+00 -7.146443602628949066e-01
-1.333972352743148804e+01 5.176464941352605820e+00 -5.981892821378949066e-01
-1.533886903524398804e+01 6.757763769477605820e+00 -6.287068602628949066e-01
-1.404016298055648804e+01 6.202710058540105820e+00 -5.882100340910199066e-01
-1.361389344930648804e+01 5.932934667915105820e+00 -5.715474364347699066e-01
-1.345141786336898804e+01 5.747509863227605820e+00 -5.620106932707074066e-01
-1.727466005086898804e+01 6.651806738227605820e+00 -6.530904051847699066e-01
-1.719299501180648804e+01 6.453930761665105820e+00 -6.442555663175824066e-01
-1.711242860555648804e+01 6.258374121040105820e+00 -6.355275389738324066e-01
-1.334057801961898804e+01 5.178662206977605820e+00 -5.384511229582074066e-01
-1.354980653524398804e+01 6.195263769477605820e+00 -5.190266844816449066e-01
-1.355310243368148804e+01 6.056347753852605820e+00 -5.138692137785199066e-01
-1.355627626180648804e+01 5.918164160102605820e+00 -5.087575194425824066e-01
-1.600134462118148804e+01 6.471630956977605820e+00 -5.545491454191449066e-01
-1.554712098836898804e+01 6.183911230415105820e+00 -5.391377684660199066e-01
-1.930151551961898804e+01 7.008496191352605820e+00 -6.085194823332074066e-01
-1.680883973836898804e+01 6.184765722602605820e+00 -5.521535155363324066e-01
-1.334131044149398804e+01 5.180981542915105820e+00 -4.790333983488324066e-01
-1.532653993368148804e+01 6.758740331977605820e+00 -4.877156493253949066e-01
-1.539587587118148804e+01 6.620556738227605820e+00 -4.831380126066449066e-01
-1.728405946493148804e+01 7.016796972602605820e+00 -5.084523436613324066e-01
-1.593567079305648804e+01 6.455517675727605820e+00 -4.803303954191449066e-01
-1.555224794149398804e+01 6.187817480415105820e+00 -4.684285399503949066e-01
-1.553393739461898804e+01 6.024731542915105820e+00 -4.624470946378949066e-01
-1.677307313680648804e+01 6.178418066352605820e+00 -4.752339598722699066e-01
-1.334216493368148804e+01 5.183178808540105820e+00 -4.192799803800824066e-01
-1.113952821493148804e+01 5.437695410102605820e+00 -3.655232665128949066e-01
-1.139013856649398804e+01 5.400586035102605820e+00 -3.645772215910199066e-01
-1.165161317586898804e+01 5.361767675727605820e+00 -3.636006590910199066e-01
-1.192566102743148804e+01 5.321240331977605820e+00 -3.625783202238324066e-01
-1.221106141805648804e+01 5.278881933540105820e+00 -3.614949462003949066e-01
-1.250976747274398804e+01 5.234570410102605820e+00 -3.603810545988324066e-01
-1.282373231649398804e+01 5.188061621040105820e+00 -3.592061278410199066e-01
-1.315185731649398804e+01 5.139355566352605820e+00 -3.579701659269574066e-01
-1.103112977743148804e+01 5.405102636665105820e+00 -3.144063231535199066e-01
-1.127673524618148804e+01 5.367627050727605820e+00 -3.124074217863324066e-01
-1.153357118368148804e+01 5.328808691352605820e+00 -3.105916258878949066e-01
-1.180188173055648804e+01 5.287915136665105820e+00 -3.084096190519574066e-01
-1.208142274618148804e+01 5.245312597602605820e+00 -3.061513182707074066e-01
-1.238122743368148804e+01 5.202832128852605820e+00 -3.038167235441449066e-01
-1.271106141805648804e+01 5.161694433540105820e+00 -3.011464354582074066e-01
-1.305639833211898804e+01 5.118481542915105820e+00 -2.986439940519574066e-01
-1.103906434774398804e+01 5.409375097602605820e+00 -2.649220702238324066e-01
-1.130224794149398804e+01 5.377148535102605820e+00 -2.619313475675824066e-01
-1.157776063680648804e+01 5.343579199165105820e+00 -2.587880370207074066e-01
-1.186718934774398804e+01 5.308300878852605820e+00 -2.554921385832074066e-01
-1.216980165243148804e+01 5.271313574165105820e+00 -2.520436522550824066e-01
-1.248755067586898804e+01 5.232617285102605820e+00 -2.484273192472699066e-01
-1.282263368368148804e+01 5.191723730415105820e+00 -2.446126219816449066e-01
-1.317407411336898804e+01 5.148877050727605820e+00 -2.405995604582074066e-01
-1.110424989461898804e+01 5.431713964790105820e+00 -2.149953124113324066e-01
-1.134961122274398804e+01 5.393383886665105820e+00 -2.111653563566449066e-01
-1.160498231649398804e+01 5.353466894477605820e+00 -2.068928954191449066e-01
-1.187219423055648804e+01 5.311474706977605820e+00 -2.024068114347699066e-01
-1.215039247274398804e+01 5.267895605415105820e+00 -1.977528807707074066e-01
-1.244116395711898804e+01 5.222363378852605820e+00 -1.928853270597699066e-01
-1.274633973836898804e+01 5.174511816352605820e+00 -1.877736327238324066e-01
-1.306433290243148804e+01 5.124462988227605820e+00 -1.821431395597699066e-01
-1.101587098836898804e+01 5.405346777290105820e+00 -1.657552001066449066e-01
-1.125683778524398804e+01 5.366772558540105820e+00 -1.606740233488324066e-01
-1.150793641805648804e+01 5.326611425727605820e+00 -1.553792235441449066e-01
-1.177441591024398804e+01 5.285595800727605820e+00 -1.498097655363324066e-01
-1.208252137899398804e+01 5.251294042915105820e+00 -1.437672850675824066e-01
-1.240661805868148804e+01 5.215161230415105820e+00 -1.374043700285199066e-01
-1.274890321493148804e+01 5.177075292915105820e+00 -1.306905028410199066e-01
-1.310852235555648804e+01 5.137158300727605820e+00 -1.236256835050824066e-01
-1.103589051961898804e+01 5.413403417915105820e+00 -1.158437010832074066e-01
-1.130749696493148804e+01 5.383984472602605820e+00 -1.096486327238324066e-01
-1.159277528524398804e+01 5.353344824165105820e+00 -1.028584715910199066e-01
-1.189319032430648804e+01 5.321118261665105820e+00 -9.570209952070740655e-02
-1.220776551961898804e+01 5.287426855415105820e+00 -8.822529288008240655e-02
-1.556445497274398804e+01 6.047436621040105820e+00 -4.049580069258240655e-02
-1.702966493368148804e+01 6.258984472602605820e+00 -1.620380850508240655e-02
-1.814990419149398804e+01 6.357739355415105820e+00 4.609179776167593445e-03
-1.431250184774398804e+01 6.453930761665105820e+00 -1.243488760664490655e-02
-1.530713075399398804e+01 6.610180761665105820e+00 8.286547940230093445e-03
-1.556701844930648804e+01 6.528759863227605820e+00 1.706035165116759345e-02
-1.492627137899398804e+01 6.185864355415105820e+00 1.036174325273009345e-02
-1.578308290243148804e+01 6.268017675727605820e+00 2.964885262773009345e-02
-1.706445497274398804e+01 6.444409277290105820e+00 5.703837899491759345e-02
-1.752453798055648804e+01 6.386547949165105820e+00 7.020671395585509345e-02
-1.717419618368148804e+01 6.124585058540105820e+00 6.858928231523009345e-02
-1.429101747274398804e+01 6.449414160102605820e+00 5.267436532304259345e-02
-1.519275087118148804e+01 6.577587988227605820e+00 7.600505379960509345e-02
-1.522656434774398804e+01 6.430615331977605820e+00 8.049113778398009345e-02
-1.476916688680648804e+01 6.143383886665105820e+00 7.449443368241759345e-02
-1.515759462118148804e+01 6.099072363227605820e+00 8.714396981523009345e-02
-1.706897157430648804e+01 6.448315527290105820e+00 1.345072510652300934e-01
-1.756201356649398804e+01 6.398877050727605820e+00 1.508036377839800934e-01
-1.803674501180648804e+01 6.336010839790105820e+00 1.664896729402300934e-01
-1.426965516805648804e+01 6.444897558540105820e+00 1.175852539949175934e-01
-1.549316591024398804e+01 6.672070410102605820e+00 1.531687500886675934e-01
-1.548791688680648804e+01 6.510205175727605820e+00 1.570444825105425934e-01
-1.540075868368148804e+01 6.325634863227605820e+00 1.586924317292925934e-01
-1.769763368368148804e+01 6.797680761665105820e+00 2.249918702058550934e-01
-1.739074891805648804e+01 6.535717871040105820e+00 2.211161377839800934e-01
-1.721570008993148804e+01 6.314038183540105820e+00 2.206888916902300934e-01
-1.801233094930648804e+01 6.332959081977605820e+00 2.477427246980425934e-01
-1.310522645711898804e+01 5.105420019477605820e+00 -1.001158642489457407e+00
-1.315210145711898804e+01 4.986035253852605820e+00 -9.978017088957074066e-01
-1.322448915243148804e+01 4.871899511665105820e+00 -9.962910887785199066e-01
-1.329760926961898804e+01 4.756420996040105820e+00 -9.947652098722699066e-01
-1.337109559774398804e+01 4.640454199165105820e+00 -9.932393309660199066e-01
-1.344519227743148804e+01 4.523632910102605820e+00 -9.916981932707074066e-01
-1.352002137899398804e+01 4.405590917915105820e+00 -9.901265379972699066e-01
-1.357946962118148804e+01 4.284253027290105820e+00 -9.879597899503949066e-01
-1.333484071493148804e+01 5.162304785102605820e+00 -9.555806395597699066e-01
-1.713269227743148804e+01 5.898510839790105820e+00 -1.164595532137894907e+00
-1.717810243368148804e+01 5.736889746040105820e+00 -1.159087109286332407e+00
-1.471240419149398804e+01 5.052441503852605820e+00 -1.014250683505082407e+00
-1.478540223836898804e+01 4.921826269477605820e+00 -1.011809277255082407e+00
-1.485888856649398804e+01 4.790234472602605820e+00 -1.009367871005082407e+00
-1.492480653524398804e+01 4.655957128852605820e+00 -1.006789135653519907e+00
-1.499914735555648804e+01 4.522778417915105820e+00 -1.004317211825394907e+00
-1.333569520711898804e+01 5.164624121040105820e+00 -8.958577391691449066e-01
-1.727246278524398804e+01 5.933178808540105820e+00 -1.094237255770707407e+00
-1.723108094930648804e+01 5.751049902290105820e+00 -1.084563183505082407e+00
-1.758764833211898804e+01 5.652783300727605820e+00 -1.095213818270707407e+00
-1.772253602743148804e+01 5.504467871040105820e+00 -1.094389843661332407e+00
-1.804748719930648804e+01 5.389721777290105820e+00 -1.102995800692582407e+00
-1.862072938680648804e+01 5.312329199165105820e+00 -1.123625683505082407e+00
-1.862805360555648804e+01 5.130078222602605820e+00 -1.115981030184769907e+00
-1.333642762899398804e+01 5.166821386665105820e+00 -8.364552733488324066e-01
-1.724218934774398804e+01 5.929028417915105820e+00 -1.014555859286332407e+00
-1.858349794149398804e+01 6.049511816352605820e+00 -1.069807934481644907e+00
-1.891650575399398804e+01 5.932080175727605820e+00 -1.077238964755082407e+00
-1.859179872274398804e+01 5.679150488227605820e+00 -1.054305004794144907e+00
-1.810547059774398804e+01 5.403393652290105820e+00 -1.024367260653519907e+00
-1.839026063680648804e+01 5.274487402290105820e+00 -1.029509472567582407e+00
-1.870337098836898804e+01 5.145581152290105820e+00 -1.036147045809769907e+00
-1.333716005086898804e+01 5.169140722602605820e+00 -7.767171141691449066e-01
-1.721216005086898804e+01 5.924878027290105820e+00 -9.356068846769574066e-01
-1.876501649618148804e+01 6.092114355415105820e+00 -9.936055419035199066e-01
-1.909851258993148804e+01 5.972973730415105820e+00 -9.995869872160199066e-01
-1.925915712118148804e+01 5.814160253852605820e+00 -9.982289549894574066e-01
-1.816345399618148804e+01 5.417187597602605820e+00 -9.456471678800824066e-01
-1.856225770711898804e+01 5.307812597602605820e+00 -9.541768309660199066e-01
-1.853283876180648804e+01 5.120068456977605820e+00 -9.453725096769574066e-01
-1.333801454305648804e+01 5.171337988227605820e+00 -7.173146483488324066e-01
-1.880859559774398804e+01 6.293774511665105820e+00 -9.178303954191449066e-01
-1.899682801961898804e+01 6.145825292915105820e+00 -9.171284911222699066e-01
-1.848022645711898804e+01 5.847119238227605820e+00 -8.902882811613324066e-01
-1.849389833211898804e+01 5.665722753852605820e+00 -8.832539794035199066e-01
-1.822241395711898804e+01 5.431103613227605820e+00 -8.659962889738324066e-01
-1.854663270711898804e+01 5.307934667915105820e+00 -8.701466795988324066e-01
-1.928991883993148804e+01 5.249585058540105820e+00 -8.892812010832074066e-01
-1.333874696493148804e+01 5.173657324165105820e+00 -6.575764891691449066e-01
-1.885449403524398804e+01 6.307202246040105820e+00 -8.343037840910199066e-01
-1.882495301961898804e+01 6.111157324165105820e+00 -8.257741210050824066e-01
-1.917395204305648804e+01 5.994824316352605820e+00 -8.294514891691449066e-01
-1.844507020711898804e+01 5.658886816352605820e+00 -7.986592528410199066e-01
-1.951123231649398804e+01 5.676220800727605820e+00 -8.247670409269574066e-01
-1.853112977743148804e+01 5.308178808540105820e+00 -7.867116210050824066e-01
-1.849170106649398804e+01 5.119091894477605820e+00 -7.782124754972699066e-01
-1.333960145711898804e+01 5.175854589790105820e+00 -5.981587645597699066e-01
-1.887207216024398804e+01 6.314282324165105820e+00 -7.495564696378949066e-01
-1.909765809774398804e+01 6.173901464790105820e+00 -7.479848143644574066e-01
-1.837890809774398804e+01 5.831860449165105820e+00 -7.207478758878949066e-01
-1.888757508993148804e+01 5.749585058540105820e+00 -7.273701903410199066e-01
-2.107434266805648804e+01 5.973339941352605820e+00 -7.783345458097699066e-01
-1.827404969930648804e+01 5.265332128852605820e+00 -6.970662352628949066e-01
-1.847632020711898804e+01 5.119458105415105820e+00 -6.952962157316449066e-01
-1.334033387899398804e+01 5.178173925727605820e+00 -5.384206053800824066e-01
-1.710046571493148804e+01 5.909985449165105820e+00 -6.220082518644574066e-01
-1.900256532430648804e+01 6.156079199165105820e+00 -6.595601317472699066e-01
-1.832873719930648804e+01 5.824292089790105820e+00 -6.369466063566449066e-01
-1.835363954305648804e+01 5.646557714790105820e+00 -6.305379149503949066e-01
-1.828674501180648804e+01 5.451855566352605820e+00 -6.221455809660199066e-01
-1.949914735555648804e+01 5.486279394477605820e+00 -6.414174315519574066e-01
-1.846093934774398804e+01 5.119824316352605820e+00 -6.120747801847699066e-01
-1.334106630086898804e+01 5.180371191352605820e+00 -4.790028807707074066e-01
-1.705713075399398804e+01 5.902783300727605820e+00 -5.442036864347699066e-01
-1.404614442586898804e+01 5.070752050727605820e+00 -4.822072264738324066e-01
-1.827905458211898804e+01 5.816723730415105820e+00 -5.536183592863324066e-01
-1.825171083211898804e+01 5.629223730415105820e+00 -5.463704344816449066e-01
-1.823327821493148804e+01 5.444653417915105820e+00 -5.393208739347699066e-01
-1.816748231649398804e+01 5.252148535102605820e+00 -5.314778563566449066e-01
-1.931335633993148804e+01 5.265820410102605820e+00 -5.438069579191449066e-01
-1.334192079305648804e+01 5.182690527290105820e+00 -4.192647215910199066e-01
-1.701391786336898804e+01 5.895459081977605820e+00 -4.663991210050824066e-01
-1.404004091024398804e+01 5.071606542915105820e+00 -4.192952391691449066e-01
-1.822924989461898804e+01 5.809155371040105820e+00 -4.703206297941449066e-01
-1.886694520711898804e+01 5.754467871040105820e+00 -4.720296141691449066e-01
-1.817981141805648804e+01 5.437451269477605820e+00 -4.565572020597699066e-01
-1.842163270711898804e+01 5.300366308540105820e+00 -4.530019042082074066e-01
-2.169970887899398804e+01 5.669751074165105820e+00 -4.853963133878949066e-01
-1.315405458211898804e+01 5.139477636665105820e+00 -3.579854247160199066e-01
-1.348010438680648804e+01 5.084057714790105820e+00 -3.564595458097699066e-01
-1.377722352743148804e+01 5.016064550727605820e+00 -3.544301268644574066e-01
-1.409399598836898804e+01 4.945996191352605820e+00 -3.523701903410199066e-01
-1.442395204305648804e+01 4.872998144477605820e+00 -3.502339598722699066e-01
-1.476916688680648804e+01 4.796582128852605820e+00 -3.479756590910199066e-01
-1.513208192586898804e+01 4.716381933540105820e+00 -3.456258055753949066e-01
-1.551123231649398804e+01 4.632519628852605820e+00 -3.431538817472699066e-01
-1.305871766805648804e+01 5.118603613227605820e+00 -2.986439940519574066e-01
-1.342297548055648804e+01 5.073071386665105820e+00 -2.958974120207074066e-01
-1.373144716024398804e+01 5.008129980415105820e+00 -2.929982420988324066e-01
-1.406958192586898804e+01 4.943066503852605820e+00 -2.896870848722699066e-01
-1.442309755086898804e+01 4.875073339790105820e+00 -2.862233397550824066e-01
-1.479419130086898804e+01 4.803662206977605820e+00 -2.825764891691449066e-01
-1.518652528524398804e+01 4.728466894477605820e+00 -2.783803221769574066e-01
-1.559741395711898804e+01 4.649365331977605820e+00 -2.743520018644574066e-01
-1.317651551961898804e+01 5.148999121040105820e+00 -2.405843016691449066e-01
-1.340332216024398804e+01 5.070507910102605820e+00 -2.362202879972699066e-01
-1.380407899618148804e+01 5.026196386665105820e+00 -2.316426512785199066e-01
-1.411779969930648804e+01 4.955395605415105820e+00 -2.268513915128949066e-01
-1.444445985555648804e+01 4.881543066352605820e+00 -2.218617674894574066e-01
-1.478613466024398804e+01 4.804394628852605820e+00 -2.166585204191449066e-01
-1.514489930868148804e+01 4.723339941352605820e+00 -2.111806151457074066e-01
-1.551953309774398804e+01 4.638745214790105820e+00 -2.054585692472699066e-01
-1.306653016805648804e+01 5.124462988227605820e+00 -1.821126219816449066e-01
-1.340124696493148804e+01 5.072216894477605820e+00 -1.766347167082074066e-01
-1.368713563680648804e+01 5.002636816352605820e+00 -1.708821532316449066e-01
-1.401147645711898804e+01 4.935254003852605820e+00 -1.647328612394574066e-01
-1.437304872274398804e+01 4.869580175727605820e+00 -1.581868407316449066e-01
-1.475329774618148804e+01 4.800488378852605820e+00 -1.513051268644574066e-01
-1.515490907430648804e+01 4.727490331977605820e+00 -1.440266844816449066e-01
-1.557800477743148804e+01 4.651074316352605820e+00 -1.360005614347699066e-01
-1.311096376180648804e+01 5.137280371040105820e+00 -1.235951659269574066e-01
-1.347632020711898804e+01 5.091626074165105820e+00 -1.160420653410199066e-01
-1.380273622274398804e+01 5.030224706977605820e+00 -1.086415526457074066e-01
-1.415527528524398804e+01 4.967602636665105820e+00 -1.007680174894574066e-01
-1.768567079305648804e+01 5.533398535102605820e+00 -5.966083975508240655e-02
-2.552014344930648804e+01 6.842114355415105820e+00 2.987773446366759345e-02
-1.780615419149398804e+01 5.204663183540105820e+00 -4.724018545820740655e-02
-1.790600770711898804e+01 5.046460058540105820e+00 -4.057209463789490655e-02
-1.814966005086898804e+01 6.357006933540105820e+00 4.609179776167593445e-03
-1.729870790243148804e+01 5.977368261665105820e+00 -2.211498934769906555e-03
-1.402148622274398804e+01 5.080639746040105820e+00 -4.415791006758240655e-02
-1.865600770711898804e+01 5.916211035102605820e+00 2.845866708085509345e-02
-1.900378602743148804e+01 5.799755956977605820e+00 3.941447762773009345e-02
-1.759289735555648804e+01 5.343457128852605820e+00 2.349956063554259345e-02
-1.743225282430648804e+01 5.140454199165105820e+00 2.633769540116759345e-02
-2.333569520711898804e+01 5.966992285102605820e+00 1.266947510652300934e-01
-1.717480653524398804e+01 6.124096777290105820e+00 6.860454110429259345e-02
-1.802075380086898804e+01 6.147168066352605820e+00 8.969218758866759345e-02
-1.402002137899398804e+01 5.082470800727605820e+00 1.849467782304259345e-02
-1.788257020711898804e+01 5.756420996040105820e+00 9.777934579179259345e-02
-1.773278993368148804e+01 5.548413183540105820e+00 1.001139405183550934e-01
-1.763000673055648804e+01 5.353222753852605820e+00 1.032877686433550934e-01
-1.749109071493148804e+01 5.153759863227605820e+00 1.056528809480425934e-01
-2.806201356649398804e+01 6.770214941352605820e+00 3.293925049714800934e-01
-1.803650087118148804e+01 6.335400488227605820e+00 1.665049317292925934e-01
-1.799987977743148804e+01 6.145092871040105820e+00 1.708842041902300934e-01
-1.401867860555648804e+01 5.084423925727605820e+00 8.081157235429259345e-02
-1.765454286336898804e+01 5.711132910102605820e+00 1.725626709871050934e-01
-1.770617860555648804e+01 5.545971777290105820e+00 1.788798096589800934e-01
-1.765320008993148804e+01 5.360424902290105820e+00 1.826487305574175934e-01
-1.754187196493148804e+01 5.165600683540105820e+00 1.853190186433550934e-01
-1.776306337118148804e+01 5.030835058540105820e+00 1.959086182527300934e-01
-1.801208680868148804e+01 6.332348730415105820e+00 2.477579834871050934e-01
-1.799719423055648804e+01 6.147290136665105820e+00 2.519694092683550934e-01
-1.401721376180648804e+01 5.086254980415105820e+00 1.434336426667925934e-01
-1.760022157430648804e+01 5.702465917915105820e+00 2.506266358308550934e-01
-1.765478700399398804e+01 5.538403417915105820e+00 2.571116211824175934e-01
-1.770092958211898804e+01 5.372265722602605820e+00 2.633524659089800934e-01
-1.773889344930648804e+01 5.203808691352605820e+00 2.693796875886675934e-01
-2.947802919149398804e+01 7.019238378852605820e+00 6.269846680574175934e-01
-1.357983583211898804e+01 4.283886816352605820e+00 -9.879597899503949066e-01
-1.364160341024398804e+01 4.162182714790105820e+00 -9.856557128019574066e-01
-1.369677919149398804e+01 4.038647558540105820e+00 -9.832448241300824066e-01
-1.375256532430648804e+01 3.914013769477605820e+00 -9.808186766691449066e-01
-1.380847352743148804e+01 3.789013769477605820e+00 -9.783925292082074066e-01
-1.386462587118148804e+01 3.663281347602605820e+00 -9.759358641691449066e-01
-1.392138856649398804e+01 3.536328222602605820e+00 -9.734639403410199066e-01
-1.398925966024398804e+01 3.410107519477605820e+00 -9.719228026457074066e-01
-1.499975770711898804e+01 4.522412206977605820e+00 -1.004317211825394907e+00
-1.510962098836898804e+01 4.393750097602605820e+00 -1.004088329989457407e+00
-1.522973817586898804e+01 4.264843847602605820e+00 -1.003951000887894907e+00
-1.534155458211898804e+01 4.132153417915105820e+00 -1.003645825106644907e+00
-1.545446962118148804e+01 3.998242285102605820e+00 -1.003325390536332407e+00
-1.557653993368148804e+01 3.863476660102605820e+00 -1.003401684481644907e+00
-1.571216005086898804e+01 3.727490331977605820e+00 -1.004439282137894907e+00
-1.586352723836898804e+01 3.591259863227605820e+00 -1.005827831942582407e+00
-1.862793153524398804e+01 5.129467871040105820e+00 -1.115950512606644907e+00
-1.984485048055648804e+01 5.137036230415105820e+00 -1.167693066317582407e+00
-1.921362489461898804e+01 4.849926855415105820e+00 -1.129179882723832407e+00
-1.860730165243148804e+01 4.578930761665105820e+00 -1.092375683505082407e+00
-1.821154969930648804e+01 4.347851660102605820e+00 -1.066100048739457407e+00
-1.810327333211898804e+01 4.158520605415105820e+00 -1.053725170809769907e+00
-1.809887880086898804e+01 3.982373144477605820e+00 -1.046263622958207407e+00
-1.818701356649398804e+01 3.816113378852605820e+00 -1.043135571200394907e+00
-1.870569032430648804e+01 5.145337011665105820e+00 -1.036223339755082407e+00
-1.614782899618148804e+01 4.561108496040105820e+00 -9.156026122160199066e-01
-1.858349794149398804e+01 4.760693456977605820e+00 -1.015532421786332407e+00
-1.857666200399398804e+01 4.577710058540105820e+00 -1.007841992098832407e+00
-2.048779481649398804e+01 4.637768652290105820e+00 -1.082320141512894907e+00
-1.855493348836898804e+01 4.213818456977605820e+00 -9.922322508878949066e-01
-2.258252137899398804e+01 4.459912206977605820e+00 -1.154066967684769907e+00
-1.882690614461898804e+01 3.880322363227605820e+00 -9.893788573332074066e-01
-1.853283876180648804e+01 5.119458105415105820e+00 -9.453419920988324066e-01
-1.614074891805648804e+01 4.562573339790105820e+00 -8.437642333097699066e-01
-1.948608583211898804e+01 4.895947363227605820e+00 -9.680012938566449066e-01
-1.854626649618148804e+01 4.576489355415105820e+00 -9.240559813566449066e-01
-1.853955262899398804e+01 4.395092871040105820e+00 -9.165639159269574066e-01
-2.282751649618148804e+01 4.713086035102605820e+00 -1.071425366122269907e+00
-2.368713563680648804e+01 4.580761816352605820e+00 -1.094618725497269907e+00
-1.882849305868148804e+01 3.883496191352605820e+00 -9.056691405363324066e-01
-1.927710145711898804e+01 5.246777441352605820e+00 -8.888081786222699066e-01
-1.613379091024398804e+01 4.564038183540105820e+00 -7.716206786222699066e-01
-2.172741883993148804e+01 5.227978613227605820e+00 -9.576100585050824066e-01
-1.851257508993148804e+01 4.574780371040105820e+00 -8.400105712003949066e-01
-1.850915712118148804e+01 4.394116308540105820e+00 -8.327931639738324066e-01
-2.368713563680648804e+01 4.816723730415105820e+00 -9.973744628019574066e-01
-2.394629091024398804e+01 4.612011816352605820e+00 -9.967183348722699066e-01
-1.883020204305648804e+01 3.886670019477605820e+00 -8.223866698332074066e-01
-1.849133485555648804e+01 5.118359472602605820e+00 -7.781819579191449066e-01
-1.612683290243148804e+01 4.565503027290105820e+00 -6.999196288175824066e-01
-2.023022645711898804e+01 5.011425878852605820e+00 -8.157948729582074066e-01
-2.334582704305648804e+01 5.238598730415105820e+00 -8.994435545988324066e-01
-1.804541200399398804e+01 4.338330175727605820e+00 -7.371968504972699066e-01
-2.416931337118148804e+01 4.876660253852605820e+00 -9.051808592863324066e-01
-2.451294130086898804e+01 4.676220800727605820e+00 -9.056538817472699066e-01
-1.883178895711898804e+01 3.889843847602605820e+00 -7.386616942472699066e-01
-1.847595399618148804e+01 5.118725683540105820e+00 -6.952504393644574066e-01
-1.611987489461898804e+01 4.566845800727605820e+00 -6.282948729582074066e-01
-1.840783876180648804e+01 4.746655371040105820e+00 -6.792744872160199066e-01
-2.334387391805648804e+01 5.242016699165105820e+00 -7.941884276457074066e-01
-1.809546083211898804e+01 4.347607519477605820e+00 -6.579427001066449066e-01
-2.481372255086898804e+01 4.955761816352605820e+00 -8.118275878019574066e-01
-2.514099305868148804e+01 4.747021581977605820e+00 -8.108205077238324066e-01
-1.883337587118148804e+01 3.892895605415105820e+00 -6.553639647550824066e-01
-1.846057313680648804e+01 5.119091894477605820e+00 -6.120442626066449066e-01
-1.611291688680648804e+01 4.568310644477605820e+00 -5.563496825285199066e-01
-1.817529481649398804e+01 4.715283300727605820e+00 -5.926045653410199066e-01
-1.836596864461898804e+01 4.563549902290105820e+00 -5.897359129972699066e-01
-1.839636415243148804e+01 4.388623144477605820e+00 -5.836171385832074066e-01
-1.804968446493148804e+01 4.169506933540105820e+00 -5.702046629972699066e-01
-2.594641298055648804e+01 4.836987402290105820e+00 -7.129353758878949066e-01
-1.883508485555648804e+01 3.896069433540105820e+00 -5.716237303800824066e-01
-1.931225770711898804e+01 5.264965917915105820e+00 -5.437764403410199066e-01
-1.610595887899398804e+01 4.569775488227605820e+00 -4.848622557707074066e-01
-1.834961122274398804e+01 4.743847753852605820e+00 -5.145253417082074066e-01
-1.841760438680648804e+01 4.573559667915105820e+00 -5.089253661222699066e-01
-1.820080751180648804e+01 4.366650488227605820e+00 -4.990224120207074066e-01
-1.843945497274398804e+01 4.218090917915105820e+00 -4.960011717863324066e-01
-2.653772157430648804e+01 4.904370214790105820e+00 -6.051930663175824066e-01
-1.883667176961898804e+01 3.899243261665105820e+00 -4.883107420988324066e-01
-2.170239442586898804e+01 5.669506933540105820e+00 -4.854115721769574066e-01
-1.609900087118148804e+01 4.571240331977605820e+00 -4.130696532316449066e-01
-1.646631044149398804e+01 4.468823339790105820e+00 -4.114674803800824066e-01
-1.684912294149398804e+01 4.360913183540105820e+00 -4.097432372160199066e-01
-1.724841493368148804e+01 4.248364355415105820e+00 -4.079579588957074066e-01
-1.766699403524398804e+01 4.130444433540105820e+00 -4.060811278410199066e-01
-1.792505067586898804e+01 3.986767675727605820e+00 -4.023427245207074066e-01
-1.856884950399398804e+01 3.876294042915105820e+00 -4.020375487394574066e-01
-1.551379579305648804e+01 4.632397558540105820e+00 -3.431538817472699066e-01
-1.591198915243148804e+01 4.544262792915105820e+00 -3.404835936613324066e-01
