-1.274797849357128143e+01 1.273735262453556061e+01 -5.348004749976098537e-01
-1.321416501700878143e+01 1.301506258547306061e+01 -5.582074574194848537e-01
-1.351226072013378143e+01 1.310930086672306061e+01 -5.690259388647973537e-01
-1.375188474357128143e+01 1.313762117922306061e+01 -5.753735951147973537e-01
-1.399517087638378143e+01 1.316581942141056061e+01 -5.822400501929223537e-01
-1.428301267325878143e+01 1.323308016359806061e+01 -5.915173939429223537e-01
-1.242791013419628143e+01 1.281254793703556061e+01 -4.537763050757348537e-01
-1.276567868888378143e+01 1.296794344484806061e+01 -4.668683460913598537e-01
-1.312017087638378143e+01 1.313273836672306061e+01 -4.806775501929223537e-01
-1.336638669669628143e+01 1.317546297609806061e+01 -4.869489124976098537e-01
-1.360283689200878143e+01 1.320427156984806061e+01 -4.923963001929223537e-01
-1.384514646232128143e+01 1.323369051516056061e+01 -4.979810169897973537e-01
-1.409380368888378143e+01 1.326579500734806061e+01 -5.038098744116723537e-01
-1.445635251700878143e+01 1.340410067141056061e+01 -5.165357044897973537e-01
-1.270989255607128143e+01 1.312272860109806061e+01 -3.930158070288598537e-01
-1.296050290763378143e+01 1.317949129641056061e+01 -3.990277699194848537e-01
-1.320696286857128143e+01 1.322673250734806061e+01 -4.045514515601098537e-01
-1.345562009513378143e+01 1.327055574953556061e+01 -4.099835804663598537e-01
-1.369475583732128143e+01 1.330058504641056061e+01 -4.146680287085473537e-01
-1.393975095450878143e+01 1.333134676516056061e+01 -4.194745472632348537e-01
-1.428472165763378143e+01 1.345695711672306061e+01 -4.297894886694848537e-01
-1.463335447013378143e+01 1.357878328859806061e+01 -4.399976185522973537e-01
-1.280278806388378143e+01 1.322636629641056061e+01 -3.176984242163598537e-01
-1.305657224357128143e+01 1.328496004641056061e+01 -3.228253773413598537e-01
-1.320623044669628143e+01 1.322819735109806061e+01 -3.222150257788598537e-01
-1.354668454825878143e+01 1.336760164797306061e+01 -3.314923695288598537e-01
-1.378850583732128143e+01 1.339885164797306061e+01 -3.353986195288598537e-01
-1.409404782950878143e+01 1.348893953859806061e+01 -3.423413685522973537e-01
-1.445952634513378143e+01 1.363237215578556061e+01 -3.520764759741723537e-01
-1.377910642325878143e+01 1.275053621828556061e+01 -3.095349720679223537e-01
-1.289666013419628143e+01 1.333122469484806061e+01 -2.416181019507348537e-01
-1.315361814200878143e+01 1.339152742922306061e+01 -2.458295277319848537e-01
-1.320549802482128143e+01 1.322978426516056061e+01 -2.403363636694848537e-01
-1.363860349357128143e+01 1.346550203859806061e+01 -2.522992542944848537e-01
-1.389775876700878143e+01 1.351286531984806061e+01 -2.560529164038598537e-01
-1.428630857169628143e+01 1.368461824953556061e+01 -2.653607777319848537e-01
-1.463811521232128143e+01 1.381144930422306061e+01 -2.727307728491723537e-01
-1.382256345450878143e+01 1.279509188234806061e+01 -2.293042591772973537e-01
-1.299248532950878143e+01 1.343815828859806061e+01 -1.639203480444848537e-01
-1.325200681388378143e+01 1.349968172609806061e+01 -1.671399525366723537e-01
-1.320476560294628143e+01 1.323124910891056061e+01 -1.584729603491723537e-01
-1.373174314200878143e+01 1.356474520266056061e+01 -1.719617298804223537e-01
-1.409197263419628143e+01 1.371391512453556061e+01 -1.785687855444848537e-01
-1.446172361075878143e+01 1.386357332766056061e+01 -1.852368763647973537e-01
-1.482231931388378143e+01 1.399626375734806061e+01 -1.908215931616723537e-01
-1.518047361075878143e+01 1.411870028078556061e+01 -1.965283802710473537e-01
-1.308928708732128143e+01 1.354631258547306061e+01 -8.539861952885985374e-02
-1.334124021232128143e+01 1.359782625734806061e+01 -8.729070937260985374e-02
-1.320403318107128143e+01 1.323283602297306061e+01 -7.619756972417235374e-02
-1.389641599357128143e+01 1.373832918703556061e+01 -9.226507460698485374e-02
-1.428679685294628143e+01 1.391569735109806061e+01 -9.810919081792235374e-02
-1.464287595450878143e+01 1.404826571047306061e+01 -1.025647572241723537e-01
-1.496978025138378143e+01 1.414470125734806061e+01 -1.059064320288598537e-01
-1.529009275138378143e+01 1.422807528078556061e+01 -1.088361195288598537e-01
-1.318828611075878143e+01 1.365678621828556061e+01 -5.183165427297353745e-03
-8.194023415446281433e+00 8.065111413598060608e+00 1.339312144555151463e-01
-1.320330075919628143e+01 1.323430086672306061e+01 5.620057228952646255e-03
-1.409221677482128143e+01 1.394450594484806061e+01 -1.165289198979735374e-02
-1.347502927482128143e+01 1.308769442141056061e+01 9.984070900827646255e-03
-1.476177243888378143e+01 1.417045809328556061e+01 -1.645941054448485374e-02
-1.412175779044628143e+01 1.330815340578556061e+01 5.284363869577646255e-03
-1.395488767325878143e+01 1.293120028078556061e+01 1.544671738520264626e-02
-1.328374509513378143e+01 1.376347567141056061e+01 7.597833359614014626e-02
-8.208183571696281433e+00 8.081712976098060608e+00 1.826983042992651463e-01
-1.320256833732128143e+01 1.323588778078556061e+01 8.783441269770264626e-02
-1.426616697013378143e+01 1.412785555422306061e+01 7.240777695551514626e-02
-1.352031736075878143e+01 1.313640047609806061e+01 9.174066269770264626e-02
-1.353582029044628143e+01 1.293937899172306061e+01 9.639459336176514626e-02
-1.380242185294628143e+01 1.299455477297306061e+01 9.644036972895264626e-02
-1.417107419669628143e+01 1.314409090578556061e+01 9.480767929926514626e-02
-8.212700173258781433e+00 8.219042077660560608e+00 2.291765757836401463e-01
-1.042693357169628143e+01 1.046977449953556061e+01 2.021227427758276463e-01
-7.178520485758781433e+00 6.864671960473060608e+00 2.474871226586401463e-01
-7.363945290446281433e+00 6.948534265160560608e+00 2.473192759789526463e-01
-7.556572243571281433e+00 7.035570397973060608e+00 2.471666880883276463e-01
-7.758232399821281433e+00 7.126634851098060608e+00 2.469988414086401463e-01
-7.968071267008781433e+00 7.221483483910560608e+00 2.468157359398901463e-01
-8.186943337321281433e+00 7.320116296410560608e+00 2.468920298852026463e-01
-6.763115212321281433e+00 6.634691491723060608e+00 2.884111949242651463e-01
-6.931328102946281433e+00 6.710619226098060608e+00 2.890673228539526463e-01
-7.105278298258781433e+00 6.788255944848060608e+00 2.897539683617651463e-01
-7.286918923258781433e+00 6.869432702660560608e+00 2.904711314477026463e-01
-7.475517556071281433e+00 6.953783288598060608e+00 2.912188121117651463e-01
-7.672905251383781433e+00 7.042040124535560608e+00 2.919970103539526463e-01
-7.878227517008781433e+00 7.133714929223060608e+00 2.928057261742651463e-01
-8.092705056071281433e+00 7.229662194848060608e+00 2.936449595727026463e-01
-6.693168923258781433e+00 6.559252038598060608e+00 3.281298228539526463e-01
-6.877495095133781433e+00 6.653856530785560608e+00 3.295641490258276463e-01
-7.057426735758781433e+00 6.738817468285560608e+00 3.310442515648901463e-01
-7.248100563883781433e+00 6.830248132348060608e+00 3.323870250023901463e-01
-7.446953102946281433e+00 6.925829187035560608e+00 3.340044566430151463e-01
-7.656303688883781433e+00 7.026537194848060608e+00 3.359423228539526463e-01
-7.874443337321281433e+00 7.131395593285560608e+00 3.377276011742651463e-01
-8.103325173258781433e+00 7.241258874535560608e+00 3.396044322289526463e-01
-6.752128884196281433e+00 6.624925866723060608e+00 3.677721568383276463e-01
-6.931328102946281433e+00 6.712694421410560608e+00 3.698626109398901463e-01
-7.116386696696281433e+00 6.802416101098060608e+00 3.722429820336401463e-01
-7.310600563883781433e+00 6.896532312035560608e+00 3.747454234398901463e-01
-7.512993142008781433e+00 6.994554772973060608e+00 3.773546763695776463e-01
-7.725639626383781433e+00 7.097582116723060608e+00 3.801012584008276463e-01
-7.947807595133781433e+00 7.205248132348060608e+00 3.829699107445776463e-01
-8.176811501383781433e+00 7.314256921410560608e+00 3.861895152367651463e-01
-6.777031227946281433e+00 5.929491296410560608e+00 -3.366803578101098537e-01
-6.816093727946281433e+00 5.873338952660560608e+00 -3.342236927710473537e-01
-6.852714821696281433e+00 5.814989343285560608e+00 -3.317212513647973537e-01
-6.889335915446281433e+00 5.756517663598060608e+00 -3.292188099585473537e-01
-6.933403298258781433e+00 5.705492272973060608e+00 -3.275708607397973537e-01
-6.978691384196281433e+00 5.655321374535560608e+00 -3.260449818335473537e-01
-7.023857399821281433e+00 5.605394616723060608e+00 -3.245191029272973537e-01
-7.066459938883781433e+00 5.553270593285560608e+00 -3.229321888647973537e-01
-7.204033181071281433e+00 6.345140710473060608e+00 -3.449353626929223537e-01
-7.262871071696281433e+00 6.300951257348060608e+00 -3.443707874976098537e-01
-7.321831032633781433e+00 6.256517663598060608e+00 -3.438062123022973537e-01
-7.381645485758781433e+00 6.212206140160560608e+00 -3.430585316382348537e-01
-7.430473610758781433e+00 6.158006921410560608e+00 -3.414105824194848537e-01
-7.476616188883781433e+00 6.101122155785560608e+00 -3.396710804663598537e-01
-7.525444313883781433e+00 6.047045007348060608e+00 -3.380231312476098537e-01
-7.574272438883781433e+00 5.992845788598060608e+00 -3.363599232397973537e-01
-7.771904274821281433e+00 6.897753015160560608e+00 -3.619489124976098537e-01
-7.837089821696281433e+00 6.850389733910560608e+00 -3.613538197241723537e-01
-7.902397438883781433e+00 6.803026452660560608e+00 -3.607739857397973537e-01
-7.960624977946281433e+00 6.748338952660560608e+00 -3.594464710913598537e-01
-8.013847634196281433e+00 6.689256921410560608e+00 -3.576459339819848537e-01
-8.067314431071281433e+00 6.629930749535560608e+00 -3.558453968726098537e-01
-8.120415017008781433e+00 6.570848718285560608e+00 -3.540296009741723537e-01
-8.173637673258781433e+00 6.511888757348060608e+00 -3.522290638647973537e-01
-8.360893532633781433e+00 7.470995202660560608e+00 -3.738965443335473537e-01
-8.445854470133781433e+00 7.433275476098060608e+00 -3.742627552710473537e-01
-8.528129860758781433e+00 7.392137780785560608e+00 -3.745831898413598537e-01
-8.588554665446281433e+00 7.329637780785560608e+00 -3.728131703101098537e-01
-8.647148415446281433e+00 7.265917077660560608e+00 -3.709210804663598537e-01
-8.705864235758781433e+00 7.201830163598060608e+00 -3.689984730444848537e-01
-8.764457985758781433e+00 7.137987390160560608e+00 -3.670911244116723537e-01
-8.819511696696281433e+00 7.071214929223060608e+00 -3.651379994116723537e-01
-9.345634743571281433e+00 8.428880944848060608e+00 -4.129285267554223537e-01
-9.106254860758781433e+00 8.065599694848060608e+00 -3.841657093726098537e-01
-9.191582009196281433e+00 8.016893640160560608e+00 -3.839826039038598537e-01
-9.219536110758781433e+00 7.914110437035560608e+00 -3.788403919897973537e-01
-9.271660134196281433e+00 7.834764733910560608e+00 -3.758191517554223537e-01
-9.399711892008781433e+00 7.823290124535560608e+00 -3.791608265601098537e-01
-9.471245095133781433e+00 7.760545983910560608e+00 -3.777265003882348537e-01
-9.542900368571281433e+00 7.697801843285560608e+00 -3.762921742163598537e-01
-1.379668454825878143e+01 1.275480867922306061e+01 -7.229413441382348537e-01
-1.405352048575878143e+01 1.279423739016056061e+01 -7.318372181616723537e-01
-1.022039060294628143e+01 8.985155358910560608e+00 -4.139356068335473537e-01
-9.219536110758781433e+00 7.915575280785560608e+00 -3.267774037085473537e-01
-9.268120095133781433e+00 7.833177819848060608e+00 -3.235730580054223537e-01
-1.046807126700878143e+01 8.779711022973060608e+00 -4.094647816382348537e-01
-1.054839353263378143e+01 8.708910241723060608e+00 -4.077710560522973537e-01
-1.062419919669628143e+01 8.633959069848060608e+00 -4.060468128882348537e-01
-1.413555173575878143e+01 1.308659578859806061e+01 -6.657361439429223537e-01
-1.440886716544628143e+01 1.313627840578556061e+01 -6.750287464819848537e-01
-1.467339353263378143e+01 1.317253328859806061e+01 -6.834058216772973537e-01
-9.219414040446281433e+00 7.917040124535560608e+00 -2.750043324194848537e-01
-9.264702126383781433e+00 7.831590905785560608e+00 -2.716321400366723537e-01
-1.549956540763378143e+01 1.327934481203556061e+01 -7.092236927710473537e-01
-1.503228025138378143e+01 1.265251375734806061e+01 -6.649884632788598537e-01
-1.516301755607128143e+01 1.255949617922306061e+01 -6.633252552710473537e-01
-1.428496579825878143e+01 1.323417879641056061e+01 -5.916089466772973537e-01
-1.458184079825878143e+01 1.330424715578556061e+01 -6.013135365210473537e-01
-1.485283689200878143e+01 1.334392000734806061e+01 -6.085156849585473537e-01
-9.219414040446281433e+00 7.918504968285560608e+00 -2.229566029272973537e-01
-9.261162087321281433e+00 7.829881921410560608e+00 -2.194775990210473537e-01
-1.569036130607128143e+01 1.345268465578556061e+01 -6.315106800757348537e-01
-1.505022458732128143e+01 1.267094637453556061e+01 -5.800427845679223537e-01
-1.516838864982128143e+01 1.256682039797306061e+01 -5.774030140601098537e-01
-1.445830564200878143e+01 1.340519930422306061e+01 -5.166119984351098537e-01
-1.476030759513378143e+01 1.347734285891056061e+01 -5.252789906226098537e-01
-1.503606443107128143e+01 1.351872469484806061e+01 -5.320538929663598537e-01
-9.219291970133781433e+00 7.919969812035560608e+00 -1.711987904272973537e-01
-9.260551735758781433e+00 7.830980554223060608e+00 -1.678265980444848537e-01
-1.602996091544628143e+01 1.375920321047306061e+01 -5.607251576147973537e-01
-1.506975583732128143e+01 1.269072176516056061e+01 -4.945020130835473537e-01
-1.517375974357128143e+01 1.257414461672306061e+01 -4.909772328101098537e-01
-1.463518552482128143e+01 1.357975985109806061e+01 -4.400586537085473537e-01
-1.494243650138378143e+01 1.365410067141056061e+01 -4.476575306616723537e-01
-1.522417478263378143e+01 1.369816805422306061e+01 -4.535779408179223537e-01
-9.219169899821281433e+00 7.921434655785560608e+00 -1.194562367163598537e-01
-9.260551735758781433e+00 7.832445397973060608e+00 -1.162213734351098537e-01
-1.642437009513378143e+01 1.411479403078556061e+01 -4.886578968726098537e-01
-1.507439450919628143e+01 1.269743563234806061e+01 -4.084424427710473537e-01
-1.517278318107128143e+01 1.257597567141056061e+01 -4.046277455054223537e-01
-1.378057126700878143e+01 1.275114656984806061e+01 -3.095654896460473537e-01
-1.513042478263378143e+01 1.383659578859806061e+01 -3.675488880835473537e-01
-1.514556150138378143e+01 1.362687899172306061e+01 -3.593549183569848537e-01
-9.219169899821281433e+00 7.923021569848060608e+00 -6.743902480229735374e-02
-9.260429665446281433e+00 7.833910241723060608e+00 -6.434149062260985374e-02
-1.577532224357128143e+01 1.353691317141056061e+01 -3.626355580054223537e-01
-1.507903318107128143e+01 1.270414949953556061e+01 -3.218640736304223537e-01
-1.517021970450878143e+01 1.257634188234806061e+01 -3.177594593726098537e-01
-1.382390622794628143e+01 1.279582430422306061e+01 -2.293347767554223537e-01
-1.407476072013378143e+01 1.282939364016056061e+01 -2.324628285132348537e-01
-1.517742185294628143e+01 1.365959383547306061e+01 -2.712659290991723537e-01
-9.219047829508781433e+00 7.924486413598060608e+00 -1.571172988042235374e-02
-9.260429665446281433e+00 7.835375085473060608e+00 -1.275152480229735374e-02
-1.552043943107128143e+01 1.331157137453556061e+01 -2.610730580054223537e-01
-1.508367185294628143e+01 1.271086336672306061e+01 -2.357129505835473537e-01
-1.473687009513378143e+01 1.220402742922306061e+01 -2.144727162085473537e-01
-1.518193845450878143e+01 1.411931063234806061e+01 -1.965588978491723537e-01
-1.505779294669628143e+01 1.377238680422306061e+01 -1.843823841772973537e-01
-1.582769040763378143e+01 1.427421785891056061e+01 -2.049359730444848537e-01
-9.219047829508781433e+00 7.925951257348060608e+00 3.601556504145264626e-02
-9.260307595133781433e+00 7.836839929223060608e+00 3.883844101801514626e-02
-1.555632810294628143e+01 1.334636141359806061e+01 -1.726025990210473537e-01
-1.460576657950878143e+01 1.229289461672306061e+01 -1.327771595679223537e-01
-1.463408689200878143e+01 1.211747957766056061e+01 -1.269940785132348537e-01
-1.529180173575878143e+01 1.422892977297306061e+01 -1.088666371069848537e-01
-1.547356443107128143e+01 1.417289949953556061e+01 -1.072949818335473537e-01
-1.524187497794628143e+01 1.372551180422306061e+01 -9.347051894292235374e-02
-9.218925759196281433e+00 7.927416101098060608e+00 8.800225937739014626e-02
-9.260185524821281433e+00 7.838304772973060608e+00 9.068780625239014626e-02
-1.565312986075878143e+01 1.343583895266056061e+01 -8.494085585698485374e-02
-1.453972654044628143e+01 1.223710848391056061e+01 -4.752630507573485374e-02
-1.488579587638378143e+01 1.233793856203556061e+01 -5.085272109135985374e-02
-1.395623044669628143e+01 1.293181063234806061e+01 1.543145859614014626e-02
-1.546672849357128143e+01 1.416911531984806061e+01 -1.496404921635985374e-02
-1.447710447013378143e+01 1.300822664797306061e+01 1.425653183832764626e-02
-9.218803688883781433e+00 7.928880944848060608e+00 1.397142955102026463e-01
-9.260185524821281433e+00 7.839769616723060608e+00 1.422625132836401463e-01
-1.571477536857128143e+01 1.349382235109806061e+01 4.200989846140146255e-03
-1.509795407950878143e+01 1.273124910891056061e+01 2.347284043207764626e-02
-1.516558103263378143e+01 1.258293367922306061e+01 2.818780625239014626e-02
-1.417107419669628143e+01 1.314335848391056061e+01 9.482293808832764626e-02
-1.587334470450878143e+01 1.456096102297306061e+01 7.062249863520264626e-02
-1.450725583732128143e+01 1.303911043703556061e+01 9.937005722895264626e-02
-9.218803688883781433e+00 7.930345788598060608e+00 1.916857310570776463e-01
-9.260063454508781433e+00 7.841356530785560608e+00 1.940966197289526463e-01
-1.730303220450878143e+01 1.491899324953556061e+01 7.051568711176514626e-02
-1.509795407950878143e+01 1.273381258547306061e+01 1.103411265648901463e-01
-1.516570310294628143e+01 1.258561922609806061e+01 1.143541880883276463e-01
-8.188286110758781433e+00 7.320970788598060608e+00 2.468767710961401463e-01
-8.418266579508781433e+00 7.424974694848060608e+00 2.465868541039526463e-01
-8.658745095133781433e+00 7.533495202660560608e+00 2.465410777367651463e-01
-8.912040993571281433e+00 7.647753015160560608e+00 2.465105601586401463e-01
-9.177421852946281433e+00 7.767503991723060608e+00 2.464647837914526463e-01
-9.445854470133781433e+00 7.883348718285560608e+00 2.465258189477026463e-01
-9.707939431071281433e+00 7.988085046410560608e+00 2.467699595727026463e-01
-9.981865212321281433e+00 8.097215905785560608e+00 2.473192759789526463e-01
-8.094047829508781433e+00 7.230516687035560608e+00 2.936449595727026463e-01
-8.318168923258781433e+00 7.330492272973060608e+00 2.947130748070776463e-01
-8.552910134196281433e+00 7.435228601098060608e+00 2.958117076195776463e-01
-8.800102517008781433e+00 7.545458093285560608e+00 2.969713755883276463e-01
-9.058769509196281433e+00 7.660936608910560608e+00 2.981920787133276463e-01
-9.344780251383781433e+00 7.794481530785560608e+00 2.994432994164526463e-01
-9.620903298258781433e+00 7.913011804223060608e+00 3.008165904320776463e-01
-9.909111306071281433e+00 8.035814538598060608e+00 3.022814341820776463e-01
-8.104790017008781433e+00 7.242235437035560608e+00 3.396196910180151463e-01
-8.345512673258781433e+00 7.358080163598060608e+00 3.417711802758276463e-01
-8.598930642008781433e+00 7.480028405785560608e+00 3.440447398461401463e-01
-8.866508767008781433e+00 7.608568444848060608e+00 3.461809703148901463e-01
-9.148491188883781433e+00 7.744188562035560608e+00 3.486986705102026463e-01
-9.359184548258781433e+00 7.808885827660560608e+00 3.514147349633276463e-01
-9.716362282633781433e+00 7.998705163598060608e+00 3.543444224633276463e-01
-1.001030759513378143e+01 8.125170007348060608e+00 3.572130748070776463e-01
-8.178154274821281433e+00 7.315111413598060608e+00 3.862047740258276463e-01
-8.402641579508781433e+00 7.414232507348060608e+00 3.891649791039526463e-01
-8.637382790446281433e+00 7.517748132348060608e+00 3.925371714867651463e-01
-8.825004860758781433e+00 7.571581140160560608e+00 3.955584117211401463e-01
-8.854057595133781433e+00 7.477342858910560608e+00 3.972368785180151463e-01
-9.359062477946281433e+00 7.810472741723060608e+00 4.031572886742651463e-01
-9.663627907633781433e+00 7.953905358910560608e+00 4.074144908227026463e-01
-9.930473610758781433e+00 8.057665124535560608e+00 4.116869517602026463e-01
-7.066582009196281433e+00 5.553026452660560608e+00 -3.229169300757348537e-01
-7.111992165446281433e+00 5.503343835473060608e+00 -3.213910511694848537e-01
-7.155082985758781433e+00 5.451463952660560608e+00 -3.198193958960473537e-01
-7.198173806071281433e+00 5.399461999535560608e+00 -3.182324818335473537e-01
-7.241264626383781433e+00 5.347704187035560608e+00 -3.166455677710473537e-01
-7.284355446696281433e+00 5.295580163598060608e+00 -3.150586537085473537e-01
-7.327446267008781433e+00 5.243700280785560608e+00 -3.134717396460473537e-01
-7.367851540446281433e+00 5.189867272973060608e+00 -3.118237904272973537e-01
-7.574272438883781433e+00 5.992601647973060608e+00 -3.363446644507348537e-01
-7.620903298258781433e+00 5.936571374535560608e+00 -3.346356800757348537e-01
-7.667412087321281433e+00 5.880419030785560608e+00 -3.329266957007348537e-01
-7.717216774821281433e+00 5.826708093285560608e+00 -3.312940052710473537e-01
-7.763847634196281433e+00 5.770555749535560608e+00 -3.295697621069848537e-01
-7.807548806071281433e+00 5.711839929223060608e+00 -3.277844837866723537e-01
-7.854179665446281433e+00 5.655687585473060608e+00 -3.260754994116723537e-01
-7.900810524821281433e+00 5.599657312035560608e+00 -3.243512562476098537e-01
-8.173759743571281433e+00 6.511644616723060608e+00 -3.522290638647973537e-01
-8.224540993571281433e+00 6.450487390160560608e+00 -3.503522328101098537e-01
-8.275322243571281433e+00 6.389452233910560608e+00 -3.484906605444848537e-01
-8.326347634196281433e+00 6.328050866723060608e+00 -3.466138294897973537e-01
-8.377250954508781433e+00 6.266893640160560608e+00 -3.447522572241723537e-01
-8.428154274821281433e+00 6.205614343285560608e+00 -3.428754261694848537e-01
-8.479057595133781433e+00 6.144457116723060608e+00 -3.410138539038598537e-01
-8.529960915446281433e+00 6.083299890160560608e+00 -3.391522816382348537e-01
-8.819633767008781433e+00 7.070970788598060608e+00 -3.651379994116723537e-01
-8.879570290446281433e+00 7.008348718285560608e+00 -3.632459095679223537e-01
-8.936210915446281433e+00 6.942674890160560608e+00 -3.613080433569848537e-01
-8.992973610758781433e+00 6.876878991723060608e+00 -3.593701771460473537e-01
-9.049614235758781433e+00 6.811205163598060608e+00 -3.574323109351098537e-01
-9.106499001383781433e+00 6.745287194848060608e+00 -3.554944447241723537e-01
-9.163139626383781433e+00 6.679613366723060608e+00 -3.535565785132348537e-01
-9.216240212321281433e+00 6.611131921410560608e+00 -3.515729359351098537e-01
-9.543022438883781433e+00 7.697435632348060608e+00 -3.762769154272973537e-01
-9.612602517008781433e+00 7.632616296410560608e+00 -3.747815540991723537e-01
-9.682304665446281433e+00 7.567552819848060608e+00 -3.733014515601098537e-01
-9.752495095133781433e+00 7.502245202660560608e+00 -3.718060902319848537e-01
-9.822441384196281433e+00 7.436815515160560608e+00 -3.703107289038598537e-01
-9.892875954508781433e+00 7.371141687035560608e+00 -3.688001087866723537e-01
-9.963188454508781433e+00 7.305589929223060608e+00 -3.673047474585473537e-01
-1.003374509513378143e+01 7.239794030785560608e+00 -3.657941273413598537e-01
-1.062432126700878143e+01 8.633592858910560608e+00 -4.060315540991723537e-01
-1.070757322013378143e+01 8.564745202660560608e+00 -4.043530873022973537e-01
-1.078643064200878143e+01 8.491869226098060608e+00 -4.026288441382348537e-01
-1.086589841544628143e+01 8.418627038598060608e+00 -4.009046009741723537e-01
-1.094512204825878143e+01 8.345384851098060608e+00 -3.991956165991723537e-01
-1.102483396232128143e+01 8.271654382348060608e+00 -3.974561146460473537e-01
-1.110454587638378143e+01 8.198168054223060608e+00 -3.957318714819848537e-01
-1.117961911857128143e+01 8.120653405785560608e+00 -3.939771107397973537e-01
-1.516362790763378143e+01 1.255937410891056061e+01 -6.633405140601098537e-01
-1.652446775138378143e+01 1.351115633547306061e+01 -7.465924671851098537e-01
-1.259770993888378143e+01 1.000761629641056061e+01 -4.672803333960473537e-01
-1.255425290763378143e+01 9.807909265160560608e+00 -4.558820179663598537e-01
-1.251177243888378143e+01 9.612962976098060608e+00 -4.447583607397973537e-01
-1.185295896232128143e+01 8.931322351098060608e+00 -3.930615833960473537e-01
-1.248748044669628143e+01 9.279833093285560608e+00 -4.269666126929223537e-01
-1.261931638419628143e+01 9.227586999535560608e+00 -4.275769642554223537e-01
-1.516899900138378143e+01 1.256669832766056061e+01 -5.774182728491723537e-01
-1.685796384513378143e+01 1.379765535891056061e+01 -6.737164906226098537e-01
-1.716094236075878143e+01 1.382475496828556061e+01 -6.810407093726098537e-01
-1.741362790763378143e+01 1.380424715578556061e+01 -6.854657582007348537e-01
-1.770757322013378143e+01 1.381401278078556061e+01 -6.922711781226098537e-01
-1.185283689200878143e+01 8.933275476098060608e+00 -3.287457874976098537e-01
-1.855059079825878143e+01 1.401713778078556061e+01 -7.208508900366723537e-01
-1.898601560294628143e+01 1.411760164797306061e+01 -7.351025990210473537e-01
-1.517449216544628143e+01 1.257402254641056061e+01 -4.909772328101098537e-01
-1.720793943107128143e+01 1.409831453859806061e+01 -5.972546986304223537e-01
-1.752178220450878143e+01 1.412944246828556061e+01 -6.043195179663598537e-01
-1.783684568107128143e+01 1.415532137453556061e+01 -6.111554554663598537e-01
-1.815862302482128143e+01 1.418168856203556061e+01 -6.181439808569848537e-01
-1.185283689200878143e+01 8.935228601098060608e+00 -2.647962025366723537e-01
-1.884587888419628143e+01 1.425114656984806061e+01 -6.336469105444848537e-01
-1.926079587638378143e+01 1.433183504641056061e+01 -6.448010853491723537e-01
-1.517351560294628143e+01 1.257585360109806061e+01 -4.046277455054223537e-01
-1.505095700919628143e+01 1.226652742922306061e+01 -3.896130970679223537e-01
-1.770537595450878143e+01 1.428605867922306061e+01 -5.143842152319848537e-01
-1.525310544669628143e+01 1.203373934328556061e+01 -3.825330189429223537e-01
-1.835710935294628143e+01 1.434538485109806061e+01 -5.263165882788598537e-01
-1.185271482169628143e+01 8.937181726098060608e+00 -2.008466175757348537e-01
-1.911357907950878143e+01 1.446354891359806061e+01 -5.422620228491723537e-01
-1.963457517325878143e+01 1.462236239016056061e+01 -5.565747669897973537e-01
-1.517083005607128143e+01 1.257621981203556061e+01 -3.177747181616723537e-01
-1.757610349357128143e+01 1.441752840578556061e+01 -4.173383167944848537e-01
-1.506108884513378143e+01 1.207695223391056061e+01 -2.966412953101098537e-01
-1.822087888419628143e+01 1.447734285891056061e+01 -4.267072132788598537e-01
-1.525432614982128143e+01 1.183940340578556061e+01 -2.892407826147973537e-01
-1.185271482169628143e+01 8.939134851098060608e+00 -1.365765980444848537e-01
-1.949358396232128143e+01 1.476396395266056061e+01 -4.519299915991723537e-01
-2.002593259513378143e+01 1.492643953859806061e+01 -4.641827992163598537e-01
-1.473735837638378143e+01 1.220366121828556061e+01 -2.144727162085473537e-01
-1.511541013419628143e+01 1.232658602297306061e+01 -2.217664173804223537e-01
-1.479741697013378143e+01 1.185905672609806061e+01 -2.021283558569848537e-01
-1.503789548575878143e+01 1.186198641359806061e+01 -2.039899281226098537e-01
-1.516033200919628143e+01 1.176603914797306061e+01 -2.013196400366723537e-01
-1.185259275138378143e+01 8.941087976098060608e+00 -7.264227187260985374e-02
-1.987957029044628143e+01 1.506901766359806061e+01 -3.579663685522973537e-01
-2.034380368888378143e+01 1.517424227297306061e+01 -3.652295521460473537e-01
-1.463445310294628143e+01 1.211723543703556061e+01 -1.269788197241723537e-01
-1.514116697013378143e+01 1.235112215578556061e+01 -1.368359974585473537e-01
-1.493389157950878143e+01 1.197575594484806061e+01 -1.237134388647973537e-01
-1.856267575919628143e+01 1.476494051516056061e+01 -2.324017933569848537e-01
-1.920427732169628143e+01 1.504045321047306061e+01 -2.441968373022973537e-01
-1.185259275138378143e+01 8.943041101098060608e+00 -8.738463278859853745e-03
-2.006987790763378143e+01 1.522136141359806061e+01 -2.529858998022973537e-01
-2.055107907950878143e+01 1.533708406984806061e+01 -2.587079457007348537e-01
-1.488726072013378143e+01 1.233854891359806061e+01 -5.088323866948485374e-02
-1.476836423575878143e+01 1.203630281984806061e+01 -4.142278945073485374e-02
-1.497515134513378143e+01 1.201298739016056061e+01 -4.072088515385985374e-02
-1.523064450919628143e+01 1.202580477297306061e+01 -4.116339003667235374e-02
-1.940654782950878143e+01 1.520744539797306061e+01 -1.410931996069848537e-01
-1.185247068107128143e+01 8.944994226098060608e+00 5.551629746332764626e-02
-1.943035154044628143e+01 1.472465731203556061e+01 -1.260175160132348537e-01
-2.076177243888378143e+01 1.550273348391056061e+01 -1.504926136694848537e-01
-1.516655759513378143e+01 1.258305574953556061e+01 2.818780625239014626e-02
-1.537041501700878143e+01 1.255156160891056061e+01 2.930169785395264626e-02
-1.505059079825878143e+01 1.207866121828556061e+01 4.161554062739014626e-02
-1.520452146232128143e+01 1.200688387453556061e+01 4.416375840082764626e-02
-1.956121091544628143e+01 1.533598543703556061e+01 -3.525823866948485374e-02
-1.185247068107128143e+01 8.946947351098060608e+00 1.194048472680151463e-01
-2.048442868888378143e+01 1.555266024172306061e+01 -3.824896132573485374e-02
-1.954473142325878143e+01 1.457048250734806061e+01 -1.305670058354735374e-02
-1.516667966544628143e+01 1.258574129641056061e+01 1.143541880883276463e-01
-1.496160154044628143e+01 1.220610262453556061e+01 1.225786753930151463e-01
-1.506426267325878143e+01 1.209269930422306061e+01 1.261644908227026463e-01
-1.855217771232128143e+01 1.476616121828556061e+01 8.258538926020264626e-02
-1.971916989982128143e+01 1.546745516359806061e+01 7.291131699457764626e-02
-1.185234861075878143e+01 8.948900476098060608e+00 1.836290904320776463e-01
-2.070427732169628143e+01 1.572831942141056061e+01 7.315545761957764626e-02
-1.964702634513378143e+01 1.465251375734806061e+01 9.311395371332764626e-02
-9.983574196696281433e+00 8.098192468285560608e+00 2.473040171898901463e-01
-1.027190427482128143e+01 8.213548913598060608e+00 2.474566050805151463e-01
-1.057415036857128143e+01 8.334032312035560608e+00 2.479296275414526463e-01
-1.089324216544628143e+01 8.461351647973060608e+00 2.484179087914526463e-01
-1.122820310294628143e+01 8.594896569848060608e+00 2.489367076195776463e-01
-1.158269529044628143e+01 8.736253991723060608e+00 2.494860240258276463e-01
-1.195598630607128143e+01 8.885179772973060608e+00 2.500658580102026463e-01
-1.229534177482128143e+01 8.999803796410560608e+00 2.514086314477026463e-01
-9.910942360758781433e+00 8.036913171410560608e+00 3.022966929711401463e-01
-1.021489743888378143e+01 8.166673913598060608e+00 3.040361949242651463e-01
-1.053557614982128143e+01 8.303514733910560608e+00 3.058672496117651463e-01
-1.087566404044628143e+01 8.448656335473060608e+00 3.078203746117651463e-01
-1.123430661857128143e+01 8.601732507348060608e+00 3.098803111352026463e-01
-1.161565427482128143e+01 8.764452233910560608e+00 3.120623179711401463e-01
-1.195903806388378143e+01 8.889574304223060608e+00 3.144579478539526463e-01
-1.237578611075878143e+01 9.063768640160560608e+00 3.169146128930151463e-01
-1.001213864982128143e+01 8.126268640160560608e+00 3.572283335961401463e-01
-1.031987790763378143e+01 8.257860437035560608e+00 3.604631968773901463e-01
-1.061931638419628143e+01 8.375536218285560608e+00 3.637896128930151463e-01
-1.093596677482128143e+01 8.500170007348060608e+00 3.669786998070776463e-01
-1.126726560294628143e+01 8.630296960473060608e+00 3.706560679711401463e-01
-1.161687497794628143e+01 8.767381921410560608e+00 3.748674937523901463e-01
-1.195903806388378143e+01 8.891527429223060608e+00 3.788347789086401463e-01
-1.231719236075878143e+01 9.020921960473060608e+00 3.830156871117651463e-01
-9.932060524821281433e+00 8.058641687035560608e+00 4.117022105492651463e-01
-1.021221189200878143e+01 8.167772546410560608e+00 4.158373423852026463e-01
-1.050554685294628143e+01 8.281908288598060608e+00 4.204912730492651463e-01
-1.081475095450878143e+01 8.402147546410560608e+00 4.253893443383276463e-01
-1.116301755607128143e+01 8.547777429223060608e+00 4.307756968773901463e-01
-1.155461911857128143e+01 8.719774499535560608e+00 4.366961070336401463e-01
-1.197014646232128143e+01 8.902269616723060608e+00 4.429979869164526463e-01
-1.234453611075878143e+01 9.043993249535560608e+00 4.493303843773901463e-01
-7.368095681071281433e+00 5.189745202660560608e+00 -3.118390492163598537e-01
-7.411430642008781433e+00 5.138231530785560608e+00 -3.102521351538598537e-01
-7.453544899821281433e+00 5.085497155785560608e+00 -3.087415150366723537e-01
-7.499565407633781433e+00 5.035326257348060608e+00 -3.075971058569848537e-01
-7.545585915446281433e+00 4.985277429223060608e+00 -3.064526966772973537e-01
-7.591850563883781433e+00 4.934984460473060608e+00 -3.052930287085473537e-01
-7.638115212321281433e+00 4.884691491723060608e+00 -3.041486195288598537e-01
-7.681816384196281433e+00 4.832567468285560608e+00 -3.029584339819848537e-01
-7.901054665446281433e+00 5.599535241723060608e+00 -3.243665150366723537e-01
-7.945244118571281433e+00 5.541551843285560608e+00 -3.225964955054223537e-01
-7.989555642008781433e+00 5.483568444848060608e+00 -3.208264759741723537e-01
-8.037163063883781433e+00 5.427660241723060608e+00 -3.191174915991723537e-01
-8.081474587321281433e+00 5.369676843285560608e+00 -3.173474720679223537e-01
-8.122856423258781433e+00 5.309129968285560608e+00 -3.155011585913598537e-01
-8.167167946696281433e+00 5.251146569848060608e+00 -3.137311390601098537e-01
-8.211601540446281433e+00 5.193041101098060608e+00 -3.119611195288598537e-01
-8.530082985758781433e+00 6.083177819848060608e+00 -3.391522816382348537e-01
-8.578544899821281433e+00 6.020067468285560608e+00 -3.372144154272973537e-01
-8.627006813883781433e+00 5.956957116723060608e+00 -3.352918080054223537e-01
-8.675590798258781433e+00 5.893724694848060608e+00 -3.333692005835473537e-01
-8.724052712321281433e+00 5.830492272973060608e+00 -3.314313343726098537e-01
-8.772758767008781433e+00 5.767137780785560608e+00 -3.295087269507348537e-01
-8.821220681071281433e+00 5.703905358910560608e+00 -3.275708607397973537e-01
-8.869804665446281433e+00 5.640672937035560608e+00 -3.256482533179223537e-01
-9.216484352946281433e+00 6.610887780785560608e+00 -3.515729359351098537e-01
-9.278374001383781433e+00 6.549120202660560608e+00 -3.499555042944848537e-01
-9.339775368571281433e+00 6.486498132348060608e+00 -3.485211781226098537e-01
-9.401420876383781433e+00 6.423509851098060608e+00 -3.470715931616723537e-01
-9.462944313883781433e+00 6.360521569848060608e+00 -3.456372669897973537e-01
-9.524956032633781433e+00 6.297289147973060608e+00 -3.441876820288598537e-01
-9.586845681071281433e+00 6.234056726098060608e+00 -3.427380970679223537e-01
-9.644707009196281433e+00 6.167772546410560608e+00 -3.412274769507348537e-01
-1.003398923575878143e+01 7.239671960473060608e+00 -3.657941273413598537e-01
-1.010234861075878143e+01 7.171800866723060608e+00 -3.642529896460473537e-01
-1.017083005607128143e+01 7.103929772973060608e+00 -3.626965931616723537e-01
-1.023967771232128143e+01 7.035570397973060608e+00 -3.611249378882348537e-01
-1.030852536857128143e+01 6.967211022973060608e+00 -3.595685414038598537e-01
-1.037786130607128143e+01 6.898485437035560608e+00 -3.579968861304223537e-01
-1.044707517325878143e+01 6.829759851098060608e+00 -3.564252308569848537e-01
-1.051653318107128143e+01 6.760912194848060608e+00 -3.548383167944848537e-01
-1.117986325919628143e+01 8.120409265160560608e+00 -3.939618519507348537e-01
-1.124919919669628143e+01 8.038500085473060608e+00 -3.913068226538598537e-01
-1.132939939200878143e+01 7.964403405785560608e+00 -3.896893910132348537e-01
-1.140923337638378143e+01 7.889086022973060608e+00 -3.880109242163598537e-01
-1.148894529044628143e+01 7.813768640160560608e+00 -3.863171986304223537e-01
-1.156926755607128143e+01 7.738085046410560608e+00 -3.846082142554223537e-01
-1.164958982169628143e+01 7.662279382348060608e+00 -3.829144886694848537e-01
-1.172148923575878143e+01 7.580492272973060608e+00 -3.809613636694848537e-01
-1.262017087638378143e+01 9.227709069848060608e+00 -4.275922230444848537e-01
-1.275090818107128143e+01 9.173265710473060608e+00 -4.281873158179223537e-01
-1.288298825919628143e+01 9.118211999535560608e+00 -4.287671498022973537e-01
-1.297454099357128143e+01 9.031542077660560608e+00 -4.267224720679223537e-01
-1.304583005607128143e+01 8.930345788598060608e+00 -4.233960560522973537e-01
-1.311736325919628143e+01 8.828905358910560608e+00 -4.200848988257348537e-01
-1.318865232169628143e+01 8.727831140160560608e+00 -4.167584828101098537e-01
-1.325688962638378143e+01 8.624681726098060608e+00 -4.132642201147973537e-01
-1.898784665763378143e+01 1.411821199953556061e+01 -7.351788929663598537e-01
-1.937883786857128143e+01 1.417656160891056061e+01 -7.465619496069848537e-01
-1.976055173575878143e+01 1.422075106203556061e+01 -7.564954212866723537e-01
-1.563945798575878143e+01 1.097575594484806061e+01 -5.099286488257348537e-01
-1.548125486075878143e+01 1.067656160891056061e+01 -4.920606068335473537e-01
-1.491716794669628143e+01 1.009746004641056061e+01 -4.518079212866723537e-01
-1.505913572013378143e+01 1.002311922609806061e+01 -4.517621449194848537e-01
-1.521392087638378143e+01 9.955858483910560608e+00 -4.519147328101098537e-01
-1.926335935294628143e+01 1.433305574953556061e+01 -6.448926380835473537e-01
-1.972417478263378143e+01 1.444059969484806061e+01 -6.581677845679223537e-01
-2.007988767325878143e+01 1.446110750734806061e+01 -6.655682972632348537e-01
-2.052861814200878143e+01 1.454240633547306061e+01 -6.774396351538598537e-01
-2.110356931388378143e+01 1.470659090578556061e+01 -6.953534535132348537e-01
-2.162957029044628143e+01 1.482402254641056061e+01 -7.102612904272973537e-01
-2.208757810294628143e+01 1.488530184328556061e+01 -7.213849476538598537e-01
-1.553630857169628143e+01 1.017753817141056061e+01 -3.881940296851098537e-01
-1.963750486075878143e+01 1.462370516359806061e+01 -5.566663197241723537e-01
-2.008074216544628143e+01 1.471318270266056061e+01 -5.669202259741723537e-01
-2.007964353263378143e+01 1.446440340578556061e+01 -5.562543324194848537e-01
-2.122039060294628143e+01 1.505034090578556061e+01 -5.978345326147973537e-01
-2.167192868888378143e+01 1.511747957766056061e+01 -6.072339466772973537e-01
-2.208013181388378143e+01 1.514494539797306061e+01 -6.143292835913598537e-01
-2.250151853263378143e+01 1.517546297609806061e+01 -6.217297962866723537e-01
-1.552910642325878143e+01 1.017521883547306061e+01 -3.069867542944848537e-01
-2.002935056388378143e+01 1.492814852297306061e+01 -4.642896107397973537e-01
-2.053057126700878143e+01 1.505644442141056061e+01 -4.748029164038598537e-01
-2.007927732169628143e+01 1.446769930422306061e+01 -4.463757923804223537e-01
-2.146282224357128143e+01 1.523088289797306061e+01 -4.918012074194848537e-01
-2.186504392325878143e+01 1.525969149172306061e+01 -4.972791126929223537e-01
-1.457573728263378143e+01 9.864671960473060608e+00 -2.029218128882348537e-01
-2.273528318107128143e+01 1.534111239016056061e+01 -5.098828724585473537e-01
-1.552642087638378143e+01 1.017607332766056061e+01 -2.255963734351098537e-01
-2.034648923575878143e+01 1.517534090578556061e+01 -3.653058460913598537e-01
-2.079192380607128143e+01 1.525737215578556061e+01 -3.714856556616723537e-01
-2.007891111075878143e+01 1.447087313234806061e+01 -3.371076039038598537e-01
-2.165215329825878143e+01 1.537272860109806061e+01 -3.818463734351098537e-01
-2.207744626700878143e+01 1.541581942141056061e+01 -3.864392689429223537e-01
-1.456865720450878143e+01 9.862230554223060608e+00 -1.262311390601098537e-01
-2.164189939200878143e+01 1.458842684328556061e+01 -3.524732044897973537e-01
-1.552385739982128143e+01 1.017692781984806061e+01 -1.446942738257348537e-01
-2.055376462638378143e+01 1.533830477297306061e+01 -2.587689808569848537e-01
-1.978838376700878143e+01 1.450285555422306061e+01 -2.273053578101098537e-01
-2.007866697013378143e+01 1.447416903078556061e+01 -2.278394154272973537e-01
-2.184490232169628143e+01 1.551725985109806061e+01 -2.698468617163598537e-01
-2.142571286857128143e+01 1.495231844484806061e+01 -2.488660267554223537e-01
-1.456157712638378143e+01 9.859789147973060608e+00 -4.963201796635985374e-02
-2.065398435294628143e+01 1.390849520266056061e+01 -2.095441273413598537e-01
-1.552117185294628143e+01 1.017778231203556061e+01 -6.339544570073485374e-02
-2.076433591544628143e+01 1.550371004641056061e+01 -1.505231312476098537e-01
-2.122661618888378143e+01 1.559306551516056061e+01 -1.531934193335473537e-01
-2.007830075919628143e+01 1.447746492922306061e+01 -1.180219105444848537e-01
-2.210002927482128143e+01 1.570732332766056061e+01 -1.564588001929223537e-01
-2.256951169669628143e+01 1.577641512453556061e+01 -1.584729603491723537e-01
-1.455461911857128143e+01 9.857225671410560608e+00 2.728753769770264626e-02
-2.059893064200878143e+01 1.387394930422306061e+01 -9.850591933354735374e-02
-1.551848630607128143e+01 1.017863680422306061e+01 1.743035996332764626e-02
-1.954521970450878143e+01 1.456999422609806061e+01 -1.304144179448485374e-02
-2.141863279044628143e+01 1.574186922609806061e+01 -4.017156874760985374e-02
-2.007805661857128143e+01 1.448076082766056061e+01 -8.799498435109853745e-03
-1.998394040763378143e+01 1.416630770266056061e+01 2.008164301514625549e-05
-2.281462888419628143e+01 1.595622469484806061e+01 -4.065984999760985374e-02
-1.454753904044628143e+01 9.854784265160560608e+00 1.037188121117651463e-01
-2.057280759513378143e+01 1.385942293703556061e+01 1.143365586176514626e-02
-1.551580075919628143e+01 1.017949129641056061e+01 9.865289414301514626e-02
-1.964714841544628143e+01 1.465165926516056061e+01 9.312921250239014626e-02
-1.282280759513378143e+01 9.247118249535560608e+00 1.830034800805151463e-01
-1.320574216544628143e+01 9.377733483910560608e+00 1.825457164086401463e-01
-1.361052732169628143e+01 9.515795007348060608e+00 1.820726939477026463e-01
-1.403618650138378143e+01 9.660936608910560608e+00 1.815691539086401463e-01
-1.448735837638378143e+01 9.814867272973060608e+00 1.810350962914526463e-01
-1.490581540763378143e+01 9.937547937035560608e+00 1.810656138695776463e-01
-1.531096677482128143e+01 1.004277254641056061e+01 1.814623423852026463e-01
-1.229741697013378143e+01 9.000902429223060608e+00 2.514086314477026463e-01
-1.265312986075878143e+01 9.121019616723060608e+00 2.523089000023901463e-01
-1.302617673575878143e+01 9.246507897973060608e+00 2.536364146508276463e-01
-1.344878415763378143e+01 9.399950280785560608e+00 2.548723765648901463e-01
-1.389507322013378143e+01 9.562059655785560608e+00 2.561693736352026463e-01
-1.437029294669628143e+01 9.734789147973060608e+00 2.575426646508276463e-01
-1.483416013419628143e+01 9.890306726098060608e+00 2.592058726586401463e-01
-1.526409177482128143e+01 1.001347567141056061e+01 2.616777964867651463e-01
-1.237810544669628143e+01 9.065111413598060608e+00 3.169146128930151463e-01
-1.276360349357128143e+01 9.206590905785560608e+00 3.198137828148901463e-01
-1.317070798575878143e+01 9.356127038598060608e+00 3.228960582055151463e-01
-1.358464841544628143e+01 9.501512780785560608e+00 3.261461802758276463e-01
-1.400212888419628143e+01 9.641283288598060608e+00 3.295794078148901463e-01
-1.444426755607128143e+01 9.789354577660560608e+00 3.332262584008276463e-01
-1.486443357169628143e+01 9.913866296410560608e+00 3.370104380883276463e-01
-1.526299314200878143e+01 1.001530672609806061e+01 3.409777232445776463e-01
-1.231938962638378143e+01 9.022020593285560608e+00 3.830309459008276463e-01
-1.267009763419628143e+01 9.138109460473060608e+00 3.875628062523901463e-01
-1.303850583732128143e+01 9.260057702660560608e+00 3.923235484398901463e-01
-1.342803220450878143e+01 9.389330163598060608e+00 3.969774791039526463e-01
-1.387700681388378143e+01 9.553880944848060608e+00 4.024706431664526463e-01
-1.436858396232128143e+01 9.738451257348060608e+00 4.088182994164526463e-01
-1.484514646232128143e+01 9.903124108910560608e+00 4.148455210961401463e-01
-1.528679685294628143e+01 1.003410555422306061e+01 4.208422251977026463e-01
-1.234697751700878143e+01 9.045336022973060608e+00 4.493609019555151463e-01
-1.274260739982128143e+01 9.195116296410560608e+00 4.556475230492651463e-01
-1.316240720450878143e+01 9.354418054223060608e+00 4.626818248070776463e-01
-1.360906247794628143e+01 9.523973718285560608e+00 4.701738902367651463e-01
-2.019365720450878143e+01 1.409355379641056061e+01 5.477953501977026463e-01
-1.999053220450878143e+01 1.370878817141056061e+01 5.492601939477026463e-01
-2.399614743888378143e+01 1.625114656984806061e+01 6.002245494164526463e-01
-1.550640134513378143e+01 1.018644930422306061e+01 5.033007212914526463e-01
-7.681938454508781433e+00 4.832445397973060608e+00 -3.029431751929223537e-01
-7.728691384196281433e+00 4.782274499535560608e+00 -3.017987660132348537e-01
-7.773002907633781433e+00 4.730150476098060608e+00 -3.006085804663598537e-01
-7.817558571696281433e+00 4.677782312035560608e+00 -2.994031361304223537e-01
-7.861992165446281433e+00 4.625414147973060608e+00 -2.982129505835473537e-01
-7.906791970133781433e+00 4.572801843285560608e+00 -2.970075062476098537e-01
-7.951469704508781433e+00 4.520311608910560608e+00 -2.958020619116723537e-01
-7.993583962321281433e+00 4.465990319848060608e+00 -2.945660999976098537e-01
-8.211601540446281433e+00 5.192796960473060608e+00 -3.119458607397973537e-01
-8.253593727946281433e+00 5.132982507348060608e+00 -3.101148060522973537e-01
-8.298149392008781433e+00 5.074754968285560608e+00 -3.085126332007348537e-01
-8.349785134196281433e+00 5.020799890160560608e+00 -3.072766712866723537e-01
-8.398369118571281433e+00 4.964891687035560608e+00 -3.059949330054223537e-01
-8.444145485758781433e+00 4.906664147973060608e+00 -3.046674183569848537e-01
-8.492973610758781433e+00 4.850511804223060608e+00 -3.033856800757348537e-01
-8.541801735758781433e+00 4.794115319848060608e+00 -3.020886830054223537e-01
-8.869926735758781433e+00 5.640428796410560608e+00 -3.256329945288598537e-01
-8.915825173258781433e+00 5.575365319848060608e+00 -3.236493519507348537e-01
-8.961845681071281433e+00 5.510301843285560608e+00 -3.216657093726098537e-01
-9.008110329508781433e+00 5.444872155785560608e+00 -3.196668080054223537e-01
-9.054130837321281433e+00 5.379686608910560608e+00 -3.176679066382348537e-01
-9.100395485758781433e+00 5.314256921410560608e+00 -3.156842640601098537e-01
-9.146538063883781433e+00 5.248949304223060608e+00 -3.136853626929223537e-01
-9.192802712321281433e+00 5.183641687035560608e+00 -3.116864613257348537e-01
-9.644951149821281433e+00 6.167650476098060608e+00 -3.412274769507348537e-01
-9.708915993571281433e+00 6.105272546410560608e+00 -3.397931507788598537e-01
-9.760795876383781433e+00 6.034471765160560608e+00 -3.376874378882348537e-01
-9.811943337321281433e+00 5.962938562035560608e+00 -3.355054310522973537e-01
-9.862968727946281433e+00 5.891405358910560608e+00 -3.333234242163598537e-01
-9.914238259196281433e+00 5.819628015160560608e+00 -3.311414173804223537e-01
-9.965385720133781433e+00 5.748094812035560608e+00 -3.289441517554223537e-01
-1.001165036857128143e+01 5.673509851098060608e+00 -3.266705921851098537e-01
-1.051677732169628143e+01 6.760668054223060608e+00 -3.548383167944848537e-01
-1.058391599357128143e+01 6.689867272973060608e+00 -3.532208851538598537e-01
-1.065117673575878143e+01 6.618822351098060608e+00 -3.515881947241723537e-01
-1.071892575919628143e+01 6.547289147973060608e+00 -3.499555042944848537e-01
-1.078667478263378143e+01 6.475755944848060608e+00 -3.483228138647973537e-01
-1.085479001700878143e+01 6.403856530785560608e+00 -3.466748646460473537e-01
-1.092302732169628143e+01 6.331835046410560608e+00 -3.450269154272973537e-01
-9.201103493571281433e+00 5.191576257348060608e+00 -2.237958363257348537e-01
-1.172185544669628143e+01 7.580248132348060608e+00 -3.809766224585473537e-01
-1.180779294669628143e+01 7.507494226098060608e+00 -3.794049671851098537e-01
-1.188530759513378143e+01 7.428514733910560608e+00 -3.775891712866723537e-01
