-1.340941619873046875e+01 7.164635926485061646e+00 -9.943176630418690820e-01
-1.373058319091796875e+01 7.146081238985061646e+00 -1.006478917924681582e+00
-1.378246307373046875e+01 7.019982606172561646e+00 -1.002298009721556582e+00
-1.280626678466796875e+01 7.623864442110061646e+00 -9.328552606981190820e-01
-1.298265838623046875e+01 7.560876160860061646e+00 -9.359375360887440820e-01
-1.316112518310546875e+01 7.495812684297561646e+00 -9.393097284715565820e-01
-1.335045623779296875e+01 7.431725770235061646e+00 -9.431396845262440820e-01
-1.355297088623046875e+01 7.370446473360061646e+00 -9.475799921434315820e-01
-1.380956268310546875e+01 7.327355653047561646e+00 -9.548584345262440820e-01
-1.419933319091796875e+01 7.331017762422561646e+00 -9.692474726121815820e-01
-1.375878143310546875e+01 7.013024598360061646e+00 -9.382110956590565820e-01
-1.310692596435546875e+01 7.764367371797561646e+00 -8.889252069871815820e-01
-1.329113006591796875e+01 7.701379090547561646e+00 -8.919464472215565820e-01
-1.349364471435546875e+01 7.643151551485061646e+00 -8.957764032762440820e-01
-1.370189666748046875e+01 7.583215028047561646e+00 -8.997131708543690820e-01
-1.398436737060546875e+01 7.550866395235061646e+00 -9.073120478074940820e-01
-1.376854705810546875e+01 7.312951356172561646e+00 -8.893371942918690820e-01
-1.425365447998046875e+01 7.354455262422561646e+00 -9.069000605028065820e-01
-1.372924041748046875e+01 7.003991395235061646e+00 -8.737427118699940820e-01
-1.264281463623046875e+01 7.552331238985061646e+00 -8.051697138231190820e-01
-1.364415740966796875e+01 7.861901551485061646e+00 -8.466583612840565820e-01
-1.385704803466796875e+01 7.804040223360061646e+00 -8.500305536668690820e-01
-1.411864471435546875e+01 7.762536317110061646e+00 -8.555084589403065820e-01
-1.444579315185546875e+01 7.743859559297561646e+00 -8.638244989793690820e-01
-1.372765350341796875e+01 7.298669129610061646e+00 -8.238922480028065820e-01
-1.372801971435546875e+01 7.151330262422561646e+00 -8.173462274949940820e-01
-1.370006561279296875e+01 6.994958192110061646e+00 -8.099304560106190820e-01
-1.266442108154296875e+01 7.564294129610061646e+00 -7.468963983934315820e-01
-1.258873748779296875e+01 7.389733582735061646e+00 -7.376343134324940820e-01
-1.423778533935546875e+01 7.972741395235061646e+00 -8.017212274949940820e-01
-1.451622772216796875e+01 7.933923035860061646e+00 -8.066803339403065820e-01
-1.368675994873046875e+01 7.431969910860061646e+00 -7.655121210496815820e-01
-1.368724822998046875e+01 7.284508973360061646e+00 -7.592254999559315820e-01
-1.368773651123046875e+01 7.137658387422561646e+00 -7.529541376512440820e-01
-1.367089080810546875e+01 6.986047059297561646e+00 -7.460724237840565820e-01
-1.268602752685546875e+01 7.576134949922561646e+00 -6.887451532762440820e-01
-1.260985565185546875e+01 7.401208192110061646e+00 -6.800781610887440820e-01
-1.450170135498046875e+01 8.090295106172561646e+00 -7.448822382371815820e-01
-1.451927947998046875e+01 7.937463074922561646e+00 -7.389618280809315820e-01
-1.507836151123046875e+01 8.010216981172561646e+00 -7.528320673387440820e-01
-1.364684295654296875e+01 7.270348817110061646e+00 -6.946197870653065820e-01
-1.364769744873046875e+01 7.124108582735061646e+00 -6.889740351121815820e-01
-1.433251190185546875e+01 7.239098817110061646e+00 -7.070557001512440820e-01
-1.310045623779296875e+01 7.769372254610061646e+00 -6.431518915574940820e-01
-1.441967010498046875e+01 8.216882020235061646e+00 -6.808258417528065820e-01
-1.324925994873046875e+01 7.544274598360061646e+00 -6.366058710496815820e-01
-1.416905975341796875e+01 7.790490418672561646e+00 -6.602875116746815820e-01
-1.529247283935546875e+01 8.101159363985061646e+00 -6.895996454637440820e-01
-1.360692596435546875e+01 7.256310731172561646e+00 -6.307617548387440820e-01
-1.360778045654296875e+01 7.110558778047561646e+00 -6.250702265184315820e-01
-1.416832733154296875e+01 7.178918153047561646e+00 -6.363006952684315820e-01
-1.259862518310546875e+01 7.539635926485061646e+00 -5.677734735887440820e-01
-1.317845916748046875e+01 7.660729676485061646e+00 -5.786987665574940820e-01
-1.324132537841796875e+01 7.542809754610061646e+00 -5.749756220262440820e-01
-1.498058319091796875e+01 8.138390809297561646e+00 -6.164337519090565820e-01
-1.407115936279296875e+01 7.597497254610061646e+00 -5.861755731981190820e-01
-1.416600799560546875e+01 7.483483582735061646e+00 -5.829559687059315820e-01
-1.379491424560546875e+01 7.185754090547561646e+00 -5.677276972215565820e-01
-1.412413787841796875e+01 7.164269715547561646e+00 -5.705505731981190820e-01
-1.310778045654296875e+01 7.776818543672561646e+00 -5.206390741746815820e-01
-1.317052459716796875e+01 7.659142762422561646e+00 -5.168701532762440820e-01
-1.323339080810546875e+01 7.541344910860061646e+00 -5.131012323778065820e-01
-1.398558807373046875e+01 7.716637879610061646e+00 -5.244385126512440820e-01
-1.400707244873046875e+01 7.573083192110061646e+00 -5.194794062059315820e-01
-1.412389373779296875e+01 7.468713074922561646e+00 -5.165497187059315820e-01
-1.425194549560546875e+01 7.366662293672561646e+00 -5.137878778856190820e-01
-1.354320526123046875e+01 6.945763856172561646e+00 -4.939819696824940820e-01
-1.278234100341796875e+01 7.628258973360061646e+00 -4.535156610887440820e-01
-1.306774139404296875e+01 7.614831238985061646e+00 -4.537903192918690820e-01
-1.309056854248046875e+01 7.480798035860061646e+00 -4.493042353074940820e-01
-1.449730682373046875e+01 7.936852723360061646e+00 -4.683319452684315820e-01
-1.504686737060546875e+01 8.006310731172561646e+00 -4.720703485887440820e-01
-1.405345916748046875e+01 7.442345887422561646e+00 -4.504639032762440820e-01
-1.381249237060546875e+01 7.196862488985061646e+00 -4.415375116746815820e-01
-1.350463104248046875e+01 6.933190613985061646e+00 -4.318329218309315820e-01
-8.372917175292968750e+00 5.591637879610061646e+00 -3.357941034715565820e-01
-8.542228698730468750e+00 5.579064637422561646e+00 -3.351074579637440820e-01
-8.718376159667968750e+00 5.566003113985061646e+00 -3.345886591356190820e-01
-8.901481628417968750e+00 5.552331238985061646e+00 -3.338409784715565820e-01
-9.091300964355468750e+00 5.538171082735061646e+00 -3.330780390184315820e-01
-9.288566589355468750e+00 5.523400574922561646e+00 -3.322693231981190820e-01
-9.494255065917968750e+00 5.507897645235061646e+00 -3.312012079637440820e-01
-9.708244323730468750e+00 5.491906434297561646e+00 -3.303314569871815820e-01
-8.304069519042968750e+00 5.561120301485061646e+00 -2.979370478074940820e-01
-8.470573425292968750e+00 5.547936707735061646e+00 -2.965484980028065820e-01
-8.643302917480468750e+00 5.534386903047561646e+00 -2.951141718309315820e-01
-8.823112487792968750e+00 5.520226746797561646e+00 -2.936188105028065820e-01
-9.009391784667968750e+00 5.505578309297561646e+00 -2.920624140184315820e-01
-9.203117370605468750e+00 5.490319520235061646e+00 -2.904602411668690820e-01
-9.405387878417968750e+00 5.474450379610061646e+00 -2.887817743699940820e-01
-9.615226745605468750e+00 5.457848817110061646e+00 -2.870270136278065820e-01
-8.273918151855468750e+00 5.548302918672561646e+00 -2.606903437059315820e-01
-8.449455261230468750e+00 5.539635926485061646e+00 -2.588592890184315820e-01
-8.632316589355468750e+00 5.530846863985061646e+00 -2.567383173387440820e-01
-8.823478698730468750e+00 5.521691590547561646e+00 -2.545410517137440820e-01
-9.021965026855468750e+00 5.512048035860061646e+00 -2.522522333543690820e-01
-9.228874206542968750e+00 5.502038270235061646e+00 -2.498718622606190820e-01
-9.445793151855468750e+00 5.491662293672561646e+00 -2.473694208543690820e-01
-9.671867370605468750e+00 5.480920106172561646e+00 -2.445312860887440820e-01
-8.327262878417968750e+00 5.574181824922561646e+00 -2.237640741746815820e-01
-8.505485534667968750e+00 5.566125184297561646e+00 -2.209869745653065820e-01
-8.690910339355468750e+00 5.557824403047561646e+00 -2.181030634324940820e-01
-8.884757995605468750e+00 5.549035340547561646e+00 -2.150665644090565820e-01
-9.086051940917968750e+00 5.540002137422561646e+00 -2.119232538621815820e-01
-9.296134948730468750e+00 5.530602723360061646e+00 -2.086578730028065820e-01
-9.509880065917968750e+00 5.518151551485061646e+00 -2.052399042528065820e-01
-9.720451354980468750e+00 5.500695496797561646e+00 -2.017456415574940820e-01
-8.346794128417968750e+00 5.584435731172561646e+00 -1.863647821824940820e-01
-8.512077331542968750e+00 5.570397645235061646e+00 -1.831299189012440820e-01
-8.683097839355468750e+00 5.555627137422561646e+00 -1.795746210496815820e-01
-8.861198425292968750e+00 5.540368348360061646e+00 -1.758819940965565820e-01
-9.045524597167968750e+00 5.524499207735061646e+00 -1.720520380418690820e-01
-9.236930847167968750e+00 5.508019715547561646e+00 -1.680847528856190820e-01
-9.436759948730468750e+00 5.490807801485061646e+00 -1.639343622606190820e-01
-9.643424987792968750e+00 5.472863465547561646e+00 -1.594025019090565820e-01
-8.290763854980468750e+00 5.559655457735061646e+00 -1.498810175340565820e-01
-8.453483581542968750e+00 5.545129090547561646e+00 -1.458221796434315820e-01
-8.622062683105468750e+00 5.530114442110061646e+00 -1.416107538621815820e-01
-8.797599792480468750e+00 5.514489442110061646e+00 -1.372467401903065820e-01
-8.979240417480468750e+00 5.498254090547561646e+00 -1.327148798387440820e-01
-9.172843933105468750e+00 5.483483582735061646e+00 -1.279388788621815820e-01
-9.395133972167968750e+00 5.475915223360061646e+00 -1.226745966356190820e-01
-9.627067565917968750e+00 5.467980653047561646e+00 -1.171966913621815820e-01
-8.263420104980468750e+00 5.548180848360061646e+00 -1.132751825731190820e-01
-8.445304870605468750e+00 5.542687684297561646e+00 -1.082245233934315820e-01
-8.634635925292968750e+00 5.536828309297561646e+00 -1.031738642137440820e-01
-8.833122253417968750e+00 5.530846863985061646e+00 -9.766544136218158201e-02
-9.039543151855468750e+00 5.524621278047561646e+00 -9.194339546374408201e-02
-9.255363464355468750e+00 5.518151551485061646e+00 -8.594669136218158201e-02
-9.482414245605468750e+00 5.511559754610061646e+00 -7.943118843249408201e-02
-9.718742370605468750e+00 5.504357606172561646e+00 -7.286990913561908201e-02
-8.330314636230468750e+00 5.580407410860061646e+00 -7.485355171374408201e-02
-8.515007019042968750e+00 5.575402528047561646e+00 -6.916202339343158201e-02
-8.707878112792968750e+00 5.570275574922561646e+00 -6.301273140124408201e-02
-8.909904479980468750e+00 5.565026551485061646e+00 -5.658878120593158201e-02
-1.575145721435546875e+01 8.317712098360061646e+00 1.039336797315684180e-01
-1.545970916748046875e+01 8.028039246797561646e+00 1.004699346143809180e-01
-1.464476776123046875e+01 7.540490418672561646e+00 8.446346488781841799e-02
-1.424388885498046875e+01 7.231408387422561646e+00 7.829891410656841799e-02
-1.236656951904296875e+01 6.479821473360061646e+00 -1.030145299760619082e+00
-1.027379608154296875e+01 5.582848817110061646e+00 -8.791443231981190820e-01
-1.028380584716796875e+01 5.481774598360061646e+00 -8.745361689012440820e-01
-1.283202362060546875e+01 6.254723817110061646e+00 -1.041864049760619082e+00
-1.363561248779296875e+01 6.390832215547561646e+00 -1.089166295854369082e+00
-1.402281951904296875e+01 6.375817567110061646e+00 -1.107888830034056582e+00
-1.350975799560546875e+01 6.072716981172561646e+00 -1.066735875932494082e+00
-1.457103729248046875e+01 6.254845887422561646e+00 -1.129693639604369082e+00
-1.344628143310546875e+01 6.890221863985061646e+00 -1.043695104448119082e+00
-1.027428436279296875e+01 5.584557801485061646e+00 -8.337494257371815820e-01
-1.028026580810546875e+01 5.482018738985061646e+00 -8.287445429246815820e-01
-1.393175506591796875e+01 6.635583192110061646e+00 -1.053140294877806582e+00
-1.307640838623046875e+01 6.206383973360061646e+00 -9.927612665574940820e-01
-1.475560760498046875e+01 6.614220887422561646e+00 -1.089929235307494082e+00
-1.351537322998046875e+01 6.076379090547561646e+00 -1.006860387651244082e+00
-1.347399139404296875e+01 5.927453309297561646e+00 -9.976440790574940820e-01
-1.378197479248046875e+01 7.019250184297561646e+00 -1.002236974565306582e+00
-1.027477264404296875e+01 5.586266785860061646e+00 -7.881103876512440820e-01
-1.027660369873046875e+01 5.482140809297561646e+00 -7.832275751512440820e-01
-1.393065643310546875e+01 6.637292176485061646e+00 -9.902130487840565820e-01
-1.316161346435546875e+01 6.236779481172561646e+00 -9.391418817918690820e-01
-1.356310272216796875e+01 6.231774598360061646e+00 -9.556061151903065820e-01
-1.394884490966796875e+01 6.213464051485061646e+00 -9.707733515184315820e-01
-1.626610565185546875e+01 6.768883973360061646e+00 -1.093591344682494082e+00
-1.375841522216796875e+01 7.012414246797561646e+00 -9.381653192918690820e-01
-1.027526092529296875e+01 5.587975770235061646e+00 -7.424560907762440820e-01
-1.027306365966796875e+01 5.482384949922561646e+00 -7.375122431199940820e-01
-1.392943572998046875e+01 6.639001160860061646e+00 -9.269501093309315820e-01
-1.308263397216796875e+01 6.212487488985061646e+00 -8.757568720262440820e-01
-1.507689666748046875e+01 6.722375184297561646e+00 -9.735046747606190820e-01
-1.393444061279296875e+01 6.211144715547561646e+00 -9.073883417528065820e-01
-1.320983123779296875e+01 5.852013856172561646e+00 -8.641601923387440820e-01
-1.372887420654296875e+01 7.003381043672561646e+00 -8.737121942918690820e-01
-1.027562713623046875e+01 5.589684754610061646e+00 -6.970611933153065820e-01
-1.026940155029296875e+01 5.482629090547561646e+00 -6.920715692918690820e-01
-1.392833709716796875e+01 6.640710145235061646e+00 -8.640533808153065820e-01
-1.404662322998046875e+01 6.536217957735061646e+00 -8.632751825731190820e-01
-1.381652069091796875e+01 6.317712098360061646e+00 -8.459411981981190820e-01
-1.390087127685546875e+01 6.202721863985061646e+00 -8.435760858934315820e-01
-1.323778533935546875e+01 5.862511903047561646e+00 -8.065887812059315820e-01
-1.369969940185546875e+01 6.994347840547561646e+00 -8.098846796434315820e-01
-1.027611541748046875e+01 5.591271668672561646e+00 -6.514068964403065820e-01
-1.026940155029296875e+01 5.484216004610061646e+00 -6.465851190965565820e-01
-1.337621307373046875e+01 6.452233582735061646e+00 -7.769256952684315820e-01
-1.403722381591796875e+01 6.535241395235061646e+00 -7.993408564012440820e-01
-1.506542205810546875e+01 6.723229676485061646e+00 -8.367554071824940820e-01
-1.342577362060546875e+01 6.056603699922561646e+00 -7.612396601121815820e-01
-1.326573944091796875e+01 5.872887879610061646e+00 -7.490631464403065820e-01
-1.367052459716796875e+01 6.985436707735061646e+00 -7.460266474168690820e-01
-1.027660369873046875e+01 5.592980653047561646e+00 -6.060119989793690820e-01
-1.026988983154296875e+01 5.485802918672561646e+00 -6.013733271043690820e-01
-1.329467010498046875e+01 6.426110535860061646e+00 -7.136169794481190820e-01
-1.366747283935546875e+01 6.413781434297561646e+00 -7.221161249559315820e-01
-1.347582244873046875e+01 6.211755067110061646e+00 -7.090546015184315820e-01
-1.345458221435546875e+01 6.067712098360061646e+00 -7.025390985887440820e-01
-1.329393768310546875e+01 5.883385926485061646e+00 -6.909729364793690820e-01
-1.433287811279296875e+01 7.238732606172561646e+00 -7.070404413621815820e-01
-1.027709197998046875e+01 5.594689637422561646e+00 -5.606018427293690820e-01
-1.027037811279296875e+01 5.487511903047561646e+00 -5.559173944871815820e-01
-1.385009002685546875e+01 6.619958192110061646e+00 -6.722504022996815820e-01
-1.401879119873046875e+01 6.533288270235061646e+00 -6.721130731981190820e-01
-1.371752166748046875e+01 6.291955262422561646e+00 -6.564422968309315820e-01
-1.341478729248046875e+01 6.057214051485061646e+00 -6.413360956590565820e-01
-1.332213592529296875e+01 5.893883973360061646e+00 -6.329285028856190820e-01
-1.416808319091796875e+01 7.178307801485061646e+00 -6.362854364793690820e-01
-1.352843475341796875e+01 6.793175965547561646e+00 -6.114899042528065820e-01
-1.027074432373046875e+01 5.489220887422561646e+00 -5.106903437059315820e-01
-1.338573455810546875e+01 6.461510926485061646e+00 -5.964294794481190820e-01
-1.334508514404296875e+01 6.310021668672561646e+00 -5.899292353074940820e-01
-1.504833221435546875e+01 6.724572449922561646e+00 -6.322723749559315820e-01
-1.669823455810546875e+01 7.085412293672561646e+00 -6.717163446824940820e-01
-1.756102752685546875e+01 7.174401551485061646e+00 -6.884704950731190820e-01
-1.433214569091796875e+01 7.242760926485061646e+00 -5.757843378465565820e-01
-1.527355194091796875e+01 7.438073426485061646e+00 -5.934845331590565820e-01
-1.027123260498046875e+01 5.490929871797561646e+00 -4.654785517137440820e-01
-1.373021697998046875e+01 6.582726746797561646e+00 -5.445038202684315820e-01
-1.328221893310546875e+01 6.290978699922561646e+00 -5.286804560106190820e-01
-1.504259490966796875e+01 6.724938660860061646e+00 -5.643555048387440820e-01
-1.328881072998046875e+01 6.021935731172561646e+00 -5.187164667528065820e-01
-1.329210662841796875e+01 5.888757020235061646e+00 -5.137878778856190820e-01
-1.354198455810546875e+01 6.944787293672561646e+00 -4.939514521043690820e-01
-1.338268280029296875e+01 6.743615418672561646e+00 -4.856811884324940820e-01
-1.027172088623046875e+01 5.492516785860061646e+00 -4.200226190965565820e-01
-1.349132537841796875e+01 6.502160340547561646e+00 -4.777618769090565820e-01
-1.374840545654296875e+01 6.449181824922561646e+00 -4.775940302293690820e-01
-1.503685760498046875e+01 6.725426942110061646e+00 -4.961487177293690820e-01
-1.512425994873046875e+01 6.598107606172561646e+00 -4.921661737840565820e-01
-1.589842987060546875e+01 6.677697449922561646e+00 -5.002228144090565820e-01
-1.350328826904296875e+01 6.932214051485061646e+00 -4.317871454637440820e-01
-1.334520721435546875e+01 6.731774598360061646e+00 -4.245392206590565820e-01
-1.027220916748046875e+01 5.494225770235061646e+00 -3.747955683153065820e-01
-1.346654510498046875e+01 6.495568543672561646e+00 -4.167267206590565820e-01
-1.359520721435546875e+01 6.399865418672561646e+00 -4.137512567918690820e-01
-1.503124237060546875e+01 6.725915223360061646e+00 -4.283539179246815820e-01
-1.834777069091796875e+01 7.609338074922561646e+00 -4.665314081590565820e-01
-1.142003631591796875e+01 5.327233582735061646e+00 -3.718048456590565820e-01
-9.709587097167968750e+00 5.492028504610061646e+00 -3.303314569871815820e-01
-9.932853698730468750e+00 5.475304871797561646e+00 -3.293396356981190820e-01
-1.016661834716796875e+01 5.457970887422561646e+00 -3.285461786668690820e-01
-1.040380096435546875e+01 5.436974793672561646e+00 -3.273865106981190820e-01
-1.060936737060546875e+01 5.401086121797561646e+00 -3.257995966356190820e-01
-1.083300018310546875e+01 5.367272645235061646e+00 -3.242584589403065820e-01
-1.106591033935546875e+01 5.331750184297561646e+00 -3.223663690965565820e-01
-1.130821990966796875e+01 5.295129090547561646e+00 -3.206879022996815820e-01
-9.616569519042968750e+00 5.458092957735061646e+00 -2.870270136278065820e-01
-9.835319519042968750e+00 5.440758973360061646e+00 -2.851044062059315820e-01
-1.007762908935546875e+01 5.427697449922561646e+00 -2.831665399949940820e-01
-1.033470916748046875e+01 5.414513856172561646e+00 -2.811218622606190820e-01
-1.055516815185546875e+01 5.384484559297561646e+00 -2.787872675340565820e-01
-1.079149627685546875e+01 5.355431824922561646e+00 -2.763763788621815820e-01
-1.103905487060546875e+01 5.324914246797561646e+00 -2.738586786668690820e-01
-1.129662322998046875e+01 5.293298035860061646e+00 -2.712341669481190820e-01
-9.673332214355468750e+00 5.481042176485061646e+00 -2.445312860887440820e-01
-9.909538269042968750e+00 5.469689637422561646e+00 -2.418915155809315820e-01
-1.015770721435546875e+01 5.457726746797561646e+00 -2.388855341356190820e-01
-1.034325408935546875e+01 5.419030457735061646e+00 -2.357574823778065820e-01
-1.063024139404296875e+01 5.411217957735061646e+00 -2.324615839403065820e-01
-1.087010955810546875e+01 5.382531434297561646e+00 -2.290436151903065820e-01
-1.112133026123046875e+01 5.352380067110061646e+00 -2.254730585496815820e-01
-1.138231658935546875e+01 5.320885926485061646e+00 -2.214752558153065820e-01
-9.721794128417968750e+00 5.500939637422561646e+00 -2.017303827684315820e-01
-9.940910339355468750e+00 5.482629090547561646e+00 -1.979156855028065820e-01
-1.016979217529296875e+01 5.463586121797561646e+00 -1.939331415574940820e-01
-1.034374237060546875e+01 5.420739442110061646e+00 -1.901031855028065820e-01
-1.060472869873046875e+01 5.404259949922561646e+00 -1.857239130418690820e-01
-1.082445526123046875e+01 5.369347840547561646e+00 -1.814209345262440820e-01
-1.105370330810546875e+01 5.332848817110061646e+00 -1.769501093309315820e-01
-1.129137420654296875e+01 5.295129090547561646e+00 -1.722961786668690820e-01
-9.644767761230468750e+00 5.473107606172561646e+00 -1.593872431199940820e-01
-9.860832214355468750e+00 5.454552918672561646e+00 -1.549316767137440820e-01
-1.008580780029296875e+01 5.435021668672561646e+00 -1.500488642137440820e-01
-1.032164764404296875e+01 5.414513856172561646e+00 -1.449219110887440820e-01
-1.052611541748046875e+01 5.379357606172561646e+00 -1.400238397996815820e-01
-1.076915740966796875e+01 5.352868348360061646e+00 -1.346069696824940820e-01
-1.102416229248046875e+01 5.325158387422561646e+00 -1.289154413621815820e-01
-1.129051971435546875e+01 5.296471863985061646e+00 -1.227203730028065820e-01
-9.628654479980468750e+00 5.468224793672561646e+00 -1.171661737840565820e-01
-9.872306823730468750e+00 5.460168153047561646e+00 -1.111847284715565820e-01
-1.012841033935546875e+01 5.451745301485061646e+00 -1.048828485887440820e-01
-1.039598846435546875e+01 5.441857606172561646e+00 -9.829105171374408201e-02
-1.061949920654296875e+01 5.412316590547561646e+00 -9.223331245593158201e-02
-1.086705780029296875e+01 5.386315613985061646e+00 -8.570255073718158201e-02
-1.112682342529296875e+01 5.359093934297561646e+00 -7.883609565905658201e-02
-1.536229705810546875e+01 6.532189637422561646e+00 -8.126867143431582008e-03
-9.720329284667968750e+00 5.504601746797561646e+00 -7.283939155749408201e-02
-9.968986511230468750e+00 5.497399598360061646e+00 -6.568301948718158201e-02
-1.549010467529296875e+01 7.375451356172561646e+00 4.413448539563091799e-02
-1.394506072998046875e+01 6.675988465547561646e+00 1.749263969250591799e-02
-1.390917205810546875e+01 6.519738465547561646e+00 2.022396293469341799e-02
-1.402379608154296875e+01 6.414269715547561646e+00 2.596126762219341799e-02
-1.502574920654296875e+01 6.585534363985061646e+00 5.034481254406841799e-02
-1.494164276123046875e+01 6.406945496797561646e+00 5.225216117688091799e-02
-1.424425506591796875e+01 7.230920106172561646e+00 7.831417289563091799e-02
-1.431517791748046875e+01 7.106652528047561646e+00 8.305965629406841799e-02
-1.509789276123046875e+01 7.237145692110061646e+00 1.055205937940684180e-01
-1.394420623779296875e+01 6.677819520235061646e+00 8.064876762219341799e-02
-1.391222381591796875e+01 6.522912293672561646e+00 8.309017387219341799e-02
-1.400353240966796875e+01 6.409753113985061646e+00 8.858333793469341799e-02
-1.501268768310546875e+01 6.583703309297561646e+00 1.174071904737559180e-01
-1.529735565185546875e+01 6.517174988985061646e+00 1.285003301221934180e-01
-1.457445526123046875e+01 6.255456238985061646e+00 -1.129892003862181582e+00
-1.510961151123046875e+01 6.263146668672561646e+00 -1.157296789018431582e+00
-1.335131072998046875e+01 5.620934754610061646e+00 -1.036676061479369082e+00
-1.620433807373046875e+01 6.252404481172561646e+00 -1.212823522416869082e+00
-1.452184295654296875e+01 5.657311707735061646e+00 -1.098306310502806582e+00
-1.306774139404296875e+01 5.154992371797561646e+00 -9.999176386278065820e-01
-1.323693084716796875e+01 5.067101746797561646e+00 -1.004388463823119082e+00
-1.327281951904296875e+01 4.946618348360061646e+00 -1.000787389604369082e+00
-1.347362518310546875e+01 5.926842957735061646e+00 -9.975983026903065820e-01
-1.607421112060546875e+01 6.544762879610061646e+00 -1.147897374955931582e+00
-1.332176971435546875e+01 5.614709168672561646e+00 -9.756561640184315820e-01
-1.655834197998046875e+01 6.349816590547561646e+00 -1.161050451127806582e+00
-1.668798065185546875e+01 6.217126160860061646e+00 -1.160943639604369082e+00
-1.306847381591796875e+01 5.157189637422561646e+00 -9.425293329637440820e-01
-1.688085174560546875e+01 5.930016785860061646e+00 -1.156991613237181582e+00
-1.374193572998046875e+01 5.054528504610061646e+00 -9.695373896043690820e-01
-1.626805877685546875e+01 6.769006043672561646e+00 -1.093682897416869082e+00
-1.337938690185546875e+01 5.766320496797561646e+00 -9.260803583543690820e-01
-1.329247283935546875e+01 5.608605653047561646e+00 -9.152618769090565820e-01
-1.683910369873046875e+01 6.427575379610061646e+00 -1.102334630815306582e+00
-1.696349334716796875e+01 6.290734559297561646e+00 -1.101388585893431582e+00
-1.306920623779296875e+01 5.159386903047561646e+00 -8.854462030809315820e-01
-1.701500701904296875e+01 5.964318543672561646e+00 -1.088754308549681582e+00
-1.374230194091796875e+01 5.056725770235061646e+00 -9.092346552293690820e-01
-1.660082244873046875e+01 6.871545106172561646e+00 -1.037484777299681582e+00
-1.305541229248046875e+01 5.674401551485061646e+00 -8.501526239793690820e-01
-1.326317596435546875e+01 5.602380067110061646e+00 -8.548370722215565820e-01
-1.710228729248046875e+01 6.500939637422561646e+00 -1.039682042924681582e+00
-1.725048065185546875e+01 6.367272645235061646e+00 -1.039376867143431582e+00
-1.306993865966796875e+01 5.161462098360061646e+00 -8.280426386278065820e-01
-1.698546600341796875e+01 5.960046082735061646e+00 -1.011361730424681582e+00
-1.374254608154296875e+01 5.058800965547561646e+00 -8.492676142137440820e-01
-1.323668670654296875e+01 5.861657410860061646e+00 -8.065124872606190820e-01
-1.308251190185546875e+01 5.684289246797561646e+00 -7.937408808153065820e-01
-1.644676971435546875e+01 6.493615418672561646e+00 -9.408050897996815820e-01
-1.705614471435546875e+01 6.491051942110061646e+00 -9.610229853074940820e-01
-1.703197479248046875e+01 6.313561707735061646e+00 -9.525848749559315820e-01
-1.307067108154296875e+01 5.163659363985061646e+00 -7.709595087449940820e-01
-1.695629119873046875e+01 5.955651551485061646e+00 -9.346710565965565820e-01
-1.374291229248046875e+01 5.060998231172561646e+00 -7.889801386278065820e-01
-1.326451873779296875e+01 5.872033387422561646e+00 -7.489868524949940820e-01
-1.310973358154296875e+01 5.694176942110061646e+00 -7.367645624559315820e-01
-1.722106170654296875e+01 6.712609559297561646e+00 -8.981872919481190820e-01
-1.701012420654296875e+01 6.481286317110061646e+00 -8.824249628465565820e-01
-1.698607635498046875e+01 6.304284363985061646e+00 -8.743225458543690820e-01
-1.307140350341796875e+01 5.165734559297561646e+00 -7.135559442918690820e-01
-1.692687225341796875e+01 5.951257020235061646e+00 -8.578583124559315820e-01
-1.374315643310546875e+01 5.063073426485061646e+00 -7.289978388231190820e-01
-1.329271697998046875e+01 5.882531434297561646e+00 -6.908966425340565820e-01
-1.708238983154296875e+01 6.849816590547561646e+00 -8.229462030809315820e-01
-1.812059783935546875e+01 6.966759949922561646e+00 -8.530975702684315820e-01
-1.697692108154296875e+01 6.475060731172561646e+00 -8.051239374559315820e-01
-1.752513885498046875e+01 6.446130067110061646e+00 -8.173614862840565820e-01
-1.307225799560546875e+01 5.167931824922561646e+00 -6.564575556199940820e-01
-1.921715545654296875e+01 6.496911317110061646e+00 -8.608185175340565820e-01
-1.374352264404296875e+01 5.065270692110061646e+00 -6.687103632371815820e-01
-1.332091522216796875e+01 5.893029481172561646e+00 -6.328674677293690820e-01
-1.316442108154296875e+01 5.713952332735061646e+00 -6.226593378465565820e-01
-1.728282928466796875e+01 6.735192567110061646e+00 -7.450348261278065820e-01
-1.688329315185546875e+01 6.452477723360061646e+00 -7.258850458543690820e-01
-1.689537811279296875e+01 6.286095887422561646e+00 -7.195679071824940820e-01
-1.307299041748046875e+01 5.170129090547561646e+00 -5.990539911668690820e-01
-1.685741424560546875e+01 5.940026551485061646e+00 -7.055450800340565820e-01
-1.374376678466796875e+01 5.067345887422561646e+00 -6.087433222215565820e-01
-1.756200408935546875e+01 7.174035340547561646e+00 -6.884704950731190820e-01
-1.319213104248046875e+01 5.723962098360061646e+00 -5.649200800340565820e-01
-1.702672576904296875e+01 6.666100770235061646e+00 -6.606994989793690820e-01
-1.694640350341796875e+01 6.472008973360061646e+00 -6.520172480028065820e-01
-1.686766815185546875e+01 6.281457215547561646e+00 -6.435028437059315820e-01
-1.307372283935546875e+01 5.172204285860061646e+00 -5.419556024949940820e-01
-1.682006072998046875e+01 5.933678895235061646e+00 -6.294342401903065820e-01
-1.374413299560546875e+01 5.069543153047561646e+00 -5.484711054246815820e-01
-1.329198455810546875e+01 5.888268738985061646e+00 -5.137726190965565820e-01
-1.321971893310546875e+01 5.733971863985061646e+00 -5.072418573778065820e-01
-1.601525115966796875e+01 6.385339051485061646e+00 -5.625397089403065820e-01
-1.526122283935546875e+01 6.020592957735061646e+00 -5.405975702684315820e-01
-1.648741912841796875e+01 6.185632020235061646e+00 -5.603729608934315820e-01
-1.307445526123046875e+01 5.174401551485061646e+00 -4.848572138231190820e-01
-1.848412322998046875e+01 6.331628113985061646e+00 -5.880218866746815820e-01
-1.374437713623046875e+01 5.071740418672561646e+00 -4.885040644090565820e-01
-1.589855194091796875e+01 6.677209168672561646e+00 -5.002075556199940820e-01
-1.323339080810546875e+01 5.739953309297561646e+00 -4.487396601121815820e-01
-1.599095916748046875e+01 6.380944520235061646e+00 -4.901825312059315820e-01
-1.526622772216796875e+01 6.024255067110061646e+00 -4.725281122606190820e-01
-1.528820037841796875e+01 5.877648621797561646e+00 -4.674011591356190820e-01
-1.307518768310546875e+01 5.176476746797561646e+00 -4.274536493699940820e-01
-1.674608612060546875e+01 5.921227723360061646e+00 -4.786926630418690820e-01
-1.374474334716796875e+01 5.073815613985061646e+00 -4.282165888231190820e-01
-1.142162322998046875e+01 5.327355653047561646e+00 -3.718048456590565820e-01
-1.167931365966796875e+01 5.289269715547561646e+00 -3.710571649949940820e-01
-1.194860076904296875e+01 5.249596863985061646e+00 -3.702789667528065820e-01
-1.223131561279296875e+01 5.207970887422561646e+00 -3.694702509324940820e-01
-1.252623748779296875e+01 5.164513856172561646e+00 -3.686157587449940820e-01
-1.283544158935546875e+01 5.118859559297561646e+00 -3.677307489793690820e-01
-1.316100311279296875e+01 5.070885926485061646e+00 -3.667847040574940820e-01
-1.343370819091796875e+01 5.005212098360061646e+00 -3.651062372606190820e-01
-1.130980682373046875e+01 5.295251160860061646e+00 -3.206879022996815820e-01
-1.156224822998046875e+01 5.256921082735061646e+00 -3.188415888231190820e-01
-1.182653045654296875e+01 5.217126160860061646e+00 -3.171936396043690820e-01
-1.210314178466796875e+01 5.175256043672561646e+00 -3.151794794481190820e-01
-1.239171600341796875e+01 5.131432801485061646e+00 -3.130737665574940820e-01
-1.269396209716796875e+01 5.085656434297561646e+00 -3.108765009324940820e-01
-1.301818084716796875e+01 5.038903504610061646e+00 -3.082825067918690820e-01
-1.332653045654296875e+01 4.982873231172561646e+00 -3.057190302293690820e-01
-1.129833221435546875e+01 5.293420106172561646e+00 -2.712341669481190820e-01
-1.156798553466796875e+01 5.260339051485061646e+00 -2.683655146043690820e-01
-1.185070037841796875e+01 5.225671082735061646e+00 -2.653595331590565820e-01
-1.214830780029296875e+01 5.189172059297561646e+00 -2.622009638231190820e-01
-1.245995330810546875e+01 5.151086121797561646e+00 -2.588898065965565820e-01
-1.278759002685546875e+01 5.110802918672561646e+00 -2.554108026903065820e-01
-1.313390350341796875e+01 5.068444520235061646e+00 -2.517181757371815820e-01
-1.342992401123046875e+01 5.008385926485061646e+00 -2.478119257371815820e-01
-1.138390350341796875e+01 5.321007996797561646e+00 -2.214599970262440820e-01
-1.163597869873046875e+01 5.281823426485061646e+00 -2.177063349168690820e-01
-1.189855194091796875e+01 5.240929871797561646e+00 -2.135254267137440820e-01
-1.217382049560546875e+01 5.197961121797561646e+00 -2.091308954637440820e-01
-1.246080780029296875e+01 5.153161317110061646e+00 -2.045379999559315820e-01
-1.276134490966796875e+01 5.106164246797561646e+00 -1.997467401903065820e-01
-1.307726287841796875e+01 5.056847840547561646e+00 -1.947113397996815820e-01
-1.335485076904296875e+01 4.993249207735061646e+00 -1.893249872606190820e-01
-1.129296112060546875e+01 5.295129090547561646e+00 -1.722809198778065820e-01
-1.154027557373046875e+01 5.255700379610061646e+00 -1.672455194871815820e-01
-1.179845428466796875e+01 5.214562684297561646e+00 -1.619964960496815820e-01
-1.206884002685546875e+01 5.171349793672561646e+00 -1.565033319871815820e-01
-1.236742401123046875e+01 5.130700379610061646e+00 -1.506439569871815820e-01
-1.270177459716796875e+01 5.093346863985061646e+00 -1.443115595262440820e-01
-1.305565643310546875e+01 5.053674012422561646e+00 -1.376282099168690820e-01
-1.336974334716796875e+01 4.998620301485061646e+00 -1.310974481981190820e-01
-1.129222869873046875e+01 5.296593934297561646e+00 -1.226898554246815820e-01
-1.157079315185546875e+01 5.266320496797561646e+00 -1.165253046434315820e-01
-1.186376190185546875e+01 5.234704285860061646e+00 -1.097504022996815820e-01
-1.217284393310546875e+01 5.201257020235061646e+00 -1.026092890184315820e-01
-1.249706268310546875e+01 5.166222840547561646e+00 -9.513248237780658201e-02
-1.283873748779296875e+01 5.129357606172561646e+00 -8.724368843249408201e-02
-1.698693084716796875e+01 5.994103699922561646e+00 -2.935184272936908201e-02
-1.784874725341796875e+01 6.022912293672561646e+00 -1.255191597155658201e-02
-1.535997772216796875e+01 6.530968934297561646e+00 -8.142125932494082008e-03
-1.508666229248046875e+01 6.295495301485061646e+00 -8.294713823119082008e-03
-1.549352264404296875e+01 6.258019715547561646e+00 2.676355512818417992e-03
-1.731444549560546875e+01 6.594933778047561646e+00 3.783260551281841799e-02
-1.681981658935546875e+01 6.292321473360061646e+00 3.412471977063091799e-02
-1.783641815185546875e+01 6.378014832735061646e+00 5.658565727063091799e-02
-1.781639862060546875e+01 6.194909363985061646e+00 6.117855277844341799e-02
-1.779454803466796875e+01 6.013268738985061646e+00 6.566463676281841799e-02
-1.494286346435546875e+01 6.406823426485061646e+00 5.229793754406841799e-02
-1.507274627685546875e+01 6.293664246797561646e+00 5.904232230969341799e-02
-1.493273162841796875e+01 6.102502137422561646e+00 5.971370902844341799e-02
-1.708678436279296875e+01 6.535973817110061646e+00 1.103881475050059180e-01
-1.692150115966796875e+01 6.321252137422561646e+00 1.113036748487559180e-01
-1.882079315185546875e+01 6.626427918672561646e+00 1.580260869581309180e-01
-1.793407440185546875e+01 6.225671082735061646e+00 1.434844609815684180e-01
-1.887364959716796875e+01 6.262658387422561646e+00 1.696532842237559180e-01
-1.529906463623046875e+01 6.517174988985061646e+00 1.285613652784434180e-01
-1.436791229248046875e+01 6.089684754610061646e+00 1.080077764112559180e-01
-1.491905975341796875e+01 6.100915223360061646e+00 1.260741826612559180e-01
-1.676305389404296875e+01 6.450768738985061646e+00 1.786407109815684180e-01
-1.726659393310546875e+01 6.413781434297561646e+00 1.963561650831309180e-01
-1.822545623779296875e+01 6.480675965547561646e+00 2.265990850050059180e-01
-1.774108123779296875e+01 6.182336121797561646e+00 2.180236455518809180e-01
-1.764537811279296875e+01 5.984704285860061646e+00 2.202666875440684180e-01
-1.327330780029296875e+01 4.946252137422561646e+00 -1.000787389604369082e+00
-1.333629608154296875e+01 4.831506043672561646e+00 -9.986053827684315820e-01
-1.339403533935546875e+01 4.714684754610061646e+00 -9.963775995653065820e-01
-1.345214080810546875e+01 4.596886903047561646e+00 -9.941345575731190820e-01
-1.351049041748046875e+01 4.478966981172561646e+00 -9.918762567918690820e-01
-1.356920623779296875e+01 4.360192567110061646e+00 -9.896026972215565820e-01
-1.362828826904296875e+01 4.240441590547561646e+00 -9.873138788621815820e-01
-1.368102264404296875e+01 4.119469910860061646e+00 -9.849487665574940820e-01
-1.374169158935546875e+01 5.054040223360061646e+00 -9.695068720262440820e-01
-1.694921112060546875e+01 5.611413270235061646e+00 -1.145791662065306582e+00
-1.472496795654296875e+01 4.989465028047561646e+00 -1.012872350541869082e+00
-1.479357147216796875e+01 4.859948426485061646e+00 -1.010430944291869082e+00
-1.486229705810546875e+01 4.729943543672561646e+00 -1.007989538041869082e+00
-1.495067596435546875e+01 4.602502137422561646e+00 -1.006570470659056582e+00
-1.505309295654296875e+01 4.475671082735061646e+00 -1.006204259721556582e+00
-1.516588592529296875e+01 4.349328309297561646e+00 -1.006005895463744082e+00
-1.374205780029296875e+01 5.056115418672561646e+00 -9.092041376512440820e-01
-1.733409881591796875e+01 5.696862488985061646e+00 -1.090524328080931582e+00
-1.746190643310546875e+01 5.552941590547561646e+00 -1.089791906205931582e+00
-1.759154510498046875e+01 5.406823426485061646e+00 -1.089059484330931582e+00
-1.895812225341796875e+01 5.487267762422561646e+00 -1.151025426713744082e+00
-1.895836639404296875e+01 5.302453309297561646e+00 -1.143075597612181582e+00
-1.583776092529296875e+01 4.606530457735061646e+00 -9.795776728074940820e-01
-1.834557342529296875e+01 4.840050965547561646e+00 -1.096963537065306582e+00
-1.374230194091796875e+01 5.058312684297561646e+00 -8.492370966356190820e-01
-1.845116424560546875e+01 5.940392762422561646e+00 -1.066278112260619082e+00
-1.828783416748046875e+01 5.725182801485061646e+00 -1.050958288041869082e+00
-1.773851776123046875e+01 5.438195496797561646e+00 -1.017846715776244082e+00
-1.796422576904296875e+01 5.306847840547561646e+00 -1.020959508744994082e+00
-1.824254608154296875e+01 5.180627137422561646e+00 -1.026284826127806582e+00
-1.583885955810546875e+01 4.609093934297561646e+00 -9.102112177293690820e-01
-1.998363494873046875e+01 5.094689637422561646e+00 -1.089761388627806582e+00
-1.374266815185546875e+01 5.060509949922561646e+00 -7.889343622606190820e-01
-1.901549530029296875e+01 6.065026551485061646e+00 -1.008416784135619082e+00
-1.823998260498046875e+01 5.718224793672561646e+00 -9.679046991746815820e-01
-1.829332733154296875e+01 5.549157410860061646e+00 -9.627319696824940820e-01
-1.990319061279296875e+01 5.667687684297561646e+00 -1.021981847612181582e+00
-1.920226287841796875e+01 5.350915223360061646e+00 -9.852386835496815820e-01
-1.583995819091796875e+01 4.611779481172561646e+00 -8.412262323778065820e-01
-1.827391815185546875e+01 4.834679871797561646e+00 -9.325958612840565820e-01
-1.374291229248046875e+01 5.062585145235061646e+00 -7.289673212449940820e-01
-1.851500701904296875e+01 5.959924012422561646e+00 -9.043671015184315820e-01
-1.819213104248046875e+01 5.711144715547561646e+00 -8.848816278856190820e-01
-1.824974822998046875e+01 5.543420106172561646e+00 -8.797851923387440820e-01
-1.926158905029296875e+01 5.552209168672561646e+00 -9.097229364793690820e-01
-1.825865936279296875e+01 5.189172059297561646e+00 -8.657318476121815820e-01
-1.584117889404296875e+01 4.614342957735061646e+00 -7.718597772996815820e-01
-1.902928924560546875e+01 4.953942567110061646e+00 -8.792053583543690820e-01
-1.374327850341796875e+01 5.064782410860061646e+00 -6.686798456590565820e-01
-1.852770233154296875e+01 5.965539246797561646e+00 -8.225647333543690820e-01
-1.898082733154296875e+01 5.876183778047561646e+00 -8.302246454637440820e-01
-1.820665740966796875e+01 5.537804871797561646e+00 -7.977081659715565820e-01
-1.820555877685546875e+01 5.359826356172561646e+00 -7.906433466356190820e-01
-1.824364471435546875e+01 5.189294129610061646e+00 -7.848450067918690820e-01
-1.584227752685546875e+01 4.616906434297561646e+00 -7.028595331590565820e-01
-1.777086639404296875e+01 4.762780457735061646e+00 -7.562805536668690820e-01
-1.374352264404296875e+01 5.066857606172561646e+00 -6.087280634324940820e-01
-1.855480194091796875e+01 5.974206238985061646e+00 -7.410370233934315820e-01
-1.809752655029296875e+01 5.697228699922561646e+00 -7.206512812059315820e-01
-1.815941619873046875e+01 5.531457215547561646e+00 -7.154938105028065820e-01
-1.828966522216796875e+01 5.378136903047561646e+00 -7.121979120653065820e-01
-1.797850799560546875e+01 5.145837098360061646e+00 -6.969238642137440820e-01
-1.584337615966796875e+01 4.619591981172561646e+00 -6.338440302293690820e-01
-1.815233612060546875e+01 4.824425965547561646e+00 -6.884247187059315820e-01
-1.374388885498046875e+01 5.069054871797561646e+00 -5.484405878465565820e-01
-1.859642791748046875e+01 5.986047059297561646e+00 -6.591888788621815820e-01
-1.805065155029296875e+01 5.690392762422561646e+00 -6.394440058153065820e-01
-1.805541229248046875e+01 5.513879090547561646e+00 -6.328369501512440820e-01
-1.799071502685546875e+01 5.325646668672561646e+00 -6.247040155809315820e-01
-1.792687225341796875e+01 5.139489442110061646e+00 -6.166778925340565820e-01
-1.584447479248046875e+01 4.622155457735061646e+00 -5.644623163621815820e-01
-1.811669158935546875e+01 4.821740418672561646e+00 -6.076294306199940820e-01
-1.374413299560546875e+01 5.071130067110061646e+00 -4.884735468309315820e-01
-1.810301971435546875e+01 5.882043153047561646e+00 -5.671173456590565820e-01
-1.800414276123046875e+01 5.683556824922561646e+00 -5.586792353074940820e-01
-1.872533416748046875e+01 5.647790223360061646e+00 -5.654236200731190820e-01
-1.793883514404296875e+01 5.318688660860061646e+00 -5.444733026903065820e-01
-1.783507537841796875e+01 5.126183778047561646e+00 -5.362030390184315820e-01
-1.584557342529296875e+01 4.624718934297561646e+00 -4.954468134324940820e-01
-1.824730682373046875e+01 4.844689637422561646e+00 -5.304046991746815820e-01
-1.374449920654296875e+01 5.073327332735061646e+00 -4.282013300340565820e-01
-1.805345916748046875e+01 5.874108582735061646e+00 -4.856964472215565820e-01
-1.846862030029296875e+01 5.782189637422561646e+00 -4.851318720262440820e-01
-1.795067596435546875e+01 5.498864442110061646e+00 -4.714752558153065820e-01
-1.788707733154296875e+01 5.311852723360061646e+00 -4.643036249559315820e-01
-1.872020721435546875e+01 5.284142762422561646e+00 -4.688354853074940820e-01
-1.584679412841796875e+01 4.627404481172561646e+00 -4.260650995653065820e-01
-1.805345916748046875e+01 4.817467957735061646e+00 -4.475647333543690820e-01
-1.343553924560546875e+01 5.005090028047561646e+00 -3.651062372606190820e-01
-1.373290252685546875e+01 4.939660340547561646e+00 -3.634430292528065820e-01
-1.404369354248046875e+01 4.871178895235061646e+00 -3.616882685106190820e-01
-1.436986541748046875e+01 4.799279481172561646e+00 -3.598572138231190820e-01
-1.471007537841796875e+01 4.724328309297561646e+00 -3.579346064012440820e-01
-1.506676483154296875e+01 4.645715028047561646e+00 -3.559204462449940820e-01
-1.544225311279296875e+01 4.562951356172561646e+00 -3.538147333543690820e-01
-1.583531951904296875e+01 4.476281434297561646e+00 -3.516022089403065820e-01
-1.332860565185546875e+01 4.982873231172561646e+00 -3.057190302293690820e-01
-1.364293670654296875e+01 4.922204285860061646e+00 -3.028808954637440820e-01
-1.397191619873046875e+01 4.858361512422561646e+00 -3.002258661668690820e-01
-1.431884002685546875e+01 4.791466981172561646e+00 -2.970978144090565820e-01
-1.468212127685546875e+01 4.721276551485061646e+00 -2.938324335496815820e-01
-1.506432342529296875e+01 4.647546082735061646e+00 -2.903839472215565820e-01
-1.546898651123046875e+01 4.569787293672561646e+00 -2.863861444871815820e-01
-1.589354705810546875e+01 4.487756043672561646e+00 -2.825561884324940820e-01
-1.343199920654296875e+01 5.008385926485061646e+00 -2.477966669481190820e-01
-1.375145721435546875e+01 4.947839051485061646e+00 -2.435547235887440820e-01
-1.406981658935546875e+01 4.880822449922561646e+00 -2.391144159715565820e-01
-1.439257049560546875e+01 4.808068543672561646e+00 -2.344604853074940820e-01
-1.472911834716796875e+01 4.732262879610061646e+00 -2.295929315965565820e-01
-1.508153533935546875e+01 4.652917176485061646e+00 -2.244964960496815820e-01
-1.545250701904296875e+01 4.569421082735061646e+00 -2.191406610887440820e-01
-1.584056854248046875e+01 4.482018738985061646e+00 -2.135406855028065820e-01
-1.335680389404296875e+01 4.993249207735061646e+00 -1.893097284715565820e-01
-1.364696502685546875e+01 4.927087098360061646e+00 -1.841522577684315820e-01
-1.394933319091796875e+01 4.857995301485061646e+00 -1.784454706590565820e-01
-1.426622772216796875e+01 4.785485535860061646e+00 -1.724640253465565820e-01
-1.462743377685546875e+01 4.715539246797561646e+00 -1.660553339403065820e-01
-1.501903533935546875e+01 4.644128113985061646e+00 -1.592651728074940820e-01
-1.543358612060546875e+01 4.568566590547561646e+00 -1.520630243699940820e-01
-1.587096405029296875e+01 4.489098817110061646e+00 -1.441131952684315820e-01
-1.337181854248046875e+01 4.998742371797561646e+00 -1.310516718309315820e-01
-1.369860076904296875e+01 4.940392762422561646e+00 -1.240021112840565820e-01
-1.404174041748046875e+01 4.879235535860061646e+00 -1.165863397996815820e-01
-1.440380096435546875e+01 4.814660340547561646e+00 -1.087738397996815820e-01
-1.478368377685546875e+01 4.746911317110061646e+00 -1.005646112840565820e-01
-1.755638885498046875e+01 5.093591004610061646e+00 -6.739200386218158201e-02
-2.303014373779296875e+01 5.831383973360061646e+00 -3.610265580931582008e-03
-2.340917205810546875e+01 5.665368348360061646e+00 7.711755903443417992e-03
-1.784801483154296875e+01 6.022179871797561646e+00 -1.253665718249408201e-02
-1.775963592529296875e+01 5.826745301485061646e+00 -8.721959916869082008e-03
-1.764830780029296875e+01 5.629235535860061646e+00 -4.892003862181582008e-03
-1.721434783935546875e+01 5.370446473360061646e+00 -5.761754838744082008e-03
-2.493749237060546875e+01 6.644250184297561646e+00 1.127074834425059180e-01
-1.747509002685546875e+01 5.081872254610061646e+00 8.474695356568417992e-03
-2.709862518310546875e+01 6.510705262422561646e+00 1.610015508253184180e-01
-2.298607635498046875e+01 5.603112488985061646e+00 1.055511113721934180e-01
-1.779418182373046875e+01 6.012658387422561646e+00 6.567989555188091799e-02
-1.772228240966796875e+01 5.821374207735061646e+00 6.963192191906841799e-02
-1.756554412841796875e+01 5.614709168672561646e+00 7.192074027844341799e-02
-1.749840545654296875e+01 5.429040223360061646e+00 7.582699027844341799e-02
-1.754125213623046875e+01 5.266564637422561646e+00 8.177791801281841799e-02
-1.740904998779296875e+01 5.072961121797561646e+00 8.429561820813091799e-02
-2.306456756591796875e+01 5.844323426485061646e+00 2.023070928175059180e-01
-2.839842987060546875e+01 6.451257020235061646e+00 3.172210332471934180e-01
-1.887364959716796875e+01 6.262048035860061646e+00 1.696685430128184180e-01
-1.737779998779296875e+01 5.748986512422561646e+00 1.405242559034434180e-01
-1.751280975341796875e+01 5.606408387422561646e+00 1.482452031690684180e-01
-1.734728240966796875e+01 5.401940613985061646e+00 1.493438359815684180e-01
-1.732128143310546875e+01 5.228112488985061646e+00 1.536468144971934180e-01
-1.752355194091796875e+01 5.095788270235061646e+00 1.634582158643809180e-01
-2.560131072998046875e+01 6.270104676485061646e+00 3.678344365675059180e-01
-2.913707733154296875e+01 6.571130067110061646e+00 4.633086797315684180e-01
-1.764305877685546875e+01 5.983483582735061646e+00 2.202209111768809180e-01
-1.880199432373046875e+01 6.062463074922561646e+00 2.569488164503184180e-01
-1.751317596435546875e+01 5.609216004610061646e+00 2.259734746534434180e-01
-1.742858123779296875e+01 5.420617371797561646e+00 2.284453984815684180e-01
-2.495446014404296875e+01 6.659142762422561646e+00 4.491790410596934180e-01
-1.747753143310546875e+01 5.090417176485061646e+00 2.394622441846934180e-01
-1.745555877685546875e+01 4.917199403047561646e+00 2.436126348096934180e-01
-2.552172088623046875e+01 6.010461121797561646e+00 4.874480840284434180e-01
-1.368126678466796875e+01 4.118981629610061646e+00 -9.849487665574940820e-01
-1.373937225341796875e+01 3.998132020235061646e+00 -9.826141718309315820e-01
-1.379100799560546875e+01 3.875451356172561646e+00 -9.802032831590565820e-01
-1.384325408935546875e+01 3.751672059297561646e+00 -9.777771356981190820e-01
-1.390111541748046875e+01 3.628258973360061646e+00 -9.756561640184315820e-01
