-1.264056219160556793e+01 1.163304592669010162e+01 -2.796114571392536163e-01
-1.266277898848056793e+01 1.147044827044010162e+01 -2.730959542095661163e-01
-1.287066473066806793e+01 1.148643948137760162e+01 -2.762697823345661163e-01
-1.257122625410556793e+01 1.252977444231510162e+01 -2.399538643658161163e-01
-1.285919012129306793e+01 1.263292385637760162e+01 -2.464693672955036163e-01
-1.315704168379306793e+01 1.273961330950260162e+01 -2.531984932720661163e-01
-7.403379574418067932e+00 6.701893582940101624e+00 3.005040809512138367e-02
-7.435972347855567932e+00 6.631703153252601624e+00 3.246129676699638367e-02
-1.263201726973056793e+01 1.162682034075260162e+01 -2.057284004986286163e-01
-1.265423406660556793e+01 1.146446682512760162e+01 -1.996706612408161163e-01
-1.287469305098056793e+01 1.149254299700260162e+01 -2.026919014751911163e-01
-1.271026434004306793e+01 1.268016506731510162e+01 -1.701754219830036163e-01
-1.183282293379306793e+01 1.155882717669010162e+01 -1.257418282330036163e-01
-1.330828680098056793e+01 1.289781643450260162e+01 -1.811922676861286163e-01
-7.403257504105567932e+00 6.702992215752601624e+00 7.018102332949638367e-02
-7.435850277543067932e+00 6.632801786065101624e+00 7.246984168887138367e-02
-1.262359441816806793e+01 1.162071682512760162e+01 -1.323336251080036163e-01
-1.265472234785556793e+01 1.146715237200260162e+01 -1.270998604595661163e-01
-1.329839910566806793e+01 1.189696194231510162e+01 -1.458529122173786163e-01
-1.285345281660556793e+01 1.283519436419010162e+01 -9.827600792050361633e-02
-1.186761297285556793e+01 1.159740139544010162e+01 -5.639063194394111633e-02
-1.212896551191806793e+01 1.168370510637760162e+01 -6.014429405331611633e-02
-7.403257504105567932e+00 6.704212918877601624e+00 1.103116385638713837e-01
-7.435850277543067932e+00 6.634022489190101624e+00 1.124783866107463837e-01
-1.261504949629306793e+01 1.161461330950260162e+01 -5.907617881894111633e-02
-1.265862859785556793e+01 1.147313381731510162e+01 -5.426966026425361633e-02
-1.340948309004306793e+01 1.200462795794010162e+01 -7.302271202206611633e-02
-1.226385320723056793e+01 1.220848537981510162e+01 -3.091681748628616333e-03
-1.190252508223056793e+01 1.163609768450260162e+01 1.303685829043388367e-02
-1.216497625410556793e+01 1.172288967669010162e+01 1.076329872012138367e-02
-7.403257504105567932e+00 6.705311551690101624e+00 1.506406180560588837e-01
-7.435728207230567932e+00 6.635121122002601624e+00 1.526852957904338837e-01
-1.260662664473056793e+01 1.160838772356510162e+01 1.445592567324638367e-02
-1.266265691816806793e+01 1.147911526262760162e+01 1.822484657168388367e-02
-1.342425359785556793e+01 1.202098537981510162e+01 3.332268446683883667e-03
-1.171063055098056793e+01 1.162059475481510162e+01 8.373082801699638367e-02
-1.328851141035556793e+01 1.309227444231510162e+01 5.237401649355888367e-02
-1.357989324629306793e+01 1.318516995012760162e+01 5.121434852480888367e-02
-7.403135433793067932e+00 6.706410184502601624e+00 1.907559745013713837e-01
-7.435728207230567932e+00 6.636219754815101624e+00 1.926785819232463837e-01
-1.259808172285556793e+01 1.160228420794010162e+01 8.748449012637138367e-02
-1.266656316816806793e+01 1.148521877825260162e+01 9.074987098574638367e-02
-1.343914617598056793e+01 1.203734280169010162e+01 8.028234168887138367e-02
-1.225530828535556793e+01 1.220372463762760162e+01 1.448270194232463837e-01
-1.203887762129306793e+01 1.178331448137760162e+01 1.525632254779338837e-01
-1.217791570723056793e+01 1.174058987200260162e+01 1.545316092669963837e-01
-7.403135433793067932e+00 6.707630887627601624e+00 2.310696952044963837e-01
-7.435606136918067932e+00 6.637440457940101624e+00 2.328702323138713837e-01
-1.221136297285556793e+01 1.122472073137760162e+01 1.662351004779338837e-01
-1.267059148848056793e+01 1.149120022356510162e+01 1.637021414935588837e-01
-1.345391668379306793e+01 1.205382229387760162e+01 1.569882743060588837e-01
-6.678770199418067932e+00 6.254750028252601624e+00 2.722989432513713837e-01
-6.837705746293067932e+00 6.326283231377601624e+00 2.724362723529338837e-01
-7.002988949418067932e+00 6.400501981377601624e+00 2.727719657123088837e-01
-7.175840511918067932e+00 6.478016629815101624e+00 2.731381766498088837e-01
-7.355772152543067932e+00 6.558827176690101624e+00 2.735196463763713837e-01
-7.544248715043067932e+00 6.643421903252601624e+00 2.739163748919963837e-01
-7.721006527543067932e+00 6.712513700127601624e+00 2.744809500873088837e-01
-7.906431332230567932e+00 6.786000028252601624e+00 2.752744071185588837e-01
-6.616392269730567932e+00 6.189198270440101624e+00 3.087521903216838837e-01
-6.771787777543067932e+00 6.258167997002601624e+00 3.098355643451213837e-01
-6.933775082230567932e+00 6.330067411065101624e+00 3.109494559466838837e-01
-7.103086605668067932e+00 6.405262723565101624e+00 3.121091239154338837e-01
-7.279111996293067932e+00 6.483387723565101624e+00 3.133145682513713837e-01
-7.463438168168067932e+00 6.565296903252601624e+00 3.145963065326213837e-01
-7.646299496293067932e+00 6.641590848565101624e+00 3.159238211810588837e-01
-7.840757504105567932e+00 6.724720731377601624e+00 3.173123709857463837e-01
-6.606870785355567932e+00 6.180165067315101624e+00 3.447781912982463837e-01
-6.772764340043067932e+00 6.260243192315101624e+00 3.466092459857463837e-01
-6.946104183793067932e+00 6.343983426690101624e+00 3.485318534076213837e-01
-7.027036800980567932e+00 6.329090848565101624e+00 3.499051444232463837e-01
-7.317808285355567932e+00 6.523304715752601624e+00 3.524533621966838837e-01
-7.518247738480567932e+00 6.620228543877601624e+00 3.548795096576213837e-01
-7.708311215043067932e+00 6.702748075127601624e+00 3.571072928607463837e-01
-7.906065121293067932e+00 6.788075223565101624e+00 3.594266287982463837e-01
-6.658384457230567932e+00 6.236195340752601624e+00 3.813077323138713837e-01
-6.826719418168067932e+00 6.317982450127601624e+00 3.837796561419963837e-01
-6.997129574418067932e+00 6.397816434502601624e+00 3.865109793841838837e-01
-7.020200863480567932e+00 6.323353543877601624e+00 3.876553885638713837e-01
-7.381773129105567932e+00 6.588246122002601624e+00 3.925687186419963837e-01
-7.524351254105567932e+00 6.627552762627601624e+00 3.951169364154338837e-01
-7.741636410355567932e+00 6.736195340752601624e+00 3.985349051654338837e-01
-7.924619808793067932e+00 6.806996122002601624e+00 4.018155448138713837e-01
-7.479063168168067932e+00 6.360462918877601624e+00 -3.524874337017536163e-01
-7.533872738480567932e+00 6.314198270440101624e+00 -3.514193184673786163e-01
-7.586362972855567932e+00 6.265614286065101624e+00 -3.503054268658161163e-01
-7.639097347855567932e+00 6.216786161065101624e+00 -3.491915352642536163e-01
-7.691831722855567932e+00 6.167958036065101624e+00 -3.480776436626911163e-01
-7.744688168168067932e+00 6.119007840752601624e+00 -3.469484932720661163e-01
-7.797544613480567932e+00 6.070057645440101624e+00 -3.458346016705036163e-01
-7.847837582230567932e+00 6.018910184502601624e+00 -3.446596749126911163e-01
-8.092954769730567932e+00 6.943104520440101624e+00 -3.758028633892536163e-01
-8.168882504105567932e+00 6.906971707940101624e+00 -3.763979561626911163e-01
-8.234190121293067932e+00 6.860340848565101624e+00 -3.758944161236286163e-01
-8.299009457230567932e+00 6.812489286065101624e+00 -3.750704415142536163e-01
-8.359190121293067932e+00 6.760487332940101624e+00 -3.740023262798786163e-01
-8.414854183793067932e+00 6.703968778252601624e+00 -3.726900704205036163e-01
-8.456724300980567932e+00 6.635975614190101624e+00 -3.698366768658161163e-01
-8.497617855668067932e+00 6.567372098565101624e+00 -3.669069893658161163e-01
-8.663755550980567932e+00 7.485218778252601624e+00 -3.871706612408161163e-01
-8.726621761918067932e+00 7.427845731377601624e+00 -3.858126290142536163e-01
-8.789487972855567932e+00 7.370350614190101624e+00 -3.844545967876911163e-01
-8.852720394730567932e+00 7.312611356377601624e+00 -3.830965645611286163e-01
-8.915830746293067932e+00 7.254994168877601624e+00 -3.817385323345661163e-01
-8.979307308793067932e+00 7.197010770440101624e+00 -3.803652413189411163e-01
-9.042539730668067932e+00 7.139271512627601624e+00 -3.790072090923786163e-01
-9.106016293168067932e+00 7.081288114190101624e+00 -3.776339180767536163e-01
-1.283807195723056793e+01 1.144163967669010162e+01 -7.149141915142536163e-01
-1.353643621504306793e+01 1.191112209856510162e+01 -7.656038887798786163e-01
-1.030340398848056793e+01 8.759266629815101624e+00 -4.702700264751911163e-01
-1.029083074629306793e+01 8.610096707940101624e+00 -4.609011299908161163e-01
-1.027850164473056793e+01 8.464222684502601624e+00 -4.517153389751911163e-01
-9.725523129105567932e+00 7.848866239190101624e+00 -3.966158516705036163e-01
-9.805845394730567932e+00 7.794789090752601624e+00 -3.959902413189411163e-01
-9.881528988480567932e+00 7.736317411065101624e+00 -3.952273018658161163e-01
-1.284380926191806793e+01 1.144933010637760162e+01 -6.417788155376911163e-01
-1.368707098066806793e+01 1.205394436419010162e+01 -7.009981758892536163e-01
-1.321050848066806793e+01 1.142564846575260162e+01 -6.511782296001911163e-01
-1.333550848066806793e+01 1.135631252825260162e+01 -6.508883126080036163e-01
-1.452227605879306793e+01 1.222765041887760162e+01 -7.353762276470661163e-01
-1.481475652754306793e+01 1.228648830950260162e+01 -7.473086006939411163e-01
-1.096954168379306793e+01 8.793934598565101624e+00 -4.353426583111286163e-01
-1.094744695723056793e+01 8.636219754815101624e+00 -4.256991036236286163e-01
-1.284966863691806793e+01 1.145702053606510162e+01 -5.689791329205036163e-01
-1.384234441816806793e+01 1.220116116106510162e+01 -6.344240792095661163e-01
-1.321343816816806793e+01 1.143065334856510162e+01 -5.765780098736286163e-01
-1.334014715254306793e+01 1.136278225481510162e+01 -5.761812813580036163e-01
-1.478863348066806793e+01 1.246629787981510162e+01 -6.732119210064411163e-01
-1.508050359785556793e+01 1.252074123919010162e+01 -6.836947090923786163e-01
-1.531219305098056793e+01 1.251866604387760162e+01 -6.895846016705036163e-01
-1.553045476973056793e+01 1.250169827044010162e+01 -6.947725899517536163e-01
-1.285552801191806793e+01 1.146471096575260162e+01 -4.957216866314411163e-01
-1.402459539473056793e+01 1.237340237200260162e+01 -5.682161934673786163e-01
-1.321795476973056793e+01 1.143700100481510162e+01 -5.024508126080036163e-01
-1.334478582441806793e+01 1.136912991106510162e+01 -5.018404610455036163e-01
-1.506426824629306793e+01 1.271336819231510162e+01 -6.088503487408161163e-01
-1.535528387129306793e+01 1.276292873919010162e+01 -6.179140694439411163e-01
-1.557159246504306793e+01 1.274388577044010162e+01 -6.217898018658161163e-01
-1.589324773848056793e+01 1.281029202044010162e+01 -6.323946602642536163e-01
-1.286126531660556793e+01 1.147252346575260162e+01 -4.227999337017536163e-01
-1.366241277754306793e+01 1.203807522356510162e+01 -4.650972969830036163e-01
-1.321807684004306793e+01 1.143944241106510162e+01 -4.276064522564411163e-01
-1.334698309004306793e+01 1.137352444231510162e+01 -4.269045479595661163e-01
-1.530010809004306793e+01 1.292503811419010162e+01 -5.382021553814411163e-01
-1.558758367598056793e+01 1.296825100481510162e+01 -5.457399971783161163e-01
-1.585442937910556793e+01 1.298912502825260162e+01 -5.522860176861286163e-01
-1.612823309004306793e+01 1.301121975481510162e+01 -5.585421212017536163e-01
-1.286712469160556793e+01 1.148021389544010162e+01 -3.494204171001911163e-01
-1.365630926191806793e+01 1.203477932512760162e+01 -3.865297921001911163e-01
-1.321807684004306793e+01 1.144176174700260162e+01 -3.531588204205036163e-01
-1.334490789473056793e+01 1.137389065325260162e+01 -3.520907051861286163e-01
-1.543133367598056793e+01 1.304417873919010162e+01 -4.593599922955036163e-01
-1.574090398848056793e+01 1.310472561419010162e+01 -4.668978340923786163e-01
-1.601324285566806793e+01 1.312816311419010162e+01 -4.721926338970661163e-01
-1.343731512129306793e+01 1.074400784075260162e+01 -3.253420479595661163e-01
-1.287188543379306793e+01 1.148692776262760162e+01 -2.763002999126911163e-01
-1.398650945723056793e+01 1.234520412981510162e+01 -3.256319649517536163e-01
-1.321978582441806793e+01 1.144554592669010162e+01 -2.788027413189411163e-01
-1.334271062910556793e+01 1.137425686419010162e+01 -2.773378975689411163e-01
-1.558758367598056793e+01 1.318553616106510162e+01 -3.801363594830036163e-01
-1.589752019941806793e+01 1.324412991106510162e+01 -3.863619454205036163e-01
-1.327386297285556793e+01 1.078026272356510162e+01 -2.517336495220661163e-01
-1.645928777754306793e+01 1.329613186419010162e+01 -3.953493721783161163e-01
-1.287591375410556793e+01 1.149315334856510162e+01 -2.027224190533161163e-01
-1.401653875410556793e+01 1.237572170794010162e+01 -2.467440254986286163e-01
-1.322357000410556793e+01 1.145128323137760162e+01 -2.041414864361286163e-01
-1.290716375410556793e+01 1.098350979387760162e+01 -1.833132393658161163e-01
-1.334490789473056793e+01 1.119774319231510162e+01 -1.954134590923786163e-01
-1.300836004316806793e+01 1.072533108294010162e+01 -1.742342598736286163e-01
-1.342645086348056793e+01 1.091356350481510162e+01 -1.851442940533161163e-01
-1.377203191816806793e+01 1.103111721575260162e+01 -1.926973946392536163e-01
-1.329681219160556793e+01 1.189476467669010162e+01 -1.457613594830036163e-01
-1.373126043379306793e+01 1.211180569231510162e+01 -1.557863838970661163e-01
-1.322723211348056793e+01 1.145702053606510162e+01 -1.298311837017536163e-01
-1.318218816816806793e+01 1.123387600481510162e+01 -1.216677315533161163e-01
-1.349188055098056793e+01 1.133043362200260162e+01 -1.267336495220661163e-01
-1.308746160566806793e+01 1.079662014544010162e+01 -1.056154854595661163e-01
-1.340557684004306793e+01 1.089793850481510162e+01 -1.109102852642536163e-01
-1.684991277754306793e+01 1.363158108294010162e+01 -2.263582833111286163e-01
-1.341082586348056793e+01 1.200523830950260162e+01 -7.303797081112861633e-02
-1.381304754316806793e+01 1.219054104387760162e+01 -7.981287315487861633e-02
-1.323101629316806793e+01 1.146263577044010162e+01 -5.549036338925361633e-02
-1.309527410566806793e+01 1.115770412981510162e+01 -4.532800987362861633e-02
-1.294561590254306793e+01 1.084776760637760162e+01 -3.496729210019111633e-02
-1.303619207441806793e+01 1.075413967669010162e+01 -3.209863975644111633e-02
-1.312627996504306793e+01 1.066038967669010162e+01 -2.883325889706611633e-02
-1.380938543379306793e+01 1.106725002825260162e+01 -4.332910850644111633e-02
-1.342547430098056793e+01 1.202147366106510162e+01 3.317009657621383667e-03
-1.386944402754306793e+01 1.224559475481510162e+01 -2.588141709566116333e-03
-1.323467840254306793e+01 1.146837307512760162e+01 1.929296180605888367e-02
-1.333904851973056793e+01 1.138011623919010162e+01 2.205480262637138367e-02
-1.289495672285556793e+01 1.080504299700260162e+01 3.827489539980888367e-02
-1.329351629316806793e+01 1.098106838762760162e+01 3.371251747012138367e-02
-1.335967840254306793e+01 1.086314846575260162e+01 3.728307411074638367e-02
-1.729839910566806793e+01 1.401622463762760162e+01 -4.935633018612861633e-02
-1.344036687910556793e+01 1.203795315325260162e+01 8.026708289980888367e-02
-1.390569891035556793e+01 1.228184963762760162e+01 7.573522254824638367e-02
-1.323858465254306793e+01 1.147423245012760162e+01 9.371007606387138367e-02
-1.333892644941806793e+01 1.138231350481510162e+01 9.662450477480888367e-02
-1.641045965254306793e+01 1.393016506731510162e+01 4.472936317324638367e-02
-1.307086004316806793e+01 1.078880764544010162e+01 1.109372489154338837e-01
-1.333245672285556793e+01 1.084203030169010162e+01 1.108304373919963837e-01
-1.743169988691806793e+01 1.413194729387760162e+01 4.498876258730888367e-02
-1.513860906660556793e+01 1.365318752825260162e+01 1.339017264544963837e-01
-1.549786199629306793e+01 1.377159573137760162e+01 1.341611258685588837e-01
-8.393369808793067932e+00 7.025135770440101624e+00 2.315579764544963837e-01
-8.609922543168067932e+00 7.112049832940101624e+00 2.313596121966838837e-01
-8.835630550980567932e+00 7.202626004815101624e+00 2.311459891498088837e-01
-9.072813168168067932e+00 7.297840848565101624e+00 2.309171073138713837e-01
-9.320615902543067932e+00 7.397206082940101624e+00 2.306882254779338837e-01
-9.580747738480567932e+00 7.501576200127601624e+00 2.304288260638713837e-01
-7.907529965043067932e+00 6.786610379815101624e+00 2.752744071185588837e-01
-8.101499691605567932e+00 6.863758817315101624e+00 2.757779471576213837e-01
-8.303403988480567932e+00 6.943836942315101624e+00 2.765408866107463837e-01
-8.515073910355567932e+00 7.027821317315101624e+00 2.773496024310588837e-01
-8.735654965043067932e+00 7.115223661065101624e+00 2.781735770404338837e-01
-8.967344418168067932e+00 7.207142606377601624e+00 2.790585868060588837e-01
-9.209165707230567932e+00 7.302967801690101624e+00 2.799741141498088837e-01
-9.462217465043067932e+00 7.403065457940101624e+00 2.811948172748088837e-01
-7.841856136918067932e+00 6.725575223565101624e+00 3.173123709857463837e-01
-8.045591488480567932e+00 6.812855497002601624e+00 3.189145438373088837e-01
-8.258848324418067932e+00 6.904286161065101624e+00 3.206082694232463837e-01
-8.483335629105567932e+00 7.000355497002601624e+00 3.223782889544963837e-01
-8.718076840043067932e+00 7.101063504815101624e+00 3.242246024310588837e-01
-8.965757504105567932e+00 7.207142606377601624e+00 3.261777274310588837e-01
-9.225401058793067932e+00 7.318470731377601624e+00 3.282224051654338837e-01
-9.499082699418067932e+00 7.435780301690101624e+00 3.303738944232463837e-01
-7.907285824418067932e+00 6.788929715752601624e+00 3.594418875873088837e-01
-8.114439144730567932e+00 6.878529325127601624e+00 3.620511405169963837e-01
-8.331602230668067932e+00 6.972523465752601624e+00 3.647672049701213837e-01
-8.559873715043067932e+00 7.070912137627601624e+00 3.674069754779338837e-01
-8.799009457230567932e+00 7.174427762627601624e+00 3.704129569232463837e-01
-9.051939144730567932e+00 7.284046903252601624e+00 3.738309256732463837e-01
-9.294126644730567932e+00 7.379017606377601624e+00 3.770200125873088837e-01
-9.547300472855567932e+00 7.478016629815101624e+00 3.803464286029338837e-01
-7.925718441605567932e+00 6.807728543877601624e+00 4.018460623919963837e-01
-8.116514340043067932e+00 6.881825223565101624e+00 4.050046317279338837e-01
-8.315244808793067932e+00 6.958729520440101624e+00 4.085446707904338837e-01
-8.523130550980567932e+00 7.039173856377601624e+00 4.122525565326213837e-01
-8.739683285355567932e+00 7.123036161065101624e+00 4.160977713763713837e-01
-8.966734066605567932e+00 7.210926786065101624e+00 4.201413504779338837e-01
-9.203550472855567932e+00 7.302723661065101624e+00 4.243680350482463837e-01
-9.451109066605567932e+00 7.398304715752601624e+00 4.290372245013713837e-01
-7.848081722855567932e+00 6.018788114190101624e+00 -3.446749337017536163e-01
-7.901426449418067932e+00 5.970082059502601624e+00 -3.435457833111286163e-01
-7.952329769730567932e+00 5.918934598565101624e+00 -3.423861153423786163e-01
-8.003477230668067932e+00 5.867665067315101624e+00 -3.412111885845661163e-01
-8.054624691605567932e+00 5.816395536065101624e+00 -3.400362618267536163e-01
-8.105894222855567932e+00 5.764881864190101624e+00 -3.388613350689411163e-01
-8.157163754105567932e+00 5.713490262627601624e+00 -3.376864083111286163e-01
-8.205747738480567932e+00 5.659901395440101624e+00 -3.364504463970661163e-01
-8.497739925980567932e+00 6.567127957940101624e+00 -3.669069893658161163e-01
-8.535947933793067932e+00 6.496693387627601624e+00 -3.639315254986286163e-01
-8.574033871293067932e+00 6.426380887627601624e+00 -3.609560616314411163e-01
-8.615537777543067932e+00 6.358753934502601624e+00 -3.580568917095661163e-01
-8.653379574418067932e+00 6.288929715752601624e+00 -3.550966866314411163e-01
-8.687925472855567932e+00 6.216297879815101624e+00 -3.520754463970661163e-01
-8.731870785355567932e+00 6.151722684502601624e+00 -3.496950753033161163e-01
-8.781675472855567932e+00 6.091542020440101624e+00 -3.478640206158161163e-01
-9.106260433793067932e+00 7.081166043877601624e+00 -3.776339180767536163e-01
-9.167783871293067932e+00 7.021351590752601624e+00 -3.762453682720661163e-01
-9.229429379105567932e+00 6.961537137627601624e+00 -3.748720772564411163e-01
-9.291319027543067932e+00 6.901234403252601624e+00 -3.734682686626911163e-01
-9.334043636918067932e+00 6.825917020440101624e+00 -3.704317696392536163e-01
-9.386900082230567932e+00 6.758534207940101624e+00 -3.682497628033161163e-01
-9.444883480668067932e+00 6.695301786065101624e+00 -3.665255196392536163e-01
-9.507505550980567932e+00 6.635365262627601624e+00 -3.651674874126911163e-01
-9.882017269730567932e+00 7.736195340752601624e+00 -3.952425606548786163e-01
-9.965025082230567932e+00 7.683338895440101624e+00 -3.946627266705036163e-01
-1.004351629316806793e+01 7.626087918877601624e+00 -3.939608223736286163e-01
-1.011846746504306793e+01 7.565052762627601624e+00 -3.929079659283161163e-01
-1.017889226973056793e+01 7.492665067315101624e+00 -3.906954415142536163e-01
-1.023968328535556793e+01 7.419911161065101624e+00 -3.884829171001911163e-01
-1.030023016035556793e+01 7.347401395440101624e+00 -3.862703926861286163e-01
-1.035577215254306793e+01 7.271107450127601624e+00 -3.839357979595661163e-01
-1.094720281660556793e+01 8.635609403252601624e+00 -4.256533272564411163e-01
-1.002532781660556793e+01 7.734974637627601624e+00 -3.473909981548786163e-01
-1.095001043379306793e+01 8.366322293877601624e+00 -4.106691963970661163e-01
-1.105523504316806793e+01 8.317127957940101624e+00 -4.111117012798786163e-01
-1.116094793379306793e+01 8.267567411065101624e+00 -4.115389473736286163e-01
-1.126800359785556793e+01 8.217518582940101624e+00 -4.119814522564411163e-01
-1.137554754316806793e+01 8.167225614190101624e+00 -4.124086983501911163e-01
-1.147649969160556793e+01 8.110951200127601624e+00 -4.123171456158161163e-01
-1.553143133223056793e+01 1.250182034075260162e+01 -6.948031075298786163e-01
-1.002532781660556793e+01 7.736683622002601624e+00 -2.948549874126911163e-01
-1.599725164473056793e+01 1.248143459856510162e+01 -7.056673653423786163e-01
-1.633392156660556793e+01 1.254796291887760162e+01 -7.181643135845661163e-01
-1.670953191816806793e+01 1.263951565325260162e+01 -7.330263741314411163e-01
-1.711150945723056793e+01 1.274339748919010162e+01 -7.492464669048786163e-01
-1.743670476973056793e+01 1.278160549700260162e+01 -7.599428780376911163e-01
-1.356646551191806793e+01 9.676014676690101624e+00 -4.924563057720661163e-01
-1.589520086348056793e+01 1.281126858294010162e+01 -6.324862129986286163e-01
-1.002520574629306793e+01 7.738270536065101624e+00 -2.425936348736286163e-01
-1.653045476973056793e+01 1.291881252825260162e+01 -6.525210030376911163e-01
-1.682891668379306793e+01 1.294749905169010162e+01 -6.608370430767536163e-01
-1.713397039473056793e+01 1.297679592669010162e+01 -6.693361885845661163e-01
-1.749688543379306793e+01 1.304478909075260162e+01 -6.811159737408161163e-01
-1.785259832441806793e+01 1.310118557512760162e+01 -6.921480782330036163e-01
-1.819146551191806793e+01 1.313841702044010162e+01 -7.018221504986286163e-01
-1.612982000410556793e+01 1.301183010637760162e+01 -5.586031563580036163e-01
-1.002520574629306793e+01 7.739857450127601624e+00 -1.903627999126911163e-01
-1.670586980879306793e+01 1.306468655169010162e+01 -5.718172676861286163e-01
-1.700994695723056793e+01 1.309557034075260162e+01 -5.791872628033161163e-01
-1.737042059004306793e+01 1.316612698137760162e+01 -5.895327217876911163e-01
-1.781695379316806793e+01 1.329576565325260162e+01 -6.043490059673786163e-01
-1.815679754316806793e+01 1.333580471575260162e+01 -6.133669503033161163e-01
-1.830987371504306793e+01 1.323021389544010162e+01 -6.113375313580036163e-01
-1.343755926191806793e+01 1.074364162981510162e+01 -3.253420479595661163e-01
-1.002508367598056793e+01 7.741444364190101624e+00 -1.378420479595661163e-01
-1.688433660566806793e+01 1.321312405169010162e+01 -4.896944649517536163e-01
-1.724029363691806793e+01 1.328319241106510162e+01 -4.984530098736286163e-01
-1.768890203535556793e+01 1.342003323137760162e+01 -5.116366036236286163e-01
-1.812347234785556793e+01 1.353624416887760162e+01 -5.236910469830036163e-01
-1.847515691816806793e+01 1.358141018450260162e+01 -5.312594063580036163e-01
-1.830669988691806793e+01 1.323094631731510162e+01 -5.130251534283161163e-01
-1.646087469160556793e+01 1.329674221575260162e+01 -3.953951485455036163e-01
-1.002508367598056793e+01 7.743031278252601624e+00 -8.561121299862861633e-02
-1.710906805098056793e+01 1.339928127825260162e+01 -4.076021797955036163e-01
-1.756255926191806793e+01 1.354454495012760162e+01 -4.191988594830036163e-01
-1.801702703535556793e+01 1.368187405169010162e+01 -4.304751046001911163e-01
-1.844000066816806793e+01 1.378477932512760162e+01 -4.399355538189411163e-01
-1.892681707441806793e+01 1.392870022356510162e+01 -4.518831856548786163e-01
-1.830364812910556793e+01 1.323180080950260162e+01 -4.152773506939411163e-01
-1.377252019941806793e+01 1.103087307512760162e+01 -1.926973946392536163e-01
-1.002508367598056793e+01 7.744618192315101624e+00 -3.310571983456611633e-02
-1.743682684004306793e+01 1.366966702044010162e+01 -3.265017159283161163e-01
-1.788970769941806793e+01 1.380992580950260162e+01 -3.358400948345661163e-01
-1.832024969160556793e+01 1.392406155169010162e+01 -3.439882881939411163e-01
-1.871661199629306793e+01 1.400230862200260162e+01 -3.504427559673786163e-01
-1.911419500410556793e+01 1.407469631731510162e+01 -3.566683419048786163e-01
-1.830047430098056793e+01 1.323265530169010162e+01 -3.170412667095661163e-01
-1.685247625410556793e+01 1.363304592669010162e+01 -2.264193184673786163e-01
-1.002496160566806793e+01 7.746205106377601624e+00 1.910985633730888367e-02
-1.773467840254306793e+01 1.391576077044010162e+01 -2.410067208111286163e-01
-1.809417547285556793e+01 1.397716213762760162e+01 -2.450197823345661163e-01
-1.849041570723056793e+01 1.406151272356510162e+01 -2.500551827251911163e-01
-1.889971746504306793e+01 1.414757229387760162e+01 -2.551973946392536163e-01
-1.930450262129306793e+01 1.422313381731510162e+01 -2.599581368267536163e-01
-1.829730047285556793e+01 1.323350979387760162e+01 -2.193850167095661163e-01
-1.380938543379306793e+01 1.106676174700260162e+01 -4.331384971737861633e-02
-1.002496160566806793e+01 7.747792020440101624e+00 7.160009071230888367e-02
-1.786981023848056793e+01 1.402928616106510162e+01 -1.473940499126911163e-01
-1.757427801191806793e+01 1.356309963762760162e+01 -1.315859444439411163e-01
-1.867632879316806793e+01 1.421129299700260162e+01 -1.545809395611286163e-01
-1.782354559004306793e+01 1.331615139544010162e+01 -1.238039620220661163e-01
-1.797064031660556793e+01 1.320958401262760162e+01 -1.199892647564411163e-01
-1.812225164473056793e+01 1.310545803606510162e+01 -1.167696602642536163e-01
-1.730071844160556793e+01 1.401744534075260162e+01 -4.938684776425361633e-02
-1.002483953535556793e+01 7.749501004815101624e+00 1.238004080951213837e-01
-1.800799383223056793e+01 1.414525295794010162e+01 -5.172144249081611633e-02
-1.841937078535556793e+01 1.424449612200260162e+01 -5.382715538144111633e-02
-1.767693914473056793e+01 1.342601467669010162e+01 -3.077112510800361633e-02
-1.780169500410556793e+01 1.330235745012760162e+01 -2.677332237362861633e-02
-1.792632879316806793e+01 1.317894436419010162e+01 -2.279077842831611633e-02
-1.829107488691806793e+01 1.323509670794010162e+01 -2.370630577206611633e-02
-1.743401922285556793e+01 1.413304592669010162e+01 4.497350379824638367e-02
-1.002483953535556793e+01 7.751087918877601624e+00 1.759854666888713837e-01
-1.816070379316806793e+01 1.427293850481510162e+01 4.480565711855888367e-02
-1.753167547285556793e+01 1.353502346575260162e+01 6.131566688418388367e-02
-1.905865301191806793e+01 1.451964260637760162e+01 4.323400184512138367e-02
-1.946648992598056793e+01 1.459715725481510162e+01 4.344762489199638367e-02
-1.984417547285556793e+01 1.464464260637760162e+01 4.431737586855888367e-02
-1.802337469160556793e+01 1.303758694231510162e+01 7.822240516543388367e-02
-9.582334652543067932e+00 7.502552762627601624e+00 2.304288260638713837e-01
-9.855528011918067932e+00 7.612049832940101624e+00 2.303067557513713837e-01
-1.014336980879306793e+01 7.727406278252601624e+00 2.301846854388713837e-01
-1.040533269941806793e+01 7.815418973565101624e+00 2.304746024310588837e-01
-1.068047918379306793e+01 7.908558622002601624e+00 2.307797782123088837e-01
-1.096978582441806793e+01 8.006581082940101624e+00 2.310849539935588837e-01
-1.127227605879306793e+01 8.109120145440101624e+00 2.314053885638713837e-01
-1.158990301191806793e+01 8.216786161065101624e+00 2.317410819232463837e-01
-9.463804379105567932e+00 7.404042020440101624e+00 2.811948172748088837e-01
-9.730650082230567932e+00 7.509999051690101624e+00 2.820950858294963837e-01
-1.001080144941806793e+01 7.620838895440101624e+00 2.833310477435588837e-01
-1.028607000410556793e+01 7.721302762627601624e+00 2.847195975482463837e-01
-1.057354559004306793e+01 7.825917020440101624e+00 2.861844412982463837e-01
-1.087774480879306793e+01 7.937001004815101624e+00 2.877255789935588837e-01
-1.119695867598056793e+01 8.053578153252601624e+00 2.893430106341838837e-01
-1.153423894941806793e+01 8.176991239190101624e+00 2.913571707904338837e-01
-9.500791683793067932e+00 7.436756864190101624e+00 3.303891532123088837e-01
-9.790220394730567932e+00 7.561024442315101624e+00 3.328458182513713837e-01
-1.009625066816806793e+01 7.692372098565101624e+00 3.354550711810588837e-01
-1.038189519941806793e+01 7.800038114190101624e+00 3.381711356341838837e-01
-1.067584051191806793e+01 7.908436551690101624e+00 3.409940116107463837e-01
-1.098614324629306793e+01 8.022938504815101624e+00 3.439847342669963837e-01
-1.131194891035556793e+01 8.143177762627601624e+00 3.471280448138713837e-01
-1.162920965254306793e+01 8.250111356377601624e+00 3.503781668841838837e-01
-9.548887386918067932e+00 7.478993192315101624e+00 3.803616873919963837e-01
-9.814268246293067932e+00 7.582630887627601624e+00 3.840695731341838837e-01
-1.009332098066806793e+01 7.691639676690101624e+00 3.879605643451213837e-01
-1.035613836348056793e+01 7.780873075127601624e+00 3.915463797748088837e-01
-1.062383855879306793e+01 7.869129911065101624e+00 3.955289237201213837e-01
-1.090447820723056793e+01 7.961292997002601624e+00 4.000150077044963837e-01
-1.119805730879306793e+01 8.057972684502601624e+00 4.043942801654338837e-01
-1.150579656660556793e+01 8.159413114190101624e+00 4.089871756732463837e-01
-9.452695980668067932e+00 7.399159207940101624e+00 4.290524832904338837e-01
-9.713071957230567932e+00 7.500111356377601624e+00 4.336606375873088837e-01
-9.987730160355567932e+00 7.606922879815101624e+00 4.387875907123088837e-01
-1.029546941816806793e+01 7.733876004815101624e+00 4.444333426654338837e-01
-1.059527410566806793e+01 7.848255887627601624e+00 4.500638358294963837e-01
-1.091241277754306793e+01 7.969227567315101624e+00 4.560147635638713837e-01
-1.124603094160556793e+01 8.096546903252601624e+00 4.622708670794963837e-01
-1.159954656660556793e+01 8.231678739190101624e+00 4.692288748919963837e-01
-8.205991879105567932e+00 5.659779325127601624e+00 -3.364504463970661163e-01
-8.257871761918067932e+00 5.608509793877601624e+00 -3.352755196392536163e-01
-8.307066097855567932e+00 5.554920926690101624e+00 -3.340548165142536163e-01
-8.356504574418067932e+00 5.501209989190101624e+00 -3.328188546001911163e-01
-8.405943050980567932e+00 5.447376981377601624e+00 -3.315981514751911163e-01
-8.455625668168067932e+00 5.393421903252601624e+00 -3.303621895611286163e-01
-8.505308285355567932e+00 5.339466825127601624e+00 -3.291262276470661163e-01
-8.552183285355567932e+00 5.283436551690101624e+00 -3.278444893658161163e-01
-8.781797543168067932e+00 6.091297879815101624e+00 -3.478640206158161163e-01
-8.829038754105567932e+00 6.029164090752601624e+00 -3.459566719830036163e-01
-8.876157894730567932e+00 5.966908231377601624e+00 -3.440645821392536163e-01
-8.927183285355567932e+00 5.906971707940101624e+00 -3.422335274517536163e-01
-8.979795590043067932e+00 5.848500028252601624e+00 -3.407992012798786163e-01
-9.030820980668067932e+00 5.788319364190101624e+00 -3.394106514751911163e-01
-9.085142269730567932e+00 5.730458036065101624e+00 -3.380983956158161163e-01
-9.139585629105567932e+00 5.672474637627601624e+00 -3.367708809673786163e-01
-9.507749691605567932e+00 6.635243192315101624e+00 -3.651674874126911163e-01
-9.567197933793067932e+00 6.572743192315101624e+00 -3.637179024517536163e-01
-9.626890316605567932e+00 6.510121122002601624e+00 -3.622683174908161163e-01
-9.686826840043067932e+00 6.447132840752601624e+00 -3.608034737408161163e-01
-9.746763363480567932e+00 6.384266629815101624e+00 -3.593386299908161163e-01
-9.806944027543067932e+00 6.320912137627601624e+00 -3.578737862408161163e-01
-9.867246761918067932e+00 6.257679715752601624e+00 -3.563936837017536163e-01
-9.927549496293067932e+00 6.194325223565101624e+00 -3.549288399517536163e-01
-1.035589422285556793e+01 7.270863309502601624e+00 -3.839205391705036163e-01
-1.041863836348056793e+01 7.199818387627601624e+00 -3.817537911236286163e-01
-1.047637762129306793e+01 7.124989286065101624e+00 -3.794802315533161163e-01
-1.053423894941806793e+01 7.049793973565101624e+00 -3.771761544048786163e-01
-1.059197820723056793e+01 6.974842801690101624e+00 -3.748873360455036163e-01
-1.064996160566806793e+01 6.899647489190101624e+00 -3.725985176861286163e-01
-1.071697820723056793e+01 6.830799832940101624e+00 -3.709810860455036163e-01
-1.078008855879306793e+01 6.758900418877601624e+00 -3.693331368267536163e-01
-1.147686590254306793e+01 8.110707059502601624e+00 -4.123171456158161163e-01
-1.157122625410556793e+01 8.048451200127601624e+00 -4.118441231548786163e-01
-1.166607488691806793e+01 7.985829129815101624e+00 -4.113711006939411163e-01
-1.176190008223056793e+01 7.922596707940101624e+00 -4.108980782330036163e-01
-1.183184637129306793e+01 7.840931668877601624e+00 -4.085940010845661163e-01
-1.188262762129306793e+01 7.745472684502601624e+00 -4.049624092876911163e-01
-1.193328680098056793e+01 7.650624051690101624e+00 -4.013460762798786163e-01
-1.198370184004306793e+01 7.555897489190101624e+00 -3.977297432720661163e-01
-1.356561101973056793e+01 9.674793973565101624e+00 -4.923647530376911163e-01
-1.272088445723056793e+01 8.895497098565101624e+00 -4.282778389751911163e-01
-1.266985906660556793e+01 8.712879911065101624e+00 -4.173830635845661163e-01
-1.295403875410556793e+01 8.770619168877601624e+00 -4.281557686626911163e-01
-1.307183660566806793e+01 8.707508817315101624e+00 -4.280947335064411163e-01
-1.319109930098056793e+01 8.643666043877601624e+00 -4.280336983501911163e-01
-1.331085027754306793e+01 8.579579129815101624e+00 -4.279726631939411163e-01
-1.342364324629306793e+01 8.509510770440101624e+00 -4.277590401470661163e-01
-1.819354070723056793e+01 1.313927151262760162e+01 -7.019137032330036163e-01
-1.854449285566806793e+01 1.317931057512760162e+01 -7.121828682720661163e-01
-1.266985906660556793e+01 8.714955106377601624e+00 -3.527926094830036163e-01
-1.944756902754306793e+01 1.338267971575260162e+01 -7.435549385845661163e-01
-1.984869207441806793e+01 1.343651272356510162e+01 -7.556856758892536163e-01
-1.368194402754306793e+01 8.982167020440101624e+00 -3.898867256939411163e-01
-1.506439031660556793e+01 9.761952176690101624e+00 -4.610689766705036163e-01
-1.516851629316806793e+01 9.665150418877601624e+00 -4.587496407330036163e-01
-1.831109441816806793e+01 1.323033596575260162e+01 -6.113680489361286163e-01
-1.887884344160556793e+01 1.342845608294010162e+01 -6.319063790142536163e-01
-1.266985906660556793e+01 8.717152372002601624e+00 -2.878664620220661163e-01
-1.990899480879306793e+01 1.371373440325260162e+01 -6.651552803814411163e-01
-2.032195867598056793e+01 1.377013088762760162e+01 -6.759737618267536163e-01
-1.368108953535556793e+01 8.983876004815101624e+00 -3.203982003033161163e-01
-2.026666082441806793e+01 1.326671291887760162e+01 -6.518953926861286163e-01
-2.033563055098056793e+01 1.308433987200260162e+01 -6.447390206158161163e-01
-1.830792059004306793e+01 1.323119045794010162e+01 -5.130556710064411163e-01
-1.953191961348056793e+01 1.391209866106510162e+01 -5.627840645611286163e-01
-1.266985906660556793e+01 8.719227567315101624e+00 -2.232912667095661163e-01
-2.024981512129306793e+01 1.395921780169010162e+01 -5.763949044048786163e-01
-2.063311590254306793e+01 1.399071194231510162e+01 -5.839480049908161163e-01
-1.368023504316806793e+01 8.985584989190101624e+00 -2.512911446392536163e-01
-2.027044500410556793e+01 1.327281643450260162e+01 -5.464419014751911163e-01
-2.033294500410556793e+01 1.308604885637760162e+01 -5.391939766705036163e-01
-1.830486883223056793e+01 1.323204495012760162e+01 -4.152926094830036163e-01
-1.969708074629306793e+01 1.403709866106510162e+01 -4.658449776470661163e-01
-1.266985906660556793e+01 8.721302762627601624e+00 -1.587160713970661163e-01
-2.045403875410556793e+01 1.410777737200260162e+01 -4.781130440533161163e-01
-2.083965887129306793e+01 1.413853909075260162e+01 -4.841402657330036163e-01
-1.367925848066806793e+01 8.987293973565101624e+00 -1.821993477642536163e-01
-2.027435125410556793e+01 1.327879787981510162e+01 -4.415224678814411163e-01
-2.033013738691806793e+01 1.308763577044010162e+01 -4.342745430767536163e-01
-1.830169500410556793e+01 1.323289944231510162e+01 -3.170565254986286163e-01
-1.986614812910556793e+01 1.416490627825260162e+01 -3.666323311626911163e-01
-1.266985906660556793e+01 8.723500028252601624e+00 -9.382044151425361633e-02
-2.066619695723056793e+01 1.426207424700260162e+01 -3.772524483501911163e-01
-1.980328191816806793e+01 1.341844631731510162e+01 -3.371218331158161163e-01
-1.367840398848056793e+01 8.989002957940101624e+00 -1.127565987408161163e-01
-1.416448797285556793e+01 9.165760770440101624e+00 -1.237734444439411163e-01
-2.032745184004306793e+01 1.308934475481510162e+01 -3.288210518658161163e-01
-1.829864324629306793e+01 1.323363186419010162e+01 -2.194002754986286163e-01
-2.003741277754306793e+01 1.429442287981510162e+01 -2.661379463970661163e-01
-1.266985906660556793e+01 8.725575223565101624e+00 -2.926050499081611633e-02
-1.969244207441806793e+01 1.357347561419010162e+01 -2.383974678814411163e-01
-1.881524480879306793e+01 1.273180080950260162e+01 -2.037294991314411163e-01
-1.367754949629306793e+01 8.990711942315101624e+00 -4.369531944394111633e-02
-1.416094793379306793e+01 9.165638700127601624e+00 -5.234705284237861633e-02
-2.032464422285556793e+01 1.309105373919010162e+01 -2.239779122173786163e-01
-1.812286199629306793e+01 1.310521389544010162e+01 -1.167544014751911163e-01
-2.026373113691806793e+01 1.446446682512760162e+01 -1.645449288189411163e-01
-1.266985906660556793e+01 8.727650418877601624e+00 3.528417274355888367e-02
-2.110235418379306793e+01 1.457933498919010162e+01 -1.698549874126911163e-01
-1.875115789473056793e+01 1.269029690325260162e+01 -1.040285713970661163e-01
-1.367669500410556793e+01 8.992298856377601624e+00 2.533544227480888367e-02
-1.415740789473056793e+01 9.165638700127601624e+00 1.939977332949638367e-02
-2.032195867598056793e+01 1.309276272356510162e+01 -1.186159737408161163e-01
-1.829241766035556793e+01 1.323534084856510162e+01 -2.370630577206611633e-02
-1.820232976973056793e+01 1.294981838762760162e+01 -1.513086631894111633e-02
-1.266985906660556793e+01 8.729725614190101624e+00 1.001645438373088837e-01
-2.132195867598056793e+01 1.473924709856510162e+01 -6.192957237362861633e-02
-1.872881902754306793e+01 1.267784573137760162e+01 -5.319464951753616333e-03
-1.367584051191806793e+01 8.994007840752601624e+00 9.473241493105888367e-02
-1.415386785566806793e+01 9.165638700127601624e+00 9.073461219668388367e-02
-2.005413641035556793e+01 1.291881252825260162e+01 -9.164679795503616333e-03
-1.802435125410556793e+01 1.303758694231510162e+01 7.822240516543388367e-02
-2.070232976973056793e+01 1.479466702044010162e+01 4.540074989199638367e-02
-1.266985906660556793e+01 8.731922879815101624e+00 1.646939627826213837e-01
-1.913958562910556793e+01 1.319041897356510162e+01 8.058751747012138367e-02
-1.824139226973056793e+01 1.234044338762760162e+01 9.879125282168388367e-02
-1.367498601973056793e+01 8.995716825127601624e+00 1.637326590716838837e-01
-1.415032781660556793e+01 9.165638700127601624e+00 1.620084159076213837e-01
-1.424200262129306793e+01 9.071644559502601624e+00 1.656247489154338837e-01
-1.159185613691806793e+01 8.217762723565101624e+00 2.317410819232463837e-01
-1.192559637129306793e+01 8.330677762627601624e+00 2.322598807513713837e-01
-1.227728094160556793e+01 8.449696317315101624e+00 2.328244559466838837e-01
-1.264971746504306793e+01 8.575794950127601624e+00 2.334042899310588837e-01
-1.300543035566806793e+01 8.682850614190101624e+00 2.342892996966838837e-01
-1.334234441816806793e+01 8.769520536065101624e+00 2.355252616107463837e-01
-1.369366277754306793e+01 8.859974637627601624e+00 2.368069998919963837e-01
-1.406170476973056793e+01 8.954579129815101624e+00 2.381497733294963837e-01
-1.153643621504306793e+01 8.178089872002601624e+00 2.913571707904338837e-01
-1.189190496504306793e+01 8.307850614190101624e+00 2.930356375873088837e-01
-1.226885809004306793e+01 8.445667997002601624e+00 2.951413504779338837e-01
-1.267010320723056793e+01 8.592396512627601624e+00 2.973691336810588837e-01
-1.304632391035556793e+01 8.713612332940101624e+00 2.998410575091838837e-01
-1.341009344160556793e+01 8.818348661065101624e+00 3.025266043841838837e-01
-1.379119695723056793e+01 8.927967801690101624e+00 3.053342215716838837e-01
-1.419280828535556793e+01 9.043812528252601624e+00 3.086606375873088837e-01
-1.163116277754306793e+01 8.251087918877601624e+00 3.503934256732463837e-01
-1.196124090254306793e+01 8.360951200127601624e+00 3.540097586810588837e-01
-1.230865301191806793e+01 8.476429715752601624e+00 3.578244559466838837e-01
-1.267620672285556793e+01 8.598744168877601624e+00 3.618680350482463837e-01
-1.302264226973056793e+01 8.699208036065101624e+00 3.659726493060588837e-01
-1.335613836348056793e+01 8.783436551690101624e+00 3.701688162982463837e-01
-1.370355047285556793e+01 8.871083036065101624e+00 3.745480887591838837e-01
-1.406719793379306793e+01 8.962879911065101624e+00 3.791409842669963837e-01
-1.150774969160556793e+01 8.160389676690101624e+00 4.090176932513713837e-01
-1.183062566816806793e+01 8.266590848565101624e+00 4.140836112201213837e-01
-1.220245184004306793e+01 8.401600614190101624e+00 4.196988455951213837e-01
-1.261419500410556793e+01 8.556751981377601624e+00 4.254666678607463837e-01
-1.301092351973056793e+01 8.693226590752601624e+00 4.315701834857463837e-01
-1.338506902754306793e+01 8.805531278252601624e+00 4.379941336810588837e-01
-1.377667059004306793e+01 8.922840848565101624e+00 4.443417899310588837e-01
-1.418951238691806793e+01 9.046376004815101624e+00 4.510251395404338837e-01
-1.160186590254306793e+01 8.232899442315101624e+00 4.692593924701213837e-01
-1.197564519941806793e+01 8.375477567315101624e+00 4.762479178607463837e-01
-1.237359441816806793e+01 8.527577176690101624e+00 4.839993827044963837e-01
-1.817962469160556793e+01 1.252306057512760162e+01 5.706235282123088837e-01
-2.279669012129306793e+01 1.554417873919010162e+01 6.418515555560588837e-01
-1.367620672285556793e+01 9.007923856377601624e+00 5.096646659076213837e-01
-1.413799871504306793e+01 9.169178739190101624e+00 5.189114920794963837e-01
-1.990008367598056793e+01 1.283726955950260162e+01 6.098691336810588837e-01
-8.552183285355567932e+00 5.283192411065101624e+00 -3.278292305767536163e-01
-8.602476254105567932e+00 5.229237332940101624e+00 -3.265932686626911163e-01
-8.649961605668067932e+00 5.173207059502601624e+00 -3.253115303814411163e-01
-8.697691097855567932e+00 5.116932645440101624e+00 -3.240145333111286163e-01
-8.745420590043067932e+00 5.060658231377601624e+00 -3.227327950298786163e-01
-8.793516293168067932e+00 5.004017606377601624e+00 -3.214357979595661163e-01
-8.841367855668067932e+00 4.947499051690101624e+00 -3.201388008892536163e-01
-8.885923519730567932e+00 4.888661161065101624e+00 -3.187655098736286163e-01
-9.139585629105567932e+00 5.672230497002601624e+00 -3.367556221783161163e-01
-9.191587582230567932e+00 5.612416043877601624e+00 -3.353823311626911163e-01
-9.243711605668067932e+00 5.552479520440101624e+00 -3.340090401470661163e-01
-9.299497738480567932e+00 5.494251981377601624e+00 -3.326815254986286163e-01
-9.351865902543067932e+00 5.433949247002601624e+00 -3.313082344830036163e-01
-9.401060238480567932e+00 5.371083036065101624e+00 -3.298586495220661163e-01
-9.458433285355567932e+00 5.313221707940101624e+00 -3.288515694439411163e-01
-9.518125668168067932e+00 5.256459012627601624e+00 -3.280123360455036163e-01
-9.927671566605567932e+00 6.193959012627601624e+00 -3.548983223736286163e-01
-9.984678402543067932e+00 6.128163114190101624e+00 -3.533266671001911163e-01
-1.004192937910556793e+01 6.062123075127601624e+00 -3.517550118267536163e-01
-1.009954656660556793e+01 5.995716825127601624e+00 -3.501680977642536163e-01
-1.015704168379306793e+01 5.929432645440101624e+00 -3.485811837017536163e-01
-1.021941961348056793e+01 5.865345731377601624e+00 -3.473299629986286163e-01
-1.028692449629306793e+01 5.804310575127601624e+00 -3.464449532330036163e-01
-1.034271062910556793e+01 5.735951200127601624e+00 -3.446749337017536163e-01
-1.078008855879306793e+01 6.758656278252601624e+00 -3.693178780376911163e-01
-1.085027898848056793e+01 6.691151395440101624e+00 -3.677767403423786163e-01
-1.091570867598056793e+01 6.620228543877601624e+00 -3.661593087017536163e-01
-1.098150457441806793e+01 6.548817411065101624e+00 -3.645266182720661163e-01
-1.104730047285556793e+01 6.477406278252601624e+00 -3.628939278423786163e-01
-1.111358465254306793e+01 6.405506864190101624e+00 -3.612459786236286163e-01
-1.117986883223056793e+01 6.333729520440101624e+00 -3.595980294048786163e-01
-1.124127019941806793e+01 6.258656278252601624e+00 -3.578890450298786163e-01
-1.198382391035556793e+01 7.555531278252601624e+00 -3.976992256939411163e-01
-1.203961004316806793e+01 7.464588895440101624e+00 -3.946169503033161163e-01
-1.211431707441806793e+01 7.385609403252601624e+00 -3.927858956158161163e-01
-1.218963445723056793e+01 7.306019559502601624e+00 -3.909243233501911163e-01
-1.226482976973056793e+01 7.226551786065101624e+00 -3.890780098736286163e-01
-1.234051336348056793e+01 7.146473661065101624e+00 -3.872164376080036163e-01
-1.241631902754306793e+01 7.066395536065101624e+00 -3.853396065533161163e-01
-1.249224676191806793e+01 6.986073270440101624e+00 -3.834780342876911163e-01
-1.342388738691806793e+01 8.509144559502601624e+00 -4.277590401470661163e-01
-1.353130926191806793e+01 8.434559598565101624e+00 -4.265993721783161163e-01
-1.363287176191806793e+01 8.355213895440101624e+00 -4.253939278423786163e-01
-1.373541082441806793e+01 8.275013700127601624e+00 -4.241732247173786163e-01
-1.383819402754306793e+01 8.194691434502601624e+00 -4.229372628033161163e-01
-1.394195379316806793e+01 8.113636747002601624e+00 -4.217165596783161163e-01
-1.404607976973056793e+01 8.032215848565101624e+00 -4.204653389751911163e-01
-1.414324773848056793e+01 7.946034207940101624e+00 -4.191530831158161163e-01
-1.516876043379306793e+01 9.664784207940101624e+00 -4.587343819439411163e-01
-1.527129949629306793e+01 9.566273465752601624e+00 -4.564150460064411163e-01
-1.537432684004306793e+01 9.467518582940101624e+00 -4.540957100689411163e-01
-1.550836004316806793e+01 9.386708036065101624e+00 -4.533938057720661163e-01
-1.566961492598056793e+01 9.322010770440101624e+00 -4.541414864361286163e-01
-1.582464422285556793e+01 9.250843778252601624e+00 -4.544161446392536163e-01
-1.594952215254306793e+01 9.160633817315101624e+00 -4.530428536236286163e-01
-1.607537664473056793e+01 9.069813504815101624e+00 -4.516543038189411163e-01
-2.033660711348056793e+01 1.308421780169010162e+01 -6.447390206158161163e-01
-2.185027898848056793e+01 1.384080959856510162e+01 -7.103365547955036163e-01
-1.538885320723056793e+01 9.479237332940101624e+00 -3.776186592876911163e-01
-2.260040105879306793e+01 1.382848049700260162e+01 -7.243136055767536163e-01
-2.295391668379306793e+01 1.380028225481510162e+01 -7.301424629986286163e-01
-2.331658758223056793e+01 1.377122952044010162e+01 -7.361391671001911163e-01
-2.366216863691806793e+01 1.372716213762760162e+01 -7.417238838970661163e-01
