-1.219541546702384949e+01 5.722932135686278343e+00 -4.024867260828557392e-01
-1.218137738108634949e+01 5.597321784123778343e+00 -3.982905590906682392e-01
-9.992290467023849487e+00 4.805085455998778343e+00 -3.648432934656682392e-01
-1.409849163889884949e+01 5.925202643498778343e+00 -4.151820385828557392e-01
-1.364976117014884949e+01 5.657868659123778343e+00 -4.048670971766057392e-01
-8.957622498273849487e+00 4.918854987248778343e+00 -3.270930493250432392e-01
-9.131206482648849487e+00 4.892854010686278343e+00 -3.260859692469182392e-01
-9.311626404523849487e+00 4.865754401311278343e+00 -3.250331128016057392e-01
-9.499858826398849487e+00 4.837434088811278343e+00 -3.239344799891057392e-01
-9.695049256086349487e+00 4.808137213811278343e+00 -3.228053295984807392e-01
-9.898296326398849487e+00 4.777619635686278343e+00 -3.216151440516057392e-01
-1.010935589671134949e+01 4.745271002873778343e+00 -3.203791821375432392e-01
-1.028513714671134949e+01 4.699250495061278343e+00 -3.187312329187932392e-01
-8.883647888898849487e+00 4.893220221623778343e+00 -2.886561596766057392e-01
-9.054668396711349487e+00 4.867097174748778343e+00 -2.871302807703557392e-01
-9.231792420148849487e+00 4.839753424748778343e+00 -2.853450024500432392e-01
-9.416606873273849487e+00 4.811311041936278343e+00 -2.834834301844182392e-01
-9.608135193586349487e+00 4.781770026311278343e+00 -2.815608227625432392e-01
-9.807353943586349487e+00 4.751008307561278343e+00 -2.795466626062932392e-01
-1.001682659983634949e+01 4.719147955998778343e+00 -2.774409497156682392e-01
-1.021372601389884949e+01 4.680207526311278343e+00 -2.749690258875432392e-01
-8.871318787336349487e+00 4.889924323186278343e+00 -2.511805737391057392e-01
-9.053691834211349487e+00 4.867951666936278343e+00 -2.487544262781682392e-01
-9.243755310773849487e+00 4.845124518498778343e+00 -2.462367260828557392e-01
-9.442607849836349487e+00 4.821076666936278343e+00 -2.435969555750432392e-01
-9.649394959211349487e+00 4.796174323186278343e+00 -2.408503735437932392e-01
-9.865337342023849487e+00 4.770173346623778343e+00 -2.379817212000432392e-01
-1.005869671702384949e+01 4.732941901311278343e+00 -2.350215161219182392e-01
-1.028159710764884949e+01 4.700959479436278343e+00 -2.319087231531682392e-01
-8.929424256086349487e+00 4.912263190373778343e+00 -2.133387768641057392e-01
-9.114116638898849487e+00 4.890412604436278343e+00 -2.103327954187932392e-01
-9.306865662336349487e+00 4.867829596623778343e+00 -2.069758618250432392e-01
-9.508647888898849487e+00 4.844147955998778343e+00 -2.034663403406682392e-01
-9.717021912336349487e+00 4.819001471623778343e+00 -1.998347485437932392e-01
-9.917095154523849487e+00 4.787385260686278343e+00 -1.961268628016057392e-01
-1.005918499827384949e+01 4.734528815373778343e+00 -1.926631176844182392e-01
-1.029600140452384949e+01 4.706574713811278343e+00 -1.883143628016057392e-01
-8.928447693586349487e+00 4.913117682561278343e+00 -1.756800854578557392e-01
-9.097515076398849487e+00 4.885773932561278343e+00 -1.718348706141057392e-01
-9.272930115461349487e+00 4.857453620061278343e+00 -1.678370678797307392e-01
-9.455669373273849487e+00 4.827912604436278343e+00 -1.636866772547307392e-01
-9.645000427961349487e+00 4.797395026311278343e+00 -1.593836987391057392e-01
-9.841899842023849487e+00 4.765656745061278343e+00 -1.548976147547307392e-01
-1.004746624827384949e+01 4.732453620061278343e+00 -1.502284253016057392e-01
-1.022507855296134949e+01 4.687653815373778343e+00 -1.457728588953557392e-01
-8.868389099836349487e+00 4.892487799748778343e+00 -1.386470044031682392e-01
-9.034893006086349487e+00 4.865021979436278343e+00 -1.341609204187932392e-01
-9.208110779523849487e+00 4.836579596623778343e+00 -1.297053540125432392e-01
-9.388042420148849487e+00 4.806916510686278343e+00 -1.248530590906682392e-01
-9.591899842023849487e+00 4.781770026311278343e+00 -1.195582592859807392e-01
-9.813823670148849487e+00 4.758332526311278343e+00 -1.138972485437932392e-01
-1.004746624827384949e+01 4.733796393498778343e+00 -1.077174389734807392e-01
-1.024827191233634949e+01 4.695710455998778343e+00 -1.021784985437932392e-01
-8.867168396711349487e+00 4.893220221623778343e+00 -1.011103833094182392e-01
-9.056377381086349487e+00 4.873811041936278343e+00 -9.569351319223073915e-02
-9.254253357648849487e+00 4.853547370061278343e+00 -8.983413819223073915e-02
-9.461650818586349487e+00 4.832429205998778343e+00 -8.368484620004323915e-02
-9.677715271711349487e+00 4.810456549748778343e+00 -7.727615479379323915e-02
-9.904033631086349487e+00 4.787385260686278343e+00 -7.056228760629323915e-02
-1.013047406077384949e+01 4.759797370061278343e+00 -6.374160889535573915e-02
-1.033396527171134949e+01 4.721711432561278343e+00 -5.707351807504323915e-02
-1.377488324046134949e+01 5.669709479436278343e+00 -1.128393098153168239e+00
-1.381003949046134949e+01 5.544221198186278343e+00 -1.124151154793793239e+00
-1.384385296702384949e+01 5.418244635686278343e+00 -1.120138093270355739e+00
-1.387778851389884949e+01 5.291901862248778343e+00 -1.116109772957855739e+00
-1.202463909983634949e+01 4.711457526311278343e+00 -9.836634838953557392e-01
-1.207517620921134949e+01 4.609162604436278343e+00 -9.817103588953557392e-01
-1.214963909983634949e+01 4.511140143498778343e+00 -9.812983715906682392e-01
-1.222446820139884949e+01 4.412629401311278343e+00 -9.811915600672307392e-01
-1.396348187327384949e+01 5.725129401311278343e+00 -1.080373688973480739e+00
-1.393015667796134949e+01 5.578889166936278343e+00 -1.071905061043793239e+00
-1.389707562327384949e+01 5.434235846623778343e+00 -1.063192292489105739e+00
-1.412607952952384949e+01 5.356354987248778343e+00 -1.071569367684418239e+00
-1.416062542796134949e+01 5.227937018498778343e+00 -1.067464753426605739e+00
-1.419529339671134949e+01 5.099396979436278343e+00 -1.063360139168793239e+00
-1.428733441233634949e+01 4.983063971623778343e+00 -1.063131257332855739e+00
-1.463560101389884949e+01 4.919587409123778343e+00 -1.078405305184418239e+00
-1.393906781077384949e+01 5.720246588811278343e+00 -1.017660065926605739e+00
-1.390598675608634949e+01 5.574372565373778343e+00 -1.009527131356293239e+00
-1.461765667796134949e+01 5.625275885686278343e+00 -1.045797272957855739e+00
-1.471812054514884949e+01 5.507355963811278343e+00 -1.045308991707855739e+00
-1.481919476389884949e+01 5.388703620061278343e+00 -1.044805451668793239e+00
-1.457554242014884949e+01 5.189118659123778343e+00 -1.024206086434418239e+00
-1.468235394358634949e+01 5.072053229436278343e+00 -1.024053498543793239e+00
-1.489304730296134949e+01 4.975739752873778343e+00 -1.029790803231293239e+00
-1.391489788889884949e+01 5.715363776311278343e+00 -9.555262768641057392e-01
-1.388181683421134949e+01 5.569733893498778343e+00 -9.473933422937932392e-01
-1.521128460764884949e+01 5.783234870061278343e+00 -1.014272614754730739e+00
-1.538608929514884949e+01 5.677766120061278343e+00 -1.017217561043793239e+00
-1.518955609202384949e+01 5.480256354436278343e+00 -1.000066682137543239e+00
-1.522861859202384949e+01 5.341950690373778343e+00 -9.957026684656682392e-01
-1.526047894358634949e+01 5.201569830998778343e+00 -9.909266674891057392e-01
-1.493748089671134949e+01 4.987214362248778343e+00 -9.679164135828557392e-01
-1.389072796702384949e+01 5.710480963811278343e+00 -8.933009350672307392e-01
-1.530466839671134949e+01 5.960603034123778343e+00 -9.588679516687932392e-01
-1.553611370921134949e+01 5.870759284123778343e+00 -9.640101635828557392e-01
-1.542234417796134949e+01 5.689118659123778343e+00 -9.518489087000432392e-01
-1.575913617014884949e+01 5.619904791936278343e+00 -9.619654858484807392e-01
-1.630735394358634949e+01 5.593293463811278343e+00 -9.821070874109807392e-01
-1.522495648264884949e+01 5.195954596623778343e+00 -9.231318676844182392e-01
-1.498240277171134949e+01 4.998811041936278343e+00 -9.053096020594182392e-01
-1.386680218577384949e+01 5.705598151311278343e+00 -8.316554272547307392e-01
-1.545432659983634949e+01 6.003815924748778343e+00 -8.982295239344182392e-01
-1.560471722483634949e+01 5.891022955998778343e+00 -8.987178051844182392e-01
-1.545005413889884949e+01 5.698273932561278343e+00 -8.853968823328557392e-01
-1.510117718577384949e+01 5.463288580998778343e+00 -8.636378491297307392e-01
-1.591440960764884949e+01 5.504914557561278343e+00 -8.933009350672307392e-01
-1.654832074046134949e+01 5.490021979436278343e+00 -9.144343579187932392e-01
-1.647214886546134949e+01 5.313996588811278343e+00 -9.048976147547307392e-01
-1.383665081858634949e+01 5.699006354436278343e+00 -7.696589672937932392e-01
-1.596775433421134949e+01 6.146516120061278343e+00 -8.514460766687932392e-01
-1.575400921702384949e+01 5.932526862248778343e+00 -8.364009106531682392e-01
-1.546043011546134949e+01 5.703156745061278343e+00 -8.183497631922307392e-01
-1.506150433421134949e+01 5.455842291936278343e+00 -7.964228833094182392e-01
-1.511228558421134949e+01 5.321687018498778343e+00 -7.925166333094182392e-01
-1.515415570139884949e+01 5.184724127873778343e+00 -7.882136547937932392e-01
-1.513096234202384949e+01 5.034333502873778343e+00 -7.814387524500432392e-01
-1.380039593577384949e+01 5.690583502873778343e+00 -7.080744946375432392e-01
-1.552805706858634949e+01 6.028352057561278343e+00 -7.652796948328557392e-01
-1.563523480296134949e+01 5.903474127873778343e+00 -7.627314770594182392e-01
-1.574070355296134949e+01 5.776154791936278343e+00 -7.603968823328557392e-01
-1.502317425608634949e+01 5.448762213811278343e+00 -7.292842114344182392e-01
-1.507371136546134949e+01 5.314973151311278343e+00 -7.253016674891057392e-01
-1.511912152171134949e+01 5.179108893498778343e+00 -7.214717114344182392e-01
-1.514841839671134949e+01 5.040192877873778343e+00 -7.167414868250432392e-01
-1.376951214671134949e+01 5.683747565373778343e+00 -6.466731274500432392e-01
-1.550498577952384949e+01 6.024323737248778343e+00 -6.960505688562932392e-01
-1.551951214671134949e+01 5.875275885686278343e+00 -6.906489575281682392e-01
-1.548630902171134949e+01 5.714143073186278343e+00 -6.837977612391057392e-01
-1.498533245921134949e+01 5.441804205998778343e+00 -6.628932202234807392e-01
-1.503562542796134949e+01 5.308259284123778343e+00 -6.588343823328557392e-01
-1.503098675608634949e+01 5.161896979436278343e+00 -6.531428540125432392e-01
-1.523972699046134949e+01 5.061677252873778343e+00 -6.536769116297307392e-01
-1.373936077952384949e+01 5.677155768498778343e+00 -5.859431469812932392e-01
-1.375693890452384949e+01 5.547395026311278343e+00 -5.814112866297307392e-01
-1.553001019358634949e+01 5.880280768498778343e+00 -6.230067456141057392e-01
-1.551975628733634949e+01 5.724885260686278343e+00 -6.170558178797307392e-01
-1.494761273264884949e+01 5.434846198186278343e+00 -5.968531811609807392e-01
-1.500620648264884949e+01 5.303620612248778343e+00 -5.929469311609807392e-01
-1.495237347483634949e+01 5.146638190373778343e+00 -5.862330639734807392e-01
-1.507859417796134949e+01 5.029938971623778343e+00 -5.839747631922307392e-01
-1.465330120921134949e+01 5.939606940373778343e+00 -5.461940014734807392e-01
-1.481016156077384949e+01 5.838166510686278343e+00 -5.444239819422307392e-01
-1.534592816233634949e+01 5.834016120061278343e+00 -5.507106030359807392e-01
-1.555369183421134949e+01 5.735627448186278343e+00 -5.496577465906682392e-01
-1.491001507639884949e+01 5.427766120061278343e+00 -5.308436596766057392e-01
-1.546812054514884949e+01 5.412873541936278343e+00 -5.370082104578557392e-01
-1.490903851389884949e+01 5.139191901311278343e+00 -5.204371655359807392e-01
-1.485654827952384949e+01 4.985261237248778343e+00 -5.142573559656682392e-01
-1.367942425608634949e+01 5.663972174748778343e+00 -4.650172436609807392e-01
-1.455271527171134949e+01 5.769685065373778343e+00 -4.753016674891057392e-01
-1.480967327952384949e+01 5.694733893498778343e+00 -4.746302807703557392e-01
-1.502671429514884949e+01 5.604523932561278343e+00 -4.731196606531682392e-01
-1.561167523264884949e+01 5.600129401311278343e+00 -4.773921215906682392e-01
-1.491917034983634949e+01 5.287751471623778343e+00 -4.612483227625432392e-01
-1.486619183421134949e+01 5.131867682561278343e+00 -4.554042065516057392e-01
-1.481418988108634949e+01 4.978425299748778343e+00 -4.496516430750432392e-01
-1.364951702952384949e+01 5.657380377873778343e+00 -4.048365795984807392e-01
-1.482078167796134949e+01 5.845368659123778343e+00 -4.148005688562932392e-01
-1.422739788889884949e+01 5.543244635686278343e+00 -4.030970776453557392e-01
-1.099802777171134949e+01 4.586335455998778343e+00 -3.607234204187932392e-01
-1.122251507639884949e+01 4.537141120061278343e+00 -3.597468579187932392e-01
-1.145627972483634949e+01 4.485993659123778343e+00 -3.587397778406682392e-01
-1.170029827952384949e+01 4.432282721623778343e+00 -3.574275219812932392e-01
-1.195457074046134949e+01 4.376496588811278343e+00 -3.563136303797307392e-01
-1.028635784983634949e+01 4.699250495061278343e+00 -3.187312329187932392e-01
-1.048228070139884949e+01 4.655427252873778343e+00 -3.170375073328557392e-01
-1.068589398264884949e+01 4.610017096623778343e+00 -3.152674878016057392e-01
-1.089817425608634949e+01 4.562653815373778343e+00 -3.134211743250432392e-01
-1.111826702952384949e+01 4.513459479436278343e+00 -3.115138256922307392e-01
-1.134751507639884949e+01 4.462312018498778343e+00 -3.095301831141057392e-01
-1.158713909983634949e+01 4.408845221623778343e+00 -3.074549878016057392e-01
-1.183616253733634949e+01 4.353181159123778343e+00 -3.052882397547307392e-01
-1.021506878733634949e+01 4.680207526311278343e+00 -2.749690258875432392e-01
-1.042258831858634949e+01 4.640534674748778343e+00 -2.727259838953557392e-01
-1.063926312327384949e+01 4.599152838811278343e+00 -2.701625073328557392e-01
-1.086582562327384949e+01 4.555939948186278343e+00 -2.674769604578557392e-01
-1.110166546702384949e+01 4.511018073186278343e+00 -2.646846020594182392e-01
-1.134788128733634949e+01 4.464021002873778343e+00 -2.617701733484807392e-01
-1.160630413889884949e+01 4.414704596623778343e+00 -2.587031567469182392e-01
-1.187644574046134949e+01 4.363312995061278343e+00 -2.552394116297307392e-01
-1.028293988108634949e+01 4.701081549748778343e+00 -2.318934643641057392e-01
-1.049387738108634949e+01 4.661530768498778343e+00 -2.285212719812932392e-01
-1.071360394358634949e+01 4.620271002873778343e+00 -2.249964917078557392e-01
-1.094370648264884949e+01 4.577180182561278343e+00 -2.213191235437932392e-01
-1.118308636546134949e+01 4.532380377873778343e+00 -2.174891674891057392e-01
-1.143003460764884949e+01 4.484650885686278343e+00 -2.134913647547307392e-01
-1.166917034983634949e+01 4.430329596623778343e+00 -2.093714917078557392e-01
-1.191758343577384949e+01 4.373811041936278343e+00 -2.050990307703557392e-01
-1.029722210764884949e+01 4.706574713811278343e+00 -1.882991040125432392e-01
-1.049058148264884949e+01 4.662019049748778343e+00 -1.843775952234807392e-01
-1.069102093577384949e+01 4.615754401311278343e+00 -1.800593579187932392e-01
-1.089988324046134949e+01 4.567536627873778343e+00 -1.755580151453557392e-01
-1.111619183421134949e+01 4.517609870061278343e+00 -1.709040844812932392e-01
-1.134128949046134949e+01 4.465607916936278343e+00 -1.660517895594182392e-01
-1.157651898264884949e+01 4.411286627873778343e+00 -1.610011303797307392e-01
-1.182029339671134949e+01 4.354890143498778343e+00 -1.554774487391057392e-01
-1.022617718577384949e+01 4.687653815373778343e+00 -1.457423413172307392e-01
-1.041636273264884949e+01 4.643098151311278343e+00 -1.408290112391057392e-01
-1.061375042796134949e+01 4.596833502873778343e+00 -1.357325756922307392e-01
-1.083481976389884949e+01 4.552644049748778343e+00 -1.302394116297307392e-01
-1.107786175608634949e+01 4.509797370061278343e+00 -1.243495190516057392e-01
-1.133225628733634949e+01 4.465119635686278343e+00 -1.182002270594182392e-01
-1.159959027171134949e+01 4.418122565373778343e+00 -1.117457592859807392e-01
-1.187900921702384949e+01 4.368928229436278343e+00 -1.049861157312932392e-01
-1.024961468577384949e+01 4.695710455998778343e+00 -1.021479809656682392e-01
-1.046689984202384949e+01 4.658479010686278343e+00 -9.598343018441823915e-02
-1.069309613108634949e+01 4.619294440373778343e+00 -8.981887940316823915e-02
-1.093076702952384949e+01 4.578522955998778343e+00 -8.307449463754323915e-02
-1.117844769358634949e+01 4.535920416936278343e+00 -7.605545166879323915e-02
-1.143772503733634949e+01 4.491242682561278343e+00 -6.871597412973073915e-02
-1.421067425608634949e+01 5.001008307561278343e+00 -1.662246827035573915e-02
-1.410496136546134949e+01 4.843049323186278343e+00 -1.483718995004323915e-02
-1.033530804514884949e+01 4.721711432561278343e+00 -5.704300049691823915e-02
-1.069700238108634949e+01 4.723298346623778343e+00 -4.714004639535573915e-02
-1.475364300608634949e+01 5.696931159123778343e+00 4.160507079214426085e-02
-1.467979046702384949e+01 5.533601080998778343e+00 4.378707762808176085e-02
-1.474924847483634949e+01 5.407990729436278343e+00 4.900558348745676085e-02
-1.434067913889884949e+01 5.170075690373778343e+00 4.371078368276926085e-02
-1.424241253733634949e+01 5.010163580998778343e+00 4.511459227651926085e-02
-1.413633343577384949e+01 4.851716315373778343e+00 4.657943602651926085e-02
-1.222483441233634949e+01 4.412385260686278343e+00 -9.811915600672307392e-01
-1.231406781077384949e+01 4.315583502873778343e+00 -9.817561352625432392e-01
-1.239731976389884949e+01 4.216340338811278343e+00 -9.821528637781682392e-01
-1.248191449046134949e+01 4.115510260686278343e+00 -9.825495922937932392e-01
-1.256711956858634949e+01 4.013947760686278343e+00 -9.829463208094182392e-01
-1.265330120921134949e+01 3.911164557561278343e+00 -9.833583081141057392e-01
-1.274094769358634949e+01 3.806794440373778343e+00 -9.837702954187932392e-01
-1.282163617014884949e+01 3.700471198186278343e+00 -9.839991772547307392e-01
-1.464365765452384949e+01 4.920808112248778343e+00 -1.078893586434418239e+00
-1.506504437327384949e+01 4.865144049748778343e+00 -1.098730012215668239e+00
-1.276072308421134949e+01 4.286652838811278343e+00 -9.516810620203557392e-01
-1.552305218577384949e+01 4.659943854436278343e+00 -1.113668366707855739e+00
-1.455881878733634949e+01 4.350739752873778343e+00 -1.049367829598480739e+00
-1.450168988108634949e+01 4.204865729436278343e+00 -1.040029450692230739e+00
-1.443711468577384949e+01 4.059113776311278343e+00 -1.030645295418793239e+00
-1.438145062327384949e+01 3.916901862248778343e+00 -1.021535798348480739e+00
-1.489439007639884949e+01 4.975495612248778343e+00 -1.029836579598480739e+00
-1.511069867014884949e+01 4.876374518498778343e+00 -1.036062165535980739e+00
-1.276157757639884949e+01 4.288728034123778343e+00 -8.976954663172307392e-01
-1.526108929514884949e+01 4.615510260686278343e+00 -1.032216950692230739e+00
-1.525547406077384949e+01 4.470124518498778343e+00 -1.025762482918793239e+00
-1.524998089671134949e+01 4.325349127873778343e+00 -1.019338532723480739e+00
-1.524448773264884949e+01 4.180695807561278343e+00 -1.012914582528168239e+00
-1.523899456858634949e+01 4.037141120061278343e+00 -1.006551667489105739e+00
-1.493882367014884949e+01 4.986970221623778343e+00 -9.679621899500432392e-01
-1.664023968577384949e+01 5.183625495061278343e+00 -1.050176545418793239e+00
-1.276243206858634949e+01 4.290681159123778343e+00 -8.434199536219182392e-01
-1.522983929514884949e+01 4.612092291936278343e+00 -9.646815503016057392e-01
-1.523093792796134949e+01 4.468171393498778343e+00 -9.587153637781682392e-01
-1.614866253733634949e+01 4.469758307561278343e+00 -9.989070141687932392e-01
-1.711423870921134949e+01 4.459748541936278343e+00 -1.040685578621918239e+00
-1.521470257639884949e+01 4.036042487248778343e+00 -9.403132641687932392e-01
-1.498386761546134949e+01 4.998566901311278343e+00 -9.053401196375432392e-01
-1.627134320139884949e+01 5.112458502873778343e+00 -9.604548657312932392e-01
-1.276328656077384949e+01 4.292634284123778343e+00 -7.894343579187932392e-01
-1.453269574046134949e+01 4.489655768498778343e+00 -8.668269360437932392e-01
-1.519871136546134949e+01 4.464997565373778343e+00 -8.919123852625432392e-01
-1.609861370921134949e+01 4.464265143498778343e+00 -9.271449292078557392e-01
-1.519578167796134949e+01 4.178010260686278343e+00 -8.800410473719182392e-01
-1.519041058421134949e+01 4.034943854436278343e+00 -8.739833081141057392e-01
-1.647153851389884949e+01 5.313386237248778343e+00 -9.048518383875432392e-01
-1.518870159983634949e+01 4.898591315373778343e+00 -8.433741772547307392e-01
-1.276426312327384949e+01 4.294709479436278343e+00 -7.351588452234807392e-01
-1.464390179514884949e+01 4.511628424748778343e+00 -8.089656079187932392e-01
-1.617039105296134949e+01 4.631257330998778343e+00 -8.666438305750432392e-01
-1.516758343577384949e+01 4.319001471623778343e+00 -8.193721020594182392e-01
-1.517148968577384949e+01 4.176667487248778343e+00 -8.137873852625432392e-01
-1.516636273264884949e+01 4.033845221623778343e+00 -8.082179272547307392e-01
-1.513254925608634949e+01 5.034211432561278343e+00 -7.814845288172307392e-01
-1.517612835764884949e+01 4.898347174748778343e+00 -7.774409497156682392e-01
-1.276511761546134949e+01 4.296662604436278343e+00 -6.811732495203557392e-01
-1.576755902171134949e+01 4.715241705998778343e+00 -7.880458081141057392e-01
-1.512168499827384949e+01 4.456452643498778343e+00 -7.584132397547307392e-01
-1.899485394358634949e+01 4.928742682561278343e+00 -8.936213696375432392e-01
-1.950645062327384949e+01 4.822663580998778343e+00 -9.048518383875432392e-01
-2.000364300608634949e+01 4.705354010686278343e+00 -9.151972973719182392e-01
-1.514854046702384949e+01 5.039704596623778343e+00 -7.167262280359807392e-01
-1.493210980296134949e+01 4.851716315373778343e+00 -7.039393628016057392e-01
-1.276597210764884949e+01 4.298737799748778343e+00 -6.268824780359807392e-01
-1.495200726389884949e+01 4.571198737248778343e+00 -6.932734692469182392e-01
-1.452671429514884949e+01 4.358063971623778343e+00 -6.741847241297307392e-01
-1.509104534983634949e+01 4.311311041936278343e+00 -6.868037426844182392e-01
-2.013608929514884949e+01 4.919099127873778343e+00 -8.396815503016057392e-01
-1.469797894358634949e+01 3.973420416936278343e+00 -6.640681469812932392e-01
-1.524070355296134949e+01 5.061433112248778343e+00 -6.536921704187932392e-01
-1.488901898264884949e+01 4.845246588811278343e+00 -6.381282055750432392e-01
-1.276682659983634949e+01 4.300690924748778343e+00 -5.728968823328557392e-01
-1.511277386546134949e+01 4.602204596623778343e+00 -6.336573803797307392e-01
-1.478245159983634949e+01 4.403474127873778343e+00 -6.191920483484807392e-01
-1.505320355296134949e+01 4.307526862248778343e+00 -6.212672436609807392e-01
-1.490391156077384949e+01 4.143464362248778343e+00 -6.119288647547307392e-01
-1.473704144358634949e+01 3.981110846623778343e+00 -6.022853100672307392e-01
-1.507871624827384949e+01 5.029450690373778343e+00 -5.839595044031682392e-01
-1.484653851389884949e+01 4.838898932561278343e+00 -5.730799878016057392e-01
-1.276768109202384949e+01 4.302644049748778343e+00 -5.189112866297307392e-01
-1.507590863108634949e+01 4.597810065373778343e+00 -5.679530346766057392e-01
-1.489915081858634949e+01 4.425324713811278343e+00 -5.586604321375432392e-01
-1.466392132639884949e+01 4.247712409123778343e+00 -5.481929028406682392e-01
-1.997776409983634949e+01 4.901643073186278343e+00 -6.601618969812932392e-01
-1.504905316233634949e+01 4.026521002873778343e+00 -5.463771069422307392e-01
-1.485605999827384949e+01 4.984650885686278343e+00 -5.142268383875432392e-01
-1.477231976389884949e+01 4.826203620061278343e+00 -5.074977124109807392e-01
-1.276853558421134949e+01 4.304719245061278343e+00 -4.646205151453557392e-01
-1.620835492014884949e+01 4.803742682561278343e+00 -5.238703930750432392e-01
-1.498643109202384949e+01 4.442414557561278343e+00 -4.961756909266057392e-01
-1.462388226389884949e+01 4.243439948186278343e+00 -4.846247876062932392e-01
-1.499204632639884949e+01 4.161042487248778343e+00 -4.860591137781682392e-01
-1.512302777171134949e+01 4.039094245061278343e+00 -4.832057202234807392e-01
-1.481370159983634949e+01 4.977937018498778343e+00 -4.496363842859807392e-01
-1.605625531077384949e+01 5.085969245061278343e+00 -4.627284253016057392e-01
-1.276939007639884949e+01 4.306672370061278343e+00 -4.106349194422307392e-01
-1.600608441233634949e+01 4.769685065373778343e+00 -4.511470044031682392e-01
-1.497471234202384949e+01 4.442536627873778343e+00 -4.318904126062932392e-01
-1.521604534983634949e+01 4.340119635686278343e+00 -4.300593579187932392e-01
-1.485129925608634949e+01 4.142243659123778343e+00 -4.203395092859807392e-01
-1.485911175608634949e+01 4.004548346623778343e+00 -4.155177319422307392e-01
-1.195627972483634949e+01 4.376496588811278343e+00 -3.563288891687932392e-01
-1.222202679514884949e+01 4.318146979436278343e+00 -3.550776684656682392e-01
-1.250071331858634949e+01 4.257355963811278343e+00 -3.540705883875432392e-01
-1.279319378733634949e+01 4.193146979436278343e+00 -3.527125561609807392e-01
-1.304636761546134949e+01 4.117097174748778343e+00 -3.508204663172307392e-01
-1.331956097483634949e+01 4.039460455998778343e+00 -3.489436352625432392e-01
-1.360483929514884949e+01 3.958039557561278343e+00 -3.466548169031682392e-01
-1.390244671702384949e+01 3.873444830998778343e+00 -3.445948803797307392e-01
-1.183787152171134949e+01 4.353181159123778343e+00 -3.052882397547307392e-01
-1.209788128733634949e+01 4.294953620061278343e+00 -3.029078686609807392e-01
-1.236985394358634949e+01 4.234162604436278343e+00 -3.004054272547307392e-01
-1.266501995921134949e+01 4.171906745061278343e+00 -2.978266919031682392e-01
-1.295054242014884949e+01 4.102692877873778343e+00 -2.950343335047307392e-01
-1.324204632639884949e+01 4.028962409123778343e+00 -2.920741284266057392e-01
-1.354832074046134949e+01 3.951569830998778343e+00 -2.889765942469182392e-01
-1.386838909983634949e+01 3.870759284123778343e+00 -2.857264721766057392e-01
-1.187827679514884949e+01 4.363312995061278343e+00 -2.552394116297307392e-01
-1.216086956858634949e+01 4.309357916936278343e+00 -2.519892895594182392e-01
-1.245823284983634949e+01 4.252839362248778343e+00 -2.482966626062932392e-01
-1.277231976389884949e+01 4.193024909123778343e+00 -2.444056713953557392e-01
-1.304880902171134949e+01 4.121247565373778343e+00 -2.403468335047307392e-01
-1.334507367014884949e+01 4.047395026311278343e+00 -2.360896313562932392e-01
-1.364817425608634949e+01 3.968537604436278343e+00 -2.316340649500432392e-01
-1.394272992014884949e+01 3.883210455998778343e+00 -2.266902172937932392e-01
-1.191929242014884949e+01 4.373688971623778343e+00 -2.050685131922307392e-01
-1.217832562327384949e+01 4.314606940373778343e+00 -2.004145825281682392e-01
-1.244932171702384949e+01 4.252839362248778343e+00 -1.955317700281682392e-01
-1.273386761546134949e+01 4.187897955998778343e+00 -1.904048169031682392e-01
-1.298862835764884949e+01 4.112946784123778343e+00 -1.852778637781682392e-01
-1.325522992014884949e+01 4.034943854436278343e+00 -1.799220288172307392e-01
-1.353416058421134949e+01 3.953400885686278343e+00 -1.743220532312932392e-01
-1.382419964671134949e+01 3.868684088811278343e+00 -1.684931958094182392e-01
-1.182188031077384949e+01 4.354768073186278343e+00 -1.554469311609807392e-01
-1.207700726389884949e+01 4.295930182561278343e+00 -1.499995434656682392e-01
-1.235740277171134949e+01 4.237092291936278343e+00 -1.438960278406682392e-01
-1.267795941233634949e+01 4.179597174748778343e+00 -1.372279370203557392e-01
-1.297251507639884949e+01 4.111970221623778343e+00 -1.306208813562932392e-01
-1.327524945139884949e+01 4.040070807561278343e+00 -1.237696850672307392e-01
-1.359397503733634949e+01 3.964387213811278343e+00 -1.165522778406682392e-01
-1.392832562327384949e+01 3.885285651311278343e+00 -1.086787426844182392e-01
-1.188084027171134949e+01 4.368928229436278343e+00 -1.049403393641057392e-01
-1.217515179514884949e+01 4.317414557561278343e+00 -9.757034424691823915e-02
-1.248496624827384949e+01 4.263215338811278343e+00 -8.980362061410573915e-02
-1.281284710764884949e+01 4.205842291936278343e+00 -8.157913330941823915e-02
-1.994102093577384949e+01 5.303620612248778343e+00 2.532394286245676085e-02
-2.037266156077384949e+01 5.181184088811278343e+00 3.759200926870676085e-02
-1.520115277171134949e+01 4.207917487248778343e+00 -3.455154541879323915e-02
-2.541917034983634949e+01 5.497346198186278343e+00 1.273899829015192608e-01
-1.410410687327384949e+01 4.842316901311278343e+00 -1.483718995004323915e-02
-1.456443402171134949e+01 4.801301276311278343e+00 -2.447053231293239151e-03
-2.002280804514884949e+01 5.708283698186278343e+00 1.023960864171442608e-01
-1.995518109202384949e+01 5.501496588811278343e+00 1.069279467687067608e-01
-1.986008831858634949e+01 5.292634284123778343e+00 1.108494555577692608e-01
-1.478135296702384949e+01 4.285920416936278343e+00 1.784713622183176085e-02
-2.197788617014884949e+01 5.229523932561278343e+00 1.645603930577692608e-01
-1.503171917796134949e+01 4.044099127873778343e+00 3.147323485464426085e-02
-1.413547894358634949e+01 4.851105963811278343e+00 4.657943602651926085e-02
-1.438364788889884949e+01 4.766999518498778343e+00 5.584152098745676085e-02
-2.252280804514884949e+01 6.190339362248778343e+00 2.486058032140192608e-01
-1.997288128733634949e+01 5.507722174748778343e+00 1.950932299718317608e-01
-1.994089886546134949e+01 5.309479987248778343e+00 1.999302661046442608e-01
-2.199216839671134949e+01 5.447663580998778343e+00 2.549229418858942608e-01
-2.199888226389884949e+01 5.235993659123778343e+00 2.612553393468317608e-01
-1.504868695139884949e+01 4.048737799748778343e+00 9.617050047964426085e-02
-1.282224652171134949e+01 3.700227057561278343e+00 -9.840296948328557392e-01
-1.290977093577384949e+01 3.593415534123778343e+00 -9.844111645594182392e-01
-1.298484417796134949e+01 3.483796393498778343e+00 -9.842280590906682392e-01
-1.303391644358634949e+01 3.369538580998778343e+00 -9.823664868250432392e-01
-1.308298870921134949e+01 3.255036627873778343e+00 -9.804896557703557392e-01
-1.313242718577384949e+01 3.139924323186278343e+00 -9.786128247156682392e-01
-1.318235394358634949e+01 3.023591315373778343e+00 -9.767054760828557392e-01
-1.322556683421134949e+01 2.906403815373778343e+00 -9.746913159266057392e-01
-1.438096234202384949e+01 3.916413580998778343e+00 -1.021490021981293239e+00
-1.431748577952384949e+01 3.774689948186278343e+00 -1.012350007332855739e+00
-1.433140179514884949e+01 3.643586432561278343e+00 -1.007436677254730739e+00
-1.438120648264884949e+01 3.515900885686278343e+00 -1.004903718270355739e+00
-1.443113324046134949e+01 3.387849127873778343e+00 -1.002355500496918239e+00
-1.448142620921134949e+01 3.259187018498778343e+00 -9.997920239344182392e-01
-1.452500531077384949e+01 3.128815924748778343e+00 -9.971369946375432392e-01
-1.462424847483634949e+01 3.002106940373778343e+00 -9.972590649500432392e-01
-1.523887249827384949e+01 4.036652838811278343e+00 -1.006521149910980739e+00
-1.523350140452384949e+01 3.893586432561278343e+00 -1.000524445809418239e+00
-1.701951214671134949e+01 3.961335455998778343e+00 -1.090017243660980739e+00
-1.583152386546134949e+01 3.673615729436278343e+00 -1.020742341317230739e+00
-1.547532269358634949e+01 3.491608893498778343e+00 -9.961146557703557392e-01
-1.609775921702384949e+01 3.402375495061278343e+00 -1.022771760262543239e+00
-1.648386761546134949e+01 3.282136237248778343e+00 -1.036703034676605739e+00
-1.677317425608634949e+01 3.148591315373778343e+00 -1.045400544442230739e+00
-1.521458050608634949e+01 4.035554205998778343e+00 -9.402980053797307392e-01
-1.520457074046134949e+01 3.892243659123778343e+00 -9.338130200281682392e-01
-1.749729534983634949e+01 4.020173346623778343e+00 -1.039754792489105739e+00
-1.940232464671134949e+01 4.059846198186278343e+00 -1.125127717293793239e+00
-1.547068402171134949e+01 3.493439948186278343e+00 -9.297084057703557392e-01
-2.056089398264884949e+01 3.794709479436278343e+00 -1.165578767098480739e+00
-2.059360882639884949e+01 3.602326666936278343e+00 -1.159383698739105739e+00
-2.049839398264884949e+01 3.401765143498778343e+00 -1.147710725106293239e+00
-1.519028851389884949e+01 4.034455573186278343e+00 -8.739527905359807392e-01
-1.910630413889884949e+01 4.393342291936278343e+00 -1.042409821785980739e+00
-1.959690472483634949e+01 4.270051276311278343e+00 -1.056905671395355739e+00
-2.034946820139884949e+01 4.164704596623778343e+00 -1.082448884285980739e+00
-1.547202679514884949e+01 3.495881354436278343e+00 -8.639430249109807392e-01
-2.077695843577384949e+01 3.816682135686278343e+00 -1.085653229989105739e+00
-2.084775921702384949e+01 3.625153815373778343e+00 -1.080938264168793239e+00
-2.075120159983634949e+01 3.422028815373778343e+00 -1.069173737801605739e+00
-1.516624066233634949e+01 4.033356940373778343e+00 -8.082026684656682392e-01
-1.980149456858634949e+01 4.485261237248778343e+00 -9.868067944422307392e-01
-2.034995648264884949e+01 4.361726080998778343e+00 -1.001119538582855739e+00
-2.056248089671134949e+01 4.190705573186278343e+00 -1.001897736825043239e+00
-1.547324749827384949e+01 3.498322760686278343e+00 -7.978266919031682392e-01
-2.099912640452384949e+01 3.839387213811278343e+00 -1.003499909676605739e+00
-2.110996624827384949e+01 3.648713385686278343e+00 -9.999751294031682392e-01
-2.187876507639884949e+01 3.501374518498778343e+00 -1.021566315926605739e+00
-2.000730511546134949e+01 4.705231940373778343e+00 -9.153041088953557392e-01
-2.034983441233634949e+01 4.558503424748778343e+00 -9.200648510828557392e-01
-2.059763714671134949e+01 4.394074713811278343e+00 -9.212702954187932392e-01
-2.087070843577384949e+01 4.227204596623778343e+00 -9.231623852625432392e-01
-1.547459027171134949e+01 3.500764166936278343e+00 -7.320613110437932392e-01
-2.145078656077384949e+01 3.882355963811278343e+00 -9.275111401453557392e-01
-2.199241253733634949e+01 3.720612799748778343e+00 -9.377192700281682392e-01
-2.260300824046134949e+01 3.553864752873778343e+00 -9.498194897547307392e-01
-1.469675824046134949e+01 3.972810065373778343e+00 -6.640223706141057392e-01
-2.084800335764884949e+01 4.625520026311278343e+00 -8.467463696375432392e-01
-2.113035199046134949e+01 4.460236823186278343e+00 -8.472499096766057392e-01
-2.139988324046134949e+01 4.287629401311278343e+00 -8.476466381922307392e-01
-1.547581097483634949e+01 3.503205573186278343e+00 -6.659449780359807392e-01
-2.225779339671134949e+01 3.956696784123778343e+00 -8.571833813562932392e-01
-2.273838421702384949e+01 3.782136237248778343e+00 -8.634547436609807392e-01
-2.317124554514884949e+01 3.595979010686278343e+00 -8.675440991297307392e-01
-1.473582074046134949e+01 3.980378424748778343e+00 -6.022395337000432392e-01
-1.462156292796134949e+01 3.828522955998778343e+00 -5.941523754969182392e-01
-2.164817425608634949e+01 4.524812018498778343e+00 -7.684382641687932392e-01
-2.198313519358634949e+01 4.354035651311278343e+00 -7.691249096766057392e-01
-1.547703167796134949e+01 3.505646979436278343e+00 -6.001643383875432392e-01
-2.296030804514884949e+01 4.022004401311278343e+00 -7.773799145594182392e-01
-2.337913128733634949e+01 3.835725104436278343e+00 -7.792720044031682392e-01
-2.388926312327384949e+01 3.648591315373778343e+00 -7.830561840906682392e-01
-1.504917523264884949e+01 4.026032721623778343e+00 -5.463618481531682392e-01
-1.471189495921134949e+01 3.842316901311278343e+00 -5.340174878016057392e-01
-2.224741742014884949e+01 4.599152838811278343e+00 -6.865443432703557392e-01
-2.265830609202384949e+01 4.430573737248778343e+00 -6.871241772547307392e-01
-1.547837445139884949e+01 3.508088385686278343e+00 -5.343989575281682392e-01
-2.346152874827384949e+01 4.069855963811278343e+00 -6.871394360437932392e-01
-2.402671429514884949e+01 3.890046393498778343e+00 -6.898707592859807392e-01
-2.458481976389884949e+01 3.699738776311278343e+00 -6.920832837000432392e-01
-1.512449261546134949e+01 4.038728034123778343e+00 -4.832209790125432392e-01
-1.475962445139884949e+01 3.850617682561278343e+00 -4.720210278406682392e-01
-1.463779827952384949e+01 3.699006354436278343e+00 -4.650477612391057392e-01
-2.315903851389884949e+01 4.488435065373778343e+00 -5.956019604578557392e-01
-1.547959515452384949e+01 3.510529791936278343e+00 -4.682673657312932392e-01
-2.409080120921134949e+01 4.129182135686278343e+00 -5.936793530359807392e-01
-2.466978070139884949e+01 3.944245612248778343e+00 -5.938777172937932392e-01
-2.525144574046134949e+01 3.749177252873778343e+00 -5.937403881922307392e-01
-1.485972210764884949e+01 4.004182135686278343e+00 -4.155177319422307392e-01
-1.490879437327384949e+01 3.872102057561278343e+00 -4.111384594812932392e-01
-1.464988324046134949e+01 3.702668463811278343e+00 -4.031428540125432392e-01
-2.366270062327384949e+01 4.546784674748778343e+00 -5.000209057703557392e-01
-1.548093792796134949e+01 3.512971198186278343e+00 -4.024867260828557392e-01
-1.576621624827384949e+01 3.394807135686278343e+00 -4.003504956141057392e-01
-1.612083050608634949e+01 3.276032721623778343e+00 -3.987178051844182392e-01
-1.649094769358634949e+01 3.152131354436278343e+00 -3.970088208094182392e-01
-1.390452191233634949e+01 3.873322760686278343e+00 -3.445948803797307392e-01
-1.421567913889884949e+01 3.784821784123778343e+00 -3.423365795984807392e-01
-1.454270550608634949e+01 3.692048346623778343e+00 -3.402919018641057392e-01
-1.488608929514884949e+01 3.594392096623778343e+00 -3.378047192469182392e-01
-1.524570843577384949e+01 3.492097174748778343e+00 -3.352107251062932392e-01
-1.560459515452384949e+01 3.382844245061278343e+00 -3.323573315516057392e-01
-1.595615765452384949e+01 3.265534674748778343e+00 -3.288325512781682392e-01
-1.635154339671134949e+01 3.145051276311278343e+00 -3.256739819422307392e-01
-1.387058636546134949e+01 3.870637213811278343e+00 -2.857112133875432392e-01
-1.420701214671134949e+01 3.785676276311278343e+00 -2.821559155359807392e-01
-1.456101605296134949e+01 3.696442877873778343e+00 -2.784175122156682392e-01
-1.493528363108634949e+01 3.601960455998778343e+00 -2.744654858484807392e-01
-1.532896038889884949e+01 3.502595221623778343e+00 -2.702998364344182392e-01
-1.570823284983634949e+01 3.394318854436278343e+00 -2.658595288172307392e-01
-1.609226605296134949e+01 3.278718268498778343e+00 -2.611445629969182392e-01
-1.647312542796134949e+01 3.155915534123778343e+00 -2.561854565516057392e-01
-1.394480511546134949e+01 3.882966315373778343e+00 -2.266749585047307392e-01
-1.425388714671134949e+01 3.793854987248778343e+00 -2.219752514734807392e-01
-1.457700726389884949e+01 3.700471198186278343e+00 -2.167109692469182392e-01
-1.491685101389884949e+01 3.602204596623778343e+00 -2.111720288172307392e-01
-1.527244183421134949e+01 3.499299323186278343e+00 -2.053889477625432392e-01
-1.562131878733634949e+01 3.388947760686278343e+00 -1.993769848719182392e-01
-1.596470257639884949e+01 3.271027838811278343e+00 -1.931513989344182392e-01
-1.632188031077384949e+01 3.147980963811278343e+00 -1.862849438562932392e-01
-1.382615277171134949e+01 3.868439948186278343e+00 -1.684626782312932392e-01
-1.413462445139884949e+01 3.780549323186278343e+00 -1.621150219812932392e-01
-1.449741742014884949e+01 3.693146979436278343e+00 -1.551875317469182392e-01
-1.488169476389884949e+01 3.600495612248778343e+00 -1.478633129969182392e-01
-1.528647992014884949e+01 3.502961432561278343e+00 -1.401271069422307392e-01
-1.568101117014884949e+01 3.396638190373778343e+00 -1.322077954187932392e-01
-1.607627484202384949e+01 3.282258307561278343e+00 -1.240138256922307392e-01
-1.649143597483634949e+01 3.162141120061278343e+00 -1.154078686609807392e-01
-1.393052288889884949e+01 3.885163580998778343e+00 -1.086482251062932392e-01
-1.428159710764884949e+01 3.801667487248778343e+00 -1.007289135828557392e-01
-1.466428753733634949e+01 3.715241705998778343e+00 -9.192459229379323915e-02
-2.657700726389884949e+01 4.884309088811278343e+00 5.315597411245676085e-02
-2.719968792796134949e+01 4.690827643498778343e+00 6.926925536245676085e-02
-2.797336956858634949e+01 4.498933112248778343e+00 8.765609618276926085e-02
-2.865354534983634949e+01 4.283601080998778343e+00 1.053868090733942608e-01
-2.939988324046134949e+01 4.060822760686278343e+00 1.250859057530817608e-01
-2.542344281077384949e+01 5.497102057561278343e+00 1.274815356358942608e-01
-2.605039593577384949e+01 5.333283698186278343e+00 1.454563891515192608e-01
-2.668430706858634949e+01 5.158112799748778343e+00 1.639500414952692608e-01
-2.731589886546134949e+01 4.969514166936278343e+00 1.828404223546442608e-01
-2.803574749827384949e+01 4.778352057561278343e+00 2.035771166905817608e-01
-2.877158734202384949e+01 4.574860846623778343e+00 2.250614916905817608e-01
-2.951084515452384949e+01 4.356354987248778343e+00 2.470799243077692608e-01
-3.034153363108634949e+01 4.131013190373778343e+00 2.711735522374567608e-01
-1.503306195139884949e+01 4.043854987248778343e+00 3.151901122183176085e-02
-1.477756878733634949e+01 3.870393073186278343e+00 3.086288329214426085e-02
-1.497886273264884949e+01 3.757355963811278343e+00 3.916366454214426085e-02
-2.811484906077384949e+01 5.061555182561278343e+00 3.199559008702692608e-01
-2.883689495921134949e+01 4.862702643498778343e+00 3.441868579015192608e-01
-2.962034222483634949e+01 4.655549323186278343e+00 3.702030932530817608e-01
-3.042795941233634949e+01 4.434113776311278343e+00 3.980046069249567608e-01
-3.122227093577384949e+01 4.197175299748778343e+00 4.252720629796442608e-01
-1.505002972483634949e+01 4.048371588811278343e+00 9.621627684683176085e-02
-2.753855511546134949e+01 5.535065924748778343e+00 4.127140795812067608e-01
-1.491587445139884949e+01 3.751984870061278343e+00 1.014500414952692608e-01
-2.885386273264884949e+01 5.147248541936278343e+00 4.635411059483942608e-01
-2.965977093577384949e+01 4.949494635686278343e+00 4.934178149327692608e-01
-3.044810101389884949e+01 4.734650885686278343e+00 5.233097827062067608e-01
-3.062144085764884949e+01 4.454377448186278343e+00 5.373631274327692608e-01
-3.213523480296134949e+01 4.266022955998778343e+00 5.883427416905817608e-01
-1.322581097483634949e+01 2.906037604436278343e+00 -9.746913159266057392e-01
-1.327451702952384949e+01 2.788483893498778343e+00 -9.727381909266057392e-01
-1.332578656077384949e+01 2.670197760686278343e+00 -9.712123120203557392e-01
-1.338950726389884949e+01 2.551057135686278343e+00 -9.703578198328557392e-01
-1.345359417796134949e+01 2.431062018498778343e+00 -9.695185864344182392e-01
-1.351841351389884949e+01 2.309968268498778343e+00 -9.686488354578557392e-01
-1.358408734202384949e+01 2.187165534123778343e+00 -9.677790844812932392e-01
-1.364292523264884949e+01 2.063630377873778343e+00 -9.668025219812932392e-01
-1.462510296702384949e+01 3.001618659123778343e+00 -9.972895825281682392e-01
-1.475144574046134949e+01 2.874543463811278343e+00 -9.992121899500432392e-01
-1.489060589671134949e+01 2.745637213811278343e+00 -1.001424714364105739e+00
-1.494187542796134949e+01 2.610383307561278343e+00 -9.990290844812932392e-01
-1.497495648264884949e+01 2.474152838811278343e+00 -9.956263745203557392e-01
-1.500828167796134949e+01 2.337312018498778343e+00 -9.922084057703557392e-01
-1.503062054514884949e+01 2.199372565373778343e+00 -9.885157788172307392e-01
-1.506406781077384949e+01 2.061555182561278343e+00 -9.850825512781682392e-01
-1.677341839671134949e+01 3.147980963811278343e+00 -1.045385285653168239e+00
-1.680674359202384949e+01 2.994172370061278343e+00 -1.041204377450043239e+00
-1.684019085764884949e+01 2.839753424748778343e+00 -1.037008210457855739e+00
-1.687376019358634949e+01 2.684357916936278343e+00 -1.032781525887543239e+00
-1.690732952952384949e+01 2.528840338811278343e+00 -1.028539582528168239e+00
-1.694114300608634949e+01 2.372834479436278343e+00 -1.024297639168793239e+00
-1.697507855296134949e+01 2.215607916936278343e+00 -1.020025178231293239e+00
-1.700913617014884949e+01 2.058381354436278343e+00 -1.015737458504730739e+00
-2.049766156077384949e+01 3.401032721623778343e+00 -1.147649689950043239e+00
-2.040525433421134949e+01 3.202790534123778343e+00 -1.135641022957855739e+00
-2.031248089671134949e+01 3.006501471623778343e+00 -1.124166413582855739e+00
-1.818735882639884949e+01 2.735871588811278343e+00 -1.020208283700043239e+00
-1.905710980296134949e+01 2.590119635686278343e+00 -1.053121491707855739e+00
-1.997983929514884949e+01 2.428132330998778343e+00 -1.087743684090668239e+00
-2.002585980296134949e+01 2.240632330998778343e+00 -1.082723542489105739e+00
-2.005576702952384949e+01 2.053132330998778343e+00 -1.077459260262543239e+00
-2.075046917796134949e+01 3.421296393498778343e+00 -1.069112702645355739e+00
-2.065415570139884949e+01 3.220246588811278343e+00 -1.057775422371918239e+00
-2.240452191233634949e+01 3.108918463811278343e+00 -1.122823640145355739e+00
-1.818906781077384949e+01 2.738801276311278343e+00 -9.422663891687932392e-01
-2.274033734202384949e+01 2.694245612248778343e+00 -1.120565339364105739e+00
-2.287449261546134949e+01 2.481843268498778343e+00 -1.117925568856293239e+00
-2.301060101389884949e+01 2.266145026311278343e+00 -1.115224763192230739e+00
-2.314805218577384949e+01 2.048737799748778343e+00 -1.112523957528168239e+00
-2.188303753733634949e+01 3.501008307561278343e+00 -1.021688386239105739e+00
-2.250693890452384949e+01 3.330231940373778343e+00 -1.036611481942230739e+00
-2.280686566233634949e+01 3.131623541936278343e+00 -1.039678498543793239e+00
-1.819077679514884949e+01 2.741608893498778343e+00 -8.639125073328557392e-01
-2.303232952952384949e+01 2.705964362248778343e+00 -1.031682893075043239e+00
-2.317002484202384949e+01 2.490754401311278343e+00 -1.028463288582855739e+00
-2.373313519358634949e+01 2.275422370061278343e+00 -1.040105744637543239e+00
-2.564707562327384949e+01 2.046662604436278343e+00 -1.099035187996918239e+00
-2.260667034983634949e+01 3.553376471623778343e+00 -9.499263012781682392e-01
-2.298765179514884949e+01 3.361481940373778343e+00 -9.543513501062932392e-01
-2.310056683421134949e+01 3.149201666936278343e+00 -9.498957837000432392e-01
-2.326035687327384949e+01 2.935944830998778343e+00 -9.468287670984807392e-01
-2.384507367014884949e+01 2.732087409123778343e+00 -9.569911206141057392e-01
-2.520627972483634949e+01 2.530671393498778343e+00 -9.908198559656682392e-01
-2.583897015452384949e+01 2.295686041936278343e+00 -1.001287385262543239e+00
-2.565305706858634949e+01 2.050812995061278343e+00 -9.865473950281682392e-01
-2.317148968577384949e+01 3.595246588811278343e+00 -8.675288403406682392e-01
-2.357041546702384949e+01 3.398835455998778343e+00 -8.705348217859807392e-01
-2.396189495921134949e+01 3.194123541936278343e+00 -8.724879467859807392e-01
-2.434885784983634949e+01 2.980866705998778343e+00 -8.745631420984807392e-01
-2.524192425608634949e+01 2.774934088811278343e+00 -8.899134838953557392e-01
-2.601536175608634949e+01 2.549226080998778343e+00 -9.014643872156682392e-01
-2.582908245921134949e+01 2.299714362248778343e+00 -8.880671704187932392e-01
-2.565903851389884949e+01 2.054963385686278343e+00 -8.746241772547307392e-01
-2.389158245921134949e+01 3.647858893498778343e+00 -7.830867016687932392e-01
-2.428220745921134949e+01 3.443879401311278343e+00 -7.838191235437932392e-01
-2.465415570139884949e+01 3.231232916936278343e+00 -7.838496411219182392e-01
-2.545957562327384949e+01 3.027009284123778343e+00 -7.933711254969182392e-01
-2.608335492014884949e+01 2.802644049748778343e+00 -7.982844555750432392e-01
-2.600608441233634949e+01 2.553254401311278343e+00 -7.874659741297307392e-01
-2.581931683421134949e+01 2.303742682561278343e+00 -7.743434155359807392e-01
-2.566501995921134949e+01 2.058991705998778343e+00 -7.620600903406682392e-01
-2.458713909983634949e+01 3.699128424748778343e+00 -6.920985424891057392e-01
-2.496909710764884949e+01 3.487580573186278343e+00 -6.906794751062932392e-01
-2.567039105296134949e+01 3.284089362248778343e+00 -6.948146069422307392e-01
-2.619944378733634949e+01 3.059357916936278343e+00 -6.953334057703557392e-01
-2.681101605296134949e+01 2.827302252873778343e+00 -6.969508374109807392e-01
-2.598887249827384949e+01 2.557038580998778343e+00 -6.734370434656682392e-01
-2.580955120921134949e+01 2.307771002873778343e+00 -6.613215649500432392e-01
-2.567100140452384949e+01 2.063142096623778343e+00 -6.500605786219182392e-01
-2.525510784983634949e+01 3.748566901311278343e+00 -5.937709057703557392e-01
-2.577500531077384949e+01 3.538605963811278343e+00 -5.923060620203557392e-01
-2.630271527171134949e+01 3.318757330998778343e+00 -5.905818188562932392e-01
