-8.123577192425727844e+00 6.294572263956069946e+00 -3.608714812435209751e-01
-8.160442426800727844e+00 6.227799803018569946e+00 -3.580486052669584751e-01
-8.317791059613227844e+00 7.094499021768569946e+00 -3.795329802669584751e-01
-8.377483442425727844e+00 7.040055662393569946e+00 -3.782359831966459751e-01
-8.437175825238227844e+00 6.985490232706069946e+00 -3.769542449153959751e-01
-8.499919965863227844e+00 6.932999998331069946e+00 -3.756725066341459751e-01
-8.559978559613227844e+00 6.878312498331069946e+00 -3.743907683528959751e-01
-8.617595747113227844e+00 6.820939451456069946e+00 -3.730632537044584751e-01
-8.677776411175727844e+00 6.766007810831069946e+00 -3.717662566341459751e-01
-8.738079145550727844e+00 6.710954099893569946e+00 -3.704692595638334751e-01
-9.763591840863227844e+00 8.452653318643569946e+00 -4.705516570247709751e-01
-8.977092817425727844e+00 7.594865232706069946e+00 -3.892070525325834751e-01
-9.047161176800727844e+00 7.540543943643569946e+00 -3.882610076107084751e-01
-9.121624067425727844e+00 7.489396482706069946e+00 -3.876506560482084751e-01
-9.196086958050727844e+00 7.438126951456069946e+00 -3.870555632747709751e-01
-9.271160200238227844e+00 7.386491209268569946e+00 -3.864452117122709751e-01
-9.346233442425727844e+00 7.334855467081069946e+00 -3.858348601497709751e-01
-9.421672895550727844e+00 7.282975584268569946e+00 -3.852245085872709751e-01
-1.327054984867572784e+01 1.174635449051856995e+01 -7.241527312435209751e-01
-1.282719047367572784e+01 1.115077343583106995e+01 -6.742412322200834751e-01
-1.295353324711322784e+01 1.108863964676856995e+01 -6.745311492122709751e-01
-1.037089164555072784e+01 8.606217771768569946e+00 -4.449474089778959751e-01
-1.035502250492572784e+01 8.457169920206069946e+00 -4.355479949153959751e-01
-1.033939750492572784e+01 8.310319334268569946e+00 -4.263011687435209751e-01
-9.589763715863227844e+00 7.543107420206069946e+00 -3.568736785091459751e-01
-9.626018598675727844e+00 7.455094724893569946e+00 -3.530437224544584751e-01
-1.341837699711322784e+01 1.188758984208106995e+01 -6.601573699153959751e-01
-1.283158500492572784e+01 1.115712109208106995e+01 -6.023113005794584751e-01
-1.295646293461322784e+01 1.109352245926856995e+01 -6.022197478450834751e-01
-1.429386527836322784e+01 1.211122265458106995e+01 -6.974345915950834751e-01
-1.456888969242572784e+01 1.215944042801856995e+01 -7.079021208919584751e-01
-1.479117973148822784e+01 1.215614452958106995e+01 -7.139598601497709751e-01
-9.589641645550727844e+00 7.544694334268569946e+00 -3.067027800716459751e-01
-9.626018598675727844e+00 7.456681638956069946e+00 -3.027354949153959751e-01
-1.356913383305072784e+01 1.203151074051856995e+01 -5.949107878841459751e-01
-1.283597953617572784e+01 1.116334667801856995e+01 -5.299388640560209751e-01
-1.295927055180072784e+01 1.109840527176856995e+01 -5.295116179622709751e-01
-1.455533988773822784e+01 1.234730663895606995e+01 -6.357280486263334751e-01
-1.483012016117572784e+01 1.239149609208106995e+01 -6.448680632747709751e-01
-1.505326469242572784e+01 1.238514843583106995e+01 -6.500407927669584751e-01
-9.589641645550727844e+00 7.546159178018569946e+00 -2.562572234310209751e-01
-9.625896528363227844e+00 7.458268553018569946e+00 -2.527171843685209751e-01
-1.391691215336322784e+01 1.236049023270606995e+01 -5.408794158138334751e-01
-1.283842094242572784e+01 1.116798534989356995e+01 -4.577800505794584751e-01
-1.296305473148822784e+01 1.110414257645606995e+01 -4.572154753841459751e-01
-1.482596977055072784e+01 1.259169140458106995e+01 -5.718394988216459751e-01
-1.511674125492572784e+01 1.264589062333106995e+01 -5.807658904232084751e-01
-1.537504203617572784e+01 1.266578808426856995e+01 -5.872508757747709751e-01
-9.589519575238227844e+00 7.547746092081069946e+00 -2.060863249935209751e-01
-9.625896528363227844e+00 7.459855467081069946e+00 -2.024242156185209751e-01
-1.325626762211322784e+01 1.174232617020606995e+01 -4.200145476497709751e-01
-1.283646781742572784e+01 1.116835156083106995e+01 -3.853313201107084751e-01
-1.296354301273822784e+01 1.110695019364356995e+01 -3.842937224544584751e-01
-1.282523734867572784e+01 1.080641308426856995e+01 -3.675853484310209751e-01
-1.526383598148822784e+01 1.277784863114356995e+01 -5.043956511653959751e-01
-1.299406059086322784e+01 1.061110058426856995e+01 -3.613292449153959751e-01
-9.589519575238227844e+00 7.549333006143569946e+00 -1.559306853450834751e-01
-9.625774458050727844e+00 7.461320310831069946e+00 -1.524059050716459751e-01
-1.326627738773822784e+01 1.175404492020606995e+01 -3.446819060482084751e-01
-1.283451469242572784e+01 1.116883984208106995e+01 -3.125316374935209751e-01
-1.296342094242572784e+01 1.110914745926856995e+01 -3.117229216732084751e-01
-1.511942680180072784e+01 1.285914745926856995e+01 -4.202739470638334751e-01
-1.283451469242572784e+01 1.064528027176856995e+01 -2.893077605403959751e-01
-1.324259574711322784e+01 1.082826367020606995e+01 -3.032848113216459751e-01
-9.589397504925727844e+00 7.550919920206069946e+00 -1.055156462825834751e-01
-9.625774458050727844e+00 7.462907224893569946e+00 -1.021281951107084751e-01
-1.245426566898822784e+01 1.099330273270606995e+01 -2.287456267513334751e-01
-1.249650199711322784e+01 1.085865917801856995e+01 -2.236491912044584751e-01
-1.256766898930072784e+01 1.075160351395606995e+01 -2.200023406185209751e-01
-1.346110160648822784e+01 1.137941113114356995e+01 -2.556773894466459751e-01
-1.319157035648822784e+01 1.096144238114356995e+01 -2.354747527278959751e-01
-1.283927543461322784e+01 1.048195019364356995e+01 -2.118236296810209751e-01
-9.589397504925727844e+00 7.552384763956069946e+00 -5.536000663414597511e-02
-9.625652387738227844e+00 7.464494138956069946e+00 -5.212514335289597511e-02
-1.331657035648822784e+01 1.180604687333106995e+01 -1.953593962825834751e-01
-1.242277152836322784e+01 1.079261913895606995e+01 -1.499339812435209751e-01
-1.296329887211322784e+01 1.111341992020606995e+01 -1.662456267513334751e-01
-1.293070609867572784e+01 1.090760937333106995e+01 -1.581279509700834751e-01
-1.260648734867572784e+01 1.044935742020606995e+01 -1.381847136653959751e-01
-1.301505668461322784e+01 1.063612499833106995e+01 -1.483775847591459751e-01
-9.589397504925727844e+00 7.553971678018569946e+00 -4.944967571645975113e-03
-9.625652387738227844e+00 7.466081053018569946e+00 -1.862692181020975113e-03
-1.233292777836322784e+01 1.088368359208106995e+01 -8.299367362633347511e-02
-1.235477836430072784e+01 1.073195019364356995e+01 -7.774465018883347511e-02
-1.296317680180072784e+01 1.111561718583106995e+01 -9.370534354820847511e-02
-1.558634574711322784e+01 1.328492870926856995e+01 -1.806194060482084751e-01
-1.267240531742572784e+01 1.050941601395606995e+01 -7.119862968102097511e-02
-1.299479301273822784e+01 1.062086620926856995e+01 -7.641713554039597511e-02
-1.654459770023822784e+01 1.347071972489356995e+01 -1.910259001888334751e-01
-9.625530317425727844e+00 7.467545896768569946e+00 4.812510078772902489e-02
-1.227738578617572784e+01 1.083351269364356995e+01 -1.126210624352097511e-02
-1.283414848148822784e+01 1.117762890458106995e+01 -2.262990409508347511e-02
-1.296305473148822784e+01 1.111781445145606995e+01 -2.118031913414597511e-02
-1.253532035648822784e+01 1.055836620926856995e+01 -2.930807415395975113e-03
-1.268729789555072784e+01 1.052467480301856995e+01 -1.954244915395975113e-03
-1.271073539555072784e+01 1.037745800614356995e+01 2.775979693979024887e-03
-1.679191215336322784e+01 1.368409863114356995e+01 -1.054698699153959751e-01
-9.625530317425727844e+00 7.469132810831069946e+00 9.838755195960402489e-02
-1.345914848148822784e+01 1.194728222489356995e+01 2.908213203772902489e-02
-1.283427055180072784e+01 1.117994824051856995e+01 4.962046211585402489e-02
-1.296293266117572784e+01 1.112001171708106995e+01 5.172617500647902489e-02
-1.248637016117572784e+01 1.051674023270606995e+01 6.791575020179152489e-02
-1.274064262211322784e+01 1.057399120926856995e+01 6.696970527991652489e-02
-1.294938285648822784e+01 1.058619824051856995e+01 6.721384590491652489e-02
-1.691886527836322784e+01 1.379506054520606995e+01 -1.481740409508347511e-02
-9.625408247113227844e+00 7.470719724893569946e+00 1.483600861392915249e-01
-1.349442680180072784e+01 1.198292675614356995e+01 1.055744416080415249e-01
-1.283439262211322784e+01 1.118226757645606995e+01 1.218708283267915249e-01
-1.296281059086322784e+01 1.112220898270606995e+01 1.242359406314790249e-01
-1.275016410648822784e+01 1.075514355301856995e+01 1.324604279361665249e-01
-1.346842582523822784e+01 1.121669140458106995e+01 1.249531037174165249e-01
-1.292264945805072784e+01 1.056520214676856995e+01 1.384876496158540249e-01
-1.704728324711322784e+01 1.390736523270606995e+01 7.733042305335402489e-02
-9.625408247113227844e+00 7.472306638956069946e+00 1.986072785221040249e-01
-7.906536176800727844e+00 6.726945310831069946e+00 2.490223175846040249e-01
-8.102825239300727844e+00 6.805436521768569946e+00 2.491291291080415249e-01
-8.307903364300727844e+00 6.887345701456069946e+00 2.492359406314790249e-01
-8.522991254925727844e+00 6.973405271768569946e+00 2.493580109439790249e-01
-8.747356489300727844e+00 7.063126951456069946e+00 2.494800812564790249e-01
-8.983196333050727844e+00 7.157365232706069946e+00 2.496021515689790249e-01
-9.229900434613227844e+00 7.255998045206069946e+00 2.497242218814790249e-01
-9.488811567425727844e+00 7.359513670206069946e+00 2.498615509830415249e-01
-7.825115278363227844e+00 6.651505857706069946e+00 2.915180451236665249e-01
-8.017498090863227844e+00 6.727799803018569946e+00 2.922962433658540249e-01
-8.218059614300727844e+00 6.807023435831069946e+00 2.933643586002290249e-01
-8.428386762738227844e+00 6.890031248331069946e+00 2.944629914127290249e-01
-8.647502973675727844e+00 6.976701170206069946e+00 2.956226593814790249e-01
-8.877849653363227844e+00 7.067643553018569946e+00 2.968281037174165249e-01
-9.118450239300727844e+00 7.162736326456069946e+00 2.980945832096040249e-01
-9.387371137738227844e+00 7.276139646768569946e+00 2.996357209049165249e-01
-7.810466840863227844e+00 6.639054685831069946e+00 3.327930695377290249e-01
-8.015544965863227844e+00 6.727189451456069946e+00 3.347004181705415249e-01
-8.230388715863227844e+00 6.819596678018569946e+00 3.367145783267915249e-01
-8.456585004925727844e+00 6.916886717081069946e+00 3.388202912174165249e-01
-8.693645551800727844e+00 7.018693357706069946e+00 3.410328156314790249e-01
-8.943767622113227844e+00 7.126115232706069946e+00 3.433674103580415249e-01
-9.206340864300727844e+00 7.239030271768569946e+00 3.458240753971040249e-01
-9.483318403363227844e+00 7.358048826456069946e+00 3.484028107486665249e-01
-7.876506879925727844e+00 6.702531248331069946e+00 3.746631867252290249e-01
-8.085125043988227844e+00 6.793107420206069946e+00 3.775928742252290249e-01
-8.303997114300727844e+00 6.887956053018569946e+00 3.806598908267915249e-01
-8.522869184613227844e+00 6.977433592081069946e+00 3.835743195377290249e-01
-8.742473676800727844e+00 7.063126951456069946e+00 3.867786652408540249e-01
-8.972576215863227844e+00 7.152604490518569946e+00 3.903949982486665249e-01
-9.213298872113227844e+00 7.246476560831069946e+00 3.939197785221040249e-01
-9.465618208050727844e+00 7.344865232706069946e+00 3.976124054752290249e-01
-7.850872114300727844e+00 6.679704099893569946e+00 4.161518341861665249e-01
-8.040691450238227844e+00 6.753190428018569946e+00 4.195850617252290249e-01
-8.238201215863227844e+00 6.829362303018569946e+00 4.233997589908540249e-01
-8.445110395550727844e+00 6.909196287393569946e+00 4.273823029361665249e-01
-8.660442426800727844e+00 6.992448240518569946e+00 4.315479523502290249e-01
-8.886638715863227844e+00 7.079606443643569946e+00 4.359119660221040249e-01
-9.122478559613227844e+00 7.170670896768569946e+00 4.404590851627290249e-01
-9.369304731488227844e+00 7.265763670206069946e+00 4.454792267642915249e-01
-8.160564497113227844e+00 6.227555662393569946e+00 -3.580333464778959751e-01
-8.200603559613227844e+00 6.163834959268569946e+00 -3.553020232357084751e-01
-8.237712934613227844e+00 6.097794920206069946e+00 -3.524944060482084751e-01
-8.274822309613227844e+00 6.031632810831069946e+00 -3.496867888607084751e-01
-8.311687543988227844e+00 5.965958982706069946e+00 -3.469096892513334751e-01
-8.357097700238227844e+00 5.906754881143569946e+00 -3.449260466732084751e-01
-8.404705122113227844e+00 5.849625974893569946e+00 -3.431712859310209751e-01
-8.449382856488227844e+00 5.790055662393569946e+00 -3.413554900325834751e-01
-8.738201215863227844e+00 6.710832029581069946e+00 -3.704692595638334751e-01
-8.796550825238227844e+00 6.653947263956069946e+00 -3.691570037044584751e-01
-8.840740278363227844e+00 6.585343748331069946e+00 -3.665324919857084751e-01
-8.883586958050727844e+00 6.515641599893569946e+00 -3.635417693294584751e-01
-8.935588911175727844e+00 6.453507810831069946e+00 -3.616344206966459751e-01
-8.984172895550727844e+00 6.388444334268569946e+00 -3.596507781185209751e-01
-9.039836958050727844e+00 6.329118162393569946e+00 -3.580791228450834751e-01
-9.098918989300727844e+00 6.272233396768569946e+00 -3.567973845638334751e-01
-9.421917036175727844e+00 7.282731443643569946e+00 -3.852245085872709751e-01
-9.494670942425727844e+00 7.228166013956069946e+00 -3.845226042903959751e-01
-9.564617231488227844e+00 7.170792967081069946e+00 -3.835613005794584751e-01
-9.622112348675727844e+00 7.102799803018569946e+00 -3.814861052669584751e-01
-9.679363325238227844e+00 7.034928709268569946e+00 -3.794109099544584751e-01
-9.736980512738227844e+00 6.966691404581069946e+00 -3.773357146419584751e-01
-9.794231489300727844e+00 6.898820310831069946e+00 -3.752605193294584751e-01
-9.851726606488227844e+00 6.830827146768569946e+00 -3.731853240169584751e-01
-9.626140668988227844e+00 7.454728513956069946e+00 -3.530284636653959751e-01
-1.032792289555072784e+01 7.913468748331069946e+00 -4.024364226497709751e-01
-1.042423637211322784e+01 7.865983396768569946e+00 -4.028178923763334751e-01
-1.052152641117572784e+01 7.817765623331069946e+00 -4.031841033138334751e-01
-1.061942680180072784e+01 7.769425779581069946e+00 -4.035655730403959751e-01
-1.071842582523822784e+01 7.720597654581069946e+00 -4.039470427669584751e-01
-1.081779105961322784e+01 7.671403318643569946e+00 -4.043437712825834751e-01
-1.089640434086322784e+01 7.605973631143569946e+00 -4.033824675716459751e-01
-9.626018598675727844e+00 7.456315428018569946e+00 -3.027202361263334751e-01
-1.121659477055072784e+01 8.644791990518569946e+00 -4.148723357357084751e-01
-1.131925590336322784e+01 8.590104490518569946e+00 -4.148265593685209751e-01
-1.142301566898822784e+01 8.534806638956069946e+00 -4.147807830013334751e-01
-1.152714164555072784e+01 8.479264646768569946e+00 -4.147197478450834751e-01
-1.163248832523822784e+01 8.423112303018569946e+00 -4.146739714778959751e-01
-1.173820121586322784e+01 8.366715818643569946e+00 -4.146129363216459751e-01
-1.184464652836322784e+01 8.309953123331069946e+00 -4.145671599544584751e-01
-9.626018598675727844e+00 7.457902342081069946e+00 -2.527019255794584751e-01
-1.586759574711322784e+01 1.246547070145606995e+01 -6.746227019466459751e-01
-1.622233207523822784e+01 1.255006542801856995e+01 -6.880962126888334751e-01
-1.660233695805072784e+01 1.264686718583106995e+01 -7.028667205013334751e-01
-1.690238578617572784e+01 1.267445507645606995e+01 -7.119456999935209751e-01
-1.724332816898822784e+01 1.272743359208106995e+01 -7.234050505794584751e-01
-1.756608207523822784e+01 1.276112499833106995e+01 -7.333995574153959751e-01
-1.789603812992572784e+01 1.279457226395606995e+01 -7.440501921810209751e-01
-9.625896528363227844e+00 7.459489256143569946e+00 -2.024089568294584751e-01
-1.618986137211322784e+01 1.273280468583106995e+01 -6.080943816341459751e-01
-1.648038871586322784e+01 1.276112499833106995e+01 -6.158458464778959751e-01
-1.677946098148822784e+01 1.279029980301856995e+01 -6.238261931575834751e-01
-1.717557914555072784e+01 1.289064159989356995e+01 -6.374675505794584751e-01
-1.753068168461322784e+01 1.295082226395606995e+01 -6.482097380794584751e-01
-1.785953910648822784e+01 1.298549023270606995e+01 -6.571208708919584751e-01
-1.821000297367572784e+01 1.303029003739356995e+01 -6.670085662044584751e-01
-9.625896528363227844e+00 7.460954099893569946e+00 -1.523906462825834751e-01
-1.635966117680072784e+01 1.287526074051856995e+01 -5.290996306575834751e-01
-1.665665824711322784e+01 1.290651074051856995e+01 -5.354930632747709751e-01
-1.705521781742572784e+01 1.301222363114356995e+01 -5.477153533138334751e-01
-1.748807914555072784e+01 1.313758984208106995e+01 -5.614635222591459751e-01
-1.783012016117572784e+01 1.318361034989356995e+01 -5.698558562435209751e-01
-1.785929496586322784e+01 1.298841992020606995e+01 -5.617381804622709751e-01
-1.864176566898822784e+01 1.335341015458106995e+01 -5.931407683528959751e-01
-9.625774458050727844e+00 7.462541013956069946e+00 -1.021129363216459751e-01
-1.653434379398822784e+01 1.302162304520606995e+01 -4.478618376888334751e-01
-1.692765434086322784e+01 1.312831249833106995e+01 -4.582988494075834751e-01
-1.736332328617572784e+01 1.325990429520606995e+01 -4.704601042903959751e-01
-1.779386527836322784e+01 1.337941113114356995e+01 -4.820110076107084751e-01
-1.814213187992572784e+01 1.342628613114356995e+01 -4.891673796810209751e-01
-1.785892875492572784e+01 1.299134960770606995e+01 -4.658672087825834751e-01
-1.910941703617572784e+01 1.370338574051856995e+01 -5.155040496028959751e-01
-9.625774458050727844e+00 7.464127928018569946e+00 -5.210988456383347511e-02
-1.679984672367572784e+01 1.324281445145606995e+01 -3.691112273372709751e-01
-1.723734672367572784e+01 1.338148632645606995e+01 -3.796397917903959751e-01
-1.768363578617572784e+01 1.351747265458106995e+01 -3.901530974544584751e-01
-1.813663871586322784e+01 1.365004101395606995e+01 -4.005901091732084751e-01
-1.851884086430072784e+01 1.371852245926856995e+01 -4.076244109310209751e-01
-1.785868461430072784e+01 1.299427929520606995e+01 -3.705150359310209751e-01
-1.927006156742572784e+01 1.382594433426856995e+01 -4.203197234310209751e-01
-9.625652387738227844e+00 7.465714842081069946e+00 -1.847433391958475113e-03
-1.711478812992572784e+01 1.350465527176856995e+01 -2.886363738216459751e-01
-1.755643852055072784e+01 1.364259472489356995e+01 -2.971812956966459751e-01
-1.791532523930072784e+01 1.370460644364356995e+01 -3.022166960872709751e-01
-1.831193168461322784e+01 1.379029980301856995e+01 -3.084270232357084751e-01
-1.870096977055072784e+01 1.386171093583106995e+01 -3.140422576107084751e-01
-1.785844047367572784e+01 1.299720898270606995e+01 -2.746745818294584751e-01
-1.943449027836322784e+01 1.395131054520606995e+01 -3.228923552669584751e-01
-9.625652387738227844e+00 7.467179685831069946e+00 4.814035957679152489e-02
-1.734403617680072784e+01 1.369618359208106995e+01 -2.021190398372709751e-01
-1.769327934086322784e+01 1.375624218583106995e+01 -2.055675261653959751e-01
-1.808658988773822784e+01 1.384388867020606995e+01 -2.101604216732084751e-01
-1.848991020023822784e+01 1.393251171708106995e+01 -2.148296111263334751e-01
-1.758146293461322784e+01 1.300526562333106995e+01 -1.784831755794584751e-01
-1.785819633305072784e+01 1.300013867020606995e+01 -1.793529265560209751e-01
-1.960331352055072784e+01 1.407997265458106995e+01 -2.242748015560209751e-01
-9.625530317425727844e+00 7.468766599893569946e+00 9.840281074866652489e-02
-1.747611625492572784e+01 1.380787792801856995e+01 -1.097423308528959751e-01
-1.714493949711322784e+01 1.331593456864356995e+01 -9.413258964195847511e-02
-1.726664359867572784e+01 1.319532909989356995e+01 -9.021108085289597511e-02
-1.738810355961322784e+01 1.307484570145606995e+01 -8.630483085289597511e-02
-1.751176078617572784e+01 1.295485058426856995e+01 -8.239858085289597511e-02
-1.785783012211322784e+01 1.300306835770606995e+01 -8.352773124352097511e-02
-1.982316215336322784e+01 1.424659863114356995e+01 -1.244212859310209751e-01
-9.625530317425727844e+00 7.470353513956069946e+00 1.483753449283540249e-01
-1.760966117680072784e+01 1.392079296708106995e+01 -1.634328300133347511e-02
-1.712406547367572784e+01 1.330214062333106995e+01 4.108673892915248871e-04
-1.724552543461322784e+01 1.318165722489356995e+01 4.423928912729024887e-03
-1.736686332523822784e+01 1.306129589676856995e+01 8.421731647104024887e-03
-1.748893363773822784e+01 1.294032421708106995e+01 1.245005195960402489e-02
-1.785758598148822784e+01 1.300599804520606995e+01 1.176340645179152489e-02
-2.004459770023822784e+01 1.441432324051856995e+01 -2.267568046227097511e-02
-9.625408247113227844e+00 7.471940428018569946e+00 1.986072785221040249e-01
-1.776383598148822784e+01 1.405079784989356995e+01 7.830698555335402489e-02
-1.819474418461322784e+01 1.417128124833106995e+01 7.809336250647902489e-02
-1.864042289555072784e+01 1.429396191239356995e+01 7.792551582679152489e-02
-1.904313285648822784e+01 1.437489452958106995e+01 7.858164375647902489e-02
-1.751774223148822784e+01 1.296559277176856995e+01 1.058338410221040249e-01
-1.702311332523822784e+01 1.237867870926856995e+01 1.181629425846040249e-01
-1.742911918461322784e+01 1.247609081864356995e+01 1.188953644596040249e-01
-9.490398481488227844e+00 7.360490232706069946e+00 2.498615509830415249e-01
-9.762615278363227844e+00 7.469132810831069946e+00 2.501514679752290249e-01
-1.000687797367572784e+01 7.549210935831069946e+00 2.508228546939790249e-01
-1.026823051273822784e+01 7.637467771768569946e+00 2.514789826236665249e-01
-1.054105766117572784e+01 7.729508787393569946e+00 2.521656281314790249e-01
-1.082792289555072784e+01 7.826310545206069946e+00 2.528980500064790249e-01
-1.112809379398822784e+01 7.927506834268569946e+00 2.536457306705415249e-01
-1.144340141117572784e+01 8.033952146768569946e+00 2.544544464908540249e-01
-9.389080122113227844e+00 7.277238279581069946e+00 2.996357209049165249e-01
-9.675457075238227844e+00 7.399064451456069946e+00 3.008716828189790249e-01
-9.946331098675727844e+00 7.501847654581069946e+00 3.025348908267915249e-01
-1.022318656742572784e+01 7.603410154581069946e+00 3.043354279361665249e-01
-1.051346977055072784e+01 7.709611326456069946e+00 3.062122589908540249e-01
-1.081998832523822784e+01 7.821916013956069946e+00 3.081959015689790249e-01
-1.114200980961322784e+01 7.939835935831069946e+00 3.102710968814790249e-01
-1.148246391117572784e+01 8.064835935831069946e+00 3.127887970767915249e-01
-9.485027387738227844e+00 7.359147459268569946e+00 3.484180695377290249e-01
-9.721599653363227844e+00 7.438615232706069946e+00 3.511799103580415249e-01
-1.003849418461322784e+01 7.578263670206069946e+00 3.542774445377290249e-01
-1.032084281742572784e+01 7.682755857706069946e+00 3.573902375064790249e-01
-1.060013969242572784e+01 7.779313474893569946e+00 3.606098419986665249e-01
-1.088517387211322784e+01 7.873917967081069946e+00 3.639667755924165249e-01
-1.118302543461322784e+01 7.972794920206069946e+00 3.674610382877290249e-01
-1.149564750492572784e+01 8.076554685831069946e+00 3.711384064517915249e-01
-9.467205122113227844e+00 7.345841795206069946e+00 3.976429230533540249e-01
-9.721599653363227844e+00 7.440202146768569946e+00 4.016254669986665249e-01
-9.974651411175727844e+00 7.528214842081069946e+00 4.056995636783540249e-01
-1.023014457523822784e+01 7.612321287393569946e+00 4.096058136783540249e-01
-1.049601371586322784e+01 7.699601560831069946e+00 4.139545685611665249e-01
-1.077470023930072784e+01 7.790788084268569946e+00 4.188068634830415249e-01
-1.106644828617572784e+01 7.886491209268569946e+00 4.235828644596040249e-01
-1.140128715336322784e+01 8.008317381143569946e+00 4.288776642642915249e-01
-9.370891645550727844e+00 7.266618162393569946e+00 4.455097443424165249e-01
-9.667278364300727844e+00 7.397111326456069946e+00 4.510181671939790249e-01
-9.949016645550727844e+00 7.509171873331069946e+00 4.566639191471040249e-01
-1.023685844242572784e+01 7.619279295206069946e+00 4.624775177799165249e-01
-1.053922660648822784e+01 7.735124021768569946e+00 4.685810334049165249e-01
-1.085929496586322784e+01 7.857682615518569946e+00 4.750507599674165249e-01
-1.119657523930072784e+01 7.986833006143569946e+00 4.818714386783540249e-01
-1.155436332523822784e+01 8.124162107706069946e+00 4.894092804752290249e-01
-8.449382856488227844e+00 5.789811521768569946e+00 -3.413402312435209751e-01
-8.497600629925727844e+00 5.732926756143569946e+00 -3.396159880794584751e-01
-8.542644575238227844e+00 5.673722654581069946e+00 -3.378001921810209751e-01
-8.590496137738227844e+00 5.615983396768569946e+00 -3.362132781185209751e-01
-8.641887739300727844e+00 5.560929685831069946e+00 -3.349467986263334751e-01
-8.693401411175727844e+00 5.505509763956069946e+00 -3.336803191341459751e-01
-8.744915083050727844e+00 5.450089842081069946e+00 -3.324138396419584751e-01
-8.793621137738227844e+00 5.392594724893569946e+00 -3.311015837825834751e-01
-9.099041059613227844e+00 6.271867185831069946e+00 -3.567821257747709751e-01
-9.155071333050727844e+00 6.212418943643569946e+00 -3.553935759700834751e-01
-9.211223676800727844e+00 6.152726560831069946e+00 -3.540050261653959751e-01
-9.272014692425727844e+00 6.095841795206069946e+00 -3.527232878841459751e-01
-9.328411176800727844e+00 6.035783201456069946e+00 -3.513347380794584751e-01
-9.380779340863227844e+00 5.972550779581069946e+00 -3.497936003841459751e-01
-9.437542036175727844e+00 5.912370115518569946e+00 -3.483897917903959751e-01
-9.494304731488227844e+00 5.851945310831069946e+00 -3.469859831966459751e-01
-9.851726606488227844e+00 6.830460935831069946e+00 -3.731700652278959751e-01
-9.906169965863227844e+00 6.760270506143569946e+00 -3.710185759700834751e-01
-9.960613325238227844e+00 6.689835935831069946e+00 -3.688823455013334751e-01
-1.001774223148822784e+01 6.620988279581069946e+00 -3.669139617122709751e-01
-1.008085258305072784e+01 6.556413084268569946e+00 -3.654491179622709751e-01
-1.014445121586322784e+01 6.491471678018569946e+00 -3.639537566341459751e-01
-1.020780570805072784e+01 6.426530271768569946e+00 -3.624736540950834751e-01
-1.027152641117572784e+01 6.361466795206069946e+00 -3.609782927669584751e-01
-1.089677055180072784e+01 7.605729490518569946e+00 -4.033824675716459751e-01
-1.096232230961322784e+01 7.530290037393569946e+00 -4.010020964778959751e-01
-1.101871879398822784e+01 7.448014646768569946e+00 -3.982249968685209751e-01
-1.106766898930072784e+01 7.360001951456069946e+00 -3.948680632747709751e-01
-1.111625297367572784e+01 7.272599607706069946e+00 -3.915416472591459751e-01
-1.116495902836322784e+01 7.184953123331069946e+00 -3.881847136653959751e-01
-1.121354301273822784e+01 7.097794920206069946e+00 -3.848582976497709751e-01
-1.125553520023822784e+01 7.006486326456069946e+00 -3.813792937435209751e-01
-1.184489066898822784e+01 8.309708982706069946e+00 -4.145671599544584751e-01
-1.194901664555072784e+01 8.250138670206069946e+00 -4.144450896419584751e-01
-1.205399711430072784e+01 8.190080076456069946e+00 -4.143382781185209751e-01
-1.216007621586322784e+01 8.129411131143569946e+00 -4.142162078060209751e-01
-1.226664359867572784e+01 8.068498045206069946e+00 -4.140941374935209751e-01
-1.237443168461322784e+01 8.006852537393569946e+00 -4.139873259700834751e-01
-1.248270805180072784e+01 7.944840818643569946e+00 -4.138652556575834751e-01
-1.259196098148822784e+01 7.882462888956069946e+00 -4.137431853450834751e-01
-1.789786918461322784e+01 1.279518261551856995e+01 -7.441264861263334751e-01
-1.225480277836322784e+01 8.474748045206069946e+00 -3.729411833919584751e-01
-1.372550590336322784e+01 9.387833982706069946e+00 -4.585582488216459751e-01
-1.380631645023822784e+01 9.288468748331069946e+00 -4.555370085872709751e-01
-1.326981742680072784e+01 8.763200193643569946e+00 -4.143840544857084751e-01
-1.372062309086322784e+01 8.921891599893569946e+00 -4.343730681575834751e-01
-1.416740043461322784e+01 9.069230467081069946e+00 -4.536754363216459751e-01
-1.425736625492572784e+01 8.974137693643569946e+00 -4.514934294857084751e-01
-1.821183402836322784e+01 1.303090038895606995e+01 -6.670848601497709751e-01
-1.225480277836322784e+01 8.476823240518569946e+00 -3.105327361263334751e-01
-1.913993461430072784e+01 1.326417675614356995e+01 -6.992961638607084751e-01
-1.953629691898822784e+01 1.331874218583106995e+01 -7.108470671810209751e-01
-1.327079398930072784e+01 8.766007810831069946e+00 -3.474590056575834751e-01
-1.371928031742572784e+01 8.923234373331069946e+00 -3.652049773372709751e-01
-1.986173637211322784e+01 1.286586132645606995e+01 -6.959392302669584751e-01
-2.096305473148822784e+01 1.336488476395606995e+01 -7.450572722591459751e-01
-1.864567191898822784e+01 1.335560742020606995e+01 -5.933086150325834751e-01
-1.225480277836322784e+01 8.478898435831069946e+00 -2.481395476497709751e-01
-1.959354789555072784e+01 1.359217968583106995e+01 -6.213847869075834751e-01
-2.000150687992572784e+01 1.364930859208106995e+01 -6.316234343685209751e-01
-2.035587699711322784e+01 1.366273632645606995e+01 -6.388408415950834751e-01
-1.371781547367572784e+01 8.924577146768569946e+00 -2.956859343685209751e-01
-1.985892875492572784e+01 1.286744824051856995e+01 -5.932780974544584751e-01
-2.145035941898822784e+01 1.368751659989356995e+01 -6.609508269466459751e-01
-1.911112602055072784e+01 1.370399609208106995e+01 -5.155498259700834751e-01
-1.225480277836322784e+01 8.480973631143569946e+00 -1.854106658138334751e-01
-1.981034477055072784e+01 1.375074902176856995e+01 -5.279704802669584751e-01
-2.020035941898822784e+01 1.379261913895606995e+01 -5.355998747982084751e-01
-2.055936820805072784e+01 1.380690136551856995e+01 -5.415508025325834751e-01
-1.371647270023822784e+01 8.926041990518569946e+00 -2.265636199153959751e-01
-1.985624320805072784e+01 1.286915722489356995e+01 -4.901134246028959751e-01
-2.166508109867572784e+01 1.383180370926856995e+01 -5.590526335872709751e-01
-1.927189262211322784e+01 1.382655468583106995e+01 -4.203654997982084751e-01
-1.225480277836322784e+01 8.483048826456069946e+00 -1.230327361263334751e-01
-2.001383598148822784e+01 1.389991894364356995e+01 -4.315959685482084751e-01
-2.040165336430072784e+01 1.393776074051856995e+01 -4.374553435482084751e-01
-2.076713187992572784e+01 1.395411816239356995e+01 -4.421703093685209751e-01
-1.371549613773822784e+01 8.927628904581069946e+00 -1.574870818294584751e-01
-1.985355766117572784e+01 1.287074413895606995e+01 -3.875285857357084751e-01
-2.191276176273822784e+01 1.399769726395606995e+01 -4.566661589778959751e-01
-1.943644340336322784e+01 1.395192089676856995e+01 -3.229228728450834751e-01
-1.225480277836322784e+01 8.485124021768569946e+00 -6.031911307945847511e-02
-1.233683402836322784e+01 8.404923826456069946e+00 -5.783193046227097511e-02
-1.935636527836322784e+01 1.320582714676856995e+01 -2.936565154232084751e-01
-2.098063285648822784e+01 1.410536327958106995e+01 -3.400890105403959751e-01
-1.371549613773822784e+01 8.929948240518569946e+00 -8.809010917320847511e-02
-1.985087211430072784e+01 1.287245312333106995e+01 -2.844402068294584751e-01
-2.216715629398822784e+01 1.416822949051856995e+01 -3.511668913997709751e-01
-1.960587699711322784e+01 1.408094921708106995e+01 -2.243205779232084751e-01
-1.225480277836322784e+01 8.487199217081069946e+00 2.058816608041524887e-03
-1.233121879398822784e+01 8.402848631143569946e+00 4.805398639291524887e-03
-1.833329398930072784e+01 1.248903027176856995e+01 -1.627971404232084751e-01
-1.848612602055072784e+01 1.238392773270606995e+01 -1.595775359310209751e-01
-1.371549613773822784e+01 8.932267576456069946e+00 -1.905934745445847511e-02
-1.984818656742572784e+01 1.287404003739356995e+01 -1.819469206966459751e-01
-2.240824516117572784e+01 1.433009472489356995e+01 -2.431499236263334751e-01
-1.982560355961322784e+01 1.424745312333106995e+01 -1.244518035091459751e-01
-1.225480277836322784e+01 8.489274412393569946e+00 6.475718086585402489e-02
-1.232548148930072784e+01 8.400895506143569946e+00 6.736643379554152489e-02
-1.828348930180072784e+01 1.245716992020606995e+01 -6.594960624352097511e-02
-1.845768363773822784e+01 1.236757031083106995e+01 -6.292836600914597511e-02
-1.371549613773822784e+01 8.934586912393569946e+00 4.995615547522902489e-02
-1.931583793461322784e+01 1.252223339676856995e+01 -6.733815604820847511e-02
-2.265629203617572784e+01 1.449659863114356995e+01 -1.320354216732084751e-01
-2.004655082523822784e+01 1.441505566239356995e+01 -2.269093925133347511e-02
-1.225480277836322784e+01 8.491349607706069946e+00 1.271045929752290249e-01
-1.231986625492572784e+01 8.398942381143569946e+00 1.301868683658540249e-01
-1.787662895023822784e+01 1.217372265458106995e+01 3.710825508460402489e-02
-1.843558891117572784e+01 1.235536327958106995e+01 3.379709785804152489e-02
-1.371537406742572784e+01 8.936906248331069946e+00 1.193378693424165249e-01
-1.926493461430072784e+01 1.249159374833106995e+01 3.295786445960402489e-02
-2.289933402836322784e+01 1.465992870926856995e+01 -1.875417167320847511e-02
-1.743204887211322784e+01 1.247755566239356995e+01 1.188648468814790249e-01
-1.193912895023822784e+01 8.263078123331069946e+00 1.934498078189790249e-01
-1.229887016117572784e+01 8.385880857706069946e+00 1.928089386783540249e-01
-1.263261039555072784e+01 8.482682615518569946e+00 1.926868683658540249e-01
-1.295780570805072784e+01 8.567399412393569946e+00 1.928547150455415249e-01
-1.329923637211322784e+01 8.656266599893569946e+00 1.930225617252290249e-01
-1.365568168461322784e+01 8.749040037393569946e+00 1.931904084049165249e-01
-1.402848441898822784e+01 8.845719724893569946e+00 1.937549836002290249e-01
-1.144535453617572784e+01 8.034928709268569946e+00 2.544391877017915249e-01
-1.177701957523822784e+01 8.146745115518569946e+00 2.554462677799165249e-01
-1.212662895023822784e+01 8.264542967081069946e+00 2.564991242252290249e-01
-1.248637016117572784e+01 8.381730467081069946e+00 2.576893097721040249e-01
-1.281791312992572784e+01 8.472672849893569946e+00 2.592151886783540249e-01
-1.317643363773822784e+01 8.574967771768569946e+00 2.607563263736665249e-01
-1.355216605961322784e+01 8.682145506143569946e+00 2.623890168033540249e-01
-1.394755180180072784e+01 8.794938474893569946e+00 2.640980011783540249e-01
-1.148466117680072784e+01 8.066056638956069946e+00 3.127887970767915249e-01
-1.184403617680072784e+01 8.197648435831069946e+00 3.149860627017915249e-01
-1.222562797367572784e+01 8.337541013956069946e+00 3.176563507877290249e-01
-1.259330375492572784e+01 8.459245115518569946e+00 3.205250031314790249e-01
-1.294010551273822784e+01 8.559464842081069946e+00 3.235615021549165249e-01
-1.329862602055072784e+01 8.660294920206069946e+00 3.267505890689790249e-01
-1.365018852055072784e+01 8.749894529581069946e+00 3.301075226627290249e-01
-1.401762016117572784e+01 8.843278318643569946e+00 3.339832550846040249e-01
-1.149760062992572784e+01 8.077653318643569946e+00 3.711536652408540249e-01
-1.182609184086322784e+01 8.186540037393569946e+00 3.752430207096040249e-01
-1.217203910648822784e+01 8.301164060831069946e+00 3.795459992252290249e-01
-1.251945121586322784e+01 8.409318357706069946e+00 3.840015656314790249e-01
-1.283451469242572784e+01 8.488541990518569946e+00 3.884266144596040249e-01
-1.316483695805072784e+01 8.571549803018569946e+00 3.930652863346040249e-01
-1.350980766117572784e+01 8.658341795206069946e+00 3.979023224674165249e-01
-1.391556937992572784e+01 8.778703123331069946e+00 4.032276398502290249e-01
-1.140348441898822784e+01 8.009538084268569946e+00 4.289081818424165249e-01
-1.177274711430072784e+01 8.149552732706069946e+00 4.349201447330415249e-01
-1.216508109867572784e+01 8.298234373331069946e+00 4.412983185611665249e-01
-1.255326469242572784e+01 8.435197263956069946e+00 4.474323517642915249e-01
-1.290885551273822784e+01 8.542130857706069946e+00 4.536884552799165249e-01
-1.328532035648822784e+01 8.655778318643569946e+00 4.606617218814790249e-01
-1.367985160648822784e+01 8.774430662393569946e+00 4.676197296939790249e-01
-1.979362113773822784e+01 1.264076367020606995e+01 5.400532013736665249e-01
-1.155668266117572784e+01 8.125382810831069946e+00 4.894550568424165249e-01
-1.794877250492572784e+01 1.266346874833106995e+01 5.921467072330415249e-01
-1.798563773930072784e+01 1.247902050614356995e+01 5.958545929752290249e-01
-2.229447562992572784e+01 1.530873242020606995e+01 6.686695343814790249e-01
-1.879923637211322784e+01 1.262660351395606995e+01 6.153095490299165249e-01
-1.371683891117572784e+01 8.951798826456069946e+00 5.343921906314790249e-01
-1.945414359867572784e+01 1.263820019364356995e+01 6.325672394596040249e-01
-1.995133598148822784e+01 1.274769726395606995e+01 6.447132355533540249e-01
-8.793743208050727844e+00 5.392472654581069946e+00 -3.311015837825834751e-01
-8.845989301800727844e+00 5.337052732706069946e+00 -3.298351042903959751e-01
-8.895305708050727844e+00 5.279557615518569946e+00 -3.285228484310209751e-01
-8.944866254925727844e+00 5.221696287393569946e+00 -3.271953337825834751e-01
-8.994426801800727844e+00 5.163834959268569946e+00 -3.258678191341459751e-01
-9.048748090863227844e+00 5.108292967081069946e+00 -3.249065154232084751e-01
-9.104778364300727844e+00 5.053727537393569946e+00 -3.240977996028959751e-01
-9.157268598675727844e+00 4.996842771768569946e+00 -3.231975310482084751e-01
-9.494548872113227844e+00 5.851701170206069946e+00 -3.469859831966459751e-01
-9.548137739300727844e+00 5.788957029581069946e+00 -3.454753630794584751e-01
-9.601726606488227844e+00 5.725968748331069946e+00 -3.439647429622709751e-01
-9.660320356488227844e+00 5.665543943643569946e+00 -3.425609343685209751e-01
-9.719280317425727844e+00 5.605241209268569946e+00 -3.414317839778959751e-01
-9.777874067425727844e+00 5.544083982706069946e+00 -3.404857390560209751e-01
-9.840740278363227844e+00 5.485368162393569946e+00 -3.396159880794584751e-01
-9.890056684613227844e+00 5.418473631143569946e+00 -3.376781218685209751e-01
-1.027177055180072784e+01 6.361222654581069946e+00 -3.609782927669584751e-01
-1.033268363773822784e+01 6.294083982706069946e+00 -3.594371550716459751e-01
-1.039371879398822784e+01 6.226579099893569946e+00 -3.578960173763334751e-01
-1.045524223148822784e+01 6.158830076456069946e+00 -3.563396208919584751e-01
-1.051664359867572784e+01 6.090958982706069946e+00 -3.547832244075834751e-01
-1.057853324711322784e+01 6.022721678018569946e+00 -3.532268279232084751e-01
-1.064042289555072784e+01 5.954362303018569946e+00 -3.516704314388334751e-01
-1.070243461430072784e+01 5.885880857706069946e+00 -3.500987761653959751e-01
-1.125553520023822784e+01 7.006120115518569946e+00 -3.813640349544584751e-01
-1.130936820805072784e+01 6.922868162393569946e+00 -3.783122771419584751e-01
-1.137784965336322784e+01 6.848649412393569946e+00 -3.765727751888334751e-01
-1.144669730961322784e+01 6.773942381143569946e+00 -3.748180144466459751e-01
-1.151554496586322784e+01 6.699357420206069946e+00 -3.730785124935209751e-01
-1.158488090336322784e+01 6.624162107706069946e+00 -3.713084929622709751e-01
-1.165421684086322784e+01 6.548966795206069946e+00 -3.695384734310209751e-01
-1.171659477055072784e+01 6.469499021768569946e+00 -3.675853484310209751e-01
-1.259244926273822784e+01 7.882340818643569946e+00 -4.137584441341459751e-01
-1.269901664555072784e+01 7.817033201456069946e+00 -4.135753386653959751e-01
-1.280643852055072784e+01 7.751359373331069946e+00 -4.133922331966459751e-01
-1.291520316898822784e+01 7.684708982706069946e+00 -4.132091277278959751e-01
-1.301505668461322784e+01 7.612199217081069946e+00 -4.124309294857084751e-01
-1.308243949711322784e+01 7.518815428018569946e+00 -4.095470183528959751e-01
-1.315031059086322784e+01 7.426041990518569946e+00 -4.067088835872709751e-01
-1.321830375492572784e+01 7.333146482706069946e+00 -4.038860076107084751e-01
-1.425761039555072784e+01 8.973771482706069946e+00 -4.514934294857084751e-01
-1.436149223148822784e+01 8.887223631143569946e+00 -4.495097869075834751e-01
-1.445719535648822784e+01 8.794694334268569946e+00 -4.473888152278959751e-01
-1.455363090336322784e+01 8.701432615518569946e+00 -4.452525847591459751e-01
-1.464359672367572784e+01 8.604020506143569946e+00 -4.427348845638334751e-01
-1.472233207523822784e+01 8.498917967081069946e+00 -4.395305388607084751e-01
-1.480094535648822784e+01 8.394059568643569946e+00 -4.363261931575834751e-01
-1.486954887211322784e+01 8.283219724893569946e+00 -4.329540007747709751e-01
-2.096512992680072784e+01 1.336537304520606995e+01 -7.451335662044584751e-01
-2.133378227055072784e+01 1.336988964676856995e+01 -7.538005583919584751e-01
-1.500175102055072784e+01 9.140641599893569946e+00 -4.048320525325834751e-01
-2.204459770023822784e+01 1.334315624833106995e+01 -7.687846892513334751e-01
-1.795255668461322784e+01 1.061793652176856995e+01 -5.436565154232084751e-01
-1.789933402836322784e+01 1.039662304520606995e+01 -5.317699187435209751e-01
-1.693082816898822784e+01 9.643205076456069946e+00 -4.732524626888334751e-01
-1.707706840336322784e+01 9.553361326456069946e+00 -4.722759001888334751e-01
-2.145243461430072784e+01 1.368800488114356995e+01 -6.610118621028959751e-01
-2.182609184086322784e+01 1.368995800614356995e+01 -6.681987517513334751e-01
-1.500187309086322784e+01 9.143205076456069946e+00 -3.298961394466459751e-01
-2.258402641117572784e+01 1.368104687333106995e+01 -6.815807097591459751e-01
-2.296830375492572784e+01 1.367091503739356995e+01 -6.884013884700834751e-01
-2.335270316898822784e+01 1.365370312333106995e+01 -6.949016326107084751e-01
-2.370756156742572784e+01 1.361403027176856995e+01 -7.004558318294584751e-01
-2.405546195805072784e+01 1.356483593583106995e+01 -7.048198455013334751e-01
-2.166740043461322784e+01 1.383253613114356995e+01 -5.591136687435209751e-01
-2.207133109867572784e+01 1.385157909989356995e+01 -5.660259001888334751e-01
-1.500199516117572784e+01 9.145890623331069946e+00 -2.553722136653959751e-01
-2.282950980961322784e+01 1.383717480301856995e+01 -5.768291228450834751e-01
-2.321488578617572784e+01 1.382496777176856995e+01 -5.821086638607084751e-01
-2.360502250492572784e+01 1.380836620926856995e+01 -5.872661345638334751e-01
-2.401054008305072784e+01 1.379554882645606995e+01 -5.928203337825834751e-01
-2.440787895023822784e+01 1.377150097489356995e+01 -5.977641814388334751e-01
-2.191569145023822784e+01 1.399891796708106995e+01 -4.567424529232084751e-01
-2.230900199711322784e+01 1.400819531083106995e+01 -4.615031951107084751e-01
-1.500223930180072784e+01 9.148576170206069946e+00 -1.808635466732084751e-01
-2.016459281742572784e+01 1.218922558426856995e+01 -3.630534880794584751e-01
-2.027311332523822784e+01 1.203907909989356995e+01 -3.581096404232084751e-01
-2.387186820805072784e+01 1.397181835770606995e+01 -4.774486296810209751e-01
-2.428141410648822784e+01 1.395839062333106995e+01 -4.814769499935209751e-01
-2.298356254398822784e+01 1.295704784989356995e+01 -4.259654753841459751e-01
-2.216959770023822784e+01 1.416908398270606995e+01 -3.512279265560209751e-01
-1.987150199711322784e+01 1.244398632645606995e+01 -2.680980437435209751e-01
-1.500236137211322784e+01 9.151139646768569946e+00 -1.059428923763334751e-01
-2.011222465336322784e+01 1.216017284989356995e+01 -2.588969939388334751e-01
-2.024186332523822784e+01 1.202357617020606995e+01 -2.545634978450834751e-01
-2.037247855961322784e+01 1.188588085770606995e+01 -2.501994841732084751e-01
-2.455839164555072784e+01 1.412501659989356995e+01 -3.667766326107084751e-01
-2.336918266117572784e+01 1.318275585770606995e+01 -3.218547576107084751e-01
-2.241068656742572784e+01 1.433094921708106995e+01 -2.431956999935209751e-01
-2.280045707523822784e+01 1.433229199051856995e+01 -2.445384734310209751e-01
-1.500248344242572784e+01 9.153825193643569946e+00 -3.143422538414597511e-02
-2.359562309086322784e+01 1.432423534989356995e+01 -2.468883269466459751e-01
-2.022037895023822784e+01 1.201393261551856995e+01 -1.521617644466459751e-01
-2.035599906742572784e+01 1.187953320145606995e+01 -1.477519744075834751e-01
-2.051346977055072784e+01 1.175795117020606995e+01 -1.438762419857084751e-01
-2.337418754398822784e+01 1.318971386551856995e+01 -2.051250212825834751e-01
-2.265873344242572784e+01 1.449745312333106995e+01 -1.320659392513334751e-01
-1.969840629398822784e+01 1.233949413895606995e+01 -6.106679374352097511e-02
-1.500272758305072784e+01 9.156388670206069946e+00 4.305918281897902489e-02
-2.006962211430072784e+01 1.214076367020606995e+01 -5.467336112633347511e-02
-2.019901664555072784e+01 1.200441113114356995e+01 -4.998891288414597511e-02
-2.356229789555072784e+01 1.379921093583106995e+01 -1.085979216732084751e-01
-2.050724418461322784e+01 1.175782909989356995e+01 -4.094045097008347511e-02
-2.321268852055072784e+01 1.310084667801856995e+01 -8.461110526695847511e-02
-2.290189750492572784e+01 1.466078320145606995e+01 -1.876943046227097511e-02
-2.330839164555072784e+01 1.466725292801856995e+01 -1.713674003258347511e-02
-1.500284965336322784e+01 9.159074217081069946e+00 1.179645783267915249e-01
-2.414591605961322784e+01 1.467396679520606995e+01 -1.356618339195847511e-02
-2.018668754398822784e+01 1.200038281083106995e+01 5.233652656897902489e-02
-2.034366996586322784e+01 1.187916699051856995e+01 5.683786934241652489e-02
-2.318790824711322784e+01 1.333375683426856995e+01 2.410776680335402489e-02
-2.313993461430072784e+01 1.306300488114356995e+01 3.237803047522902489e-02
-1.403092582523822784e+01 8.846818357706069946e+00 1.937549836002290249e-01
-1.442411430180072784e+01 8.949357420206069946e+00 1.937244660221040249e-01
-1.483683402836322784e+01 9.056657224893569946e+00 1.940906769596040249e-01
-1.519523246586322784e+01 9.121598631143569946e+00 1.952198273502290249e-01
-1.555643852055072784e+01 9.182389646768569946e+00 1.965168244205415249e-01
-1.593424613773822784e+01 9.245866209268569946e+00 1.978595978580415249e-01
-1.632694633305072784e+01 9.311906248331069946e+00 1.992481476627290249e-01
-1.673600395023822784e+01 9.380143553018569946e+00 2.011554962955415249e-01
-1.395011527836322784e+01 8.796159178018569946e+00 2.640980011783540249e-01
-1.436759574711322784e+01 8.915421873331069946e+00 2.660816437564790249e-01
-1.480887992680072784e+01 9.041398435831069946e+00 2.681873566471040249e-01
-1.519913871586322784e+01 9.126603513956069946e+00 2.707508332096040249e-01
-1.558634574711322784e+01 9.203263670206069946e+00 2.734974152408540249e-01
-1.599271781742572784e+01 9.283585935831069946e+00 2.763813263736665249e-01
-1.641703422367572784e+01 9.367448240518569946e+00 2.794025666080415249e-01
-1.686149223148822784e+01 9.455216795206069946e+00 2.825611359439790249e-01
-1.401993949711322784e+01 8.844376951456069946e+00 3.339832550846040249e-01
-1.440690238773822784e+01 8.943131834268569946e+00 3.375232941471040249e-01
-1.481278617680072784e+01 9.046403318643569946e+00 3.416279084049165249e-01
-1.517509086430072784e+01 9.114274412393569946e+00 3.458698517642915249e-01
-1.552824027836322784e+01 9.170426756143569946e+00 3.502643830142915249e-01
-1.590104301273822784e+01 9.231461912393569946e+00 3.548420197330415249e-01
-1.628837211430072784e+01 9.294694334268569946e+00 3.596180207096040249e-01
-1.671635062992572784e+01 9.374528318643569946e+00 3.650806671939790249e-01
-1.391825492680072784e+01 8.779923826456069946e+00 4.032581574283540249e-01
-1.434794242680072784e+01 8.907487303018569946e+00 4.091480500064790249e-01
-1.480289848148822784e+01 9.042619138956069946e+00 4.153888947330415249e-01
-1.520438773930072784e+01 9.135026365518569946e+00 4.214924103580415249e-01
-1.560209281742572784e+01 9.218156248331069946e+00 4.277027375064790249e-01
-1.602018363773822784e+01 9.305436521768569946e+00 4.342487580142915249e-01
-2.513712699711322784e+01 1.449476757645606995e+01 5.055225617252290249e-01
-2.570402152836322784e+01 1.455653515458106995e+01 5.156238800846040249e-01
-1.979325492680072784e+01 1.263978710770606995e+01 5.400684601627290249e-01
-1.969999320805072784e+01 1.236097851395606995e+01 5.431965119205415249e-01
-1.979679496586322784e+01 1.220692577958106995e+01 5.484913117252290249e-01
-2.521879203617572784e+01 1.536195507645606995e+01 6.175831086002290249e-01
-2.569547660648822784e+01 1.537867870926856995e+01 6.287220246158540249e-01
-2.566361625492572784e+01 1.508192577958106995e+01 6.343830353580415249e-01
-2.520316703617572784e+01 1.453798046708106995e+01 6.337879425846040249e-01
-2.574149711430072784e+01 1.458253613114356995e+01 6.458881623111665249e-01
