-1.462866048514842987e+01 1.217984801530838013e+01 -6.678169218357652426e-01
-1.484399251639842987e+01 1.217350035905838013e+01 -6.731269804295152426e-01
-9.413938805460929871e+00 7.355995476245880127e+00 -2.594764677342027426e-01
-1.525329427421092987e+01 1.213211852312088013e+01 -6.815498319920152426e-01
-1.556201009452342987e+01 1.219278746843338013e+01 -6.930854765232652426e-01
-1.271093587577342987e+01 1.100284606218338013e+01 -4.807899442967027426e-01
-1.436401204764842987e+01 1.233634215593338013e+01 -5.890663114842027426e-01
-1.465234212577342987e+01 1.239994078874588013e+01 -5.990150419529527426e-01
-1.487817220389842987e+01 1.240226012468338013e+01 -6.042945829685777426e-01
-1.514880208671092987e+01 1.244022399187088013e+01 -6.124885526951402426e-01
-9.413816735148429871e+00 7.357582390308380127e+00 -2.113197294529527426e-01
-1.573156575858592987e+01 1.253543883562088013e+01 -6.308448759373277426e-01
-1.600341634452342987e+01 1.255912047624588013e+01 -6.387641874607652426e-01
-1.271142415702342987e+01 1.100553160905838013e+01 -4.101570097263902426e-01
-1.458410482108592987e+01 1.253946715593338013e+01 -5.233467069920152426e-01
-1.484960775077342987e+01 1.257938414812088013e+01 -5.304878202732652426e-01
-1.510522298514842987e+01 1.260501891374588013e+01 -5.367286649998277426e-01
-1.286230306327342987e+01 1.046207457780838013e+01 -3.858192411717027426e-01
-9.413694664835929871e+00 7.359169304370880127e+00 -1.634223905857652426e-01
-1.588805989921092987e+01 1.266934996843338013e+01 -5.551002470310777426e-01
-1.616808919608592987e+01 1.269754821062088013e+01 -5.619361845310777426e-01
-1.270947103202342987e+01 1.100614196062088013e+01 -3.397529569920152426e-01
-1.467712239921092987e+01 1.262686949968338013e+01 -4.474342314060777426e-01
-1.241161946952342987e+01 1.039737731218338013e+01 -3.059699980076402426e-01
-1.525012044608592987e+01 1.273551207780838013e+01 -4.612129179295152426e-01
-1.306725911796092987e+01 1.064200621843338013e+01 -3.279121366795152426e-01
-9.413694664835929871e+00 7.360634148120880127e+00 -1.152809110935777426e-01
-1.605029134452342987e+01 1.280814391374588013e+01 -4.777992216404527426e-01
-1.633544759452342987e+01 1.283841735124588013e+01 -4.837654081638902426e-01
-1.270751790702342987e+01 1.100663024187088013e+01 -2.690132108982652426e-01
-1.321288900077342987e+01 1.129508239030838013e+01 -2.880104032810777426e-01
-1.242223958671092987e+01 1.040909606218338013e+01 -2.391212431248277426e-01
-1.301513509452342987e+01 1.076834899187088013e+01 -2.623146024998277426e-01
-1.308508138358592987e+01 1.065970641374588013e+01 -2.584083524998277426e-01
-9.413572594523429871e+00 7.362221062183380127e+00 -6.738357222639024258e-02
-1.621703939139842987e+01 1.295084410905838013e+01 -3.983314482029527426e-01
-1.656896810233592987e+01 1.303385192155838013e+01 -4.063728300388902426e-01
-1.228649739921092987e+01 1.061856871843338013e+01 -1.789558378513902426e-01
-1.237780599296092987e+01 1.053617125749588013e+01 -1.763771024998277426e-01
-1.243285970389842987e+01 1.042093688249588013e+01 -1.721504179295152426e-01
-1.285278157889842987e+01 1.062760192155838013e+01 -1.844032255467027426e-01
-1.261047200858592987e+01 1.025064879655838013e+01 -1.667488066013902426e-01
-9.413450524210929871e+00 7.363685905933380127e+00 -1.950149214826524258e-02
-1.644457845389842987e+01 1.314456969499588013e+01 -3.199775663670152426e-01
-1.687011556327342987e+01 1.328507262468338013e+01 -3.295753446873277426e-01
-1.220556478202342987e+01 1.054581481218338013e+01 -1.076820341404527426e-01
-1.295837239921092987e+01 1.106778746843338013e+01 -1.316688505467027426e-01
-1.245641927421092987e+01 1.044425231218338013e+01 -1.051948515232652426e-01
-1.277660970389842987e+01 1.056266051530838013e+01 -1.114509550388902426e-01
-1.597912435233592987e+01 1.317423278093338013e+01 -2.283790556248277426e-01
-9.413450524210929871e+00 7.365272819995880127e+00 2.862472855485975742e-02
-1.674743489921092987e+01 1.340152770280838013e+01 -2.412422148045152426e-01
-1.716064290702342987e+01 1.352762633562088013e+01 -2.483070341404527426e-01
-1.247009114921092987e+01 1.079325133562088013e+01 -4.969863570295274258e-02
-1.298596028983592987e+01 1.109525328874588013e+01 -6.132583296857774258e-02
-1.240832357108592987e+01 1.040348082780838013e+01 -3.593520796857774258e-02
-1.249365071952342987e+01 1.031534606218338013e+01 -3.302077925764024258e-02
-1.280908040702342987e+01 1.042740660905838013e+01 -3.758315718732774258e-02
-9.413328453898429871e+00 7.366859734058380127e+00 7.650680863298475742e-02
-1.695385579764842987e+01 1.357755309343338013e+01 -1.563423124607652426e-01
-1.728759603202342987e+01 1.363541442155838013e+01 -1.590431181248277426e-01
-1.269970540702342987e+01 1.100858336687088013e+01 1.292343460954725742e-02
-1.227612142264842987e+01 1.045011168718338013e+01 3.018112503923475742e-02
-1.236083821952342987e+01 1.036295348405838013e+01 3.272934281267225742e-02
-1.244567708671092987e+01 1.027530699968338013e+01 3.565903031267225742e-02
-1.278954915702342987e+01 1.041275817155838013e+01 3.173752152360975742e-02
-9.413328453898429871e+00 7.368324577808380127e+00 1.243736299220472574e-01
-1.707897786796092987e+01 1.368570739030838013e+01 -6.640700972639024258e-02
-1.741723470389842987e+01 1.374564391374588013e+01 -6.784133589826524258e-02
-1.269811849296092987e+01 1.100943785905838013e+01 8.314438187517225742e-02
-1.303405599296092987e+01 1.114383727312088013e+01 8.088608109392225742e-02
-1.263952474296092987e+01 1.061527281999588013e+01 9.426803910173475742e-02
-1.270556478202342987e+01 1.050687438249588013e+01 9.773178421892225742e-02
-1.276757650077342987e+01 1.039591246843338013e+01 1.012413057032972574e-01
-9.413206383585929871e+00 7.369911491870880127e+00 1.724845918361097574e-01
-1.720544271171092987e+01 1.379496031999588013e+01 2.447433792985975742e-02
-1.755920247733592987e+01 1.386588317155838013e+01 2.415390335954725742e-02
-1.269958333671092987e+01 1.101309996843338013e+01 1.536552461329847574e-01
-1.305810384452342987e+01 1.116825133562088013e+01 1.522361787501722574e-01
-1.602075032889842987e+01 1.365250426530838013e+01 1.124870332423597574e-01
-1.265173177421092987e+01 1.046170836687088013e+01 1.671745332423597574e-01
-1.567248372733592987e+01 1.291971617937088013e+01 1.286003144923597574e-01
-9.292478844523429871e+00 7.268471062183380127e+00 2.220146211329847574e-01
-9.547605797648429871e+00 7.371132194995880127e+00 2.214653047267347574e-01
-9.776365563273429871e+00 7.446571648120880127e+00 2.216789277736097574e-01
-8.098631188273429871e+00 6.744789421558380127e+00 2.673332246486097574e-01
-8.295774742960929871e+00 6.823280632495880127e+00 2.678672822657972574e-01
-8.501951500773429871e+00 6.905189812183380127e+00 2.684165986720472574e-01
-8.718260094523429871e+00 6.991249382495880127e+00 2.689964326564222574e-01
-8.944212242960929871e+00 7.081093132495880127e+00 2.696067842189222574e-01
-9.181883141398429871e+00 7.175575554370880127e+00 2.702476533595472574e-01
-9.430540367960929871e+00 7.274452507495880127e+00 2.709190400782972574e-01
-9.671140953898429871e+00 7.361244499683380127e+00 2.717582734767347574e-01
-8.016111657023429871e+00 6.669594109058380127e+00 3.092338594142347574e-01
-8.211912438273429871e+00 6.748085319995880127e+00 3.104393037501722574e-01
-8.428343102335929871e+00 6.840614616870880127e+00 3.119041475001722574e-01
-8.656492516398429871e+00 6.938148796558380127e+00 3.134452851954847574e-01
-8.895628258585929871e+00 7.040443718433380127e+00 3.150474580470472574e-01
-9.148191735148429871e+00 7.148353874683380127e+00 3.167564424220472574e-01
-9.413694664835929871e+00 7.261879265308380127e+00 3.185417207423597574e-01
-9.672727867960929871e+00 7.364296257495880127e+00 3.207237275782972574e-01
-8.072141930460929871e+00 6.722938835620880127e+00 3.503105195704847574e-01
-8.282224938273429871e+00 6.813637077808380127e+00 3.527214082423597574e-01
-8.502683922648429871e+00 6.908729851245880127e+00 3.552391084376722574e-01
-8.735227867960929871e+00 7.009071648120880127e+00 3.578941377345472574e-01
-8.979002282023429871e+00 7.114296257495880127e+00 3.606864961329847574e-01
-9.236814782023429871e+00 7.225624382495880127e+00 3.636314424220472574e-01
-9.507444664835929871e+00 7.342323601245880127e+00 3.667289766017347574e-01
-9.746336266398429871e+00 7.426674187183380127e+00 3.697807344142347574e-01
-8.117552086710929871e+00 6.766517937183380127e+00 3.922111543361097574e-01
-8.311521813273429871e+00 6.841835319995880127e+00 3.954765351954847574e-01
-8.514036461710929871e+00 6.920448601245880127e+00 3.988792451564222574e-01
-8.726805016398429871e+00 7.003212273120880127e+00 4.022056611720472574e-01
-8.948118492960929871e+00 7.089027702808380127e+00 4.059288057032972574e-01
-9.180296227335929871e+00 7.178993523120880127e+00 4.100791963282972574e-01
-9.423460289835929871e+00 7.273231804370880127e+00 4.141685517970472574e-01
-9.660032555460929871e+00 7.357094109058380127e+00 4.182579072657972574e-01
-8.049803063273429871e+00 6.704994499683380127e+00 4.329063447657972574e-01
-8.240598961710929871e+00 6.778480827808380127e+00 4.367820771876722574e-01
-8.439451500773429871e+00 6.854774773120880127e+00 4.410545381251722574e-01
-8.647825524210929871e+00 6.934852898120880127e+00 4.455253633204847574e-01
-8.864866539835929871e+00 7.018226921558380127e+00 4.501792939845472574e-01
-9.117552086710929871e+00 7.126869499683380127e+00 4.554740937892347574e-01
-9.393308922648429871e+00 7.249550163745880127e+00 4.612113984767347574e-01
-9.664305016398429871e+00 7.362098991870880127e+00 4.672081025782972574e-01
-8.677854821085929871e+00 6.519447624683380127e+00 -3.655097929295152426e-01
-8.721555992960929871e+00 6.454994499683380127e+00 -3.628242460545152426e-01
-8.769529625773429871e+00 6.394081413745880127e+00 -3.607795683201402426e-01
-8.822141930460929871e+00 6.336342155933380127e+00 -3.591468778904527426e-01
-8.879026696085929871e+00 6.282265007495880127e+00 -3.579414335545152426e-01
-8.936277672648429871e+00 6.227821648120880127e+00 -3.567054716404527426e-01
-8.993528649210929871e+00 6.173378288745880127e+00 -3.554847685154527426e-01
-9.046995446085929871e+00 6.116005241870880127e+00 -3.541419950779527426e-01
-9.322141930460929871e+00 7.050819694995880127e+00 -3.807075468357652426e-01
-9.379881188273429871e+00 6.988807976245880127e+00 -3.789680448826402426e-01
-9.435301110148429871e+00 6.924843132495880127e+00 -3.770149198826402426e-01
-9.494993492960929871e+00 6.863685905933380127e+00 -3.751533476170152426e-01
-9.550535485148429871e+00 6.799598991870880127e+00 -3.732002226170152426e-01
-9.602415367960929871e+00 6.732216179370880127e+00 -3.711402860935777426e-01
-9.658079430460929871e+00 6.668007194995880127e+00 -3.691871610935777426e-01
-9.713865563273429871e+00 6.603798210620880127e+00 -3.672187773045152426e-01
-1.008825521171092987e+01 7.682777702808380127e+00 -3.984992948826402426e-01
-1.017895345389842987e+01 7.636879265308380127e+00 -3.988502470310777426e-01
-1.027050618827342987e+01 7.590614616870880127e+00 -3.992011991795152426e-01
-1.036303548514842987e+01 7.543861687183380127e+00 -3.995521513279527426e-01
-1.044311361014842987e+01 7.487098991870880127e+00 -3.988655058201402426e-01
-1.050402669608592987e+01 7.414833366870880127e+00 -3.965766874607652426e-01
-1.056469564139842987e+01 7.342689812183380127e+00 -3.942878691013902426e-01
-1.062548665702342987e+01 7.270546257495880127e+00 -3.919990507420152426e-01
-1.087377767264842987e+01 8.330971062183380127e+00 -4.089820829685777426e-01
-1.096948079764842987e+01 8.278236687183380127e+00 -4.085853544529527426e-01
-1.106164388358592987e+01 8.221718132495880127e+00 -4.081428495701402426e-01
-1.115466146171092987e+01 8.164711296558380127e+00 -4.077156034763902426e-01
-1.125231771171092987e+01 8.110878288745880127e+00 -4.076087919529527426e-01
-1.135156087577342987e+01 8.056923210620880127e+00 -4.075477567967027426e-01
-1.145117025077342987e+01 8.002723991870880127e+00 -4.074714628513902426e-01
-1.154589681327342987e+01 7.943886101245880127e+00 -4.073036161717027426e-01
-1.556335286796092987e+01 1.219327574968338013e+01 -6.931465116795152426e-01
-1.588769368827342987e+01 1.226078063249588013e+01 -7.056892362888902426e-01
-1.625121907889842987e+01 1.235306578874588013e+01 -7.206733671482652426e-01
-1.662975911796092987e+01 1.244913512468338013e+01 -7.362831083592027426e-01
-1.699108724296092987e+01 1.252518492937088013e+01 -7.503059355076402426e-01
-1.730322103202342987e+01 1.255643492937088013e+01 -7.605140653904527426e-01
-1.328405599296092987e+01 9.365883171558380127e+00 -4.753120390232652426e-01
-1.206176595389842987e+01 8.322548210620880127e+00 -3.845527616795152426e-01
-1.600463704764842987e+01 1.255936461687088013e+01 -6.388099638279527426e-01
-1.628698568046092987e+01 1.258683043718338013e+01 -6.464393583592027426e-01
-1.657580403983592987e+01 1.261429625749588013e+01 -6.546791044529527426e-01
-1.693908528983592987e+01 1.269413024187088013e+01 -6.674049345310777426e-01
-1.726757650077342987e+01 1.274088317155838013e+01 -6.775978056248277426e-01
-1.758923177421092987e+01 1.277567321062088013e+01 -6.869972196873277426e-01
-1.792126302421092987e+01 1.281339293718338013e+01 -6.967933622654527426e-01
-1.206176595389842987e+01 8.324501335620880127e+00 -3.243873564060777426e-01
-1.616930989921092987e+01 1.269791442155838013e+01 -5.619667021092027426e-01
-1.645605306327342987e+01 1.272672301530838013e+01 -5.691078153904527426e-01
-1.681847982108592987e+01 1.281046324968338013e+01 -5.804908720310777426e-01
-1.723132161796092987e+01 1.292581969499588013e+01 -5.944221464451402426e-01
-1.755261068046092987e+01 1.296329528093338013e+01 -6.026771513279527426e-01
-1.768688802421092987e+01 1.285282164812088013e+01 -5.999000517185777426e-01
-1.823437337577342987e+01 1.304923278093338013e+01 -6.205299345310777426e-01
-1.206176595389842987e+01 8.326576530933380127e+00 -2.639167753513902426e-01
-1.633666829764842987e+01 1.283878356218338013e+01 -4.837959257420152426e-01
-1.669384603202342987e+01 1.292227965593338013e+01 -4.935157743748277426e-01
-1.711450032889842987e+01 1.304923278093338013e+01 -5.058143583592027426e-01
-1.751843099296092987e+01 1.315372496843338013e+01 -5.172737089451402426e-01
-1.785058431327342987e+01 1.319571715593338013e+01 -5.246437040623277426e-01
-1.768371419608592987e+01 1.285355406999588013e+01 -5.059822050388902426e-01
-1.886926107108592987e+01 1.352445250749588013e+01 -5.570991483982652426e-01
-1.206176595389842987e+01 8.328651726245880127e+00 -2.037666288670152426e-01
-1.657092122733592987e+01 1.303470641374588013e+01 -4.064338651951402426e-01
-1.699291829764842987e+01 1.316764098405838013e+01 -4.176032987888902426e-01
-1.742040853202342987e+01 1.329605895280838013e+01 -4.286354032810777426e-01
-1.781445150077342987e+01 1.338871031999588013e+01 -4.376991239842027426e-01
-1.828881673514842987e+01 1.353617125749588013e+01 -4.501655546482652426e-01
-1.768054036796092987e+01 1.285440856218338013e+01 -4.125984159763902426e-01
-1.902526693046092987e+01 1.364383727312088013e+01 -4.642188993748277426e-01
-1.206176595389842987e+01 8.330726921558380127e+00 -1.432960478123277426e-01
-1.687182454764842987e+01 1.328568297624588013e+01 -3.296058622654527426e-01
-1.729614095389842987e+01 1.341642028093338013e+01 -3.388069120701402426e-01
-1.771557454764842987e+01 1.353421813249588013e+01 -3.474281278904527426e-01
-1.808764486014842987e+01 1.360587340593338013e+01 -3.537300077732652426e-01
-1.846362142264842987e+01 1.367411071062088013e+01 -3.599403349217027426e-01
-1.767736653983592987e+01 1.285514098405838013e+01 -3.192604032810777426e-01
-1.918334798514842987e+01 1.376480895280838013e+01 -3.701637235935777426e-01
-1.206164388358592987e+01 8.332680046558380127e+00 -8.316116011701524258e-02
-1.716198568046092987e+01 1.352799254655838013e+01 -2.483375517185777426e-01
-1.750109700858592987e+01 1.358573180437088013e+01 -2.523658720310777426e-01
-1.787499837577342987e+01 1.366458922624588013e+01 -2.574012724217027426e-01
-1.826025228202342987e+01 1.374442321062088013e+01 -2.625282255467027426e-01
-1.864294271171092987e+01 1.381559020280838013e+01 -2.673194853123277426e-01
-1.767419271171092987e+01 1.285587340593338013e+01 -2.254798857029527426e-01
-1.934509114921092987e+01 1.388858824968338013e+01 -2.738960233982652426e-01
-1.206164388358592987e+01 8.334755241870880127e+00 -2.269057906232774258e-02
-1.728893880546092987e+01 1.363590270280838013e+01 -1.590583769138902426e-01
-1.698351888358592987e+01 1.316922789812088013e+01 -1.420448271092027426e-01
-1.804882650077342987e+01 1.380643492937088013e+01 -1.664436308201402426e-01
-1.722839193046092987e+01 1.293912535905838013e+01 -1.343543974217027426e-01
-1.737219075858592987e+01 1.284012633562088013e+01 -1.311195341404527426e-01
-1.767175130546092987e+01 1.285721617937088013e+01 -1.322486845310777426e-01
-1.953893880546092987e+01 1.403641539812088013e+01 -1.772315946873277426e-01
-1.206164388358592987e+01 8.336830437183380127e+00 3.742904984392225742e-02
-1.741869954764842987e+01 1.374613219499588013e+01 -6.785659468732774258e-02
-1.780505208671092987e+01 1.383853942155838013e+01 -7.014541304670274258e-02
-1.708141927421092987e+01 1.303836852312088013e+01 -4.599074996076524258e-02
-1.720043782889842987e+01 1.292044860124588013e+01 -4.193191207014024258e-02
-1.731933431327342987e+01 1.280252867937088013e+01 -3.788833296857774258e-02
-1.744860677421092987e+01 1.269132262468338013e+01 -3.402785933576524258e-02
-1.759264974296092987e+01 1.259134703874588013e+01 -3.003005660139024258e-02
-1.206164388358592987e+01 8.338905632495880127e+00 9.788437210954725742e-02
-1.756115560233592987e+01 1.386673766374588013e+01 2.413864457048475742e-02
-1.694262532889842987e+01 1.314225035905838013e+01 4.225082718767225742e-02
-1.706091146171092987e+01 1.302506285905838013e+01 4.637070023454725742e-02
-1.879833821952342987e+01 1.417618590593338013e+01 2.172775589860975742e-02
-1.914196614921092987e+01 1.421024352312088013e+01 2.259750687517225742e-02
-1.767114095389842987e+01 1.286307555437088013e+01 5.451889359392225742e-02
-1.996179036796092987e+01 1.435819274187088013e+01 2.268905960954725742e-02
-1.206164388358592987e+01 8.340980827808380127e+00 1.580040010157972574e-01
-9.777830407023429871e+00 7.447304069995880127e+00 2.216789277736097574e-01
-1.002258138358592987e+01 7.530800163745880127e+00 2.213890107814222574e-01
-1.027795247733592987e+01 7.617592155933380127e+00 2.213890107814222574e-01
-1.054638509452342987e+01 7.708778679370880127e+00 2.213737519923597574e-01
-1.082690267264842987e+01 7.804237663745880127e+00 2.213584932032972574e-01
-1.112243489921092987e+01 7.904701530933380127e+00 2.213432344142347574e-01
-1.143200521171092987e+01 8.009926140308380127e+00 2.213432344142347574e-01
-1.175695638358592987e+01 8.120033562183380127e+00 2.216484101954847574e-01
-9.672605797648429871e+00 7.362098991870880127e+00 2.717582734767347574e-01
-9.911131188273429871e+00 7.442055046558380127e+00 2.728721650782972574e-01
-1.016064290702342987e+01 7.525673210620880127e+00 2.740318330470472574e-01
-1.042260579764842987e+01 7.613563835620880127e+00 2.752677949611097574e-01
-1.069628743827342987e+01 7.705360710620880127e+00 2.765342744532972574e-01
-1.098547200858592987e+01 7.802772819995880127e+00 2.778770478907972574e-01
-1.130993489921092987e+01 7.920936882495880127e+00 2.791740449611097574e-01
-1.165283040702342987e+01 8.045814812183380127e+00 2.805320771876722574e-01
-9.674314782023429871e+00 7.365150749683380127e+00 3.207237275782972574e-01
-9.929930016398429871e+00 7.459022819995880127e+00 3.226463350001722574e-01
-1.019897298514842987e+01 7.558021843433380127e+00 3.249504121486097574e-01
-1.048266439139842987e+01 7.662391960620880127e+00 3.273765596095472574e-01
-1.078039388358592987e+01 7.772011101245880127e+00 3.299095185939222574e-01
-1.109545736014842987e+01 7.887977898120880127e+00 3.325950654689222574e-01
-1.142687825858592987e+01 8.009926140308380127e+00 3.354332002345472574e-01
-1.177795247733592987e+01 8.139442741870880127e+00 3.387290986720472574e-01
-9.747679039835929871e+00 7.427406609058380127e+00 3.697959932032972574e-01
-9.985838219523429871e+00 7.506019890308380127e+00 3.731071504298597574e-01
-1.023449544608592987e+01 7.588173210620880127e+00 3.765556367579847574e-01
-1.049572591483592987e+01 7.674476921558380127e+00 3.801872285548597574e-01
-1.076818685233592987e+01 7.764442741870880127e+00 3.839866670314222574e-01
-1.105480794608592987e+01 7.859047234058380127e+00 3.879692109767347574e-01
-1.135473470389842987e+01 7.958046257495880127e+00 3.921348603907972574e-01
-1.166967611014842987e+01 8.062172234058380127e+00 3.965141328517347574e-01
-9.661497399210929871e+00 7.357826530933380127e+00 4.182731660548597574e-01
-9.895139977335929871e+00 7.434120476245880127e+00 4.226066621486097574e-01
-1.013915853202342987e+01 7.513710319995880127e+00 4.271232637111097574e-01
-1.039575032889842987e+01 7.597694694995880127e+00 4.315940889064222574e-01
-1.068627767264842987e+01 7.703041374683380127e+00 4.368125947657972574e-01
-1.100878743827342987e+01 7.825966179370880127e+00 4.427940400782972574e-01
-1.134802083671092987e+01 7.955116569995880127e+00 4.488060029689222574e-01
-1.170751790702342987e+01 8.091835319995880127e+00 4.551689180079847574e-01
-9.665891930460929871e+00 7.363075554370880127e+00 4.672386201564222574e-01
-9.931028649210929871e+00 7.464882194995880127e+00 4.728996308986097574e-01
-1.021069173514842987e+01 7.572548210620880127e+00 4.791404756251722574e-01
-1.050646810233592987e+01 7.686439812183380127e+00 4.857322725001722574e-01
-1.081774739921092987e+01 7.806312859058380127e+00 4.926902803126722574e-01
-1.114782552421092987e+01 7.933388054370880127e+00 5.000602754298597574e-01
-1.745422200858592987e+01 1.251017028093338013e+01 6.134178193751722574e-01
-1.761572103202342987e+01 1.242362242937088013e+01 6.193992646876722574e-01
-9.047361657023429871e+00 6.115883171558380127e+00 -3.541572538670152426e-01
-9.105345055460929871e+00 6.061683952808380127e+00 -3.529365507420152426e-01
-9.159788414835929871e+00 6.004432976245880127e+00 -3.516090360935777426e-01
-9.214475914835929871e+00 5.946815788745880127e+00 -3.502662626560777426e-01
-9.269041344523429871e+00 5.889320671558380127e+00 -3.489234892185777426e-01
-9.324095055460929871e+00 5.831337273120880127e+00 -3.475807157810777426e-01
-9.379026696085929871e+00 5.773475944995880127e+00 -3.462379423435777426e-01
-9.430052086710929871e+00 5.712929069995880127e+00 -3.447730985935777426e-01
-9.714109703898429871e+00 6.603676140308380127e+00 -3.672187773045152426e-01
-9.766722008585929871e+00 6.537025749683380127e+00 -3.651893583592027426e-01
-9.824583336710929871e+00 6.474037468433380127e+00 -3.635871855076402426e-01
-9.889158532023429871e+00 6.414955437183380127e+00 -3.622291532810777426e-01
-9.949827477335929871e+00 6.353309929370880127e+00 -3.608253446873277426e-01
-1.000707845389842987e+01 6.288734734058380127e+00 -3.593452421482652426e-01
-1.006811361014842987e+01 6.226723015308380127e+00 -3.579261747654527426e-01
-1.012927083671092987e+01 6.164467155933380127e+00 -3.565071073826402426e-01
-1.062573079764842987e+01 7.270302116870880127e+00 -3.919837919529527426e-01
-1.068212728202342987e+01 7.194862663745880127e+00 -3.895423857029527426e-01
-1.073852376639842987e+01 7.119423210620880127e+00 -3.870857206638902426e-01
-1.079528646171092987e+01 7.043617546558380127e+00 -3.846290556248277426e-01
-1.084496907889842987e+01 6.963417351245880127e+00 -3.816688505467027426e-01
-1.089294271171092987e+01 6.881752312183380127e+00 -3.785560575779527426e-01
-1.094079427421092987e+01 6.800575554370880127e+00 -3.754432646092027426e-01
-1.098852376639842987e+01 6.719398796558380127e+00 -3.723609892185777426e-01
-1.154650716483592987e+01 7.943886101245880127e+00 -4.073188749607652426e-01
-1.164990071952342987e+01 7.890663444995880127e+00 -4.073036161717027426e-01
-1.174853353202342987e+01 7.832680046558380127e+00 -4.071662870701402426e-01
-1.184814290702342987e+01 7.774208366870880127e+00 -4.070442167576402426e-01
-1.194824056327342987e+01 7.715370476245880127e+00 -4.069068876560777426e-01
-1.204955892264842987e+01 7.655922234058380127e+00 -4.067695585545152426e-01
-1.215124349296092987e+01 7.596229851245880127e+00 -4.066474882420152426e-01
-1.224755696952342987e+01 7.532020866870880127e+00 -4.064033476170152426e-01
-1.206188802421092987e+01 8.322059929370880127e+00 -3.845375028904527426e-01
-1.311340169608592987e+01 8.942299187183380127e+00 -4.475105253513902426e-01
-1.303039388358592987e+01 8.738075554370880127e+00 -4.341743437107652426e-01
-1.306237630546092987e+01 8.616859734058380127e+00 -4.285285917576402426e-01
-1.329186849296092987e+01 8.631141960620880127e+00 -4.357459989842027426e-01
-1.342443685233592987e+01 8.576332390308380127e+00 -4.365241972263902426e-01
-1.355932454764842987e+01 8.522011101245880127e+00 -4.373786894138902426e-01
-1.367919759452342987e+01 8.456459343433380127e+00 -4.372108427342027426e-01
-1.206188802421092987e+01 8.324135124683380127e+00 -3.243720976170152426e-01
-1.876525716483592987e+01 1.299918395280838013e+01 -7.266242948826402426e-01
-1.916442708671092987e+01 1.306436949968338013e+01 -7.396553007420152426e-01
-1.306164388358592987e+01 8.618446648120880127e+00 -3.634345976170152426e-01
-1.352404622733592987e+01 8.791420280933380127e+00 -3.835304228123277426e-01
-1.477062825858592987e+01 9.478187859058380127e+00 -4.490211454685777426e-01
-1.490392903983592987e+01 9.406654655933380127e+00 -4.485938993748277426e-01
-1.504980306327342987e+01 9.342079460620880127e+00 -4.492195097263902426e-01
-1.206176595389842987e+01 8.326088249683380127e+00 -2.639015165623277426e-01
-1.921508626639842987e+01 1.332547789812088013e+01 -6.539161649998277426e-01
-1.960961751639842987e+01 1.338163024187088013e+01 -6.647499052342027426e-01
-1.306127767264842987e+01 8.620521843433380127e+00 -2.987068144138902426e-01
-1.352258138358592987e+01 8.792763054370880127e+00 -3.165595976170152426e-01
-1.965368489921092987e+01 1.274430114030838013e+01 -6.346290556248277426e-01
-2.107543782889842987e+01 1.346036559343338013e+01 -6.986244169529527426e-01
-2.143969564139842987e+01 1.346353942155838013e+01 -7.062538114842027426e-01
-1.206176595389842987e+01 8.328163444995880127e+00 -2.037513700779527426e-01
-1.955041341483592987e+01 1.356949645280838013e+01 -5.704505888279527426e-01
-1.991760091483592987e+01 1.360233336687088013e+01 -5.775459257420152426e-01
-1.306213216483592987e+01 8.623329460620880127e+00 -2.337196317967027426e-01
-1.352123861014842987e+01 8.794105827808380127e+00 -2.492530790623277426e-01
-1.965087728202342987e+01 1.274601012468338013e+01 -5.336463896092027426e-01
-2.134203939139842987e+01 1.363919860124588013e+01 -6.036079374607652426e-01
-2.171264486014842987e+01 1.364334899187088013e+01 -6.099861112888902426e-01
-1.206176595389842987e+01 8.330238640308380127e+00 -1.432807890232652426e-01
-1.972851400077342987e+01 1.370096617937088013e+01 -4.757087675388902426e-01
-2.011169271171092987e+01 1.374283629655838013e+01 -4.824836698826402426e-01
-1.306310872733592987e+01 8.626259148120880127e+00 -1.690681425388902426e-01
-1.351977376639842987e+01 8.795448601245880127e+00 -1.823280302342027426e-01
-1.964819173514842987e+01 1.274771910905838013e+01 -4.332435575779527426e-01
-2.155370931327342987e+01 1.378202086687088013e+01 -5.027931181248277426e-01
-2.195971517264842987e+01 1.380667906999588013e+01 -5.091102567967027426e-01
-1.206176595389842987e+01 8.332313835620880127e+00 -8.313064253889024258e-02
-1.993408040702342987e+01 1.385208922624588013e+01 -3.805702177342027426e-01
-1.917138509452342987e+01 1.308292418718338013e+01 -3.421791044529527426e-01
-1.306408528983592987e+01 8.629188835620880127e+00 -1.044166532810777426e-01
-1.351843099296092987e+01 8.796913444995880127e+00 -1.154182401951402426e-01
-1.964538411796092987e+01 1.274930602312088013e+01 -3.328712431248277426e-01
-2.182238607108592987e+01 1.396244078874588013e+01 -4.023139921482652426e-01
-2.219396810233592987e+01 1.396158629655838013e+01 -4.056861845310777426e-01
-1.206176595389842987e+01 8.334389030933380127e+00 -2.267532027326524258e-02
-1.906603841483592987e+01 1.323209410905838013e+01 -2.473304716404527426e-01
-1.817675618827342987e+01 1.238431578874588013e+01 -2.101600614842027426e-01
-1.306493978202342987e+01 8.631996452808380127e+00 -3.941421187482774258e-02
-1.351708821952342987e+01 8.798256218433380127e+00 -4.818801558576524258e-02
-1.964269857108592987e+01 1.275101500749588013e+01 -2.320106474217027426e-01
-2.205602864921092987e+01 1.411978942155838013e+01 -2.972267118748277426e-01
-2.243456868827342987e+01 1.412088805437088013e+01 -2.992866483982652426e-01
-1.206164388358592987e+01 8.336342155933380127e+00 3.744430863298475742e-02
-1.904333333671092987e+01 1.321927672624588013e+01 -1.474159208592027426e-01
-1.810412435233592987e+01 1.233622008562088013e+01 -1.144874540623277426e-01
-1.306591634452342987e+01 8.634926140308380127e+00 2.525253617204725742e-02
-1.351562337577342987e+01 8.799598991870880127e+00 1.867599808610975742e-02
-1.964282064139842987e+01 1.275455504655838013e+01 -1.317909208592027426e-01
-2.229382161796092987e+01 1.428006774187088013e+01 -1.902778593357652426e-01
-2.267846517264842987e+01 1.428226500749588013e+01 -1.909492460545152426e-01
-1.206164388358592987e+01 8.338417351245880127e+00 9.789963089860975742e-02
-2.055615071952342987e+01 1.430997496843338013e+01 -8.024673140607774258e-02
-2.092663411796092987e+01 1.433280211687088013e+01 -8.075027144514024258e-02
-1.306689290702342987e+01 8.637855827808380127e+00 8.991928421892225742e-02
-1.351428060233592987e+01 8.800941765308380127e+00 8.552475296892225742e-02
-1.908471517264842987e+01 1.238443785905838013e+01 -2.047805464826524258e-02
-1.949987630546092987e+01 1.244681578874588013e+01 -2.108840621076524258e-02
-2.292724446952342987e+01 1.444705992937088013e+01 -7.943801558576524258e-02
-1.206164388358592987e+01 8.340492546558380127e+00 1.580192598048597574e-01
-1.833300618827342987e+01 1.271524840593338013e+01 6.268234574235975742e-02
-1.766833333671092987e+01 1.203482848405838013e+01 7.939071976579725742e-02
-1.306774739921092987e+01 8.640663444995880127e+00 1.549369844142347574e-01
-1.351281575858592987e+01 8.802284538745880127e+00 1.527092012111097574e-01
-1.904211263358592987e+01 1.235929137468338013e+01 7.778854691423475742e-02
-2.273986653983592987e+01 1.458133727312088013e+01 3.245468460954725742e-02
-1.962328939139842987e+01 1.231693297624588013e+01 8.257980667985975742e-02
-1.175903157889842987e+01 8.121132194995880127e+00 2.216331514064222574e-01
-1.210302571952342987e+01 8.238197624683380127e+00 2.214347871486097574e-01
-1.242187337577342987e+01 8.330482780933380127e+00 2.219993623439222574e-01
-1.273364095389842987e+01 8.411049187183380127e+00 2.228080781642347574e-01
-1.305871419608592987e+01 8.494911491870880127e+00 2.236625703517347574e-01
-1.340038900077342987e+01 8.583168327808380127e+00 2.245475801173597574e-01
-1.375720052421092987e+01 8.675331413745880127e+00 2.254783662501722574e-01
-1.413061361014842987e+01 8.771400749683380127e+00 2.268363984767347574e-01
-1.165502767264842987e+01 8.046913444995880127e+00 2.805320771876722574e-01
-1.201855306327342987e+01 8.179481804370880127e+00 2.821342500392347574e-01
-1.237231282889842987e+01 8.297523796558380127e+00 2.839653047267347574e-01
-1.270434407889842987e+01 8.392860710620880127e+00 2.860862764064222574e-01
-1.305200032889842987e+01 8.492592155933380127e+00 2.882988008204847574e-01
-1.341869954764842987e+01 8.597816765308380127e+00 2.906181367579847574e-01
-1.380358724296092987e+01 8.708168327808380127e+00 2.930748017970472574e-01
-1.420922689139842987e+01 8.824623405933380127e+00 2.956535371486097574e-01
-1.178014974296092987e+01 8.140541374683380127e+00 3.387443574611097574e-01
-1.213879232108592987e+01 8.268104851245880127e+00 3.417808564845472574e-01
-1.244738607108592987e+01 8.352821648120880127e+00 3.452293428126722574e-01
-1.275610189139842987e+01 8.430946648120880127e+00 3.488151582423597574e-01
-1.307775716483592987e+01 8.512367546558380127e+00 3.525688203517347574e-01
-1.341552571952342987e+01 8.597938835620880127e+00 3.564903291407972574e-01
-1.376794271171092987e+01 8.687172234058380127e+00 3.605949433986097574e-01
-1.413683919608592987e+01 8.780311882495880127e+00 3.652793916407972574e-01
-1.167175130546092987e+01 8.063148796558380127e+00 3.965446504298597574e-01
-1.200292806327342987e+01 8.172401726245880127e+00 4.013664277736097574e-01
-1.233141927421092987e+01 8.272865593433380127e+00 4.063102754298597574e-01
-1.264611653983592987e+01 8.356605827808380127e+00 4.112998994532972574e-01
-1.300195150077342987e+01 8.462806999683380127e+00 4.167015107814222574e-01
-1.337792806327342987e+01 8.575111687183380127e+00 4.224082978907972574e-01
-1.377331380546092987e+01 8.693031609058380127e+00 4.284202607814222574e-01
-1.419091634452342987e+01 8.817665398120880127e+00 4.347679170314222574e-01
-1.170983724296092987e+01 8.093056023120880127e+00 4.551994355861097574e-01
-1.209240560233592987e+01 8.238930046558380127e+00 4.622184785548597574e-01
-1.244592122733592987e+01 8.355995476245880127e+00 4.689933808986097574e-01
-1.279247884452342987e+01 8.460609734058380127e+00 4.754936250392347574e-01
-1.351269368827342987e+01 8.813759148120880127e+00 4.873039277736097574e-01
-1.925659017264842987e+01 1.251993590593338013e+01 5.665428193751722574e-01
-1.972143392264842987e+01 1.261344176530838013e+01 5.765220674220472574e-01
-1.947729329764842987e+01 1.223978453874588013e+01 5.769340547267347574e-01
-1.761645345389842987e+01 1.242350035905838013e+01 6.194297822657972574e-01
-1.780505208671092987e+01 1.235477477312088013e+01 6.253654512111097574e-01
-2.149755696952342987e+01 1.476322203874588013e+01 6.958152803126722574e-01
-2.157934407889842987e+01 1.457157164812088013e+01 7.010032685939222574e-01
-1.351269368827342987e+01 8.816078484058380127e+00 5.544120820704847574e-01
-1.950341634452342987e+01 1.268888121843338013e+01 6.692192109767347574e-01
-1.933813314139842987e+01 1.236441832780838013e+01 6.692649873439222574e-01
-1.957482747733592987e+01 1.230643492937088013e+01 6.774589570704847574e-01
-9.430174157023429871e+00 5.712684929370880127e+00 -3.447730985935777426e-01
-9.485960289835929871e+00 5.654945671558380127e+00 -3.434303251560777426e-01
-9.537840172648429871e+00 5.594398796558380127e+00 -3.419807401951402426e-01
-9.590086266398429871e+00 5.533363640308380127e+00 -3.405158964451402426e-01
-9.647581383585929871e+00 5.475624382495880127e+00 -3.394935575779527426e-01
-9.707762047648429871e+00 5.418861687183380127e+00 -3.386543241795152426e-01
-9.754270836710929871e+00 5.354042351245880127e+00 -3.367011991795152426e-01
-9.796751305460929871e+00 5.286903679370880127e+00 -3.346412626560777426e-01
-1.012951497733592987e+01 6.164345085620880127e+00 -3.564918485935777426e-01
-1.018786458671092987e+01 6.100014030933380127e+00 -3.550270048435777426e-01
-1.024645833671092987e+01 6.035438835620880127e+00 -3.535469023045152426e-01
-1.030944661796092987e+01 5.972938835620880127e+00 -3.521125761326402426e-01
-1.036840657889842987e+01 5.907997429370880127e+00 -3.506324735935777426e-01
-1.042370443046092987e+01 5.840126335620880127e+00 -3.490760771092027426e-01
-1.048303060233592987e+01 5.774818718433380127e+00 -3.475807157810777426e-01
-1.054260091483592987e+01 5.709266960620880127e+00 -3.460853544529527426e-01
-1.098876790702342987e+01 6.719154655933380127e+00 -3.723457304295152426e-01
-1.105004720389842987e+01 6.646644890308380127e+00 -3.704383817967027426e-01
-1.111511068046092987e+01 6.576210319995880127e+00 -3.687751737888902426e-01
-1.118066243827342987e+01 6.505287468433380127e+00 -3.671119657810777426e-01
-1.124621419608592987e+01 6.434364616870880127e+00 -3.654487577732652426e-01
-1.131213216483592987e+01 6.362953484058380127e+00 -3.637702909763902426e-01
-1.137817220389842987e+01 6.291542351245880127e+00 -3.621070829685777426e-01
-1.144445638358592987e+01 6.219887077808380127e+00 -3.604133573826402426e-01
-1.224792318046092987e+01 7.531898796558380127e+00 -4.064033476170152426e-01
-1.233752278983592987e+01 7.462562859058380127e+00 -4.052131620701402426e-01
-1.241393880546092987e+01 7.384193718433380127e+00 -4.033973661717027426e-01
-1.249084310233592987e+01 7.305336296558380127e+00 -4.015815702732652426e-01
-1.256774739921092987e+01 7.226356804370880127e+00 -3.997657743748277426e-01
-1.264526204764842987e+01 7.146889030933380127e+00 -3.979194608982652426e-01
-1.272277669608592987e+01 7.067299187183380127e+00 -3.960884062107652426e-01
-1.279235677421092987e+01 6.982704460620880127e+00 -3.940437284763902426e-01
-1.367993001639842987e+01 8.456459343433380127e+00 -4.372261015232652426e-01
-1.379443196952342987e+01 8.386146843433380127e+00 -4.368293730076402426e-01
-1.387377767264842987e+01 8.292763054370880127e+00 -4.342048612888902426e-01
-1.394824056327342987e+01 8.195595085620880127e+00 -4.312446562107652426e-01
-1.402270345389842987e+01 8.098671257495880127e+00 -4.282844511326402426e-01
-1.409741048514842987e+01 8.001137077808380127e+00 -4.253089872654527426e-01
-1.417211751639842987e+01 7.903847038745880127e+00 -4.223335233982652426e-01
-1.424694661796092987e+01 7.806312859058380127e+00 -4.193580595310777426e-01
-1.505065755546092987e+01 9.341957390308380127e+00 -4.492347685154527426e-01
-1.479687337577342987e+01 9.022743523120880127e+00 -4.264533964451402426e-01
-1.536743001639842987e+01 9.222938835620880127e+00 -4.507453886326402426e-01
-1.551281575858592987e+01 9.151893913745880127e+00 -4.508064237888902426e-01
-1.563439778983592987e+01 9.065346062183380127e+00 -4.494789091404527426e-01
-1.575720052421092987e+01 8.977943718433380127e+00 -4.481513944920152426e-01
-1.588061361014842987e+01 8.890175163745880127e+00 -4.468086210545152426e-01
-1.599560384452342987e+01 8.796669304370880127e+00 -4.453895536717027426e-01
-2.144164876639842987e+01 1.346402770280838013e+01 -7.063148466404527426e-01
-1.479699544608592987e+01 9.025306999683380127e+00 -3.541267362888902426e-01
-2.213989095389842987e+01 1.343338805437088013e+01 -7.195136991795152426e-01
-2.248278646171092987e+01 1.340494567155838013e+01 -7.253578153904527426e-01
-2.283154134452342987e+01 1.337540465593338013e+01 -7.312629667576402426e-01
-2.316125325858592987e+01 1.332840758562088013e+01 -7.359474149998277426e-01
-2.349658040702342987e+01 1.328067809343338013e+01 -7.406928983982652426e-01
-1.902880696952342987e+01 1.051346617937088013e+01 -5.142982450779527426e-01
-2.171496419608592987e+01 1.364408141374588013e+01 -6.100624052342027426e-01
-1.479711751639842987e+01 9.027992546558380127e+00 -2.818000761326402426e-01
-2.246667318046092987e+01 1.364041930437088013e+01 -6.221321073826402426e-01
-2.284643392264842987e+01 1.363077574968338013e+01 -6.281745878513902426e-01
-2.322314290702342987e+01 1.361393004655838013e+01 -6.338203398045152426e-01
-2.361059407889842987e+01 1.359659606218338013e+01 -6.396491972263902426e-01
-2.400280599296092987e+01 1.357645446062088013e+01 -6.460578886326402426e-01
-2.439355306327342987e+01 1.354947692155838013e+01 -6.515052763279527426e-01
-2.196179036796092987e+01 1.380716735124588013e+01 -5.091560331638902426e-01
-1.479736165702342987e+01 9.030556023120880127e+00 -2.090919462498277426e-01
-2.270873861014842987e+01 1.379496031999588013e+01 -5.184333769138902426e-01
-2.308813314139842987e+01 1.378226500749588013e+01 -5.228736845310777426e-01
-2.347204427421092987e+01 1.376712828874588013e+01 -5.272682157810777426e-01
-2.387829427421092987e+01 1.375797301530838013e+01 -5.321968046482652426e-01
-2.427038411796092987e+01 1.373502379655838013e+01 -5.363624540623277426e-01
-2.466918782889842987e+01 1.370963317155838013e+01 -5.405128446873277426e-01
-2.219604329764842987e+01 1.396219664812088013e+01 -4.057167021092027426e-01
-1.479748372733592987e+01 9.033241569995880127e+00 -1.367805448826402426e-01
-1.991039876639842987e+01 1.205863219499588013e+01 -3.071144071873277426e-01
-2.003295736014842987e+01 1.192142516374588013e+01 -3.026588407810777426e-01
-2.016027669608592987e+01 1.178726989030838013e+01 -2.983558622654527426e-01
-2.029284505546092987e+01 1.165470153093338013e+01 -2.941749540623277426e-01
-2.454308919608592987e+01 1.389652281999588013e+01 -4.246528593357652426e-01
-2.375659017264842987e+01 1.319779235124588013e+01 -3.889320341404527426e-01
-2.243664388358592987e+01 1.412137633562088013e+01 -2.993019071873277426e-01
-1.479760579764842987e+01 9.035805046558380127e+00 -6.407241499982774258e-02
-2.319860677421092987e+01 1.410770446062088013e+01 -3.027961698826402426e-01
-2.001171712577342987e+01 1.191202574968338013e+01 -2.018135038670152426e-01
-2.013879232108592987e+01 1.177799254655838013e+01 -1.973426786717027426e-01
-2.326794271171092987e+01 1.340750914812088013e+01 -2.762916532810777426e-01
-2.482372884452342987e+01 1.406278258562088013e+01 -3.096168485935777426e-01
-2.522472982108592987e+01 1.403275328874588013e+01 -3.105628935154527426e-01
-2.268054036796092987e+01 1.428275328874588013e+01 -1.909645048435777426e-01
-1.479772786796092987e+01 9.038490593433380127e+00 8.238986367359757423e-03
-2.346984700858592987e+01 1.428055602312088013e+01 -1.919410673435777426e-01
-1.999059896171092987e+01 1.190274840593338013e+01 -1.017463651951402426e-01
-2.012597493827342987e+01 1.177372008562088013e+01 -9.729079878889024258e-02
-2.028039388358592987e+01 1.165445739030838013e+01 -9.320144332014024258e-02
-2.256457357108592987e+01 1.276346617937088013e+01 -1.361549345310777426e-01
-2.371435384452342987e+01 1.318216735124588013e+01 -1.527564970310777426e-01
-2.292944173514842987e+01 1.444767028093338013e+01 -7.945327437482774258e-02
-1.479784993827342987e+01 9.041054069995880127e+00 8.093185746110975742e-02
-1.984289388358592987e+01 1.202713805437088013e+01 -6.729885702952742577e-03
-2.415490560233592987e+01 1.445035582780838013e+01 -7.699660933576524258e-02
-2.284142903983592987e+01 1.340555602312088013e+01 -4.528884566389024258e-02
-2.027429036796092987e+01 1.165433531999588013e+01 6.911471718922257423e-03
-2.283434896171092987e+01 1.292313414812088013e+01 -2.850417769514024258e-02
-2.385192708671092987e+01 1.326419860124588013e+01 -3.729324019514024258e-02
-1.962365560233592987e+01 1.231644469499588013e+01 8.259506546892225742e-02
-1.479797200858592987e+01 9.043739616870880127e+00 1.532280000392347574e-01
-1.505370931327342987e+01 9.048622429370880127e+00 1.547386201564222574e-01
-1.540795736014842987e+01 9.108925163745880127e+00 1.551658662501722574e-01
-1.577599935233592987e+01 9.171669304370880127e+00 1.556236299220472574e-01
-1.616137532889842987e+01 9.237343132495880127e+00 1.560813935939222574e-01
-1.656249837577342987e+01 9.305580437183380127e+00 1.565696748439222574e-01
-1.698193196952342987e+01 9.376991569995880127e+00 1.570884736720472574e-01
-1.413305501639842987e+01 8.772499382495880127e+00 2.268363984767347574e-01
-1.452734212577342987e+01 8.874550163745880127e+00 2.276451142970472574e-01
-1.491650228202342987e+01 8.965736687183380127e+00 2.290794404689222574e-01
-1.525451497733592987e+01 9.017860710620880127e+00 2.311088594142347574e-01
-1.564147786796092987e+01 9.093666374683380127e+00 2.329704316798597574e-01
-1.604797200858592987e+01 9.173256218433380127e+00 2.349235566798597574e-01
-1.647253255546092987e+01 9.256386101245880127e+00 2.369682344142347574e-01
-1.691882161796092987e+01 9.344154655933380127e+00 2.395317109767347574e-01
-1.421191243827342987e+01 8.825844109058380127e+00 2.956687959376722574e-01
-1.464098958671092987e+01 8.949135124683380127e+00 2.985832246486097574e-01
-1.501147298514842987e+01 9.027504265308380127e+00 3.018333467189222574e-01
-1.537109212577342987e+01 9.091713249683380127e+00 3.053123506251722574e-01
-1.573376302421092987e+01 9.151649773120880127e+00 3.089439424220472574e-01
-1.611315755546092987e+01 9.214393913745880127e+00 3.127433808986097574e-01
-1.650781087577342987e+01 9.279701530933380127e+00 3.167106660548597574e-01
-1.692016439139842987e+01 9.347816765308380127e+00 3.208457978907972574e-01
-1.413915853202342987e+01 8.781288444995880127e+00 3.652946504298597574e-01
-1.452783040702342987e+01 8.879799187183380127e+00 3.696739228907972574e-01
-1.491381673514842987e+01 8.969154655933380127e+00 3.745872529689222574e-01
-1.523974446952342987e+01 9.013954460620880127e+00 3.794700654689222574e-01
-1.563647298514842987e+01 9.095985710620880127e+00 3.847648652736097574e-01
-1.605383138358592987e+01 9.182167351245880127e+00 3.903343232814222574e-01
-1.649035482108592987e+01 9.272377312183380127e+00 3.961631807032972574e-01
-1.695031575858592987e+01 9.367836296558380127e+00 4.027244600001722574e-01
-1.419360189139842987e+01 8.818886101245880127e+00 4.347984346095472574e-01
-1.463647298514842987e+01 8.951332390308380127e+00 4.417869600001722574e-01
-1.501794271171092987e+01 9.036659538745880127e+00 4.484245332423597574e-01
-2.526867513358592987e+01 1.515335875749588013e+01 5.438835176173597574e-01
-2.572436361014842987e+01 1.515714293718338013e+01 5.539390596095472574e-01
-2.492004232108592987e+01 1.440982848405838013e+01 5.522453340236097574e-01
-2.543224935233592987e+01 1.444535094499588013e+01 5.628807100001722574e-01
-2.596459798514842987e+01 1.448343688249588013e+01 5.738975557032972574e-01
-1.947778157889842987e+01 1.223941832780838013e+01 5.769493135157972574e-01
-1.958972005546092987e+01 1.209989196062088013e+01 5.825798066798597574e-01
-2.503466634452342987e+01 1.528556090593338013e+01 6.636955293361097574e-01
-2.550488118827342987e+01 1.530240660905838013e+01 6.750022920314222574e-01
-2.547875814139842987e+01 1.501407653093338013e+01 6.798851045314222574e-01
-2.498473958671092987e+01 1.445243102312088013e+01 6.784660371486097574e-01
-2.538683919608592987e+01 1.442350035905838013e+01 6.895591767970472574e-01
-2.571667318046092987e+01 1.434732848405838013e+01 6.996757539454847574e-01
-1.957458333671092987e+01 1.230545836687088013e+01 6.774742158595472574e-01
-1.957641439139842987e+01 1.209488707780838013e+01 6.805564912501722574e-01
-2.526733236014842987e+01 1.543521910905838013e+01 7.953483613673597574e-01
-2.574694661796092987e+01 1.545523864030838013e+01 8.094627412501722574e-01
-2.622912435233592987e+01 1.546964293718338013e+01 8.237297090236097574e-01
-2.499304036796092987e+01 1.446170836687088013e+01 8.035728486720472574e-01
-2.534167318046092987e+01 1.440189391374588013e+01 8.150932344142347574e-01
-2.521374349296092987e+01 1.406644469499588013e+01 8.175804170314222574e-01
-9.796995446085929871e+00 5.286659538745880127e+00 -3.346412626560777426e-01
-9.848997399210929871e+00 5.224647819995880127e+00 -3.330696073826402426e-01
-9.898191735148429871e+00 5.160805046558380127e+00 -3.314979521092027426e-01
-9.947752282023429871e+00 5.096596062183380127e+00 -3.299262968357652426e-01
-9.689573571085929871e+00 4.872108757495880127e+00 -3.045967069920152426e-01
-9.722654625773429871e+00 4.802162468433380127e+00 -3.019111601170152426e-01
-9.754392907023429871e+00 4.731972038745880127e+00 -2.991645780857652426e-01
-1.014221028983592987e+01 4.836220085620880127e+00 -3.234565702732652426e-01
-1.054284505546092987e+01 5.709022819995880127e+00 -3.460700956638902426e-01
-1.059936361014842987e+01 5.641395866870880127e+00 -3.445289579685777426e-01
-1.065600423514842987e+01 5.573524773120880127e+00 -3.429725614842027426e-01
-1.071740560233592987e+01 5.507484734058380127e+00 -3.414619413670152426e-01
-9.629148766398429871e+00 4.842201530933380127e+00 -2.574623075779527426e-01
-9.659178063273429871e+00 4.771278679370880127e+00 -2.548530546482652426e-01
-9.687864586710929871e+00 4.700233757495880127e+00 -2.519386259373277426e-01
-1.094311361014842987e+01 5.230140984058380127e+00 -3.351142851170152426e-01
-1.144470052421092987e+01 6.219642937183380127e+00 -3.604133573826402426e-01
-1.150683431327342987e+01 6.145302116870880127e+00 -3.586280790623277426e-01
-1.156921224296092987e+01 6.070717155933380127e+00 -3.568275419529527426e-01
-1.163207845389842987e+01 5.995643913745880127e+00 -3.550117460545152426e-01
-9.593015953898429871e+00 4.824867546558380127e+00 -2.128150907810777426e-01
