-1.235904492437839508e+01 1.201129350811243057e+01 -3.875087373889982700e-01
-1.257742871344089508e+01 1.204461870342493057e+01 -3.924678438343107700e-01
-1.184598340094089508e+01 1.111737260967493057e+01 -3.366359346546232700e-01
-1.186710156500339508e+01 1.096222124248743057e+01 -3.295711153186857700e-01
-1.206619824469089508e+01 1.098333940654993057e+01 -3.336452119983732700e-01
-1.311185254156589508e+01 1.181109819561243057e+01 -3.891872041858732700e-01
-1.244205273687839508e+01 1.099298296123743057e+01 -3.402827852405607700e-01
-1.251590527594089508e+01 1.088763628154993057e+01 -3.364070528186857700e-01
-1.249759472906589508e+01 1.215777788311243057e+01 -3.218196504749357700e-01
-1.248367871344089508e+01 1.195099077373743057e+01 -3.124660127796232700e-01
-1.183829297125339508e+01 1.111175737529993057e+01 -2.673762910999357700e-01
-1.186343945562839508e+01 1.096087846904993057e+01 -2.609828584827482700e-01
-1.207059277594089508e+01 1.098980913311243057e+01 -2.647822969593107700e-01
-1.313907422125339508e+01 1.183966264873743057e+01 -3.154872530139982700e-01
-1.244522656500339508e+01 1.099835405498743057e+01 -2.697108858264982700e-01
-1.251395215094089508e+01 1.088824663311243057e+01 -2.656673067249357700e-01
-1.150015820562839508e+01 1.112140092998743057e+01 -1.959193819202482700e-01
-1.250845898687839508e+01 1.197870073467493057e+01 -2.401698702014982700e-01
-1.183011426031589508e+01 1.110589800029993057e+01 -1.982082002796232700e-01
-1.186722363531589508e+01 1.096685991436243057e+01 -1.928065889514982700e-01
-1.207462109625339508e+01 1.099591264873743057e+01 -1.958583467639982700e-01
-1.289163769781589508e+01 1.160492143779993057e+01 -2.281764619983732700e-01
-1.244840039312839508e+01 1.100360307842493057e+01 -1.994899385608732700e-01
-1.209305371344089508e+01 1.050042925029993057e+01 -1.756099336780607700e-01
-1.277945508062839508e+01 1.245611772686243057e+01 -1.855739229358732700e-01
-1.253348340094089508e+01 1.200677690654993057e+01 -1.671565645374357700e-01
-1.182205761969089508e+01 1.109991655498743057e+01 -1.287807100452482700e-01
-1.187112988531589508e+01 1.097284135967493057e+01 -1.242335909046232700e-01
-1.249612988531589508e+01 1.140912065654993057e+01 -1.442683809436857700e-01
-1.319425000250339508e+01 1.189740190654993057e+01 -1.666988008655607700e-01
-1.245157422125339508e+01 1.100885210186243057e+01 -1.288417452014982700e-01
-1.201212109625339508e+01 1.042755327373743057e+01 -1.043361299671232700e-01
-1.286771191656589508e+01 1.255047807842493057e+01 -1.128352754749357700e-01
-1.255850781500339508e+01 1.203473100811243057e+01 -9.421955281868577003e-02
-1.181400097906589508e+01 1.109393510967493057e+01 -5.984150106087327003e-02
-1.187491406500339508e+01 1.097882280498743057e+01 -5.598102742806077003e-02
-1.258975781500339508e+01 1.150262651592493057e+01 -7.581745320931077003e-02
-1.411600293219089508e+01 1.278363237529993057e+01 -1.238216035999357700e-01
-1.245487011969089508e+01 1.101434526592493057e+01 -5.855976277962327003e-02
-1.227579297125339508e+01 1.067437944561243057e+01 -4.633747274056077003e-02
-1.284915722906589508e+01 1.253363237529993057e+01 -3.512226277962327003e-02
-1.258365429937839508e+01 1.206305132061243057e+01 -2.056537801399827003e-02
-1.143216504156589508e+01 1.071136675029993057e+01 2.051128214225172997e-02
-1.187869824469089508e+01 1.098480425029993057e+01 1.231731241568922997e-02
-1.260342969000339508e+01 1.151837358623743057e+01 -3.795968834310770035e-03
-1.422513379156589508e+01 1.289093217998743057e+01 -4.548298055306077003e-02
-1.245828808844089508e+01 1.101983842998743057e+01 1.214946573600172997e-02
-1.250613965094089508e+01 1.089019975811243057e+01 1.626933878287672997e-02
-1.304874219000339508e+01 1.274408159404993057e+01 3.641094034537672997e-02
-1.151981152594089508e+01 1.097479448467493057e+01 7.994426554068922997e-02
-1.140689648687839508e+01 1.068792925029993057e+01 8.757366007193922997e-02
-1.188260449469089508e+01 1.099090776592493057e+01 8.102763956412672997e-02
-1.261722363531589508e+01 1.153412065654993057e+01 6.879009073600172997e-02
-1.309598340094089508e+01 1.181048784404993057e+01 6.300700968131422997e-02
-1.246170605719089508e+01 1.102533159404993057e+01 8.250774210318922997e-02
-1.250430859625339508e+01 1.089081010967493057e+01 8.649028604850172997e-02
-1.314151562750339508e+01 1.284344682842493057e+01 1.129948026500642300e-01
-1.148782910406589508e+01 1.094415483623743057e+01 1.477390653453767300e-01
-1.139786328375339508e+01 1.068097124248743057e+01 1.536594755016267300e-01
-1.188638867437839508e+01 1.099688921123743057e+01 1.494022733531892300e-01
-1.263089551031589508e+01 1.154986772686243057e+01 1.411472684703767300e-01
-1.452261914312839508e+01 1.318170366436243057e+01 1.144749051891267300e-01
-1.245657910406589508e+01 1.102289018779993057e+01 1.530338651500642300e-01
-1.250577344000339508e+01 1.089447221904993057e+01 1.570011503063142300e-01
-6.727575197815895081e+00 6.157899953424930573e+00 2.681919462047517300e-01
-6.875402346253395081e+00 6.215883351862430573e+00 2.685123807750642300e-01
-7.030309572815895081e+00 6.277528859674930573e+00 2.688328153453767300e-01
-7.191808596253395081e+00 6.341859914362430573e+00 2.691837674938142300e-01
-7.359166994690895081e+00 6.408510304987430573e+00 2.695347196422517300e-01
-7.533849611878395081e+00 6.478090383112430573e+00 2.699009305797517300e-01
-7.715246096253395081e+00 6.550356008112430573e+00 2.702824003063142300e-01
-7.904333010315895081e+00 6.625673390924930573e+00 2.706791288219392300e-01
-6.662145510315895081e+00 6.090761281549930573e+00 3.047977811656892300e-01
-6.813878908753395081e+00 6.153993703424930573e+00 3.055607206188142300e-01
-6.965856447815895081e+00 6.213808156549930573e+00 3.065983182750642300e-01
-7.124181643128395081e+00 6.276064015924930573e+00 3.076511747203767300e-01
-7.288366213440895081e+00 6.340639211237430573e+00 3.087650663219392300e-01
-7.459508791565895081e+00 6.408022023737430573e+00 3.099247342906892300e-01
-7.637243166565895081e+00 6.477968312799930573e+00 3.111149198375642300e-01
-7.821935549378395081e+00 6.550356008112430573e+00 3.125797635875642300e-01
-6.634435549378395081e+00 6.063051320612430573e+00 3.403965360485017300e-01
-6.799596682190895081e+00 6.140443898737430573e+00 3.420750028453767300e-01
-6.958410158753395081e+00 6.207460500299930573e+00 3.437992460094392300e-01
-7.127111330628395081e+00 6.280092336237430573e+00 3.456150419078767300e-01
-7.302404299378395081e+00 6.355653859674930573e+00 3.474918729625642300e-01
-7.486120119690895081e+00 6.434877492487430573e+00 3.494602567516267300e-01
-7.677526369690895081e+00 6.517397023737430573e+00 3.515049344860017300e-01
-7.877721682190895081e+00 6.603700734674930573e+00 3.536564237438142300e-01
-6.687291994690895081e+00 6.119325734674930573e+00 3.764683133922517300e-01
-6.846959963440895081e+00 6.190248586237430573e+00 3.788944608531892300e-01
-7.010778322815895081e+00 6.261537648737430573e+00 3.814121610485017300e-01
-7.181798830628395081e+00 6.335756398737430573e+00 3.838383085094392300e-01
-7.360021486878395081e+00 6.413148976862430573e+00 3.865696317516267300e-01
-7.547155275940895081e+00 6.494814015924930573e+00 3.896366483531892300e-01
-7.737218752503395081e+00 6.575014211237430573e+00 3.925815946422517300e-01
-7.923375979065895081e+00 6.647401906549930573e+00 3.955417997203767300e-01
-6.710729494690895081e+00 6.144960500299930573e+00 4.127994901500642300e-01
-6.856725588440895081e+00 6.201479054987430573e+00 4.155918485485017300e-01
-7.007604494690895081e+00 6.259584523737430573e+00 4.186741239391267300e-01
-7.164831057190895081e+00 6.320009328424930573e+00 4.218937284313142300e-01
-7.327428713440895081e+00 6.382631398737430573e+00 4.252201444469392300e-01
-7.497106447815895081e+00 6.447939015924930573e+00 4.286838895641267300e-01
-7.673009768128395081e+00 6.515688039362430573e+00 4.322697049938142300e-01
-7.855626955628395081e+00 6.585756398737430573e+00 4.362369901500642300e-01
-8.078893557190895081e+00 6.766176320612430573e+00 -3.708461397327482700e-01
-8.138830080628395081e+00 6.716615773737430573e+00 -3.696406953968107700e-01
-8.196569338440895081e+00 6.664735890924930573e+00 -3.684047334827482700e-01
-8.254552736878395081e+00 6.612489797174930573e+00 -3.671687715686857700e-01
-8.312536135315895081e+00 6.560365773737430573e+00 -3.659328096546232700e-01
-8.370763674378395081e+00 6.507997609674930573e+00 -3.646815889514982700e-01
-8.428869143128395081e+00 6.455629445612430573e+00 -3.634456270374357700e-01
-8.484655275940895081e+00 6.401186086237430573e+00 -3.621791475452482700e-01
-8.627721682190895081e+00 7.275453664362430573e+00 -3.813899629749357700e-01
-8.698278322815895081e+00 7.227113820612430573e+00 -3.808253877796232700e-01
-8.769201174378395081e+00 7.178651906549930573e+00 -3.802608125843107700e-01
-8.844396486878395081e+00 7.132997609674930573e+00 -3.797877901233732700e-01
-8.915929690003395081e+00 7.084047414362430573e+00 -3.792079561389982700e-01
-8.984289065003395081e+00 7.031435109674930573e+00 -3.785213106311857700e-01
-9.056432619690895081e+00 6.982118703424930573e+00 -3.779414766468107700e-01
-9.128820315003395081e+00 6.932558156549930573e+00 -3.773616426624357700e-01
-1.250516308844089508e+01 1.086554155498743057e+01 -6.875880830921232700e-01
-9.868200197815895081e+00 8.293520070612430573e+00 -4.397090547718107700e-01
-9.857946291565895081e+00 8.154726125299930573e+00 -4.307216280139982700e-01
-9.847936525940895081e+00 8.017885304987430573e+00 -4.218562715686857700e-01
-9.838048830628395081e+00 7.883730031549930573e+00 -4.131740205921232700e-01
-9.220983400940895081e+00 7.234438039362430573e+00 -3.522151582874357700e-01
-9.818883791565895081e+00 7.621767140924930573e+00 -3.962062471546232700e-01
-9.894689455628395081e+00 7.564272023737430573e+00 -3.951533907093107700e-01
-1.250931347906589508e+01 1.087176714092493057e+01 -6.177180879749357700e-01
-1.368008984625339508e+01 1.176568803936243057e+01 -7.051356905139982700e-01
-1.395023144781589508e+01 1.182037553936243057e+01 -7.164119356311857700e-01
-1.418716992437839508e+01 1.184002885967493057e+01 -7.246211641468107700e-01
-1.440091504156589508e+01 1.183587846904993057e+01 -7.307246797718107700e-01
-9.220861330628395081e+00 7.236024953424930573e+00 -3.040431612171232700e-01
-1.058829297125339508e+01 8.267519094049930573e+00 -4.058498018421232700e-01
-1.068033398687839508e+01 8.212587453424930573e+00 -4.056361787952482700e-01
-1.251358594000339508e+01 1.087811479717493057e+01 -5.474208467639982700e-01
-1.392008008062839508e+01 1.198675737529993057e+01 -6.467403047718107700e-01
-1.419901074469089508e+01 1.204583940654993057e+01 -6.573909395374357700e-01
-1.443558301031589508e+01 1.206134233623743057e+01 -6.644710176624357700e-01
-1.465091504156589508e+01 1.205499467998743057e+01 -6.697810762561857700e-01
-9.220861330628395081e+00 7.237489797174930573e+00 -2.561305635608732700e-01
-1.506021679937839508e+01 1.201361284404993057e+01 -6.782039278186857700e-01
-1.536893261969089508e+01 1.207428178936243057e+01 -6.897395723499357700e-01
-1.251785840094089508e+01 1.088434038311243057e+01 -4.774440401233732700e-01
-1.417093457281589508e+01 1.221783647686243057e+01 -5.857204073108732700e-01
-1.445926465094089508e+01 1.228143510967493057e+01 -5.956691377796232700e-01
-1.468509472906589508e+01 1.228375444561243057e+01 -6.009486787952482700e-01
-1.495572461187839508e+01 1.232171831279993057e+01 -6.091426485218107700e-01
-9.220739260315895081e+00 7.239076711237430573e+00 -2.079738252796232700e-01
-1.553848828375339508e+01 1.241693315654993057e+01 -6.274989717639982700e-01
-1.581033886969089508e+01 1.244061479717493057e+01 -6.354182832874357700e-01
-1.251834668219089508e+01 1.088702592998743057e+01 -4.068111055530607700e-01
-1.439102734625339508e+01 1.242096147686243057e+01 -5.200008028186857700e-01
-1.465653027594089508e+01 1.246087846904993057e+01 -5.271419160999357700e-01
-1.491214551031589508e+01 1.248651323467493057e+01 -5.333827608264982700e-01
-1.266922558844089508e+01 1.034356889873743057e+01 -3.824733369983732700e-01
-9.220617190003395081e+00 7.240663625299930573e+00 -1.600764864124357700e-01
-1.569498242437839508e+01 1.255084428936243057e+01 -5.517543428577482700e-01
-1.597501172125339508e+01 1.257904253154993057e+01 -5.585902803577482700e-01
-1.251639355719089508e+01 1.088763628154993057e+01 -3.364070528186857700e-01
-1.448404492437839508e+01 1.250836382061243057e+01 -4.440883272327482700e-01
-1.221854199469089508e+01 1.027887163311243057e+01 -3.026240938343107700e-01
-1.505704297125339508e+01 1.261700639873743057e+01 -4.578670137561857700e-01
-1.287418164312839508e+01 1.052350053936243057e+01 -3.245662325061857700e-01
-9.220617190003395081e+00 7.242128469049930573e+00 -1.119350069202482700e-01
-1.585721386969089508e+01 1.268963823467493057e+01 -4.744533174671232700e-01
-1.614237011969089508e+01 1.271991167217493057e+01 -4.804195039905607700e-01
-1.251444043219089508e+01 1.088812456279993057e+01 -2.656673067249357700e-01
-1.301981152594089508e+01 1.117657671123743057e+01 -2.846644991077482700e-01
-1.222916211187839508e+01 1.029059038311243057e+01 -2.357753389514982700e-01
-1.282205761969089508e+01 1.064984331279993057e+01 -2.589686983264982700e-01
-1.289200390875339508e+01 1.054120073467493057e+01 -2.550624483264982700e-01
-9.220495119690895081e+00 7.243715383112430573e+00 -6.403766805306077003e-02
-1.602396191656589508e+01 1.283233842998743057e+01 -3.949855440296232700e-01
-1.637589062750339508e+01 1.291534624248743057e+01 -4.030269258655607700e-01
-1.209341992437839508e+01 1.050006303936243057e+01 -1.756099336780607700e-01
-1.218472851812839508e+01 1.041766557842493057e+01 -1.730311983264982700e-01
-1.223978222906589508e+01 1.030243120342493057e+01 -1.688045137561857700e-01
-1.265970410406589508e+01 1.050909624248743057e+01 -1.810573213733732700e-01
-1.241739453375339508e+01 1.013214311748743057e+01 -1.634029024280607700e-01
-9.220373049378395081e+00 7.245180226862430573e+00 -1.615558797493577003e-02
-1.625150097906589508e+01 1.302606401592493057e+01 -3.166316621936857700e-01
-1.667703808844089508e+01 1.316656694561243057e+01 -3.262294405139982700e-01
-1.201248730719089508e+01 1.042730913311243057e+01 -1.043361299671232700e-01
-1.276529492437839508e+01 1.094928178936243057e+01 -1.283229463733732700e-01
-1.226334179937839508e+01 1.032574663311243057e+01 -1.018489473499357700e-01
-1.258353222906589508e+01 1.044415483623743057e+01 -1.081050508655607700e-01
-1.578604687750339508e+01 1.305572710186243057e+01 -2.250331514514982700e-01
-9.220373049378395081e+00 7.246767140924930573e+00 3.197063272818922997e-02
-1.655435742437839508e+01 1.328302202373743057e+01 -2.378963106311857700e-01
-1.696756543219089508e+01 1.340912065654993057e+01 -2.449611299671232700e-01
-1.227701367437839508e+01 1.067474565654993057e+01 -4.635273152962327003e-02
-1.279288281500339508e+01 1.097674760967493057e+01 -5.797992879524827003e-02
-1.221524609625339508e+01 1.028497514873743057e+01 -3.258930379524827003e-02
-1.230057324469089508e+01 1.019684038311243057e+01 -2.967487508431077003e-02
-1.261600293219089508e+01 1.030890092998743057e+01 -3.423725301399827003e-02
-9.220250979065895081e+00 7.248354054987430573e+00 7.985271280631422997e-02
-1.676077832281589508e+01 1.345904741436243057e+01 -1.529964082874357700e-01
-1.709451855719089508e+01 1.351690874248743057e+01 -1.556972139514982700e-01
-1.250662793219089508e+01 1.089007768779993057e+01 1.626933878287672997e-02
-1.208304394781589508e+01 1.033160600811243057e+01 3.352702921256422997e-02
-1.216776074469089508e+01 1.024444780498743057e+01 3.607524698600172997e-02
-1.225259961187839508e+01 1.015680132061243057e+01 3.900493448600172997e-02
-1.259647168219089508e+01 1.029425249248743057e+01 3.508342569693922997e-02
-9.220250979065895081e+00 7.249818898737430573e+00 1.277195340953767300e-01
-1.688590039312839508e+01 1.356720171123743057e+01 -6.306110555306077003e-02
-1.722415722906589508e+01 1.362713823467493057e+01 -6.449543172493577003e-02
-1.250504101812839508e+01 1.089093217998743057e+01 8.649028604850172997e-02
-1.284097851812839508e+01 1.102533159404993057e+01 8.423198526725172997e-02
-1.244644726812839508e+01 1.049676714092493057e+01 9.761394327506422997e-02
-1.251248730719089508e+01 1.038836870342493057e+01 1.010776883922517300e-01
-1.257449902594089508e+01 1.027740678936243057e+01 1.045872098766267300e-01
-9.220128908753395081e+00 7.251405812799930573e+00 1.758304960094392300e-01
-1.701236523687839508e+01 1.367645464092493057e+01 2.782024210318922997e-02
-1.736612500250339508e+01 1.374737749248743057e+01 2.749980753287672997e-02
-1.250650586187839508e+01 1.089459428936243057e+01 1.570011503063142300e-01
-1.286502636969089508e+01 1.104974565654993057e+01 1.555820829235017300e-01
-1.582767285406589508e+01 1.353399858623743057e+01 1.158329374156892300e-01
-1.245865429937839508e+01 1.034320268779993057e+01 1.705204374156892300e-01
-1.547940625250339508e+01 1.280121050029993057e+01 1.319462186656892300e-01
-9.099401369690895081e+00 7.149965383112430573e+00 2.253605253063142300e-01
-9.354528322815895081e+00 7.252626515924930573e+00 2.248112089000642300e-01
-9.583288088440895081e+00 7.328065969049930573e+00 2.250248319469392300e-01
-7.905553713440895081e+00 6.626283742487430573e+00 2.706791288219392300e-01
-8.102697268128395081e+00 6.704774953424930573e+00 2.712131864391267300e-01
-8.308874025940895081e+00 6.786684133112430573e+00 2.717625028453767300e-01
-8.525182619690895081e+00 6.872743703424930573e+00 2.723423368297517300e-01
-8.751134768128395081e+00 6.962587453424930573e+00 2.729526883922517300e-01
-8.988805666565895081e+00 7.057069875299930573e+00 2.735935575328767300e-01
-9.237462893128395081e+00 7.155946828424930573e+00 2.742649442516267300e-01
-9.478063479065895081e+00 7.242738820612430573e+00 2.751041776500642300e-01
-7.823034182190895081e+00 6.551088429987430573e+00 3.125797635875642300e-01
-8.018834963440895081e+00 6.629579640924930573e+00 3.137852079235017300e-01
-8.235265627503395081e+00 6.722108937799930573e+00 3.152500516735017300e-01
-8.463415041565895081e+00 6.819643117487430573e+00 3.167911893688142300e-01
-8.702550783753395081e+00 6.921938039362430573e+00 3.183933622203767300e-01
-8.955114260315895081e+00 7.029848195612430573e+00 3.201023465953767300e-01
-9.220617190003395081e+00 7.143373586237430573e+00 3.218876249156892300e-01
-9.479650393128395081e+00 7.245790578424930573e+00 3.240696317516267300e-01
-7.879064455628395081e+00 6.604433156549930573e+00 3.536564237438142300e-01
-8.089147463440895081e+00 6.695131398737430573e+00 3.560673124156892300e-01
-8.309606447815895081e+00 6.790224172174930573e+00 3.585850126110017300e-01
-8.542150393128395081e+00 6.890565969049930573e+00 3.612400419078767300e-01
-8.785924807190895081e+00 6.995790578424930573e+00 3.640324003063142300e-01
-9.043737307190895081e+00 7.107118703424930573e+00 3.669773465953767300e-01
-9.314367190003395081e+00 7.223817922174930573e+00 3.700748807750642300e-01
-9.553258791565895081e+00 7.308168508112430573e+00 3.731266385875642300e-01
-7.924474611878395081e+00 6.648012258112430573e+00 3.955570585094392300e-01
-8.118444338440895081e+00 6.723329640924930573e+00 3.988224393688142300e-01
-8.320958986878395081e+00 6.801942922174930573e+00 4.022251493297517300e-01
-8.533727541565895081e+00 6.884706594049930573e+00 4.055515653453767300e-01
-8.755041018128395081e+00 6.970522023737430573e+00 4.092747098766267300e-01
-8.987218752503395081e+00 7.060487844049930573e+00 4.134251005016267300e-01
-9.230382815003395081e+00 7.154726125299930573e+00 4.175144559703767300e-01
-9.466955080628395081e+00 7.238588429987430573e+00 4.216038114391267300e-01
-7.856725588440895081e+00 6.586488820612430573e+00 4.362522489391267300e-01
-8.047521486878395081e+00 6.659975148737430573e+00 4.401279813610017300e-01
-8.246374025940895081e+00 6.736269094049930573e+00 4.444004422985017300e-01
-8.454748049378395081e+00 6.816347219049930573e+00 4.488712674938142300e-01
-8.671789065003395081e+00 6.899721242487430573e+00 4.535251981578767300e-01
-8.924474611878395081e+00 7.008363820612430573e+00 4.588199979625642300e-01
-9.200231447815895081e+00 7.131044484674930573e+00 4.645573026500642300e-01
-9.471227541565895081e+00 7.243593312799930573e+00 4.705540067516267300e-01
-8.484777346253395081e+00 6.400941945612430573e+00 -3.621638887561857700e-01
-8.528478518128395081e+00 6.336488820612430573e+00 -3.594783418811857700e-01
-8.576452150940895081e+00 6.275575734674930573e+00 -3.574336641468107700e-01
-8.629064455628395081e+00 6.217836476862430573e+00 -3.558009737171232700e-01
-8.685949221253395081e+00 6.163759328424930573e+00 -3.545955293811857700e-01
-8.743200197815895081e+00 6.109315969049930573e+00 -3.533595674671232700e-01
-8.800451174378395081e+00 6.054872609674930573e+00 -3.521388643421232700e-01
-8.853917971253395081e+00 5.997499562799930573e+00 -3.507960909046232700e-01
-9.129064455628395081e+00 6.932314015924930573e+00 -3.773616426624357700e-01
-9.186803713440895081e+00 6.870302297174930573e+00 -3.756221407093107700e-01
-9.242223635315895081e+00 6.806337453424930573e+00 -3.736690157093107700e-01
-9.301916018128395081e+00 6.745180226862430573e+00 -3.718074434436857700e-01
-9.357458010315895081e+00 6.681093312799930573e+00 -3.698543184436857700e-01
-9.409337893128395081e+00 6.613710500299930573e+00 -3.677943819202482700e-01
-9.465001955628395081e+00 6.549501515924930573e+00 -3.658412569202482700e-01
-9.520788088440895081e+00 6.485292531549930573e+00 -3.638728731311857700e-01
-9.895177736878395081e+00 7.564272023737430573e+00 -3.951533907093107700e-01
-9.985875979065895081e+00 7.518373586237430573e+00 -3.955043428577482700e-01
-1.007742871344089508e+01 7.472108937799930573e+00 -3.958552950061857700e-01
-1.016995801031589508e+01 7.425356008112430573e+00 -3.962062471546232700e-01
-1.025003613531589508e+01 7.368593312799930573e+00 -3.955196016468107700e-01
-1.031094922125339508e+01 7.296327687799930573e+00 -3.932307832874357700e-01
-1.037161816656589508e+01 7.224184133112430573e+00 -3.909419649280607700e-01
-1.043240918219089508e+01 7.152040578424930573e+00 -3.886531465686857700e-01
-1.068070019781589508e+01 8.212465383112430573e+00 -4.056361787952482700e-01
-1.077640332281589508e+01 8.159731008112430573e+00 -4.052394502796232700e-01
-1.086856640875339508e+01 8.103212453424930573e+00 -4.047969453968107700e-01
-1.096158398687839508e+01 8.046205617487430573e+00 -4.043696993030607700e-01
-1.105924023687839508e+01 7.992372609674930573e+00 -4.042628877796232700e-01
-1.115848340094089508e+01 7.938417531549930573e+00 -4.042018526233732700e-01
-1.125809277594089508e+01 7.884218312799930573e+00 -4.041255586780607700e-01
-1.135281933844089508e+01 7.825380422174930573e+00 -4.039577119983732700e-01
-1.537027539312839508e+01 1.207477007061243057e+01 -6.898006075061857700e-01
-1.569461621344089508e+01 1.214227495342493057e+01 -7.023433321155607700e-01
-1.605814160406589508e+01 1.223456010967493057e+01 -7.173274629749357700e-01
-1.643668164312839508e+01 1.233062944561243057e+01 -7.329372041858732700e-01
-1.679800976812839508e+01 1.240667925029993057e+01 -7.469600313343107700e-01
-1.711014355719089508e+01 1.243792925029993057e+01 -7.571681612171232700e-01
-1.309097851812839508e+01 9.247377492487430573e+00 -4.719661348499357700e-01
-1.186868847906589508e+01 8.204042531549930573e+00 -3.812068575061857700e-01
-1.581155957281589508e+01 1.244085893779993057e+01 -6.354640596546232700e-01
-1.609390820562839508e+01 1.246832475811243057e+01 -6.430934541858732700e-01
-1.638272656500339508e+01 1.249579057842493057e+01 -6.513332002796232700e-01
-1.674600781500339508e+01 1.257562456279993057e+01 -6.640590303577482700e-01
-1.707449902594089508e+01 1.262237749248743057e+01 -6.742519014514982700e-01
-1.739615429937839508e+01 1.265716753154993057e+01 -6.836513155139982700e-01
-1.772818554937839508e+01 1.269488725811243057e+01 -6.934474580921232700e-01
-1.186868847906589508e+01 8.205995656549930573e+00 -3.210414522327482700e-01
-1.597623242437839508e+01 1.257940874248743057e+01 -5.586207979358732700e-01
-1.626297558844089508e+01 1.260821733623743057e+01 -5.657619112171232700e-01
-1.662540234625339508e+01 1.269195757061243057e+01 -5.771449678577482700e-01
-1.703824414312839508e+01 1.280731401592493057e+01 -5.910762422718107700e-01
-1.735953320562839508e+01 1.284478960186243057e+01 -5.993312471546232700e-01
-1.749381054937839508e+01 1.273431596904993057e+01 -5.965541475452482700e-01
-1.804129590094089508e+01 1.293072710186243057e+01 -6.171840303577482700e-01
-1.186868847906589508e+01 8.208070851862430573e+00 -2.605708711780607700e-01
-1.614359082281589508e+01 1.272027788311243057e+01 -4.804500215686857700e-01
-1.650076855719089508e+01 1.280377397686243057e+01 -4.901698702014982700e-01
-1.692142285406589508e+01 1.293072710186243057e+01 -5.024684541858732700e-01
-1.732535351812839508e+01 1.303521928936243057e+01 -5.139278047718107700e-01
-1.765750683844089508e+01 1.307721147686243057e+01 -5.212977998889982700e-01
-1.749063672125339508e+01 1.273504839092493057e+01 -5.026363008655607700e-01
-1.867618359625339508e+01 1.340594682842493057e+01 -5.537532442249357700e-01
-1.186868847906589508e+01 8.210146047174930573e+00 -2.004207246936857700e-01
-1.637784375250339508e+01 1.291620073467493057e+01 -4.030879610218107700e-01
-1.679984082281589508e+01 1.304913530498743057e+01 -4.142573946155607700e-01
-1.722733105719089508e+01 1.317755327373743057e+01 -4.252894991077482700e-01
-1.762137402594089508e+01 1.327020464092493057e+01 -4.343532198108732700e-01
-1.809573926031589508e+01 1.341766557842493057e+01 -4.468196504749357700e-01
-1.748746289312839508e+01 1.273590288311243057e+01 -4.092525118030607700e-01
-1.883218945562839508e+01 1.352533159404993057e+01 -4.608729952014982700e-01
-1.186868847906589508e+01 8.212221242487430573e+00 -1.399501436389982700e-01
-1.667874707281589508e+01 1.316717729717493057e+01 -3.262599580921232700e-01
-1.710306347906589508e+01 1.329791460186243057e+01 -3.354610078968107700e-01
-1.752249707281589508e+01 1.341571245342493057e+01 -3.440822237171232700e-01
-1.789456738531589508e+01 1.348736772686243057e+01 -3.503841035999357700e-01
-1.827054394781589508e+01 1.355560503154993057e+01 -3.565944307483732700e-01
-1.748428906500339508e+01 1.273663530498743057e+01 -3.159144991077482700e-01
-1.899027051031589508e+01 1.364630327373743057e+01 -3.668178194202482700e-01
-1.186856640875339508e+01 8.214174367487430573e+00 -7.981525594368577003e-02
-1.696890820562839508e+01 1.340948686748743057e+01 -2.449916475452482700e-01
-1.730801953375339508e+01 1.346722612529993057e+01 -2.490199678577482700e-01
-1.768192090094089508e+01 1.354608354717493057e+01 -2.540553682483732700e-01
-1.806717480719089508e+01 1.362591753154993057e+01 -2.591823213733732700e-01
-1.844986523687839508e+01 1.369708452373743057e+01 -2.639735811389982700e-01
-1.748111523687839508e+01 1.273736772686243057e+01 -2.221339815296232700e-01
-1.915201367437839508e+01 1.377008257061243057e+01 -2.705501192249357700e-01
-1.186856640875339508e+01 8.216249562799930573e+00 -1.934467488899827003e-02
-1.709586133062839508e+01 1.351739702373743057e+01 -1.557124727405607700e-01
-1.679044140875339508e+01 1.305072221904993057e+01 -1.386989229358732700e-01
-1.785574902594089508e+01 1.368792925029993057e+01 -1.630977266468107700e-01
-1.703531445562839508e+01 1.282061967998743057e+01 -1.310084932483732700e-01
-1.717911328375339508e+01 1.272162065654993057e+01 -1.277736299671232700e-01
-1.747867383062839508e+01 1.273871050029993057e+01 -1.289027803577482700e-01
-1.934586133062839508e+01 1.391790971904993057e+01 -1.738856905139982700e-01
-1.186856640875339508e+01 8.218324758112430573e+00 4.077495401725172997e-02
-1.722562207281589508e+01 1.362762651592493057e+01 -6.451069051399827003e-02
-1.761197461187839508e+01 1.372003374248743057e+01 -6.679950887337327003e-02
-1.688834179937839508e+01 1.291986284404993057e+01 -4.264484578743577003e-02
-1.700736035406589508e+01 1.280194292217493057e+01 -3.858600789681077003e-02
-1.712625683844089508e+01 1.268402300029993057e+01 -3.454242879524827003e-02
-1.725552929937839508e+01 1.257281694561243057e+01 -3.068195516243577003e-02
-1.739957226812839508e+01 1.247284135967493057e+01 -2.668415242806077003e-02
-1.186856640875339508e+01 8.220399953424930573e+00 1.012302762828767300e-01
-1.736807812750339508e+01 1.374823198467493057e+01 2.748454874381422997e-02
-1.674954785406589508e+01 1.302374467998743057e+01 4.559673136100172997e-02
-1.686783398687839508e+01 1.290655717998743057e+01 4.971660440787672997e-02
-1.860526074469089508e+01 1.405768022686243057e+01 2.507366007193922997e-02
-1.894888867437839508e+01 1.409173784404993057e+01 2.594341104850172997e-02
-1.747806347906589508e+01 1.274456987529993057e+01 5.786479776725172997e-02
-1.976871289312839508e+01 1.423968706279993057e+01 2.603496378287672997e-02
-1.186856640875339508e+01 8.222475148737430573e+00 1.613499051891267300e-01
-9.584752932190895081e+00 7.328798390924930573e+00 2.250248319469392300e-01
-9.829503908753395081e+00 7.412294484674930573e+00 2.247349149547517300e-01
-1.008487500250339508e+01 7.499086476862430573e+00 2.247349149547517300e-01
-1.035330761969089508e+01 7.590273000299930573e+00 2.247196561656892300e-01
-1.063382519781589508e+01 7.685731984674930573e+00 2.247043973766267300e-01
-1.092935742437839508e+01 7.786195851862430573e+00 2.246891385875642300e-01
-1.123892773687839508e+01 7.891420461237430573e+00 2.246891385875642300e-01
-1.156387890875339508e+01 8.001527883112430573e+00 2.249943143688142300e-01
-9.479528322815895081e+00 7.243593312799930573e+00 2.751041776500642300e-01
-9.718053713440895081e+00 7.323549367487430573e+00 2.762180692516267300e-01
-9.967565432190895081e+00 7.407167531549930573e+00 2.773777372203767300e-01
-1.022952832281589508e+01 7.495058156549930573e+00 2.786136991344392300e-01
-1.050320996344089508e+01 7.586855031549930573e+00 2.798801786266267300e-01
-1.079239453375339508e+01 7.684267140924930573e+00 2.812229520641267300e-01
-1.111685742437839508e+01 7.802431203424930573e+00 2.825199491344392300e-01
-1.145975293219089508e+01 7.927309133112430573e+00 2.838779813610017300e-01
-9.481237307190895081e+00 7.246645070612430573e+00 3.240696317516267300e-01
-9.736852541565895081e+00 7.340517140924930573e+00 3.259922391735017300e-01
-1.000589551031589508e+01 7.439516164362430573e+00 3.282963163219392300e-01
-1.028958691656589508e+01 7.543886281549930573e+00 3.307224637828767300e-01
-1.058731640875339508e+01 7.653505422174930573e+00 3.332554227672517300e-01
-1.090237988531589508e+01 7.769472219049930573e+00 3.359409696422517300e-01
-1.123380078375339508e+01 7.891420461237430573e+00 3.387791044078767300e-01
-1.158487500250339508e+01 8.020937062799930573e+00 3.420750028453767300e-01
-9.554601565003395081e+00 7.308900929987430573e+00 3.731418973766267300e-01
-9.792760744690895081e+00 7.387514211237430573e+00 3.764530546031892300e-01
-1.004141797125339508e+01 7.469667531549930573e+00 3.799015409313142300e-01
-1.030264844000339508e+01 7.555971242487430573e+00 3.835331327281892300e-01
-1.057510937750339508e+01 7.645937062799930573e+00 3.873325712047517300e-01
-1.086173047125339508e+01 7.740541554987430573e+00 3.913151151500642300e-01
-1.116165722906589508e+01 7.839540578424930573e+00 3.954807645641267300e-01
-1.147659863531589508e+01 7.943666554987430573e+00 3.998600370250642300e-01
-9.468419924378395081e+00 7.239320851862430573e+00 4.216190702281892300e-01
-9.702062502503395081e+00 7.315614797174930573e+00 4.259525663219392300e-01
-9.946081057190895081e+00 7.395204640924930573e+00 4.304691678844392300e-01
-1.020267285406589508e+01 7.479189015924930573e+00 4.349399930797517300e-01
-1.049320019781589508e+01 7.584535695612430573e+00 4.401584989391267300e-01
-1.081570996344089508e+01 7.707460500299930573e+00 4.461399442516267300e-01
-1.115494336187839508e+01 7.836610890924930573e+00 4.521519071422517300e-01
-1.151444043219089508e+01 7.973329640924930573e+00 4.585148221813142300e-01
-9.472814455628395081e+00 7.244569875299930573e+00 4.705845243297517300e-01
-9.737951174378395081e+00 7.346376515924930573e+00 4.762455350719392300e-01
-1.001761426031589508e+01 7.454042531549930573e+00 4.824863797985017300e-01
-1.031339062750339508e+01 7.567934133112430573e+00 4.890781766735017300e-01
-1.062466992437839508e+01 7.687807179987430573e+00 4.960361844860017300e-01
-1.095474804937839508e+01 7.814882375299930573e+00 5.034061796031892300e-01
-1.726114453375339508e+01 1.239166460186243057e+01 6.167637235485017300e-01
-1.742264355719089508e+01 1.230511675029993057e+01 6.227451688610017300e-01
-8.854284182190895081e+00 5.997377492487430573e+00 -3.508113496936857700e-01
-8.912267580628395081e+00 5.943178273737430573e+00 -3.495906465686857700e-01
-8.966710940003395081e+00 5.885927297174930573e+00 -3.482631319202482700e-01
-9.021398440003395081e+00 5.828310109674930573e+00 -3.469203584827482700e-01
-9.075963869690895081e+00 5.770814992487430573e+00 -3.455775850452482700e-01
-9.131017580628395081e+00 5.712831594049930573e+00 -3.442348116077482700e-01
-9.185949221253395081e+00 5.654970265924930573e+00 -3.428920381702482700e-01
-9.236974611878395081e+00 5.594423390924930573e+00 -3.414271944202482700e-01
-9.521032229065895081e+00 6.485170461237430573e+00 -3.638728731311857700e-01
-9.573644533753395081e+00 6.418520070612430573e+00 -3.618434541858732700e-01
-9.631505861878395081e+00 6.355531789362430573e+00 -3.602412813343107700e-01
-9.696081057190895081e+00 6.296449758112430573e+00 -3.588832491077482700e-01
-9.756750002503395081e+00 6.234804250299930573e+00 -3.574794405139982700e-01
-9.814000979065895081e+00 6.170229054987430573e+00 -3.559993379749357700e-01
-9.875036135315895081e+00 6.108217336237430573e+00 -3.545802705921232700e-01
-9.936193361878395081e+00 6.045961476862430573e+00 -3.531612032093107700e-01
-1.043265332281589508e+01 7.151796437799930573e+00 -3.886378877796232700e-01
-1.048904980719089508e+01 7.076356984674930573e+00 -3.861964815296232700e-01
-1.054544629156589508e+01 7.000917531549930573e+00 -3.837398164905607700e-01
-1.060220898687839508e+01 6.925111867487430573e+00 -3.812831514514982700e-01
-1.065189160406589508e+01 6.844911672174930573e+00 -3.783229463733732700e-01
-1.069986523687839508e+01 6.763246633112430573e+00 -3.752101534046232700e-01
-1.074771679937839508e+01 6.682069875299930573e+00 -3.720973604358732700e-01
-1.079544629156589508e+01 6.600893117487430573e+00 -3.690150850452482700e-01
-1.135342969000339508e+01 7.825380422174930573e+00 -4.039729707874357700e-01
-1.145682324469089508e+01 7.772157765924930573e+00 -4.039577119983732700e-01
-1.155545605719089508e+01 7.714174367487430573e+00 -4.038203828968107700e-01
-1.165506543219089508e+01 7.655702687799930573e+00 -4.036983125843107700e-01
-1.175516308844089508e+01 7.596864797174930573e+00 -4.035609834827482700e-01
-1.185648144781589508e+01 7.537416554987430573e+00 -4.034236543811857700e-01
-1.195816601812839508e+01 7.477724172174930573e+00 -4.033015840686857700e-01
-1.205447949469089508e+01 7.413515187799930573e+00 -4.030574434436857700e-01
-1.186881054937839508e+01 8.203554250299930573e+00 -3.811915987171232700e-01
-1.292032422125339508e+01 8.823793508112430573e+00 -4.441646211780607700e-01
-1.283731640875339508e+01 8.619569875299930573e+00 -4.308284395374357700e-01
-1.286929883062839508e+01 8.498354054987430573e+00 -4.251826875843107700e-01
-1.309879101812839508e+01 8.512636281549930573e+00 -4.324000948108732700e-01
-1.323135937750339508e+01 8.457826711237430573e+00 -4.331782930530607700e-01
-1.336624707281589508e+01 8.403505422174930573e+00 -4.340327852405607700e-01
-1.348612011969089508e+01 8.337953664362430573e+00 -4.338649385608732700e-01
-1.186881054937839508e+01 8.205629445612430573e+00 -3.210261934436857700e-01
-1.857217969000339508e+01 1.288067827373743057e+01 -7.232783907093107700e-01
-1.897134961187839508e+01 1.294586382061243057e+01 -7.363093965686857700e-01
-1.286856640875339508e+01 8.499940969049930573e+00 -3.600886934436857700e-01
-1.333096875250339508e+01 8.672914601862430573e+00 -3.801845186389982700e-01
-1.457755078375339508e+01 9.359682179987430573e+00 -4.456752412952482700e-01
-1.471085156500339508e+01 9.288148976862430573e+00 -4.452479952014982700e-01
-1.485672558844089508e+01 9.223573781549930573e+00 -4.458736055530607700e-01
-1.186868847906589508e+01 8.207582570612430573e+00 -2.605556123889982700e-01
-1.902200879156589508e+01 1.320697221904993057e+01 -6.505702608264982700e-01
-1.941654004156589508e+01 1.326312456279993057e+01 -6.614040010608732700e-01
-1.286820019781589508e+01 8.502016164362430573e+00 -2.953609102405607700e-01
-1.332950390875339508e+01 8.674257375299930573e+00 -3.132136934436857700e-01
-1.946060742437839508e+01 1.262579546123743057e+01 -6.312831514514982700e-01
-2.088236035406589508e+01 1.334185991436243057e+01 -6.952785127796232700e-01
-2.124661816656589508e+01 1.334503374248743057e+01 -7.029079073108732700e-01
-1.186868847906589508e+01 8.209657765924930573e+00 -2.004054659046232700e-01
-1.935733594000339508e+01 1.345099077373743057e+01 -5.671046846546232700e-01
-1.972452344000339508e+01 1.348382768779993057e+01 -5.742000215686857700e-01
-1.286905469000339508e+01 8.504823781549930573e+00 -2.303737276233732700e-01
-1.332816113531589508e+01 8.675600148737430573e+00 -2.459071748889982700e-01
-1.945779980719089508e+01 1.262750444561243057e+01 -5.303004854358732700e-01
-2.114896191656589508e+01 1.352069292217493057e+01 -6.002620332874357700e-01
-2.151956738531589508e+01 1.352484331279993057e+01 -6.066402071155607700e-01
-1.186868847906589508e+01 8.211732961237430573e+00 -1.399348848499357700e-01
-1.953543652594089508e+01 1.358246050029993057e+01 -4.723628633655607700e-01
-1.991861523687839508e+01 1.362433061748743057e+01 -4.791377657093107700e-01
-1.287003125250339508e+01 8.507753469049930573e+00 -1.657222383655607700e-01
-1.332669629156589508e+01 8.676942922174930573e+00 -1.789821260608732700e-01
-1.945511426031589508e+01 1.262921342998743057e+01 -4.298976534046232700e-01
-2.136063183844089508e+01 1.366351518779993057e+01 -4.994472139514982700e-01
-2.176663769781589508e+01 1.368817339092493057e+01 -5.057643526233732700e-01
-1.186868847906589508e+01 8.213808156549930573e+00 -7.978473836556077003e-02
-1.974100293219089508e+01 1.373358354717493057e+01 -3.772243135608732700e-01
-1.897830761969089508e+01 1.296441850811243057e+01 -3.388332002796232700e-01
-1.287100781500339508e+01 8.510683156549930573e+00 -1.010707491077482700e-01
-1.332535351812839508e+01 8.678407765924930573e+00 -1.120723360218107700e-01
-1.945230664312839508e+01 1.263080034404993057e+01 -3.295253389514982700e-01
-2.162930859625339508e+01 1.384393510967493057e+01 -3.989680879749357700e-01
-2.200089062750339508e+01 1.384308061748743057e+01 -4.023402803577482700e-01
-1.186868847906589508e+01 8.215883351862430573e+00 -1.932941609993577003e-02
-1.887296094000339508e+01 1.311358842998743057e+01 -2.439845674671232700e-01
-1.798367871344089508e+01 1.226581010967493057e+01 -2.068141573108732700e-01
-1.287186230719089508e+01 8.513490773737430573e+00 -3.606830770149827003e-02
-1.332401074469089508e+01 8.679750539362430573e+00 -4.484211141243577003e-02
-1.944962109625339508e+01 1.263250932842493057e+01 -2.286647432483732700e-01
-2.186295117437839508e+01 1.400128374248743057e+01 -2.938808077014982700e-01
-2.224149121344089508e+01 1.400238237529993057e+01 -2.959407442249357700e-01
-1.186856640875339508e+01 8.217836476862430573e+00 4.079021280631422997e-02
-1.885025586187839508e+01 1.310077104717493057e+01 -1.440700166858732700e-01
-1.791104687750339508e+01 1.221771440654993057e+01 -1.111415498889982700e-01
-1.287283886969089508e+01 8.516420461237430573e+00 2.859844034537672997e-02
-1.332254590094089508e+01 8.681093312799930573e+00 2.202190225943922997e-02
-1.944974316656589508e+01 1.263604936748743057e+01 -1.284450166858732700e-01
-2.210074414312839508e+01 1.416156206279993057e+01 -1.869319551624357700e-01
-2.248538769781589508e+01 1.416375932842493057e+01 -1.876033418811857700e-01
-1.186856640875339508e+01 8.219911672174930573e+00 1.012455350719392300e-01
-2.036307324469089508e+01 1.419146928936243057e+01 -7.690082723274827003e-02
-2.073355664312839508e+01 1.421429643779993057e+01 -7.740436727181077003e-02
-1.287381543219089508e+01 8.519350148737430573e+00 9.326518839225172997e-02
-1.332120312750339508e+01 8.682436086237430573e+00 8.887065714225172997e-02
-1.889163769781589508e+01 1.226593217998743057e+01 -1.713215047493577003e-02
-1.930679883062839508e+01 1.232831010967493057e+01 -1.774250203743577003e-02
-2.273416699469089508e+01 1.432855425029993057e+01 -7.609211141243577003e-02
-1.186856640875339508e+01 8.221986867487430573e+00 1.613651639781892300e-01
-1.813992871344089508e+01 1.259674272686243057e+01 6.602824991568922997e-02
-1.747525586187839508e+01 1.191632280498743057e+01 8.273662393912672997e-02
-1.287466992437839508e+01 8.522157765924930573e+00 1.582828885875642300e-01
-1.331973828375339508e+01 8.683778859674930573e+00 1.560551053844392300e-01
-1.884903515875339508e+01 1.224078569561243057e+01 8.113445108756422997e-02
-2.254678906500339508e+01 1.446283159404993057e+01 3.580058878287672997e-02
-1.943021191656589508e+01 1.219842729717493057e+01 8.592571085318922997e-02
-1.156595410406589508e+01 8.002626515924930573e+00 2.249790555797517300e-01
-1.190994824469089508e+01 8.119691945612430573e+00 2.247806913219392300e-01
-1.222879590094089508e+01 8.211977101862430573e+00 2.253452665172517300e-01
-1.254056347906589508e+01 8.292543508112430573e+00 2.261539823375642300e-01
-1.286563672125339508e+01 8.376405812799930573e+00 2.270084745250642300e-01
-1.320731152594089508e+01 8.464662648737430573e+00 2.278934842906892300e-01
-1.356412304937839508e+01 8.556825734674930573e+00 2.288242704235017300e-01
-1.393753613531589508e+01 8.652895070612430573e+00 2.301823026500642300e-01
-1.146195019781589508e+01 7.928407765924930573e+00 2.838779813610017300e-01
-1.182547558844089508e+01 8.060976125299930573e+00 2.854801542125642300e-01
-1.217923535406589508e+01 8.179018117487430573e+00 2.873112089000642300e-01
-1.251126660406589508e+01 8.274355031549930573e+00 2.894321805797517300e-01
-1.285892285406589508e+01 8.374086476862430573e+00 2.916447049938142300e-01
-1.322562207281589508e+01 8.479311086237430573e+00 2.939640409313142300e-01
-1.361050976812839508e+01 8.589662648737430573e+00 2.964207059703767300e-01
-1.401614941656589508e+01 8.706117726862430573e+00 2.989994413219392300e-01
-1.158707226812839508e+01 8.022035695612430573e+00 3.420902616344392300e-01
-1.194571484625339508e+01 8.149599172174930573e+00 3.451267606578767300e-01
-1.225430859625339508e+01 8.234315969049930573e+00 3.485752469860017300e-01
-1.256302441656589508e+01 8.312440969049930573e+00 3.521610624156892300e-01
-1.288467969000339508e+01 8.393861867487430573e+00 3.559147245250642300e-01
-1.322244824469089508e+01 8.479433156549930573e+00 3.598362333141267300e-01
-1.357486523687839508e+01 8.568666554987430573e+00 3.639408475719392300e-01
-1.394376172125339508e+01 8.661806203424930573e+00 3.686252958141267300e-01
-1.147867383062839508e+01 7.944643117487430573e+00 3.998905546031892300e-01
-1.180985058844089508e+01 8.053896047174930573e+00 4.047123319469392300e-01
-1.213834179937839508e+01 8.154359914362430573e+00 4.096561796031892300e-01
-1.245303906500339508e+01 8.238100148737430573e+00 4.146458036266267300e-01
-1.280887402594089508e+01 8.344301320612430573e+00 4.200474149547517300e-01
-1.318485058844089508e+01 8.456606008112430573e+00 4.257542020641267300e-01
-1.358023633062839508e+01 8.574525929987430573e+00 4.317661649547517300e-01
-1.399783886969089508e+01 8.699159719049930573e+00 4.381138212047517300e-01
-1.151675976812839508e+01 7.974550344049930573e+00 4.585453397594392300e-01
-1.189932812750339508e+01 8.120424367487430573e+00 4.655643827281892300e-01
-1.225284375250339508e+01 8.237489797174930573e+00 4.723392850719392300e-01
-1.259940136969089508e+01 8.342104054987430573e+00 4.788395292125642300e-01
-1.331961621344089508e+01 8.695253469049930573e+00 4.906498319469392300e-01
-1.906351269781589508e+01 1.240143022686243057e+01 5.698887235485017300e-01
-1.952835644781589508e+01 1.249493608623743057e+01 5.798679715953767300e-01
-1.928421582281589508e+01 1.212127885967493057e+01 5.802799589000642300e-01
-1.742337597906589508e+01 1.230499467998743057e+01 6.227756864391267300e-01
-1.761197461187839508e+01 1.223626909404993057e+01 6.287113553844392300e-01
-2.130447949469089508e+01 1.464471635967493057e+01 6.991611844860017300e-01
-2.138626660406589508e+01 1.445306596904993057e+01 7.043491727672517300e-01
-1.331961621344089508e+01 8.697572804987430573e+00 5.577579862438142300e-01
-1.931033886969089508e+01 1.257037553936243057e+01 6.725651151500642300e-01
-1.914505566656589508e+01 1.224591264873743057e+01 6.726108915172517300e-01
-1.938175000250339508e+01 1.218792925029993057e+01 6.808048612438142300e-01
-9.237096682190895081e+00 5.594179250299930573e+00 -3.414271944202482700e-01
-9.292882815003395081e+00 5.536439992487430573e+00 -3.400844209827482700e-01
-9.344762697815895081e+00 5.475893117487430573e+00 -3.386348360218107700e-01
-9.397008791565895081e+00 5.414857961237430573e+00 -3.371699922718107700e-01
-9.454503908753395081e+00 5.357118703424930573e+00 -3.361476534046232700e-01
-9.514684572815895081e+00 5.300356008112430573e+00 -3.353084200061857700e-01
-9.561193361878395081e+00 5.235536672174930573e+00 -3.333552950061857700e-01
-9.603673830628395081e+00 5.168398000299930573e+00 -3.312953584827482700e-01
-9.936437502503395081e+00 6.045839406549930573e+00 -3.531459444202482700e-01
-9.994787111878395081e+00 5.981508351862430573e+00 -3.516811006702482700e-01
-1.005338086187839508e+01 5.916933156549930573e+00 -3.502009981311857700e-01
-1.011636914312839508e+01 5.854433156549930573e+00 -3.487666719593107700e-01
-1.017532910406589508e+01 5.789491750299930573e+00 -3.472865694202482700e-01
-1.023062695562839508e+01 5.721620656549930573e+00 -3.457301729358732700e-01
-1.028995312750339508e+01 5.656313039362430573e+00 -3.442348116077482700e-01
-1.034952344000339508e+01 5.590761281549930573e+00 -3.427394502796232700e-01
-1.079569043219089508e+01 6.600648976862430573e+00 -3.689998262561857700e-01
-1.085696972906589508e+01 6.528139211237430573e+00 -3.670924776233732700e-01
-1.092203320562839508e+01 6.457704640924930573e+00 -3.654292696155607700e-01
-1.098758496344089508e+01 6.386781789362430573e+00 -3.637660616077482700e-01
-1.105313672125339508e+01 6.315858937799930573e+00 -3.621028535999357700e-01
-1.111905469000339508e+01 6.244447804987430573e+00 -3.604243868030607700e-01
-1.118509472906589508e+01 6.173036672174930573e+00 -3.587611787952482700e-01
-1.125137890875339508e+01 6.101381398737430573e+00 -3.570674532093107700e-01
-1.205484570562839508e+01 7.413393117487430573e+00 -4.030574434436857700e-01
-1.214444531500339508e+01 7.344057179987430573e+00 -4.018672578968107700e-01
-1.222086133062839508e+01 7.265688039362430573e+00 -4.000514619983732700e-01
-1.229776562750339508e+01 7.186830617487430573e+00 -3.982356660999357700e-01
-1.237466992437839508e+01 7.107851125299930573e+00 -3.964198702014982700e-01
-1.245218457281589508e+01 7.028383351862430573e+00 -3.945735567249357700e-01
-1.252969922125339508e+01 6.948793508112430573e+00 -3.927425020374357700e-01
-1.259927929937839508e+01 6.864198781549930573e+00 -3.906978243030607700e-01
-1.348685254156589508e+01 8.337953664362430573e+00 -4.338801973499357700e-01
-1.360135449469089508e+01 8.267641164362430573e+00 -4.334834688343107700e-01
-1.368070019781589508e+01 8.174257375299930573e+00 -4.308589571155607700e-01
-1.375516308844089508e+01 8.077089406549930573e+00 -4.278987520374357700e-01
-1.382962597906589508e+01 7.980165578424930573e+00 -4.249385469593107700e-01
-1.390433301031589508e+01 7.882631398737430573e+00 -4.219630830921232700e-01
-1.397904004156589508e+01 7.785341359674930573e+00 -4.189876192249357700e-01
-1.405386914312839508e+01 7.687807179987430573e+00 -4.160121553577482700e-01
-1.485758008062839508e+01 9.223451711237430573e+00 -4.458888643421232700e-01
-1.460379590094089508e+01 8.904237844049930573e+00 -4.231074922718107700e-01
