-1.485687625408172607e+01 6.349251400679349899e+00 -8.328223639633449693e-01
-1.325531375408172607e+01 5.718269955366849899e+00 -7.587256842758449693e-01
-1.525299441814422607e+01 6.166878353804349899e+00 -8.373847418930324693e-01
-1.491156375408172607e+01 5.919441830366849899e+00 -8.170142584945949693e-01
-1.489996707439422607e+01 5.769417416304349899e+00 -8.105597907211574693e-01
-1.337237918376922607e+01 6.292366635054349899e+00 -7.263770514633449693e-01
-9.414859652519226074e+00 4.835213314741849899e+00 -5.667853766586574693e-01
-9.450870394706726074e+00 4.755989681929349899e+00 -5.643744879867824693e-01
-1.323871219158172607e+01 5.846565853804349899e+00 -7.051062995102199693e-01
-1.433966434001922607e+01 6.046517025679349899e+00 -7.414069586899074693e-01
-1.437701785564422607e+01 5.914803158491849899e+00 -7.371955329086574693e-01
-1.494684207439422607e+01 5.931404720991849899e+00 -7.529273444320949693e-01
-1.490997684001922607e+01 5.774178158491849899e+00 -7.458014899399074693e-01
-1.364545047283172607e+01 6.388435970991849899e+00 -6.763739997055324693e-01
-9.415347933769226074e+00 4.836678158491849899e+00 -5.267768317367824693e-01
-9.448184847831726074e+00 4.756355892866849899e+00 -5.244269782211574693e-01
-1.320392215251922607e+01 5.837532650679349899e+00 -6.460090094711574693e-01
-1.436566531658172607e+01 6.056282650679349899e+00 -6.792273932602199693e-01
-1.318341434001922607e+01 5.570198666304349899e+00 -6.354194098617824693e-01
-1.585113894939422607e+01 6.186287533491849899e+00 -7.160315924789699693e-01
-1.511920535564422607e+01 5.832527767866849899e+00 -6.869025641586574693e-01
-1.334698855876922607e+01 6.287239681929349899e+00 -6.070685797836574693e-01
-9.415836215019226074e+00 4.838020931929349899e+00 -4.869819098617824693e-01
-9.445499300956726074e+00 4.756722103804349899e+00 -4.845099860336574693e-01
-1.316925418376922607e+01 5.828499447554349899e+00 -5.872474127914699693e-01
-1.439166629314422607e+01 6.066170345991849899e+00 -6.168036872055324693e-01
-1.315265262126922607e+01 5.563118588179349899e+00 -5.772681647445949693e-01
-1.496722781658172607e+01 5.941292416304349899e+00 -6.220679694320949693e-01
-1.493011844158172607e+01 5.783699642866849899e+00 -6.156745368149074693e-01
-1.415411746501922607e+01 6.568001400679349899e+00 -5.678077155258449693e-01
-9.416446566581726074e+00 4.839485775679349899e+00 -4.469733649399074693e-01
-9.442691683769226074e+00 4.757088314741849899e+00 -4.443946295883449693e-01
-1.374982059001922607e+01 6.011604916304349899e+00 -5.430884772445949693e-01
-1.312921512126922607e+01 5.687508236616849899e+00 -5.238318854477199693e-01
-1.312396609783172607e+01 5.556526791304349899e+00 -5.191474372055324693e-01
-1.317193973064422607e+01 5.440926205366849899e+00 -5.156836920883449693e-01
-1.493365848064422607e+01 5.786751400679349899e+00 -5.501532965805324693e-01
-1.160724246501922607e+01 5.689461361616849899e+00 -4.540229254867824693e-01
-9.416934847831726074e+00 4.840828549116849899e+00 -4.071784430649074693e-01
-9.440006136894226074e+00 4.757454525679349899e+00 -4.045386725570949693e-01
-1.300738894939422607e+01 5.781502377241849899e+00 -4.687323981430324693e-01
-1.392914187908172607e+01 5.930550228804349899e+00 -4.813971930649074693e-01
-1.415643680095672607e+01 5.858528744429349899e+00 -4.808478766586574693e-01
-1.314068973064422607e+01 5.433968197554349899e+00 -4.580665045883449693e-01
-1.446124637126922607e+01 5.661629330366849899e+00 -4.766974860336574693e-01
-1.161102664470672607e+01 5.692268978804349899e+00 -4.032721930649074693e-01
-9.417423129081726074e+00 4.842293392866849899e+00 -3.671698981430324693e-01
-9.437442660331726074e+00 4.757820736616849899e+00 -3.647132331039699693e-01
-1.290423953533172607e+01 5.750984799116849899e+00 -4.104896002914699693e-01
-1.307245242595672607e+01 5.673958431929349899e+00 -4.086280280258449693e-01
-1.416144168376922607e+01 5.862068783491849899e+00 -4.189734870102199693e-01
-1.482623660564422607e+01 5.908089291304349899e+00 -4.227118903305324693e-01
-1.489361941814422607e+01 5.780159603804349899e+00 -4.188208991195949693e-01
-9.023258090019226074e+00 4.798592220991849899e+00 -3.261695319320949693e-01
-9.203067660331726074e+00 4.771614681929349899e+00 -3.252387457992824693e-01
-9.389957308769226074e+00 4.743660580366849899e+00 -3.242774420883449693e-01
-9.563663363456726074e+00 4.707649838179349899e+00 -3.230567389633449693e-01
-9.737735629081726074e+00 4.668831478804349899e+00 -3.217597418930324693e-01
-9.918399691581726074e+00 4.628792416304349899e+00 -3.204169684555324693e-01
-1.010626590251922607e+01 4.587044369429349899e+00 -3.190131598617824693e-01
-1.030060184001922607e+01 4.543831478804349899e+00 -3.175788336899074693e-01
-8.946475863456726074e+00 4.773201595991849899e+00 -2.875495368149074693e-01
-9.123355746269226074e+00 4.746224056929349899e+00 -2.860846930649074693e-01
-9.306949496269226074e+00 4.718025814741849899e+00 -2.843451911117824693e-01
-9.498599886894226074e+00 4.688606869429349899e+00 -2.825293952133449693e-01
-9.658878207206726074e+00 4.646370541304349899e+00 -2.804847174789699693e-01
-9.836490511894226074e+00 4.606209408491849899e+00 -2.784095221664699693e-01
-1.002289187908172607e+01 4.564949642866849899e+00 -2.762732916977199693e-01
-1.022821414470672607e+01 4.525765072554349899e+00 -2.738624030258449693e-01
-8.935611605644226074e+00 4.770516049116849899e+00 -2.499213629867824693e-01
-9.124332308769226074e+00 4.747688900679349899e+00 -2.475104743149074693e-01
-9.321353793144226074e+00 4.723885189741849899e+00 -2.450080329086574693e-01
-9.481143832206726074e+00 4.684334408491849899e+00 -2.423835211899074693e-01
-9.697574496269226074e+00 4.659309994429349899e+00 -2.396674567367824693e-01
-9.889835238456726074e+00 4.623055111616849899e+00 -2.368445807602199693e-01
-1.009039676189422607e+01 4.585213314741849899e+00 -2.338996344711574693e-01
-1.029840457439422607e+01 4.546028744429349899e+00 -2.308478766586574693e-01
-8.996036410331726074e+00 4.792610775679349899e+00 -2.118812018539699693e-01
-9.187320590019226074e+00 4.770027767866849899e+00 -2.088599616195949693e-01
-9.387149691581726074e+00 4.746468197554349899e+00 -2.054877692367824693e-01
-9.478458285331726074e+00 4.684822689741849899e+00 -2.025580817367824693e-01
-9.757633090019226074e+00 4.678719174116849899e+00 -1.985755377914699693e-01
-9.935855746269226074e+00 4.637825619429349899e+00 -1.950202399399074693e-01
-1.012115848064422607e+01 4.595223080366849899e+00 -1.913428717758449693e-01
-1.031232059001922607e+01 4.551155697554349899e+00 -1.872992926742824693e-01
-8.992374300956726074e+00 4.792488705366849899e+00 -1.740699225570949693e-01
-9.166934847831726074e+00 4.764412533491849899e+00 -1.701789313461574693e-01
-9.348453402519226074e+00 4.735115658491849899e+00 -1.661506110336574693e-01
-9.475772738456726074e+00 4.685188900679349899e+00 -1.625495368149074693e-01
-9.692203402519226074e+00 4.660286556929349899e+00 -1.580024176742824693e-01
-9.867862582206726074e+00 4.619270931929349899e+00 -1.537604743149074693e-01
-1.005047976970672607e+01 4.576790463179349899e+00 -1.493659430649074693e-01
-1.023920047283172607e+01 4.532845150679349899e+00 -1.448188239242824693e-01
-8.929996371269226074e+00 4.772102963179349899e+00 -1.368995124008449693e-01
-9.101993441581726074e+00 4.743782650679349899e+00 -1.323371344711574693e-01
-9.281070590019226074e+00 4.714485775679349899e+00 -1.278052741195949693e-01
-9.467594027519226074e+00 4.683846127241849899e+00 -1.228766852524074693e-01
-9.646671175956726074e+00 4.647713314741849899e+00 -1.179633551742824693e-01
-9.843692660331726074e+00 4.613533627241849899e+00 -1.126990729477199693e-01
-1.005011355876922607e+01 4.578011166304349899e+00 -1.069770270492824693e-01
-1.026398074626922607e+01 4.540901791304349899e+00 -1.012549811508449693e-01
-8.933170199394226074e+00 4.774300228804349899e+00 -9.911875068209496931e-02
-9.129337191581726074e+00 4.754158627241849899e+00 -9.357981025240746931e-02
-9.334659457206726074e+00 4.733162533491849899e+00 -8.758310615084496931e-02
-9.540470004081726074e+00 4.707893978804349899e+00 -8.146433173678246931e-02
-9.724429965019226074e+00 4.672493588179349899e+00 -7.571176826021996931e-02
-9.924869418144226074e+00 4.638558041304349899e+00 -6.953195868990746931e-02
-1.013446414470672607e+01 4.603035580366849899e+00 -6.309274970553246931e-02
-1.035260379314422607e+01 4.566170345991849899e+00 -5.615000068209496931e-02
-1.331097781658172607e+01 5.331184994429349899e+00 -1.092038672557094969e+00
-1.340057742595672607e+01 5.224983822554349899e+00 -1.092008154978969969e+00
-1.343243777751922607e+01 5.103279720991849899e+00 -1.088269751658657469e+00
-1.207098758220672607e+01 4.652596127241849899e+00 -9.893775397445949693e-01
-1.215533816814422607e+01 4.557259213179349899e+00 -9.898505622055324693e-01
-1.224054324626922607e+01 4.460823666304349899e+00 -9.903388434555324693e-01
-1.232696902751922607e+01 4.363045345991849899e+00 -9.908271247055324693e-01
-1.216852176189422607e+01 4.216805111616849899e+00 -9.752936774399074693e-01
-1.360553348064422607e+01 5.411873470991849899e+00 -1.053235571971157469e+00
-1.368487918376922607e+01 5.299934994429349899e+00 -1.052426856150844969e+00
-1.377606570720672607e+01 5.189949642866849899e+00 -1.052014868846157469e+00
-1.386493289470672607e+01 5.077522885054349899e+00 -1.051694434275844969e+00
-1.413104617595672607e+01 5.004280697554349899e+00 -1.062512915721157469e+00
-1.433160769939422607e+01 4.911995541304349899e+00 -1.068997901072719969e+00
-1.477460086345672607e+01 4.865364681929349899e+00 -1.090726416697719969e+00
-1.216937625408172607e+01 4.218636166304349899e+00 -9.237037116195949693e-01
-1.427801883220672607e+01 5.593880306929349899e+00 -1.034390967478969969e+00
-1.437311160564422607e+01 5.478890072554349899e+00 -1.033963721385219969e+00
-1.464032351970672607e+01 5.405037533491849899e+00 -1.043698828807094969e+00
-1.513837039470672607e+01 5.380135189741849899e+00 -1.066754859080532469e+00
-1.417206180095672607e+01 5.015511166304349899e+00 -1.003964942088344969e+00
-1.437384402751922607e+01 4.923226010054349899e+00 -1.009702246775844969e+00
-1.466131961345672607e+01 4.844246517866849899e+00 -1.020200293650844969e+00
-1.217023074626922607e+01 4.220589291304349899e+00 -8.721137457992824693e-01
-1.479401004314422607e+01 5.734261166304349899e+00 -1.000791113963344969e+00
-1.481061160564422607e+01 5.593514095991849899e+00 -9.951758795883449693e-01
-1.527899539470672607e+01 5.564705502241849899e+00 -1.014539282908657469e+00
-1.464850223064422607e+01 5.266487728804349899e+00 -9.740729743149074693e-01
-1.421368777751922607e+01 5.026985775679349899e+00 -9.447303229477199693e-01
-1.441669070720672607e+01 4.934456478804349899e+00 -9.497046881820949693e-01
-1.463690555095672607e+01 4.841316830366849899e+00 -9.554267340805324693e-01
-1.217096316814422607e+01 4.222420345991849899e+00 -8.207984381820949693e-01
-1.484320437908172607e+01 5.749519955366849899e+00 -9.382911139633449693e-01
-1.484332644939422607e+01 5.604012142866849899e+00 -9.322333747055324693e-01
-1.521881473064422607e+01 5.552010189741849899e+00 -9.449134284164699693e-01
-1.461432254314422607e+01 5.260506283491849899e+00 -9.088874274399074693e-01
-1.425531375408172607e+01 5.038338314741849899e+00 -8.854499274399074693e-01
-1.463946902751922607e+01 4.984383236616849899e+00 -8.983893805649074693e-01
-1.562909305095672607e+01 5.046883236616849899e+00 -9.400916510727199693e-01
-1.217181766033172607e+01 4.224251400679349899e+00 -7.692237311508449693e-01
-1.504730594158172607e+01 5.806282650679349899e+00 -8.827948981430324693e-01
-1.485333621501922607e+01 5.608650814741849899e+00 -8.676276618149074693e-01
-1.452826297283172607e+01 5.383431088179349899e+00 -8.471045905258449693e-01
-1.457757937908172607e+01 5.253914486616849899e+00 -8.435645514633449693e-01
-1.460846316814422607e+01 5.120125424116849899e+00 -8.392157965805324693e-01
-1.561505496501922607e+01 5.196907650679349899e+00 -8.775916510727199693e-01
-1.459625613689422607e+01 4.837166439741849899e+00 -8.273139411117824693e-01
-1.217267215251922607e+01 4.226082455366849899e+00 -7.179084235336574693e-01
-1.489960086345672607e+01 5.768807064741849899e+00 -8.105292731430324693e-01
-1.486322391033172607e+01 5.613289486616849899e+00 -8.032660895492824693e-01
-1.449151980876922607e+01 5.376473080366849899e+00 -7.825446540024074693e-01
-1.454059207439422607e+01 5.247200619429349899e+00 -7.789283209945949693e-01
-1.552020633220672607e+01 5.328499447554349899e+00 -8.120704108383449693e-01
-1.565936648845672607e+01 5.208626400679349899e+00 -8.115821295883449693e-01
-1.458417117595672607e+01 4.836800228804349899e+00 -7.640357428695949693e-01
-1.217340457439422607e+01 4.227913510054349899e+00 -6.663184577133449693e-01
-1.490961062908172607e+01 5.773567806929349899e+00 -7.457709723617824693e-01
-1.519391238689422607e+01 5.700691830366849899e+00 -7.503791266586574693e-01
-1.445477664470672607e+01 5.369393002241849899e+00 -7.179999762680324693e-01
-1.450360476970672607e+01 5.240486752241849899e+00 -7.143226081039699693e-01
-1.454095828533172607e+01 5.109017025679349899e+00 -7.102332526352199693e-01
-1.456903445720672607e+01 4.975472103804349899e+00 -7.058234625961574693e-01
-1.483502566814422607e+01 4.890389095991849899e+00 -7.098060065414699693e-01
-1.217425906658172607e+01 4.229866635054349899e+00 -6.150031500961574693e-01
-1.511981570720672607e+01 5.832161556929349899e+00 -6.869025641586574693e-01
-1.448675906658172607e+01 5.520271908491849899e+00 -6.615577155258449693e-01
-1.441839969158172607e+01 5.362312924116849899e+00 -6.541724616195949693e-01
-1.418133914470672607e+01 5.166023861616849899e+00 -6.417060309555324693e-01
-1.439508426189422607e+01 5.078011166304349899e+00 -6.430182868149074693e-01
-1.453546512126922607e+01 4.970223080366849899e+00 -6.420112067367824693e-01
-1.429291141033172607e+01 4.781014095991849899e+00 -6.296821051742824693e-01
-1.217511355876922607e+01 4.231697689741849899e+00 -5.634131842758449693e-01
-1.492975223064422607e+01 5.783089291304349899e+00 -6.156440192367824693e-01
-1.444427859783172607e+01 5.511360775679349899e+00 -5.974402838852199693e-01
-1.438214480876922607e+01 5.355476986616849899e+00 -5.906958991195949693e-01
-1.443072879314422607e+01 5.227181088179349899e+00 -5.868659430649074693e-01
-1.435345828533172607e+01 5.070564877241849899e+00 -5.798316413070949693e-01
-1.430255496501922607e+01 4.921883236616849899e+00 -5.735450202133449693e-01
-1.487616336345672607e+01 4.903084408491849899e+00 -5.826697760727199693e-01
-1.217584598064422607e+01 4.233528744429349899e+00 -5.120978766586574693e-01
-1.493634402751922607e+01 5.786995541304349899e+00 -5.501990729477199693e-01
-1.440179812908172607e+01 5.502327572554349899e+00 -5.333838874008449693e-01
-1.477215945720672607e+01 5.454109799116849899e+00 -5.363593512680324693e-01
-1.504779422283172607e+01 5.375740658491849899e+00 -5.370612555649074693e-01
-1.431171023845672607e+01 5.063118588179349899e+00 -5.167212897445949693e-01
-1.426129519939422607e+01 4.915047299116849899e+00 -5.108466559555324693e-01
-1.450140750408172607e+01 4.828011166304349899e+00 -5.107856207992824693e-01
-1.217670047283172607e+01 4.235359799116849899e+00 -4.605079108383449693e-01
-1.446210086345672607e+01 5.661385189741849899e+00 -4.766974860336574693e-01
-1.435980594158172607e+01 5.493538510054349899e+00 -4.700904303695949693e-01
-1.477765262126922607e+01 5.457527767866849899e+00 -4.722571784164699693e-01
-1.432135379314422607e+01 5.205330502241849899e+00 -4.598823004867824693e-01
-1.427057254314422607e+01 5.055794369429349899e+00 -4.543433600570949693e-01
-1.422052371501922607e+01 4.908211361616849899e+00 -4.488654547836574693e-01
-1.545697391033172607e+01 5.026985775679349899e+00 -4.630103522445949693e-01
-1.217755496501922607e+01 4.237190853804349899e+00 -4.091926032211574693e-01
-1.489618289470672607e+01 5.780281674116849899e+00 -4.188361579086574693e-01
-1.498541629314422607e+01 5.657478939741849899e+00 -4.150672370102199693e-01
-1.426129519939422607e+01 5.331429135054349899e+00 -4.018989020492824693e-01
-1.103570926189422607e+01 4.426521908491849899e+00 -3.599067145492824693e-01
-1.126788699626922607e+01 4.375862728804349899e+00 -3.590827399399074693e-01
-1.151019656658172607e+01 4.323006283491849899e+00 -3.582129889633449693e-01
-1.176337039470672607e+01 4.267342220991849899e+00 -3.570228034164699693e-01
-1.202777469158172607e+01 4.209602963179349899e+00 -3.560614997055324693e-01
-1.030182254314422607e+01 4.543831478804349899e+00 -3.175788336899074693e-01
-1.050348269939422607e+01 4.499031674116849899e+00 -3.159614020492824693e-01
-1.071319949626922607e+01 4.452278744429349899e+00 -3.142829352524074693e-01
-1.093231570720672607e+01 4.403450619429349899e+00 -3.125281745102199693e-01
-1.115985476970672607e+01 4.352791439741849899e+00 -3.107123786117824693e-01
-1.139715945720672607e+01 4.300057064741849899e+00 -3.088202887680324693e-01
-1.164557254314422607e+01 4.244759213179349899e+00 -3.068366461899074693e-01
-1.190436160564422607e+01 4.187142025679349899e+00 -3.047614508774074693e-01
-1.022955691814422607e+01 4.525765072554349899e+00 -2.738624030258449693e-01
-1.044317996501922607e+01 4.484749447554349899e+00 -2.716803961899074693e-01
-1.066632449626922607e+01 4.442024838179349899e+00 -2.691779547836574693e-01
-1.090021121501922607e+01 4.397347103804349899e+00 -2.665381842758449693e-01
-1.114386355876922607e+01 4.350716244429349899e+00 -2.638068610336574693e-01
-1.139886844158172607e+01 4.302010189741849899e+00 -2.609382086899074693e-01
-1.166693484783172607e+01 4.250740658491849899e+00 -2.579169684555324693e-01
-1.194769656658172607e+01 4.197273861616849899e+00 -2.544989997055324693e-01
-1.029974734783172607e+01 4.546028744429349899e+00 -2.308326178695949693e-01
-1.051691043376922607e+01 4.505257260054349899e+00 -2.274909430649074693e-01
-1.074347293376922607e+01 4.462654720991849899e+00 -2.239814215805324693e-01
-1.098102176189422607e+01 4.418099056929349899e+00 -2.203193122055324693e-01
-1.122858035564422607e+01 4.371590267866849899e+00 -2.165046149399074693e-01
-1.148224246501922607e+01 4.321663510054349899e+00 -2.125220709945949693e-01
-1.173016726970672607e+01 4.265389095991849899e+00 -2.084021979477199693e-01
-1.198810184001922607e+01 4.206795345991849899e+00 -2.041144782211574693e-01
-1.031354129314422607e+01 4.551155697554349899e+00 -1.872840338852199693e-01
-1.051239383220672607e+01 4.505501400679349899e+00 -1.833472663070949693e-01
-1.071869266033172607e+01 4.458016049116849899e+00 -1.790290290024074693e-01
-1.093402469158172607e+01 4.408333431929349899e+00 -1.745276862289699693e-01
-1.115753543376922607e+01 4.356941830366849899e+00 -1.698432379867824693e-01
-1.139032351970672607e+01 4.303230892866849899e+00 -1.649604254867824693e-01
-1.163385379314422607e+01 4.247078549116849899e+00 -1.598639899399074693e-01
-1.188678348064422607e+01 4.188606869429349899e+00 -1.542945319320949693e-01
-1.024042117595672607e+01 4.532845150679349899e+00 -1.448035651352199693e-01
-1.043585574626922607e+01 4.487068783491849899e+00 -1.398597174789699693e-01
-1.063885867595672607e+01 4.439583431929349899e+00 -1.347175055649074693e-01
-1.086871707439422607e+01 4.394295345991849899e+00 -1.291480475570949693e-01
-1.112018191814422607e+01 4.349983822554349899e+00 -1.231971198227199693e-01
-1.138385379314422607e+01 4.303475033491849899e+00 -1.169562750961574693e-01
-1.166156375408172607e+01 4.254402767866849899e+00 -1.103797370102199693e-01
-1.195245730876922607e+01 4.203133236616849899e+00 -1.034980231430324693e-01
-1.026532351970672607e+01 4.540901791304349899e+00 -1.012244635727199693e-01
-1.048907840251922607e+01 4.502327572554349899e+00 -9.498361884615746931e-02
-1.072259891033172607e+01 4.461922299116849899e+00 -8.872751533053246931e-02
-1.096832644939422607e+01 4.419563900679349899e+00 -8.187631904146996931e-02
-1.122479617595672607e+01 4.375252377241849899e+00 -7.473520576021996931e-02
-1.149383914470672607e+01 4.328987728804349899e+00 -6.724314033053246931e-02
-1.390253055095672607e+01 4.720345150679349899e+00 -2.168039618990746931e-02
-1.944269168376922607e+01 5.678963314741849899e+00 8.096547783353003069e-02
-1.035406863689422607e+01 4.566292416304349899e+00 -5.610422431490746931e-02
-1.407428348064422607e+01 5.435310970991849899e+00 2.398915947415503069e-02
-1.389654910564422607e+01 5.254524838179349899e+00 2.377553642728003069e-02
-1.356244266033172607e+01 5.040169369429349899e+00 2.009816826321753069e-02
-1.774518191814422607e+01 5.864754330366849899e+00 1.143974846694675307e-01
-1.384161746501922607e+01 4.841683041304349899e+00 3.299184502103003069e-02
-1.383624637126922607e+01 4.708504330366849899e+00 3.630300224759253069e-02
-1.943194949626922607e+01 5.679695736616849899e+00 1.663231438491550307e-01
-1.216827762126922607e+01 4.216316830366849899e+00 -9.752631598617824693e-01
-1.249432742595672607e+01 4.162850033491849899e+00 -9.916205817367824693e-01
-1.257464969158172607e+01 4.060433041304349899e+00 -9.918952399399074693e-01
-1.295318973064422607e+01 4.005013119429349899e+00 -1.011502783885219969e+00
-1.289838016033172607e+01 3.876351010054349899e+00 -1.002805274119594969e+00
-1.284418094158172607e+01 3.749275814741849899e+00 -9.942298346664699693e-01
-1.284686648845672607e+01 3.630745541304349899e+00 -9.893012457992824693e-01
-1.289252078533172607e+01 3.518318783491849899e+00 -9.874244147445949693e-01
-1.216913211345672607e+01 4.218269955366849899e+00 -9.236731940414699693e-01
-1.583661258220672607e+01 4.779060970991849899e+00 -1.143552344432094969e+00
-1.468841922283172607e+01 4.429085385054349899e+00 -1.067044776072719969e+00
-1.468317019939422607e+01 4.289314877241849899e+00 -1.060864966502407469e+00
-1.467779910564422607e+01 4.150520931929349899e+00 -1.054746192088344969e+00
-1.424335086345672607e+01 3.950935970991849899e+00 -1.023114722361782469e+00
-1.417767703533172607e+01 3.809212338179349899e+00 -1.013944190135219969e+00
-1.413605105876922607e+01 3.672493588179349899e+00 -1.005979102244594969e+00
-1.216998660564422607e+01 4.220101010054349899e+00 -8.720832282211574693e-01
-1.576776492595672607e+01 4.768684994429349899e+00 -1.070905249705532469e+00
-1.522858035564422607e+01 4.525032650679349899e+00 -1.034436743846157469e+00
-1.560321414470672607e+01 4.441780697554349899e+00 -1.049329321971157469e+00
-1.465436160564422607e+01 4.149056088179349899e+00 -9.907660895492824693e-01
-1.464911258220672607e+01 4.011116635054349899e+00 -9.848151618149074693e-01
-1.642218387126922607e+01 4.109383236616849899e+00 -1.075681250682094969e+00
-1.459003055095672607e+01 3.730354916304349899e+00 -9.703040534164699693e-01
-1.217071902751922607e+01 4.221932064741849899e+00 -8.207831793930324693e-01
-1.508160769939422607e+01 4.644661556929349899e+00 -9.668860846664699693e-01
-1.464130008220672607e+01 4.425057064741849899e+00 -9.384284430649074693e-01
-1.463605105876922607e+01 4.285774838179349899e+00 -9.325385504867824693e-01
-1.463092410564422607e+01 4.147591244429349899e+00 -9.266944342758449693e-01
-1.462567508220672607e+01 4.009773861616849899e+00 -9.208655768539699693e-01
-1.461603152751922607e+01 3.871590267866849899e+00 -9.148230963852199693e-01
-1.828985965251922607e+01 4.187019955366849899e+00 -1.091153662791469969e+00
-1.217157351970672607e+01 4.223763119429349899e+00 -7.691932135727199693e-01
-1.393854129314422607e+01 4.436043392866849899e+00 -8.480811530258449693e-01
-1.460846316814422607e+01 4.421517025679349899e+00 -8.742041999008449693e-01
-1.550592410564422607e+01 4.430306088179349899e+00 -9.103217536117824693e-01
-1.727154910564422607e+01 4.555061947554349899e+00 -9.856696540024074693e-01
-1.460248172283172607e+01 4.008553158491849899e+00 -8.574958258774074693e-01
-1.850714480876922607e+01 4.391853939741849899e+00 -1.028409522166469969e+00
-1.897772586345672607e+01 4.274422299116849899e+00 -1.042478125682094969e+00
-1.217242801189422607e+01 4.225716244429349899e+00 -7.178779059555324693e-01
-1.489313113689422607e+01 4.614143978804349899e+00 -8.288550788070949693e-01
-1.457110965251922607e+01 4.417122494429349899e+00 -8.097663336899074693e-01
-1.457867801189422607e+01 4.280647885054349899e+00 -8.046851569320949693e-01
-1.458417117595672607e+01 4.144539486616849899e+00 -7.995582038070949693e-01
-1.457916629314422607e+01 4.007332455366849899e+00 -7.940040045883449693e-01
-1.917132937908172607e+01 4.483162533491849899e+00 -9.747291022445949693e-01
-1.972992312908172607e+01 4.369881283491849899e+00 -9.904761725570949693e-01
-1.217316043376922607e+01 4.227547299116849899e+00 -6.662879401352199693e-01
-1.417303836345672607e+01 4.483284603804349899e+00 -7.376380377914699693e-01
-1.453424441814422607e+01 4.412727963179349899e+00 -7.460456305649074693e-01
-1.840643680095672607e+01 4.910652767866849899e+00 -8.843055182602199693e-01
-1.889276492595672607e+01 4.809456478804349899e+00 -8.953681403305324693e-01
-1.936468875408172607e+01 4.696907650679349899e+00 -9.055610114242824693e-01
-1.973089969158172607e+01 4.560555111616849899e+00 -9.115882331039699693e-01
-1.996747195720672607e+01 4.402107845991849899e+00 -9.127784186508449693e-01
-1.217401492595672607e+01 4.229378353804349899e+00 -6.149726325180324693e-01
-1.510162723064422607e+01 4.656868588179349899e+00 -7.078833991195949693e-01
-1.396515262126922607e+01 4.315559994429349899e+00 -6.648841315414699693e-01
-1.450494754314422607e+01 4.272713314741849899e+00 -6.774115973617824693e-01
-1.950714480876922607e+01 4.906868588179349899e+00 -8.324103766586574693e-01
-1.411835086345672607e+01 3.945320736616849899e+00 -6.549354010727199693e-01
-2.020746219158172607e+01 4.627205502241849899e+00 -8.406806403305324693e-01
-2.047504031658172607e+01 4.467781674116849899e+00 -8.416877204086574693e-01
-1.217486941814422607e+01 4.231209408491849899e+00 -5.633979254867824693e-01
-1.448089969158172607e+01 4.544319760054349899e+00 -6.249518805649074693e-01
-1.417840945720672607e+01 4.354744564741849899e+00 -6.113715582992824693e-01
-1.446844851970672607e+01 4.268807064741849899e+00 -6.144843512680324693e-01
-1.432489383220672607e+01 4.110848080366849899e+00 -6.055427008774074693e-01
-1.415582644939422607e+01 3.952644955366849899e+00 -5.960212165024074693e-01
-1.395953738689422607e+01 3.794319760054349899e+00 -5.859046393539699693e-01
-2.098016726970672607e+01 4.533211361616849899e+00 -7.653785163070949693e-01
-1.217560184001922607e+01 4.233040463179349899e+00 -5.120826178695949693e-01
-1.448749148845672607e+01 4.547615658491849899e+00 -5.631080084945949693e-01
-1.428900516033172607e+01 4.376106869429349899e+00 -5.534797125961574693e-01
-1.443219363689422607e+01 4.264900814741849899e+00 -5.519080573227199693e-01
-1.939984500408172607e+01 4.896004330366849899e+00 -6.599250250961574693e-01
-1.446539676189422607e+01 3.999397885054349899e+00 -5.428443366195949693e-01
-1.413019168376922607e+01 3.819100033491849899e+00 -5.305610114242824693e-01
-2.149664676189422607e+01 4.600350033491849899e+00 -6.851478034164699693e-01
-1.217645633220672607e+01 4.234993588179349899e+00 -4.604926520492824693e-01
-1.530499637126922607e+01 4.701058041304349899e+00 -5.164161139633449693e-01
-1.435895144939422607e+01 4.390389095991849899e+00 -4.934668952133449693e-01
-1.405902469158172607e+01 4.205452572554349899e+00 -4.831366950180324693e-01
-1.440192019939422607e+01 4.126961361616849899e+00 -4.846473151352199693e-01
-1.434259402751922607e+01 3.983772885054349899e+00 -4.788184577133449693e-01
-1.417596805095672607e+01 3.827400814741849899e+00 -4.711738043930324693e-01
-1.407306277751922607e+01 3.683113705366849899e+00 -4.647498541977199693e-01
-1.217731082439422607e+01 4.236824642866849899e+00 -4.091773444320949693e-01
-1.442682254314422607e+01 4.540413510054349899e+00 -4.378638678695949693e-01
-1.439264285564422607e+01 4.398323666304349899e+00 -4.326301032211574693e-01
-1.461774051189422607e+01 4.299568783491849899e+00 -4.310126715805324693e-01
-1.427081668376922607e+01 4.108650814741849899e+00 -4.215674811508449693e-01
-1.428058230876922607e+01 3.976814877241849899e+00 -4.170661383774074693e-01
-1.433099734783172607e+01 3.850227963179349899e+00 -4.130683356430324693e-01
-2.194330203533172607e+01 4.662117611616849899e+00 -5.026221686508449693e-01
-1.202960574626922607e+01 4.209602963179349899e+00 -3.560767584945949693e-01
-1.229571902751922607e+01 4.147102963179349899e+00 -3.548713141586574693e-01
-1.253387820720672607e+01 4.074593197554349899e+00 -3.535132819320949693e-01
-1.279413211345672607e+01 4.000740658491849899e+00 -3.519263678695949693e-01
-1.306476199626922607e+01 3.924080502241849899e+00 -3.502631598617824693e-01
-1.334747684001922607e+01 3.844002377241849899e+00 -3.485236579086574693e-01
-1.364325320720672607e+01 3.759773861616849899e+00 -3.463874274399074693e-01
-1.395233523845672607e+01 3.672127377241849899e+00 -3.444953375961574693e-01
-1.190619266033172607e+01 4.187019955366849899e+00 -3.047614508774074693e-01
-1.217670047283172607e+01 4.126717220991849899e+00 -3.024726325180324693e-01
-1.241498172283172607e+01 4.055428158491849899e+00 -2.998481207992824693e-01
-1.267950809001922607e+01 3.983650814741849899e+00 -2.971930915024074693e-01
-1.296722781658172607e+01 3.910774838179349899e+00 -2.944617682602199693e-01
-1.326874148845672607e+01 3.834480892866849899e+00 -2.916083747055324693e-01
-1.358612430095672607e+01 3.754036556929349899e+00 -2.886023932602199693e-01
-1.391839969158172607e+01 3.669930111616849899e+00 -2.854438239242824693e-01
-1.194952762126922607e+01 4.197273861616849899e+00 -2.544837409164699693e-01
-1.223456180095672607e+01 4.139168392866849899e+00 -2.512793952133449693e-01
-1.249652469158172607e+01 4.071541439741849899e+00 -2.476172858383449693e-01
-1.277679812908172607e+01 4.001473080366849899e+00 -2.437720709945949693e-01
-1.306927859783172607e+01 3.928475033491849899e+00 -2.397742682602199693e-01
-1.337579715251922607e+01 3.851814877241849899e+00 -2.355628424789699693e-01
-1.368793094158172607e+01 3.769783627241849899e+00 -2.311530524399074693e-01
-1.399371707439422607e+01 3.681404720991849899e+00 -2.262549811508449693e-01
-1.198981082439422607e+01 4.206795345991849899e+00 -2.040992194320949693e-01
-1.223541629314422607e+01 4.140999447554349899e+00 -1.995063239242824693e-01
-1.248712527751922607e+01 4.071663510054349899e+00 -1.947608405258449693e-01
-1.274127566814422607e+01 3.997444760054349899e+00 -1.898169928695949693e-01
-1.300531375408172607e+01 3.920418392866849899e+00 -1.846900397445949693e-01
-1.328094851970672607e+01 3.839974056929349899e+00 -1.793494635727199693e-01
-1.356964480876922607e+01 3.755745541304349899e+00 -1.737342291977199693e-01
-1.387054812908172607e+01 3.667976986616849899e+00 -1.679053717758449693e-01
-1.188849246501922607e+01 4.188606869429349899e+00 -1.542640143539699693e-01
-1.215362918376922607e+01 4.127449642866849899e+00 -1.487555915024074693e-01
-1.240594851970672607e+01 4.059090267866849899e+00 -1.429267340805324693e-01
-1.269171512126922607e+01 3.991097103804349899e+00 -1.366248541977199693e-01
-1.299042117595672607e+01 3.919930111616849899e+00 -1.300330573227199693e-01
-1.330401980876922607e+01 3.845223080366849899e+00 -1.231208258774074693e-01
-1.363470828533172607e+01 3.766487728804349899e+00 -1.158271247055324693e-01
-1.398248660564422607e+01 3.683968197554349899e+00 -1.078467780258449693e-01
-1.195441043376922607e+01 4.203133236616849899e+00 -1.034522467758449693e-01
-1.226141726970672607e+01 4.149300228804349899e+00 -9.592966376803246931e-02
-1.252179324626922607e+01 4.081307064741849899e+00 -8.886484443209496931e-02
-1.281341922283172607e+01 4.013069760054349899e+00 -8.118967353365746931e-02
-1.982709109783172607e+01 4.985237728804349899e+00 2.376027763821753069e-02
-1.448785769939422607e+01 4.019295345991849899e+00 -4.925302802584496931e-02
-1.425409305095672607e+01 3.852181088179349899e+00 -4.865793525240746931e-02
-1.409772098064422607e+01 3.700447689741849899e+00 -4.704050361178246931e-02
-1.944195926189422607e+01 5.678230892866849899e+00 8.098073662259253069e-02
-1.936651980876922607e+01 5.475838314741849899e+00 8.519216240384253069e-02
-2.074945437908172607e+01 5.532723080366849899e+00 1.158470696304050307e-01
-2.059149539470672607e+01 5.305306088179349899e+00 1.188530510757175307e-01
-1.464276492595672607e+01 4.180916439741849899e+00 1.123281181790503069e-02
-1.443585574626922607e+01 4.013802181929349899e+00 1.129384697415503069e-02
-1.419354617595672607e+01 3.846077572554349899e+00 1.085134209134253069e-02
-2.644305789470672607e+01 5.248665463179349899e+00 2.598900383804050307e-01
-1.943121707439422607e+01 5.678963314741849899e+00 1.663231438491550307e-01
-1.938348758220672607e+01 5.481819760054349899e+00 1.702293938491550307e-01
-1.935223758220672607e+01 5.289314877241849899e+00 1.749291008804050307e-01
-2.143048465251922607e+01 5.447762142866849899e+00 2.290672844741550307e-01
-1.468732059001922607e+01 4.189949642866849899e+00 7.498403252103003069e-02
-1.445172488689422607e+01 4.018196713179349899e+00 7.330556572415503069e-02
-1.417682254314422607e+01 3.845833431929349899e+00 7.054372490384253069e-02
-1.433295047283172607e+01 3.734017025679349899e+00 7.852407158353003069e-02
-1.289276492595672607e+01 3.517830502241849899e+00 -9.874244147445949693e-01
-1.294354617595672607e+01 3.405281674116849899e+00 -9.856238776352199693e-01
-1.298822391033172607e+01 3.291390072554349899e+00 -9.837012702133449693e-01
-1.303326785564422607e+01 3.176277767866849899e+00 -9.817634040024074693e-01
-1.307843387126922607e+01 3.060921322554349899e+00 -9.798102790024074693e-01
-1.312384402751922607e+01 2.944954525679349899e+00 -9.778418952133449693e-01
-1.316962039470672607e+01 2.827889095991849899e+00 -9.758582526352199693e-01
-1.320880496501922607e+01 2.710091244429349899e+00 -9.737677985336574693e-01
-1.413617312908172607e+01 3.672127377241849899e+00 -1.005963843455532469e+00
-1.418097293376922607e+01 3.546272885054349899e+00 -1.003415625682094969e+00
-1.423285281658172607e+01 3.420662533491849899e+00 -1.000943701853969969e+00
-1.430804812908172607e+01 3.295784603804349899e+00 -1.000073950877407469e+00
-1.443292605876922607e+01 3.174202572554349899e+00 -1.002011817088344969e+00
-1.456000125408172607e+01 3.050545345991849899e+00 -1.003980200877407469e+00
-1.466656863689422607e+01 2.922859799116849899e+00 -1.005017798533657469e+00
-1.477289187908172607e+01 2.793709408491849899e+00 -1.005658667674282469e+00
-1.458942019939422607e+01 3.729744564741849899e+00 -9.702582770492824693e-01
-1.654303348064422607e+01 3.814339291304349899e+00 -1.069760840525844969e+00
-1.489374148845672607e+01 3.490486752241849899e+00 -9.759192877914699693e-01
-1.651764285564422607e+01 3.502083431929349899e+00 -1.056348364939907469e+00
-1.655524051189422607e+01 3.351204525679349899e+00 -1.052320044627407469e+00
-1.659283816814422607e+01 3.199837338179349899e+00 -1.048276465525844969e+00
-1.662750613689422607e+01 3.047249447554349899e+00 -1.044034522166469969e+00
-1.665851199626922607e+01 2.894539486616849899e+00 -1.039609473338344969e+00
-1.829352176189422607e+01 4.186897885054349899e+00 -1.091306250682094969e+00
-1.879278934001922607e+01 4.070442806929349899e+00 -1.108686011424282469e+00
-1.489496219158172607e+01 3.492684017866849899e+00 -9.123816901352199693e-01
-1.993402469158172607e+01 3.820809017866849899e+00 -1.150022070994594969e+00
-2.006891238689422607e+01 3.643684994429349899e+00 -1.149213355174282469e+00
-1.997687137126922607e+01 3.447640072554349899e+00 -1.137540381541469969e+00
-1.988556277751922607e+01 3.253304135054349899e+00 -1.125974219432094969e+00
-1.979425418376922607e+01 3.061653744429349899e+00 -1.114972632518032469e+00
-1.898102176189422607e+01 4.274178158491849899e+00 -1.042600195994594969e+00
-1.973102176189422607e+01 4.179207455366849899e+00 -1.069028418650844969e+00
-1.489606082439422607e+01 3.495003353804349899e+00 -8.491950446274074693e-01
-2.014178836345672607e+01 3.843147885054349899e+00 -1.072675269236782469e+00
-2.031671512126922607e+01 3.667244564741849899e+00 -1.072980445018032469e+00
-2.022198855876922607e+01 3.468514095991849899e+00 -1.061597388377407469e+00
-2.012811648845672607e+01 3.271492611616849899e+00 -1.050321143260219969e+00
-2.160858523845672607e+01 3.160164486616849899e+00 -1.105405371775844969e+00
-1.973151004314422607e+01 4.369393002241849899e+00 -9.905066901352199693e-01
-1.993585574626922607e+01 4.205208431929349899e+00 -9.911017829086574693e-01
-1.489728152751922607e+01 3.497322689741849899e+00 -7.856574469711574693e-01
-2.035553348064422607e+01 3.865975033491849899e+00 -9.931922370102199693e-01
-2.057147586345672607e+01 3.691414486616849899e+00 -9.942603522445949693e-01
-2.108087527751922607e+01 3.534187924116849899e+00 -1.006391089549282469e+00
-2.170624148845672607e+01 3.373665463179349899e+00 -1.022534888377407469e+00
-2.218121707439422607e+01 3.193733822554349899e+00 -1.033109229197719969e+00
-1.996930301189422607e+01 4.401619564741849899e+00 -9.128089362289699693e-01
-2.022919070720672607e+01 4.241463314741849899e+00 -9.148688727524074693e-01
-1.489850223064422607e+01 3.499642025679349899e+00 -7.224555426742824693e-01
-2.075763309001922607e+01 3.906502377241849899e+00 -9.186835700180324693e-01
-2.122442996501922607e+01 3.748665463179349899e+00 -9.272284918930324693e-01
-2.179816043376922607e+01 3.589729916304349899e+00 -9.390235358383449693e-01
-2.235760867595672607e+01 3.417976986616849899e+00 -9.498877936508449693e-01
-2.246698367595672607e+01 3.212288510054349899e+00 -9.456000739242824693e-01
-2.047699344158172607e+01 4.467293392866849899e+00 -8.417334967758449693e-01
-2.073944461345672607e+01 4.302254330366849899e+00 -8.425422125961574693e-01
-1.489972293376922607e+01 3.501961361616849899e+00 -6.589179450180324693e-01
-2.149017703533172607e+01 3.977913510054349899e+00 -8.498359137680324693e-01
-2.196905887126922607e+01 3.813851010054349899e+00 -8.563819342758449693e-01
-2.247772586345672607e+01 3.642708431929349899e+00 -8.634314948227199693e-01
-2.275677859783172607e+01 3.446541439741849899e+00 -8.640723639633449693e-01
-2.318097293376922607e+01 3.253670345991849899e+00 -8.681159430649074693e-01
-2.098199832439422607e+01 4.532723080366849899e+00 -7.654090338852199693e-01
-2.124554812908172607e+01 4.362923275679349899e+00 -7.649360114242824693e-01
-1.490094363689422607e+01 3.504280697554349899e+00 -5.957160407211574693e-01
-2.220392215251922607e+01 4.047737728804349899e+00 -7.742591315414699693e-01
-2.261236941814422607e+01 3.870735775679349899e+00 -7.766700202133449693e-01
-2.311456668376922607e+01 3.692879330366849899e+00 -7.810798102524074693e-01
-2.349823367595672607e+01 3.496956478804349899e+00 -7.822699957992824693e-01
-2.386493289470672607e+01 3.293709408491849899e+00 -7.828193122055324693e-01
-2.149847781658172607e+01 4.599861752241849899e+00 -6.851630622055324693e-01
-2.193304812908172607e+01 4.444222103804349899e+00 -6.870093756820949693e-01
-1.490216434001922607e+01 3.506600033491849899e+00 -5.325141364242824693e-01
-2.270660769939422607e+01 4.098152767866849899e+00 -6.877875739242824693e-01
-2.317413699626922607e+01 3.921150814741849899e+00 -6.894202643539699693e-01
-2.374798953533172607e+01 3.742928158491849899e+00 -6.928229743149074693e-01
-2.416656863689422607e+01 3.542976986616849899e+00 -6.927924567367824693e-01
-2.475250613689422607e+01 3.344734799116849899e+00 -6.956916266586574693e-01
-1.407172000408172607e+01 3.682503353804349899e+00 -4.647040778305324693e-01
-2.241168582439422607e+01 4.501961361616849899e+00 -5.987372809555324693e-01
-1.490338504314422607e+01 3.508797299116849899e+00 -4.689612799789699693e-01
-2.323761355876922607e+01 4.151253353804349899e+00 -5.966010504867824693e-01
-2.380914676189422607e+01 3.977791439741849899e+00 -5.975928717758449693e-01
-2.437286746501922607e+01 3.792488705366849899e+00 -5.980658942367824693e-01
-2.490716922283172607e+01 3.593758236616849899e+00 -5.976844245102199693e-01
-2.541217410564422607e+01 3.384041439741849899e+00 -5.965400153305324693e-01
-2.194122684001922607e+01 4.661141049116849899e+00 -5.025763922836574693e-01
-2.289899051189422607e+01 4.560921322554349899e+00 -5.066962653305324693e-01
-1.490460574626922607e+01 3.511116635054349899e+00 -4.057441168930324693e-01
-2.386749637126922607e+01 4.213875424116849899e+00 -5.021949225570949693e-01
-2.440570437908172607e+01 4.031380306929349899e+00 -5.000586920883449693e-01
-1.580585086345672607e+01 3.163948666304349899e+00 -4.007087165024074693e-01
-1.617486941814422607e+01 3.040657650679349899e+00 -3.993049079086574693e-01
-1.656097781658172607e+01 2.911751400679349899e+00 -3.978400641586574693e-01
-1.395453250408172607e+01 3.672005306929349899e+00 -3.444953375961574693e-01
-1.427838504314422607e+01 3.580086361616849899e+00 -3.423896247055324693e-01
-1.461944949626922607e+01 3.483650814741849899e+00 -3.405127936508449693e-01
-1.497833621501922607e+01 3.381844174116849899e+00 -3.381934577133449693e-01
-1.529120242595672607e+01 3.269539486616849899e+00 -3.353553229477199693e-01
-1.563385379314422607e+01 3.153572689741849899e+00 -3.324866706039699693e-01
-1.600592410564422607e+01 3.032356869429349899e+00 -3.291602545883449693e-01
-1.641791141033172607e+01 2.906502377241849899e+00 -3.261695319320949693e-01
-1.392071902751922607e+01 3.669808041304349899e+00 -2.854438239242824693e-01
-1.427081668376922607e+01 3.581307064741849899e+00 -2.819800788070949693e-01
-1.463995730876922607e+01 3.487923275679349899e+00 -2.783332282211574693e-01
-1.494818484783172607e+01 3.381111752241849899e+00 -2.742896491195949693e-01
-1.537018191814422607e+01 3.278450619429349899e+00 -2.702613288070949693e-01
-1.574835574626922607e+01 3.164436947554349899e+00 -2.658820563461574693e-01
-1.614789187908172607e+01 3.043831478804349899e+00 -2.612739020492824693e-01
-1.654120242595672607e+01 2.915657650679349899e+00 -2.563910895492824693e-01
-1.399591434001922607e+01 3.681160580366849899e+00 -2.262397223617824693e-01
-1.431732547283172607e+01 3.588631283491849899e+00 -2.215552741195949693e-01
-1.465387332439422607e+01 3.491463314741849899e+00 -2.163215094711574693e-01
-1.494940555095672607e+01 3.383431088179349899e+00 -2.109504157211574693e-01
-1.531561648845672607e+01 3.276131283491849899e+00 -2.051825934555324693e-01
-1.565509402751922607e+01 3.159798275679349899e+00 -1.992774420883449693e-01
-1.601178348064422607e+01 3.037483822554349899e+00 -1.930671149399074693e-01
-1.638360965251922607e+01 2.909554135054349899e+00 -1.862006598617824693e-01
-1.387250125408172607e+01 3.667732845991849899e+00 -1.678748541977199693e-01
-1.419708621501922607e+01 3.576912533491849899e+00 -1.614661627914699693e-01
-1.457574832439422607e+01 3.485481869429349899e+00 -1.544776374008449693e-01
-1.497784793376922607e+01 3.388313900679349899e+00 -1.470618659164699693e-01
-1.533234012126922607e+01 3.279793392866849899e+00 -1.397376471664699693e-01
-1.572137820720672607e+01 3.167000424116849899e+00 -1.319251471664699693e-01
-1.613312137126922607e+01 3.047615658491849899e+00 -1.236548834945949693e-01
-1.656647098064422607e+01 2.922005306929349899e+00 -1.149573737289699693e-01
-1.398480594158172607e+01 3.683846127241849899e+00 -1.078010016586574693e-01
-1.435077273845672607e+01 3.596687924116849899e+00 -9.977487861178246931e-02
-2.622674930095672607e+01 4.707893978804349899e+00 4.014821709134253069e-02
-2.691559207439422607e+01 4.520516049116849899e+00 5.664296806790503069e-02
-2.761334598064422607e+01 4.321297299116849899e+00 7.364125908353003069e-02
-2.831207644939422607e+01 4.108650814741849899e+00 9.112783134915503069e-02
-2.906549441814422607e+01 3.885140072554349899e+00 1.097740715835300307e-01
-2.994183719158172607e+01 3.654793392866849899e+00 1.311821526382175307e-01
-1.409650027751922607e+01 3.699837338179349899e+00 -4.704050361178246931e-02
-2.633636844158172607e+01 4.976692806929349899e+00 1.495079583022800307e-01
-2.698639285564422607e+01 4.791512142866849899e+00 1.682457512710300307e-01
-2.770697391033172607e+01 4.599617611616849899e+00 1.885857170913425307e-01
-2.843304812908172607e+01 4.395027767866849899e+00 2.094444817397800307e-01
-2.914801394939422607e+01 4.175545345991849899e+00 2.305779045913425307e-01
-3.002338016033172607e+01 3.951668392866849899e+00 2.549767083022800307e-01
-3.091119754314422607e+01 3.712410580366849899e+00 2.801384514663425307e-01
-2.644720828533172607e+01 5.248299252241849899e+00 2.599968499038425307e-01
-2.711590945720672607e+01 5.070442806929349899e+00 2.818626946304050307e-01
-2.775836551189422607e+01 4.876717220991849899e+00 3.029503411147800307e-01
-2.855072391033172607e+01 4.683968197554349899e+00 3.282494133804050307e-01
-2.925494754314422607e+01 4.469246517866849899e+00 3.521599358413425307e-01
-3.009662234783172607e+01 4.251106869429349899e+00 3.794579094741550307e-01
-3.009149539470672607e+01 3.960701595991849899e+00 3.894676750991550307e-01
-3.189068973064422607e+01 3.771004330366849899e+00 4.389214104507175307e-01
-1.433429324626922607e+01 3.733650814741849899e+00 7.856984795071753069e-02
-2.781830203533172607e+01 5.155403744429349899e+00 4.188408440444675307e-01
-2.856842410564422607e+01 4.966194760054349899e+00 4.463829583022800307e-01
-2.934772098064422607e+01 4.764168392866849899e+00 4.751610344741550307e-01
-2.994867312908172607e+01 4.532723080366849899e+00 4.997734612319675307e-01
-3.089459598064422607e+01 4.315682064741849899e+00 5.338158196304050307e-01
-3.184637820720672607e+01 4.079598080366849899e+00 5.686363762710300307e-01
-3.277130496501922607e+01 3.824471127241849899e+00 6.040520256850925307e-01
-1.320904910564422607e+01 2.709725033491849899e+00 -9.737677985336574693e-01
-1.327069461345672607e+01 2.592293392866849899e+00 -9.727607184555324693e-01
-1.332965457439422607e+01 2.473518978804349899e+00 -9.718604499008449693e-01
-1.338922488689422607e+01 2.353279720991849899e+00 -9.709296637680324693e-01
-1.344928348064422607e+01 2.232308041304349899e+00 -9.699988776352199693e-01
-1.350983035564422607e+01 2.110115658491849899e+00 -9.690680915024074693e-01
-1.357110965251922607e+01 1.986458431929349899e+00 -9.681067877914699693e-01
-1.362335574626922607e+01 1.862068783491849899e+00 -9.669166022445949693e-01
-1.477362430095672607e+01 2.793221127241849899e+00 -1.005673926463344969e+00
-1.485528934001922607e+01 2.661018978804349899e+00 -1.005246680369594969e+00
-1.488544070720672607e+01 2.525643002241849899e+00 -1.001569312205532469e+00
-1.490716922283172607e+01 2.388924252241849899e+00 -9.977393561508449693e-01
-1.492877566814422607e+01 2.252327572554349899e+00 -9.938941413070949693e-01
-1.495038211345672607e+01 2.115486752241849899e+00 -9.900489264633449693e-01
-1.496344363689422607e+01 1.977669369429349899e+00 -9.860511237289699693e-01
-1.498529422283172607e+01 1.840096127241849899e+00 -9.821753913070949693e-01
-1.665863406658172607e+01 2.894051205366849899e+00 -1.039594214549282469e+00
-1.668085086345672607e+01 2.740486752241849899e+00 -1.035077612986782469e+00
-1.670306766033172607e+01 2.586678158491849899e+00 -1.030561011424282469e+00
-1.672552859783172607e+01 2.431770931929349899e+00 -1.025998633494594969e+00
-1.674786746501922607e+01 2.277107845991849899e+00 -1.021451514353969969e+00
-1.677032840251922607e+01 2.122078549116849899e+00 -1.016889136424282469e+00
-1.679291141033172607e+01 1.966194760054349899e+00 -1.012311499705532469e+00
-1.683404910564422607e+01 1.809944760054349899e+00 -1.008634131541469969e+00
-1.979364383220672607e+01 3.061043392866849899e+00 -1.114911597361782469e+00
-1.970477664470672607e+01 2.871468197554349899e+00 -1.103574317088344969e+00
-1.757550418376922607e+01 2.617561947554349899e+00 -9.990058356430324693e-01
-1.968024051189422607e+01 2.500862728804349899e+00 -1.088956397166469969e+00
-1.970978152751922607e+01 2.316902767866849899e+00 -1.083570044627407469e+00
-1.973932254314422607e+01 2.132332455366849899e+00 -1.078168433299282469e+00
-1.976910769939422607e+01 1.946663510054349899e+00 -1.072721045603969969e+00
-1.978656375408172607e+01 1.761360775679349899e+00 -1.067197363963344969e+00
-2.161297976970672607e+01 3.159798275679349899e+00 -1.105557959666469969e+00
-2.200922000408172607e+01 2.972786556929349899e+00 -1.114682715525844969e+00
-1.757721316814422607e+01 2.620247494429349899e+00 -9.238410407211574693e-01
