-7.043638080358505249e+00 6.076563954353332520e+00 -3.390168622136116028e-01
-7.096616595983505249e+00 6.033961415290832520e+00 -3.384522870182991028e-01
-7.142148822546005249e+00 5.984034657478332520e+00 -3.370332196354866028e-01
-7.189023822546005249e+00 5.934962391853332520e+00 -3.355378583073616028e-01
-7.233213275671005249e+00 5.883814930915832520e+00 -3.339662030339241028e-01
-7.274961322546005249e+00 5.830226063728332520e+00 -3.323335126042366028e-01
-7.319150775671005249e+00 5.779078602790832520e+00 -3.307771161198616028e-01
-7.363218158483505249e+00 5.728053212165832520e+00 -3.292207196354866028e-01
-7.538266986608505249e+00 6.555445790290832520e+00 -3.537721112370491028e-01
-7.595517963171005249e+00 6.508937001228332520e+00 -3.530702069401741028e-01
-7.643369525671005249e+00 6.453272938728332520e+00 -3.513764813542366028e-01
-7.691343158483505249e+00 6.397486805915832520e+00 -3.496674969792366028e-01
-7.739072650671005249e+00 6.341944813728332520e+00 -3.479737713932991028e-01
-7.786924213171005249e+00 6.286158680915832520e+00 -3.462800458073616028e-01
-7.834653705358505249e+00 6.230616688728332520e+00 -3.445863202214241028e-01
-7.882383197546005249e+00 6.175196766853332520e+00 -3.428925946354866028e-01
-8.091855853796005249e+00 7.091334462165832520e+00 -3.682527020573616028e-01
-8.161191791296005249e+00 7.047389149665832520e+00 -3.679017499089241028e-01
-8.213926166296005249e+00 6.987452626228332520e+00 -3.661317303776741028e-01
-8.266782611608505249e+00 6.927271962165832520e+00 -3.643464520573616028e-01
-8.319394916296005249e+00 6.867457509040832520e+00 -3.625764325261116028e-01
-8.372129291296005249e+00 6.807276844978332520e+00 -3.607911542057991028e-01
-8.424741595983505249e+00 6.747462391853332520e+00 -3.590211346745491028e-01
-8.474424213171005249e+00 6.685084462165832520e+00 -3.572205975651741028e-01
-8.660459369421005249e+00 7.641871571540832520e+00 -3.768128827214241028e-01
-8.728818744421005249e+00 7.587916493415832520e+00 -3.759583905339241028e-01
-8.785703510046005249e+00 7.523097157478332520e+00 -3.740357831120491028e-01
-8.842710345983505249e+00 7.457911610603332520e+00 -3.721131756901741028e-01
-8.899595111608505249e+00 7.393092274665832520e+00 -3.702058270573616028e-01
-8.956601947546005249e+00 7.327906727790832520e+00 -3.682679608464241028e-01
-9.013364642858505249e+00 7.263087391853332520e+00 -3.663606122136116028e-01
-9.073911517858505249e+00 7.201563954353332520e+00 -3.647736981511116028e-01
-9.464658588171005249e+00 8.420313954353332520e+00 -3.987245038151741028e-01
-9.513974994421005249e+00 8.335597157478332520e+00 -3.951692059636116028e-01
-9.025449603796005249e+00 7.748438954353332520e+00 -3.464173749089241028e-01
-9.712461322546005249e+00 8.258814930915832520e+00 -3.970307782292366028e-01
-9.812803119421005249e+00 8.219996571540832520e+00 -3.979768231511116028e-01
-9.914365619421005249e+00 8.180812001228332520e+00 -3.989228680729866028e-01
-1.001629433035850525e+01 8.141383290290832520e+00 -3.998841717839241028e-01
-1.009026893973350525e+01 8.076686024665832520e+00 -3.988160565495491028e-01
-1.397369179129600525e+01 1.277981102466583252e+01 -7.065247967839241028e-01
-1.418096718192100525e+01 1.277346336841583252e+01 -7.119874432682991028e-01
-9.025449603796005249e+00 7.749781727790832520e+00 -2.972535565495491028e-01
-1.433074745535850525e+01 1.250625145435333252e+01 -7.017945721745491028e-01
-1.457220253348350525e+01 1.252480614185333252e+01 -7.095460370182991028e-01
-1.485308632254600525e+01 1.257351219654083252e+01 -7.200440838932991028e-01
-1.088616737723350525e+01 8.903346180915832520e+00 -4.114350751042366028e-01
-1.096600136160850525e+01 8.831202626228332520e+00 -4.097871258854866028e-01
-1.425506386160850525e+01 1.305410301685333252e+01 -6.457490399479866028e-01
-1.451067909598350525e+01 1.308913719654083252e+01 -6.538209393620491028e-01
-9.025327533483505249e+00 7.751124501228332520e+00 -2.478455975651741028e-01
-1.432244667410850525e+01 1.250088036060333252e+01 -6.189088299870491028e-01
-1.530792030692100525e+01 1.319253075122833252e+01 -6.782044842839241028e-01
-1.487676796317100525e+01 1.259694969654083252e+01 -6.374024823307991028e-01
-1.492730507254600525e+01 1.243923485279083252e+01 -6.311006024479866028e-01
-1.632427772879600525e+01 1.344094383716583252e+01 -7.162751629948616028e-01
-1.442291054129600525e+01 1.321865379810333252e+01 -5.733155682682991028e-01
-1.468389686942100525e+01 1.325612938404083252e+01 -5.806245282292366028e-01
-9.025327533483505249e+00 7.752467274665832520e+00 -1.987122967839241028e-01
-1.432513222098350525e+01 1.250576317310333252e+01 -5.373048260807991028e-01
-1.549090370535850525e+01 1.336049950122833252e+01 -6.026887372136116028e-01
-1.490044960379600525e+01 1.262038719654083252e+01 -5.549439862370491028e-01
-1.493267616629600525e+01 1.244631493091583252e+01 -5.473451092839241028e-01
-1.664776405692100525e+01 1.372182762622833252e+01 -6.444062665104866028e-01
-1.459417518973350525e+01 1.338662254810333252e+01 -4.994019940495491028e-01
-1.486053261160850525e+01 1.342666161060333252e+01 -5.059174969792366028e-01
-9.025327533483505249e+00 7.753810048103332520e+00 -1.495789960026741028e-01
-1.433184608817100525e+01 1.251418602466583252e+01 -4.558991864323616028e-01
-1.585967811942100525e+01 1.369668114185333252e+01 -5.357179120182991028e-01
-1.491460976004600525e+01 1.263552391529083252e+01 -4.716767743229866028e-01
-1.493646034598350525e+01 1.245205223560333252e+01 -4.638947919011116028e-01
-1.694695839285850525e+01 1.398195946216583252e+01 -5.677766278386116028e-01
-1.477081093192100525e+01 1.355984032154083252e+01 -4.231538251042366028e-01
-1.504290565848350525e+01 1.360244286060333252e+01 -4.288300946354866028e-01
-9.025205463171005249e+00 7.755152821540832520e+00 -1.002015545964241028e-01
-1.433855995535850525e+01 1.252273094654083252e+01 -3.740052655339241028e-01
-1.548797401785850525e+01 1.336281883716583252e+01 -4.253205731511116028e-01
-1.491912636160850525e+01 1.264187157154083252e+01 -3.872804120182991028e-01
-1.493401893973350525e+01 1.245241844654083252e+01 -3.796510174870491028e-01
-1.479168495535850525e+01 1.213015282154083252e+01 -3.642701581120491028e-01
-1.495123085379600525e+01 1.373672020435333252e+01 -3.453034833073616028e-01
-1.493414101004600525e+01 1.350136864185333252e+01 -3.361024335026741028e-01
-9.025205463171005249e+00 7.756495594978332520e+00 -5.109877139329910278e-02
-1.434417518973350525e+01 1.253017723560333252e+01 -2.924165204167366028e-01
-1.552227577567100525e+01 1.339638817310333252e+01 -3.385590985417366028e-01
-1.492352089285850525e+01 1.264821922779083252e+01 -3.033112958073616028e-01
-1.460149940848350525e+01 1.216372215747833252e+01 -2.812165692448616028e-01
-1.728973183035850525e+01 1.428261864185333252e+01 -3.919343426823616028e-01
-1.388250526785850525e+01 1.270498192310333252e+01 -2.126893475651741028e-01
-1.496514686942100525e+01 1.353335106372833252e+01 -2.500581219792366028e-01
-9.025205463171005249e+00 7.757838368415832520e+00 -1.995988190174102783e-03
-1.434869179129600525e+01 1.253664696216583252e+01 -2.107362225651741028e-01
-1.640582069754600525e+01 1.419875633716583252e+01 -2.849091961979866028e-01
-1.492803749442100525e+01 1.265468895435333252e+01 -2.193116620182991028e-01
-1.492925819754600525e+01 1.245302879810333252e+01 -2.117738202214241028e-01
-1.517303261160850525e+01 1.246328270435333252e+01 -2.139863446354866028e-01
-1.529583534598350525e+01 1.407497704029083252e+01 -1.817140057682991028e-01
-1.521343788504600525e+01 1.377212059497833252e+01 -1.716432049870491028e-01
-9.025083392858505249e+00 7.759181141853332520e+00 4.735093563795089722e-02
-1.435333046317100525e+01 1.254323875904083252e+01 -1.285829022526741028e-01
-1.536175331473350525e+01 1.325612938404083252e+01 -1.557130292057991028e-01
-1.438226112723350525e+01 1.217104637622833252e+01 -1.167725995182991028e-01
-1.439043983817100525e+01 1.198366844654083252e+01 -1.107911542057991028e-01
-1.513140663504600525e+01 1.242983543872833252e+01 -1.282166913151741028e-01
-1.526836952567100525e+01 1.405092918872833252e+01 -9.063429385423660278e-02
-1.572857460379600525e+01 1.426491844654083252e+01 -9.769911319017410278e-02
-9.025083392858505249e+00 7.760523915290832520e+00 9.642320126295089722e-02
-9.107602924108505249e+00 7.715235829353332520e+00 9.767442196607589722e-02
-1.545562538504600525e+01 1.334353172779083252e+01 -7.075209170579910278e-02
-1.431841835379600525e+01 1.211660301685333252e+01 -3.423780947923660278e-02
-1.460845741629600525e+01 1.217690575122833252e+01 -3.622145205736160278e-02
-1.453082069754600525e+01 1.191506493091583252e+01 -2.813429385423660278e-02
-1.553069862723350525e+01 1.430739891529083252e+01 -6.909318268299102783e-03
-1.585162147879600525e+01 1.438466942310333252e+01 -8.084245026111602783e-03
-9.025083392858505249e+00 7.761866688728332520e+00 1.457548663020133972e-01
-9.104551166296005249e+00 7.713893055915832520e+00 1.472044512629508972e-01
-1.552300819754600525e+01 1.340713036060333252e+01 1.637559384107589722e-02
-1.514495643973350525e+01 1.285512840747833252e+01 2.968125790357589722e-02
-1.492205604910850525e+01 1.245400536060333252e+01 3.949265927076339722e-02
-1.805694374442100525e+01 1.495485985279083252e+01 -1.716322451829910278e-02
-1.401702675223350525e+01 1.284426414966583252e+01 1.091795489192008972e-01
-1.597613319754600525e+01 1.450576317310333252e+01 8.253770321607589722e-02
-9.024961322546005249e+00 7.763209462165832520e+00 1.948118731379508972e-01
-9.101621478796005249e+00 7.712428212165832520e+00 1.964140459895133972e-01
-1.702129921317100525e+01 1.476699364185333252e+01 8.281236141920089722e-02
-1.742461952567100525e+01 1.488845360279083252e+01 8.246140927076339722e-02
-1.492034706473350525e+01 1.245485985279083252e+01 1.230040118098258972e-01
-1.529314979910850525e+01 1.257656395435333252e+01 1.229124590754508972e-01
-8.338559955358505249e+00 7.347071766853332520e+00 2.458982989192008972e-01
-8.565000385046005249e+00 7.449122548103332520e+00 2.460203692317008972e-01
-8.802549213171005249e+00 7.556056141853332520e+00 2.461271807551383972e-01
-9.052671283483505249e+00 7.668849110603332520e+00 2.462492510676383972e-01
-9.296689838171005249e+00 7.770533680915832520e+00 2.465391680598258972e-01
-9.544004291296005249e+00 7.869166493415832520e+00 2.469053789973258972e-01
-9.801816791296005249e+00 7.971949696540832520e+00 2.473021075129508972e-01
-1.007195839285850525e+01 8.079737782478332520e+00 2.477140948176383972e-01
-8.245054095983505249e+00 7.257838368415832520e+00 2.918882891535758972e-01
-8.466245502233505249e+00 7.356349110603332520e+00 2.930632159113883972e-01
-8.648130267858505249e+00 7.412867665290832520e+00 2.944517657160758972e-01
-8.942685931921005249e+00 7.568873524665832520e+00 2.953672930598258972e-01
-9.198301166296005249e+00 7.682643055915832520e+00 2.967405840754508972e-01
-9.444028705358505249e+00 7.781520009040832520e+00 2.984953448176383972e-01
-9.714536517858505249e+00 7.896998524665832520e+00 3.000364825129508972e-01
-9.998960345983505249e+00 8.018336415290832520e+00 3.016539141535758972e-01
-8.251401752233505249e+00 7.265162587165832520e+00 3.369627520442008972e-01
-8.489316791296005249e+00 7.379542469978332520e+00 3.390226885676383972e-01
-8.639585345983505249e+00 7.406153798103332520e+00 3.410826250910758972e-01
-9.005674213171005249e+00 7.628321766853332520e+00 3.439970538020133972e-01
-9.269712299108505249e+00 7.748927235603332520e+00 3.466215655207633972e-01
-9.533017963171005249e+00 7.862208485603332520e+00 3.493528887629508972e-01
-9.808652728796005249e+00 7.980982899665832520e+00 3.521910235285758972e-01
-1.009930214285850525e+01 8.106349110603332520e+00 3.554716631770133972e-01
-6.918882220983505249e+00 5.345118641853332520e+00 -3.175019696354866028e-01
-6.960264056921005249e+00 5.298121571540832520e+00 -3.160676434636116028e-01
-6.999448627233505249e+00 5.249171376228332520e+00 -3.145722821354866028e-01
-7.038633197546005249e+00 5.200099110603332520e+00 -3.130769208073616028e-01
-7.077817767858505249e+00 5.151148915290832520e+00 -3.115815594792366028e-01
-7.117002338171005249e+00 5.102076649665832520e+00 -3.100861981511116028e-01
-7.156186908483505249e+00 5.053248524665832520e+00 -3.085908368229866028e-01
-7.192930072546005249e+00 5.002589344978332520e+00 -3.070496991276741028e-01
-7.363218158483505249e+00 5.727809071540832520e+00 -3.292054608464241028e-01
-7.405332416296005249e+00 5.675074696540832520e+00 -3.275880292057991028e-01
-7.447568744421005249e+00 5.622340321540832520e+00 -3.259858563542366028e-01
-7.492368549108505249e+00 5.571559071540832520e+00 -3.244294598698616028e-01
-7.534482806921005249e+00 5.518824696540832520e+00 -3.228272870182991028e-01
-7.574155658483505249e+00 5.463770985603332520e+00 -3.211488202214241028e-01
-7.616269916296005249e+00 5.411036610603332520e+00 -3.195313885807991028e-01
-7.658384174108505249e+00 5.358424305915832520e+00 -3.179292157292366028e-01
-7.882505267858505249e+00 6.174952626228332520e+00 -3.428773358464241028e-01
-7.928037494421005249e+00 6.117701649665832520e+00 -3.411225751042366028e-01
-7.973691791296005249e+00 6.060450673103332520e+00 -3.393830731511116028e-01
-8.019468158483505249e+00 6.003077626228332520e+00 -3.376283124089241028e-01
-8.065122455358505249e+00 5.945826649665832520e+00 -3.358888104557991028e-01
-8.110898822546005249e+00 5.888453602790832520e+00 -3.341340497136116028e-01
-8.156431049108505249e+00 5.831324696540832520e+00 -3.323792889714241028e-01
-8.202085345983505249e+00 5.774195790290832520e+00 -3.306397870182991028e-01
-8.474546283483505249e+00 6.684840321540832520e+00 -3.572053387761116028e-01
-8.528379291296005249e+00 6.626002430915832520e+00 -3.554505780339241028e-01
-8.579160541296005249e+00 6.564601063728332520e+00 -3.536500409245491028e-01
-8.630308002233505249e+00 6.503077626228332520e+00 -3.518495038151741028e-01
-8.681089252233505249e+00 6.441676259040832520e+00 -3.500642254948616028e-01
-8.732236713171005249e+00 6.380152821540832520e+00 -3.482636883854866028e-01
-8.783140033483505249e+00 6.318751454353332520e+00 -3.464631512761116028e-01
-8.830991595983505249e+00 6.255030751228332520e+00 -3.446473553776741028e-01
-9.074155658483505249e+00 7.201441884040832520e+00 -3.647736981511116028e-01
-9.135557025671005249e+00 7.140528798103332520e+00 -3.633698895573616028e-01
-9.197202533483505249e+00 7.079493641853332520e+00 -3.619813397526741028e-01
-9.259092181921005249e+00 7.018092274665832520e+00 -3.605775311589241028e-01
-9.320859760046005249e+00 6.956812977790832520e+00 -3.591737225651741028e-01
-9.382871478796005249e+00 6.895167469978332520e+00 -3.577546551823616028e-01
-9.444883197546005249e+00 6.833766102790832520e+00 -3.563508465886116028e-01
-9.507016986608505249e+00 6.772120594978332520e+00 -3.549470379948616028e-01
-1.009051308035850525e+01 8.076441884040832520e+00 -3.988007977604866028e-01
-1.016436561942100525e+01 8.011378407478332520e+00 -3.972444012761116028e-01
-1.022759804129600525e+01 7.937281727790832520e+00 -3.951234295964241028e-01
-1.026910194754600525e+01 7.844752430915832520e+00 -3.912782147526741028e-01
-1.031023964285850525e+01 7.753077626228332520e+00 -3.874787762761116028e-01
-1.035137733817100525e+01 7.661524891853332520e+00 -3.836640790104866028e-01
-1.039227089285850525e+01 7.570582509040832520e+00 -3.798798993229866028e-01
-1.042754921317100525e+01 7.475978016853332520e+00 -3.760041669011116028e-01
-1.096636757254600525e+01 8.830958485603332520e+00 -4.097871258854866028e-01
-1.104559120535850525e+01 8.758082509040832520e+00 -4.081696942448616028e-01
-1.113689979910850525e+01 8.694728016853332520e+00 -4.074220135807991028e-01
-1.122894081473350525e+01 8.630885243415832520e+00 -4.066590741276741028e-01
-1.132110390067100525e+01 8.566920399665832520e+00 -4.059113934636116028e-01
-1.141412147879600525e+01 8.502467274665832520e+00 -4.051484540104866028e-01
-1.150713905692100525e+01 8.437892079353332520e+00 -4.043702557682991028e-01
-1.157586464285850525e+01 8.354029774665832520e+00 -4.018830731511116028e-01
-1.632635292410850525e+01 1.344192039966583252e+01 -7.163819745182991028e-01
-1.664581093192100525e+01 1.349526512622833252e+01 -7.270478680729866028e-01
-1.690838417410850525e+01 1.349514305591583252e+01 -7.331056073307991028e-01
-1.271709999442100525e+01 9.849146962165832520e+00 -4.452180340886116028e-01
-1.163470253348350525e+01 8.820704579353332520e+00 -3.665132001042366028e-01
-1.272894081473350525e+01 9.543116688728332520e+00 -4.301576092839241028e-01
-1.285210976004600525e+01 9.484278798103332520e+00 -4.306458905339241028e-01
-1.298357948660850525e+01 9.430567860603332520e+00 -4.312409833073616028e-01
-1.664959511160850525e+01 1.372268211841583252e+01 -6.444825604557991028e-01
-1.455962929129600525e+01 1.173354637622833252e+01 -5.055665448307991028e-01
-1.720770058035850525e+01 1.374685204029083252e+01 -6.575898602604866028e-01
-1.754754433035850525e+01 1.380056297779083252e+01 -6.674317792057991028e-01
-1.163470253348350525e+01 8.822535634040832520e+00 -3.051118329167366028e-01
-1.833563026785850525e+01 1.397561180591583252e+01 -6.926087811589241028e-01
-1.867413124442100525e+01 1.400905907154083252e+01 -7.014588788151741028e-01
-1.904424843192100525e+01 1.406057274341583252e+01 -7.118195965886116028e-01
-1.694830116629600525e+01 1.398232567310333252e+01 -5.678071454167366028e-01
-1.726251015067100525e+01 1.402236473560333252e+01 -5.752076581120491028e-01
-1.756573280692100525e+01 1.404738914966583252e+01 -5.817384198307991028e-01
-1.787725624442100525e+01 1.407314598560333252e+01 -5.884522870182991028e-01
-1.163458046317100525e+01 8.824366688728332520e+00 -2.437257245182991028e-01
-1.853753456473350525e+01 1.413820946216583252e+01 -6.031617596745491028e-01
-1.890191444754600525e+01 1.418899071216583252e+01 -6.119203045964241028e-01
-1.940508827567100525e+01 1.433938133716583252e+01 -6.275910809636116028e-01
-1.479217323660850525e+01 1.212990868091583252e+01 -3.642701581120491028e-01
-1.744036659598350525e+01 1.417568504810333252e+01 -4.870271161198616028e-01
-1.499407753348350525e+01 1.191079246997833252e+01 -3.580598309636116028e-01
-1.508855995535850525e+01 1.179494774341583252e+01 -3.546113446354866028e-01
-1.163458046317100525e+01 8.826197743415832520e+00 -1.820191815495491028e-01
-1.876189979910850525e+01 1.431875145435333252e+01 -5.118684247136116028e-01
-1.926922401785850525e+01 1.447768700122833252e+01 -5.257081463932991028e-01
-1.975579628348350525e+01 1.461049950122833252e+01 -5.381898358464241028e-01
-1.729144081473350525e+01 1.428322899341583252e+01 -3.919801190495491028e-01
-1.762115272879600525e+01 1.433156883716583252e+01 -3.973817303776741028e-01
-1.490325722098350525e+01 1.183767235279083252e+01 -2.719239667057991028e-01
-1.539153847098350525e+01 1.204531395435333252e+01 -2.851838544011116028e-01
-1.163458046317100525e+01 8.828028798103332520e+00 -1.206483319401741028e-01
-1.913165077567100525e+01 1.461416161060333252e+01 -4.245118573307991028e-01
-1.964166054129600525e+01 1.477041161060333252e+01 -4.360169842839241028e-01
-2.011407265067100525e+01 1.488747704029083252e+01 -4.456147626042366028e-01
-1.517327675223350525e+01 1.246267235279083252e+01 -2.139558270573616028e-01
-1.463677772879600525e+01 1.180825340747833252e+01 -1.867646649479866028e-01
-1.504961952567100525e+01 1.196181786060333252e+01 -1.956452801823616028e-01
-1.490606483817100525e+01 1.165053856372833252e+01 -1.834992840886116028e-01
-1.163445839285850525e+01 8.829737782478332520e+00 -5.929274111986160278e-02
-1.950091347098350525e+01 1.490932762622833252e+01 -3.328370526432991028e-01
-1.994830116629600525e+01 1.501211082935333252e+01 -3.391236737370491028e-01
-2.039361366629600525e+01 1.510451805591583252e+01 -3.456086590886116028e-01
-1.512994179129600525e+01 1.242788231372833252e+01 -1.281556561589241028e-01
-1.469097694754600525e+01 1.185647118091583252e+01 -1.078309491276741028e-01
-1.502581581473350525e+01 1.194448387622833252e+01 -1.119203045964241028e-01
-1.545660194754600525e+01 1.210366356372833252e+01 -1.186952069401741028e-01
-1.163445839285850525e+01 8.831568837165832520e+00 2.368025481700897217e-03
-1.969915565848350525e+01 1.506948387622833252e+01 -2.312287762761116028e-01
-2.014593300223350525e+01 1.516909325122833252e+01 -2.360963299870491028e-01
-1.948394569754600525e+01 1.441250145435333252e+01 -2.089051678776741028e-01
-1.453118690848350525e+01 1.191482079029083252e+01 -2.813429385423660278e-02
-1.537981972098350525e+01 1.244216454029083252e+01 -4.436964541673660278e-02
-1.473431190848350525e+01 1.170424950122833252e+01 -2.227491885423660278e-02
-1.545733436942100525e+01 1.210671532154083252e+01 -3.432936221361160278e-02
-1.163445839285850525e+01 8.833399891853332520e+00 6.370835751295089722e-02
-1.915850624442100525e+01 1.464492332935333252e+01 -1.103944256901741028e-01
-1.929437050223350525e+01 1.451003563404083252e+01 -1.063508465886116028e-01
-1.943035683035850525e+01 1.437478172779083252e+01 -1.017579510807991028e-01
-1.805816444754600525e+01 1.495498192310333252e+01 -1.716322451829910278e-02
-1.489837440848350525e+01 1.203701317310333252e+01 5.044846981763839722e-02
-1.497247108817100525e+01 1.190493309497833252e+01 5.427842587232589722e-02
-1.921014198660850525e+01 1.518227684497833252e+01 -1.922316104173660278e-02
-1.163445839285850525e+01 8.835230946540832520e+00 1.253538653254508972e-01
-2.007085976004600525e+01 1.537026512622833252e+01 -2.125257998704910278e-02
-2.057037147879600525e+01 1.550600731372833252e+01 -2.314466983079910278e-02
-2.102496132254600525e+01 1.559756004810333252e+01 -2.401442080736160278e-02
-1.529290565848350525e+01 1.257570946216583252e+01 1.229277178645133972e-01
-1.482598671317100525e+01 1.197805321216583252e+01 1.335630938410758972e-01
-1.789141640067100525e+01 1.433901512622833252e+01 9.839158505201339722e-02
-1.936114296317100525e+01 1.530898582935333252e+01 8.543687313795089722e-02
-1.163433632254600525e+01 8.837062001228332520e+00 1.866484209895133972e-01
-2.027984413504600525e+01 1.553896629810333252e+01 8.639817684888839722e-02
-2.078375038504600525e+01 1.567556297779083252e+01 8.668809384107589722e-02
-1.246978554129600525e+01 9.056300282478332520e+00 1.876402422785758972e-01
-1.007366737723350525e+01 8.080714344978332520e+00 2.476988360285758972e-01
-1.035674843192100525e+01 8.193385243415832520e+00 2.483397051692008972e-01
-1.065423378348350525e+01 8.311915516853332520e+00 2.489958330988883972e-01
-1.096844276785850525e+01 8.436915516853332520e+00 2.496977373957633972e-01
-1.129839882254600525e+01 8.568263173103332520e+00 2.504301592707633972e-01
-1.164776405692100525e+01 8.707423329353332520e+00 2.512083575129508972e-01
-1.198016151785850525e+01 8.826075673103332520e+00 2.522306963801383972e-01
-1.231243690848350525e+01 8.937892079353332520e+00 2.534056231379508972e-01
-1.000066933035850525e+01 8.019435048103332520e+00 3.016539141535758972e-01
-1.030084022879600525e+01 8.147730946540832520e+00 3.035765215754508972e-01
-1.061773476004600525e+01 8.283106923103332520e+00 3.056211993098258972e-01
-1.095330604910850525e+01 8.426173329353332520e+00 3.074675127863883972e-01
-1.130804237723350525e+01 8.577784657478332520e+00 3.097410723567008972e-01
-1.168621620535850525e+01 8.739771962165832520e+00 3.124723955988883972e-01
-1.203753456473350525e+01 8.872828602790832520e+00 3.150511309504508972e-01
-1.239739784598350525e+01 9.004908680915832520e+00 3.177519366145133972e-01
-1.010113319754600525e+01 8.107569813728332520e+00 3.554869219660758972e-01
-1.040691933035850525e+01 8.239161610603332520e+00 3.586149737238883972e-01
-1.070623573660850525e+01 8.358546376228332520e+00 3.621092364192008972e-01
-1.101763710379600525e+01 8.480738759040832520e+00 3.657560870051383972e-01
-1.134429726004600525e+01 8.608912587165832520e+00 3.696013018488883972e-01
-1.168987831473350525e+01 8.744410634040832520e+00 3.736601397395133972e-01
-1.201263222098350525e+01 8.855250477790832520e+00 3.776884600520133972e-01
-1.234100136160850525e+01 8.963770985603332520e+00 3.822050616145133972e-01
-7.193052142858505249e+00 5.002345204353332520e+00 -3.070496991276741028e-01
-7.232847064733505249e+00 4.954005360603332520e+00 -3.056001141667366028e-01
-7.274595111608505249e+00 4.906886219978332520e+00 -3.045167401432991028e-01
-7.316465228796005249e+00 4.859522938728332520e+00 -3.034333661198616028e-01
-7.358213275671005249e+00 4.812281727790832520e+00 -3.023499920964241028e-01
-7.400205463171005249e+00 4.764796376228332520e+00 -3.012666180729866028e-01
-7.442197650671005249e+00 4.717433094978332520e+00 -3.001832440495491028e-01
-7.481870502233505249e+00 4.668360829353332520e+00 -2.990693524479866028e-01
-7.658506244421005249e+00 5.358180165290832520e+00 -3.179292157292366028e-01
-7.698545306921005249e+00 5.303858876228332520e+00 -3.162660077214241028e-01
-7.738584369421005249e+00 5.249659657478332520e+00 -3.146027997136116028e-01
-7.781431049108505249e+00 5.197169423103332520e+00 -3.130006268620491028e-01
-7.821592181921005249e+00 5.142848134040832520e+00 -3.113526776432991028e-01
-7.859067767858505249e+00 5.086329579353332520e+00 -3.096284344792366028e-01
-7.899106830358505249e+00 5.032008290290832520e+00 -3.079652264714241028e-01
-7.939267963171005249e+00 4.977687001228332520e+00 -3.063172772526741028e-01
-8.202207416296005249e+00 5.773951649665832520e+00 -3.306397870182991028e-01
-8.245664447546005249e+00 5.715113759040832520e+00 -3.288392499089241028e-01
-8.289121478796005249e+00 5.656275868415832520e+00 -3.270387127995491028e-01
-8.332822650671005249e+00 5.597315907478332520e+00 -3.252381756901741028e-01
-8.376279681921005249e+00 5.538478016853332520e+00 -3.234528973698616028e-01
-8.419980853796005249e+00 5.479395985603332520e+00 -3.216371014714241028e-01
-8.463437885046005249e+00 5.420558094978332520e+00 -3.198518231511116028e-01
-8.507016986608505249e+00 5.361720204353332520e+00 -3.180512860417366028e-01
-8.831113666296005249e+00 6.254786610603332520e+00 -3.446473553776741028e-01
-8.883359760046005249e+00 6.194361805915832520e+00 -3.428620770573616028e-01
-8.932554095983505249e+00 6.131495594978332520e+00 -3.410462811589241028e-01
-8.981870502233505249e+00 6.068507313728332520e+00 -3.392304852604866028e-01
-9.031064838171005249e+00 6.005519032478332520e+00 -3.374146893620491028e-01
-9.084043353796005249e+00 5.944728016853332520e+00 -3.358735516667366028e-01
-9.131528705358505249e+00 5.880519032478332520e+00 -3.339204266667366028e-01
-9.175229877233505249e+00 5.813746571540832520e+00 -3.318757489323616028e-01
-9.507139056921005249e+00 6.771876454353332520e+00 -3.549317792057991028e-01
-9.567319720983505249e+00 6.708521962165832520e+00 -3.534821942448616028e-01
-9.627622455358505249e+00 6.645167469978332520e+00 -3.520326092839241028e-01
-9.688413470983505249e+00 6.581446766853332520e+00 -3.505830243229866028e-01
-9.748960345983505249e+00 6.517726063728332520e+00 -3.491181805729866028e-01
-9.809995502233505249e+00 6.453639149665832520e+00 -3.476533368229866028e-01
-9.870908588171005249e+00 6.389674305915832520e+00 -3.461884930729866028e-01
-9.931943744421005249e+00 6.325465321540832520e+00 -3.447236493229866028e-01
-1.042754921317100525e+01 7.475611805915832520e+00 -3.759889081120491028e-01
-1.047198280692100525e+01 7.388453602790832520e+00 -3.723573163151741028e-01
-1.052947792410850525e+01 7.311305165290832520e+00 -3.700074627995491028e-01
-1.058721718192100525e+01 7.233912587165832520e+00 -3.676423504948616028e-01
-1.064483436942100525e+01 7.156764149665832520e+00 -3.652924969792366028e-01
-1.070257362723350525e+01 7.079249501228332520e+00 -3.629273846745491028e-01
-1.076019081473350525e+01 7.001978993415832520e+00 -3.605622723698616028e-01
-1.081731972098350525e+01 6.924464344978332520e+00 -3.584565594792366028e-01
-1.157610878348350525e+01 8.353785634040832520e+00 -4.018830731511116028e-01
-1.164105018973350525e+01 8.267115712165832520e+00 -3.992280438542366028e-01
-1.170599159598350525e+01 8.180323719978332520e+00 -3.965882733464241028e-01
-1.177117714285850525e+01 8.093287587165832520e+00 -3.939332440495491028e-01
-1.183624061942100525e+01 8.006495594978332520e+00 -3.912782147526741028e-01
-1.190765175223350525e+01 7.923731923103332520e+00 -3.890199139714241028e-01
-1.198626503348350525e+01 7.846095204353332520e+00 -3.872498944401741028e-01
-1.206500038504600525e+01 7.768214344978332520e+00 -3.854646161198616028e-01
-1.298443397879600525e+01 9.430689930915832520e+00 -4.312715008854866028e-01
-1.310528358817100525e+01 9.367579579353332520e+00 -4.312104657292366028e-01
-1.322613319754600525e+01 9.303248524665832520e+00 -4.307221844792366028e-01
-1.334185585379600525e+01 9.233302235603332520e+00 -4.301881268620491028e-01
-1.345794472098350525e+01 9.163111805915832520e+00 -4.296388104557991028e-01
-1.357525429129600525e+01 9.092188954353332520e+00 -4.291047528386116028e-01
-1.368609413504600525e+01 9.016261219978332520e+00 -4.285249188542366028e-01
-1.378985390067100525e+01 8.934596180915832520e+00 -4.271058514714241028e-01
-1.904730018973350525e+01 1.406203758716583252e+01 -7.119721844792366028e-01
-1.944830116629600525e+01 1.413003075122833252e+01 -7.238587811589241028e-01
-1.982537636160850525e+01 1.417275536060333252e+01 -7.340516522526741028e-01
-2.021941933035850525e+01 1.422024071216583252e+01 -7.448243573307991028e-01
-1.429412636160850525e+01 9.760768055915832520e+00 -4.067506268620491028e-01
-1.567986854910850525e+01 1.056692039966583252e+01 -4.746980145573616028e-01
-1.586651405692100525e+01 1.051723778247833252e+01 -4.764069989323616028e-01
-1.574322304129600525e+01 1.025588524341583252e+01 -4.614533856511116028e-01
-1.940826210379600525e+01 1.434084618091583252e+01 -6.277284100651741028e-01
-1.979095253348350525e+01 1.439040672779083252e+01 -6.367921307682991028e-01
-1.997491249442100525e+01 1.428640282154083252e+01 -6.354951336979866028e-01
-2.065655311942100525e+01 1.454055321216583252e+01 -6.589936688542366028e-01
-1.429412636160850525e+01 9.763087391853332520e+00 -3.330506756901741028e-01
-2.172747597098350525e+01 1.480214989185333252e+01 -6.898164227604866028e-01
-2.212908729910850525e+01 1.482595360279083252e+01 -6.980866864323616028e-01
-1.574322304129600525e+01 1.025844871997833252e+01 -3.810243085026741028e-01
-1.975811561942100525e+01 1.461147606372833252e+01 -5.382508710026741028e-01
-2.015142616629600525e+01 1.466433250904083252e+01 -5.460481122136116028e-01
-1.997125038504600525e+01 1.428701317310333252e+01 -5.277986004948616028e-01
-2.127679237723350525e+01 1.499367821216583252e+01 -5.757569745182991028e-01
-1.429412636160850525e+01 9.765528798103332520e+00 -2.589539960026741028e-01
-2.208648476004600525e+01 1.505715477466583252e+01 -5.899018719792366028e-01
-2.248968300223350525e+01 1.507766258716583252e+01 -5.964936688542366028e-01
-1.574322304129600525e+01 1.026101219654083252e+01 -3.001679852604866028e-01
-2.011663612723350525e+01 1.488857567310333252e+01 -4.456757977604866028e-01
-2.062811073660850525e+01 1.502578270435333252e+01 -4.563874676823616028e-01
-1.996758827567100525e+01 1.428774559497833252e+01 -4.207276776432991028e-01
-2.146148476004600525e+01 1.513125145435333252e+01 -4.692353680729866028e-01
-1.429424843192100525e+01 9.767848134040832520e+00 -1.852693036198616028e-01
-2.231658729910850525e+01 1.522194969654083252e+01 -4.817323163151741028e-01
-2.272064003348350525e+01 1.524038231372833252e+01 -4.866914227604866028e-01
-1.574310097098350525e+01 1.026357567310333252e+01 -2.197694256901741028e-01
-2.039617714285850525e+01 1.510561668872833252e+01 -3.456696942448616028e-01
-2.083855995535850525e+01 1.518728172779083252e+01 -3.516206219792366028e-01
-1.996404823660850525e+01 1.428835594654083252e+01 -3.137177899479866028e-01
-2.164947304129600525e+01 1.527126610279083252e+01 -3.607453778386116028e-01
-1.429424843192100525e+01 9.770167469978332520e+00 -1.115998700261116028e-01
-2.254522499442100525e+01 1.538589012622833252e+01 -3.709687665104866028e-01
-2.295794472098350525e+01 1.540749657154083252e+01 -3.738984540104866028e-01
-1.574310097098350525e+01 1.026613914966583252e+01 -1.389588788151741028e-01
-1.948467811942100525e+01 1.441225731372833252e+01 -2.089051678776741028e-01
-1.965081581473350525e+01 1.429836571216583252e+01 -2.055787518620491028e-01
-1.996038612723350525e+01 1.428896629810333252e+01 -2.062043622136116028e-01
-1.998638710379600525e+01 1.406801903247833252e+01 -1.988801434636116028e-01
-1.429424843192100525e+01 9.772486805915832520e+00 -3.754896670579910278e-02
-2.032610878348350525e+01 1.383498680591583252e+01 -1.920899823307991028e-01
-2.049712929129600525e+01 1.371755516529083252e+01 -1.886567547917366028e-01
-1.574310097098350525e+01 1.026870262622833252e+01 -5.857557803392410278e-02
-1.943084511160850525e+01 1.437429344654083252e+01 -1.017426922917366028e-01
-1.956854042410850525e+01 1.423977196216583252e+01 -9.805006533861160278e-02
-1.973455604910850525e+01 1.412551414966583252e+01 -9.441847354173660278e-02
-2.212750038504600525e+01 1.562539207935333252e+01 -1.390504315495491028e-01
-1.429424843192100525e+01 9.774806141853332520e+00 3.608994930982589722e-02
-2.301873573660850525e+01 1.572524559497833252e+01 -1.415070965886116028e-01
-2.046087440848350525e+01 1.369594871997833252e+01 -8.065504580736160278e-02
-1.574932655692100525e+01 1.027541649341583252e+01 2.208238095045089722e-02
-2.102728065848350525e+01 1.559841454029083252e+01 -2.402967959642410278e-02
-2.142803749442100525e+01 1.564089500904083252e+01 -2.344984561204910278e-02
-1.995306190848350525e+01 1.429030907154083252e+01 8.059553802013397217e-03
-2.236395058035850525e+01 1.580092918872833252e+01 -2.380079776048660278e-02
-1.429437050223350525e+01 9.777247548103332520e+00 1.101103350520133972e-01
-2.024065956473350525e+01 1.378188621997833252e+01 2.366929501295089722e-02
-2.043523964285850525e+01 1.368178856372833252e+01 2.734666317701339722e-02
-1.575689491629600525e+01 1.028310692310333252e+01 1.023436114192008972e-01
-1.247198280692100525e+01 9.057520985603332520e+00 1.876249834895133972e-01
-1.283038124442100525e+01 9.179835438728332520e+00 1.870909258723258972e-01
-1.320660194754600525e+01 9.308009266853332520e+00 1.868925616145133972e-01
-1.360455116629600525e+01 9.443385243415832520e+00 1.866789385676383972e-01
-1.402288612723350525e+01 9.585841298103332520e+00 1.864653155207633972e-01
-1.446893104910850525e+01 9.738429188728332520e+00 1.862059161067008972e-01
-1.484356483817100525e+01 9.833521962165832520e+00 1.868315264582633972e-01
-1.523968300223350525e+01 9.935816884040832520e+00 1.878691241145133972e-01
-1.231451210379600525e+01 8.938990712165832520e+00 2.534056231379508972e-01
-1.266290077567100525e+01 9.055934071540832520e+00 2.548857256770133972e-01
-1.303814491629600525e+01 9.185450673103332520e+00 2.563963457942008972e-01
-1.345562538504600525e+01 9.337428212165832520e+00 2.578917071223258972e-01
-1.389654335379600525e+01 9.497950673103332520e+00 2.594786211848258972e-01
-1.436626991629600525e+01 9.668849110603332520e+00 2.611570879817008972e-01
-1.478619179129600525e+01 9.796412587165832520e+00 2.632475420832633972e-01
-1.520867714285850525e+01 9.917262196540832520e+00 2.655211016535758972e-01
-1.239971718192100525e+01 9.006129384040832520e+00 3.177519366145133972e-01
-1.277984413504600525e+01 9.145899891853332520e+00 3.208799883723258972e-01
-1.318169960379600525e+01 9.293727040290832520e+00 3.241911455988883972e-01
-1.358782753348350525e+01 9.435694813728332520e+00 3.273039385676383972e-01
-1.399871620535850525e+01 9.573023915290832520e+00 3.309507891535758972e-01
-1.440398964285850525e+01 9.697657704353332520e+00 3.351774737238883972e-01
-1.481072792410850525e+01 9.815699696540832520e+00 3.391600176692008972e-01
-1.520171913504600525e+01 9.915064930915832520e+00 3.432646319270133972e-01
-1.234307655692100525e+01 8.964869618415832520e+00 3.822203204035758972e-01
-1.268853554129600525e+01 9.079249501228332520e+00 3.865690752863883972e-01
-1.305071815848350525e+01 9.199000477790832520e+00 3.914824053645133972e-01
-1.343304237723350525e+01 9.325343251228332520e+00 3.966703936457633972e-01
-1.387042030692100525e+01 9.483790516853332520e+00 4.023771807551383972e-01
-1.435540565848350525e+01 9.665919423103332520e+00 4.085722491145133972e-01
-1.478875526785850525e+01 9.802882313728332520e+00 4.145689532160758972e-01
-1.522442421317100525e+01 9.932887196540832520e+00 4.211454913020133972e-01
-7.481992572546005249e+00 4.668238759040832520e+00 -2.990540936589241028e-01
-7.524473041296005249e+00 4.620875477790832520e+00 -2.979707196354866028e-01
-7.564634174108505249e+00 4.571803212165832520e+00 -2.968568280339241028e-01
-7.605161517858505249e+00 4.522608876228332520e+00 -2.957276776432991028e-01
-7.645566791296005249e+00 4.473414540290832520e+00 -2.945985272526741028e-01
-7.686094135046005249e+00 4.423853993415832520e+00 -2.934693768620491028e-01
-7.726621478796005249e+00 4.374537587165832520e+00 -2.923402264714241028e-01
-7.764951556921005249e+00 4.323634266853332520e+00 -2.911805585026741028e-01
-7.939267963171005249e+00 4.977442860603332520e+00 -3.063020184636116028e-01
-7.980893939733505249e+00 4.924098134040832520e+00 -3.049287274479866028e-01
-8.024473041296005249e+00 4.871852040290832520e+00 -3.037385419011116028e-01
-8.070981830358505249e+00 4.821070790290832520e+00 -3.025788739323616028e-01
-8.114927142858505249e+00 4.768580555915832520e+00 -3.013734295964241028e-01
-8.156308978796005249e+00 4.714259266853332520e+00 -3.001222088932991028e-01
-8.200254291296005249e+00 4.661524891853332520e+00 -2.989167645573616028e-01
-8.244443744421005249e+00 4.608790516853332520e+00 -2.977113202214241028e-01
-8.507139056921005249e+00 5.361476063728332520e+00 -3.180360272526741028e-01
-8.548398822546005249e+00 5.301051259040832520e+00 -3.161897137761116028e-01
-8.589780658483505249e+00 5.240626454353332520e+00 -3.143586590886116028e-01
-8.631284564733505249e+00 5.179957509040832520e+00 -3.124970868229866028e-01
-8.672666400671005249e+00 5.119410634040832520e+00 -3.106507733464241028e-01
-8.714170306921005249e+00 5.058741688728332520e+00 -3.088044598698616028e-01
-8.755674213171005249e+00 4.998194813728332520e+00 -3.069581463932991028e-01
-8.799375385046005249e+00 4.938868641853332520e+00 -3.052949383854866028e-01
-9.175474017858505249e+00 5.813502430915832520e+00 -3.318604901432991028e-01
-9.224668353796005249e+00 5.750270009040832520e+00 -3.299378827214241028e-01
-9.270078510046005249e+00 5.684474110603332520e+00 -3.279237225651741028e-01
-9.315610736608505249e+00 5.618312001228332520e+00 -3.259095624089241028e-01
-9.361020892858505249e+00 5.552394032478332520e+00 -3.238954022526741028e-01
-9.406553119421005249e+00 5.486231923103332520e+00 -3.218812420964241028e-01
-9.452085345983505249e+00 5.420191884040832520e+00 -3.198670819401741028e-01
-9.493467181921005249e+00 5.351710438728332520e+00 -3.177766278386116028e-01
-9.932187885046005249e+00 6.325343251228332520e+00 -3.447236493229866028e-01
-9.991269916296005249e+00 6.259547352790832520e+00 -3.432130292057991028e-01
-1.005047401785850525e+01 6.193629384040832520e+00 -3.417024090886116028e-01
-1.011004433035850525e+01 6.127223134040832520e+00 -3.401917889714241028e-01
-1.016961464285850525e+01 6.060938954353332520e+00 -3.386659100651741028e-01
-1.022955116629600525e+01 5.994288563728332520e+00 -3.371400311589241028e-01
-1.028497108817100525e+01 5.924830555915832520e+00 -3.352937176823616028e-01
-1.033526405692100525e+01 5.852320790290832520e+00 -3.330811932682991028e-01
-1.081768593192100525e+01 6.924220204353332520e+00 -3.584718182682991028e-01
-1.088934120535850525e+01 6.856227040290832520e+00 -3.569154217839241028e-01
-1.095599159598350525e+01 6.784449696540832520e+00 -3.552674725651741028e-01
-1.102313026785850525e+01 6.712306141853332520e+00 -3.536195233464241028e-01
-1.109905800223350525e+01 6.645655751228332520e+00 -3.525666669011116028e-01
-1.117803749442100525e+01 6.579981923103332520e+00 -3.516663983464241028e-01
-1.125726112723350525e+01 6.514063954353332520e+00 -3.507661297917366028e-01
-1.133025917410850525e+01 6.443995594978332520e+00 -3.497132733464241028e-01
-1.206524452567100525e+01 7.767970204353332520e+00 -3.854646161198616028e-01
-1.214214882254600525e+01 7.688380360603332520e+00 -3.836488202214241028e-01
-1.221941933035850525e+01 7.608546376228332520e+00 -3.818177655339241028e-01
-1.229705604910850525e+01 7.528224110603332520e+00 -3.799714520573616028e-01
-1.237469276785850525e+01 7.447901844978332520e+00 -3.781403973698616028e-01
-1.245293983817100525e+01 7.366969227790832520e+00 -3.762940838932991028e-01
-1.253118690848350525e+01 7.286036610603332520e+00 -3.744325116276741028e-01
-1.260967811942100525e+01 7.204859852790832520e+00 -3.725709393620491028e-01
-1.378985390067100525e+01 8.933985829353332520e+00 -4.270753338932991028e-01
-1.384002479910850525e+01 8.816065907478332520e+00 -4.225739911198616028e-01
-1.393084511160850525e+01 8.725001454353332520e+00 -4.200715497136116028e-01
-1.402386268973350525e+01 8.634181141853332520e+00 -4.180116131901741028e-01
-1.411688026785850525e+01 8.543360829353332520e+00 -4.159516766667366028e-01
-1.421063026785850525e+01 8.451930165290832520e+00 -4.138764813542366028e-01
-1.429168495535850525e+01 8.352687001228332520e+00 -4.114655926823616028e-01
-1.438567909598350525e+01 8.260890126228332520e+00 -4.093903973698616028e-01
-1.574297890067100525e+01 1.025503075122833252e+01 -4.614076092839241028e-01
-1.616338905692100525e+01 1.035915672779083252e+01 -4.754762127995491028e-01
-1.627642616629600525e+01 1.025490868091583252e+01 -4.730958417057991028e-01
-1.639031776785850525e+01 1.014992821216583252e+01 -4.706849530339241028e-01
-1.650445351004600525e+01 1.004470360279083252e+01 -4.682893231511116028e-01
-1.661370643973350525e+01 9.935328602790832520e+00 -4.655732586979866028e-01
-1.670318397879600525e+01 9.813746571540832520e+00 -4.618653729557991028e-01
-1.679278358817100525e+01 9.692164540290832520e+00 -4.581574872136116028e-01
-1.574297890067100525e+01 1.025759422779083252e+01 -3.809785321354866028e-01
-2.190960487723350525e+01 1.417373192310333252e+01 -6.652802899479866028e-01
-2.342193397879600525e+01 1.491274559497833252e+01 -7.252168133854866028e-01
-1.700604042410850525e+01 1.054641258716583252e+01 -4.165315106511116028e-01
-2.423846229910850525e+01 1.490481102466583252e+01 -7.395905926823616028e-01
-2.462518104910850525e+01 1.487697899341583252e+01 -7.453431561589241028e-01
-2.501946815848350525e+01 1.484853661060333252e+01 -7.512025311589241028e-01
-2.539214882254600525e+01 1.480129539966583252e+01 -7.558259442448616028e-01
-1.574297890067100525e+01 1.026015770435333252e+01 -3.001374676823616028e-01
-2.190655311942100525e+01 1.417544090747833252e+01 -5.506257489323616028e-01
-2.371648964285850525e+01 1.510879051685333252e+01 -6.151704266667366028e-01
-1.700616249442100525e+01 1.054934227466583252e+01 -3.300599530339241028e-01
-2.456841835379600525e+01 1.511611473560333252e+01 -6.275147870182991028e-01
-2.499261268973350525e+01 1.510769188404083252e+01 -6.331757977604866028e-01
-2.541436561942100525e+01 1.509182274341583252e+01 -6.384705975651741028e-01
-2.584454140067100525e+01 1.507424461841583252e+01 -6.438264325261116028e-01
-1.574285683035850525e+01 1.026272118091583252e+01 -2.197389081120491028e-01
-2.190362343192100525e+01 1.417702782154083252e+01 -4.366425946354866028e-01
-2.191070351004600525e+01 1.393569481372833252e+01 -4.272431805729866028e-01
-1.700640663504600525e+01 1.055227196216583252e+01 -2.440766766667366028e-01
-2.483929237723350525e+01 1.529043114185333252e+01 -5.104951336979866028e-01
-2.526495155692100525e+01 1.527993309497833252e+01 -5.144624188542366028e-01
-2.569280800223350525e+01 1.526467430591583252e+01 -5.182465985417366028e-01
-2.614459022879600525e+01 1.525698387622833252e+01 -5.225953534245491028e-01
-1.574285683035850525e+01 1.026528465747833252e+01 -1.389283612370491028e-01
-2.190057167410850525e+01 1.417873680591583252e+01 -3.221101239323616028e-01
-2.182354530692100525e+01 1.388247215747833252e+01 -3.113221600651741028e-01
-1.700665077567100525e+01 1.055520164966583252e+01 -1.581086590886116028e-01
-2.207134804129600525e+01 1.355483543872833252e+01 -3.008546307682991028e-01
-2.221563515067100525e+01 1.340273582935333252e+01 -2.961854413151741028e-01
-2.600127968192100525e+01 1.545583641529083252e+01 -3.952302411198616028e-01
-2.251397499442100525e+01 1.310354149341583252e+01 -2.864808514714241028e-01
-1.574285683035850525e+01 1.026784813404083252e+01 -5.856031924486160278e-02
-2.189751991629600525e+01 1.418044579029083252e+01 -2.082337811589241028e-01
-2.453314003348350525e+01 1.565334618091583252e+01 -2.653779461979866028e-01
-1.700689491629600525e+01 1.055813133716583252e+01 -7.168287783861160278e-02
-2.539092811942100525e+01 1.564577782154083252e+01 -2.672700360417366028e-01
-2.219109901785850525e+01 1.339126121997833252e+01 -1.818818524479866028e-01
-2.233514198660850525e+01 1.323940575122833252e+01 -1.770295575261116028e-01
-2.250701698660850525e+01 1.310317528247833252e+01 -1.727876141667366028e-01
-1.574554237723350525e+01 1.027224266529083252e+01 2.217393368482589722e-02
-2.189459022879600525e+01 1.418215477466583252e+01 -9.441847354173660278e-02
-2.480755409598350525e+01 1.583645164966583252e+01 -1.431397870182991028e-01
-1.700701698660850525e+01 1.056118309497833252e+01 1.426988095045089722e-02
-2.248858436942100525e+01 1.382473289966583252e+01 -8.221144229173660278e-02
-2.615814003348350525e+01 1.584426414966583252e+01 -1.415376141667366028e-01
-2.503851112723350525e+01 1.488125145435333252e+01 -1.123933270573616028e-01
-2.249993690848350525e+01 1.310280907154083252e+01 -5.859083682298660278e-02
-1.575311073660850525e+01 1.027993309497833252e+01 1.024199053645133972e-01
-2.189153847098350525e+01 1.418386375904083252e+01 1.996140927076339722e-02
-2.166058143973350525e+01 1.378713524341583252e+01 3.041367977857589722e-02
-1.700726112723350525e+01 1.056411278247833252e+01 1.006651446223258972e-01
-2.201531776785850525e+01 1.353078758716583252e+01 3.981309384107589722e-02
-2.214581093192100525e+01 1.337087547779083252e+01 4.519944638013839722e-02
-2.231890663504600525e+01 1.323708641529083252e+01 5.003648251295089722e-02
-2.518951210379600525e+01 1.470656883716583252e+01 2.194505184888839722e-02
-1.524224647879600525e+01 9.936915516853332520e+00 1.878691241145133972e-01
-1.565887245535850525e+01 1.004506981372833252e+01 1.883421465754508972e-01
-1.609502968192100525e+01 1.015798485279083252e+01 1.892729327082633972e-01
-1.655486854910850525e+01 1.027688133716583252e+01 1.902647539973258972e-01
-1.703704628348350525e+01 1.040163719654083252e+01 1.913176104426383972e-01
-1.741924843192100525e+01 1.045485985279083252e+01 1.933622881770133972e-01
-1.784002479910850525e+01 1.052517235279083252e+01 1.953154131770133972e-01
-1.830022987723350525e+01 1.061135399341583252e+01 1.976805254817008972e-01
-1.521136268973350525e+01 9.918482899665832520e+00 2.655211016535758972e-01
-1.565643104910850525e+01 1.004604637622833252e+01 2.681913897395133972e-01
-1.612554726004600525e+01 1.018056786060333252e+01 2.709990069270133972e-01
-1.662249550223350525e+01 1.032302391529083252e+01 2.739897295832633972e-01
-1.711651405692100525e+01 1.045449364185333252e+01 2.771940752863883972e-01
-1.752142128348350525e+01 1.052089989185333252e+01 2.808409258723258972e-01
-1.794366249442100525e+01 1.059096825122833252e+01 2.846251055598258972e-01
-1.838372597098350525e+01 1.066408836841583252e+01 2.885618731379508972e-01
-1.520428261160850525e+01 9.916163563728332520e+00 3.432798907160758972e-01
-1.561309608817100525e+01 1.001980125904083252e+01 3.479033038020133972e-01
-1.604168495535850525e+01 1.012844383716583252e+01 3.527708575129508972e-01
-1.649432167410850525e+01 1.024355614185333252e+01 3.574400469660758972e-01
-1.698943886160850525e+01 1.037734520435333252e+01 3.628569170832633972e-01
-1.742120155692100525e+01 1.046181786060333252e+01 3.687468096613883972e-01
-1.788213905692100525e+01 1.055666649341583252e+01 3.744535967707633972e-01
-1.836480507254600525e+01 1.065590965747833252e+01 3.804197832942008972e-01
-1.522723183035850525e+01 9.934229969978332520e+00 4.211760088801383972e-01
