-8.632943421602249146e+00 7.463230341672897339e+00 1.936072491807863116e-01
-1.392981842160224915e+01 1.228598424792289734e+01 1.139563702745363116e-01
-1.650000885128974915e+01 1.444650670886039734e+01 7.934943668078631163e-02
-1.689136627316474915e+01 1.456821081042289734e+01 7.875434390734881163e-02
-1.448951080441474915e+01 1.220431920886039734e+01 1.188697003526613116e-01
-1.765955474972724915e+01 1.477377721667289734e+01 7.834235660266131163e-02
-1.440235260128974915e+01 1.174313756823539734e+01 1.292151593370363116e-01
-8.280038148164749146e+00 7.241306513547897339e+00 2.416113995714113116e-01
-8.504281312227249146e+00 7.342502802610397339e+00 2.416419171495363116e-01
-8.739632874727249146e+00 7.448581904172897339e+00 2.416724347276613116e-01
-8.961922913789749146e+00 7.536716669797897339e+00 2.419318341417238116e-01
-9.194344788789749146e+00 7.629612177610397339e+00 2.422064923448488116e-01
-9.438363343477249146e+00 7.727024286985397339e+00 2.424811505479738116e-01
-9.693002015352249146e+00 7.828586786985397339e+00 2.427710675401613116e-01
-9.959847718477249146e+00 7.935154169797897339e+00 2.430762433214113116e-01
-8.187264710664749146e+00 7.153171747922897339e+00 2.868384503526613116e-01
-8.406380921602249146e+00 7.250827997922897339e+00 2.879370831651613116e-01
-8.635995179414749146e+00 7.353244990110397339e+00 2.890967511339113116e-01
-8.865487366914749146e+00 7.449680536985397339e+00 2.900885724229738116e-01
-9.092904359102249146e+00 7.539402216672897339e+00 2.914160870714113116e-01
-9.330819398164749146e+00 7.632908076047897339e+00 2.930640362901613116e-01
-9.579476624727249146e+00 7.731052607297897339e+00 2.945288800401613116e-01
-9.858651429414749146e+00 7.849827021360397339e+00 2.960242413682863116e-01
-8.170296937227249146e+00 7.137912958860397339e+00 3.311041974229738116e-01
-8.247689515352249146e+00 7.101658076047897339e+00 3.325690411729738116e-01
-8.652596741914749146e+00 7.369968622922897339e+00 3.353461407823488116e-01
-8.896493226289749146e+00 7.479343622922897339e+00 3.377265118760988116e-01
-9.141976624727249146e+00 7.585056513547897339e+00 3.401831769151613116e-01
-9.400765687227249146e+00 7.696384638547897339e+00 3.427619122667238116e-01
-9.671883851289749146e+00 7.813083857297897339e+00 3.454627179307863116e-01
-9.957772523164749146e+00 7.936374872922897339e+00 3.485907696885988116e-01
-6.956673890352249146e+00 5.342502802610397339e+00 -3.209191180067136884e-01
-6.997445374727249146e+00 5.295261591672897339e+00 -3.194695330457761884e-01
-7.035897523164749146e+00 5.246067255735397339e+00 -3.179741717176511884e-01
-7.074593812227249146e+00 5.196750849485397339e+00 -3.164635516004636884e-01
-7.113045960664749146e+00 5.147556513547897339e+00 -3.149681902723386884e-01
-7.151742249727249146e+00 5.098240107297897339e+00 -3.134728289442136884e-01
-7.190194398164749146e+00 5.049167841672897339e+00 -3.119622088270261884e-01
-7.226327210664749146e+00 4.998264521360397339e+00 -3.104210711317136884e-01
-7.399056702852249146e+00 5.721653193235397339e+00 -3.325157976942136884e-01
-7.440560609102249146e+00 5.668674677610397339e+00 -3.308983660535886884e-01
-7.481942445039749146e+00 5.615696161985397339e+00 -3.292809344129636884e-01
-7.526131898164749146e+00 5.564548701047897339e+00 -3.277245379285886884e-01
-7.567513734102249146e+00 5.511570185422897339e+00 -3.261071062879636884e-01
-7.606454163789749146e+00 5.456272333860397339e+00 -3.244133807020261884e-01
-7.647835999727249146e+00 5.403415888547897339e+00 -3.227959490614011884e-01
-7.689095765352249146e+00 5.350437372922897339e+00 -3.211785174207761884e-01
-7.915658265352249146e+00 6.164524286985397339e+00 -3.460503435926511884e-01
-7.960580140352249146e+00 6.106907099485397339e+00 -3.442955828504636884e-01
-8.005379945039749146e+00 6.049411982297897339e+00 -3.425408221082761884e-01
-8.050301820039749146e+00 5.991672724485397339e+00 -3.407708025770261884e-01
-8.095101624727249146e+00 5.934177607297897339e+00 -3.390160418348386884e-01
-8.140023499727249146e+00 5.876438349485397339e+00 -3.372612810926511884e-01
-8.184701234102249146e+00 5.819065302610397339e+00 -3.355065203504636884e-01
-8.229501038789749146e+00 5.761570185422897339e+00 -3.337517596082761884e-01
-8.438851624727249146e+00 6.613010615110397339e+00 -3.541527605848386884e-01
-8.491341859102249146e+00 6.554538935422897339e+00 -3.524132586317136884e-01
-8.540902405977249146e+00 6.493381708860397339e+00 -3.506432391004636884e-01
-8.590707093477249146e+00 6.432102411985397339e+00 -3.488579607801511884e-01
-8.641366273164749146e+00 6.371921747922897339e+00 -3.471794939832761884e-01
-8.696542054414749146e+00 6.314914911985397339e+00 -3.458672381239011884e-01
-8.751595765352249146e+00 6.257908076047897339e+00 -3.445702410535886884e-01
-8.803353577852249146e+00 6.198337763547897339e+00 -3.432122088270261884e-01
-9.071053773164749146e+00 7.155124872922897339e+00 -3.651238299207761884e-01
-9.131234437227249146e+00 7.093967646360397339e+00 -3.637200213270261884e-01
-9.191537171602249146e+00 7.032688349485397339e+00 -3.623314715223386884e-01
-9.252084046602249146e+00 6.971042841672897339e+00 -3.609124041395261884e-01
-9.312508851289749146e+00 6.909641474485397339e+00 -3.595085955457761884e-01
-9.373177796602249146e+00 6.847873896360397339e+00 -3.581047869520261884e-01
-9.433846741914749146e+00 6.786228388547897339e+00 -3.566857195692136884e-01
-9.494515687227249146e+00 6.724460810422897339e+00 -3.552819109754636884e-01
-1.001722076535224915e+01 7.965915888547897339e+00 -3.939324236707761884e-01
-1.008912017941474915e+01 7.901096552610397339e+00 -3.923912859754636884e-01
-1.015747955441474915e+01 7.832981318235397339e+00 -3.908348894910886884e-01
-1.022608307003974915e+01 7.764621943235397339e+00 -3.892632342176511884e-01
-1.029456451535224915e+01 7.696262568235397339e+00 -3.877068377332761884e-01
-1.033777740597724915e+01 7.607395380735397339e+00 -3.841667986707761884e-01
-1.037732818722724915e+01 7.516452997922897339e+00 -3.803978777723386884e-01
-1.041797760128974915e+01 7.427097529172897339e+00 -3.770409441785886884e-01
-1.163611724972724915e+01 9.352756708860397339e+00 -4.609948016004636884e-01
-1.160816314816474915e+01 9.180759638547897339e+00 -4.511071062879636884e-01
-1.117408111691474915e+01 8.675754755735397339e+00 -4.117852068739011884e-01
-1.121888092160224915e+01 8.573703974485397339e+00 -4.077111101942136884e-01
-1.135498932003974915e+01 8.545749872922897339e+00 -4.101982928114011884e-01
-1.144251373410224915e+01 8.477390497922897339e+00 -4.091454363660886884e-01
-1.150794342160224915e+01 8.391819208860397339e+00 -4.065361834364011884e-01
-1.157337310910224915e+01 8.306247919797897339e+00 -4.039269305067136884e-01
-1.619947174191474915e+01 1.326022741198539734e+01 -7.098351336317136884e-01
-1.645264557003974915e+01 1.325973913073539734e+01 -7.162743426160886884e-01
-1.670093658566474915e+01 1.325095006823539734e+01 -7.216912127332761884e-01
-1.121888092160224915e+01 8.575412958860397339e+00 -3.484001971082761884e-01
-1.255298736691474915e+01 9.505710810422897339e+00 -4.288903094129636884e-01
-1.267383697628974915e+01 9.447239130735397339e+00 -4.290734148817136884e-01
-1.277845123410224915e+01 9.375461786985397339e+00 -4.285240984754636884e-01
-1.288977935910224915e+01 9.308201044797897339e+00 -4.280052996473386884e-01
-1.424793365597724915e+01 1.159213659167289734e+01 -4.976769305067136884e-01
-1.674939849972724915e+01 1.351218053698539734e+01 -6.428795672254636884e-01
-1.706336334347724915e+01 1.355356237292289734e+01 -6.517296648817136884e-01
-1.121888092160224915e+01 8.577121943235397339e+00 -2.894249773817136884e-01
-1.779944732785224915e+01 1.370505163073539734e+01 -6.750145769910886884e-01
-1.812586334347724915e+01 1.373691198229789734e+01 -6.836968279676511884e-01
-1.845972564816474915e+01 1.376962682604789734e+01 -6.925621844129636884e-01
-1.887488678097724915e+01 1.385824987292289734e+01 -7.058525896864011884e-01
-1.425830963253974915e+01 1.160336706042289734e+01 -4.197808123426511884e-01
-1.706299713253974915e+01 1.377878209948539734e+01 -5.673485613660886884e-01
-1.736170318722724915e+01 1.380331823229789734e+01 -5.739250994520261884e-01
-1.121888092160224915e+01 8.578830927610397339e+00 -2.304497576551511884e-01
-1.799280670285224915e+01 1.386252233386039734e+01 -5.881615496473386884e-01
-1.832557037472724915e+01 1.389694616198539734e+01 -5.958062029676511884e-01
-1.877027252316474915e+01 1.401279088854789734e+01 -6.090966082410886884e-01
-1.920215728878974915e+01 1.411020299792289734e+01 -6.213341570692136884e-01
-1.426075103878974915e+01 1.160751745104789734e+01 -3.409691668348386884e-01
-1.723877838253974915e+01 1.392953893542289734e+01 -4.807549334364011884e-01
-1.464515045285224915e+01 1.155661413073539734e+01 -3.445549822645261884e-01
-1.121875885128974915e+01 8.580539911985397339e+00 -1.711846209364011884e-01
-1.819178131222724915e+01 1.402475377917289734e+01 -4.987908221082761884e-01
-1.863977935910224915e+01 1.414706823229789734e+01 -5.104637957410886884e-01
-1.912806060910224915e+01 1.429245397448539734e+01 -5.236931658582761884e-01
-1.954371002316474915e+01 1.437289831042289734e+01 -5.331688738660886884e-01
-1.477381256222724915e+01 1.204928991198539734e+01 -2.850609637098386884e-01
-1.485242584347724915e+01 1.192233678698539734e+01 -2.810784197645261884e-01
-1.772986724972724915e+01 1.411374303698539734e+01 -3.973961687879636884e-01
-1.121875885128974915e+01 8.582248896360397339e+00 -1.122399187879636884e-01
-1.849854400753974915e+01 1.427316686511039734e+01 -4.121361590223386884e-01
-1.899256256222724915e+01 1.442770788073539734e+01 -4.236260271864011884e-01
-1.949854400753974915e+01 1.458212682604789734e+01 -4.352227068739011884e-01
-1.998621490597724915e+01 1.471249791979789734e+01 -4.457054949598386884e-01
-1.427698639035224915e+01 1.162595006823539734e+01 -1.841393328504636884e-01
-1.469641998410224915e+01 1.179318639636039734e+01 -1.932640887098386884e-01
-1.497608307003974915e+01 1.183542272448539734e+01 -1.973381853895261884e-01
-1.121875885128974915e+01 8.583957880735397339e+00 -5.331047542858868837e-02
-1.885572174191474915e+01 1.456210729479789734e+01 -3.237267351942136884e-01
-1.934131744503974915e+01 1.470529577136039734e+01 -3.325310564832761884e-01
-1.976355865597724915e+01 1.479050084948539734e+01 -3.382225848035886884e-01
-2.018689849972724915e+01 1.486850377917289734e+01 -3.442192889051511884e-01
-1.425977447628974915e+01 1.161337682604789734e+01 -1.049919939832761884e-01
-1.492176178097724915e+01 1.198544713854789734e+01 -1.198082781629636884e-01
-1.499646881222724915e+01 1.185470983386039734e+01 -1.158562517957761884e-01
-1.121875885128974915e+01 8.585666865110397339e+00 5.939402501098811626e-03
-1.130420807003974915e+01 8.517307490110397339e+00 7.800974766723811626e-03
-1.949524810910224915e+01 1.482956334948539734e+01 -2.310295916395261884e-01
-1.995984771847724915e+01 1.494553014636039734e+01 -2.367058611707761884e-01
-1.915870025753974915e+01 1.408945104479789734e+01 -2.055779314832761884e-01
-1.464075592160224915e+01 1.194223424792289734e+01 -3.597649105358868837e-02
-1.430176666378974915e+01 1.146518346667289734e+01 -2.209099300671368837e-02
-1.463965728878974915e+01 1.156125280261039734e+01 -2.511223324108868837e-02
-1.121875885128974915e+01 8.587375849485397339e+00 6.483832828234881163e-02
-1.129969146847724915e+01 8.515476435422897339e+00 6.692878238391131163e-02
-1.882459381222724915e+01 1.430466100573539734e+01 -1.086388445692136884e-01
-1.895740631222724915e+01 1.417270299792289734e+01 -1.047936297254636884e-01
-2.060035064816474915e+01 1.518967077136039734e+01 -1.352196551160886884e-01
-1.414771392941474915e+01 1.152194616198539734e+01 5.456916324328631163e-02
-1.454749420285224915e+01 1.167465612292289734e+01 5.170051089953631163e-02
-1.863135650753974915e+01 1.487228795886039734e+01 -2.132805355358868837e-02
-1.121875885128974915e+01 8.589084833860397339e+00 1.240576886339113116e-01
-1.129529693722724915e+01 8.513645380735397339e+00 1.263007306260988116e-01
-1.989869049191474915e+01 1.515366002917289734e+01 -2.499016292858868837e-02
-1.893372467160224915e+01 1.415744420886039734e+01 -1.293263514526188374e-03
-2.078540924191474915e+01 1.533383581042289734e+01 -2.709587581921368837e-02
-1.440271881222724915e+01 1.174277135729789734e+01 1.292151593370363116e-01
-1.785364654660224915e+01 1.446445104479789734e+01 8.668891421984881163e-02
-1.877576568722724915e+01 1.499496862292289734e+01 8.014289371203631163e-02
-1.121875885128974915e+01 8.590671747922897339e+00 1.829413556260988116e-01
-1.129078033566474915e+01 8.511814326047897339e+00 1.853064679307863116e-01
-2.010645416378974915e+01 1.532065221667289734e+01 8.118049136828631163e-02
-1.903699615597724915e+01 1.424057409167289734e+01 9.987250796984881163e-02
-1.909583404660224915e+01 1.405087682604789734e+01 1.053351544542238116e-01
-9.961434632539749146e+00 7.936130732297897339e+00 2.430609845323488116e-01
-1.024121978878974915e+01 8.047580927610397339e+00 2.435797833604738116e-01
-1.053528717160224915e+01 8.164768427610397339e+00 2.441290997667238116e-01
-1.084607818722724915e+01 8.288669794797897339e+00 2.446936749620363116e-01
-1.117249420285224915e+01 8.418674677610397339e+00 2.453040265245363116e-01
-1.149561432003974915e+01 8.538547724485397339e+00 2.460822247667238116e-01
-1.180811432003974915e+01 8.643772333860397339e+00 2.470740460557863116e-01
-1.213575103878974915e+01 8.754123896360397339e+00 2.480963849229738116e-01
-9.860482484102249146e+00 7.850925654172897339e+00 2.960242413682863116e-01
-1.015577057003974915e+01 7.977024286985397339e+00 2.978095196885988116e-01
-1.046766021847724915e+01 8.110202997922897339e+00 2.997016095323488116e-01
-1.079798248410224915e+01 8.251072138547897339e+00 3.014105939073488116e-01
-1.114746978878974915e+01 8.400242060422897339e+00 3.035163067979738116e-01
-1.149622467160224915e+01 8.540867060422897339e+00 3.060950421495363116e-01
-1.183167389035224915e+01 8.663913935422897339e+00 3.084906720323488116e-01
-1.218494537472724915e+01 8.793552607297897339e+00 3.110236310167238116e-01
-9.959481507539749146e+00 7.937473505735397339e+00 3.486060284776613116e-01
-1.026050689816474915e+01 8.066868036985397339e+00 3.515814923448488116e-01
-1.057898834347724915e+01 8.204197138547897339e+00 3.550147198839113116e-01
-1.089795807003974915e+01 8.334324091672897339e+00 3.585700177354738116e-01
-1.122120025753974915e+01 8.461155146360397339e+00 3.622473858995363116e-01
-1.153418853878974915e+01 8.572483271360397339e+00 3.659857892198488116e-01
-1.184375885128974915e+01 8.675144404172897339e+00 3.698004864854738116e-01
-1.216761139035224915e+01 8.782200068235397339e+00 3.741187237901613116e-01
-7.226449280977249146e+00 4.998020380735397339e+00 -3.104058123426511884e-01
-7.265267640352249146e+00 4.949192255735397339e+00 -3.089104510145261884e-01
-7.301766663789749146e+00 4.898655146360397339e+00 -3.073693133192136884e-01
-7.338387757539749146e+00 4.847751826047897339e+00 -3.058281756239011884e-01
-7.374886780977249146e+00 4.797214716672897339e+00 -3.042717791395261884e-01
-7.411507874727249146e+00 4.746433466672897339e+00 -3.027306414442136884e-01
-7.448006898164749146e+00 4.695774286985397339e+00 -3.011895037489011884e-01
-7.486092835664749146e+00 4.646213740110397339e+00 -2.999840594129636884e-01
-7.689217835664749146e+00 5.350193232297897339e+00 -3.211785174207761884e-01
-7.728524476289749146e+00 5.295749872922897339e+00 -3.195153094129636884e-01
-7.767831116914749146e+00 5.241184443235397339e+00 -3.178521014051511884e-01
-7.810067445039749146e+00 5.188450068235397339e+00 -3.162346697645261884e-01
-7.849374085664749146e+00 5.134006708860397339e+00 -3.145714617567136884e-01
-7.886117249727249146e+00 5.077366083860397339e+00 -3.128472185926511884e-01
-7.925423890352249146e+00 5.022800654172897339e+00 -3.111840105848386884e-01
-7.964730530977249146e+00 4.968357294797897339e+00 -3.095208025770261884e-01
-8.229623109102249146e+00 5.761326044797897339e+00 -3.337517596082761884e-01
-8.272225648164749146e+00 5.702244013547897339e+00 -3.319359637098386884e-01
-8.314828187227249146e+00 5.643284052610397339e+00 -3.301354266004636884e-01
-8.357552796602249146e+00 5.583957880735397339e+00 -3.283348894910886884e-01
-8.400277405977249146e+00 5.524875849485397339e+00 -3.265343523817136884e-01
-8.443002015352249146e+00 5.465671747922897339e+00 -3.247185564832761884e-01
-8.485604554414749146e+00 5.406589716672897339e+00 -3.229180193739011884e-01
-8.528329163789749146e+00 5.347507685422897339e+00 -3.211174822645261884e-01
-8.803597718477249146e+00 6.198215693235397339e+00 -3.431969500379636884e-01
-8.860238343477249146e+00 6.142185419797897339e+00 -3.419152117567136884e-01
-8.913583070039749146e+00 6.083469599485397339e+00 -3.405724383192136884e-01
-8.967171937227249146e+00 6.024387568235397339e+00 -3.392296648817136884e-01
-9.020760804414749146e+00 5.965427607297897339e+00 -3.378716326551511884e-01
-9.074715882539749146e+00 5.906101435422897339e+00 -3.365136004285886884e-01
-9.128426820039749146e+00 5.847019404172897339e+00 -3.351708269910886884e-01
-9.178719788789749146e+00 5.785251826047897339e+00 -3.337517596082761884e-01
-9.494881898164749146e+00 6.724338740110397339e+00 -3.552819109754636884e-01
-9.553719788789749146e+00 6.660862177610397339e+00 -3.538323260145261884e-01
-9.612679749727249146e+00 6.597385615110397339e+00 -3.523674822645261884e-01
-9.672005921602249146e+00 6.533542841672897339e+00 -3.509026385145261884e-01
-9.731210023164749146e+00 6.469700068235397339e+00 -3.494530535535886884e-01
-9.790658265352249146e+00 6.405491083860397339e+00 -3.479882098035886884e-01
-9.850106507539749146e+00 6.341526240110397339e+00 -3.465081072645261884e-01
-9.909676820039749146e+00 6.277317255735397339e+00 -3.450432635145261884e-01
-1.041822174191474915e+01 7.426853388547897339e+00 -3.770409441785886884e-01
-1.047974517941474915e+01 7.353489130735397339e+00 -3.747979021864011884e-01
-1.053589752316474915e+01 7.275974482297897339e+00 -3.724327898817136884e-01
-1.059217193722724915e+01 7.198215693235397339e+00 -3.700524187879636884e-01
-1.065113189816474915e+01 7.122654169797897339e+00 -3.679009295301511884e-01
-1.071753814816474915e+01 7.051853388547897339e+00 -3.662377215223386884e-01
-1.078394439816474915e+01 6.981174677610397339e+00 -3.645897723035886884e-01
-1.084363678097724915e+01 6.905735224485397339e+00 -3.627434588270261884e-01
-1.157349517941474915e+01 8.305881708860397339e+00 -4.039116717176511884e-01
-1.163672760128974915e+01 8.218723505735397339e+00 -4.012413836317136884e-01
-1.169983795285224915e+01 8.131565302610397339e+00 -3.985863543348386884e-01
-1.176331451535224915e+01 8.044040888547897339e+00 -3.959160662489011884e-01
-1.182642486691474915e+01 7.956882685422897339e+00 -3.932610369520261884e-01
-1.188990142941474915e+01 7.869358271360397339e+00 -3.905907488660886884e-01
-1.195313385128974915e+01 7.782077997922897339e+00 -3.879204607801511884e-01
-1.201636627316474915e+01 7.694919794797897339e+00 -3.852654314832761884e-01
-1.289038971066474915e+01 9.308201044797897339e+00 -4.280205584364011884e-01
-1.300110748410224915e+01 9.239353388547897339e+00 -4.275017596082761884e-01
-1.311890533566474915e+01 9.174656122922897339e+00 -4.269982195692136884e-01
-1.323389557003974915e+01 9.106296747922897339e+00 -4.266167498426511884e-01
-1.335474517941474915e+01 9.041477411985397339e+00 -4.265404558973386884e-01
-1.347681549191474915e+01 8.975803583860397339e+00 -4.264794207410886884e-01
-1.359082916378974915e+01 8.903904169797897339e+00 -4.262505389051511884e-01
-1.371448639035224915e+01 8.837375849485397339e+00 -4.261895037489011884e-01
-1.887720611691474915e+01 1.385934850573539734e+01 -7.059594012098386884e-01
-1.923890045285224915e+01 1.389999791979789734e+01 -7.158928728895261884e-01
-1.961097076535224915e+01 1.394186803698539734e+01 -7.261162615614011884e-01
-2.000489166378974915e+01 1.399191686511039734e+01 -7.371941424207761884e-01
-1.390796783566474915e+01 9.435642451047897339e+00 -3.890648699598386884e-01
-1.572412994503974915e+01 1.054257604479789734e+01 -4.810906267957761884e-01
-1.488636139035224915e+01 9.792209833860397339e+00 -4.274559832410886884e-01
-1.594385650753974915e+01 1.033737584948539734e+01 -4.763909197645261884e-01
-1.920472076535224915e+01 1.411130163073539734e+01 -6.214409685926511884e-01
-1.945618560910224915e+01 1.406540319323539734e+01 -6.240654803114011884e-01
-1.997071197628974915e+01 1.420920202136039734e+01 -6.399041033582761884e-01
-2.060913971066474915e+01 1.443112584948539734e+01 -6.614647723035886884e-01
-1.390796783566474915e+01 9.437839716672897339e+00 -3.178978777723386884e-01
-2.150928619503974915e+01 1.457394811511039734e+01 -6.843834734754636884e-01
-1.488746002316474915e+01 9.795261591672897339e+00 -3.517266131239011884e-01
-1.537622955441474915e+01 9.958469599485397339e+00 -3.679467058973386884e-01
-1.954651764035224915e+01 1.437424108386039734e+01 -5.332604266004636884e-01
-1.945594146847724915e+01 1.406845495104789734e+01 -5.192833758192136884e-01
-2.065039947628974915e+01 1.471152135729789734e+01 -5.634575701551511884e-01
-2.102820709347724915e+01 1.473678991198539734e+01 -5.700646258192136884e-01
-1.390796783566474915e+01 9.440159052610397339e+00 -2.463646746473386884e-01
-2.182837799191474915e+01 1.479977819323539734e+01 -5.844536639051511884e-01
-1.488843658566474915e+01 9.798313349485397339e+00 -2.756005144910886884e-01
-1.537244537472724915e+01 9.958469599485397339e+00 -2.893486834364011884e-01
-1.998938873410224915e+01 1.471408483386039734e+01 -4.457970476942136884e-01
-1.945569732785224915e+01 1.407138463854789734e+01 -4.150963641004636884e-01
-2.082715728878974915e+01 1.484470006823539734e+01 -4.600640154676511884e-01
-2.121082428097724915e+01 1.487204381823539734e+01 -4.653435564832761884e-01
-1.390808990597724915e+01 9.442356318235397339e+00 -1.752282000379636884e-01
-2.204981353878974915e+01 1.495761510729789734e+01 -4.778710223035886884e-01
-1.488941314816474915e+01 9.801365107297897339e+00 -1.998864031629636884e-01
-1.536878326535224915e+01 9.958469599485397339e+00 -2.112236834364011884e-01
-2.019007232785224915e+01 1.486996862292289734e+01 -3.442955828504636884e-01
-1.945594146847724915e+01 1.407468053698539734e+01 -3.103752947645261884e-01
-2.100721099972724915e+01 1.498032018542289734e+01 -3.547936297254636884e-01
-2.140796783566474915e+01 1.501779577136039734e+01 -3.590508318739011884e-01
-1.390808990597724915e+01 9.444553583860397339e+00 -1.040917254285886884e-01
-2.099549224972724915e+01 1.422641393542289734e+01 -3.275872088270261884e-01
-1.489038971066474915e+01 9.804416865110397339e+00 -1.237603045301511884e-01
-1.536499908566474915e+01 9.958347529172897339e+00 -1.327477312879636884e-01
-1.915943267941474915e+01 1.408920690417289734e+01 -2.055779314832761884e-01
-1.945716217160224915e+01 1.407883092761039734e+01 -2.062798357801511884e-01
-2.119153717160224915e+01 1.511923620104789734e+01 -2.470055437879636884e-01
-2.079236724972724915e+01 1.457687780261039734e+01 -2.275505877332761884e-01
-1.390821197628974915e+01 9.446750849485397339e+00 -3.258903988171368837e-02
-1.998352935910224915e+01 1.352438756823539734e+01 -1.896782732801511884e-01
-1.489136627316474915e+01 9.807468622922897339e+00 -4.806145199108868837e-02
-1.536133697628974915e+01 9.958347529172897339e+00 -5.472954281140118837e-02
-2.060352447628974915e+01 1.519113561511039734e+01 -1.352501726942136884e-01
-1.945850494503974915e+01 1.408298131823539734e+01 -1.021691180067136884e-01
-2.142798736691474915e+01 1.529648229479789734e+01 -1.389122820692136884e-01
-2.188135650753974915e+01 1.536679479479789734e+01 -1.409569598035886884e-01
-1.390821197628974915e+01 9.449070185422897339e+00 3.851691714953631163e-02
-1.993018463253974915e+01 1.349057409167289734e+01 -8.393486507702618837e-02
-1.489234283566474915e+01 9.810520380735397339e+00 2.765265933703631163e-02
-1.535767486691474915e+01 9.958347529172897339e+00 2.363959781359881163e-02
-2.078797271847724915e+01 1.533481237292289734e+01 -2.711113460827618837e-02
-1.945984771847724915e+01 1.408713170886039734e+01 2.490916172973811626e-03
-1.904859283566474915e+01 1.355075475573539734e+01 1.584235660266131163e-02
-2.211573150753974915e+01 1.553964635729789734e+01 -2.758415706921368837e-02
-1.390821197628974915e+01 9.451267451047897339e+00 1.099890851182863116e-01
-1.990552642941474915e+01 1.347653600573539734e+01 2.128974429797381163e-02
-1.489331939816474915e+01 9.813572138547897339e+00 1.037634991807863116e-01
-1.535437896847724915e+01 9.958591669797897339e+00 1.015357159776613116e-01
-1.909583404660224915e+01 1.405014440417289734e+01 1.053656720323488116e-01
-1.946119049191474915e+01 1.409128209948539734e+01 1.065711163682863116e-01
-1.301807525753974915e+01 9.119114130735397339e+00 1.826666974229738116e-01
-1.341101959347724915e+01 9.253025263547897339e+00 1.823004864854738116e-01
-1.382434967160224915e+01 9.393894404172897339e+00 1.819190167589113116e-01
-1.422254303097724915e+01 9.515232294797897339e+00 1.819190167589113116e-01
-1.459607818722724915e+01 9.612156122922897339e+00 1.823310040635988116e-01
-1.498609283566474915e+01 9.713108271360397339e+00 1.831854962510988116e-01
-1.213782623410224915e+01 8.755222529172897339e+00 2.480963849229738116e-01
-1.248145416378974915e+01 8.870701044797897339e+00 2.494086407823488116e-01
-1.284290435910224915e+01 8.992283076047897339e+00 2.507971905870363116e-01
-1.322498443722724915e+01 9.120701044797897339e+00 2.522620343370363116e-01
-1.365784576535224915e+01 9.277805536985397339e+00 2.536658429307863116e-01
-1.410828521847724915e+01 9.437717646360397339e+00 2.551917218370363116e-01
-1.450257232785224915e+01 9.550388544797897339e+00 2.571601056260988116e-01
-1.491675689816474915e+01 9.668796747922897339e+00 2.592200421495363116e-01
-1.218714264035224915e+01 8.794773310422897339e+00 3.110388898057863116e-01
-1.256055572628974915e+01 8.931980341672897339e+00 3.139685773057863116e-01
-1.295545318722724915e+01 9.076999872922897339e+00 3.170661114854738116e-01
-1.337427642941474915e+01 9.230686396360397339e+00 3.199957989854738116e-01
-1.380396392941474915e+01 9.383762568235397339e+00 3.234595441026613116e-01
-1.419934967160224915e+01 9.503513544797897339e+00 3.274420880479738116e-01
-1.456739166378974915e+01 9.597141474485397339e+00 3.311652325792238116e-01
-1.495227935910224915e+01 9.695041865110397339e+00 3.350562237901613116e-01
-1.216968658566474915e+01 8.783298701047897339e+00 3.741339825792238116e-01
-1.251038482785224915e+01 8.896335810422897339e+00 3.782843732042238116e-01
-1.286768463253974915e+01 9.014499872922897339e+00 3.829993390245363116e-01
-1.324512603878974915e+01 9.139377802610397339e+00 3.879737042589113116e-01
-1.364161041378974915e+01 9.270603388547897339e+00 3.932074689073488116e-01
-1.408826568722724915e+01 9.428196161985397339e+00 3.989295148057863116e-01
-1.449231842160224915e+01 9.547947138547897339e+00 4.044989728135988116e-01
-1.491907623410224915e+01 9.675144404172897339e+00 4.107703351182863116e-01
-7.486336976289749146e+00 4.646213740110397339e+00 -2.999840594129636884e-01
-7.527962952852249146e+00 4.598850458860397339e+00 -2.989006853895261884e-01
-7.567269593477249146e+00 4.549900263547897339e+00 -2.977867937879636884e-01
-7.606942445039749146e+00 4.500705927610397339e+00 -2.966576433973386884e-01
-7.646493226289749146e+00 4.451511591672897339e+00 -2.955284930067136884e-01
-7.686288148164749146e+00 4.402073115110397339e+00 -2.943993426160886884e-01
-7.725960999727249146e+00 4.352756708860397339e+00 -2.932701922254636884e-01
-7.763436585664749146e+00 4.301975458860397339e+00 -2.921105242567136884e-01
-7.964974671602249146e+00 4.968235224485397339e+00 -3.095208025770261884e-01
-8.002206116914749146e+00 4.912327021360397339e+00 -3.078118182020261884e-01
-8.039437562227249146e+00 4.856296747922897339e+00 -3.061028338270261884e-01
-8.079598695039749146e+00 4.801975458860397339e+00 -3.044548846082761884e-01
-8.116830140352249146e+00 4.745823115110397339e+00 -3.027459002332761884e-01
-8.149667054414749146e+00 4.686863154172897339e+00 -3.008232928114011884e-01
-8.194344788789749146e+00 4.635227411985397339e+00 -2.997551775770261884e-01
-8.237435609102249146e+00 4.582493036985397339e+00 -2.985497332410886884e-01
-8.528573304414749146e+00 5.347385615110397339e+00 -3.211174822645261884e-01
-8.568978577852249146e+00 5.286838740110397339e+00 -3.192711687879636884e-01
-8.609505921602249146e+00 5.226291865110397339e+00 -3.174248553114011884e-01
-8.650033265352249146e+00 5.165500849485397339e+00 -3.155632830457761884e-01
-8.690560609102249146e+00 5.104831904172897339e+00 -3.137169695692136884e-01
-8.731210023164749146e+00 5.043918818235397339e+00 -3.118553973035886884e-01
-8.771737366914749146e+00 4.983249872922897339e+00 -3.100090838270261884e-01
-8.812264710664749146e+00 4.922580927610397339e+00 -3.081475115614011884e-01
-9.179085999727249146e+00 5.785129755735397339e+00 -3.337517596082761884e-01
-9.234505921602249146e+00 5.726780146360397339e+00 -3.324242449598386884e-01
-9.283822327852249146e+00 5.663913935422897339e+00 -3.308068133192136884e-01
-9.328377991914749146e+00 5.597629755735397339e+00 -3.287773943739011884e-01
-9.372689515352249146e+00 5.531589716672897339e+00 -3.267632342176511884e-01
-9.417245179414749146e+00 5.465183466672897339e+00 -3.247338152723386884e-01
-9.461678773164749146e+00 5.399021357297897339e+00 -3.227196551160886884e-01
-9.502084046602249146e+00 5.330539911985397339e+00 -3.206292010145261884e-01
-9.910043030977249146e+00 6.277195185422897339e+00 -3.450585223035886884e-01
-9.967660218477249146e+00 6.211399286985397339e+00 -3.435479021864011884e-01
-1.002552154660224915e+01 6.145359247922897339e+00 -3.420372820692136884e-01
-1.008362701535224915e+01 6.079075068235397339e+00 -3.405114031629636884e-01
-1.014161041378974915e+01 6.012790888547897339e+00 -3.390007830457761884e-01
-1.020008209347724915e+01 5.946018427610397339e+00 -3.374749041395261884e-01
-1.025843170285224915e+01 5.879368036985397339e+00 -3.359490252332761884e-01
-1.031702545285224915e+01 5.812595576047897339e+00 -3.344231463270261884e-01
-1.084400299191474915e+01 6.905613154172897339e+00 -3.627587176160886884e-01
-1.091468170285224915e+01 6.837253779172897339e+00 -3.612023211317136884e-01
-1.097876861691474915e+01 6.764133661985397339e+00 -3.594628191785886884e-01
-1.104285553097724915e+01 6.690403193235397339e+00 -3.576927996473386884e-01
-1.111951568722724915e+01 6.624607294797897339e+00 -3.567620135145261884e-01
-1.119678619503974915e+01 6.558201044797897339e+00 -3.558464861707761884e-01
-1.127430084347724915e+01 6.491672724485397339e+00 -3.549157000379636884e-01
-1.134558990597724915e+01 6.420994013547897339e+00 -3.538323260145261884e-01
-1.201661041378974915e+01 7.694675654172897339e+00 -3.852501726942136884e-01
-1.209046295285224915e+01 7.614353388547897339e+00 -3.833733416395261884e-01
-1.216553619503974915e+01 7.534519404172897339e+00 -3.815422869520261884e-01
-1.224109771847724915e+01 7.454075068235397339e+00 -3.797112322645261884e-01
-1.231653717160224915e+01 7.373630732297897339e+00 -3.778649187879636884e-01
-1.239258697628974915e+01 7.292698115110397339e+00 -3.760186053114011884e-01
-1.246863678097724915e+01 7.211765497922897339e+00 -3.741722918348386884e-01
-1.254493072628974915e+01 7.130466669797897339e+00 -3.723107195692136884e-01
-1.371521881222724915e+01 8.837375849485397339e+00 -4.262047625379636884e-01
-1.383789947628974915e+01 8.769016474485397339e+00 -4.260979510145261884e-01
-1.397095611691474915e+01 8.705906122922897339e+00 -4.261437273817136884e-01
-1.406934478878974915e+01 8.618869990110397339e+00 -4.244957781629636884e-01
-1.415967682003974915e+01 8.526462763547897339e+00 -4.223595476942136884e-01
-1.425074127316474915e+01 8.433445185422897339e+00 -4.202233172254636884e-01
-1.432898834347724915e+01 8.332737177610397339e+00 -4.177513933973386884e-01
-1.442029693722724915e+01 8.239475458860397339e+00 -4.155999041395261884e-01
-1.594471099972724915e+01 1.033737584948539734e+01 -4.764061785535886884e-01
-1.605359771847724915e+01 1.023324987292289734e+01 -4.740258074598386884e-01
-1.616297271847724915e+01 1.012863561511039734e+01 -4.716301775770261884e-01
-1.627320221066474915e+01 1.002316686511039734e+01 -4.692192889051511884e-01
-1.638343170285224915e+01 9.917698115110397339e+00 -4.668084002332761884e-01
-1.649463775753974915e+01 9.811374872922897339e+00 -4.643822527723386884e-01
-1.660584381222724915e+01 9.705051630735397339e+00 -4.619408465223386884e-01
-1.669532135128974915e+01 9.585178583860397339e+00 -4.584008074598386884e-01
-2.147901275753974915e+01 1.405893346667289734e+01 -6.611748553114011884e-01
-2.156421783566474915e+01 1.387289831042289734e+01 -6.545830584364011884e-01
-2.315271881222724915e+01 1.466159459948539734e+01 -7.186852312879636884e-01
-1.661036041378974915e+01 1.024032995104789734e+01 -4.032250262098386884e-01
-2.394373443722724915e+01 1.464389440417289734e+01 -7.325859881239011884e-01
-2.432410553097724915e+01 1.461569616198539734e+01 -7.383995867567136884e-01
-2.470679596066474915e+01 1.458371374011039734e+01 -7.441063738660886884e-01
-2.507032135128974915e+01 1.453451940417289734e+01 -7.486840105848386884e-01
-1.537391021847724915e+01 9.958835810422897339e+00 -2.893944598035886884e-01
-2.155774810910224915e+01 1.387216588854789734e+01 -5.421105242567136884e-01
-2.342432525753974915e+01 1.484152624011039734e+01 -6.096306658582761884e-01
-1.661048248410224915e+01 1.024313756823539734e+01 -3.192864275770261884e-01
-2.425989654660224915e+01 1.484543249011039734e+01 -6.220360613660886884e-01
-2.467725494503974915e+01 1.483627721667289734e+01 -6.277733660535886884e-01
-2.509082916378974915e+01 1.481894323229789734e+01 -6.331139422254636884e-01
-2.551465728878974915e+01 1.480124303698539734e+01 -6.385918474989011884e-01
-1.537024810910224915e+01 9.958835810422897339e+00 -2.112542010145261884e-01
-2.155481842160224915e+01 1.387375280261039734e+01 -4.304772234754636884e-01
-2.370337799191474915e+01 1.502634069323539734e+01 -4.985466814832761884e-01
-1.661072662472724915e+01 1.024594518542289734e+01 -2.358208514051511884e-01
-2.177246978878974915e+01 1.329452916979789734e+01 -4.102440691785886884e-01
-2.494422271847724915e+01 1.500424596667289734e+01 -5.110436297254636884e-01
-2.536621978878974915e+01 1.498910924792289734e+01 -5.149956560926511884e-01
-2.580994537472724915e+01 1.497995397448539734e+01 -5.194359637098386884e-01
-1.536646392941474915e+01 9.958835810422897339e+00 -1.327629900770261884e-01
-2.155188873410224915e+01 1.387533971667289734e+01 -3.182793474989011884e-01
-2.396241119503974915e+01 1.519833776354789734e+01 -3.838158465223386884e-01
-1.661097076535224915e+01 1.024875280261039734e+01 -1.523552752332761884e-01
-2.479651764035224915e+01 1.518906041979789734e+01 -3.892174578504636884e-01
-2.183875396847724915e+01 1.310226842761039734e+01 -2.926140642957761884e-01
-2.197998932003974915e+01 1.295334264636039734e+01 -2.875634051160886884e-01
-2.610596588253974915e+01 1.515927526354789734e+01 -3.964653826551511884e-01
-1.536280182003974915e+01 9.958713740110397339e+00 -5.476006038952618837e-02
-2.154908111691474915e+01 1.387704870104789734e+01 -2.067375994520261884e-01
-2.422889068722724915e+01 1.537521764636039734e+01 -2.657891131239011884e-01
-1.661121490597724915e+01 1.025168249011039734e+01 -6.846245296765118837e-02
-2.507373932003974915e+01 1.536655065417289734e+01 -2.680321551160886884e-01
-2.181458404660224915e+01 1.309103795886039734e+01 -1.807671404676511884e-01
-2.195765045285224915e+01 1.294345495104789734e+01 -1.761742449598386884e-01
-2.212830474972724915e+01 1.281149694323539734e+01 -1.721917010145261884e-01
-1.535913971066474915e+01 9.958713740110397339e+00 2.362433902453631163e-02
-2.154615142941474915e+01 1.387863561511039734e+01 -9.524162777233868837e-02
-2.450013092160224915e+01 1.555527135729789734e+01 -1.456414080457761884e-01
-1.661145904660224915e+01 1.025449010729789734e+01 1.495734683703631163e-02
-2.537635162472724915e+01 1.556003209948539734e+01 -1.450157976942136884e-01
-2.179065826535224915e+01 1.307992956042289734e+01 -6.978996761608868837e-02
-2.522010162472724915e+01 1.491366979479789734e+01 -1.247216082410886884e-01
-2.212146881222724915e+01 1.281113073229789734e+01 -6.040581234265118837e-02
-1.535547760128974915e+01 9.958713740110397339e+00 1.015357159776613116e-01
-2.152674224972724915e+01 1.386935827136039734e+01 1.703254214953631163e-02
-2.135120514035224915e+01 1.351498815417289734e+01 2.652350894641131163e-02
-1.661158111691474915e+01 1.025729772448539734e+01 9.883491031359881163e-02
-2.221277740597724915e+01 1.358444616198539734e+01 2.861396304797381163e-02
-2.610254791378974915e+01 1.573239538073539734e+01 -1.542290218640118837e-02
-2.194410064816474915e+01 1.294260045886039734e+01 4.602424136828631163e-02
-2.480213287472724915e+01 1.440085241198539734e+01 1.716987125109881163e-02
-1.498853424191474915e+01 9.714206904172897339e+00 1.831702374620363116e-01
-1.539893463253974915e+01 9.820896357297897339e+00 1.834754132432863116e-01
-1.582862213253974915e+01 9.932224482297897339e+00 1.842078351182863116e-01
-1.628199127316474915e+01 1.004977819323539734e+01 1.850012921495363116e-01
-1.673462799191474915e+01 1.015866491198539734e+01 1.860083722276613116e-01
-1.710718658566474915e+01 1.020920202136039734e+01 1.878852032823488116e-01
-1.752088287472724915e+01 1.027841588854789734e+01 1.896094464464113116e-01
-1.795105865597724915e+01 1.035007116198539734e+01 1.918982648057863116e-01
-1.491944244503974915e+01 9.670017451047897339e+00 2.592200421495363116e-01
-1.535596588253974915e+01 9.795017451047897339e+00 2.616614483995363116e-01
-1.581629303097724915e+01 9.926853388547897339e+00 2.642401837510988116e-01
-1.630408599972724915e+01 1.006650182604789734e+01 2.669715069932863116e-01
-1.671961334347724915e+01 1.015195104479789734e+01 2.701148175401613116e-01
-1.718579986691474915e+01 1.026034948229789734e+01 2.733344220323488116e-01
-1.762610748410224915e+01 1.034482213854789734e+01 2.768134259385988116e-01
-1.805896881222724915e+01 1.041684362292289734e+01 2.804907941026613116e-01
-1.495472076535224915e+01 9.696140497922897339e+00 3.350714825792238116e-01
-1.535730865597724915e+01 9.798313349485397339e+00 3.394507550401613116e-01
-1.577967193722724915e+01 9.905613154172897339e+00 3.440589093370363116e-01
-1.622583892941474915e+01 1.001913854479789734e+01 3.484839581651613116e-01
-1.669239166378974915e+01 1.013754674792289734e+01 3.535651349229738116e-01
-1.705860260128974915e+01 1.018491002917289734e+01 3.589972638292238116e-01
-1.750977447628974915e+01 1.027743932604789734e+01 3.643988751573488116e-01
-1.798255279660224915e+01 1.037448522448539734e+01 3.700446271104738116e-01
-1.492176178097724915e+01 9.676365107297897339e+00 4.108008526964113116e-01
-1.537073639035224915e+01 9.809665888547897339e+00 4.169348858995363116e-01
-1.584607818722724915e+01 9.951267451047897339e+00 4.238471173448488116e-01
-1.635071685910224915e+01 1.010153600573539734e+01 4.311865948839113116e-01
-2.654798248410224915e+01 1.631515905261039734e+01 5.181159161729738116e-01
-2.705017974972724915e+01 1.633249303698539734e+01 5.279730939073488116e-01
-2.754358795285224915e+01 1.633713170886039734e+01 5.379065655870363116e-01
-2.675891998410224915e+01 1.557663366198539734e+01 5.374030255479738116e-01
-7.763436585664749146e+00 4.301731318235397339e+00 -2.920952654676511884e-01
-7.803597718477249146e+00 4.252414911985397339e+00 -2.909661150770261884e-01
-7.841561585664749146e+00 4.201633661985397339e+00 -2.898064471082761884e-01
-7.879647523164749146e+00 4.150486201047897339e+00 -2.886315203504636884e-01
-7.917733460664749146e+00 4.099338740110397339e+00 -2.874718523817136884e-01
-7.956063538789749146e+00 4.048069208860397339e+00 -2.862816668348386884e-01
-7.994393616914749146e+00 3.996799677610397339e+00 -2.851219988660886884e-01
-8.030282288789749146e+00 3.944065302610397339e+00 -2.839165545301511884e-01
-8.237557679414749146e+00 4.582248896360397339e+00 -2.985344744520261884e-01
-8.278817445039749146e+00 4.528293818235397339e+00 -2.972985125379636884e-01
-8.320077210664749146e+00 4.474094599485397339e+00 -2.960625506239011884e-01
-8.364266663789749146e+00 4.421116083860397339e+00 -2.948571062879636884e-01
-8.405770570039749146e+00 4.366672724485397339e+00 -2.936058855848386884e-01
-8.444710999727249146e+00 4.310398310422897339e+00 -2.923241473035886884e-01
-8.486336976289749146e+00 4.255588740110397339e+00 -2.910729266004636884e-01
-8.528085023164749146e+00 4.200779169797897339e+00 -2.898064471082761884e-01
-8.812508851289749146e+00 4.922336786985397339e+00 -3.081475115614011884e-01
-8.850716859102249146e+00 4.860202997922897339e+00 -3.062554217176511884e-01
-8.889046937227249146e+00 4.798069208860397339e+00 -3.043480730848386884e-01
-8.927499085664749146e+00 4.735691279172897339e+00 -3.024559832410886884e-01
-8.967416077852249146e+00 4.674167841672897339e+00 -3.006707049207761884e-01
-9.013192445039749146e+00 4.615574091672897339e+00 -2.993279314832761884e-01
-9.058846741914749146e+00 4.556858271360397339e+00 -2.979851580457761884e-01
-9.104623109102249146e+00 4.498142451047897339e+00 -2.966423846082761884e-01
-9.502206116914749146e+00 5.330295771360397339e+00 -3.206139422254636884e-01
-9.548226624727249146e+00 5.264988154172897339e+00 -3.186302996473386884e-01
-9.506600648164749146e+00 5.149753779172897339e+00 -3.102532244520261884e-01
-9.542001038789749146e+00 5.078952997922897339e+00 -3.077202654676511884e-01
-9.575082093477249146e+00 5.007175654172897339e+00 -3.050347185926511884e-01
-9.717294007539749146e+00 4.993503779172897339e+00 -3.103447771864011884e-01
-9.759530335664749146e+00 4.925510615110397339e+00 -3.082695818739011884e-01
-9.797616273164749146e+00 4.855442255735397339e+00 -3.061333514051511884e-01
-1.031714752316474915e+01 5.812351435422897339e+00 -3.344078875379636884e-01
-1.037354400753974915e+01 5.743992060422897339e+00 -3.328362322645261884e-01
-9.428353577852249146e+00 5.106785029172897339e+00 -2.611962176160886884e-01
-9.458138734102249146e+00 5.033664911985397339e+00 -2.583275652723386884e-01
-9.487801820039749146e+00 4.960911005735397339e+00 -2.554894305067136884e-01
-1.059681060910224915e+01 5.465549677610397339e+00 -3.262139178114011884e-01
-1.065894439816474915e+01 5.398655146360397339e+00 -3.249474383192136884e-01
-1.071643951535224915e+01 5.329075068235397339e+00 -3.233452654676511884e-01
-1.134571197628974915e+01 6.420749872922897339e+00 -3.538170672254636884e-01
-1.140723541378974915e+01 6.343845576047897339e+00 -3.516198016004636884e-01
-9.387582093477249146e+00 5.085056513547897339e+00 -2.151604510145261884e-01
-9.417977601289749146e+00 5.012790888547897339e+00 -2.123986101942136884e-01
-9.450326234102249146e+00 4.941990107297897339e+00 -2.098046160535886884e-01
-1.161792877316474915e+01 6.013645380735397339e+00 -3.415490008192136884e-01
-1.167835357785224915e+01 5.935032099485397339e+00 -3.395043230848386884e-01
-1.173413971066474915e+01 5.853733271360397339e+00 -3.374443865614011884e-01
-1.254493072628974915e+01 7.130100458860397339e+00 -3.722802019910886884e-01
-1.261927154660224915e+01 7.047336786985397339e+00 -3.703881121473386884e-01
-9.360482484102249146e+00 5.071140497922897339e+00 -1.706047869520261884e-01
-9.391000062227249146e+00 4.999241083860397339e+00 -1.679039812879636884e-01
-9.427621155977249146e+00 4.931003779172897339e+00 -1.655846453504636884e-01
-1.201856353878974915e+01 6.229831904172897339e+00 -3.106957293348386884e-01
-1.205640533566474915e+01 6.135227411985397339e+00 -3.070793963270261884e-01
-1.307203033566474915e+01 6.543430536985397339e+00 -3.588677264051511884e-01
-1.442054107785224915e+01 8.239109247922897339e+00 -4.155846453504636884e-01
-1.450916412472724915e+01 8.143772333860397339e+00 -4.133568621473386884e-01
-9.342538148164749146e+00 5.062473505735397339e+00 -1.266136980848386884e-01
-9.373299866914749146e+00 4.990696161985397339e+00 -1.239739275770261884e-01
-9.411752015352249146e+00 4.923801630735397339e+00 -1.217766619520261884e-01
-1.195789459347724915e+01 6.199314326047897339e+00 -2.511711932020261884e-01
-1.199683502316474915e+01 6.105808466672897339e+00 -2.479973650770261884e-01
-1.501001861691474915e+01 7.542331904172897339e+00 -3.977013445692136884e-01
-1.669519928097724915e+01 9.584568232297897339e+00 -4.583550310926511884e-01
-1.677942779660224915e+01 9.461277216672897339e+00 -4.546013689832761884e-01
-9.262948304414749146e+00 5.018650263547897339e+00 -8.002861507702618837e-02
-9.361336976289749146e+00 4.985447138547897339e+00 -8.074577816296368837e-02
-9.400643616914749146e+00 4.919162958860397339e+00 -7.857903011608868837e-02
-9.635262757539749146e+00 4.957004755735397339e+00 -8.562859066296368837e-02
-9.639291077852249146e+00 4.869846552610397339e+00 -8.172234066296368837e-02
-9.642586976289749146e+00 4.783176630735397339e+00 -7.780083187390118837e-02
-2.507227447628974915e+01 1.453476354479789734e+01 -7.487450457410886884e-01
-2.052930572628974915e+01 1.163693639636039734e+01 -5.372734881239011884e-01
-9.172860413789749146e+00 4.968723505735397339e+00 -3.384026058483868837e-02
-9.032967835664749146e+00 4.803928583860397339e+00 -2.402885921765118837e-02
-8.980233460664749146e+00 4.690769404172897339e+00 -1.809319027233868837e-02
-8.979378968477249146e+00 4.607029169797897339e+00 -1.441582210827618837e-02
-8.989754945039749146e+00 4.530246943235397339e+00 -1.124199398327618837e-02
-9.002816468477249146e+00 4.455417841672897339e+00 -8.205494959838688374e-03
-2.551722076535224915e+01 1.480185338854789734e+01 -6.386528826551511884e-01
-2.594764068722724915e+01 1.478110143542289734e+01 -6.440697527723386884e-01
-9.169564515352249146e+00 4.968235224485397339e+00 8.289256016723811626e-03
-8.970467835664749146e+00 4.770359247922897339e+00 1.941291324328631163e-02
-8.936776429414749146e+00 4.668308466672897339e+00 2.414313785266131163e-02
-8.937142640352249146e+00 4.585788935422897339e+00 2.756110660266131163e-02
-8.948128968477249146e+00 4.509739130735397339e+00 3.056708804797381163e-02
-8.961556702852249146e+00 4.435520380735397339e+00 3.345099918078631163e-02
-2.581238678097724915e+01 1.498056432604789734e+01 -5.194817400770261884e-01
-2.624183014035224915e+01 1.495590612292289734e+01 -5.230522967176511884e-01
-9.166146546602249146e+00 4.967746943235397339e+00 5.015937320422381163e-02
-8.943856507539749146e+00 4.756931513547897339e+00 6.079474918078631163e-02
-8.941781312227249146e+00 4.672336786985397339e+00 6.413642398547381163e-02
-8.919320374727249146e+00 4.577488154172897339e+00 6.810370914172381163e-02
-8.932626038789749146e+00 4.502903193235397339e+00 7.089606754016131163e-02
-8.947030335664749146e+00 4.429416865110397339e+00 7.364264957141131163e-02
-2.610828521847724915e+01 1.515976354479789734e+01 -3.964959002332761884e-01
-2.498316314816474915e+01 1.423032018542289734e+01 -3.546715594129636884e-01
-9.143197327852249146e+00 4.956028193235397339e+00 9.251777164172381163e-02
-8.934701234102249146e+00 4.753147333860397339e+00 1.014136456651613116e-01
-8.907357484102249146e+00 4.654880732297897339e+00 1.052436017198488116e-01
-8.908089905977249146e+00 4.572849482297897339e+00 1.082801007432863116e-01
-8.925790101289749146e+00 4.500705927610397339e+00 1.110572003526613116e-01
-8.941048890352249146e+00 4.427707880735397339e+00 1.136664532823488116e-01
-2.212915924191474915e+01 1.281125280261039734e+01 -1.721764422254636884e-01
-2.684620025753974915e+01 1.531528112292289734e+01 -2.713738299207761884e-01
-9.125619202852249146e+00 4.947483271360397339e+00 1.347540997667238116e-01
-8.934579163789749146e+00 4.754490107297897339e+00 1.419562482042238116e-01
-8.894784241914749146e+00 4.649387568235397339e+00 1.457251691026613116e-01
-8.899789124727249146e+00 4.569675654172897339e+00 1.484870099229738116e-01
-8.911752015352249146e+00 4.494724482297897339e+00 1.510657452745363116e-01
-8.925790101289749146e+00 4.421116083860397339e+00 1.535987042589113116e-01
-2.212232330441474915e+01 1.281076452136039734e+01 -6.039055355358868837e-02
-2.716248443722724915e+01 1.550339147448539734e+01 -1.413689471082761884e-01
