-9.513452559709548950e+00 5.349742468446493149e+00 -2.179932390805277009e-01
-9.700708419084548950e+00 5.325206335633993149e+00 -2.147278582211527009e-01
-9.901269942522048950e+00 5.301646765321493149e+00 -2.112946306820902009e-01
-1.010610392689704895e+01 5.276011999696493149e+00 -2.077698504086527009e-01
-8.744165450334548950e+00 5.405040320008993149e+00 -1.924347674008402009e-01
-8.919580489397048950e+00 5.390147741883993149e+00 -1.890930925961527009e-01
-9.101465255022048950e+00 5.374522741883993149e+00 -1.854004656430277009e-01
-9.291284590959548950e+00 5.358287390321493149e+00 -1.815552507992777009e-01
-9.488184005022048950e+00 5.341441687196493149e+00 -1.775574480649027009e-01
-9.663110762834548950e+00 5.312633093446493149e+00 -1.736359392758402009e-01
-9.846094161272048950e+00 5.283092077821493149e+00 -1.695618425961527009e-01
-1.003469279408454895e+01 5.252574499696493149e+00 -1.651215349789652009e-01
-8.683984786272048950e+00 5.380382116883993149e+00 -1.557068621274027009e-01
-8.856348067522048950e+00 5.365001257508993149e+00 -1.514801775570902009e-01
-9.035547286272048950e+00 5.349132116883993149e+00 -1.470856463070902009e-01
-9.222436934709548950e+00 5.332408484071493149e+00 -1.425080095883402009e-01
-9.416284590959548950e+00 5.315196570008993149e+00 -1.377625261899027009e-01
-9.600732833147048950e+00 5.290782507508993149e+00 -1.330323015805277009e-01
-9.788965255022048950e+00 5.263927038758993149e+00 -1.281647478695902009e-01
-9.999170333147048950e+00 5.241588171571493149e+00 -1.229157244320902009e-01
-8.634546309709548950e+00 5.360362585633993149e+00 -1.191925799008402009e-01
-8.828027755022048950e+00 5.354381140321493149e+00 -1.139130388852152009e-01
-9.029809981584548950e+00 5.348033484071493149e+00 -1.086182390805277009e-01
-9.242090255022048950e+00 5.341563757508993149e+00 -1.028351580258402009e-01
-9.463769942522048950e+00 5.334849890321493149e+00 -9.679267755709020093e-02
-9.662866622209548950e+00 5.315318640321493149e+00 -9.105537286959020093e-02
-9.869287520647048950e+00 5.294322546571493149e+00 -8.486030451021520093e-02
-1.008315470814704895e+01 5.272471960633993149e+00 -7.864997736177770093e-02
-8.706323653459548950e+00 5.392467077821493149e+00 -8.060310236177770093e-02
-8.902856856584548950e+00 5.386973913758993149e+00 -7.462165704927770093e-02
-9.108789473772048950e+00 5.381480749696493149e+00 -6.815193048677770093e-02
-9.325220137834548950e+00 5.375743445008993149e+00 -6.136176935396520093e-02
-1.427834513783454895e+01 7.184703405946493149e+00 5.147697576322229907e-02
-1.486245158314704895e+01 7.253917273133993149e+00 6.795646795072229907e-02
-1.310329630970954895e+01 6.464000280946493149e+00 3.113700994290979907e-02
-1.311721232533454895e+01 6.335948523133993149e+00 3.469230779447229907e-02
-1.347512248158454895e+01 6.421886023133993149e+00 -1.088949659978965201e+00
-1.367836955189704895e+01 6.353892859071493149e+00 -1.095678785955527701e+00
-1.267189982533454895e+01 5.889659460633993149e+00 -1.020102003728965201e+00
-1.263356974720954895e+01 5.751475866883993149e+00 -1.011099318182090201e+00
-1.496132853627204895e+01 6.331676062196493149e+00 -1.160818556463340201e+00
-1.248806193470954895e+01 5.460948523133993149e+00 -9.888214861508402009e-01
-1.553029826283454895e+01 6.194102820008993149e+00 -1.183218458807090201e+00
-1.569106486439704895e+01 6.084361609071493149e+00 -1.186315992986777701e+00
-1.407790568470954895e+01 6.633067663758993149e+00 -1.068029860174277701e+00
-1.448012736439704895e+01 6.625255163758993149e+00 -1.086645582830527701e+00
-1.267690470814704895e+01 5.893199499696493149e+00 -9.649262224789652009e-01
-1.262441447377204895e+01 5.750499304383993149e+00 -9.553894793149027009e-01
-1.545131877064704895e+01 6.482432898133993149e+00 -1.125128248846152701e+00
-1.246071818470954895e+01 5.454722937196493149e+00 -9.330353533383402009e-01
-1.582485392689704895e+01 6.279307898133993149e+00 -1.133108595525840201e+00
-1.593874552845954895e+01 6.153819616883993149e+00 -1.132284620916465201e+00
-1.296438029408454895e+01 6.248668249696493149e+00 -9.390320574399027009e-01
-1.503933146595954895e+01 6.815440710633993149e+00 -1.055181959783652701e+00
-1.268056681752204895e+01 5.896251257508993149e+00 -9.099182879086527009e-01
-1.259633830189704895e+01 5.743663366883993149e+00 -8.989777361508402009e-01
-1.251406291127204895e+01 5.594615515321493149e+00 -8.882813250180277009e-01
-1.243349650502204895e+01 5.448741491883993149e+00 -8.778137957211527009e-01
-1.607790568470954895e+01 6.353038366883993149e+00 -1.077459791814902701e+00
-1.619509318470954895e+01 6.225596960633993149e+00 -1.076361159002402701e+00
-1.412868693470954895e+01 6.655040320008993149e+00 -9.457459246274027009e-01
-1.545595744252204895e+01 6.957774695008993149e+00 -1.010565260564902701e+00
-1.265188029408454895e+01 5.888927038758993149e+00 -8.528656756039652009e-01
-1.232168009877204895e+01 5.659312780946493149e+00 -8.294434343930277009e-01
-1.606447795033454895e+01 6.673106726258993149e+00 -1.020666578924277701e+00
-1.586757853627204895e+01 6.454600866883993149e+00 -1.002890089666465201e+00
-1.627639201283454895e+01 6.411387976258993149e+00 -1.016592482244590201e+00
-1.646853068470954895e+01 6.302135046571493149e+00 -1.019262770330527701e+00
-1.295974162220954895e+01 6.250987585633993149e+00 -8.245911394711527009e-01
-1.303652384877204895e+01 6.146373327821493149e+00 -8.224549090024027009e-01
-1.311379435658454895e+01 6.041026648133993149e+00 -8.203186785336527009e-01
-1.234731486439704895e+01 5.669200476258993149e+00 -7.773499285336527009e-01
-1.614455607533454895e+01 6.699840124696493149e+00 -9.533905779477152009e-01
-1.576235392689704895e+01 6.426280554383993149e+00 -9.279694353695902009e-01
-1.623281291127204895e+01 6.401622351258993149e+00 -9.428772722836527009e-01
-1.620998576283454895e+01 6.234630163758993149e+00 -9.345307146664652009e-01
-1.411879923939704895e+01 6.655894812196493149e+00 -8.197693621274027009e-01
-1.300600627064704895e+01 6.138072546571493149e+00 -7.636933123227152009e-01
-1.252199748158454895e+01 5.850474890321493149e+00 -7.366852556820902009e-01
-1.237307170033454895e+01 5.679210241883993149e+00 -7.247528826352152009e-01
-1.514321330189704895e+01 6.398326452821493149e+00 -8.384766375180277009e-01
-1.625539591908454895e+01 6.573009070008993149e+00 -8.791413103695902009e-01
-1.618923380970954895e+01 6.391856726258993149e+00 -8.692078386899027009e-01
-1.616701701283454895e+01 6.225474890321493149e+00 -8.616089617367777009e-01
-1.289956095814704895e+01 6.234019812196493149e+00 -7.080445086117777009e-01
-1.620583537220954895e+01 7.217418249696493149e+00 -8.334564959164652009e-01
-1.254860880970954895e+01 5.860972937196493149e+00 -6.832794939633402009e-01
-1.312990763783454895e+01 5.919078405946493149e+00 -7.004456316586527009e-01
-1.508437541127204895e+01 6.382823523133993149e+00 -7.695679461117777009e-01
-1.666201213002204895e+01 6.694591101258993149e+00 -8.226990496274027009e-01
-1.564431193470954895e+01 6.240611609071493149e+00 -7.776551043149027009e-01
-1.612392619252204895e+01 6.216319616883993149e+00 -7.887329851742777009e-01
-1.259230998158454895e+01 6.129039343446493149e+00 -6.406006609555277009e-01
-1.294570353627204895e+01 6.121715124696493149e+00 -6.476807390805277009e-01
-1.302187541127204895e+01 6.017100866883993149e+00 -6.446442400570902009e-01
-1.309914591908454895e+01 5.911387976258993149e+00 -6.418976580258402009e-01
-1.502578166127204895e+01 6.367320593446493149e+00 -7.008728777524027009e-01
-1.670351603627204895e+01 6.709361609071493149e+00 -7.499604021664652009e-01
-1.614992716908454895e+01 6.385753210633993149e+00 -7.254395281430277009e-01
-1.659096720814704895e+01 6.345592077821493149e+00 -7.329926287289652009e-01
-1.410415080189704895e+01 6.657237585633993149e+00 -6.310639177914652009e-01
-1.253627970814704895e+01 5.985606726258993149e+00 -5.784668718930277009e-01
-1.299172404408454895e+01 6.009166296571493149e+00 -5.869049822445902009e-01
-1.245095255970954895e+01 5.709239538758993149e+00 -5.660462175961527009e-01
-1.496804240345954895e+01 6.352061804383993149e+00 -6.331238543149027009e-01
-1.621206095814704895e+01 6.567882116883993149e+00 -6.622071062680277009e-01
-1.613564494252204895e+01 6.384166296571493149e+00 -6.536164080258402009e-01
-1.606057170033454895e+01 6.204112585633993149e+00 -6.452088152524027009e-01
-1.247561076283454895e+01 6.092174109071493149e+00 -5.270905291195902009e-01
-1.688430216908454895e+01 7.453746374696493149e+00 -6.328034197445902009e-01
-1.248134806752204895e+01 5.844737585633993149e+00 -5.176300799008402009e-01
-1.247707560658454895e+01 5.719371374696493149e+00 -5.127625261899027009e-01
-1.233046916127204895e+01 5.552012976258993149e+00 -5.045380388852152009e-01
-1.443776896595954895e+01 6.049815710633993149e+00 -5.491699968930277009e-01
-1.612148478627204895e+01 6.382701452821493149e+00 -5.823273455258402009e-01
-1.565358927845954895e+01 6.095958288758993149e+00 -5.656342302914652009e-01
-1.327968791127204895e+01 6.374278601258993149e+00 -4.888367449399027009e-01
-1.431606486439704895e+01 6.589854773133993149e+00 -5.048126970883402009e-01
-1.293166545033454895e+01 5.993541296571493149e+00 -4.720215593930277009e-01
-1.509438517689704895e+01 6.546519812196493149e+00 -5.091614519711527009e-01
-1.485366252064704895e+01 6.321910437196493149e+00 -4.989685808774027009e-01
-1.522194865345954895e+01 6.282237585633993149e+00 -5.003266131039652009e-01
-1.444521525502204895e+01 5.911265905946493149e+00 -4.805817400570902009e-01
-1.446767619252204895e+01 5.775767859071493149e+00 -4.757294451352152009e-01
-1.326162150502204895e+01 6.370006140321493149e+00 -4.301209246274027009e-01
-1.431105998158454895e+01 6.590343054383993149e+00 -4.414582049008402009e-01
-1.503322795033454895e+01 6.681651648133993149e+00 -4.471039568539652009e-01
-1.506447795033454895e+01 6.539317663758993149e+00 -4.421143328305277009e-01
-1.479726603627204895e+01 6.307017859071493149e+00 -4.329285418149027009e-01
-1.446657755970954895e+01 6.062755163758993149e+00 -4.230866228695902009e-01
-1.444973185658454895e+01 5.914683874696493149e+00 -4.177307879086527009e-01
-1.444545939564704895e+01 5.771983679383993149e+00 -4.126190935727152009e-01
-1.009951213002204895e+01 5.268931921571493149e+00 -3.370117937680277009e-01
-1.030153849720954895e+01 5.238536413758993149e+00 -3.357453142758402009e-01
-1.051198771595954895e+01 5.207042273133993149e+00 -3.346619402524027009e-01
-1.073147013783454895e+01 5.174083288758993149e+00 -3.332886492367777009e-01
-1.095913127064704895e+01 5.139781530946493149e+00 -3.318543230649027009e-01
-1.119655802845954895e+01 5.104014929383993149e+00 -3.303589617367777009e-01
-1.144460490345954895e+01 5.066295202821493149e+00 -3.285431658383402009e-01
-1.170327189564704895e+01 5.027354773133993149e+00 -3.269104754086527009e-01
-1.001333048939704895e+01 5.240367468446493149e+00 -2.934784685727152009e-01
-1.021157267689704895e+01 5.209727820008993149e+00 -2.913727556820902009e-01
-1.041762736439704895e+01 5.177745398133993149e+00 -2.891907488461527009e-01
-1.063698771595954895e+01 5.145762976258993149e+00 -2.869324480649027009e-01
-1.087673380970954895e+01 5.116221960633993149e+00 -2.846436297055277009e-01
-1.112734416127204895e+01 5.085338171571493149e+00 -2.822327410336527009e-01
-1.139064982533454895e+01 5.052745398133993149e+00 -2.797150408383402009e-01
-1.166555216908454895e+01 5.018809851258993149e+00 -2.770905291195902009e-01
-1.004311564564704895e+01 5.252208288758993149e+00 -2.507080828305277009e-01
-1.025649455189704895e+01 5.226329382508993149e+00 -2.480072771664652009e-01
-1.047963908314704895e+01 5.199595984071493149e+00 -2.449555193539652009e-01
-1.071328166127204895e+01 5.171519812196493149e+00 -2.417664324399027009e-01
-1.095668986439704895e+01 5.142222937196493149e+00 -2.384247576352152009e-01
-1.121132853627204895e+01 5.111583288758993149e+00 -2.349457537289652009e-01
-1.147878459095954895e+01 5.079478796571493149e+00 -2.312836443539652009e-01
-1.175881388783454895e+01 5.046031530946493149e+00 -2.271942888852152009e-01
-1.010732463002204895e+01 5.276134070008993149e+00 -2.077393328305277009e-01
-1.030593302845954895e+01 5.244639929383993149e+00 -2.039551531430277009e-01
-1.051247599720954895e+01 5.211925085633993149e+00 -2.000183855649027009e-01
-1.072793009877204895e+01 5.177745398133993149e+00 -1.958985125180277009e-01
-1.095144084095954895e+01 5.142222937196493149e+00 -1.916413103695902009e-01
-1.118422892689704895e+01 5.105357702821493149e+00 -1.872010027524027009e-01
-1.142775920033454895e+01 5.066661413758993149e+00 -1.825470720883402009e-01
-1.168105509877204895e+01 5.026500280946493149e+00 -1.777100359555277009e-01
-1.003579142689704895e+01 5.252696570008993149e+00 -1.650910174008402009e-01
-1.023195841908454895e+01 5.221080359071493149e+00 -1.607575213070902009e-01
-1.043520548939704895e+01 5.188121374696493149e+00 -1.560120379086527009e-01
-1.064736369252204895e+01 5.153819616883993149e+00 -1.510529314633402009e-01
-1.086721232533454895e+01 5.118175085633993149e+00 -1.459259783383402009e-01
-1.110061076283454895e+01 5.082408484071493149e+00 -1.405243670102152009e-01
-1.137233927845954895e+01 5.052745398133993149e+00 -1.346039568539652009e-01
-1.165725138783454895e+01 5.021861609071493149e+00 -1.281342302914652009e-01
-1.000051310658454895e+01 5.241832312196493149e+00 -1.228852068539652009e-01
-1.022023966908454895e+01 5.218638952821493149e+00 -1.171784197445902009e-01
-1.044985392689704895e+01 5.194469030946493149e+00 -1.112274920102152009e-01
-1.069069865345954895e+01 5.169078405946493149e+00 -1.049713884945902009e-01
-1.094204142689704895e+01 5.142589148133993149e+00 -9.844062677584020093e-02
-1.120534709095954895e+01 5.114879187196493149e+00 -9.160468927584020093e-02
-1.148269084095954895e+01 5.085704382508993149e+00 -8.441779962740270093e-02
-1.177285197377204895e+01 5.055186804383993149e+00 -7.687995783052770093e-02
-1.008449748158454895e+01 5.272594030946493149e+00 -7.861945978365270093e-02
-1.030825236439704895e+01 5.249888952821493149e+00 -7.189033380709020093e-02
-1.054152873158454895e+01 5.226085241883993149e+00 -6.510017267427770093e-02
-1.424770548939704895e+01 6.296886023133993149e+00 8.447190606972299065e-03
-1.423793986439704895e+01 6.151866491883993149e+00 1.198722966947229907e-02
-1.468154338002204895e+01 6.141612585633993149e+00 2.442314275540979907e-02
-1.696010783314704895e+01 6.643321570008993149e+00 7.415153631009729907e-02
-1.602028849720954895e+01 6.217906530946493149e+00 5.951835759915979907e-02
-1.311843302845954895e+01 6.335948523133993149e+00 3.472282537259729907e-02
-1.419130900502204895e+01 6.567271765321493149e+00 6.279899724759729907e-02
-1.422512248158454895e+01 6.435191687196493149e+00 6.716301091947229907e-02
-1.417995646595954895e+01 6.277598913758993149e+00 6.965019353665979907e-02
-1.377431681752204895e+01 6.012218054383993149e+00 6.334831365384729907e-02
-1.658352091908454895e+01 6.704967077821493149e+00 1.355071271304097991e-01
-1.593325236439704895e+01 6.354136999696493149e+00 1.235594952944722991e-01
-1.606960490345954895e+01 6.233897741883993149e+00 1.312651837710347991e-01
-1.569191935658454895e+01 6.083995398133993149e+00 -1.186346510564902701e+00
-1.224697306752204895e+01 5.035533484071493149e+00 -9.550995623227152009e-01
-1.586293986439704895e+01 5.819102820008993149e+00 -1.182272413885215201e+00
-1.292495158314704895e+01 4.963634070008993149e+00 -9.872193132992777009e-01
-1.319484904408454895e+01 4.902232702821493149e+00 -9.984345232602152009e-01
-1.325698283314704895e+01 4.790660437196493149e+00 -9.963593279477152009e-01
-1.331984904408454895e+01 4.677989538758993149e+00 -9.942536150570902009e-01
-1.337661173939704895e+01 4.563853796571493149e+00 -9.920868670102152009e-01
-1.593960002064704895e+01 6.153453405946493149e+00 -1.132299879705527701e+00
-1.224770548939704895e+01 5.037486609071493149e+00 -9.029297625180277009e-01
-1.615407755970954895e+01 5.894176062196493149e+00 -1.130072096502402701e+00
-1.292531779408454895e+01 4.965587195008993149e+00 -9.317841326352152009e-01
-1.615163615345954895e+01 5.578624304383993149e+00 -1.115194777166465201e+00
-1.627749064564704895e+01 5.449962195008993149e+00 -1.115210035955527701e+00
-1.631716349720954895e+01 5.301036413758993149e+00 -1.110525587713340201e+00
-1.476662638783454895e+01 4.839488562196493149e+00 -1.014532545721152701e+00
-1.619594767689704895e+01 6.225352820008993149e+00 -1.076376417791465201e+00
-1.224843791127204895e+01 5.039561804383993149e+00 -8.504853045102152009e-01
-1.619960978627204895e+01 5.907970007508993149e+00 -1.062017897283652701e+00
-1.292556193470954895e+01 4.967662390321493149e+00 -8.766388689633402009e-01
-1.670583537220954895e+01 5.707652624696493149e+00 -1.074881056463340201e+00
-1.682998088002204895e+01 5.572886999696493149e+00 -1.074102858221152701e+00
-1.695583537220954895e+01 5.436046179383993149e+00 -1.073309401189902701e+00
-1.693056681752204895e+01 5.268077429383993149e+00 -1.064535597478965201e+00
-1.647060588002204895e+01 6.302135046571493149e+00 -1.019339064275840201e+00
-1.224904826283454895e+01 5.041636999696493149e+00 -7.980408465024027009e-01
-1.617165568470954895e+01 5.903453405946493149e+00 -9.894776140805277009e-01
-1.292739298939704895e+01 4.970103796571493149e+00 -8.212952410336527009e-01
-1.761367228627204895e+01 5.917613562196493149e+00 -1.046331862127402701e+00
-1.791237834095954895e+01 5.811412390321493149e+00 -1.053228834783652701e+00
-1.748586466908454895e+01 5.548595007508993149e+00 -1.024862745916465201e+00
-1.698220255970954895e+01 5.280894812196493149e+00 -9.936585222836527009e-01
-1.620974162220954895e+01 6.234019812196493149e+00 -9.344849382992777009e-01
-1.224978068470954895e+01 5.043590124696493149e+00 -7.458710466977152009e-01
-1.614394572377204895e+01 5.899058874696493149e+00 -9.176087175961527009e-01
-1.293129923939704895e+01 4.972911413758993149e+00 -7.663025652524027009e-01
-1.767910197377204895e+01 5.935313757508993149e+00 -9.721741472836527009e-01
-1.766359904408454895e+01 5.759898718446493149e+00 -9.639801775570902009e-01
-1.857155802845954895e+01 5.776866491883993149e+00 -9.960694109555277009e-01
-1.748110392689704895e+01 5.381969030946493149e+00 -9.411988054867777009e-01
-1.616665080189704895e+01 6.224864538758993149e+00 -8.615784441586527009e-01
-1.225051310658454895e+01 5.045665320008993149e+00 -6.934113299008402009e-01
-1.780019572377204895e+01 6.315440710633993149e+00 -9.140839373227152009e-01
-1.293508341908454895e+01 4.975841101258993149e+00 -7.109894549008402009e-01
-1.771743205189704895e+01 5.946910437196493149e+00 -8.959107195492777009e-01
-1.738637736439704895e+01 5.702159460633993149e+00 -8.755554949399027009e-01
-1.739553263783454895e+01 5.535289343446493149e+00 -8.687195574399027009e-01
-1.804531291127204895e+01 5.496104773133993149e+00 -8.869843279477152009e-01
-1.612368205189704895e+01 6.215709265321493149e+00 -7.886872088070902009e-01
-1.225112345814704895e+01 5.047618445008993149e+00 -6.412415300961527009e-01
-1.775795939564704895e+01 6.307628210633993149e+00 -8.342652117367777009e-01
-1.293898966908454895e+01 4.978648718446493149e+00 -6.559510027524027009e-01
-1.772939494252204895e+01 5.952403601258993149e+00 -8.187927996274027009e-01
-1.807399943470954895e+01 5.855113562196493149e+00 -8.235535418149027009e-01
-1.735085490345954895e+01 5.528697546571493149e+00 -7.915253435727152009e-01
-1.717226603627204895e+01 5.326427038758993149e+00 -7.785553728695902009e-01
-1.608107951283454895e+01 6.206676062196493149e+00 -7.166199480649027009e-01
-1.225185588002204895e+01 5.049693640321493149e+00 -5.890717302914652009e-01
-1.604091838002204895e+01 5.880870398133993149e+00 -7.022156511899027009e-01
-1.294277384877204895e+01 4.981578405946493149e+00 -6.005768572445902009e-01
-1.774147990345954895e+01 5.957896765321493149e+00 -7.411408220883402009e-01
-1.729006388783454895e+01 5.686534460633993149e+00 -7.206482683774027009e-01
-1.826247599720954895e+01 5.721202429383993149e+00 -7.429566179867777009e-01
-1.726491740345954895e+01 5.347423132508993149e+00 -7.067932879086527009e-01
-1.605996134877204895e+01 6.203380163758993149e+00 -6.451630388852152009e-01
-1.225258830189704895e+01 5.051768835633993149e+00 -5.366120134945902009e-01
-1.600576213002204895e+01 5.874522741883993149e+00 -6.313080584164652009e-01
-1.745888713002204895e+01 6.066417273133993149e+00 -6.629700457211527009e-01
-1.795888713002204895e+01 6.010509070008993149e+00 -6.690735613461527009e-01
-1.724245646595954895e+01 5.678844030946493149e+00 -6.441101824399027009e-01
-1.727907755970954895e+01 5.519176062196493149e+00 -6.384186541195902009e-01
-1.849440959095954895e+01 5.593516882508993149e+00 -6.615204607602152009e-01
-1.565456584095954895e+01 6.095714148133993149e+00 -5.656342302914652009e-01
-1.225319865345954895e+01 5.053721960633993149e+00 -4.844269549008402009e-01
-1.718801310658454895e+01 6.173106726258993149e+00 -5.871948992367777009e-01
-1.774477580189704895e+01 6.137706335633993149e+00 -5.925812517758402009e-01
-1.792824748158454895e+01 6.006236609071493149e+00 -5.897736345883402009e-01
-1.719509318470954895e+01 5.671153601258993149e+00 -5.680146013852152009e-01
-1.709804728627204895e+01 5.484141882508993149e+00 -5.596680437680277009e-01
-1.716823771595954895e+01 5.333629187196493149e+00 -5.547547136899027009e-01
-1.446889689564704895e+01 5.775645788758993149e+00 -4.757294451352152009e-01
-1.225393107533454895e+01 5.055797155946493149e+00 -4.319672381039652009e-01
-1.593569377064704895e+01 5.861827429383993149e+00 -4.901337420102152009e-01
-1.714467814564704895e+01 5.996348913758993149e+00 -5.043854509945902009e-01
-1.733559611439704895e+01 5.873057898133993149e+00 -5.012421404477152009e-01
-1.714772990345954895e+01 5.663463171571493149e+00 -4.919800554867777009e-01
-1.717922404408454895e+01 5.503795202821493149e+00 -4.862732683774027009e-01
-1.711879923939704895e+01 5.326549109071493149e+00 -4.791931902524027009e-01
-1.444668009877204895e+01 5.771861609071493149e+00 -4.126190935727152009e-01
-1.225466349720954895e+01 5.057750280946493149e+00 -3.797821795102152009e-01
-1.590102580189704895e+01 5.855601843446493149e+00 -4.202484881039652009e-01
-1.262978556752204895e+01 4.914195593446493149e+00 -3.757691179867777009e-01
-1.289638713002204895e+01 4.855723913758993149e+00 -3.744873797055277009e-01
-1.317434123158454895e+01 4.794688757508993149e+00 -3.731598650570902009e-01
-1.346547892689704895e+01 4.730723913758993149e+00 -3.717560564633402009e-01
-1.376870158314704895e+01 4.664195593446493149e+00 -3.703064715024027009e-01
-1.170498088002204895e+01 5.027476843446493149e+00 -3.269104754086527009e-01
-1.197548869252204895e+01 4.986583288758993149e+00 -3.251099382992777009e-01
-1.225966838002204895e+01 4.943980749696493149e+00 -3.235230242367777009e-01
-1.251101115345954895e+01 4.887584265321493149e+00 -3.212036882992777009e-01
-1.277224162220954895e+01 4.829112585633993149e+00 -3.188080584164652009e-01
-1.304458048939704895e+01 4.768199499696493149e+00 -3.163056170102152009e-01
-1.332900431752204895e+01 4.704234655946493149e+00 -3.133911882992777009e-01
-1.363259318470954895e+01 4.639293249696493149e+00 -3.106903826352152009e-01
-1.166738322377204895e+01 5.018931921571493149e+00 -2.770752703305277009e-01
-1.195644572377204895e+01 4.983409460633993149e+00 -2.741913591977152009e-01
-1.226027873158454895e+01 4.945933874696493149e+00 -2.711548601742777009e-01
-1.253054240345954895e+01 4.894176062196493149e+00 -2.678131853695902009e-01
-1.281276896595954895e+01 4.840343054383993149e+00 -2.643494402524027009e-01
-1.310817912220954895e+01 4.784190710633993149e+00 -2.607178484555277009e-01
-1.341860392689704895e+01 4.724986609071493149e+00 -2.569031511899027009e-01
-1.374306681752204895e+01 4.663219030946493149e+00 -2.529206072445902009e-01
-1.176076701283454895e+01 5.046153601258993149e+00 -2.271790300961527009e-01
-1.205068400502204895e+01 5.009898718446493149e+00 -2.232727800961527009e-01
-1.231814005970954895e+01 4.962413366883993149e+00 -2.189545427914652009e-01
-1.257277873158454895e+01 4.906261023133993149e+00 -2.144837175961527009e-01
-1.283278849720954895e+01 4.846934851258993149e+00 -2.098603045102152009e-01
-1.310378459095954895e+01 4.785167273133993149e+00 -2.050385271664652009e-01
-1.338747599720954895e+01 4.720592077821493149e+00 -1.999878679867777009e-01
-1.368178752064704895e+01 4.653209265321493149e+00 -1.944336687680277009e-01
-1.168264201283454895e+01 5.026622351258993149e+00 -1.776947771664652009e-01
-1.194704630970954895e+01 4.984508093446493149e+00 -1.724457537289652009e-01
-1.222377970814704895e+01 4.940440710633993149e+00 -1.669525896664652009e-01
-1.247524455189704895e+01 4.884654577821493149e+00 -1.614594256039652009e-01
-1.273098185658454895e+01 4.825450476258993149e+00 -1.557984148617777009e-01
-1.302736857533454895e+01 4.770396765321493149e+00 -1.496643816586527009e-01
-1.334426310658454895e+01 4.713511999696493149e+00 -1.431641375180277009e-01
-1.367568400502204895e+01 4.654063757508993149e+00 -1.363739763852152009e-01
-1.165920451283454895e+01 5.021983679383993149e+00 -1.281037127133402009e-01
-1.195827677845954895e+01 4.989268835633993149e+00 -1.216034685727152009e-01
-1.227419474720954895e+01 4.954967077821493149e+00 -1.144776140805277009e-01
-1.255202677845954895e+01 4.905040320008993149e+00 -1.075959002133402009e-01
-1.284499552845954895e+01 4.853648718446493149e+00 -1.003784929867777009e-01
-1.315200236439704895e+01 4.799815710633993149e+00 -9.281013361177770093e-02
-1.659084513783454895e+01 5.396373327821493149e+00 -4.527900568209020093e-02
-1.646889689564704895e+01 5.213023718446493149e+00 -4.155586115084020093e-02
-1.177480509877204895e+01 5.055308874696493149e+00 -7.683418146334020093e-02
-1.702944377064704895e+01 6.322154577821493149e+00 9.698411310097299065e-03
-1.696743205189704895e+01 6.138927038758993149e+00 1.371147283353479907e-02
-1.626284220814704895e+01 5.802257116883993149e+00 7.104417169472299065e-03
-1.696340373158454895e+01 5.806041296571493149e+00 2.358390935697229907e-02
-1.688088420033454895e+01 5.623302038758993149e+00 2.709343084134729907e-02
-1.787380412220954895e+01 5.668223913758993149e+00 4.927971013822229907e-02
-1.650527384877204895e+01 5.222789343446493149e+00 3.019096502103479907e-02
-1.601784709095954895e+01 6.216685827821493149e+00 5.947258123197229907e-02
-1.686525920033454895e+01 6.281627234071493149e+00 8.147575506009729907e-02
-1.698098185658454895e+01 6.145030554383993149e+00 8.828117498197229907e-02
-1.696059611439704895e+01 5.973277624696493149e+00 9.267570623197229907e-02
-1.736806681752204895e+01 5.902110632508993149e+00 1.061949933413472991e-01
-1.679140666127204895e+01 5.606212195008993149e+00 9.850456365384729907e-02
-1.663234904408454895e+01 5.410289343446493149e+00 1.000762189272847991e-01
-1.653823283314704895e+01 5.231944616883993149e+00 1.025786603335347991e-01
-1.607082560658454895e+01 6.233653601258993149e+00 1.313109601382222991e-01
-1.688649943470954895e+01 6.289805945008993149e+00 1.559844220522847991e-01
-1.694057658314704895e+01 6.137462195008993149e+00 1.619811261538472991e-01
-1.689345744252204895e+01 5.959727820008993149e+00 1.653990949038472991e-01
-1.770742228627204895e+01 5.983165320008993149e+00 1.912932599429097991e-01
-1.657229045033454895e+01 5.560435827821493149e+00 1.660247052554097991e-01
-1.660830119252204895e+01 5.407847937196493149e+00 1.714415753725972991e-01
-1.655874064564704895e+01 5.238658484071493149e+00 1.749205792788472991e-01
-1.337673380970954895e+01 4.563487585633993149e+00 -9.920716082211527009e-01
-1.343862345814704895e+01 4.449718054383993149e+00 -9.899353777524027009e-01
-1.349465373158454895e+01 4.333873327821493149e+00 -9.877228533383402009e-01
-1.355129435658454895e+01 4.217174109071493149e+00 -9.854798113461527009e-01
-1.360793498158454895e+01 4.099986609071493149e+00 -9.832367693539652009e-01
-1.369350627064704895e+01 3.986339148133993149e+00 -9.826721941586527009e-01
-1.378347209095954895e+01 3.871470984071493149e+00 -9.822907244320902009e-01
-1.386672404408454895e+01 3.754771765321493149e+00 -9.817871843930277009e-01
-1.476748088002204895e+01 4.839244421571493149e+00 -1.014547804510215201e+00
-1.489760783314704895e+01 4.723765905946493149e+00 -1.015768507635215201e+00
-1.504116252064704895e+01 4.608531530946493149e+00 -1.017294386541465201e+00
-1.501027873158454895e+01 4.461192663758993149e+00 -1.009298781072715201e+00
-1.531313517689704895e+01 4.367564734071493149e+00 -1.019857863103965201e+00
-1.545229533314704895e+01 4.244273718446493149e+00 -1.021154860174277701e+00
-1.583645060658454895e+01 4.151378210633993149e+00 -1.036047438299277701e+00
-1.575600627064704895e+01 3.993419226258993149e+00 -1.025183180486777701e+00
-1.693215373158454895e+01 5.267833288758993149e+00 -1.064596632635215201e+00
-1.718447306752204895e+01 5.152843054383993149e+00 -1.070684889471152701e+00
-1.803908732533454895e+01 5.139415320008993149e+00 -1.107672194158652701e+00
-1.501125529408454895e+01 4.463756140321493149e+00 -9.452881609555277009e-01
-1.751833537220954895e+01 4.713511999696493149e+00 -1.066305617010215201e+00
-1.751186564564704895e+01 4.546641882508993149e+00 -1.058783034002402701e+00
-1.750551798939704895e+01 4.379893835633993149e+00 -1.051260450994590201e+00
-1.749904826283454895e+01 4.214366491883993149e+00 -1.043798903143027701e+00
-1.752272990345954895e+01 5.386851843446493149e+00 -1.019476393377402701e+00
-1.749428752064704895e+01 5.213511999696493149e+00 -1.010550001775840201e+00
-1.747695353627204895e+01 5.043101843446493149e+00 -1.002600172674277701e+00
-1.501235392689704895e+01 4.466197546571493149e+00 -8.809265886899027009e-01
-1.749001505970954895e+01 4.711925085633993149e+00 -9.889893328305277009e-01
-1.840932658314704895e+01 4.680308874696493149e+00 -1.023855665838340201e+00
-1.939480021595954895e+01 4.638927038758993149e+00 -1.060919264471152701e+00
-1.949465373158454895e+01 4.467540320008993149e+00 -1.057989576971152701e+00
-1.748122599720954895e+01 5.381480749696493149e+00 -9.411682879086527009e-01
-1.747976115345954895e+01 5.213511999696493149e+00 -9.340729509945902009e-01
-1.927749064564704895e+01 5.363902624696493149e+00 -1.003057936346152701e+00
-1.501345255970954895e+01 4.468761023133993149e+00 -8.169007097836527009e-01
-1.744936564564704895e+01 4.708262976258993149e+00 -9.118561541195902009e-01
-1.835256388783454895e+01 4.674937780946493149e+00 -9.419312273617777009e-01
-1.744924357533454895e+01 4.377818640321493149e+00 -8.980011736508402009e-01
-2.122439005970954895e+01 4.688121374696493149e+00 -1.042593458807090201e+00
-1.804641154408454895e+01 5.495738562196493149e+00 -8.869995867367777009e-01
-1.848745158314704895e+01 5.404796179383993149e+00 -8.962006365414652009e-01
-1.982705119252204895e+01 5.464244421571493149e+00 -9.392304216977152009e-01
-1.501442912220954895e+01 4.471202429383993149e+00 -7.525391375180277009e-01
-1.833083537220954895e+01 4.848887976258993149e+00 -8.685669695492777009e-01
-1.741335490345954895e+01 4.540538366883993149e+00 -8.280701433774027009e-01
-1.742116740345954895e+01 4.376720007508993149e+00 -8.215698992367777009e-01
-2.205263713002204895e+01 4.795665320008993149e+00 -9.796662127133402009e-01
-1.717421916127204895e+01 5.326182898133993149e+00 -7.786011492367777009e-01
-1.854799845814704895e+01 5.419078405946493149e+00 -8.177552019711527009e-01
-1.770107463002204895e+01 5.090953405946493149e+00 -7.826599871274027009e-01
-1.501552775502204895e+01 4.473765905946493149e+00 -6.885132586117777009e-01
-1.692141154408454895e+01 4.631114538758993149e+00 -7.439789568539652009e-01
-1.736940959095954895e+01 4.536876257508993149e+00 -7.517151629086527009e-01
-1.737783244252204895e+01 4.373546179383993149e+00 -7.453369890805277009e-01
-2.271657755970954895e+01 4.882945593446493149e+00 -9.034943377133402009e-01
-1.726687052845954895e+01 5.347301062196493149e+00 -7.068390642758402009e-01
-1.739235880970954895e+01 5.205211218446493149e+00 -7.038636004086527009e-01
-1.714528849720954895e+01 4.995250280946493149e+00 -6.898865496274027009e-01
-1.501662638783454895e+01 4.476207312196493149e+00 -6.241364275570902009e-01
-1.705202677845954895e+01 4.654307898133993149e+00 -6.743683611508402009e-01
-1.732546427845954895e+01 4.533092077821493149e+00 -6.753601824399027009e-01
-1.733413127064704895e+01 4.370372351258993149e+00 -6.694855486508402009e-01
-1.747634318470954895e+01 4.225230749696493149e+00 -6.667542254086527009e-01
-1.849550822377204895e+01 5.593150671571493149e+00 -6.615204607602152009e-01
-1.715651896595954895e+01 5.163707312196493149e+00 -6.224579607602152009e-01
-1.738527873158454895e+01 5.040538366883993149e+00 -6.214661394711527009e-01
-1.501760295033454895e+01 4.478770788758993149e+00 -5.600952898617777009e-01
-1.722182658314704895e+01 4.683604773133993149e+00 -6.048493181820902009e-01
-1.689809611439704895e+01 4.473155554383993149e+00 -5.912537371274027009e-01
-2.331289103627204895e+01 5.188975866883993149e+00 -7.261414324399027009e-01
-1.701381877064704895e+01 4.169566687196493149e+00 -5.813507830258402009e-01
-1.716774943470954895e+01 5.333018835633993149e+00 -5.547089373227152009e-01
-1.710744670033454895e+01 5.157237585633993149e+00 -5.472626482602152009e-01
-1.734499552845954895e+01 5.036021765321493149e+00 -5.455231463070902009e-01
-1.501870158314704895e+01 4.481212195008993149e+00 -4.960541521664652009e-01
-1.729970744252204895e+01 4.698497351258993149e+00 -5.320801531430277009e-01
-1.684719279408454895e+01 4.468394812196493149e+00 -5.177826677914652009e-01
-1.724221232533454895e+01 4.363170202821493149e+00 -5.185608660336527009e-01
-1.720144084095954895e+01 4.196055945008993149e+00 -5.116791521664652009e-01
-1.711831095814704895e+01 5.325816687196493149e+00 -4.791626726742777009e-01
-1.705849650502204895e+01 5.150645788758993149e+00 -4.721436297055277009e-01
-1.790456584095954895e+01 5.138194616883993149e+00 -4.781098162289652009e-01
-1.501980021595954895e+01 4.483775671571493149e+00 -4.316620623227152009e-01
-1.724196818470954895e+01 4.692149695008993149e+00 -4.563660418149027009e-01
-1.804458048939704895e+01 4.646983679383993149e+00 -4.607758318539652009e-01
-1.710280802845954895e+01 4.346812780946493149e+00 -4.423584734555277009e-01
-1.712502482533454895e+01 4.189097937196493149e+00 -4.366211687680277009e-01
-1.377077677845954895e+01 4.664195593446493149e+00 -3.703064715024027009e-01
-1.408803752064704895e+01 4.594371374696493149e+00 -3.687195574399027009e-01
-1.442055705189704895e+01 4.521373327821493149e+00 -3.670563494320902009e-01
-1.477089884877204895e+01 4.444346960633993149e+00 -3.653015886899027009e-01
-1.512807658314704895e+01 4.362193640321493149e+00 -3.633942400570902009e-01
-1.544252970814704895e+01 4.266856726258993149e+00 -3.608460222836527009e-01
-1.578591349720954895e+01 4.169200476258993149e+00 -3.583130632992777009e-01
-1.614394572377204895e+01 4.067271765321493149e+00 -3.556732927914652009e-01
-1.363479045033454895e+01 4.639293249696493149e+00 -3.106903826352152009e-01
-1.397011759877204895e+01 4.574351843446493149e+00 -3.078522478695902009e-01
-1.432216838002204895e+01 4.505992468446493149e+00 -3.051972185727152009e-01
-1.469497111439704895e+01 4.433848913758993149e+00 -3.020691668149027009e-01
-1.507058146595954895e+01 4.355479773133993149e+00 -2.986969744320902009e-01
-1.542360880970954895e+01 4.266490515321493149e+00 -2.949738299008402009e-01
-1.579543498158454895e+01 4.172984655946493149e+00 -2.907013689633402009e-01
-1.618398478627204895e+01 4.074840124696493149e+00 -2.865967547055277009e-01
-1.374526408314704895e+01 4.663341101258993149e+00 -2.529053484555277009e-01
-1.408645060658454895e+01 4.598399695008993149e+00 -2.485718523617777009e-01
-1.444533732533454895e+01 4.530162390321493149e+00 -2.440094744320902009e-01
-1.479140666127204895e+01 4.452403601258993149e+00 -2.391876970883402009e-01
-1.507155802845954895e+01 4.357921179383993149e+00 -2.341675554867777009e-01
-1.545363810658454895e+01 4.273326452821493149e+00 -2.288880144711527009e-01
-1.579335978627204895e+01 4.175059851258993149e+00 -2.233795916195902009e-01
-1.614724162220954895e+01 4.072764929383993149e+00 -2.176575457211527009e-01
-1.368374064564704895e+01 4.653209265321493149e+00 -1.944031511899027009e-01
-1.399257853627204895e+01 4.582896765321493149e+00 -1.890473162289652009e-01
-1.431521037220954895e+01 4.509166296571493149e+00 -1.830963884945902009e-01
-1.465468791127204895e+01 4.431651648133993149e+00 -1.768402849789652009e-01
-1.502761271595954895e+01 4.353404577821493149e+00 -1.702179705258402009e-01
-1.538051798939704895e+01 4.264903601258993149e+00 -1.634430681820902009e-01
-1.576113322377204895e+01 4.173106726258993149e+00 -1.562714373227152009e-01
-1.616091349720954895e+01 4.077037390321493149e+00 -1.483673845883402009e-01
-1.367800334095954895e+01 4.654063757508993149e+00 -1.363434588070902009e-01
-1.402736857533454895e+01 4.591685827821493149e+00 -1.289582049008402009e-01
-1.439577677845954895e+01 4.525767859071493149e+00 -1.211762224789652009e-01
-1.478603556752204895e+01 4.456065710633993149e+00 -1.129364763852152009e-01
-1.516652873158454895e+01 4.377696570008993149e+00 -1.045441424008402009e-01
-2.354030802845954895e+01 5.473765905946493149e+00 -1.526496759615270093e-02
-2.380727580189704895e+01 5.283214148133993149e+00 -4.797438299277700935e-03
-1.726540568470954895e+01 4.220347937196493149e+00 -6.758735529146520093e-02
-1.646792033314704895e+01 5.212291296571493149e+00 -4.154060236177770093e-02
-1.671694377064704895e+01 5.102061804383993149e+00 -3.340766779146520093e-02
-1.681643107533454895e+01 4.960582312196493149e+00 -2.677009454927770093e-02
-2.221071818470954895e+01 5.708751257508993149e+00 5.428459295072229907e-02
-2.354885295033454895e+01 5.706065710633993149e+00 8.060600408353479907e-02
-2.420376017689704895e+01 5.575694616883993149e+00 9.775688298978479907e-02
-2.774233439564704895e+01 5.829356726258993149e+00 1.587767804507222991e-01
-1.731374552845954895e+01 4.229259070008993149e+00 7.531663263222299065e-03
-1.650429728627204895e+01 5.222056921571493149e+00 3.019096502103479907e-02
-1.638369181752204895e+01 5.041636999696493149e+00 3.310539373197229907e-02
-1.677260783314704895e+01 4.955333288758993149e+00 4.529716619290979907e-02
-2.223049357533454895e+01 5.715587195008993149e+00 1.525817120913472991e-01
-2.219582560658454895e+01 5.495616491883993149e+00 1.588530743960347991e-01
-2.420998576283454895e+01 5.580455359071493149e+00 2.047667706850972991e-01
-2.853640177845954895e+01 5.943492468446493149e+00 2.975707257632222991e-01
-1.733242228627204895e+01 4.234386023133993149e+00 8.210136541165979907e-02
-1.653750041127204895e+01 5.231212195008993149e+00 1.025786603335347991e-01
-1.641970255970954895e+01 5.051036413758993149e+00 1.048827374819722991e-01
-2.478689005970954895e+01 6.392833288758993149e+00 3.021331036929097991e-01
-2.225026896595954895e+01 5.722545202821493149e+00 2.505431378725972991e-01
-2.786806681752204895e+01 6.398326452821493149e+00 3.903441632632222991e-01
-2.422524455189704895e+01 5.586680945008993149e+00 3.114714825991597991e-01
-2.932241252064704895e+01 6.056651648133993149e+00 4.435363019350972991e-01
-3.001137736439704895e+01 5.860606726258993149e+00 4.694915021304097991e-01
-1.655800822377204895e+01 5.237926062196493149e+00 1.749205792788472991e-01
-1.669143107533454895e+01 5.105113562196493149e+00 1.830687726382222991e-01
-2.479384806752204895e+01 6.398082312196493149e+00 4.124541486147847991e-01
-2.795754435658454895e+01 6.690196570008993149e+00 5.085692609194722991e-01
-2.462160685658454895e+01 5.887584265321493149e+00 4.224639142397847991e-01
-2.426784709095954895e+01 5.596812780946493149e+00 4.196715558413472991e-01
-2.999367716908454895e+01 6.154307898133993149e+00 5.927520001772847991e-01
-3.075112345814704895e+01 5.960338171571493149e+00 6.246276105288472991e-01
-1.386733439564704895e+01 3.754405554383993149e+00 -9.818024431820902009e-01
-1.395717814564704895e+01 3.637218054383993149e+00 -9.813904558774027009e-01
-1.404043009877204895e+01 3.517589148133993149e+00 -9.808258806820902009e-01
-1.412502482533454895e+01 3.396373327821493149e+00 -9.802765642758402009e-01
-1.421022990345954895e+01 3.274058874696493149e+00 -9.797119890805277009e-01
-1.429641154408454895e+01 3.150401648133993149e+00 -9.791321550961527009e-01
-1.438381388783454895e+01 3.024791296571493149e+00 -9.785675799008402009e-01
-1.446389201283454895e+01 2.897838171571493149e+00 -9.778504168149027009e-01
-1.575551798939704895e+01 3.992930945008993149e+00 -1.025122145330527701e+00
-1.575759318470954895e+01 3.846446570008993149e+00 -1.019171217596152701e+00
-1.584426310658454895e+01 3.709117468446493149e+00 -1.017340162908652701e+00
-1.592165568470954895e+01 3.568980749696493149e+00 -1.015326002752402701e+00
-1.599953654408454895e+01 3.427989538758993149e+00 -1.013281325018027701e+00
-1.607802775502204895e+01 3.285899695008993149e+00 -1.011236647283652701e+00
-1.614699748158454895e+01 3.141246374696493149e+00 -1.008978346502402701e+00
-1.622695353627204895e+01 2.996715124696493149e+00 -1.006887892400840201e+00
-1.749892619252204895e+01 4.213756140321493149e+00 -1.043768385564902701e+00
-1.749270060658454895e+01 4.048839148133993149e+00 -1.036734083807090201e+00
-1.772585490345954895e+01 3.909434851258993149e+00 -1.041326979314902701e+00
-1.773842814564704895e+01 3.744151648133993149e+00 -1.035116652166465201e+00
-1.806557658314704895e+01 3.606212195008993149e+00 -1.043936232244590201e+00
-1.824001505970954895e+01 3.450450476258993149e+00 -1.045263746893027701e+00
-1.841835978627204895e+01 3.291270788758993149e+00 -1.046637037908652701e+00
-1.885122111439704895e+01 3.143443640321493149e+00 -1.059729078924277701e+00
-1.949611857533454895e+01 4.467174109071493149e+00 -1.058035353338340201e+00
-1.743813517689704895e+01 4.045299109071493149e+00 -9.588684832211527009e-01
-2.159780314564704895e+01 4.319957312196493149e+00 -1.134939650213340201e+00
-1.774001505970954895e+01 3.747081335633993149e+00 -9.587311541195902009e-01
-2.284572795033454895e+01 4.016124304383993149e+00 -1.172094801580527701e+00
-2.290310099720954895e+01 3.803844030946493149e+00 -1.165747145330527701e+00
-2.279751017689704895e+01 3.579356726258993149e+00 -1.152456740057090201e+00
-2.269191935658454895e+01 3.358165320008993149e+00 -1.139822462713340201e+00
-2.122878459095954895e+01 4.687999304383993149e+00 -1.042730787908652701e+00
-2.182436564564704895e+01 4.554820593446493149e+00 -1.058279493963340201e+00
-2.260512736439704895e+01 4.429698523133993149e+00 -1.080633619939902701e+00
-1.774147990345954895e+01 3.750011023133993149e+00 -8.827576433774027009e-01
-2.308974650502204895e+01 4.040660437196493149e+00 -1.082022169744590201e+00
-2.319021037220954895e+01 3.829112585633993149e+00 -1.077047804510215201e+00
-2.308144572377204895e+01 3.601573523133993149e+00 -1.064108351385215201e+00
-2.448891642689704895e+01 3.461192663758993149e+00 -1.107824782049277701e+00
-2.205642130970954895e+01 4.795421179383993149e+00 -9.797730242367777009e-01
-2.260573771595954895e+01 4.648814734071493149e+00 -9.901642595883402009e-01
-2.284536173939704895e+01 4.458629187196493149e+00 -9.899201189633402009e-01
-1.774294474720954895e+01 3.752940710633993149e+00 -8.063568865414652009e-01
-2.337063029408454895e+01 4.068370398133993149e+00 -9.904236590024027009e-01
-2.386562541127204895e+01 3.883800085633993149e+00 -9.981751238461527009e-01
-2.459731486439704895e+01 3.704478796571493149e+00 -1.013357618963340201e+00
-2.512624552845954895e+01 3.500499304383993149e+00 -1.021963575994590201e+00
-2.271865275502204895e+01 4.882457312196493149e+00 -9.035248552914652009e-01
-2.302590373158454895e+01 4.701060827821493149e+00 -9.043488299008402009e-01
-2.334145548939704895e+01 4.514903601258993149e+00 -9.052033220883402009e-01
-1.774453166127204895e+01 3.755992468446493149e+00 -7.303681170102152009e-01
-2.413247111439704895e+01 4.137462195008993149e+00 -9.108643328305277009e-01
-2.471779826283454895e+01 3.952159460633993149e+00 -9.187531267758402009e-01
-2.532790568470954895e+01 3.756480749696493149e+00 -9.268555437680277009e-01
-2.545546916127204895e+01 3.522960241883993149e+00 -9.209809099789652009e-01
-1.747805216908454895e+01 4.224986609071493149e+00 -6.667694841977152009e-01
-2.362233927845954895e+01 4.773936804383993149e+00 -8.192353045102152009e-01
-2.392946818470954895e+01 4.580943640321493149e+00 -8.177094256039652009e-01
-1.774599650502204895e+01 3.758922155946493149e+00 -6.539521013852152009e-01
-2.498769572377204895e+01 4.214732702821493149e+00 -8.260254656430277009e-01
-2.549440959095954895e+01 4.015147741883993149e+00 -8.290619646664652009e-01
-2.599782755970954895e+01 3.804576452821493149e+00 -8.322205340024027009e-01
-2.643703654408454895e+01 3.581798132508993149e+00 -8.329224382992777009e-01
-1.701320841908454895e+01 4.168956335633993149e+00 -5.813202654477152009e-01
-2.421523478627204895e+01 4.846690710633993149e+00 -7.279724871274027009e-01
-2.470290568470954895e+01 4.666881140321493149e+00 -7.292237078305277009e-01
-1.774746134877204895e+01 3.761851843446493149e+00 -5.779480730649027009e-01
-2.559926798939704895e+01 4.271373327821493149e+00 -7.290100847836527009e-01
-2.618728068470954895e+01 4.071910437196493149e+00 -7.311920916195902009e-01
-2.677370646595954895e+01 3.860118445008993149e+00 -7.328552996274027009e-01
-2.722219279408454895e+01 3.630137976258993149e+00 -7.315125261899027009e-01
-1.720217326283454895e+01 4.195567663758993149e+00 -5.116638933774027009e-01
-1.691994670033454895e+01 4.001475866883993149e+00 -5.008454119320902009e-01
-2.525319865345954895e+01 4.729381140321493149e+00 -6.299805437680277009e-01
-1.774904826283454895e+01 3.764781530946493149e+00 -5.019440447445902009e-01
-2.625271037220954895e+01 4.331920202821493149e+00 -6.270355974789652009e-01
-2.689614298939704895e+01 4.130137976258993149e+00 -6.271881853695902009e-01
-2.754116252064704895e+01 3.915172155946493149e+00 -6.268524920102152009e-01
-2.810231974720954895e+01 3.683970984071493149e+00 -6.248993670102152009e-01
-1.712575724720954895e+01 4.188609655946493149e+00 -4.366059099789652009e-01
-1.760744670033454895e+01 4.084239538758993149e+00 -4.363312517758402009e-01
-1.681801798939704895e+01 3.835216101258993149e+00 -4.209809099789652009e-01
-1.775051310658454895e+01 3.767833288758993149e+00 -4.255127703305277009e-01
-1.794741252064704895e+01 3.618907507508993149e+00 -4.214081560727152009e-01
-1.835451701283454895e+01 3.482432898133993149e+00 -4.193482195492777009e-01
-1.878249552845954895e+01 3.339000280946493149e+00 -4.171967302914652009e-01
-1.923012736439704895e+01 3.188975866883993149e+00 -4.149384295102152009e-01
-1.614638713002204895e+01 4.067027624696493149e+00 -3.556732927914652009e-01
-1.652126505970954895e+01 3.960216101258993149e+00 -3.528351580258402009e-01
-1.683083537220954895e+01 3.839244421571493149e+00 -3.492493425961527009e-01
-1.732985880970954895e+01 3.729991491883993149e+00 -3.466858660336527009e-01
-1.779628947377204895e+01 3.608653601258993149e+00 -3.435883318539652009e-01
-1.821914103627204895e+01 3.474986609071493149e+00 -3.398804461117777009e-01
-1.867885783314704895e+01 3.335094030946493149e+00 -3.360657488461527009e-01
-1.916152384877204895e+01 3.188121374696493149e+00 -3.320526873227152009e-01
-1.618667033314704895e+01 4.074718054383993149e+00 -2.865967547055277009e-01
-1.659585002064704895e+01 3.971568640321493149e+00 -2.821564470883402009e-01
-1.702626994252204895e+01 3.862681921571493149e+00 -2.778534685727152009e-01
-1.748330119252204895e+01 3.747569616883993149e+00 -2.729096209164652009e-01
-1.778713420033454895e+01 3.610728796571493149e+00 -2.674011980649027009e-01
-1.829995158314704895e+01 3.484141882508993149e+00 -2.619385515805277009e-01
-1.872011759877204895e+01 3.340831335633993149e+00 -2.555908953305277009e-01
-1.916005900502204895e+01 3.191173132508993149e+00 -2.493805681820902009e-01
-1.614968302845954895e+01 4.072520788758993149e+00 -2.176270281430277009e-01
-1.652004435658454895e+01 3.965343054383993149e+00 -2.114472185727152009e-01
-1.690847209095954895e+01 3.852794226258993149e+00 -2.049774920102152009e-01
-1.731789591908454895e+01 3.734263952821493149e+00 -1.981415545102152009e-01
