-8.411665931344032288e+00 7.366834253072738647e+00 -2.209732531337067485e-01
-8.447432532906532288e+00 7.289685815572738647e+00 -2.179672716883942485e-01
-1.260722257196903229e+01 1.259180983901023865e+01 -5.210220812587067485e-01
-1.281730557978153229e+01 1.261622390151023865e+01 -5.269882677821442485e-01
-1.303178311884403229e+01 1.264112624526023865e+01 -5.330612658290192485e-01
-1.325126554071903229e+01 1.266663894057273865e+01 -5.392868517665192485e-01
-1.354093839228153229e+01 1.275929030776023865e+01 -5.503036974696442485e-01
-1.381059171259403229e+01 1.282520827651023865e+01 -5.595963000087067485e-01
-8.411665931344032288e+00 7.367932885885238647e+00 -1.762192248133942485e-01
-8.447432532906532288e+00 7.290784448385238647e+00 -1.733505724696442485e-01
-1.268534757196903229e+01 1.267774733901023865e+01 -4.511826037196442485e-01
-1.289774991571903229e+01 1.270313796401023865e+01 -4.564774035243317485e-01
-1.311454679071903229e+01 1.272913894057273865e+01 -4.618790148524567485e-01
-1.338249112665653229e+01 1.280274733901023865e+01 -4.703934191493317485e-01
-1.369206143915653229e+01 1.291322097182273865e+01 -4.813644884852692485e-01
-1.396781827509403229e+01 1.298280104994773865e+01 -4.898483752040192485e-01
-8.411665931344032288e+00 7.369153589010238647e+00 -1.317245959071442485e-01
-8.447432532906532288e+00 7.291883081197738647e+00 -1.289932726649567485e-01
-1.276505948603153229e+01 1.276527175307273865e+01 -3.800003527430817485e-01
-1.297978116571903229e+01 1.279176101088523865e+01 -3.845932482508942485e-01
-1.320988370478153229e+01 1.283021315932273865e+01 -3.899338244227692485e-01
-1.353874112665653229e+01 1.296461257338523865e+01 -4.008438586024567485e-01
-1.384770108759403229e+01 1.307203444838523865e+01 -4.103043078212067485e-01
-1.412992765009403229e+01 1.314527663588523865e+01 -4.179337023524567485e-01
-8.411665931344032288e+00 7.370252221822738647e+00 -8.698582637589424849e-02
-8.447432532906532288e+00 7.293103784322738647e+00 -8.439183223526924849e-02
-1.284550382196903229e+01 1.285352858901023865e+01 -3.081924914149567485e-01
-1.306254483759403229e+01 1.288123854994773865e+01 -3.120834826258942485e-01
-1.337748624384403229e+01 1.300660476088523865e+01 -3.209640978602692485e-01
-1.369108487665653229e+01 1.312257155776023865e+01 -3.294632433680817485e-01
-1.299821378290653229e+01 1.221864089369773865e+01 -2.861588000087067485e-01
-1.429533292353153229e+01 1.331117019057273865e+01 -3.445389269618317485e-01
-8.411665931344032288e+00 7.371350854635238647e+00 -4.250645625870674849e-02
-8.447432532906532288e+00 7.294202417135238647e+00 -4.004979121964424849e-02
-1.292753507196903229e+01 1.294361647963523865e+01 -2.349808214930817485e-01
-1.320475675165653229e+01 1.303358229994773865e+01 -2.408249377040192485e-01
-1.353471280634403229e+01 1.317225417494773865e+01 -2.493088244227692485e-01
-1.384721280634403229e+01 1.328431472182273865e+01 -2.562973498133942485e-01
-1.416947843134403229e+01 1.340003737807273865e+01 -2.634842394618317485e-01
-1.446415616571903229e+01 1.348048171401023865e+01 -2.691910265712067485e-01
-8.411665931344032288e+00 7.372449487447738647e+00 2.217054483480751514e-03
-8.447432532906532288e+00 7.295301049947738647e+00 4.521131631918251514e-03
-1.303312589228153229e+01 1.305921706557273865e+01 -1.620590685633942485e-01
-1.337357999384403229e+01 1.321412429213523865e+01 -1.691696642665192485e-01
-1.368900968134403229e+01 1.333485183119773865e+01 -1.750595568446442485e-01
-1.400822354853153229e+01 1.345130690932273865e+01 -1.808273791102692485e-01
-1.433195401728153229e+01 1.356568679213523865e+01 -1.865799425868317485e-01
-1.462016202509403229e+01 1.363709792494773865e+01 -1.907303332118317485e-01
-8.411665931344032288e+00 7.373670190572738647e+00 4.666590702254325151e-02
-8.447432532906532288e+00 7.296399682760238647e+00 4.884791385848075151e-02
-1.319938565790653229e+01 1.324000319838523865e+01 -8.933567989151924849e-02
-1.353251554071903229e+01 1.338441237807273865e+01 -9.495091426651924849e-02
-1.384648038446903229e+01 1.350074538588523865e+01 -9.929966914933174849e-02
-1.332145597040653229e+01 1.274976882338523865e+01 -7.644200313370674849e-02
-1.311430265009403229e+01 1.234119948744773865e+01 -6.428074825089424849e-02
-1.468766690790653229e+01 1.370594558119773865e+01 -1.079666613368317485e-01
-8.411665931344032288e+00 7.374768823385238647e+00 9.113001835066825151e-02
-8.447432532906532288e+00 7.297620385885238647e+00 9.340357792098075151e-02
-1.262846280634403229e+01 1.262696608901023865e+01 4.978895303793251514e-03
-1.368803311884403229e+01 1.355103835463523865e+01 -1.810765254776924849e-02
-1.324760343134403229e+01 1.287891921401023865e+01 -1.384019735269248486e-03
-1.285612393915653229e+01 1.227491530776023865e+01 1.363062870223075151e-02
-1.452738858759403229e+01 1.376673659682273865e+01 -2.363133418839424849e-02
-1.465605069696903229e+01 1.367689284682273865e+01 -2.144932735245674849e-02
-8.411665931344032288e+00 7.375867456197738647e+00 1.358077527256682515e-01
-8.447432532906532288e+00 7.298719018697738647e+00 1.376998425694182515e-01
-1.351212979853153229e+01 1.358057937026023865e+01 6.274867069441825151e-02
-1.377104093134403229e+01 1.364076003432273865e+01 6.178736698348075151e-02
-1.326139737665653229e+01 1.289515456557273865e+01 7.628321659285575151e-02
-1.301371671259403229e+01 1.243824538588523865e+01 8.534693729598075151e-02
-1.463285733759403229e+01 1.387513503432273865e+01 5.933070194441825151e-02
-1.494547940790653229e+01 1.396583327651023865e+01 5.832362186629325151e-02
-8.411665931344032288e+00 7.376966089010238647e+00 1.802413464756682515e-01
-8.447432532906532288e+00 7.299817651510238647e+00 1.822402478428557515e-01
-1.358927823603153229e+01 1.366554030776023865e+01 1.427657605381682515e-01
-1.294853116571903229e+01 1.277149733901023865e+01 1.550338269444182515e-01
-1.411991788446903229e+01 1.379151687026023865e+01 1.437728406162932515e-01
-1.302799893915653229e+01 1.245484694838523865e+01 1.612899304600432515e-01
-1.317619229853153229e+01 1.240919265151023865e+01 1.630446912022307515e-01
-1.339774991571903229e+01 1.243385085463523865e+01 1.639754773350432515e-01
-8.411665931344032288e+00 7.378186792135238647e+00 2.249038220616057515e-01
-8.447432532906532288e+00 7.301038354635238647e+00 2.265212537022307515e-01
-7.043623939156532288e+00 6.615735620260238647e+00 2.680099011631682515e-01
-7.205611243844032288e+00 6.688367456197738647e+00 2.684524060459807515e-01
-7.374312415719032288e+00 6.763928979635238647e+00 2.689254285069182515e-01
-7.551070228219032288e+00 6.843396753072738647e+00 2.692000867100432515e-01
-7.734541907906532288e+00 6.925550073385238647e+00 2.697036267491057515e-01
-7.926192298531532288e+00 7.011243432760238647e+00 2.704513074131682515e-01
-8.126143470406532288e+00 7.100843042135238647e+00 2.710006238194182515e-01
-8.335371986031532288e+00 7.194715112447738647e+00 2.715804578037932515e-01
-6.980391517281532288e+00 6.548596948385238647e+00 3.057143689366057515e-01
-7.139693275094032288e+00 6.619397729635238647e+00 3.067061902256682515e-01
-7.304976478219032288e+00 6.692639917135238647e+00 3.079574109287932515e-01
-7.477828040719032288e+00 6.769300073385238647e+00 3.092544079991057515e-01
-7.657393470406532288e+00 6.848889917135238647e+00 3.105971814366057515e-01
-7.845381751656532288e+00 6.932263940572738647e+00 3.120009900303557515e-01
-8.038008704781532288e+00 7.016004174947738647e+00 3.134658337803557515e-01
-8.266890540719032288e+00 7.130017846822738647e+00 3.152663708897307515e-01
-6.814620032906532288e+00 5.720227807760238647e+00 -3.346970080165192485e-01
-6.855879798531532288e+00 5.674451440572738647e+00 -3.333084582118317485e-01
-6.895186439156532288e+00 5.626966089010238647e+00 -3.318436144618317485e-01
-6.934615150094032288e+00 5.579236596822738647e+00 -3.303940295008942485e-01
-6.973799720406532288e+00 5.531751245260238647e+00 -3.289444445399567485e-01
-7.013106361031532288e+00 5.484143823385238647e+00 -3.274948595790192485e-01
-7.052290931344032288e+00 5.436658471822738647e+00 -3.260452746180817485e-01
-7.089278236031532288e+00 5.387464135885238647e+00 -3.245499132899567485e-01
-7.223189368844032288e+00 6.111707299947738647e+00 -3.466598986415192485e-01
-7.265303626656532288e+00 6.060315698385238647e+00 -3.450882433680817485e-01
-7.307295814156532288e+00 6.008924096822738647e+00 -3.435318468837067485e-01
-7.351973548531532288e+00 5.959729760885238647e+00 -3.420212267665192485e-01
-7.393965736031532288e+00 5.908460229635238647e+00 -3.404648302821442485e-01
-7.433638587594032288e+00 5.854871362447738647e+00 -3.388321398524567485e-01
-7.475630775094032288e+00 5.803723901510238647e+00 -3.372604845790192485e-01
-7.517500892281532288e+00 5.752576440572738647e+00 -3.357040880946442485e-01
-7.675826087594032288e+00 6.545545190572738647e+00 -3.581192492274567485e-01
-7.721846595406532288e+00 6.490735620260238647e+00 -3.565018175868317485e-01
-7.767867103219032288e+00 6.435926049947738647e+00 -3.548996447352692485e-01
-7.814009681344032288e+00 6.380994409322738647e+00 -3.532974718837067485e-01
-7.860030189156532288e+00 6.326306909322738647e+00 -3.516952990321442485e-01
-7.906172767281532288e+00 6.271497339010238647e+00 -3.500778673915192485e-01
-7.952071204781532288e+00 6.216809839010238647e+00 -3.484909533290192485e-01
-7.997969642281532288e+00 6.162244409322738647e+00 -3.468887804774567485e-01
-8.135298743844032288e+00 6.986219018697738647e+00 -3.647110461024567485e-01
-8.187300696969032288e+00 6.929700464010238647e+00 -3.630173205165192485e-01
-8.236617103219032288e+00 6.870740503072738647e+00 -3.612930773524567485e-01
-8.286055579781532288e+00 6.811536401510238647e+00 -3.595688341883942485e-01
-8.335371986031532288e+00 6.752698510885238647e+00 -3.578445910243317485e-01
-8.384688392281532288e+00 6.693616479635238647e+00 -3.561203478602692485e-01
-8.434248939156532288e+00 6.635022729635238647e+00 -3.544266222743317485e-01
-8.485396400094032288e+00 6.578015893697738647e+00 -3.531143664149567485e-01
-8.447554603219032288e+00 7.285901635885238647e+00 -3.513748644618317485e-01
-8.841597571969032288e+00 7.546399682760238647e+00 -3.814499377040192485e-01
-8.901412025094032288e+00 7.486951440572738647e+00 -3.800919054774567485e-01
-8.961470618844032288e+00 7.427259057760238647e+00 -3.787338732508942485e-01
-9.021407142281532288e+00 7.367688745260238647e+00 -3.773758410243317485e-01
-9.081465736031532288e+00 7.307874292135238647e+00 -3.760025500087067485e-01
-9.141524329781532288e+00 7.248303979635238647e+00 -3.746445177821442485e-01
-9.201582923531532288e+00 7.188611596822738647e+00 -3.732864855555817485e-01
-8.447554603219032288e+00 7.287000268697738647e+00 -3.069717882899567485e-01
-9.599165931344032288e+00 8.260511010885238647e+00 -4.002945421962067485e-01
-9.665205970406532288e+00 8.195081323385238647e+00 -3.987839220790192485e-01
-9.731612220406532288e+00 8.129529565572738647e+00 -3.972733019618317485e-01
-9.797774329781532288e+00 8.063977807760238647e+00 -3.957779406337067485e-01
-9.864302650094032288e+00 7.998181909322738647e+00 -3.942673205165192485e-01
-9.930708900094032288e+00 7.932630151510238647e+00 -3.927567003993317485e-01
-9.993453040719032288e+00 7.863782495260238647e+00 -3.912308214930817485e-01
-8.447554603219032288e+00 7.288220971822738647e+00 -2.623398302821442485e-01
-1.371879483759403229e+01 1.213941726088523865e+01 -6.800186632899567485e-01
-1.389567472040653229e+01 1.211256179213523865e+01 -6.838638781337067485e-01
-1.471659757196903229e+01 1.266883620619773865e+01 -7.382309435633942485e-01
-1.426054288446903229e+01 1.206055983901023865e+01 -6.919968127040192485e-01
-1.152775479853153229e+01 9.464002221822738647e+00 -4.710953234462067485e-01
-1.149613858759403229e+01 9.289197534322738647e+00 -4.607803820399567485e-01
-1.146501065790653229e+01 9.117932885885238647e+00 -4.506790636805817485e-01
-8.447554603219032288e+00 7.289319604635238647e+00 -2.179520128993317485e-01
-1.371098233759403229e+01 1.213416823744773865e+01 -6.021530627040192485e-01
-1.390214444696903229e+01 1.212061843276023865e+01 -6.061203478602692485e-01
-1.488615323603153229e+01 1.282533034682273865e+01 -6.677658556727692485e-01
-1.426554776728153229e+01 1.206715163588523865e+01 -6.130630968837067485e-01
-1.556999112665653229e+01 1.302479323744773865e+01 -6.959640978602692485e-01
-1.588529874384403229e+01 1.309119948744773865e+01 -7.081406115321442485e-01
-1.615458585321903229e+01 1.311243972182273865e+01 -7.163345812587067485e-01
-8.447554603219032288e+00 7.290418237447738647e+00 -1.733505724696442485e-01
-1.370316983759403229e+01 1.212879714369773865e+01 -5.239975451258942485e-01
-1.390861417353153229e+01 1.212867507338523865e+01 -5.287430285243317485e-01
-1.509916593134403229e+01 1.302149733901023865e+01 -5.985367296962067485e-01
-1.427055265009403229e+01 1.207374343276023865e+01 -5.344955920008942485e-01
-1.586234952509403229e+01 1.328455886244773865e+01 -6.286270617274567485e-01
-1.413114835321903229e+01 1.157447585463523865e+01 -5.076096056727692485e-01
-1.645280362665653229e+01 1.336878737807273865e+01 -6.462509630946442485e-01
-8.447554603219032288e+00 7.291516870260238647e+00 -1.289780138758942485e-01
-1.369547940790653229e+01 1.212342604994773865e+01 -4.463760851649567485e-01
-1.391508390009403229e+01 1.213673171401023865e+01 -4.512894152430817485e-01
-1.551676847040653229e+01 1.340418776869773865e+01 -5.389664171962067485e-01
-1.427238370478153229e+01 1.207740554213523865e+01 -4.556839464930817485e-01
-1.616703702509403229e+01 1.355531081557273865e+01 -5.584671496180817485e-01
-1.414140225946903229e+01 1.158546218276023865e+01 -4.313004015712067485e-01
-1.674601651728153229e+01 1.362098464369773865e+01 -5.727646349696442485e-01
-8.447554603219032288e+00 7.292737573385238647e+00 -8.439183223526924849e-02
-1.368766690790653229e+01 1.211817702651023865e+01 -3.684494494227692485e-01
-1.392167569696903229e+01 1.214478835463523865e+01 -3.733475207118317485e-01
-1.467912198603153229e+01 1.264344558119773865e+01 -4.062149523524567485e-01
-1.427018643915653229e+01 1.207764968276023865e+01 -3.762466906337067485e-01
-1.477702237665653229e+01 1.233326491713523865e+01 -3.950150011805817485e-01
-1.662882901728153229e+01 1.374256667494773865e+01 -4.832108019618317485e-01
-1.691422940790653229e+01 1.376685866713523865e+01 -4.888565539149567485e-01
-8.447554603219032288e+00 7.293836206197738647e+00 -4.003453243058174849e-02
-1.368546964228153229e+01 1.211805495619773865e+01 -2.913315295008942485e-01
-1.422758390009403229e+01 1.243031081557273865e+01 -3.102066515712067485e-01
-1.470487882196903229e+01 1.266908034682273865e+01 -3.254349230555817485e-01
-1.426811124384403229e+01 1.207789382338523865e+01 -2.972824572352692485e-01
-1.481510831415653229e+01 1.236890944838523865e+01 -3.154098986415192485e-01
-1.679484464228153229e+01 1.388892897963523865e+01 -3.988144396571442485e-01
-1.425529386103153229e+01 1.150367507338523865e+01 -2.752182482508942485e-01
-8.447554603219032288e+00 7.294934839010238647e+00 4.536390420980751514e-03
-1.368986417353153229e+01 1.212415847182273865e+01 -2.141220568446442485e-01
-1.424833585321903229e+01 1.245167312026023865e+01 -2.312881945399567485e-01
-1.383854581415653229e+01 1.188172683119773865e+01 -2.074234484462067485e-01
-1.426664640009403229e+01 1.207862624526023865e+01 -2.183792589930817485e-01
-1.396183682978153229e+01 1.161903151869773865e+01 -1.993820666102692485e-01
-1.696537686884403229e+01 1.403919753432273865e+01 -3.120987414149567485e-01
-1.395780850946903229e+01 1.125233229994773865e+01 -1.860916613368317485e-01
-8.447554603219032288e+00 7.296155542135238647e+00 4.886317264754325151e-02
-1.369425870478153229e+01 1.213026198744773865e+01 -1.372787951258942485e-01
-1.446916104853153229e+01 1.265833815932273865e+01 -1.588242052821442485e-01
-1.377763272821903229e+01 1.182813796401023865e+01 -1.281235216883942485e-01
-1.381364347040653229e+01 1.167469558119773865e+01 -1.234390734462067485e-01
-1.456474210321903229e+01 1.215260085463523865e+01 -1.432297228602692485e-01
-1.404862882196903229e+01 1.151331862807273865e+01 -1.196854113368317485e-01
-1.414469815790653229e+01 1.141370925307273865e+01 -1.170914171962067485e-01
-8.447554603219032288e+00 7.297254174947738647e+00 9.340357792098075151e-02
-1.369853116571903229e+01 1.213636550307273865e+01 -6.040501582901924849e-02
-1.481901456415653229e+01 1.298487624526023865e+01 -8.785557735245674849e-02
-1.371757413446903229e+01 1.177540358901023865e+01 -5.002903926651924849e-02
-1.426701261103153229e+01 1.208326491713523865e+01 -6.035923946183174849e-02
-1.418620206415653229e+01 1.182105788588523865e+01 -5.257725703995674849e-02
-1.399430753290653229e+01 1.146839675307273865e+01 -4.188084590714424849e-02
-1.408976651728153229e+01 1.136903151869773865e+01 -3.885960567276924849e-02
-8.447554603219032288e+00 7.298352807760238647e+00 1.377151013584807515e-01
-1.370292569696903229e+01 1.214246901869773865e+01 1.692652713973075151e-02
-1.490946866571903229e+01 1.307081374526023865e+01 -6.068467977456748486e-03
-1.487272550165653229e+01 1.283070144057273865e+01 9.608280379325151443e-05
-1.426725675165653229e+01 1.208546218276023865e+01 1.883387577254325151e-02
-1.463725186884403229e+01 1.222083815932273865e+01 1.564478885848075151e-02
-1.394035245478153229e+01 1.142359694838523865e+01 3.564906131941825151e-02
-1.403556729853153229e+01 1.132496413588523865e+01 3.827357303816825151e-02
-8.447554603219032288e+00 7.299573510885238647e+00 1.822402478428557515e-01
-1.370732022821903229e+01 1.214857253432273865e+01 9.387660038191825151e-02
-1.616728116571903229e+01 1.423951491713523865e+01 5.667567264754325151e-02
-1.491081143915653229e+01 1.286768874526023865e+01 8.258509647566825151e-02
-1.426737882196903229e+01 1.208778151869773865e+01 9.759974491316825151e-02
-1.461051847040653229e+01 1.219947585463523865e+01 9.650111210066825151e-02
-1.420439054071903229e+01 1.165479812026023865e+01 1.071822644444182515e-01
-1.429838468134403229e+01 1.155103835463523865e+01 1.103408337803557515e-01
-8.447554603219032288e+00 7.300672143697738647e+00 2.265365124912932515e-01
-1.371171475946903229e+01 1.215467604994773865e+01 1.712691785069182515e-01
-1.634562589228153229e+01 1.440723952651023865e+01 1.470839978428557515e-01
-9.074873939156532288e+00 7.546765893697738647e+00 2.264754773350432515e-01
-9.306197181344032288e+00 7.639417260885238647e+00 2.264144421787932515e-01
-9.548995032906532288e+00 7.736707299947738647e+00 2.263534070225432515e-01
-9.802535071969032288e+00 7.838269799947738647e+00 2.262771130772307515e-01
-1.006840421259403229e+01 7.944715112447738647e+00 2.262160779209807515e-01
-8.336714759469032288e+00 7.195447534322738647e+00 2.715804578037932515e-01
-8.555464759469032288e+00 7.293347924947738647e+00 2.723739148350432515e-01
-8.761275306344032288e+00 7.374036401510238647e+00 2.733047009678557515e-01
-8.978926673531532288e+00 7.460462182760238647e+00 2.740218640537932515e-01
-9.205000892281532288e+00 7.549939721822738647e+00 2.750289441319182515e-01
-9.441817298531532288e+00 7.643323510885238647e+00 2.763411999912932515e-01
-9.689375892281532288e+00 7.741345971822738647e+00 2.774550915928557515e-01
-9.948775306344032288e+00 7.844007104635238647e+00 2.786147595616057515e-01
-8.268233314156532288e+00 7.130994409322738647e+00 3.152663708897307515e-01
-8.499800696969032288e+00 7.241956323385238647e+00 3.168838025303557515e-01
-8.724043861031532288e+00 7.340711206197738647e+00 3.187758923741057515e-01
-8.954878821969032288e+00 7.439710229635238647e+00 3.207747937412932515e-01
-9.196333900094032288e+00 7.543347924947738647e+00 3.228652478428557515e-01
-9.450606361031532288e+00 7.652478784322738647e+00 3.250472546787932515e-01
-9.717207923531532288e+00 7.766980737447738647e+00 3.273513318272307515e-01
-9.998457923531532288e+00 7.887830346822738647e+00 3.300521374912932515e-01
-7.089278236031532288e+00 5.387219995260238647e+00 -3.245346545008942485e-01
-7.128706946969032288e+00 5.340100854635238647e+00 -3.230850695399567485e-01
-7.165938392281532288e+00 5.291150659322738647e+00 -3.216049670008942485e-01
-7.203413978219032288e+00 5.242078393697738647e+00 -3.200943468837067485e-01
-7.240645423531532288e+00 5.193250268697738647e+00 -3.186142443446442485e-01
-7.277998939156532288e+00 5.144300073385238647e+00 -3.171188830165192485e-01
-7.315108314156532288e+00 5.095471948385238647e+00 -3.156235216883942485e-01
-7.350142493844032288e+00 5.044934839010238647e+00 -3.140823839930817485e-01
-7.517622962594032288e+00 5.752332299947738647e+00 -3.356888293055817485e-01
-7.557539954781532288e+00 5.699597924947738647e+00 -3.340866564540192485e-01
-7.597579017281532288e+00 5.646985620260238647e+00 -3.324692248133942485e-01
-7.640181556344032288e+00 5.596082299947738647e+00 -3.309280871180817485e-01
-7.680098548531532288e+00 5.543469995260238647e+00 -3.293106554774567485e-01
-7.717696204781532288e+00 5.488660424947738647e+00 -3.276474474696442485e-01
-7.757613196969032288e+00 5.436048120260238647e+00 -3.260452746180817485e-01
-7.797530189156532288e+00 5.383557885885238647e+00 -3.244278429774567485e-01
-7.998091712594032288e+00 6.162000268697738647e+00 -3.468735216883942485e-01
-8.042403236031532288e+00 6.106092065572738647e+00 -3.452560900477692485e-01
-8.086592689156532288e+00 6.050061792135238647e+00 -3.436386584071442485e-01
-8.131026282906532288e+00 5.993909448385238647e+00 -3.420059679774567485e-01
-8.175215736031532288e+00 5.938001245260238647e+00 -3.403885363368317485e-01
-8.219649329781532288e+00 5.881848901510238647e+00 -3.387711046962067485e-01
-8.263960853219032288e+00 5.825940698385238647e+00 -3.371536730555817485e-01
-8.308150306344032288e+00 5.770032495260238647e+00 -3.355362414149567485e-01
-8.485640540719032288e+00 6.577771753072738647e+00 -3.531143664149567485e-01
-8.541182532906532288e+00 6.524304956197738647e+00 -3.518936632899567485e-01
-8.593672767281532288e+00 6.468152612447738647e+00 -3.506119250087067485e-01
-8.646407142281532288e+00 6.411756128072738647e+00 -3.493149279383942485e-01
-8.699019446969032288e+00 6.355481714010238647e+00 -3.480179308680817485e-01
-8.751997962594032288e+00 6.298963159322738647e+00 -3.467361925868317485e-01
-8.804732337594032288e+00 6.242566674947738647e+00 -3.454391955165192485e-01
-8.854414954781532288e+00 6.183606714010238647e+00 -3.440811632899567485e-01
-9.201949134469032288e+00 7.188489526510238647e+00 -3.733017443446442485e-01
-9.258955970406532288e+00 7.126111596822738647e+00 -3.717911242274567485e-01
-9.315962806344032288e+00 7.063611596822738647e+00 -3.702652453212067485e-01
-9.373335853219032288e+00 7.000867456197738647e+00 -3.687546252040192485e-01
-9.430464759469032288e+00 6.938245385885238647e+00 -3.672287462977692485e-01
-9.466719642281532288e+00 6.858777612447738647e+00 -3.639481066493317485e-01
-9.502486243844032288e+00 6.779798120260238647e+00 -3.606522082118317485e-01
-9.538008704781532288e+00 6.701062768697738647e+00 -3.573868273524567485e-01
-9.993697181344032288e+00 7.863660424947738647e+00 -3.912308214930817485e-01
-1.006230069696903229e+01 7.799695581197738647e+00 -3.897354601649567485e-01
-1.012748624384403229e+01 7.732556909322738647e+00 -3.882095812587067485e-01
-1.019291593134403229e+01 7.665174096822738647e+00 -3.866837023524567485e-01
-1.025822354853153229e+01 7.597791284322738647e+00 -3.851578234462067485e-01
-1.031364347040653229e+01 7.522229760885238647e+00 -3.828232287196442485e-01
-1.035697843134403229e+01 7.437757104635238647e+00 -3.796036242274567485e-01
-1.040727140009403229e+01 7.358899682760238647e+00 -3.771927355555817485e-01
-1.146464444696903229e+01 9.117078393697738647e+00 -4.506180285243317485e-01
-1.143278409540653229e+01 8.948133081197738647e+00 -4.407150744227692485e-01
-1.101090909540653229e+01 8.461072534322738647e+00 -4.020950793055817485e-01
-1.105558682978153229e+01 8.364514917135238647e+00 -3.983414171962067485e-01
-1.131413175165653229e+01 8.439221948385238647e+00 -4.101822375087067485e-01
-1.137650968134403229e+01 8.354749292135238647e+00 -4.076187609462067485e-01
-1.143839932978153229e+01 8.270276635885238647e+00 -4.050400255946442485e-01
-1.150004483759403229e+01 8.186048120260238647e+00 -4.024765490321442485e-01
-1.615568448603153229e+01 1.311268386244773865e+01 -7.163803576258942485e-01
-1.640202237665653229e+01 1.310975417494773865e+01 -7.228806017665192485e-01
-1.101103116571903229e+01 8.462659448385238647e+00 -3.450119494227692485e-01
-1.105204679071903229e+01 8.363294214010238647e+00 -3.411362170008942485e-01
-1.244425870478153229e+01 9.339856714010238647e+00 -4.274399279383942485e-01
-1.254899503290653229e+01 9.273206323385238647e+00 -4.269211291102692485e-01
-1.264811612665653229e+01 9.202039331197738647e+00 -4.263870714930817485e-01
-1.275358487665653229e+01 9.134900659322738647e+00 -4.258682726649567485e-01
-1.645365811884403229e+01 1.336878737807273865e+01 -6.462662218837067485e-01
-1.668278409540653229e+01 1.334742507338523865e+01 -6.506149767665192485e-01
-1.101103116571903229e+01 8.464246362447738647e+00 -2.882492541102692485e-01
-1.105204679071903229e+01 8.364881128072738647e+00 -2.845108507899567485e-01
-1.776347257196903229e+01 1.357447585463523865e+01 -6.865341662196442485e-01
-1.808463956415653229e+01 1.360523757338523865e+01 -6.954758166102692485e-01
-1.843376065790653229e+01 1.365247878432273865e+01 -7.058517931727692485e-01
-1.881523038446903229e+01 1.371803054213523865e+01 -7.178452013758942485e-01
-1.674748136103153229e+01 1.362147292494773865e+01 -5.728256701258942485e-01
-1.703446866571903229e+01 1.364442214369773865e+01 -5.795090197352692485e-01
-1.101103116571903229e+01 8.465833276510238647e+00 -2.314865587977692485e-01
-1.105204679071903229e+01 8.366468042135238647e+00 -2.279007433680817485e-01
-1.795426847040653229e+01 1.372901687026023865e+01 -6.014206408290192485e-01
-1.829972745478153229e+01 1.377625808119773865e+01 -6.103317736415192485e-01
-1.877299405634403229e+01 1.391627272963523865e+01 -6.258804796962067485e-01
-1.913786222040653229e+01 1.396473464369773865e+01 -6.352341173915192485e-01
-1.691569425165653229e+01 1.376734694838523865e+01 -4.889023302821442485e-01
-1.468571378290653229e+01 1.167957839369773865e+01 -3.665726183680817485e-01
-1.101103116571903229e+01 8.467542260885238647e+00 -1.744492052821442485e-01
-1.105204679071903229e+01 8.368054956197738647e+00 -1.710007189540192485e-01
-1.816630460321903229e+01 1.390052565932273865e+01 -5.146133898524567485e-01
-1.864469815790653229e+01 1.404896315932273865e+01 -5.284836291102692485e-01
-1.910649015009403229e+01 1.417567214369773865e+01 -5.411789416102692485e-01
-1.947526456415653229e+01 1.422291335463523865e+01 -5.490982531337067485e-01
-1.425553800165653229e+01 1.150330886244773865e+01 -2.752029894618317485e-01
-1.470609952509403229e+01 1.169886550307273865e+01 -2.884018420008942485e-01
-1.443205167353153229e+01 1.128724440932273865e+01 -2.691299914149567485e-01
-1.105204679071903229e+01 8.369641870260238647e+00 -1.144058703212067485e-01
-1.851310636103153229e+01 1.417945632338523865e+01 -4.316818712977692485e-01
-1.899430753290653229e+01 1.432557448744773865e+01 -4.433548449305817485e-01
-1.944218350946903229e+01 1.443690261244773865e+01 -4.532730578212067485e-01
-1.995500089228153229e+01 1.458875808119773865e+01 -4.655716418055817485e-01
-1.395683194696903229e+01 1.125086745619773865e+01 -1.860306261805817485e-01
-1.423429776728153229e+01 1.130567702651023865e+01 -1.904709337977692485e-01
-1.485514737665653229e+01 1.163807448744773865e+01 -2.083084582118317485e-01
-1.105204679071903229e+01 8.371228784322738647e+00 -5.784153926651924849e-02
-1.885978604853153229e+01 1.445838698744773865e+01 -3.447067736415192485e-01
-1.931986905634403229e+01 1.458326491713523865e+01 -3.532974718837067485e-01
-1.973576261103153229e+01 1.466590651869773865e+01 -3.594162462977692485e-01
-2.015360929071903229e+01 1.474220046401023865e+01 -3.658859728602692485e-01
-1.414506436884403229e+01 1.141346511244773865e+01 -1.170761584071442485e-01
-1.475761319696903229e+01 1.174647292494773865e+01 -1.312820910243317485e-01
-1.824467374384403229e+01 1.443360671401023865e+01 -2.379868029383942485e-01
-1.105204679071903229e+01 8.372815698385238647e+00 -9.720324305817484856e-04
-1.908305265009403229e+01 1.463917312026023865e+01 -2.492477892665192485e-01
-1.950004483759403229e+01 1.472742995619773865e+01 -2.543900011805817485e-01
-1.992997647821903229e+01 1.481849440932273865e+01 -2.596848009852692485e-01
-2.035551358759403229e+01 1.489796218276023865e+01 -2.645981310633942485e-01
-1.409013272821903229e+01 1.136866530776023865e+01 -3.884434688370674849e-02
-1.442777921259403229e+01 1.147218093276023865e+01 -4.296421993058174849e-02
-1.847807218134403229e+01 1.462879714369773865e+01 -1.445114611415192485e-01
-1.105204679071903229e+01 8.374402612447738647e+00 5.559229862410575151e-02
-1.857121182978153229e+01 1.423438796401023865e+01 -1.329300402430817485e-01
-1.969755460321903229e+01 1.488514479994773865e+01 -1.543991564540192485e-01
-1.883170987665653229e+01 1.397596511244773865e+01 -1.256973742274567485e-01
-1.897758390009403229e+01 1.385841140151023865e+01 -1.219284533290192485e-01
-1.403593350946903229e+01 1.132459792494773865e+01 3.828883182723075151e-02
-1.440568448603153229e+01 1.145582351088523865e+01 3.538966190535575151e-02
-1.861955167353153229e+01 1.474830397963523865e+01 -4.586338985245674849e-02
-1.105204679071903229e+01 8.376111596822738647e+00 1.124312878819182515e-01
-1.854850675165653229e+01 1.421912917494773865e+01 -3.173375118058174849e-02
-1.867863370478153229e+01 1.408997878432273865e+01 -2.804112422745674849e-02
-2.033207608759403229e+01 1.513429030776023865e+01 -5.324864375870674849e-02
-1.893864347040653229e+01 1.383180007338523865e+01 -2.064061153214424849e-02
-1.429862882196903229e+01 1.155067214369773865e+01 1.103408337803557515e-01
-1.770732022821903229e+01 1.422681960463523865e+01 6.372523319441825151e-02
-1.876249600946903229e+01 1.486903151869773865e+01 5.388331424910575151e-02
-1.105204679071903229e+01 8.377698510885238647e+00 1.689651013584807515e-01
-1.962443448603153229e+01 1.507960280776023865e+01 5.341029178816825151e-02
-2.010380460321903229e+01 1.520960769057273865e+01 5.283045780379325151e-02
-2.052336026728153229e+01 1.528480300307273865e+01 5.325770389754325151e-02
-1.895072843134403229e+01 1.384388503432273865e+01 8.006739628035575151e-02
-1.007011319696903229e+01 7.945691674947738647e+00 2.262008191319182515e-01
-1.034892179071903229e+01 8.057263940572738647e+00 2.263228894444182515e-01
-1.064237882196903229e+01 8.174573510885238647e+00 2.264602185459807515e-01
-1.095268155634403229e+01 8.298719018697738647e+00 2.265975476475432515e-01
-1.126090909540653229e+01 8.414807885885238647e+00 2.268874646397307515e-01
-1.155827237665653229e+01 8.515393823385238647e+00 2.274062634678557515e-01
-1.186881925165653229e+01 8.620374292135238647e+00 2.279555798741057515e-01
-1.219474698603153229e+01 8.730603784322738647e+00 2.285201550694182515e-01
-9.950362220406532288e+00 7.844983667135238647e+00 2.786147595616057515e-01
-1.022221280634403229e+01 7.952405542135238647e+00 2.800490857334807515e-01
-1.050810147821903229e+01 8.065320581197738647e+00 2.815597058506682515e-01
-1.082511807978153229e+01 8.196790307760238647e+00 2.828109265537932515e-01
-1.116923429071903229e+01 8.343396753072738647e+00 2.844283581944182515e-01
-1.148234464228153229e+01 8.457532495260238647e+00 2.865645886631682515e-01
-1.181144620478153229e+01 8.577893823385238647e+00 2.884719372959807515e-01
-1.215824796259403229e+01 8.704724878072738647e+00 2.904860974522307515e-01
-1.000016690790653229e+01 7.888928979635238647e+00 3.300673962803557515e-01
-1.029630948603153229e+01 8.016004174947738647e+00 3.325850964756682515e-01
-1.060990811884403229e+01 8.150891870260238647e+00 3.355453015537932515e-01
-1.094303800165653229e+01 8.294080346822738647e+00 3.386886121006682515e-01
-1.115409757196903229e+01 8.332898706197738647e+00 3.414809704991057515e-01
-1.159379483759403229e+01 8.546643823385238647e+00 3.452498913975432515e-01
-1.190263272821903229e+01 8.649915307760238647e+00 3.486220837803557515e-01
-1.222441007196903229e+01 8.756726831197738647e+00 3.524672986241057515e-01
-7.350142493844032288e+00 5.044690698385238647e+00 -3.140671252040192485e-01
-7.387618079781532288e+00 4.996228784322738647e+00 -3.125870226649567485e-01
-7.422896400094032288e+00 4.945935815572738647e+00 -3.110611437587067485e-01
-7.458296790719032288e+00 4.895642846822738647e+00 -3.095200060633942485e-01
-7.493575111031532288e+00 4.845349878072738647e+00 -3.079941271571442485e-01
-7.528975501656532288e+00 4.795056909322738647e+00 -3.064529894618317485e-01
-7.564253821969032288e+00 4.744886010885238647e+00 -3.049271105555817485e-01
-7.597212806344032288e+00 4.693128198385238647e+00 -3.033401964930817485e-01
-7.797530189156532288e+00 5.383313745260238647e+00 -3.244278429774567485e-01
-7.835494056344032288e+00 5.329236596822738647e+00 -3.227798937587067485e-01
-7.873335853219032288e+00 5.275281518697738647e+00 -3.211319445399567485e-01
-7.913985267281532288e+00 5.222913354635238647e+00 -3.195297716883942485e-01
-7.951949134469032288e+00 5.168958276510238647e+00 -3.178818224696442485e-01
-7.987349525094032288e+00 5.112928003072738647e+00 -3.161728380946442485e-01
-8.025191321969032288e+00 5.058850854635238647e+00 -3.145248888758942485e-01
-8.063155189156532288e+00 5.004895776510238647e+00 -3.128769396571442485e-01
-8.308394446969032288e+00 5.769910424947738647e+00 -3.355362414149567485e-01
-8.350874915719032288e+00 5.712659448385238647e+00 -3.339035509852692485e-01
-8.393477454781532288e+00 5.655408471822738647e+00 -3.322708605555817485e-01
-8.436690345406532288e+00 5.598401635885238647e+00 -3.306839464930817485e-01
-8.482466712594032288e+00 5.543347924947738647e+00 -3.293411730555817485e-01
-8.523604407906532288e+00 5.484754174947738647e+00 -3.275406359462067485e-01
-8.564497962594032288e+00 5.426282495260238647e+00 -3.257553576258942485e-01
-8.605513587594032288e+00 5.367810815572738647e+00 -3.239853380946442485e-01
-8.854537025094032288e+00 6.183362573385238647e+00 -3.440811632899567485e-01
-8.908858314156532288e+00 6.127820581197738647e+00 -3.428146837977692485e-01
-8.960005775094032288e+00 6.069715112447738647e+00 -3.414871691493317485e-01
-9.011397376656532288e+00 6.011243432760238647e+00 -3.401443957118317485e-01
-9.062666907906532288e+00 5.953015893697738647e+00 -3.388168810633942485e-01
-9.114302650094032288e+00 5.894422143697738647e+00 -3.374741076258942485e-01
-9.165694251656532288e+00 5.835828393697738647e+00 -3.361313341883942485e-01
-9.213912025094032288e+00 5.774915307760238647e+00 -3.347427843837067485e-01
-9.538008704781532288e+00 6.700696557760238647e+00 -3.573563097743317485e-01
-9.581099525094032288e+00 6.627942651510238647e+00 -3.548386095790192485e-01
-9.629195228219032288e+00 6.558972924947738647e+00 -3.527328966883942485e-01
-9.685347571969032288e+00 6.495496362447738647e+00 -3.512527941493317485e-01
-9.741866126656532288e+00 6.432386010885238647e+00 -3.498032091883942485e-01
-9.798628821969032288e+00 6.369031518697738647e+00 -3.483536242274567485e-01
-9.855391517281532288e+00 6.305799096822738647e+00 -3.469040392665192485e-01
-9.912154212594032288e+00 6.242322534322738647e+00 -3.454544543055817485e-01
-1.040739347040653229e+01 7.358533471822738647e+00 -3.771774767665192485e-01
-1.047160245478153229e+01 7.290296167135238647e+00 -3.753921984462067485e-01
-1.053385831415653229e+01 7.220349878072738647e+00 -3.737442492274567485e-01
-1.059660245478153229e+01 7.150037378072738647e+00 -3.720810412196442485e-01
-1.065922452509403229e+01 7.079969018697738647e+00 -3.704178332118317485e-01
-1.072209073603153229e+01 7.009412378072738647e+00 -3.687393664149567485e-01
-1.078495694696903229e+01 6.938977807760238647e+00 -3.670761584071442485e-01
-1.084147550165653229e+01 6.864148706197738647e+00 -3.652145861415192485e-01
-1.150041104853153229e+01 8.185803979635238647e+00 -4.024612902430817485e-01
-1.155998136103153229e+01 8.099866479635238647e+00 -3.998520373133942485e-01
-1.161967374384403229e+01 8.014051049947738647e+00 -3.972275255946442485e-01
-1.167948819696903229e+01 7.927991479635238647e+00 -3.946030138758942485e-01
-1.173918057978153229e+01 7.842176049947738647e+00 -3.919785021571442485e-01
-1.179887296259403229e+01 7.756116479635238647e+00 -3.893539904383942485e-01
-1.185856534540653229e+01 7.670301049947738647e+00 -3.867447375087067485e-01
-1.191813565790653229e+01 7.584607690572738647e+00 -3.841202257899567485e-01
-1.275431729853153229e+01 9.134900659322738647e+00 -4.258835314540192485e-01
-1.285917569696903229e+01 9.066419214010238647e+00 -4.253647326258942485e-01
-1.297074796259403229e+01 9.001844018697738647e+00 -4.248764513758942485e-01
-1.308061124384403229e+01 8.934461206197738647e+00 -4.245407580165192485e-01
-1.319401456415653229e+01 8.869031518697738647e+00 -4.244186877040192485e-01
-1.330876065790653229e+01 8.802991479635238647e+00 -4.242813586024567485e-01
-1.341569425165653229e+01 8.730969995260238647e+00 -4.240067003993317485e-01
-1.353166104853153229e+01 8.664075464010238647e+00 -4.238693712977692485e-01
-1.881840421259403229e+01 1.371961745619773865e+01 -7.179977892665192485e-01
-1.917362882196903229e+01 1.375843581557273865e+01 -7.281906603602692485e-01
-1.954179288446903229e+01 1.380042800307273865e+01 -7.388260363368317485e-01
-1.368473722040653229e+01 9.369763940572738647e+00 -3.934433459071442485e-01
-1.523173429071903229e+01 1.030714187026023865e+01 -4.737808703212067485e-01
-1.539591886103153229e+01 1.025001296401023865e+01 -4.749863146571442485e-01
-1.551359464228153229e+01 1.015980300307273865e+01 -4.735367296962067485e-01
-1.561601163446903229e+01 1.005860671401023865e+01 -4.712326525477692485e-01
-1.914091397821903229e+01 1.396632155776023865e+01 -6.353714464930817485e-01
-1.934294034540653229e+01 1.388734206557273865e+01 -6.358902453212067485e-01
-1.989713956415653229e+01 1.406287917494773865e+01 -6.546280382899567485e-01
-1.368473722040653229e+01 9.371839135885238647e+00 -3.244431017665192485e-01
-2.095915128290653229e+01 1.434681472182273865e+01 -6.882278918055817485e-01
-2.137565518915653229e+01 1.439344558119773865e+01 -6.985580920008942485e-01
-2.172514249384403229e+01 1.438807448744773865e+01 -7.052567003993317485e-01
-2.124760343134403229e+01 1.382423171401023865e+01 -6.709091662196442485e-01
-1.947831632196903229e+01 1.422437819838523865e+01 -5.492050646571442485e-01
-1.933976651728153229e+01 1.388783034682273865e+01 -5.330307482508942485e-01
-2.058427335321903229e+01 1.456776198744773865e+01 -5.812180041102692485e-01
-1.368485929071903229e+01 9.373914331197738647e+00 -2.550766466883942485e-01
-2.133805753290653229e+01 1.461732253432273865e+01 -5.954086779383942485e-01
-2.173539640009403229e+01 1.464613112807273865e+01 -6.029922961024567485e-01
-2.212101651728153229e+01 1.466077956557273865e+01 -6.097977160243317485e-01
-2.124821378290653229e+01 1.382801589369773865e+01 -5.612595080165192485e-01
-1.995829679071903229e+01 1.459034499526023865e+01 -4.656784533290192485e-01
-1.933647061884403229e+01 1.388844069838523865e+01 -4.307816027430817485e-01
-2.075907804071903229e+01 1.469874343276023865e+01 -4.797623156337067485e-01
-1.368485929071903229e+01 9.375989526510238647e+00 -1.860916613368317485e-01
-2.155851651728153229e+01 1.477613601088523865e+01 -4.926407336024567485e-01
-2.195390225946903229e+01 1.480091628432273865e+01 -4.984695910243317485e-01
-2.234648038446903229e+01 1.481776198744773865e+01 -5.039780138758942485e-01
-2.124882413446903229e+01 1.383180007338523865e+01 -4.522049425868317485e-01
-2.015702725946903229e+01 1.474378737807273865e+01 -3.659622668055817485e-01
-1.933317472040653229e+01 1.388905104994773865e+01 -3.280441759852692485e-01
-2.093717862665653229e+01 1.483204421401023865e+01 -3.764450548915192485e-01
-1.368498136103153229e+01 9.378186792135238647e+00 -1.171219347743317485e-01
-2.178202725946903229e+01 1.493726882338523865e+01 -3.875229357508942485e-01
-2.084306241571903229e+01 1.403455886244773865e+01 -3.468430041102692485e-01
-1.473588468134403229e+01 9.639905542135238647e+00 -1.352341173915192485e-01
-2.124943448603153229e+01 1.383546218276023865e+01 -3.425858019618317485e-01
-1.905692960321903229e+01 1.391468581557273865e+01 -2.254288195399567485e-01
-1.932987882196903229e+01 1.388966140151023865e+01 -2.259171007899567485e-01
-2.113273526728153229e+01 1.497828444838523865e+01 -2.710525988368317485e-01
-1.368498136103153229e+01 9.380261987447738647e+00 -4.780125606339424849e-02
-2.072221280634403229e+01 1.419276198744773865e+01 -2.428085802821442485e-01
-2.080900479853153229e+01 1.401417312026023865e+01 -2.372543810633942485e-01
-1.472257901728153229e+01 9.633069604635238647e+00 -6.129002559464424849e-02
-2.124992276728153229e+01 1.383924636244773865e+01 -2.335464953212067485e-01
-1.897831632196903229e+01 1.385804519057273865e+01 -1.219284533290192485e-01
-1.932670499384403229e+01 1.389014968276023865e+01 -1.238358019618317485e-01
-1.929716397821903229e+01 1.363990554213523865e+01 -1.160995959071442485e-01
-1.368510343134403229e+01 9.382337182760238647e+00 2.113795292098075151e-02
-1.962248136103153229e+01 1.341993483901023865e+01 -1.097061632899567485e-01
-1.980912686884403229e+01 1.332410964369773865e+01 -1.069748400477692485e-01
-1.471757413446903229e+01 9.631970971822738647e+00 1.230311405379325151e-02
-2.019486905634403229e+01 1.313660964369773865e+01 -1.010849474696442485e-01
-1.893913175165653229e+01 1.383143386244773865e+01 -2.062535274308174849e-02
-1.932340909540653229e+01 1.389076003432273865e+01 -2.128148067276924849e-02
-2.160124112665653229e+01 1.532740554213523865e+01 -5.562901485245674849e-02
-1.368510343134403229e+01 9.384412378072738647e+00 9.044337284285575151e-02
-2.246488858759403229e+01 1.542957839369773865e+01 -5.622410762589424849e-02
-1.978483487665653229e+01 1.331043776869773865e+01 -3.764390829019248486e-03
-1.471537686884403229e+01 9.632703393697738647e+00 8.618617069441825151e-02
-2.018730069696903229e+01 1.313477858901023865e+01 2.232313272543251514e-03
-1.895072843134403229e+01 1.384315261244773865e+01 8.009791385848075151e-02
-1.905863858759403229e+01 1.369666823744773865e+01 8.397364628035575151e-02
-2.182829190790653229e+01 1.549683913588523865e+01 5.582118046004325151e-02
-1.368522550165653229e+01 9.386609643697738647e+00 1.593520642491057515e-01
-2.269962979853153229e+01 1.559888991713523865e+01 5.878138553816825151e-02
-1.976078702509403229e+01 1.329688796401023865e+01 9.860682499129325151e-02
-1.459721280634403229e+01 9.554334253072738647e+00 1.608932019444182515e-01
-1.498454190790653229e+01 9.655164331197738647e+00 1.611983777256682515e-01
-1.219682218134403229e+01 8.731702417135238647e+00 2.285201550694182515e-01
-1.253886319696903229e+01 8.847058862447738647e+00 2.293593884678557515e-01
-1.289884854853153229e+01 8.968640893697738647e+00 2.302291394444182515e-01
-1.327970792353153229e+01 9.097180932760238647e+00 2.311599255772307515e-01
-1.368046475946903229e+01 9.232434839010238647e+00 2.321364880772307515e-01
-1.405985929071903229e+01 9.344129174947738647e+00 2.334334851475432515e-01
-1.442191983759403229e+01 9.437146753072738647e+00 2.349746228428557515e-01
-1.481486417353153229e+01 9.543714135885238647e+00 2.365157605381682515e-01
-1.216044522821903229e+01 8.705945581197738647e+00 2.905013562412932515e-01
-1.252714444696903229e+01 8.840344995260238647e+00 2.928817273350432515e-01
-1.291508390009403229e+01 8.982434839010238647e+00 2.953994275303557515e-01
-1.332670499384403229e+01 9.132947534322738647e+00 2.977340222569182515e-01
-1.376286222040653229e+01 9.292737573385238647e+00 3.005568982334807515e-01
-1.415580655634403229e+01 9.412976831197738647e+00 3.039596081944182515e-01
-1.454984952509403229e+01 9.526502221822738647e+00 3.071486951084807515e-01
-1.494779874384403229e+01 9.635022729635238647e+00 3.104751111241057515e-01
-1.222648526728153229e+01 8.757703393697738647e+00 3.524978162022307515e-01
-1.256523038446903229e+01 8.870496362447738647e+00 3.561599255772307515e-01
-1.292082120478153229e+01 8.988538354635238647e+00 3.603560925694182515e-01
-1.329667569696903229e+01 9.113294214010238647e+00 3.647964001866057515e-01
-1.369157315790653229e+01 9.244397729635238647e+00 3.694503308506682515e-01
-1.406425382196903229e+01 9.351453393697738647e+00 3.741500378819182515e-01
-1.442216397821903229e+01 9.441663354635238647e+00 3.788650037022307515e-01
-1.479850675165653229e+01 9.537366479635238647e+00 3.842208386631682515e-01
-7.597456946969032288e+00 4.693006128072738647e+00 -3.033554552821442485e-01
-7.632979407906532288e+00 4.643079370260238647e+00 -3.018295763758942485e-01
-7.666304603219032288e+00 4.591565698385238647e+00 -3.002579211024567485e-01
-7.700972571969032288e+00 4.540662378072738647e+00 -2.988083361415192485e-01
-7.739058509469032288e+00 4.492078393697738647e+00 -2.976944445399567485e-01
-7.777388587594032288e+00 4.443250268697738647e+00 -2.965805529383942485e-01
-7.815718665719032288e+00 4.394544214010238647e+00 -2.954514025477692485e-01
-7.851729407906532288e+00 4.344373315572738647e+00 -2.943069933680817485e-01
-8.063399329781532288e+00 5.004773706197738647e+00 -3.128921984462067485e-01
-8.099165931344032288e+00 4.949475854635238647e+00 -3.111984728602692485e-01
-8.135054603219032288e+00 4.894055932760238647e+00 -3.095047472743317485e-01
-8.173750892281532288e+00 4.840222924947738647e+00 -3.078720568446442485e-01
-8.209639564156532288e+00 4.784803003072738647e+00 -3.061783312587067485e-01
-8.242842689156532288e+00 4.727429956197738647e+00 -3.044235705165192485e-01
-8.278731361031532288e+00 4.672010034322738647e+00 -3.027298449305817485e-01
-8.314620032906532288e+00 4.616590112447738647e+00 -3.010361193446442485e-01
-8.605757728219032288e+00 5.367688745260238647e+00 -3.239853380946442485e-01
-8.644576087594032288e+00 5.307874292135238647e+00 -3.221542834071442485e-01
-8.683516517281532288e+00 5.247937768697738647e+00 -3.203384875087067485e-01
-8.722456946969032288e+00 5.187879174947738647e+00 -3.184921740321442485e-01
-8.761275306344032288e+00 5.127942651510238647e+00 -3.166611193446442485e-01
-8.800337806344032288e+00 5.067761987447738647e+00 -3.148300646571442485e-01
-8.839156165719032288e+00 5.007825464010238647e+00 -3.129990099696442485e-01
-8.878096595406532288e+00 4.947888940572738647e+00 -3.111679552821442485e-01
-9.214278236031532288e+00 5.774915307760238647e+00 -3.347580431727692485e-01
-9.267378821969032288e+00 5.717176049947738647e+00 -3.334305285243317485e-01
-9.317183509469032288e+00 5.656873315572738647e+00 -3.320572375087067485e-01
-9.367232337594032288e+00 5.596326440572738647e+00 -3.306686877040192485e-01
-9.414839759469032288e+00 5.534436792135238647e+00 -3.290970324305817485e-01
-9.457442298531532288e+00 5.469007104635238647e+00 -3.270981310633942485e-01
-9.499922767281532288e+00 5.403821557760238647e+00 -3.251144884852692485e-01
-9.538496986031532288e+00 5.336316674947738647e+00 -3.230545519618317485e-01
-9.912764564156532288e+00 6.242322534322738647e+00 -3.454849718837067485e-01
-9.967696204781532288e+00 6.177381128072738647e+00 -3.440048693446442485e-01
-1.002274991571903229e+01 6.112439721822738647e+00 -3.425095080165192485e-01
-1.007816983759403229e+01 6.047010034322738647e+00 -3.410141466883942485e-01
-1.013346768915653229e+01 5.981580346822738647e+00 -3.395187853602692485e-01
-1.018913175165653229e+01 5.915784448385238647e+00 -3.380081652430817485e-01
-1.024467374384403229e+01 5.850110620260238647e+00 -3.365128039149567485e-01
-1.030045987665653229e+01 5.784314721822738647e+00 -3.350021837977692485e-01
-1.084208585321903229e+01 6.864148706197738647e+00 -3.652298449305817485e-01
-1.090898038446903229e+01 6.795911401510238647e+00 -3.636734484462067485e-01
-1.096952725946903229e+01 6.723401635885238647e+00 -3.619186877040192485e-01
-1.103056241571903229e+01 6.650403589010238647e+00 -3.601486681727692485e-01
-1.109135343134403229e+01 6.577405542135238647e+00 -3.583939074305817485e-01
-1.116093350946903229e+01 6.509168237447738647e+00 -3.571884630946442485e-01
-1.123417569696903229e+01 6.443006128072738647e+00 -3.562271593837067485e-01
