-1.016147738695144653e+01 5.174645666033029556e+00 -9.606802710331407980e-02
-1.038120394945144653e+01 5.151940587908029556e+00 -8.990347632206407980e-02
-9.060281097888946533e+00 5.313195470720529556e+00 -8.985769995487657980e-02
-9.264138519763946533e+00 5.307336095720529556e+00 -8.386099585331407980e-02
-9.437112152576446533e+00 5.285485509783029556e+00 -7.819998511112657980e-02
-9.627297699451446533e+00 5.266564611345529556e+00 -7.211172827518907980e-02
-9.824685394763946533e+00 5.246911291033029556e+00 -6.577933081425157980e-02
-1.003025180101394653e+01 5.226403478533029556e+00 -5.918753393925157980e-02
-1.372886019945144653e+01 6.406823400408029556e+00 2.409493676387342020e-02
-1.436386996507644653e+01 6.483239416033029556e+00 4.161202660762342020e-02
-1.237449008226394653e+01 5.784264806658029556e+00 -1.003264072025189080e+00
-1.232920199632644653e+01 5.649987462908029556e+00 -9.938036228064390798e-01
-1.224961215257644653e+01 5.506798986345529556e+00 -9.823595310095640798e-01
-1.217148715257644653e+01 5.366051916033029556e+00 -9.711138034705015798e-01
-1.530735141038894653e+01 6.150597814470529556e+00 -1.177153232181439080e+00
-1.544663363695144653e+01 6.040490392595529556e+00 -1.178999545658001580e+00
-1.196445590257644653e+01 4.966149572283029556e+00 -9.399706149939390798e-01
-1.560801059007644653e+01 5.783654455095529556e+00 -1.174971225345501580e+00
-1.472300082445144653e+01 6.563195470720529556e+00 -1.102903964603314080e+00
-1.230210238695144653e+01 5.643151525408029556e+00 -9.398790622595640798e-01
-1.222287875413894653e+01 5.500329259783029556e+00 -9.287401462439390798e-01
-1.541245394945144653e+01 6.333703283220529556e+00 -1.124846103275189080e+00
-1.557480746507644653e+01 6.229699376970529556e+00 -1.127638461673626580e+00
-1.568393832445144653e+01 6.108361486345529556e+00 -1.126997592533001580e+00
-1.196518832445144653e+01 4.968102697283029556e+00 -8.903337741736265798e-01
-1.588706332445144653e+01 5.857140783220529556e+00 -1.124907138431439080e+00
-1.514511996507644653e+01 6.705041173845529556e+00 -1.064024570072064080e+00
-1.194492465257644653e+01 5.530602697283029556e+00 -8.662859226111265798e-01
-1.551755648851394653e+01 6.520470861345529556e+00 -1.071684482181439080e+00
-1.570505648851394653e+01 6.423180822283029556e+00 -1.075331332767376580e+00
-1.581589633226394653e+01 6.301354650408029556e+00 -1.074415805423626580e+00
-1.592807894945144653e+01 6.178307775408029556e+00 -1.073500278079876580e+00
-1.196579867601394653e+01 4.970055822283029556e+00 -8.404222751501890798e-01
-1.592038851976394653e+01 5.868005041033029556e+00 -1.058317782962689080e+00
-1.232798129320144653e+01 5.774255041033029556e+00 -8.424669528845640798e-01
-1.196909457445144653e+01 5.540002111345529556e+00 -8.170152927283140798e-01
-1.216990023851394653e+01 5.487511876970529556e+00 -8.225694919470640798e-01
-1.595249301195144653e+01 6.499474767595529556e+00 -1.020231845462689080e+00
-1.606675082445144653e+01 6.375817541033029556e+00 -1.019026401126751580e+00
-1.619321566820144653e+01 6.254113439470529556e+00 -1.018416049564251580e+00
-1.196653109788894653e+01 4.972008947283029556e+00 -7.904955173376890798e-01
-1.589328891038894653e+01 5.863488439470529556e+00 -9.886766696814390798e-01
-1.213401156663894653e+01 5.711755041033029556e+00 -7.801042819861265798e-01
-1.199314242601394653e+01 5.549523595720529556e+00 -7.677904392126890798e-01
-1.605527621507644653e+01 6.691491369158029556e+00 -9.632402683142515798e-01
-1.524875766038894653e+01 6.291711095720529556e+00 -9.166094089392515798e-01
-1.595456820726394653e+01 6.346032384783029556e+00 -9.440599704626890798e-01
-1.593271762132644653e+01 6.184411291033029556e+00 -9.359728122595640798e-01
-1.196714144945144653e+01 4.973840001970529556e+00 -7.408434177283140798e-01
-1.586631137132644653e+01 5.858971837908029556e+00 -9.189287448767515798e-01
-1.215891391038894653e+01 5.721764806658029556e+00 -7.298723483923765798e-01
-1.201755648851394653e+01 5.559045080095529556e+00 -7.180773044470640798e-01
-1.644150668382644653e+01 6.813439611345529556e+00 -9.101854587439390798e-01
-1.522165805101394653e+01 6.285973791033029556e+00 -8.492418552283140798e-01
-1.591233187913894653e+01 6.336266759783029556e+00 -8.728472019080015798e-01
-1.641294223070144653e+01 6.319909337908029556e+00 -8.876329685095640798e-01
-1.196775180101394653e+01 4.975793126970529556e+00 -6.909319187048765798e-01
-1.583945590257644653e+01 5.854577306658029556e+00 -8.498064304236265798e-01
-1.218418246507644653e+01 5.731896642595529556e+00 -6.791368747595640798e-01
-1.204184848070144653e+01 5.568566564470529556e+00 -6.683946872595640798e-01
-1.637827426195144653e+01 6.796349767595529556e+00 -8.359209323767515798e-01
-1.696177035570144653e+01 6.808190587908029556e+00 -8.519426608923765798e-01
-1.587632113695144653e+01 6.328210119158029556e+00 -8.026567722205015798e-01
-1.584922152757644653e+01 6.166100744158029556e+00 -7.950273776892515798e-01
-1.196848422288894653e+01 4.977746251970529556e+00 -6.412798190955015798e-01
-1.580686312913894653e+01 5.848595861345529556e+00 -7.803789401892515798e-01
-1.220932894945144653e+01 5.742028478533029556e+00 -6.284319187048765798e-01
-1.206638461351394653e+01 5.578210119158029556e+00 -6.184984470251890798e-01
-1.484616976976394653e+01 6.324059728533029556e+00 -7.105852390173765798e-01
-1.593674594163894653e+01 6.504357580095529556e+00 -7.421709323767515798e-01
-1.531260043382644653e+01 6.168175939470529556e+00 -7.144762302283140798e-01
-1.580771762132644653e+01 6.156945470720529556e+00 -7.249742771033140798e-01
-1.196909457445144653e+01 4.979699376970529556e+00 -5.916277194861265798e-01
-1.576902133226394653e+01 5.841271642595529556e+00 -7.114549899939390798e-01
-1.223471957445144653e+01 5.752282384783029556e+00 -5.772234226111265798e-01
-1.209104281663894653e+01 5.587853673845529556e+00 -5.680986667517515798e-01
-1.594211703538894653e+01 6.666100744158029556e+00 -6.795488620642515798e-01
-1.621689730882644653e+01 6.590539220720529556e+00 -6.813951755408140798e-01
-1.584873324632644653e+01 6.325036291033029556e+00 -6.642595554236265798e-01
-1.577585726976394653e+01 6.150475744158029556e+00 -6.559740329626890798e-01
-1.196970492601394653e+01 4.981530431658029556e+00 -5.417009616736265798e-01
-1.755515414476394653e+01 6.301354650408029556e+00 -6.935869480017515798e-01
-1.221836215257644653e+01 5.748620275408029556e+00 -5.249620700720640798e-01
-1.211570101976394653e+01 5.597619298845529556e+00 -5.177446628455015798e-01
-1.472068148851394653e+01 6.289513830095529556e+00 -5.792681003455015798e-01
-1.417075473070144653e+01 5.980553869158029556e+00 -5.599809909705015798e-01
-1.583493930101394653e+01 6.323571447283029556e+00 -5.954424167517515798e-01
-1.540427523851394653e+01 6.049645666033029556e+00 -5.791002536658140798e-01
-1.197043734788894653e+01 4.983483556658029556e+00 -4.920488620642515798e-01
-1.570078402757644653e+01 5.828576330095529556e+00 -5.745073581580015798e-01
-1.270017367601394653e+01 5.910607580095529556e+00 -4.832140231970640798e-01
-1.214060336351394653e+01 5.607384923845529556e+00 -4.668871189001890798e-01
-1.487095004320144653e+01 6.338341955095529556e+00 -5.185533786658140798e-01
-1.417844516038894653e+01 5.984948400408029556e+00 -4.991747165564390798e-01
-1.416220980882644653e+01 5.842980626970529556e+00 -4.937273288611265798e-01
-1.571567660570144653e+01 6.138512853533029556e+00 -5.186144138220640798e-01
-1.197104769945144653e+01 4.985436681658029556e+00 -4.421221042517515798e-01
-1.668149691820144653e+01 6.082604650408029556e+00 -5.251299167517515798e-01
-1.477243930101394653e+01 6.601525548845529556e+00 -4.633623386267515798e-01
-1.480722934007644653e+01 6.466515783220529556e+00 -4.586473728064390798e-01
-1.417893344163894653e+01 6.125695470720529556e+00 -4.435106540564390798e-01
-1.418271762132644653e+01 5.988366369158029556e+00 -4.385668064001890798e-01
-1.416660434007644653e+01 5.846398595720529556e+00 -4.333788181189390798e-01
-1.534946566820144653e+01 6.039025548845529556e+00 -4.456621433142515798e-01
-1.197178012132644653e+01 4.987267736345529556e+00 -3.924700046423765798e-01
-1.563327914476394653e+01 5.816003087908029556e+00 -4.389024997595640798e-01
-1.043760043382644653e+01 5.161584142595529556e+00 -3.484026218298765798e-01
-1.064658480882644653e+01 5.130334142595529556e+00 -3.473345065955015798e-01
-1.086472445726394653e+01 5.097863439470529556e+00 -3.464647556189390798e-01
-1.109250766038894653e+01 5.063805822283029556e+00 -3.453050876501890798e-01
-1.132920199632644653e+01 5.028405431658029556e+00 -3.440996433142515798e-01
-1.157651644945144653e+01 4.991540197283029556e+00 -3.428484226111265798e-01
-1.183518344163894653e+01 4.952599767595529556e+00 -3.412615085486265798e-01
-1.209751254320144653e+01 4.909997228533029556e+00 -3.397966647986265798e-01
-1.034800082445144653e+01 5.133141759783029556e+00 -3.046404147986265798e-01
-1.055295687913894653e+01 5.101647619158029556e+00 -3.027025485876890798e-01
-1.076645785570144653e+01 5.068932775408029556e+00 -3.006883884314390798e-01
-1.098960238695144653e+01 5.034631017595529556e+00 -2.985826755408140798e-01
-1.122153598070144653e+01 4.998986486345529556e+00 -2.963854099158140798e-01
-1.146372348070144653e+01 4.961755041033029556e+00 -2.940965915564390798e-01
-1.173410922288894653e+01 4.927209142595529556e+00 -2.917772556189390798e-01
-1.201950961351394653e+01 4.891686681658029556e+00 -2.893511081580015798e-01
-1.034348422288894653e+01 5.133141759783029556e+00 -2.617021823767515798e-01
-1.056296664476394653e+01 5.106408361345529556e+00 -2.591539646033140798e-01
-1.079270297288894653e+01 5.078576330095529556e+00 -2.562547946814390798e-01
-1.103366976976394653e+01 5.049401525408029556e+00 -2.532182956580015798e-01
-1.128513461351394653e+01 5.019006017595529556e+00 -2.500597263220640798e-01
-1.154856234788894653e+01 4.987023595720529556e+00 -2.467333103064390798e-01
-1.182590609788894653e+01 4.953454259783029556e+00 -2.432390476111265798e-01
-1.203598910570144653e+01 4.897668126970529556e+00 -2.393480564001890798e-01
-1.041318637132644653e+01 5.157799962908029556e+00 -2.188249851111265798e-01
-1.063645297288894653e+01 5.131554845720529556e+00 -2.150865817908140798e-01
-1.086069613695144653e+01 5.101281408220529556e+00 -2.111955905798765798e-01
-1.108396273851394653e+01 5.066125158220529556e+00 -2.071825290564390798e-01
-1.131589633226394653e+01 5.029504064470529556e+00 -2.030168796423765798e-01
-1.155783969163894653e+01 4.991296056658029556e+00 -1.986528659705015798e-01
-1.181150180101394653e+01 4.951379064470529556e+00 -1.940904880408140798e-01
-1.203659945726394653e+01 4.899621251970529556e+00 -1.895433689001890798e-01
-1.036765414476394653e+01 5.144128087908029556e+00 -1.759325290564390798e-01
-1.057016879320144653e+01 5.111657384783029556e+00 -1.716600681189390798e-01
-1.078037387132644653e+01 5.077843908220529556e+00 -1.669603610876890798e-01
-1.099997836351394653e+01 5.042443517595529556e+00 -1.620775485876890798e-01
-1.122812777757644653e+01 5.005700353533029556e+00 -1.569811130408140798e-01
-1.146592074632644653e+01 4.967370275408029556e+00 -1.516863132361265798e-01
-1.171518832445144653e+01 4.927209142595529556e+00 -1.461321140173765798e-01
-1.200827914476394653e+01 4.894128087908029556e+00 -1.397386814001890798e-01
-1.029599887132644653e+01 5.121667150408029556e+00 -1.340471530798765798e-01
-1.052195101976394653e+01 5.097619298845529556e+00 -1.284014011267515798e-01
-1.075840121507644653e+01 5.072594884783029556e+00 -1.225115085486265798e-01
-1.100705844163894653e+01 5.046105626970529556e+00 -1.163011814001890798e-01
-1.126682406663894653e+01 5.018517736345529556e+00 -1.098161960486265798e-01
-1.153952914476394653e+01 4.989587072283029556e+00 -1.030107761267515798e-01
-1.182712680101394653e+01 4.958947423845529556e+00 -9.583914526737657980e-02
-1.211289340257644653e+01 4.922814611345529556e+00 -8.854544409550157980e-02
-1.038266879320144653e+01 5.152062658220529556e+00 -8.987295874393907980e-02
-1.061289340257644653e+01 5.128503087908029556e+00 -8.317435034550157980e-02
-1.085337191820144653e+01 5.103722814470529556e+00 -7.639944800175157980e-02
-1.110691195726394653e+01 5.077721837908029556e+00 -6.902945288456407980e-02
-1.419687777757644653e+01 5.869958166033029556e+00 -9.016635501751579795e-03
-1.573447543382644653e+01 6.162682775408029556e+00 2.359139672481092020e-02
-1.675315219163894653e+01 6.283532384783029556e+00 4.754769555293592020e-02
-1.669309359788894653e+01 6.105798009783029556e+00 5.075204125606092020e-02
-1.436155062913894653e+01 6.482018712908029556e+00 4.156625024043592020e-02
-1.426230746507644653e+01 6.308312658220529556e+00 4.263436547481092020e-02
-1.369858676195144653e+01 5.992760900408029556e+00 3.340279809199842020e-02
-1.442514926195144653e+01 6.078210119158029556e+00 5.355965844356092020e-02
-1.598630648851394653e+01 6.391320470720529556e+00 9.353768578731092020e-02
-1.583750277757644653e+01 6.193810705095529556e+00 9.402596703731092020e-02
-1.640989047288894653e+01 6.193810705095529556e+00 1.116346096154359202e-01
-1.667466098070144653e+01 6.103600744158029556e+00 1.224836086388734202e-01
-1.560813266038894653e+01 5.783166173845529556e+00 -1.174955966556439080e+00
-1.264719516038894653e+01 4.910485509783029556e+00 -9.737688327673765798e-01
-1.311936312913894653e+01 4.903405431658029556e+00 -9.988542819861265798e-01
-1.315122348070144653e+01 4.788293126970529556e+00 -9.951006198767515798e-01
-1.320932894945144653e+01 4.678918126970529556e+00 -9.930406833533140798e-01
-1.326780062913894653e+01 4.569054845720529556e+00 -9.909807468298765798e-01
-1.332676059007644653e+01 4.458092931658029556e+00 -9.888902927283140798e-01
-1.337998324632644653e+01 4.345910314470529556e+00 -9.867235446814390798e-01
-1.588718539476394653e+01 5.856652501970529556e+00 -1.124891879642376580e+00
-1.264597445726394653e+01 4.912072423845529556e+00 -9.210344577673765798e-01
-1.587387973070144653e+01 5.549767736345529556e+00 -1.109617831790814080e+00
-1.600644809007644653e+01 5.428063634783029556e+00 -1.110502841556439080e+00
-1.604563266038894653e+01 5.284997228533029556e+00 -1.105787875736126580e+00
-1.461496859788894653e+01 4.843957189470529556e+00 -1.014723422611126580e+00
-1.473594027757644653e+01 4.730920080095529556e+00 -1.015761020267376580e+00
-1.486838656663894653e+01 4.618615392595529556e+00 -1.017088534915814080e+00
-1.591990023851394653e+01 5.867394689470529556e+00 -1.058272006595501580e+00
-1.264475375413894653e+01 4.913659337908029556e+00 -8.680406833533140798e-01
-1.641428500413894653e+01 5.678673986345529556e+00 -1.071867587650189080e+00
-1.653147250413894653e+01 5.547936681658029556e+00 -1.071180942142376580e+00
-1.664963656663894653e+01 5.416100744158029556e+00 -1.070479037845501580e+00
-1.662363559007644653e+01 5.253381017595529556e+00 -1.061918857181439080e+00
-1.685910922288894653e+01 5.141564611345529556e+00 -1.067396762454876580e+00
-1.752011996507644653e+01 5.103600744158029556e+00 -1.095305087650189080e+00
-1.589292269945144653e+01 5.862878087908029556e+00 -9.886308933142515798e-01
-1.264511996507644653e+01 4.915612462908029556e+00 -8.151384616736265798e-01
-1.728989535570144653e+01 5.886193517595529556e+00 -1.045652988040814080e+00
-1.757431918382644653e+01 5.783654455095529556e+00 -1.052549960697064080e+00
-1.786667758226394653e+01 5.678185705095529556e+00 -1.059660556400189080e+00
-1.667905551195144653e+01 5.267052892595529556e+00 -9.934831882361265798e-01
-1.691037875413894653e+01 5.154015783220529556e+00 -9.977709079626890798e-01
-1.715989047288894653e+01 5.040612462908029556e+00 -1.003187778079876580e+00
-1.586594516038894653e+01 5.858361486345529556e+00 -9.188829685095640798e-01
-1.264536410570144653e+01 4.917565587908029556e+00 -7.625261569861265798e-01
-1.739756137132644653e+01 5.914147619158029556e+00 -9.762102390173765798e-01
-1.738877230882644653e+01 5.744836095720529556e+00 -9.685350681189390798e-01
-1.715976840257644653e+01 5.529992345720529556e+00 -9.509874606970640798e-01
-1.720163851976394653e+01 5.375695470720529556e+00 -9.457689548376890798e-01
-1.696164828538894653e+01 5.166466955095529556e+00 -9.280687595251890798e-01
-1.811997348070144653e+01 5.218346837908029556e+00 -9.718462253455015798e-01
-1.583908969163894653e+01 5.853966955095529556e+00 -8.497759128455015798e-01
-1.264560824632644653e+01 4.919518712908029556e+00 -7.096239353064390798e-01
-1.762180453538894653e+01 5.969323400408029556e+00 -9.101701999548765798e-01
-1.740036898851394653e+01 5.750085119158029556e+00 -8.939195896033140798e-01
-1.788352328538894653e+01 5.687340978533029556e+00 -9.064012790564390798e-01
-1.851072055101394653e+01 5.644494298845529556e+00 -9.242235446814390798e-01
-1.817209750413894653e+01 5.402428869158029556e+00 -9.033342624548765798e-01
-1.716074496507644653e+01 5.045983556658029556e+00 -8.568865085486265798e-01
-1.580661898851394653e+01 5.847985509783029556e+00 -7.803484226111265798e-01
-1.264585238695144653e+01 4.921349767595529556e+00 -6.570116306189390798e-01
-1.745273715257644653e+01 5.932336095720529556e+00 -8.280473972205015798e-01
-1.742051059007644653e+01 5.757287267595529556e+00 -8.199144626501890798e-01
-1.707285434007644653e+01 5.516686681658029556e+00 -8.005968356970640798e-01
-1.712180453538894653e+01 5.364831212908029556e+00 -7.956072116736265798e-01
-1.822373324632644653e+01 5.415246251970529556e+00 -8.272997165564390798e-01
-1.714658480882644653e+01 5.046105626970529556e+00 -7.830492282751890798e-01
-1.576889926195144653e+01 5.840783361345529556e+00 -7.114244724158140798e-01
-1.264621859788894653e+01 4.923302892595529556e+00 -6.043993259314390798e-01
-1.746445590257644653e+01 5.937829259783029556e+00 -7.528826022986265798e-01
-1.703696566820144653e+01 5.673913244158029556e+00 -7.326341892126890798e-01
-1.702964144945144653e+01 5.510094884783029556e+00 -7.258440280798765798e-01
-1.691990023851394653e+01 5.326379064470529556e+00 -7.159410739783140798e-01
-1.711545687913894653e+01 5.203942541033029556e+00 -7.157427097205015798e-01
-1.713254672288894653e+01 5.046105626970529556e+00 -7.097307468298765798e-01
-1.755503207445144653e+01 6.300744298845529556e+00 -6.935564304236265798e-01
-1.264646273851394653e+01 4.925256017595529556e+00 -5.515123630408140798e-01
-1.848459750413894653e+01 6.180260900408029556e+00 -7.053972507361265798e-01
-1.780527621507644653e+01 5.848962072283029556e+00 -6.801744724158140798e-01
-1.843723422288894653e+01 5.814049962908029556e+00 -6.900774265173765798e-01
-1.704209262132644653e+01 5.353844884783029556e+00 -6.469713474158140798e-01
-1.707578402757644653e+01 5.198937658220529556e+00 -6.414476657751890798e-01
-1.684153109788894653e+01 4.995568517595529556e+00 -6.292253757361265798e-01
-1.570066195726394653e+01 5.827965978533029556e+00 -5.744920993689390798e-01
-1.264670687913894653e+01 4.927209142595529556e+00 -4.989153171423765798e-01
-1.761313754320144653e+01 5.978112462908029556e+00 -6.058641696814390798e-01
-1.694370394945144653e+01 5.658166173845529556e+00 -5.845781589392515798e-01
-1.697031527757644653e+01 5.502526525408029556e+00 -5.789324069861265798e-01
-1.832236605882644653e+01 5.617394689470529556e+00 -6.014543796423765798e-01
-1.685215121507644653e+01 5.158288244158029556e+00 -5.640856052283140798e-01
-1.676535922288894653e+01 4.984093908220529556e+00 -5.562120700720640798e-01
-1.668259555101394653e+01 6.082238439470529556e+00 -5.251299167517515798e-01
-1.264695101976394653e+01 4.929162267595529556e+00 -4.460283542517515798e-01
-1.704587680101394653e+01 5.847253087908029556e+00 -5.195299411658140798e-01
-1.689719516038894653e+01 5.650231603533029556e+00 -5.108171726111265798e-01
-1.684775668382644653e+01 5.478844884783029556e+00 -5.039507175330015798e-01
-1.702573519945144653e+01 5.355675939470529556e+00 -5.008989597205015798e-01
-1.680454379320144653e+01 5.151574376970529556e+00 -4.912859226111265798e-01
-1.801877719163894653e+01 5.216515783220529556e+00 -5.045000339392515798e-01
-1.563303500413894653e+01 5.815392736345529556e+00 -4.388719821814390798e-01
-1.264731723070144653e+01 4.930993322283029556e+00 -3.934313083533140798e-01
-1.699265414476394653e+01 5.837365392595529556e+00 -4.456468845251890798e-01
-1.693259555101394653e+01 5.660851720720529556e+00 -4.389330173376890798e-01
-1.687351351976394653e+01 5.487023595720529556e+00 -4.323259616736265798e-01
-1.681516391038894653e+01 5.315270666033029556e+00 -4.257951999548765798e-01
-1.382859164476394653e+01 4.577233556658029556e+00 -3.856951022986265798e-01
-1.414463168382644653e+01 4.508263830095529556e+00 -3.845506931189390798e-01
-1.209848910570144653e+01 4.909875158220529556e+00 -3.397966647986265798e-01
-1.232749301195144653e+01 4.854211095720529556e+00 -3.377825046423765798e-01
-1.257688266038894653e+01 4.798913244158029556e+00 -3.360735202673765798e-01
-1.283713656663894653e+01 4.740929845720529556e+00 -3.339983249548765798e-01
-1.310776644945144653e+01 4.680749181658029556e+00 -3.318315769080015798e-01
-1.339035922288894653e+01 4.617760900408029556e+00 -3.295580173376890798e-01
-1.368601351976394653e+01 4.551720861345529556e+00 -3.268877292517515798e-01
-1.399497348070144653e+01 4.482873205095529556e+00 -3.244005466345640798e-01
-1.202146273851394653e+01 4.891808751970529556e+00 -2.893511081580015798e-01
-1.226841098070144653e+01 4.841393712908029556e+00 -2.864671970251890798e-01
-1.253403598070144653e+01 4.790612462908029556e+00 -2.835069919470640798e-01
-1.281260043382644653e+01 4.737267736345529556e+00 -2.803789401892515798e-01
-1.310337191820144653e+01 4.681725744158029556e+00 -2.771288181189390798e-01
-1.340818148851394653e+01 4.623376134783029556e+00 -2.737108493689390798e-01
-1.372898226976394653e+01 4.562096837908029556e+00 -2.701097751501890798e-01
-1.406491976976394653e+01 4.497765783220529556e+00 -2.663561130408140798e-01
-1.203574496507644653e+01 4.897301916033029556e+00 -2.393327976111265798e-01
-1.235532504320144653e+01 4.864587072283029556e+00 -2.356096530798765798e-01
-1.262497836351394653e+01 4.813927892595529556e+00 -2.314592624548765798e-01
-1.289682894945144653e+01 4.758263830095529556e+00 -2.271257663611265798e-01
-1.316599398851394653e+01 4.697106603533029556e+00 -2.226244235876890798e-01
-1.344687777757644653e+01 4.633385900408029556e+00 -2.179399753455015798e-01
-1.374131137132644653e+01 4.566491369158029556e+00 -2.130266452673765798e-01
-1.404746371507644653e+01 4.496667150408029556e+00 -2.075945163611265798e-01
-1.203647738695144653e+01 4.899255041033029556e+00 -1.895281101111265798e-01
-1.229734164476394653e+01 4.852135900408029556e+00 -1.844469333533140798e-01
-1.254099398851394653e+01 4.795983556658029556e+00 -1.793199802283140798e-01
-1.279563266038894653e+01 4.737267736345529556e+00 -1.739488864783140798e-01
-1.306015902757644653e+01 4.676232580095529556e+00 -1.683641696814390798e-01
-1.333603793382644653e+01 4.612633947283029556e+00 -1.625505710486265798e-01
-1.364731723070144653e+01 4.550256017595529556e+00 -1.562944675330015798e-01
-1.399070101976394653e+01 4.488366369158029556e+00 -1.496111179236265798e-01
-1.201023226976394653e+01 4.894250158220529556e+00 -1.397081638220640798e-01
-1.226657992601394653e+01 4.846398595720529556e+00 -1.338335300330015798e-01
-1.254136019945144653e+01 4.797936681658029556e+00 -1.273485446814390798e-01
-1.283005648851394653e+01 4.746911291033029556e+00 -1.205278659705015798e-01
-1.313193637132644653e+01 4.693688634783029556e+00 -1.134020114783140798e-01
-1.344895297288894653e+01 4.637780431658029556e+00 -1.059099460486265798e-01
-1.378330355882644653e+01 4.578820470720529556e+00 -9.800589331425157980e-02
-1.646714144945144653e+01 4.947106603533029556e+00 -6.085074194706407980e-02
-1.211411410570144653e+01 4.922692541033029556e+00 -8.851492651737657980e-02
-1.237510043382644653e+01 4.874963048845529556e+00 -8.117544897831407980e-02
-1.710007601976394653e+01 5.878258947283029556e+00 -5.354526126751579795e-03
-1.662119418382644653e+01 5.605920080095529556e+00 -7.811191165814079795e-03
-1.632907992601394653e+01 5.385094884783029556e+00 -7.643344486126579795e-03
-1.619529086351394653e+01 5.203454259783029556e+00 -5.095126712689079795e-03
-1.610117465257644653e+01 5.032433751970529556e+00 -1.982333743939079795e-03
-1.638852816820144653e+01 4.935143712908029556e+00 7.478115474810920205e-03
-1.669260531663894653e+01 6.105187658220529556e+00 5.076730004512342020e-02
-1.266318637132644653e+01 4.947961095720529556e+00 -2.393973120487657980e-02
-1.667307406663894653e+01 5.779748205095529556e+00 5.949532738887342020e-02
-1.728037387132644653e+01 5.757531408220529556e+00 7.655465356074842020e-02
-1.643259555101394653e+01 5.409875158220529556e+00 6.395089379512342020e-02
-1.625522738695144653e+01 5.218224767595529556e+00 6.483590356074842020e-02
-1.613620883226394653e+01 5.041833166033029556e+00 6.721627465449842020e-02
-1.632224398851394653e+01 4.925378087908029556e+00 7.570016137324842020e-02
-1.667441684007644653e+01 6.102990392595529556e+00 1.224836086388734202e-01
-1.661399203538894653e+01 5.927453283220529556e+00 1.252301906701234202e-01
-1.707846957445144653e+01 5.878381017595529556e+00 1.412671779748109202e-01
-1.649472934007644653e+01 5.582360509783029556e+00 1.313489650841859202e-01
-1.634897738695144653e+01 5.394250158220529556e+00 1.321424221154359202e-01
-1.627720004320144653e+01 5.225182775408029556e+00 1.347211574669984202e-01
-1.617136508226394653e+01 5.051110509783029556e+00 1.363691066857484202e-01
-2.391867953538894653e+01 6.332360509783029556e+00 3.444226955529359202e-01
-1.338022738695144653e+01 4.345544103533029556e+00 -9.867235446814390798e-01
-1.343833285570144653e+01 4.233483556658029556e+00 -9.846025730017515798e-01
-1.350657016038894653e+01 4.122277501970529556e+00 -9.833818698767515798e-01
-1.358908969163894653e+01 4.011681798845529556e+00 -9.829546237830015798e-01
-1.367209750413894653e+01 3.900353673845529556e+00 -9.825273776892515798e-01
-1.375620394945144653e+01 3.787804845720529556e+00 -9.820848728064390798e-01
-1.384140902757644653e+01 3.673547033220529556e+00 -9.816423679236265798e-01
-1.392002230882644653e+01 3.557702306658029556e+00 -9.810777927283140798e-01
-1.486924105882644653e+01 4.618249181658029556e+00 -1.017119052493939080e+00
-1.473874789476394653e+01 4.458581212908029556e+00 -1.003630282962689080e+00
-1.512790805101394653e+01 4.385827306658029556e+00 -1.019499423587689080e+00
-1.577280551195144653e+01 4.343713048845529556e+00 -1.049788119876751580e+00
-1.569455844163894653e+01 4.187340978533029556e+00 -1.039045932376751580e+00
-1.561741000413894653e+01 4.033288244158029556e+00 -1.028456332767376580e+00
-1.554233676195144653e+01 3.880822423845529556e+00 -1.018385531986126580e+00
-1.562253695726394653e+01 3.748009923845529556e+00 -1.016569736087689080e+00
-1.751047641038894653e+01 5.101281408220529556e+00 -1.094771030033001580e+00
-1.473972445726394653e+01 4.461022619158029556e+00 -9.417253757361265798e-01
-1.766758090257644653e+01 4.798302892595529556e+00 -1.088835361087689080e+00
-1.723691684007644653e+01 4.567467931658029556e+00 -1.059385898197064080e+00
-1.723069125413894653e+01 4.406457189470529556e+00 -1.052168490970501580e+00
-1.722446566820144653e+01 4.246056798845529556e+00 -1.044966342533001580e+00
-1.721824008226394653e+01 4.085656408220529556e+00 -1.037779452884564080e+00
-1.775949984788894653e+01 3.986901525408029556e+00 -1.058027865970501580e+00
-1.716159945726394653e+01 5.040368322283029556e+00 -1.003248813236126580e+00
-1.474070101976394653e+01 4.463464025408029556e+00 -8.798357272986265798e-01
-1.721555453538894653e+01 4.727990392595529556e+00 -9.918047214392515798e-01
-1.720932894945144653e+01 4.566003087908029556e+00 -9.846788669470640798e-01
-1.720322543382644653e+01 4.405236486345529556e+00 -9.776140476111265798e-01
-1.719712191820144653e+01 4.245080236345529556e+00 -9.705644870642515798e-01
-1.719089633226394653e+01 4.085046056658029556e+00 -9.635301853064390798e-01
-1.946933871507644653e+01 4.179284337908029556e+00 -1.060713412845501580e+00
-1.811570101976394653e+01 5.217004064470529556e+00 -9.716478610876890798e-01
-1.474179965257644653e+01 4.465783361345529556e+00 -8.182665134314390798e-01
-1.920371371507644653e+01 5.052331212908029556e+00 -1.004118564212689080e+00
-1.811130648851394653e+01 4.705407384783029556e+00 -9.501329685095640798e-01
-1.717600375413894653e+01 4.404015783220529556e+00 -9.037309909705015798e-01
-1.716990023851394653e+01 4.244225744158029556e+00 -8.968340183142515798e-01
-2.120053988695144653e+01 4.573327306658029556e+00 -1.056334140384564080e+00
-2.218454867601394653e+01 4.483849767595529556e+00 -1.088194491947064080e+00
-1.716037875413894653e+01 5.045373205095529556e+00 -8.568559909705015798e-01
-1.474277621507644653e+01 4.468224767595529556e+00 -7.563616062048765798e-01
-1.643406039476394653e+01 4.606652501970529556e+00 -8.154894138220640798e-01
-2.024985629320144653e+01 5.032799962908029556e+00 -9.535661960486265798e-01
-1.714609652757644653e+01 4.402550939470529556e+00 -8.296037937048765798e-01
-1.714280062913894653e+01 4.243249181658029556e+00 -8.229662204626890798e-01
-2.218442660570144653e+01 4.696007970720529556e+00 -1.000853183353314080e+00
-2.241379672288894653e+01 4.512780431658029556e+00 -1.001097323978314080e+00
-1.714621859788894653e+01 5.045495275408029556e+00 -7.830187106970640798e-01
-1.474375277757644653e+01 4.470666173845529556e+00 -6.947923923376890798e-01
-1.668845492601394653e+01 4.650353673845529556e+00 -7.546678806189390798e-01
-2.107261019945144653e+01 5.160973791033029556e+00 -8.939043308142515798e-01
-2.163535434007644653e+01 5.041589025408029556e+00 -9.043108249548765798e-01
-1.669687777757644653e+01 4.187218908220529556e+00 -7.361894870642515798e-01
-2.250095492601394653e+01 4.738000158220529556e+00 -9.154649997595640798e-01
-2.280185824632644653e+01 4.559655431658029556e+00 -9.164110446814390798e-01
-1.713218051195144653e+01 5.045495275408029556e+00 -7.097002292517515798e-01
-1.474485141038894653e+01 4.472985509783029556e+00 -6.332079196814390798e-01
-1.706272250413894653e+01 4.713708166033029556e+00 -6.945787692908140798e-01
-1.705259066820144653e+01 4.552819494158029556e+00 -6.879564548376890798e-01
-1.706089144945144653e+01 4.395715001970529556e+00 -6.818987155798765798e-01
-1.674009066820144653e+01 4.195519689470529556e+00 -6.667314792517515798e-01
-2.308139926195144653e+01 4.812096837908029556e+00 -8.343797946814390798e-01
-2.337986117601394653e+01 4.627770666033029556e+00 -8.337694431189390798e-01
-1.684104281663894653e+01 4.994836095720529556e+00 -6.291948581580015798e-01
-1.474582797288894653e+01 4.475426916033029556e+00 -5.713030124548765798e-01
-1.770261508226394653e+01 4.820275548845529556e+00 -6.378465915564390798e-01
-1.671372348070144653e+01 4.503869298845529556e+00 -6.077410007361265798e-01
-1.697873812913894653e+01 4.386681798845529556e+00 -6.079088474158140798e-01
-1.703867465257644653e+01 4.237511876970529556e+00 -6.031633640173765798e-01
-1.667551547288894653e+01 4.035485509783029556e+00 -5.887590671423765798e-01
-2.395810824632644653e+01 4.696007970720529556e+00 -7.452684665564390798e-01
-1.676365023851394653e+01 4.983239416033029556e+00 -5.561662937048765798e-01
-1.474680453538894653e+01 4.477868322283029556e+00 -5.097185397986265798e-01
-1.703489047288894653e+01 4.714440587908029556e+00 -5.494829440955015798e-01
-1.649826937913894653e+01 4.473595861345529556e+00 -5.330339694861265798e-01
-2.194809848070144653e+01 5.096276525408029556e+00 -6.300188327673765798e-01
-1.690146762132644653e+01 4.222008947283029556e+00 -5.287920261267515798e-01
-1.672837191820144653e+01 4.044518712908029556e+00 -5.196672702673765798e-01
-1.662046176195144653e+01 3.878869298845529556e+00 -5.118547702673765798e-01
-1.801780062913894653e+01 5.215783361345529556e+00 -5.044542575720640798e-01
-1.474790316820144653e+01 4.480309728533029556e+00 -4.477983737830015798e-01
-1.816294223070144653e+01 4.900719884783029556e+00 -4.938646579626890798e-01
-1.695176059007644653e+01 4.545251134783029556e+00 -4.697557712439390798e-01
-1.671042758226394653e+01 4.353722814470529556e+00 -4.603868747595640798e-01
-1.682773715257644653e+01 4.214928869158029556e+00 -4.561907077673765798e-01
-1.678183871507644653e+01 4.053673986345529556e+00 -4.497057224158140798e-01
-1.663352328538894653e+01 3.882897619158029556e+00 -4.419695163611265798e-01
-1.414682894945144653e+01 4.508141759783029556e+00 -3.845659519080015798e-01
-1.447812777757644653e+01 4.435754064470529556e+00 -3.833147312048765798e-01
-1.482627230882644653e+01 4.359704259783029556e+00 -3.819872165564390798e-01
-1.512180453538894653e+01 4.268273595720529556e+00 -3.798815036658140798e-01
-1.544712191820144653e+01 4.176110509783029556e+00 -3.778673435095640798e-01
-1.578733187913894653e+01 4.079674962908029556e+00 -3.757616306189390798e-01
-1.614463168382644653e+01 3.978356603533029556e+00 -3.735491062048765798e-01
-1.651792269945144653e+01 3.872521642595529556e+00 -3.712450290564390798e-01
-1.399704867601394653e+01 4.482873205095529556e+00 -3.244005466345640798e-01
-1.432077914476394653e+01 4.410607580095529556e+00 -3.216997409705015798e-01
-1.466587191820144653e+01 4.335656408220529556e+00 -3.192125583533140798e-01
-1.500180941820144653e+01 4.252282384783029556e+00 -3.160997653845640798e-01
-1.534873324632644653e+01 4.164391759783029556e+00 -3.128191257361265798e-01
-1.571274691820144653e+01 4.072228673845529556e+00 -3.093858981970640798e-01
-1.609751254320144653e+01 3.975060705095529556e+00 -3.054033542517515798e-01
-1.650010043382644653e+01 3.873009923845529556e+00 -3.015886569861265798e-01
-1.406711703538894653e+01 4.497765783220529556e+00 -2.663408542517515798e-01
-1.442112094163894653e+01 4.430260900408029556e+00 -2.622362399939390798e-01
-1.479441195726394653e+01 4.358971837908029556e+00 -2.579027439001890798e-01
-1.511899691820144653e+01 4.272546056658029556e+00 -2.532640720251890798e-01
-1.545664340257644653e+01 4.182214025408029556e+00 -2.484117771033140798e-01
-1.579294711351394653e+01 4.085290197283029556e+00 -2.433458591345640798e-01
-1.614597445726394653e+01 3.983483556658029556e+00 -2.380205417517515798e-01
-1.651450473070144653e+01 3.877282384783029556e+00 -2.324663425330015798e-01
-1.404953891038894653e+01 4.496667150408029556e+00 -2.075792575720640798e-01
-1.437131625413894653e+01 4.423669103533029556e+00 -2.023302341345640798e-01
-1.470823031663894653e+01 4.347131017595529556e+00 -1.965013767126890798e-01
-1.501096469163894653e+01 4.258263830095529556e+00 -1.905657077673765798e-01
-1.532700473070144653e+01 4.165978673845529556e+00 -1.843858981970640798e-01
-1.566294223070144653e+01 4.070397619158029556e+00 -1.779161716345640798e-01
-1.605674105882644653e+01 3.974938634783029556e+00 -1.708971286658140798e-01
-1.647129184007644653e+01 3.874963048845529556e+00 -1.631609226111265798e-01
-1.399302035570144653e+01 4.488366369158029556e+00 -1.495806003455015798e-01
-1.435556918382644653e+01 4.423180822283029556e+00 -1.423174167517515798e-01
-1.473874789476394653e+01 4.354333166033029556e+00 -1.346269870642515798e-01
-1.507907992601394653e+01 4.270959142595529556e+00 -1.270281101111265798e-01
-1.544138461351394653e+01 4.184655431658029556e+00 -1.190477634314390798e-01
-1.582236605882644653e+01 4.093957189470529556e+00 -1.106401706580015798e-01
-2.588669711351394653e+01 5.186486486345529556e+00 -8.360507572064079795e-03
-1.664463168382644653e+01 3.897057775408029556e+00 -9.245169409550157980e-02
-1.646738559007644653e+01 4.946618322283029556e+00 -6.083548315800157980e-02
-2.195713168382644653e+01 5.748620275408029556e+00 1.294076195918592020e-02
-2.236228305101394653e+01 5.605675939470529556e+00 2.522408715449842020e-02
-2.323337680101394653e+01 5.525964025408029556e+00 4.396188012324842020e-02
-1.681687289476394653e+01 4.384362462908029556e+00 -3.584158667362657980e-02
-2.752256137132644653e+01 5.656090978533029556e+00 1.185926174279359202e-01
-1.716672641038894653e+01 4.116662267595529556e+00 -2.038443335331407980e-02
-2.887265902757644653e+01 5.282311681658029556e+00 1.567243312951234202e-01
-1.638877230882644653e+01 4.934655431658029556e+00 7.493374263873420205e-03
-2.586521273851394653e+01 6.433190587908029556e+00 1.758588527794984202e-01
-2.192112094163894653e+01 5.536828283220529556e+00 1.147779201623109202e-01
-2.398911410570144653e+01 5.645837072283029556e+00 1.587232326623109202e-01
-2.394944125413894653e+01 5.411340001970529556e+00 1.655439113732484202e-01
-1.695554476976394653e+01 4.250085119158029556e+00 4.310738793574842020e-02
-1.671164828538894653e+01 4.063195470720529556e+00 4.365670434199842020e-02
-1.689109164476394653e+01 3.930016759783029556e+00 5.217110863887342020e-02
-1.632199984788894653e+01 4.924767736345529556e+00 7.570016137324842020e-02
-2.443210726976394653e+01 6.187218908220529556e+00 2.582715725060609202e-01
-2.194028598070144653e+01 5.543420080095529556e+00 2.099469875451234202e-01
-2.399729281663894653e+01 5.650841955095529556e+00 2.630780910607484202e-01
-2.397190219163894653e+01 5.418298009783029556e+00 2.698835109826234202e-01
-1.697397738695144653e+01 4.255212072283029556e+00 1.149152492638734202e-01
-2.977329379320144653e+01 5.678796056658029556e+00 4.218152736779359202e-01
-3.044797641038894653e+01 5.470299962908029556e+00 4.471296047326234202e-01
-2.391904574632644653e+01 6.331628087908029556e+00 3.444684719201234202e-01
-2.455222445726394653e+01 6.212121251970529556e+00 3.679975246544984202e-01
-2.235324984788894653e+01 5.614709142595529556e+00 3.163617824669984202e-01
-2.403244906663894653e+01 5.660119298845529556e+00 3.687909816857484202e-01
-2.401255160570144653e+01 5.427941564470529556e+00 3.754895900841859202e-01
-1.699265414476394653e+01 4.260339025408029556e+00 1.872876857873109202e-01
-3.050876742601394653e+01 5.774621251970529556e+00 5.728925441857484202e-01
-3.126633578538894653e+01 5.568078283220529556e+00 6.044629787560609202e-01
-1.392063266038894653e+01 3.557336095720529556e+00 -9.811083103064390798e-01
-1.400571566820144653e+01 3.440881017595529556e+00 -9.806200290564390798e-01
-1.408432894945144653e+01 3.322228673845529556e+00 -9.800096774939390798e-01
-1.416416293382644653e+01 3.201867345720529556e+00 -9.793993259314390798e-01
-1.426096469163894653e+01 3.081750158220529556e+00 -9.797350192908140798e-01
-1.433847934007644653e+01 2.958703283220529556e+00 -9.788805271033140798e-01
-1.440830355882644653e+01 2.833459142595529556e+00 -9.775072360876890798e-01
-1.448362094163894653e+01 2.707726720720529556e+00 -9.767442966345640798e-01
-1.562314730882644653e+01 3.747521642595529556e+00 -1.016584994876751580e+00
-1.569358187913894653e+01 3.612511876970529556e+00 -1.014570834720501580e+00
-1.577414828538894653e+01 3.477135900408029556e+00 -1.012709262454876580e+00
-1.584616976976394653e+01 3.339074376970529556e+00 -1.010649325931439080e+00
-1.591843539476394653e+01 3.200402501970529556e+00 -1.008574130618939080e+00
-1.599143344163894653e+01 3.060631994158029556e+00 -1.006498935306439080e+00
-1.605515414476394653e+01 2.918542150408029556e+00 -1.004225375736126580e+00
-1.615354281663894653e+01 2.777306798845529556e+00 -1.003355624759564080e+00
-1.775217562913894653e+01 3.985558751970529556e+00 -1.057631137454876580e+00
-1.750034457445144653e+01 3.796593908220529556e+00 -1.038481357181439080e+00
-1.765781527757644653e+01 3.650109533220529556e+00 -1.039686801517376580e+00
-1.781858187913894653e+01 3.500329259783029556e+00 -1.040922763431439080e+00
-1.798191195726394653e+01 3.348351720720529556e+00 -1.042173984134564080e+00
-1.814829379320144653e+01 3.193444494158029556e+00 -1.043440463626751580e+00
-1.849729281663894653e+01 3.044152501970529556e+00 -1.053267123783001580e+00
-1.855356723070144653e+01 2.876916173845529556e+00 -1.049025180423626580e+00
-2.094858676195144653e+01 4.342614416033029556e+00 -1.127897861087689080e+00
-2.218650180101394653e+01 4.271569494158029556e+00 -1.175230624759564080e+00
-2.241587191820144653e+01 4.084557775408029556e+00 -1.177076938236126580e+00
-2.265085726976394653e+01 3.892907384783029556e+00 -1.178969028079876580e+00
-2.255014926195144653e+01 3.673791173845529556e+00 -1.166014316165814080e+00
-2.244834262132644653e+01 3.457116369158029556e+00 -1.153105380618939080e+00
-2.234739047288894653e+01 3.242028478533029556e+00 -1.140287997806439080e+00
-2.224643832445144653e+01 3.029992345720529556e+00 -1.128111484134564080e+00
-2.218601351976394653e+01 4.483239416033029556e+00 -1.088225009525189080e+00
-2.241562777757644653e+01 4.298180822283029556e+00 -1.089171054447064080e+00
-2.264988070726394653e+01 4.109338048845529556e+00 -1.090132358158001580e+00
-2.288999301195144653e+01 3.915734533220529556e+00 -1.091124179447064080e+00
-2.282737094163894653e+01 3.697106603533029556e+00 -1.080092074954876580e+00
-2.272263461351394653e+01 3.477380041033029556e+00 -1.067503573978314080e+00
-2.435068637132644653e+01 3.347253087908029556e+00 -1.121504428470501580e+00
-2.464988070726394653e+01 3.131676916033029556e+00 -1.123762729251751580e+00
-2.241526156663894653e+01 4.512292150408029556e+00 -1.001127841556439080e+00
-2.265097934007644653e+01 4.325646642595529556e+00 -1.000700595462689080e+00
-2.289048129320144653e+01 4.134850744158029556e+00 -1.000746371829876580e+00
-2.313938266038894653e+01 3.939660314470529556e+00 -1.000914218509564080e+00
-2.376291781663894653e+01 3.767174962908029556e+00 -1.013868930423626580e+00
-2.445554476976394653e+01 3.586632970720529556e+00 -1.028715732181439080e+00
-2.484311801195144653e+01 3.376305822283029556e+00 -1.032698276126751580e+00
-2.496396762132644653e+01 3.148522619158029556e+00 -1.028074863040814080e+00
-2.280393344163894653e+01 4.559167150408029556e+00 -9.164415622595640798e-01
-2.311155062913894653e+01 4.375817541033029556e+00 -9.176012302283140798e-01
-2.340659457445144653e+01 4.185631994158029556e+00 -9.181505466345640798e-01
-2.396274691820144653e+01 4.010216955095529556e+00 -9.263750339392515798e-01
-2.455979281663894653e+01 3.827599767595529556e+00 -9.354387546423765798e-01
-2.503782016038894653e+01 3.626183751970529556e+00 -9.405199314001890798e-01
-2.516269809007644653e+01 3.396691564470529556e+00 -9.348894382361265798e-01
-2.571787387132644653e+01 3.183556798845529556e+00 -9.416185642126890798e-01
-2.338193637132644653e+01 4.627160314470529556e+00 -8.337999606970640798e-01
-2.367820101976394653e+01 4.436974767595529556e+00 -8.330827976111265798e-01
-1.749765902757644653e+01 3.649255041033029556e+00 -6.623369480017515798e-01
-2.478428012132644653e+01 4.080895666033029556e+00 -8.436571384314390798e-01
-2.531467562913894653e+01 3.885461095720529556e+00 -8.480211521033140798e-01
-2.573008090257644653e+01 3.672692541033029556e+00 -8.491197849158140798e-01
-2.615671664476394653e+01 3.451745275408029556e+00 -8.507677341345640798e-01
-2.660801059007644653e+01 3.224572423845529556e+00 -8.521257663611265798e-01
-2.396018344163894653e+01 4.695519689470529556e+00 -7.452837253455015798e-01
-2.450522738695144653e+01 4.524865392595529556e+00 -7.485185886267515798e-01
-1.749009066820144653e+01 3.651330236345529556e+00 -5.885301853064390798e-01
-2.539145785570144653e+01 4.134362462908029556e+00 -7.494035983923765798e-01
-2.602085238695144653e+01 3.940026525408029556e+00 -7.532488132361265798e-01
-2.648459750413894653e+01 3.723229650408029556e+00 -7.532335544470640798e-01
-2.702109652757644653e+01 3.500451330095529556e+00 -7.543016696814390798e-01
-2.775071078538894653e+01 3.276330236345529556e+00 -7.587877536658140798e-01
-1.661887484788894653e+01 3.878136876970529556e+00 -5.118089939001890798e-01
-2.505466586351394653e+01 4.584679845720529556e+00 -6.520830417517515798e-01
-1.748252230882644653e+01 3.653283361345529556e+00 -5.148149753455015798e-01
-2.608530551195144653e+01 4.195031408220529556e+00 -6.510301853064390798e-01
-2.670981723070144653e+01 3.993615392595529556e+00 -6.517168308142515798e-01
-2.731601840257644653e+01 3.778771642595529556e+00 -6.516405368689390798e-01
-2.787046176195144653e+01 3.548791173845529556e+00 -6.502977634314390798e-01
-2.843540316820144653e+01 3.309411291033029556e+00 -6.487413669470640798e-01
-1.663205844163894653e+01 3.882287267595529556e+00 -4.419237399939390798e-01
-2.560202914476394653e+01 4.644494298845529556e+00 -5.499712253455015798e-01
-1.747495394945144653e+01 3.655358556658029556e+00 -4.407793308142515798e-01
-2.677597934007644653e+01 4.255822423845529556e+00 -5.456224704626890798e-01
-2.736411410570144653e+01 4.044884923845529556e+00 -5.428301120642515798e-01
-2.797971469163894653e+01 3.824303869158029556e+00 -5.399004245642515798e-01
-1.918393832445144653e+01 3.103234533220529556e+00 -4.349657321814390798e-01
-1.965317660570144653e+01 2.946496251970529556e+00 -4.331651950720640798e-01
-1.652048617601394653e+01 3.872277501970529556e+00 -3.712450290564390798e-01
-1.691233187913894653e+01 3.761193517595529556e+00 -3.687425876501890798e-01
-1.732444125413894653e+01 3.644250158220529556e+00 -3.661028171423765798e-01
-1.771628695726394653e+01 3.517052892595529556e+00 -3.630052829626890798e-01
-1.811191684007644653e+01 3.383141759783029556e+00 -3.596636081580015798e-01
-1.853208285570144653e+01 3.243005041033029556e+00 -3.561998630408140798e-01
-1.900962191820144653e+01 3.097131017595529556e+00 -3.527666355017515798e-01
-1.951218539476394653e+01 2.943688634783029556e+00 -3.491350437048765798e-01
-1.650290805101394653e+01 3.872887853533029556e+00 -3.015886569861265798e-01
-1.692783480882644653e+01 3.765343908220529556e+00 -2.974535251501890798e-01
-1.737595492601394653e+01 3.651696447283029556e+00 -2.934557224158140798e-01
-1.779880648851394653e+01 3.526574376970529556e+00 -2.886797214392515798e-01
-1.823532992601394653e+01 3.394860509783029556e+00 -2.836443210486265798e-01
-1.867197543382644653e+01 3.254601720720529556e+00 -2.782884860876890798e-01
-1.911057406663894653e+01 3.105431798845529556e+00 -2.721849704626890798e-01
-1.957090121507644653e+01 2.949303869158029556e+00 -2.662187839392515798e-01
-1.651706820726394653e+01 3.877038244158029556e+00 -2.324510837439390798e-01
-1.690342074632644653e+01 3.765465978533029556e+00 -2.264391208533140798e-01
-1.730967074632644653e+01 3.648278478533029556e+00 -2.201372409705015798e-01
-1.769846469163894653e+01 3.521081212908029556e+00 -2.135454440955015798e-01
-1.808896762132644653e+01 3.387170080095529556e+00 -2.066942478064390798e-01
-1.853452426195144653e+01 3.248986486345529556e+00 -1.994158054236265798e-01
-1.902707797288894653e+01 3.104089025408029556e+00 -1.916643405798765798e-01
-1.954624301195144653e+01 2.951379064470529556e+00 -1.834856296423765798e-01
-1.647409945726394653e+01 3.874718908220529556e+00 -1.631304050330015798e-01
-1.691074496507644653e+01 3.768883947283029556e+00 -1.554857517126890798e-01
-1.737375766038894653e+01 3.656945470720529556e+00 -1.470171237830015798e-01
-1.780991488695144653e+01 3.533166173845529556e+00 -1.383653903845640798e-01
-1.826059848070144653e+01 3.402428869158029556e+00 -1.293321872595640798e-01
-3.091941195726394653e+01 4.026208166033029556e+00 -3.192007788456407980e-02
-3.178928500413894653e+01 3.777184728533029556e+00 -1.458609350956407980e-02
-3.273240023851394653e+01 3.515465978533029556e+00 4.670498287310920205e-03
-1.664341098070144653e+01 3.896325353533029556e+00 -9.245169409550157980e-02
-2.876340609788894653e+01 4.990075353533029556e+00 3.881966820918592020e-02
-2.948996859788894653e+01 4.783532384783029556e+00 5.650460473262342020e-02
-3.026133090257644653e+01 4.565636876970529556e+00 7.524239770137342020e-02
-3.103574496507644653e+01 4.333947423845529556e+00 9.451424828731092020e-02
-3.187095004320144653e+01 4.091027501970529556e+00 1.150525783654359202e-01
-3.281284457445144653e+01 3.836388830095529556e+00 1.374982570763734202e-01
-3.379001742601394653e+01 3.566003087908029556e+00 1.610273098107484202e-01
-2.887717562913894653e+01 5.281823400408029556e+00 1.568311428185609202e-01
-2.958310824632644653e+01 5.079064611345529556e+00 1.765760158654359202e-01
-3.035849887132644653e+01 4.869103673845529556e+00 1.985486721154359202e-01
-3.115561801195144653e+01 4.644738439470529556e+00 2.214368557091859202e-01
-3.195102816820144653e+01 4.405724767595529556e+00 2.448285793419984202e-01
-3.289072543382644653e+01 4.160241369158029556e+00 2.711194728966859202e-01
