-1.194770431518554688e+01 5.470523860305547714e+00 -9.255876037292125602e-01
-1.513727951049804688e+01 6.303897883743047714e+00 -1.121693560760462560e+00
-1.529963302612304688e+01 6.199893977493047714e+00 -1.124485919158900060e+00
-1.540876388549804688e+01 6.078556086868047714e+00 -1.123845050018275060e+00
-1.169001388549804688e+01 4.938297297805547714e+00 -8.871812316589000602e-01
-1.561188888549804688e+01 5.827335383743047714e+00 -1.121754595916712560e+00
-1.486994552612304688e+01 6.675235774368047714e+00 -1.060872027557337560e+00
-1.166975021362304688e+01 5.500797297805547714e+00 -8.631333800964000602e-01
-1.524238204956054688e+01 6.490665461868047714e+00 -1.068531939666712560e+00
-1.542988204956054688e+01 6.393375422805547714e+00 -1.072178790252650060e+00
-1.554072189331054688e+01 6.271549250930547714e+00 -1.071263262908900060e+00
-1.565290451049804688e+01 6.148502375930547714e+00 -1.070347735565150060e+00
-1.169062423706054688e+01 4.940250422805547714e+00 -8.372697326354625602e-01
-1.564521408081054688e+01 5.838199641555547714e+00 -1.055165240447962560e+00
-1.205280685424804688e+01 5.744449641555547714e+00 -8.393144103698375602e-01
-1.169392013549804688e+01 5.510196711868047714e+00 -8.138627502135875602e-01
-1.189472579956054688e+01 5.457706477493047714e+00 -8.194169494323375602e-01
-1.567731857299804688e+01 6.469669368118047714e+00 -1.017079302947962560e+00
-1.579157638549804688e+01 6.346012141555547714e+00 -1.015873858612025060e+00
-1.591804122924804688e+01 6.224308039993047714e+00 -1.015263507049525060e+00
-1.169135665893554688e+01 4.942203547805547714e+00 -7.873429748229625602e-01
-1.561811447143554688e+01 5.833683039993047714e+00 -9.855241271667125602e-01
-1.185883712768554688e+01 5.681949641555547714e+00 -7.769517394714000602e-01
-1.171796798706054688e+01 5.519718196243047714e+00 -7.646378966979625602e-01
-1.578010177612304688e+01 6.661685969680547714e+00 -9.600877257995250602e-01
-1.497358322143554688e+01 6.261905696243047714e+00 -9.134568664245250602e-01
-1.567939376831054688e+01 6.316226985305547714e+00 -9.409074279479625602e-01
-1.565754318237304688e+01 6.154605891555547714e+00 -9.328202697448375602e-01
-1.169196701049804688e+01 4.944034602493047714e+00 -7.376908752135875602e-01
-1.559113693237304688e+01 5.829166438430547714e+00 -9.157762023620250602e-01
-1.188373947143554688e+01 5.691959407180547714e+00 -7.267198058776500602e-01
-1.174238204956054688e+01 5.529239680618047714e+00 -7.149247619323375602e-01
-1.616633224487304688e+01 6.783634211868047714e+00 -9.070329162292125602e-01
-1.494648361206054688e+01 6.256168391555547714e+00 -8.460893127135875602e-01
-1.563715744018554688e+01 6.306461360305547714e+00 -8.696946593932750602e-01
-1.613776779174804688e+01 6.290103938430547714e+00 -8.844804259948375602e-01
-1.169257736206054688e+01 4.945987727493047714e+00 -6.877793761901500602e-01
-1.556428146362304688e+01 5.824771907180547714e+00 -8.466538879089000602e-01
-1.190900802612304688e+01 5.702091243118047714e+00 -6.759843322448375602e-01
-1.176667404174804688e+01 5.538761164993047714e+00 -6.652421447448375602e-01
-1.610309982299804688e+01 6.766544368118047714e+00 -8.327683898620250602e-01
-1.668659591674804688e+01 6.778385188430547714e+00 -8.487901183776500602e-01
-1.560114669799804688e+01 6.298404719680547714e+00 -7.995042297057750602e-01
-1.557404708862304688e+01 6.136295344680547714e+00 -7.918748351745250602e-01
-1.169330978393554688e+01 4.947940852493047714e+00 -6.381272765807750602e-01
-1.553168869018554688e+01 5.818790461868047714e+00 -7.772263976745250602e-01
-1.193415451049804688e+01 5.712223079055547714e+00 -6.252793761901500602e-01
-1.179121017456054688e+01 5.548404719680547714e+00 -6.153459045104625602e-01
-1.457099533081054688e+01 6.294254329055547714e+00 -7.074326965026500602e-01
-1.566157150268554688e+01 6.474552180618047714e+00 -7.390183898620250602e-01
-1.503742599487304688e+01 6.138370539993047714e+00 -7.113236877135875602e-01
-1.553254318237304688e+01 6.127140071243047714e+00 -7.218217345885875602e-01
-1.169392013549804688e+01 4.949893977493047714e+00 -5.884751769714000602e-01
-1.549384689331054688e+01 5.811466243118047714e+00 -7.083024474792125602e-01
-1.195954513549804688e+01 5.722476985305547714e+00 -5.740708800964000602e-01
-1.181586837768554688e+01 5.558048274368047714e+00 -5.649461242370250602e-01
-1.566694259643554688e+01 6.636295344680547714e+00 -6.763963195495250602e-01
-1.594172286987304688e+01 6.560733821243047714e+00 -6.782426330260875602e-01
-1.557355880737304688e+01 6.295230891555547714e+00 -6.611070129089000602e-01
-1.550068283081054688e+01 6.120670344680547714e+00 -6.528214904479625602e-01
-1.169453048706054688e+01 4.951725032180547714e+00 -5.385484191589000602e-01
-1.727997970581054688e+01 6.271549250930547714e+00 -6.904344054870250602e-01
-1.194318771362304688e+01 5.718814875930547714e+00 -5.218095275573375602e-01
-1.184052658081054688e+01 5.567813899368047714e+00 -5.145921203307750602e-01
-1.444550704956054688e+01 6.259708430618047714e+00 -5.761155578307750602e-01
-1.389558029174804688e+01 5.950748469680547714e+00 -5.568284484557750602e-01
-1.555976486206054688e+01 6.293766047805547714e+00 -5.922898742370250602e-01
-1.512910079956054688e+01 6.019840266555547714e+00 -5.759477111510875602e-01
-1.169526290893554688e+01 4.953678157180547714e+00 -4.888963195495250602e-01
-1.542560958862304688e+01 5.798770930618047714e+00 -5.713548156432750602e-01
-1.242499923706054688e+01 5.880802180618047714e+00 -4.800614806823375602e-01
-1.186542892456054688e+01 5.577579524368047714e+00 -4.637345763854625602e-01
-1.459577560424804688e+01 6.308536555618047714e+00 -5.154008361510875602e-01
-1.390327072143554688e+01 5.955143000930547714e+00 -4.960221740417125602e-01
-1.388703536987304688e+01 5.813175227493047714e+00 -4.905747863464000602e-01
-1.544050216674804688e+01 6.108707454055547714e+00 -5.154618713073375602e-01
-1.169587326049804688e+01 4.955631282180547714e+00 -4.389695617370250602e-01
-1.640632247924804688e+01 6.052799250930547714e+00 -5.219773742370250602e-01
-1.449726486206054688e+01 6.571720149368047714e+00 -4.602097961120250602e-01
-1.453205490112304688e+01 6.436710383743047714e+00 -4.554948302917125602e-01
-1.390375900268554688e+01 6.095890071243047714e+00 -4.403581115417125602e-01
-1.390754318237304688e+01 5.958560969680547714e+00 -4.354142638854625602e-01
-1.389142990112304688e+01 5.816593196243047714e+00 -4.302262756042125602e-01
-1.507429122924804688e+01 6.009220149368047714e+00 -4.425096007995250602e-01
-1.169660568237304688e+01 4.957462336868047714e+00 -3.893174621276500602e-01
-1.535810470581054688e+01 5.786197688430547714e+00 -4.357499572448375602e-01
-1.016242599487304688e+01 5.131778743118047714e+00 -3.452500793151500602e-01
-1.037141036987304688e+01 5.100528743118047714e+00 -3.441819640807750602e-01
-1.058955001831054688e+01 5.068058039993047714e+00 -3.433122131042125602e-01
-1.081733322143554688e+01 5.034000422805547714e+00 -3.421525451354625602e-01
-1.105402755737304688e+01 4.998600032180547714e+00 -3.409471007995250602e-01
-1.130134201049804688e+01 4.961734797805547714e+00 -3.396958800964000602e-01
-1.156000900268554688e+01 4.922794368118047714e+00 -3.381089660339000602e-01
-1.182233810424804688e+01 4.880191829055547714e+00 -3.366441222839000602e-01
-1.007282638549804688e+01 5.103336360305547714e+00 -3.014878722839000602e-01
-1.027778244018554688e+01 5.071842219680547714e+00 -2.995500060729625602e-01
-1.049128341674804688e+01 5.039127375930547714e+00 -2.975358459167125602e-01
-1.071442794799804688e+01 5.004825618118047714e+00 -2.954301330260875602e-01
-1.094636154174804688e+01 4.969181086868047714e+00 -2.932328674010875602e-01
-1.118854904174804688e+01 4.931949641555547714e+00 -2.909440490417125602e-01
-1.145893478393554688e+01 4.897403743118047714e+00 -2.886247131042125602e-01
-1.174433517456054688e+01 4.861881282180547714e+00 -2.861985656432750602e-01
-1.006830978393554688e+01 5.103336360305547714e+00 -2.585496398620250602e-01
-1.028779220581054688e+01 5.076602961868047714e+00 -2.560014220885875602e-01
-1.051752853393554688e+01 5.048770930618047714e+00 -2.531022521667125602e-01
-1.075849533081054688e+01 5.019596125930547714e+00 -2.500657531432750602e-01
-1.100996017456054688e+01 4.989200618118047714e+00 -2.469071838073375602e-01
-1.127338790893554688e+01 4.957218196243047714e+00 -2.435807677917125602e-01
-1.155073165893554688e+01 4.923648860305547714e+00 -2.400865050964000602e-01
-1.176081466674804688e+01 4.867862727493047714e+00 -2.361955138854625602e-01
-1.013801193237304688e+01 5.127994563430547714e+00 -2.156724425964000602e-01
-1.036127853393554688e+01 5.101749446243047714e+00 -2.119340392760875602e-01
-1.058552169799804688e+01 5.071476008743047714e+00 -2.080430480651500602e-01
-1.080878829956054688e+01 5.036319758743047714e+00 -2.040299865417125602e-01
-1.104072189331054688e+01 4.999698664993047714e+00 -1.998643371276500602e-01
-1.128266525268554688e+01 4.961490657180547714e+00 -1.955003234557750602e-01
-1.153632736206054688e+01 4.921573664993047714e+00 -1.909379455260875602e-01
-1.176142501831054688e+01 4.869815852493047714e+00 -1.863908263854625602e-01
-1.009247970581054688e+01 5.114322688430547714e+00 -1.727799865417125602e-01
-1.029499435424804688e+01 5.081851985305547714e+00 -1.685075256042125602e-01
-1.050519943237304688e+01 5.048038508743047714e+00 -1.638078185729625602e-01
-1.072480392456054688e+01 5.012638118118047714e+00 -1.589250060729625602e-01
-1.095295333862304688e+01 4.975894954055547714e+00 -1.538285705260875602e-01
-1.119074630737304688e+01 4.937564875930547714e+00 -1.485337707214000602e-01
-1.144001388549804688e+01 4.897403743118047714e+00 -1.429795715026500602e-01
-1.173310470581054688e+01 4.864322688430547714e+00 -1.365861388854625602e-01
-1.002082443237304688e+01 5.091861750930547714e+00 -1.308946105651500602e-01
-1.024677658081054688e+01 5.067813899368047714e+00 -1.252488586120250602e-01
-1.048322677612304688e+01 5.042789485305547714e+00 -1.193589660339000602e-01
-1.073188400268554688e+01 5.016300227493047714e+00 -1.131486388854625602e-01
-1.099164962768554688e+01 4.988712336868047714e+00 -1.066636535339000602e-01
-1.126435470581054688e+01 4.959781672805547714e+00 -9.985823361202506021e-02
-1.155195236206054688e+01 4.929142024368047714e+00 -9.268660275265006021e-02
-1.183771896362304688e+01 4.893009211868047714e+00 -8.539290158077506021e-02
-1.010749435424804688e+01 5.122257258743047714e+00 -8.672041622921256021e-02
-1.033771896362304688e+01 5.098697688430547714e+00 -8.002180783077506021e-02
-1.057819747924804688e+01 5.073917414993047714e+00 -7.324690548702506021e-02
-1.083173751831054688e+01 5.047916438430547714e+00 -6.587691036983756021e-02
-1.392170333862304688e+01 5.840152766555547714e+00 -5.864092987025060211e-03
-1.545930099487304688e+01 6.132877375930547714e+00 2.674393923953743979e-02
-1.647797775268554688e+01 6.253726985305547714e+00 5.070023806766243979e-02
-1.641791915893554688e+01 6.075992610305547714e+00 5.390458377078743979e-02
-1.408637619018554688e+01 6.452213313430547714e+00 4.471879275516243979e-02
-1.398713302612304688e+01 6.278507258743047714e+00 4.578690798953743979e-02
-1.342341232299804688e+01 5.962955500930547714e+00 3.655534060672493979e-02
-1.414997482299804688e+01 6.048404719680547714e+00 5.671220095828743979e-02
-1.571113204956054688e+01 6.361515071243047714e+00 9.669022830203743979e-02
-1.556232833862304688e+01 6.164005305618047714e+00 9.717850955203743979e-02
-1.613471603393554688e+01 6.164005305618047714e+00 1.147871521301624398e-01
-1.639948654174804688e+01 6.073795344680547714e+00 1.256361511535999398e-01
-1.533295822143554688e+01 5.753360774368047714e+00 -1.171803424041712560e+00
-1.237202072143554688e+01 4.880680110305547714e+00 -9.706162902526500602e-01
-1.284418869018554688e+01 4.873600032180547714e+00 -9.957017394714000602e-01
-1.287604904174804688e+01 4.758487727493047714e+00 -9.919480773620250602e-01
-1.293415451049804688e+01 4.649112727493047714e+00 -9.898881408385875602e-01
-1.299262619018554688e+01 4.539249446243047714e+00 -9.878282043151500602e-01
-1.305158615112304688e+01 4.428287532180547714e+00 -9.857377502135875602e-01
-1.310480880737304688e+01 4.316104914993047714e+00 -9.835710021667125602e-01
-1.561201095581054688e+01 5.826847102493047714e+00 -1.121739337127650060e+00
-1.237080001831054688e+01 4.882267024368047714e+00 -9.178819152526500602e-01
-1.559870529174804688e+01 5.519962336868047714e+00 -1.106465289276087560e+00
-1.573127365112304688e+01 5.398258235305547714e+00 -1.107350299041712560e+00
-1.577045822143554688e+01 5.255191829055547714e+00 -1.102635333221400060e+00
-1.433979415893554688e+01 4.814151789993047714e+00 -1.011570880096400060e+00
-1.446076583862304688e+01 4.701114680618047714e+00 -1.012608477752650060e+00
-1.459321212768554688e+01 4.588809993118047714e+00 -1.013935992401087560e+00
-1.564472579956054688e+01 5.837589289993047714e+00 -1.055119464080775060e+00
-1.236957931518554688e+01 4.883853938430547714e+00 -8.648881408385875602e-01
-1.613911056518554688e+01 5.648868586868047714e+00 -1.068715045135462560e+00
-1.625629806518554688e+01 5.518131282180547714e+00 -1.068028399627650060e+00
-1.637446212768554688e+01 5.386295344680547714e+00 -1.067326495330775060e+00
-1.634846115112304688e+01 5.223575618118047714e+00 -1.058766314666712560e+00
-1.658393478393554688e+01 5.111759211868047714e+00 -1.064244219940150060e+00
-1.724494552612304688e+01 5.073795344680547714e+00 -1.092152545135462560e+00
-1.561774826049804688e+01 5.833072688430547714e+00 -9.854783507995250602e-01
-1.236994552612304688e+01 4.885807063430547714e+00 -8.119859191589000602e-01
-1.701472091674804688e+01 5.856388118118047714e+00 -1.042500445526087560e+00
-1.729914474487304688e+01 5.753849055618047714e+00 -1.049397418182337560e+00
-1.759150314331054688e+01 5.648380305618047714e+00 -1.056508013885462560e+00
-1.640388107299804688e+01 5.237247493118047714e+00 -9.903306457214000602e-01
-1.663520431518554688e+01 5.124210383743047714e+00 -9.946183654479625602e-01
-1.688471603393554688e+01 5.010807063430547714e+00 -1.000035235565150060e+00
-1.559077072143554688e+01 5.828556086868047714e+00 -9.157304259948375602e-01
-1.237018966674804688e+01 4.887760188430547714e+00 -7.593736144714000602e-01
-1.712238693237304688e+01 5.884342219680547714e+00 -9.730576965026500602e-01
-1.711359786987304688e+01 5.715030696243047714e+00 -9.653825256042125602e-01
-1.688459396362304688e+01 5.500186946243047714e+00 -9.478349181823375602e-01
-1.692646408081054688e+01 5.345890071243047714e+00 -9.426164123229625602e-01
-1.668647384643554688e+01 5.136661555618047714e+00 -9.249162170104625602e-01
-1.784479904174804688e+01 5.188541438430547714e+00 -9.686936828307750602e-01
-1.556391525268554688e+01 5.824161555618047714e+00 -8.466233703307750602e-01
-1.237043380737304688e+01 4.889713313430547714e+00 -7.064713927917125602e-01
-1.734663009643554688e+01 5.939518000930547714e+00 -9.070176574401500602e-01
-1.712519454956054688e+01 5.720279719680547714e+00 -8.907670470885875602e-01
-1.760834884643554688e+01 5.657535579055547714e+00 -9.032487365417125602e-01
-1.823554611206054688e+01 5.614688899368047714e+00 -9.210710021667125602e-01
-1.789692306518554688e+01 5.372623469680547714e+00 -9.001817199401500602e-01
-1.688557052612304688e+01 5.016178157180547714e+00 -8.537339660339000602e-01
-1.553144454956054688e+01 5.818180110305547714e+00 -7.771958800964000602e-01
-1.237067794799804688e+01 4.891544368118047714e+00 -6.538590881042125602e-01
-1.717756271362304688e+01 5.902530696243047714e+00 -8.248948547057750602e-01
-1.714533615112304688e+01 5.727481868118047714e+00 -8.167619201354625602e-01
-1.679767990112304688e+01 5.486881282180547714e+00 -7.974442931823375602e-01
-1.684663009643554688e+01 5.335025813430547714e+00 -7.924546691589000602e-01
-1.794855880737304688e+01 5.385440852493047714e+00 -8.241471740417125602e-01
-1.687141036987304688e+01 5.016300227493047714e+00 -7.798966857604625602e-01
-1.549372482299804688e+01 5.810977961868047714e+00 -7.082719299010875602e-01
-1.237104415893554688e+01 4.893497493118047714e+00 -6.012467834167125602e-01
-1.718928146362304688e+01 5.908023860305547714e+00 -7.497300597839000602e-01
-1.676179122924804688e+01 5.644107844680547714e+00 -7.294816466979625602e-01
-1.675446701049804688e+01 5.480289485305547714e+00 -7.226914855651500602e-01
-1.664472579956054688e+01 5.296573664993047714e+00 -7.127885314635875602e-01
-1.684028244018554688e+01 5.174137141555547714e+00 -7.125901672057750602e-01
-1.685737228393554688e+01 5.016300227493047714e+00 -7.065782043151500602e-01
-1.727985763549804688e+01 6.270938899368047714e+00 -6.904038879089000602e-01
-1.237128829956054688e+01 4.895450618118047714e+00 -5.483598205260875602e-01
-1.820942306518554688e+01 6.150455500930547714e+00 -7.022447082214000602e-01
-1.753010177612304688e+01 5.819156672805547714e+00 -6.770219299010875602e-01
-1.816205978393554688e+01 5.784244563430547714e+00 -6.869248840026500602e-01
-1.676691818237304688e+01 5.324039485305547714e+00 -6.438188049010875602e-01
-1.680060958862304688e+01 5.169132258743047714e+00 -6.382951232604625602e-01
-1.656635665893554688e+01 4.965763118118047714e+00 -6.260728332214000602e-01
-1.542548751831054688e+01 5.798160579055547714e+00 -5.713395568542125602e-01
-1.237153244018554688e+01 4.897403743118047714e+00 -4.957627746276500602e-01
-1.733796310424804688e+01 5.948307063430547714e+00 -6.027116271667125602e-01
-1.666852951049804688e+01 5.628360774368047714e+00 -5.814256164245250602e-01
-1.669514083862304688e+01 5.472721125930547714e+00 -5.757798644714000602e-01
-1.804719161987304688e+01 5.587589289993047714e+00 -5.983018371276500602e-01
-1.657697677612304688e+01 5.128482844680547714e+00 -5.609330627135875602e-01
-1.649018478393554688e+01 4.954288508743047714e+00 -5.530595275573375602e-01
-1.640742111206054688e+01 6.052433039993047714e+00 -5.219773742370250602e-01
-1.237177658081054688e+01 4.899356868118047714e+00 -4.428758117370250602e-01
-1.677070236206054688e+01 5.817447688430547714e+00 -5.163773986510875602e-01
-1.662202072143554688e+01 5.620426204055547714e+00 -5.076646300964000602e-01
-1.657258224487304688e+01 5.449039485305547714e+00 -5.007981750182750602e-01
-1.675056076049804688e+01 5.325870539993047714e+00 -4.977464172057750602e-01
-1.652936935424804688e+01 5.121768977493047714e+00 -4.881333800964000602e-01
-1.774360275268554688e+01 5.186710383743047714e+00 -5.013474914245250602e-01
-1.535786056518554688e+01 5.785587336868047714e+00 -4.357194396667125602e-01
-1.237214279174804688e+01 4.901187922805547714e+00 -3.902787658385875602e-01
-1.671747970581054688e+01 5.807559993118047714e+00 -4.424943420104625602e-01
-1.665742111206054688e+01 5.631046321243047714e+00 -4.357804748229625602e-01
-1.659833908081054688e+01 5.457218196243047714e+00 -4.291734191589000602e-01
-1.653998947143554688e+01 5.285465266555547714e+00 -4.226426574401500602e-01
-1.355341720581054688e+01 4.547428157180547714e+00 -3.825425597839000602e-01
-1.386945724487304688e+01 4.478458430618047714e+00 -3.813981506042125602e-01
-1.182331466674804688e+01 4.880069758743047714e+00 -3.366441222839000602e-01
-1.205231857299804688e+01 4.824405696243047714e+00 -3.346299621276500602e-01
-1.230170822143554688e+01 4.769107844680547714e+00 -3.329209777526500602e-01
-1.256196212768554688e+01 4.711124446243047714e+00 -3.308457824401500602e-01
-1.283259201049804688e+01 4.650943782180547714e+00 -3.286790343932750602e-01
-1.311518478393554688e+01 4.587955500930547714e+00 -3.264054748229625602e-01
-1.341083908081054688e+01 4.521915461868047714e+00 -3.237351867370250602e-01
-1.371979904174804688e+01 4.453067805618047714e+00 -3.212480041198375602e-01
-1.174628829956054688e+01 4.862003352493047714e+00 -2.861985656432750602e-01
-1.199323654174804688e+01 4.811588313430547714e+00 -2.833146545104625602e-01
-1.225886154174804688e+01 4.760807063430547714e+00 -2.803544494323375602e-01
-1.253742599487304688e+01 4.707462336868047714e+00 -2.772263976745250602e-01
-1.282819747924804688e+01 4.651920344680547714e+00 -2.739762756042125602e-01
-1.313300704956054688e+01 4.593570735305547714e+00 -2.705583068542125602e-01
-1.345380783081054688e+01 4.532291438430547714e+00 -2.669572326354625602e-01
-1.378974533081054688e+01 4.467960383743047714e+00 -2.632035705260875602e-01
-1.176057052612304688e+01 4.867496516555547714e+00 -2.361802550964000602e-01
-1.208015060424804688e+01 4.834781672805547714e+00 -2.324571105651500602e-01
-1.234980392456054688e+01 4.784122493118047714e+00 -2.283067199401500602e-01
-1.262165451049804688e+01 4.728458430618047714e+00 -2.239732238464000602e-01
-1.289081954956054688e+01 4.667301204055547714e+00 -2.194718810729625602e-01
-1.317170333862304688e+01 4.603580500930547714e+00 -2.147874328307750602e-01
-1.346613693237304688e+01 4.536685969680547714e+00 -2.098741027526500602e-01
-1.377228927612304688e+01 4.466861750930547714e+00 -2.044419738464000602e-01
-1.176130294799804688e+01 4.869449641555547714e+00 -1.863755675964000602e-01
-1.202216720581054688e+01 4.822330500930547714e+00 -1.812943908385875602e-01
-1.226581954956054688e+01 4.766178157180547714e+00 -1.761674377135875602e-01
-1.252045822143554688e+01 4.707462336868047714e+00 -1.707963439635875602e-01
-1.278498458862304688e+01 4.646427180618047714e+00 -1.652116271667125602e-01
-1.306086349487304688e+01 4.582828547805547714e+00 -1.593980285339000602e-01
-1.337214279174804688e+01 4.520450618118047714e+00 -1.531419250182750602e-01
-1.371552658081054688e+01 4.458560969680547714e+00 -1.464585754089000602e-01
-1.173505783081054688e+01 4.864444758743047714e+00 -1.365556213073375602e-01
-1.199140548706054688e+01 4.816593196243047714e+00 -1.306809875182750602e-01
-1.226618576049804688e+01 4.768131282180547714e+00 -1.241960021667125602e-01
-1.255488204956054688e+01 4.717105891555547714e+00 -1.173753234557750602e-01
-1.285676193237304688e+01 4.663883235305547714e+00 -1.102494689635875602e-01
-1.317377853393554688e+01 4.607975032180547714e+00 -1.027574035339000602e-01
-1.350812911987304688e+01 4.549015071243047714e+00 -9.485335079952506021e-02
-1.619196701049804688e+01 4.917301204055547714e+00 -5.769819943233756021e-02
-1.183893966674804688e+01 4.892887141555547714e+00 -8.536238400265006021e-02
-1.209992599487304688e+01 4.845157649368047714e+00 -7.802290646358756021e-02
-1.682490158081054688e+01 5.848453547805547714e+00 -2.201983612025060211e-03
-1.634601974487304688e+01 5.576114680618047714e+00 -4.658648651087560211e-03
-1.605390548706054688e+01 5.355289485305547714e+00 -4.490801971400060211e-03
-1.592011642456054688e+01 5.173648860305547714e+00 -1.942584197962560211e-03
-1.582600021362304688e+01 5.002628352493047714e+00 1.170208770787439789e-03
-1.611335372924804688e+01 4.905338313430547714e+00 1.063065798953743979e-02
-1.641743087768554688e+01 6.075382258743047714e+00 5.391984255984993979e-02
-1.238801193237304688e+01 4.918155696243047714e+00 -2.078718869015006021e-02
-1.639789962768554688e+01 5.749942805618047714e+00 6.264786990359993979e-02
-1.700519943237304688e+01 5.727726008743047714e+00 7.970719607547493979e-02
-1.615742111206054688e+01 5.380069758743047714e+00 6.710343630984993979e-02
-1.598005294799804688e+01 5.188419368118047714e+00 6.798844607547493979e-02
-1.586103439331054688e+01 5.012027766555547714e+00 7.036881716922493979e-02
-1.604706954956054688e+01 4.895572688430547714e+00 7.885270388797493979e-02
-1.639924240112304688e+01 6.073184993118047714e+00 1.256361511535999398e-01
-1.633881759643554688e+01 5.897647883743047714e+00 1.283827331848499398e-01
-1.680329513549804688e+01 5.848575618118047714e+00 1.444197204895374398e-01
-1.621955490112304688e+01 5.552555110305547714e+00 1.345015075989124398e-01
-1.607380294799804688e+01 5.364444758743047714e+00 1.352949646301624398e-01
-1.600202560424804688e+01 5.195377375930547714e+00 1.378736999817249398e-01
-1.589619064331054688e+01 5.021305110305547714e+00 1.395216492004749398e-01
-2.364350509643554688e+01 6.302555110305547714e+00 3.475752380676624398e-01
-1.310505294799804688e+01 4.315738704055547714e+00 -9.835710021667125602e-01
-1.316315841674804688e+01 4.203678157180547714e+00 -9.814500304870250602e-01
-1.323139572143554688e+01 4.092472102493047714e+00 -9.802293273620250602e-01
-1.331391525268554688e+01 3.981876399368047714e+00 -9.798020812682750602e-01
-1.339692306518554688e+01 3.870548274368047714e+00 -9.793748351745250602e-01
-1.348102951049804688e+01 3.757999446243047714e+00 -9.789323302917125602e-01
-1.356623458862304688e+01 3.643741633743047714e+00 -9.784898254089000602e-01
-1.364484786987304688e+01 3.527896907180547714e+00 -9.779252502135875602e-01
-1.459406661987304688e+01 4.588443782180547714e+00 -1.013966509979212560e+00
-1.446357345581054688e+01 4.428775813430547714e+00 -1.000477740447962560e+00
-1.485273361206054688e+01 4.356021907180547714e+00 -1.016346881072962560e+00
-1.549763107299804688e+01 4.313907649368047714e+00 -1.046635577362025060e+00
-1.541938400268554688e+01 4.157535579055547714e+00 -1.035893389862025060e+00
-1.534223556518554688e+01 4.003482844680547714e+00 -1.025303790252650060e+00
-1.526716232299804688e+01 3.851017024368047714e+00 -1.015232989471400060e+00
-1.534736251831054688e+01 3.718204524368047714e+00 -1.013417193572962560e+00
-1.723530197143554688e+01 5.071476008743047714e+00 -1.091618487518275060e+00
-1.446455001831054688e+01 4.431217219680547714e+00 -9.385728332214000602e-01
-1.739240646362304688e+01 4.768497493118047714e+00 -1.085682818572962560e+00
-1.696174240112304688e+01 4.537662532180547714e+00 -1.056233355682337560e+00
-1.695551681518554688e+01 4.376651789993047714e+00 -1.049015948455775060e+00
-1.694929122924804688e+01 4.216251399368047714e+00 -1.041813800018275060e+00
-1.694306564331054688e+01 4.055851008743047714e+00 -1.034626910369837560e+00
-1.748432540893554688e+01 3.957096125930547714e+00 -1.054875323455775060e+00
-1.688642501831054688e+01 5.010562922805547714e+00 -1.000096270721400060e+00
-1.446552658081054688e+01 4.433658625930547714e+00 -8.766831847839000602e-01
-1.694038009643554688e+01 4.698184993118047714e+00 -9.886521789245250602e-01
-1.693415451049804688e+01 4.536197688430547714e+00 -9.815263244323375602e-01
-1.692805099487304688e+01 4.375431086868047714e+00 -9.744615050964000602e-01
-1.692194747924804688e+01 4.215274836868047714e+00 -9.674119445495250602e-01
-1.691572189331054688e+01 4.055240657180547714e+00 -9.603776427917125602e-01
-1.919416427612304688e+01 4.149478938430547714e+00 -1.057560870330775060e+00
-1.784052658081054688e+01 5.187198664993047714e+00 -9.684953185729625602e-01
-1.446662521362304688e+01 4.435977961868047714e+00 -8.151139709167125602e-01
-1.892853927612304688e+01 5.022525813430547714e+00 -1.000966021697962560e+00
-1.783613204956054688e+01 4.675601985305547714e+00 -9.469804259948375602e-01
-1.690082931518554688e+01 4.374210383743047714e+00 -9.005784484557750602e-01
-1.689472579956054688e+01 4.214420344680547714e+00 -8.936814757995250602e-01
-2.092536544799804688e+01 4.543521907180547714e+00 -1.053181597869837560e+00
-2.190937423706054688e+01 4.454044368118047714e+00 -1.085041949432337560e+00
-1.688520431518554688e+01 5.015567805618047714e+00 -8.537034484557750602e-01
-1.446760177612304688e+01 4.438419368118047714e+00 -7.532090636901500602e-01
-1.615888595581054688e+01 4.576847102493047714e+00 -8.123368713073375602e-01
-1.997468185424804688e+01 5.002994563430547714e+00 -9.504136535339000602e-01
-1.687092208862304688e+01 4.372745539993047714e+00 -8.264512511901500602e-01
-1.686762619018554688e+01 4.213443782180547714e+00 -8.198136779479625602e-01
-2.190925216674804688e+01 4.666202571243047714e+00 -9.977006408385875602e-01
-2.213862228393554688e+01 4.482975032180547714e+00 -9.979447814635875602e-01
-1.687104415893554688e+01 5.015689875930547714e+00 -7.798661681823375602e-01
-1.446857833862304688e+01 4.440860774368047714e+00 -6.916398498229625602e-01
-1.641328048706054688e+01 4.620548274368047714e+00 -7.515153381042125602e-01
-2.079743576049804688e+01 5.131168391555547714e+00 -8.907517882995250602e-01
-2.136017990112304688e+01 5.011783625930547714e+00 -9.011582824401500602e-01
-1.642170333862304688e+01 4.157413508743047714e+00 -7.330369445495250602e-01
-2.222578048706054688e+01 4.708194758743047714e+00 -9.123124572448375602e-01
-2.252668380737304688e+01 4.529850032180547714e+00 -9.132585021667125602e-01
-1.685700607299804688e+01 5.015689875930547714e+00 -7.065476867370250602e-01
-1.446967697143554688e+01 4.443180110305547714e+00 -6.300553771667125602e-01
-1.678754806518554688e+01 4.683902766555547714e+00 -6.914262267760875602e-01
-1.677741622924804688e+01 4.523014094680547714e+00 -6.848039123229625602e-01
-1.678571701049804688e+01 4.365909602493047714e+00 -6.787461730651500602e-01
-1.646491622924804688e+01 4.165714289993047714e+00 -6.635789367370250602e-01
-2.280622482299804688e+01 4.782291438430547714e+00 -8.312272521667125602e-01
-2.310468673706054688e+01 4.597965266555547714e+00 -8.306169006042125602e-01
-1.656586837768554688e+01 4.965030696243047714e+00 -6.260423156432750602e-01
-1.447065353393554688e+01 4.445621516555547714e+00 -5.681504699401500602e-01
-1.742744064331054688e+01 4.790470149368047714e+00 -6.346940490417125602e-01
-1.643854904174804688e+01 4.474063899368047714e+00 -6.045884582214000602e-01
-1.670356369018554688e+01 4.356876399368047714e+00 -6.047563049010875602e-01
-1.676350021362304688e+01 4.207706477493047714e+00 -6.000108215026500602e-01
-1.640034103393554688e+01 4.005680110305547714e+00 -5.856065246276500602e-01
-2.368293380737304688e+01 4.666202571243047714e+00 -7.421159240417125602e-01
-1.648847579956054688e+01 4.953434016555547714e+00 -5.530137511901500602e-01
-1.447163009643554688e+01 4.448062922805547714e+00 -5.065659972839000602e-01
-1.675971603393554688e+01 4.684635188430547714e+00 -5.463304015807750602e-01
-1.622309494018554688e+01 4.443790461868047714e+00 -5.298814269714000602e-01
-2.167292404174804688e+01 5.066471125930547714e+00 -6.268662902526500602e-01
-1.662629318237304688e+01 4.192203547805547714e+00 -5.256394836120250602e-01
-1.645319747924804688e+01 4.014713313430547714e+00 -5.165147277526500602e-01
-1.634528732299804688e+01 3.849063899368047714e+00 -5.087022277526500602e-01
-1.774262619018554688e+01 5.185977961868047714e+00 -5.013017150573375602e-01
-1.447272872924804688e+01 4.450504329055547714e+00 -4.446458312682750602e-01
-1.788776779174804688e+01 4.870914485305547714e+00 -4.907121154479625602e-01
-1.667658615112304688e+01 4.515445735305547714e+00 -4.666032287292125602e-01
-1.643525314331054688e+01 4.323917414993047714e+00 -4.572343322448375602e-01
-1.655256271362304688e+01 4.185123469680547714e+00 -4.530381652526500602e-01
-1.650666427612304688e+01 4.023868586868047714e+00 -4.465531799010875602e-01
-1.635834884643554688e+01 3.853092219680547714e+00 -4.388169738464000602e-01
-1.387165451049804688e+01 4.478336360305547714e+00 -3.814134093932750602e-01
-1.420295333862304688e+01 4.405948664993047714e+00 -3.801621886901500602e-01
-1.455109786987304688e+01 4.329898860305547714e+00 -3.788346740417125602e-01
-1.484663009643554688e+01 4.238468196243047714e+00 -3.767289611510875602e-01
-1.517194747924804688e+01 4.146305110305547714e+00 -3.747148009948375602e-01
-1.551215744018554688e+01 4.049869563430547714e+00 -3.726090881042125602e-01
-1.586945724487304688e+01 3.948551204055547714e+00 -3.703965636901500602e-01
-1.624274826049804688e+01 3.842716243118047714e+00 -3.680924865417125602e-01
-1.372187423706054688e+01 4.453067805618047714e+00 -3.212480041198375602e-01
-1.404560470581054688e+01 4.380802180618047714e+00 -3.185471984557750602e-01
-1.439069747924804688e+01 4.305851008743047714e+00 -3.160600158385875602e-01
-1.472663497924804688e+01 4.222476985305547714e+00 -3.129472228698375602e-01
-1.507355880737304688e+01 4.134586360305547714e+00 -3.096665832214000602e-01
-1.543757247924804688e+01 4.042423274368047714e+00 -3.062333556823375602e-01
-1.582233810424804688e+01 3.945255305618047714e+00 -3.022508117370250602e-01
-1.622492599487304688e+01 3.843204524368047714e+00 -2.984361144714000602e-01
-1.379194259643554688e+01 4.467960383743047714e+00 -2.631883117370250602e-01
-1.414594650268554688e+01 4.400455500930547714e+00 -2.590836974792125602e-01
-1.451923751831054688e+01 4.329166438430547714e+00 -2.547502013854625602e-01
-1.484382247924804688e+01 4.242740657180547714e+00 -2.501115295104625602e-01
-1.518146896362304688e+01 4.152408625930547714e+00 -2.452592345885875602e-01
-1.551777267456054688e+01 4.055484797805547714e+00 -2.401933166198375602e-01
-1.587080001831054688e+01 3.953678157180547714e+00 -2.348679992370250602e-01
-1.623933029174804688e+01 3.847476985305547714e+00 -2.293138000182750602e-01
-1.377436447143554688e+01 4.466861750930547714e+00 -2.044267150573375602e-01
-1.409614181518554688e+01 4.393863704055547714e+00 -1.991776916198375602e-01
-1.443305587768554688e+01 4.317325618118047714e+00 -1.933488341979625602e-01
-1.473579025268554688e+01 4.228458430618047714e+00 -1.874131652526500602e-01
-1.505183029174804688e+01 4.136173274368047714e+00 -1.812333556823375602e-01
-1.538776779174804688e+01 4.040592219680547714e+00 -1.747636291198375602e-01
-1.578156661987304688e+01 3.945133235305547714e+00 -1.677445861510875602e-01
-1.619611740112304688e+01 3.845157649368047714e+00 -1.600083800964000602e-01
-1.371784591674804688e+01 4.458560969680547714e+00 -1.464280578307750602e-01
-1.408039474487304688e+01 4.393375422805547714e+00 -1.391648742370250602e-01
-1.446357345581054688e+01 4.324527766555547714e+00 -1.314744445495250602e-01
-1.480390548706054688e+01 4.241153743118047714e+00 -1.238755675964000602e-01
-1.516621017456054688e+01 4.154850032180547714e+00 -1.158952209167125602e-01
-1.554719161987304688e+01 4.064151789993047714e+00 -1.074876281432750602e-01
-2.561152267456054688e+01 5.156681086868047714e+00 -5.207965057337560211e-03
-1.636945724487304688e+01 3.867252375930547714e+00 -8.929915158077506021e-02
-1.619221115112304688e+01 4.916812922805547714e+00 -5.768294064327506021e-02
-2.168195724487304688e+01 5.718814875930547714e+00 1.609330447391243979e-02
-2.208710861206054688e+01 5.575870539993047714e+00 2.837662966922493979e-02
-2.295820236206054688e+01 5.496158625930547714e+00 4.711442263797493979e-02
-1.654169845581054688e+01 4.354557063430547714e+00 -3.268904415890006021e-02
-2.724738693237304688e+01 5.626285579055547714e+00 1.217451599426624398e-01
-1.689155197143554688e+01 4.086856868118047714e+00 -1.723189083858756021e-02
-2.859748458862304688e+01 5.252506282180547714e+00 1.598768738098499398e-01
-1.611359786987304688e+01 4.904850032180547714e+00 1.064591677859993979e-02
-2.559003829956054688e+01 6.403385188430547714e+00 1.790113952942249398e-01
-2.164594650268554688e+01 5.507022883743047714e+00 1.179304626770374398e-01
-2.371393966674804688e+01 5.616031672805547714e+00 1.618757751770374398e-01
-2.367426681518554688e+01 5.381534602493047714e+00 1.686964538879749398e-01
-1.668037033081054688e+01 4.220279719680547714e+00 4.625993045047493979e-02
-1.643647384643554688e+01 4.033390071243047714e+00 4.680924685672493979e-02
-1.661591720581054688e+01 3.900211360305547714e+00 5.532365115359993979e-02
-1.604682540893554688e+01 4.894962336868047714e+00 7.885270388797493979e-02
-2.415693283081054688e+01 6.157413508743047714e+00 2.614241150207874398e-01
-2.166511154174804688e+01 5.513614680618047714e+00 2.130995300598499398e-01
-2.372211837768554688e+01 5.621036555618047714e+00 2.662306335754749398e-01
-2.369672775268554688e+01 5.388492610305547714e+00 2.730360534973499398e-01
-1.669880294799804688e+01 4.225406672805547714e+00 1.180677917785999398e-01
-2.949811935424804688e+01 5.648990657180547714e+00 4.249678161926624398e-01
-3.017280197143554688e+01 5.440494563430547714e+00 4.502821472473499398e-01
-2.364387130737304688e+01 6.301822688430547714e+00 3.476210144348499398e-01
-2.427705001831054688e+01 6.182315852493047714e+00 3.711500671692249398e-01
-2.207807540893554688e+01 5.584903743118047714e+00 3.195143249817249398e-01
-2.375727462768554688e+01 5.630313899368047714e+00 3.719435242004749398e-01
-2.373737716674804688e+01 5.398136164993047714e+00 3.786421325989124398e-01
-1.671747970581054688e+01 4.230533625930547714e+00 1.904402283020374398e-01
-3.023359298706054688e+01 5.744815852493047714e+00 5.760450867004749398e-01
-3.099116134643554688e+01 5.538272883743047714e+00 6.076155212707874398e-01
-1.364545822143554688e+01 3.527530696243047714e+00 -9.779557677917125602e-01
-1.373054122924804688e+01 3.411075618118047714e+00 -9.774674865417125602e-01
-1.380915451049804688e+01 3.292423274368047714e+00 -9.768571349792125602e-01
-1.388898849487304688e+01 3.172061946243047714e+00 -9.762467834167125602e-01
-1.398579025268554688e+01 3.051944758743047714e+00 -9.765824767760875602e-01
-1.406330490112304688e+01 2.928897883743047714e+00 -9.757279845885875602e-01
-1.413312911987304688e+01 2.803653743118047714e+00 -9.743546935729625602e-01
-1.420844650268554688e+01 2.677921321243047714e+00 -9.735917541198375602e-01
-1.534797286987304688e+01 3.717716243118047714e+00 -1.013432452362025060e+00
-1.541840744018554688e+01 3.582706477493047714e+00 -1.011418292205775060e+00
-1.549897384643554688e+01 3.447330500930547714e+00 -1.009556719940150060e+00
-1.557099533081054688e+01 3.309268977493047714e+00 -1.007496783416712560e+00
-1.564326095581054688e+01 3.170597102493047714e+00 -1.005421588104212560e+00
-1.571625900268554688e+01 3.030826594680547714e+00 -1.003346392791712560e+00
-1.577997970581054688e+01 2.888736750930547714e+00 -1.001072833221400060e+00
-1.587836837768554688e+01 2.747501399368047714e+00 -1.000203082244837560e+00
-1.747700119018554688e+01 3.955753352493047714e+00 -1.054478594940150060e+00
-1.722517013549804688e+01 3.766788508743047714e+00 -1.035328814666712560e+00
-1.738264083862304688e+01 3.620304133743047714e+00 -1.036534259002650060e+00
-1.754340744018554688e+01 3.470523860305547714e+00 -1.037770220916712560e+00
-1.770673751831054688e+01 3.318546321243047714e+00 -1.039021441619837560e+00
-1.787311935424804688e+01 3.163639094680547714e+00 -1.040287921112025060e+00
-1.822211837768554688e+01 3.014347102493047714e+00 -1.050114581268275060e+00
-1.827839279174804688e+01 2.847110774368047714e+00 -1.045872637908900060e+00
-2.067341232299804688e+01 4.312809016555547714e+00 -1.124745318572962560e+00
-2.191132736206054688e+01 4.241764094680547714e+00 -1.172078082244837560e+00
-2.214069747924804688e+01 4.054752375930547714e+00 -1.173924395721400060e+00
-2.237568283081054688e+01 3.863101985305547714e+00 -1.175816485565150060e+00
-2.227497482299804688e+01 3.643985774368047714e+00 -1.162861773651087560e+00
-2.217316818237304688e+01 3.427310969680547714e+00 -1.149952838104212560e+00
-2.207221603393554688e+01 3.212223079055547714e+00 -1.137135455291712560e+00
-2.197126388549804688e+01 3.000186946243047714e+00 -1.124958941619837560e+00
-2.191083908081054688e+01 4.453434016555547714e+00 -1.085072467010462560e+00
-2.214045333862304688e+01 4.268375422805547714e+00 -1.086018511932337560e+00
-2.237470626831054688e+01 4.079532649368047714e+00 -1.086979815643275060e+00
-2.261481857299804688e+01 3.885929133743047714e+00 -1.087971636932337560e+00
-2.255219650268554688e+01 3.667301204055547714e+00 -1.076939532440150060e+00
-2.244746017456054688e+01 3.447574641555547714e+00 -1.064351031463587560e+00
-2.407551193237304688e+01 3.317447688430547714e+00 -1.118351885955775060e+00
-2.437470626831054688e+01 3.101871516555547714e+00 -1.120610186737025060e+00
-2.214008712768554688e+01 4.482486750930547714e+00 -9.979752990417125602e-01
-2.237580490112304688e+01 4.295841243118047714e+00 -9.975480529479625602e-01
-2.261530685424804688e+01 4.105045344680547714e+00 -9.975938293151500602e-01
-2.286420822143554688e+01 3.909854914993047714e+00 -9.977616759948375602e-01
-2.348774337768554688e+01 3.737369563430547714e+00 -1.010716387908900060e+00
-2.418037033081054688e+01 3.556827571243047714e+00 -1.025563189666712560e+00
-2.456794357299804688e+01 3.346500422805547714e+00 -1.029545733612025060e+00
-2.468879318237304688e+01 3.118717219680547714e+00 -1.024922320526087560e+00
-2.252875900268554688e+01 4.529361750930547714e+00 -9.132890197448375602e-01
-2.283637619018554688e+01 4.346012141555547714e+00 -9.144486877135875602e-01
-2.313142013549804688e+01 4.155826594680547714e+00 -9.149980041198375602e-01
-2.368757247924804688e+01 3.980411555618047714e+00 -9.232224914245250602e-01
-2.428461837768554688e+01 3.797794368118047714e+00 -9.322862121276500602e-01
-2.476264572143554688e+01 3.596378352493047714e+00 -9.373673888854625602e-01
-2.488752365112304688e+01 3.366886164993047714e+00 -9.317368957214000602e-01
-2.544269943237304688e+01 3.153751399368047714e+00 -9.384660216979625602e-01
-2.310676193237304688e+01 4.597354914993047714e+00 -8.306474181823375602e-01
-2.340302658081054688e+01 4.407169368118047714e+00 -8.299302550964000602e-01
-1.722248458862304688e+01 3.619449641555547714e+00 -6.591844054870250602e-01
-2.450910568237304688e+01 4.051090266555547714e+00 -8.405045959167125602e-01
-2.503950119018554688e+01 3.855655696243047714e+00 -8.448686095885875602e-01
-2.545490646362304688e+01 3.642887141555547714e+00 -8.459672424010875602e-01
-2.588154220581054688e+01 3.421939875930547714e+00 -8.476151916198375602e-01
-2.633283615112304688e+01 3.194767024368047714e+00 -8.489732238464000602e-01
-2.368500900268554688e+01 4.665714289993047714e+00 -7.421311828307750602e-01
-2.423005294799804688e+01 4.495059993118047714e+00 -7.453660461120250602e-01
-1.721491622924804688e+01 3.621524836868047714e+00 -5.853776427917125602e-01
-2.511628341674804688e+01 4.104557063430547714e+00 -7.462510558776500602e-01
-2.574567794799804688e+01 3.910221125930547714e+00 -7.500962707214000602e-01
-2.620942306518554688e+01 3.693424250930547714e+00 -7.500810119323375602e-01
-2.674592208862304688e+01 3.470645930618047714e+00 -7.511491271667125602e-01
-2.747553634643554688e+01 3.246524836868047714e+00 -7.556352111510875602e-01
-1.634370040893554688e+01 3.848331477493047714e+00 -5.086564513854625602e-01
-2.477949142456054688e+01 4.554874446243047714e+00 -6.489304992370250602e-01
-1.720734786987304688e+01 3.623477961868047714e+00 -5.116624328307750602e-01
-2.581013107299804688e+01 4.165226008743047714e+00 -6.478776427917125602e-01
-2.643464279174804688e+01 3.963809993118047714e+00 -6.485642882995250602e-01
-2.704084396362304688e+01 3.748966243118047714e+00 -6.484879943542125602e-01
-2.759528732299804688e+01 3.518985774368047714e+00 -6.471452209167125602e-01
-2.816022872924804688e+01 3.279605891555547714e+00 -6.455888244323375602e-01
-1.635688400268554688e+01 3.852481868118047714e+00 -4.387711974792125602e-01
-2.532685470581054688e+01 4.614688899368047714e+00 -5.468186828307750602e-01
-1.719977951049804688e+01 3.625553157180547714e+00 -4.376267882995250602e-01
-2.650080490112304688e+01 4.226017024368047714e+00 -5.424699279479625602e-01
-2.708893966674804688e+01 4.015079524368047714e+00 -5.396775695495250602e-01
-2.770454025268554688e+01 3.794498469680547714e+00 -5.367478820495250602e-01
-1.890876388549804688e+01 3.073429133743047714e+00 -4.318131896667125602e-01
-1.937800216674804688e+01 2.916690852493047714e+00 -4.300126525573375602e-01
-1.624531173706054688e+01 3.842472102493047714e+00 -3.680924865417125602e-01
-1.663715744018554688e+01 3.731388118118047714e+00 -3.655900451354625602e-01
-1.704926681518554688e+01 3.614444758743047714e+00 -3.629502746276500602e-01
-1.744111251831054688e+01 3.487247493118047714e+00 -3.598527404479625602e-01
-1.783674240112304688e+01 3.353336360305547714e+00 -3.565110656432750602e-01
-1.825690841674804688e+01 3.213199641555547714e+00 -3.530473205260875602e-01
-1.873444747924804688e+01 3.067325618118047714e+00 -3.496140929870250602e-01
-1.923701095581054688e+01 2.913883235305547714e+00 -3.459825011901500602e-01
-1.622773361206054688e+01 3.843082454055547714e+00 -2.984361144714000602e-01
-1.665266036987304688e+01 3.735538508743047714e+00 -2.943009826354625602e-01
-1.710078048706054688e+01 3.621891047805547714e+00 -2.903031799010875602e-01
-1.752363204956054688e+01 3.496768977493047714e+00 -2.855271789245250602e-01
-1.796015548706054688e+01 3.365055110305547714e+00 -2.804917785339000602e-01
-1.839680099487304688e+01 3.224796321243047714e+00 -2.751359435729625602e-01
-1.883539962768554688e+01 3.075626399368047714e+00 -2.690324279479625602e-01
-1.929572677612304688e+01 2.919498469680547714e+00 -2.630662414245250602e-01
-1.624189376831054688e+01 3.847232844680547714e+00 -2.292985412292125602e-01
-1.662824630737304688e+01 3.735660579055547714e+00 -2.232865783385875602e-01
-1.703449630737304688e+01 3.618473079055547714e+00 -2.169846984557750602e-01
-1.742329025268554688e+01 3.491275813430547714e+00 -2.103929015807750602e-01
-1.781379318237304688e+01 3.357364680618047714e+00 -2.035417052917125602e-01
-1.825934982299804688e+01 3.219181086868047714e+00 -1.962632629089000602e-01
-1.875190353393554688e+01 3.074283625930547714e+00 -1.885117980651500602e-01
-1.927106857299804688e+01 2.921573664993047714e+00 -1.803330871276500602e-01
-1.619892501831054688e+01 3.844913508743047714e+00 -1.599778625182750602e-01
-1.663557052612304688e+01 3.739078547805547714e+00 -1.523332091979625602e-01
-1.709858322143554688e+01 3.627140071243047714e+00 -1.438645812682750602e-01
-1.753474044799804688e+01 3.503360774368047714e+00 -1.352128478698375602e-01
-1.798542404174804688e+01 3.372623469680547714e+00 -1.261796447448375602e-01
-3.064423751831054688e+01 3.996402766555547714e+00 -2.876753536983756021e-02
-3.151411056518554688e+01 3.747379329055547714e+00 -1.143355099483756021e-02
-3.245722579956054688e+01 3.485660579055547714e+00 7.823040802037439789e-03
-1.636823654174804688e+01 3.866519954055547714e+00 -8.929915158077506021e-02
-2.848823165893554688e+01 4.960269954055547714e+00 4.197221072391243979e-02
-2.921479415893554688e+01 4.753726985305547714e+00 5.965714724734993979e-02
-2.998615646362304688e+01 4.535831477493047714e+00 7.839494021609993979e-02
-3.076057052612304688e+01 4.304142024368047714e+00 9.766679080203743979e-02
-3.159577560424804688e+01 4.061222102493047714e+00 1.182051208801624398e-01
-3.253767013549804688e+01 3.806583430618047714e+00 1.406507995910999398e-01
-3.351484298706054688e+01 3.536197688430547714e+00 1.641798523254749398e-01
-2.860200119018554688e+01 5.252018000930547714e+00 1.599836853332874398e-01
-2.930793380737304688e+01 5.049259211868047714e+00 1.797285583801624398e-01
-3.008332443237304688e+01 4.839298274368047714e+00 2.017012146301624398e-01
-3.088044357299804688e+01 4.614933039993047714e+00 2.245893982239124398e-01
-3.167585372924804688e+01 4.375919368118047714e+00 2.479811218567249398e-01
-3.261555099487304688e+01 4.130435969680547714e+00 2.742720154114124398e-01
-3.359882736206054688e+01 3.867984797805547714e+00 3.019972351379749398e-01
-3.454267501831054688e+01 3.585758235305547714e+00 3.305159118957874398e-01
-1.661750411987304688e+01 3.899967219680547714e+00 5.538468630984993979e-02
-3.011762619018554688e+01 5.137638118118047714e+00 3.255262878723499398e-01
-3.097394943237304688e+01 4.927188899368047714e+00 3.528852966614124398e-01
-3.176215744018554688e+01 4.693180110305547714e+00 3.794813659973499398e-01
-3.263520431518554688e+01 4.451236750930547714e+00 4.083509949035999398e-01
-3.353876876831054688e+01 4.194156672805547714e+00 4.384565857239124398e-01
-3.459614181518554688e+01 3.926456477493047714e+00 4.725142029114124398e-01
-3.559980392456054688e+01 3.637027766555547714e+00 5.060987976379749398e-01
-3.017756271362304688e+01 5.440006282180547714e+00 4.504347351379749398e-01
-3.098542404174804688e+01 5.232242610305547714e+00 4.802046325989124398e-01
-3.181464767456054688e+01 5.010562922805547714e+00 5.103102234192249398e-01
-3.221100997924804688e+01 4.735782649368047714e+00 5.309553650207874398e-01
-3.349567794799804688e+01 4.519596125930547714e+00 5.742750671692249398e-01
-3.453547286987304688e+01 4.262638118118047714e+00 6.122084167785999398e-01
-3.553632736206054688e+01 3.982242610305547714e+00 6.507216003723499398e-01
-3.662299728393554688e+01 3.687198664993047714e+00 6.913252380676624398e-01
-3.099677658081054688e+01 5.537906672805547714e+00 6.077986267395374398e-01
-3.177558517456054688e+01 5.319034602493047714e+00 6.399031189270374398e-01
