-1.538822874426841736e+01 5.642779702320694923e+00 -1.110930925142014303e+00
-1.531339964270591736e+01 5.478106850758194923e+00 -1.099257951509201803e+00
-1.489689573645591736e+01 6.388507241383194923e+00 -1.057189470063889303e+00
-1.518632444739341736e+01 6.330279702320694923e+00 -1.067702775727951803e+00
-1.529228147864341736e+01 6.212725991383194923e+00 -1.067046647798264303e+00
-1.141728147864341736e+01 4.968585366383194923e+00 -8.316340501420143028e-01
-1.539396604895591736e+01 5.942828530445694923e+00 -1.059066301118576803e+00
-1.535807737708091736e+01 5.785113686695694923e+00 -1.050048356782639303e+00
-1.532255491614341736e+01 5.628619546070694923e+00 -1.041091447602951803e+00
-1.587028440833091736e+01 5.613971108570694923e+00 -1.065459733735764303e+00
-1.531425413489341736e+01 6.522174233570694923e+00 -1.015975480806076803e+00
-1.542338499426841736e+01 6.404620522633194923e+00 -1.014770036470139303e+00
-1.543595823645591736e+01 6.257159585133194923e+00 -1.008559709321701803e+00
-1.141789183020591736e+01 4.970416421070694923e+00 -7.840876634232643028e-01
-1.593131956458091736e+01 6.091266030445694923e+00 -1.021453386079514303e+00
-1.533195433020591736e+01 5.780597085133194923e+00 -9.825587327592018028e-01
-1.529655393958091736e+01 5.624347085133194923e+00 -9.739832933060768028e-01
-1.671977171301841736e+01 5.820269936695694923e+00 -1.042037492524826803e+00
-1.547502073645591736e+01 6.575152749195694923e+00 -9.573512132279518028e-01
-1.541618284583091736e+01 6.404742592945694923e+00 -9.476161058060768028e-01
-1.539506468176841736e+01 6.247393960133194923e+00 -9.398646409623268028e-01
-1.141850218176841736e+01 4.972247475758194923e+00 -7.368159349076393028e-01
-1.534135374426841736e+01 5.933062905445694923e+00 -9.239649827592018028e-01
-1.530595335364341736e+01 5.775958413258194923e+00 -9.156947190873268028e-01
-1.526249632239341736e+01 5.617999428883194923e+00 -9.070887620560768028e-01
-1.683854612708091736e+01 5.851275796070694923e+00 -9.755091722123268028e-01
-1.546122679114341736e+01 6.573077553883194923e+00 -8.894953782670143028e-01
-1.471427854895591736e+01 6.193072671070694923e+00 -8.485713060013893028e-01
-1.630497679114341736e+01 6.517047280445694923e+00 -9.140620286576393028e-01
-1.141923460364341736e+01 4.973956460133194923e+00 -6.892695481888893028e-01
-1.610441526770591736e+01 6.143023842945694923e+00 -8.914637620560768028e-01
-1.527995237708091736e+01 5.771441811695694923e+00 -8.487391526810768028e-01
-1.718119749426841736e+01 6.101764077320694923e+00 -9.245753343217018028e-01
-1.687724241614341736e+01 5.863116616383194923e+00 -9.048304612748268028e-01
-1.544731077551841736e+01 6.571002358570694923e+00 -8.214259202592018028e-01
-1.641068968176841736e+01 6.712359780445694923e+00 -8.543086106888893028e-01
-1.531376585364341736e+01 6.227984780445694923e+00 -8.033442552201393028e-01
-1.141984495520591736e+01 4.975787514820694923e+00 -6.419978196732643028e-01
-1.594413694739341736e+01 6.101764077320694923e+00 -8.157038743607643028e-01
-1.691203245520591736e+01 6.200885171070694923e+00 -8.469233567826393028e-01
-1.212235960364341736e+01 4.834063882008194923e+00 -6.557154710404518028e-01
-1.689445433020591736e+01 5.869708413258194923e+00 -8.325800950638893028e-01
-1.445829710364341736e+01 6.260821694508194923e+00 -7.183833177201393028e-01
-1.567289671301841736e+01 6.489703530445694923e+00 -7.563014085404518028e-01
-1.546855100989341736e+01 6.275836342945694923e+00 -7.424311692826393028e-01
-1.142045530676841736e+01 4.977618569508194923e+00 -5.944514329545143028e-01
-1.630876097083091736e+01 6.203448647633194923e+00 -7.592768724076393028e-01
-1.638627561926841736e+01 6.065753335133194923e+00 -7.555079515092018028e-01
-1.211796507239341736e+01 4.834674233570694923e+00 -6.053462083451393028e-01
-1.690592893958091736e+01 5.874957436695694923e+00 -7.603755052201393028e-01
-1.439799436926841736e+01 6.243853921070694923e+00 -6.538386399857643028e-01
-1.569169554114341736e+01 6.497760171070694923e+00 -6.885676438920143028e-01
-1.498832640051841736e+01 6.136676186695694923e+00 -6.609034593217018028e-01
-1.142106565833091736e+01 4.979327553883194923e+00 -5.471644456498268028e-01
-1.519340452551841736e+01 5.901690835133194923e+00 -6.555781419388893028e-01
-1.699088987708091736e+01 6.226519936695694923e+00 -7.027278001420143028e-01
-1.211357054114341736e+01 4.835284585133194923e+00 -5.547328050248268028e-01
-1.715006956458091736e+01 5.936236733570694923e+00 -6.943354661576393028e-01
-1.535893186926841736e+01 6.549762124195694923e+00 -6.175379808060768028e-01
-1.571025022864341736e+01 6.505694741383194923e+00 -6.210322435013893028e-01
-1.474980100989341736e+01 6.068683022633194923e+00 -5.902552659623268028e-01
-1.142167600989341736e+01 4.981158608570694923e+00 -4.998927171342018028e-01
-1.640483030676841736e+01 6.234576577320694923e+00 -6.208949143998268028e-01
-1.515141233801841736e+01 5.746661538258194923e+00 -5.838770921342018028e-01
-1.210929808020591736e+01 4.835894936695694923e+00 -5.044550950638893028e-01
-1.621879515051841736e+01 5.714434975758194923e+00 -5.983271653763893028e-01
-1.427921995520591736e+01 6.210406655445694923e+00 -5.269160325638893028e-01
-1.361442503333091736e+01 5.867755288258194923e+00 -5.074610765092018028e-01
-1.589421018958091736e+01 6.407916421070694923e+00 -5.507502610795143028e-01
-1.142228636145591736e+01 4.982867592945694923e+00 -4.523463304154518028e-01
-1.512394651770591736e+01 5.887164467945694923e+00 -5.236353929154518028e-01
-1.693766722083091736e+01 6.217608803883194923e+00 -5.544123704545143028e-01
-1.210490354895591736e+01 4.836505288258194923e+00 -4.539485032670143028e-01
-1.649442991614341736e+01 5.783282632008194923e+00 -5.338435227982643028e-01
-1.422087034583091736e+01 6.194049233570694923e+00 -4.644923265092018028e-01
-1.361857542395591736e+01 5.871051186695694923e+00 -4.494624192826393028e-01
-1.360307249426841736e+01 5.734942788258194923e+00 -4.445185716263893028e-01
-1.142289671301841736e+01 4.984698647633194923e+00 -4.050593431107643028e-01
-1.565263304114341736e+01 6.033892983570694923e+00 -4.671168382279518028e-01
-1.508610472083091736e+01 5.733966225758194923e+00 -4.531245286576393028e-01
-1.210209593176841736e+01 4.837603921070694923e+00 -4.037776048295143028e-01
-1.650053343176841736e+01 5.787188882008194923e+00 -4.632716233842018028e-01
-1.052397093176841736e+01 5.025225991383194923e+00 -3.576197679154518028e-01
-1.074101194739341736e+01 4.992999428883194923e+00 -3.568110520951393028e-01
-1.096794065833091736e+01 4.959674233570694923e+00 -3.562159593217018028e-01
-1.120524534583091736e+01 4.924517983570694923e+00 -3.553309495560768028e-01
-1.145243772864341736e+01 4.887896889820694923e+00 -3.544306810013893028e-01
-1.166886839270591736e+01 4.838458413258194923e+00 -3.530268724076393028e-01
-1.189738401770591736e+01 4.787677163258194923e+00 -3.513331468217018028e-01
-1.213481077551841736e+01 4.735186928883194923e+00 -3.498683030717018028e-01
-1.043058714270591736e+01 4.997149819508194923e+00 -3.135523851029518028e-01
-1.064335569739341736e+01 4.964679116383194923e+00 -3.118281419388893028e-01
-1.086527952551841736e+01 4.930865639820694923e+00 -3.100276048295143028e-01
-1.109770140051841736e+01 4.895465249195694923e+00 -3.081507737748268028e-01
-1.133964475989341736e+01 4.858600014820694923e+00 -3.061976487748268028e-01
-1.156730589270591736e+01 4.813433999195694923e+00 -3.040003831498268028e-01
-1.179203733801841736e+01 4.762774819508194923e+00 -3.016505296342018028e-01
-1.202482542395591736e+01 4.710406655445694923e+00 -2.991938645951393028e-01
-1.038774046301841736e+01 4.984942788258194923e+00 -2.702937181107643028e-01
-1.061405882239341736e+01 4.957110757008194923e+00 -2.679438645951393028e-01
-1.085111936926841736e+01 4.928180092945694923e+00 -2.652583177201393028e-01
-1.110038694739341736e+01 4.897784585133194923e+00 -2.624201829545143028e-01
-1.136088499426841736e+01 4.866046303883194923e+00 -2.594752366654518028e-01
-1.160246214270591736e+01 4.824298257008194923e+00 -2.563319261185768028e-01
-1.184611448645591736e+01 4.778155678883194923e+00 -2.530512864701393028e-01
-1.209989866614341736e+01 4.730304116383194923e+00 -2.493586595170143028e-01
-1.046000608801841736e+01 5.009356850758194923e+00 -2.274317796342018028e-01
-1.069023069739341736e+01 4.982013100758194923e+00 -2.238612229935768028e-01
-1.093119749426841736e+01 4.953326577320694923e+00 -2.201075608842018028e-01
-1.118449339270591736e+01 4.923297280445694923e+00 -2.161707933060768028e-01
-1.143229612708091736e+01 4.887164467945694923e+00 -2.121272142045143028e-01
-1.164738401770591736e+01 4.837725991383194923e+00 -2.080378587357643028e-01
-1.187199339270591736e+01 4.786334389820694923e+00 -2.037959153763893028e-01
-1.210465940833091736e+01 4.733111733570694923e+00 -1.994013841263893028e-01
-1.044682249426841736e+01 5.006549233570694923e+00 -1.842494065873268028e-01
-1.065666136145591736e+01 4.973101967945694923e+00 -1.800684983842018028e-01
-1.087480100989341736e+01 4.938189858570694923e+00 -1.754908616654518028e-01
-1.110307249426841736e+01 4.901690835133194923e+00 -1.706843431107643028e-01
-1.134049925208091736e+01 4.863604897633194923e+00 -1.656947190873268028e-01
-1.156462034583091736e+01 4.817584389820694923e+00 -1.606745774857643028e-01
-1.178568968176841736e+01 4.766192788258194923e+00 -1.555628831498268028e-01
-1.201408323645591736e+01 4.712970132008194923e+00 -1.500086839310768028e-01
-1.037150511145591736e+01 4.984088296070694923e+00 -1.421504075638893028e-01
-1.057755979895591736e+01 4.950396889820694923e+00 -1.369319017045143028e-01
-1.081278929114341736e+01 4.921466225758194923e+00 -1.312403733842018028e-01
-1.106999143958091736e+01 4.893756264820694923e+00 -1.251215989701393028e-01
-1.133915647864341736e+01 4.864947671070694923e+00 -1.187129075638893028e-01
-1.159147581458091736e+01 4.826373452320694923e+00 -1.123957688920143028e-01
-1.184306272864341736e+01 4.782428139820694923e+00 -1.059413011185768028e-01
-1.210514768958091736e+01 4.736773842945694923e+00 -9.921217514201430276e-02
-1.042533811926841736e+01 5.002642983570694923e+00 -9.841871811076430276e-02
-1.066288694739341736e+01 4.978106850758194923e+00 -9.178114486857680276e-02
-1.091142210364341736e+01 4.952105874195694923e+00 -8.506727768107680276e-02
-1.117387327551841736e+01 4.925006264820694923e+00 -7.772780014201430276e-02
-1.144877561926841736e+01 4.896563882008194923e+00 -7.003737045451430276e-02
-1.612345823645591736e+01 6.023028725758194923e+00 1.712083267048569724e-02
-1.209440550208091736e+01 4.847735757008194923e+00 -5.221510482951430276e-02
-1.612992796301841736e+01 5.714434975758194923e+00 2.598618911579819724e-02
-1.382658323645591736e+01 6.085162514820694923e+00 1.753281997517319724e-02
-1.390483030676841736e+01 5.974566811695694923e+00 2.238511489704819724e-02
-1.363627561926841736e+01 5.760455483570694923e+00 1.995896743611069724e-02
-1.507182249426841736e+01 6.038409585133194923e+00 5.526780532673569724e-02
-1.521940550208091736e+01 5.933307046070694923e+00 6.234788345173569724e-02
-1.613627561926841736e+01 6.028766030445694923e+00 8.702134536579819724e-02
-1.209330686926841736e+01 4.849200600758194923e+00 -2.212053071701802764e-03
-1.653385862708091736e+01 5.814898842945694923e+00 1.046757643111106972e-01
-1.282060179114341736e+01 4.878253335133194923e+00 -9.991602952592018028e-01
-1.278178343176841736e+01 4.750445717945694923e+00 -9.907984788529518028e-01
-1.283415159583091736e+01 4.643756264820694923e+00 -9.887690599076393028e-01
-1.288700804114341736e+01 4.536212319508194923e+00 -9.867091233842018028e-01
-1.293998655676841736e+01 4.428424233570694923e+00 -9.846491868607643028e-01
-1.299320921301841736e+01 4.320147866383194923e+00 -9.825739915482643028e-01
-1.305607542395591736e+01 4.212481850758194923e+00 -9.810633714310768028e-01
-1.313102659583091736e+01 4.106402749195694923e+00 -9.805903489701393028e-01
-1.531303343176841736e+01 5.477496499195694923e+00 -1.099212175142014303e+00
-1.546379026770591736e+01 5.366900796070694923e+00 -1.101851945649826803e+00
-1.550224241614341736e+01 5.229205483570694923e+00 -1.097213273774826803e+00
-1.420170530676841736e+01 4.811847085133194923e+00 -1.012221818696701803e+00
-1.431913694739341736e+01 4.703204507008194923e+00 -1.013244157563889303e+00
-1.443827757239341736e+01 4.593097085133194923e+00 -1.014297014009201803e+00
-1.418559202551841736e+01 4.414508217945694923e+00 -9.936823899857643028e-01
-1.540055784583091736e+01 4.487384194508194923e+00 -1.058715348970139303e+00
-1.587089475989341736e+01 5.613604897633194923e+00 -1.065474992524826803e+00
-1.597965940833091736e+01 5.487506264820694923e+00 -1.064895158540451803e+00
-1.608976683020591736e+01 5.360064858570694923e+00 -1.064330583345139303e+00
-1.606205686926841736e+01 5.201739663258194923e+00 -1.055999284517014303e+00
-1.628031858801841736e+01 5.093707436695694923e+00 -1.061309343110764303e+00
-1.651750120520591736e+01 4.985431069508194923e+00 -1.067473893892014303e+00
-1.418656858801841736e+01 4.416827553883194923e+00 -9.342951829545143028e-01
-1.791923460364341736e+01 4.910601967945694923e+00 -1.129027848970139303e+00
-1.672148069739341736e+01 5.820147866383194923e+00 -1.042113786470139303e+00
-1.699198850989341736e+01 5.722247475758194923e+00 -1.048766618501389303e+00
-1.664713987708091736e+01 5.484576577320694923e+00 -1.024016862642014303e+00
-1.611527952551841736e+01 5.215167397633194923e+00 -9.900660569779518028e-01
-1.632926878333091736e+01 5.105914467945694923e+00 -9.942622239701393028e-01
-1.803275999426841736e+01 5.272662514820694923e+00 -1.072661882173264303e+00
-1.418754515051841736e+01 4.419146889820694923e+00 -8.749079759232643028e-01
-1.709281858801841736e+01 4.775103921070694923e+00 -1.012130265962326803e+00
-1.683842405676841736e+01 5.850665444508194923e+00 -9.754786546342018028e-01
-1.662724241614341736e+01 5.640948647633194923e+00 -9.586787278763893028e-01
-1.660502561926841736e+01 5.477740639820694923e+00 -9.508967454545143028e-01
-1.793852171301841736e+01 5.598224038258194923e+00 -1.005721574556076803e+00
-1.795158323645591736e+01 5.430133217945694923e+00 -9.990382249467018028e-01
-1.764836058020591736e+01 5.203082436695694923e+00 -9.780726487748268028e-01
-1.418839964270591736e+01 4.421344155445694923e+00 -8.158412034623268028e-01
-1.588090452551841736e+01 4.574664467945694923e+00 -8.854365403763893028e-01
-1.687712034583091736e+01 5.862506264820694923e+00 -9.047999436967018028e-01
-1.684355100989341736e+01 5.693194741383194923e+00 -8.962550218217018028e-01
-1.702165159583091736e+01 5.571734780445694923e+00 -8.970179612748268028e-01
-1.660783323645591736e+01 5.322955483570694923e+00 -8.731074388138893028e-01
-1.644706663489341736e+01 5.134112710133194923e+00 -8.599696214310768028e-01
-1.673405393958091736e+01 5.033648842945694923e+00 -8.651728685013893028e-01
-1.418937620520591736e+01 4.423663491383194923e+00 -7.564387376420143028e-01
-1.693595823645591736e+01 4.753863686695694923e+00 -8.605189378373268028e-01
-1.689408811926841736e+01 5.869098061695694923e+00 -8.325495774857643028e-01
-1.685893186926841736e+01 5.699176186695694923e+00 -8.246302659623268028e-01
-1.652116331458091736e+01 5.464312905445694923e+00 -8.055110032670143028e-01
-1.656962522864341736e+01 5.317340249195694923e+00 -8.008875901810768028e-01
-1.653349241614341736e+01 5.153766030445694923e+00 -7.932124192826393028e-01
-1.659721311926841736e+01 5.010333413258194923e+00 -7.891688401810768028e-01
-1.419035276770591736e+01 4.425860757008194923e+00 -6.973719651810768028e-01
-1.617680296301841736e+01 4.629107827320694923e+00 -7.617487962357643028e-01
-1.690544065833091736e+01 5.874347085133194923e+00 -7.603449876420143028e-01
-1.689469847083091736e+01 5.709918374195694923e+00 -7.535395677201393028e-01
-1.647953733801841736e+01 5.457721108570694923e+00 -7.332453782670143028e-01
-1.632865843176841736e+01 5.269488686695694923e+00 -7.221827561967018028e-01
-1.656327757239341736e+01 5.162188882008194923e+00 -7.234644944779518028e-01
-1.634928831458091736e+01 4.966143960133194923e+00 -7.105860765092018028e-01
-1.419132933020591736e+01 4.428180092945694923e+00 -6.382899339310768028e-01
-1.709855589270591736e+01 4.786334389820694923e+00 -7.215876634232643028e-01
-1.715080198645591736e+01 5.935870522633194923e+00 -6.943354661576393028e-01
-1.724601683020591736e+01 5.793414467945694923e+00 -6.906275804154518028e-01
-1.643839964270591736e+01 5.451007241383194923e+00 -6.617732102982643028e-01
-1.649211058020591736e+01 5.306109780445694923e+00 -6.571650560013893028e-01
-1.652531370520591736e+01 5.157061928883194923e+00 -6.520075852982643028e-01
-1.630314573645591736e+01 4.959796303883194923e+00 -6.400599534623268028e-01
-1.419230589270591736e+01 4.430377358570694923e+00 -5.788874681107643028e-01
-1.651005491614341736e+01 4.689898842945694923e+00 -6.335444505326393028e-01
-1.621818479895591736e+01 5.713702553883194923e+00 -5.982813890092018028e-01
-1.639713987708091736e+01 5.600299233570694923e+00 -5.966181810013893028e-01
-1.642802366614341736e+01 5.451251382008194923e+00 -5.913996751420143028e-01
-1.701567015051841736e+01 5.418292397633194923e+00 -5.988154466263893028e-01
-1.631352171301841736e+01 5.117389077320694923e+00 -5.770411546342018028e-01
-1.685905393958091736e+01 5.067218178883194923e+00 -5.831751878373268028e-01
-1.419328245520591736e+01 4.432696694508194923e+00 -5.198054368607643028e-01
-1.648942503333091736e+01 4.688922280445694923e+00 -5.633540208451393028e-01
-1.649552854895591736e+01 5.783038491383194923e+00 -5.338435227982643028e-01
-1.635185179114341736e+01 5.592364663258194923e+00 -5.253138597123268028e-01
-1.625749143958091736e+01 5.416095132008194923e+00 -5.178217942826393028e-01
-1.632365354895591736e+01 5.275714272633194923e+00 -5.132899339310768028e-01
-1.626737913489341736e+01 5.110553139820694923e+00 -5.066065843217018028e-01
-1.617240843176841736e+01 4.940020913258194923e+00 -4.993128831498268028e-01
-1.419425901770591736e+01 4.434893960133194923e+00 -4.604029710404518028e-01
-1.728031858801841736e+01 4.824664467945694923e+00 -5.063471849076393028e-01
-1.650163206458091736e+01 5.786944741383194923e+00 -4.632716233842018028e-01
-1.630717405676841736e+01 5.584430092945694923e+00 -4.548335130326393028e-01
-1.634538206458091736e+01 5.437823647633194923e+00 -4.497675950638893028e-01
-1.627763304114341736e+01 5.268390053883194923e+00 -4.432520921342018028e-01
-1.622160276770591736e+01 5.103839272633194923e+00 -4.369807298295143028e-01
-1.705839475989341736e+01 5.110064858570694923e+00 -4.419856126420143028e-01
-1.419523558020591736e+01 4.437213296070694923e+00 -4.013209397904518028e-01
-1.738066038489341736e+01 4.844195717945694923e+00 -4.342188890092018028e-01
-1.213627561926841736e+01 4.735186928883194923e+00 -3.498683030717018028e-01
-1.238346800208091736e+01 4.680499428883194923e+00 -3.482356126420143028e-01
-1.264189085364341736e+01 4.623614663258194923e+00 -3.468165452592018028e-01
-1.291203245520591736e+01 4.563922280445694923e+00 -3.450465257279518028e-01
-1.319352659583091736e+01 4.501544350758194923e+00 -3.432002122513893028e-01
-1.348783811926841736e+01 4.436480874195694923e+00 -3.412623460404518028e-01
-1.379643186926841736e+01 4.367877358570694923e+00 -3.389124925248268028e-01
-1.411967405676841736e+01 4.296344155445694923e+00 -3.367915208451393028e-01
-1.202641233801841736e+01 4.710406655445694923e+00 -2.991938645951393028e-01
-1.227653440833091736e+01 4.657550210133194923e+00 -2.965540940873268028e-01
-1.254948362708091736e+01 4.605059975758194923e+00 -2.938532884232643028e-01
-1.283659300208091736e+01 4.549884194508194923e+00 -2.910151536576393028e-01
-1.313664183020591736e+01 4.492144936695694923e+00 -2.880549485795143028e-01
-1.345170530676841736e+01 4.431598061695694923e+00 -2.849268968217018028e-01
-1.378398069739341736e+01 4.367633217945694923e+00 -2.816462571732643028e-01
-1.413261350989341736e+01 4.300616616383194923e+00 -2.781977708451393028e-01
-1.210160765051841736e+01 4.730304116383194923e+00 -2.493434007279518028e-01
-1.236613401770591736e+01 4.680133217945694923e+00 -2.458796556107643028e-01
-1.264372190833091736e+01 4.627642983570694923e+00 -2.419734056107643028e-01
-1.293546995520591736e+01 4.572467202320694923e+00 -2.378535325638893028e-01
-1.324064573645591736e+01 4.514850014820694923e+00 -2.335505540482643028e-01
-1.354069456458091736e+01 4.450396889820694923e+00 -2.290644700638893028e-01
-1.384745725989341736e+01 4.381060952320694923e+00 -2.243647630326393028e-01
-1.416728147864341736e+01 4.308551186695694923e+00 -2.191309983842018028e-01
-1.210612425208091736e+01 4.733111733570694923e+00 -1.993708665482643028e-01
-1.234794554114341736e+01 4.677691811695694923e+00 -1.945948655717018028e-01
-1.259989866614341736e+01 4.619830483570694923e+00 -1.896205003373268028e-01
-1.286369261145591736e+01 4.559283608570694923e+00 -1.844172532670143028e-01
-1.313822874426841736e+01 4.496295327320694923e+00 -1.790003831498268028e-01
-1.342509397864341736e+01 4.430499428883194923e+00 -1.733241136185768028e-01
-1.372636350989341736e+01 4.361407632008194923e+00 -1.673884446732643028e-01
-1.405107054114341736e+01 4.290973061695694923e+00 -1.611018235795143028e-01
-1.201567015051841736e+01 4.712970132008194923e+00 -1.499781663529518028e-01
-1.226969847083091736e+01 4.661334389820694923e+00 -1.443476731888893028e-01
-1.255241331458091736e+01 4.611163491383194923e+00 -1.380152757279518028e-01
-1.285002073645591736e+01 4.558307046070694923e+00 -1.313471849076393028e-01
-1.316178831458091736e+01 4.502887124195694923e+00 -1.243739183060768028e-01
-1.348966917395591736e+01 4.444659585133194923e+00 -1.170344407670143028e-01
-1.383634886145591736e+01 4.383136147633194923e+00 -1.092677171342018028e-01
-1.420158323645591736e+01 4.318560952320694923e+00 -1.007838304154518028e-01
-1.210685667395591736e+01 4.736773842945694923e+00 -9.918165756388930276e-02
-1.238188108801841736e+01 4.689044350758194923e+00 -9.185743881388930276e-02
-1.267021116614341736e+01 4.638995522633194923e+00 -8.418226791545180276e-02
-1.721928343176841736e+01 5.481524819508194923e+00 -1.301527572795180276e-02
-1.553178343176841736e+01 4.980059975758194923e+00 -3.362989975138930276e-02
-1.598490843176841736e+01 4.921222085133194923e+00 -2.218580795451430276e-02
-2.141557249426841736e+01 5.748370522633194923e+00 6.825303481892319724e-02
-2.135954222083091736e+01 5.534747475758194923e+00 7.359361099079819724e-02
-1.612931761145591736e+01 5.713702553883194923e+00 2.598618911579819724e-02
-1.605143675208091736e+01 5.542071694508194923e+00 2.906846450642319724e-02
-1.593156370520591736e+01 5.363238686695694923e+00 3.091477798298569724e-02
-1.568254026770591736e+01 5.159747475758194923e+00 3.053330825642319724e-02
-1.556620725989341736e+01 4.989215249195694923e+00 3.259324477986069724e-02
-1.580351194739341736e+01 4.888995522633194923e+00 4.168748306111069724e-02
-2.141227659583091736e+01 5.751056069508194923e+00 1.613011305220481972e-01
-2.137834104895591736e+01 5.541217202320694923e+00 1.666417066939231972e-01
-1.653471311926841736e+01 5.814532632008194923e+00 1.047062818892356972e-01
-1.597795042395591736e+01 5.527301186695694923e+00 9.570359634236069724e-02
-1.581217893958091736e+01 5.339068764820694923e+00 9.610032485798569724e-02
-1.571269163489341736e+01 5.168536538258194923e+00 9.799241470173569724e-02
-2.353764280676841736e+01 6.592608803883194923e+00 2.942357008345481972e-01
-1.574540647864341736e+01 4.880328530445694923e+00 1.072544996626731972e-01
-2.610868772864341736e+01 6.600543374195694923e+00 3.719334547407981972e-01
-2.176725706458091736e+01 5.610553139820694923e+00 2.693028395064231972e-01
-1.313151487708091736e+01 4.106158608570694923e+00 -9.806056077592018028e-01
-1.321220335364341736e+01 3.999835366383194923e+00 -9.802088792435768028e-01
-1.328715452551841736e+01 3.891436928883194923e+00 -9.797053392045143028e-01
-1.336320433020591736e+01 3.781451577320694923e+00 -9.791865403763893028e-01
-1.343974241614341736e+01 3.670855874195694923e+00 -9.786677415482643028e-01
-1.351701292395591736e+01 3.559039467945694923e+00 -9.781489427201393028e-01
-1.359550413489341736e+01 3.445758217945694923e+00 -9.776148851029518028e-01
-1.367863401770591736e+01 3.331988686695694923e+00 -9.776301438920143028e-01
-1.539994749426841736e+01 4.486773842945694923e+00 -1.058669572602951803e+00
-1.532121214270591736e+01 4.332354897633194923e+00 -1.048034196626389303e+00
-1.525382933020591736e+01 4.181598061695694923e+00 -1.037810807954514303e+00
-1.517680296301841736e+01 4.030719155445694923e+00 -1.027419572602951803e+00
-1.510111936926841736e+01 3.882525796070694923e+00 -1.017211442720139303e+00
-1.512296995520591736e+01 3.747516030445694923e+00 -1.012572770845139303e+00
-1.518583616614341736e+01 3.616290444508194923e+00 -1.010528093110764303e+00
-1.525785765051841736e+01 3.485431069508194923e+00 -1.008636003267014303e+00
-1.792008909583091736e+01 4.910235757008194923e+00 -1.129058366548264303e+00
-1.726164183020591736e+01 4.638995522633194923e+00 -1.086913591157639303e+00
-1.667655882239341736e+01 4.392535561695694923e+00 -1.049224382173264303e+00
-1.667057737708091736e+01 4.236895913258194923e+00 -1.042388444673264303e+00
-1.829289183020591736e+01 4.288043374195694923e+00 -1.120284562837326803e+00
-1.664909300208091736e+01 3.927203530445694923e+00 -1.028350358735764303e+00
-1.683537229895591736e+01 3.793658608570694923e+00 -1.031432634126389303e+00
-1.690263304114341736e+01 3.645831460133194923e+00 -1.028350358735764303e+00
-1.709403929114341736e+01 4.774737710133194923e+00 -1.012176042329514303e+00
-1.735783323645591736e+01 4.656817788258194923e+00 -1.017989640962326803e+00
-1.754862913489341736e+01 4.523150796070694923e+00 -1.020492082368576803e+00
-1.664421018958091736e+01 4.235797280445694923e+00 -9.704890306107643028e-01
-1.663835081458091736e+01 4.081500405445694923e+00 -9.638514573685768028e-01
-1.659379515051841736e+01 3.923297280445694923e+00 -9.553980882279518028e-01
-2.065507444739341736e+01 4.202227944508194923e+00 -1.138000016938889303e+00
-1.690397581458091736e+01 3.648517007008194923e+00 -9.574580247513893028e-01
-1.588249143958091736e+01 4.574420327320694923e+00 -8.854823167435768028e-01
-1.880009397864341736e+01 4.886187905445694923e+00 -1.007796769868576803e+00
-1.662382444739341736e+01 4.389850014820694923e+00 -9.057765061967018028e-01
-1.661796507239341736e+01 4.234698647633194923e+00 -8.992304856888893028e-01
-1.661210569739341736e+01 4.080767983570694923e+00 -8.927149827592018028e-01
-2.086027464270591736e+01 4.423175210133194923e+00 -1.066253190767014303e+00
-2.172355589270591736e+01 4.319171303883194923e+00 -1.094420915376389303e+00
-1.690531858801841736e+01 3.651202553883194923e+00 -8.861842210404518028e-01
-1.693839964270591736e+01 4.753741616383194923e+00 -8.605952317826393028e-01
-1.752995237708091736e+01 4.689044350758194923e+00 -8.771205003373268028e-01
-1.993412718176841736e+01 4.879596108570694923e+00 -9.640803392045143028e-01
-1.659171995520591736e+01 4.233722085133194923e+00 -8.278346116654518028e-01
-2.107633909583091736e+01 4.649615639820694923e+00 -9.924922044388893028e-01
-2.172318968176841736e+01 4.527179116383194923e+00 -1.008895402681076803e+00
-2.194938597083091736e+01 4.346637124195694923e+00 -1.009078508149826803e+00
-1.690678343176841736e+01 3.654010171070694923e+00 -8.152766282670143028e-01
-1.617411741614341736e+01 4.628131264820694923e+00 -7.616419847123268028e-01
-1.829093870520591736e+01 4.811602944508194923e+00 -8.290858323685768028e-01
-2.058622679114341736e+01 4.978717202320694923e+00 -9.009699876420143028e-01
-1.655973753333091736e+01 4.231768960133194923e+00 -7.568812425248268028e-01
-2.172245725989341736e+01 4.734942788258194923e+00 -9.235987718217018028e-01
-2.200822386145591736e+01 4.563922280445694923e+00 -9.249415452592018028e-01
-2.230180296301841736e+01 4.387774819508194923e+00 -9.262995774857643028e-01
-1.690812620520591736e+01 3.656695717945694923e+00 -7.439875657670143028e-01
-1.709733518958091736e+01 4.785601967945694923e+00 -7.215266282670143028e-01
-1.598979124426841736e+01 4.451495522633194923e+00 -6.820368821732643028e-01
-1.651042112708091736e+01 4.380572671070694923e+00 -6.913294847123268028e-01
-1.651847776770591736e+01 4.228595132008194923e+00 -6.855921800248268028e-01
-2.227726683020591736e+01 4.808795327320694923e+00 -8.456111009232643028e-01
-2.257755979895591736e+01 4.633990639820694923e+00 -8.459467942826393028e-01
-2.286161741614341736e+01 4.451129311695694923e+00 -8.460993821732643028e-01
-1.690959104895591736e+01 3.659381264820694923e+00 -6.730799729935768028e-01
-1.650736936926841736e+01 4.688922280445694923e+00 -6.334528977982643028e-01
-1.618156370520591736e+01 4.484210366383194923e+00 -6.192927415482643028e-01
-2.143412718176841736e+01 5.110308999195694923e+00 -7.447505052201393028e-01
-1.627482542395591736e+01 4.197589272633194923e+00 -6.100764329545143028e-01
-1.613359007239341736e+01 4.029864663258194923e+00 -6.009059007279518028e-01
-2.312846311926841736e+01 4.702105874195694923e+00 -7.617640550248268028e-01
-2.349809202551841736e+01 4.522906655445694923e+00 -7.620081956498268028e-01
-1.691093382239341736e+01 3.662066811695694923e+00 -6.017756517045143028e-01
-1.648905882239341736e+01 4.688311928883194923e+00 -5.633387620560768028e-01
-1.645597776770591736e+01 4.529986733570694923e+00 -5.568537767045143028e-01
-1.642912229895591736e+01 4.373614663258194923e+00 -5.505366380326393028e-01
-1.631718382239341736e+01 4.205890053883194923e+00 -5.425410325638893028e-01
-1.618461546301841736e+01 4.038775796070694923e+00 -5.342707688920143028e-01
-1.650358518958091736e+01 3.927813882008194923e+00 -5.347743089310768028e-01
-2.415116819739341736e+01 4.596637124195694923e+00 -6.729121263138893028e-01
-1.691227659583091736e+01 3.664874428883194923e+00 -5.308680589310768028e-01
-1.727995237708091736e+01 4.824054116383194923e+00 -5.063166673295143028e-01
-1.642155393958091736e+01 4.526934975758194923e+00 -4.865260179154518028e-01
-1.609818968176841736e+01 4.327105874195694923e+00 -4.757990892045143028e-01
-1.634977659583091736e+01 4.212848061695694923e+00 -4.741053636185768028e-01
-1.623637327551841736e+01 4.047808999195694923e+00 -4.668116624467018028e-01
-1.641203245520591736e+01 3.919513100758194923e+00 -4.638209397904518028e-01
-2.468278440833091736e+01 4.657550210133194923e+00 -5.755000169388893028e-01
-1.691374143958091736e+01 3.667559975758194923e+00 -4.595637376420143028e-01
-1.737821897864341736e+01 4.843219155445694923e+00 -4.341731126420143028e-01
-1.638774046301841736e+01 4.524127358570694923e+00 -4.169154222123268028e-01
-1.486686643958091736e+01 4.147052163258194923e+00 -3.945460374467018028e-01
-1.519145140051841736e+01 4.055499428883194923e+00 -3.930201585404518028e-01
-1.553007444739341736e+01 3.960040444508194923e+00 -3.914332444779518028e-01
-1.588481077551841736e+01 3.859942788258194923e+00 -3.897700364701393028e-01
-1.596208128333091736e+01 3.722735757008194923e+00 -3.851771409623268028e-01
-1.664933714270591736e+01 3.644366616383194923e+00 -3.861842210404518028e-01
-1.412187132239341736e+01 4.296344155445694923e+00 -3.367915208451393028e-01
-1.441496214270591736e+01 4.213824624195694923e+00 -3.341212327592018028e-01
-1.471842893958091736e+01 4.127154702320694923e+00 -3.316645677201393028e-01
-1.503593382239341736e+01 4.036212319508194923e+00 -3.287348802201393028e-01
-1.536698850989341736e+01 3.941485757008194923e+00 -3.256831224076393028e-01
-1.574308714270591736e+01 3.845538491383194923e+00 -3.226313645951393028e-01
-1.597550901770591736e+01 3.726519936695694923e+00 -3.182368333451393028e-01
-1.651359495520591736e+01 3.633624428883194923e+00 -3.154749925248268028e-01
-1.413493284583091736e+01 4.300616616383194923e+00 -2.781977708451393028e-01
-1.445133909583091736e+01 4.221759194508194923e+00 -2.742915208451393028e-01
-1.478178343176841736e+01 4.138751382008194923e+00 -2.702174241654518028e-01
-1.512980589270591736e+01 4.051471108570694923e+00 -2.659144456498268028e-01
-1.549418577551841736e+01 3.960040444508194923e+00 -2.613978440873268028e-01
-1.587760862708091736e+01 3.863849038258194923e+00 -2.566676194779518028e-01
-1.598503050208091736e+01 3.729937905445694923e+00 -2.515406663529518028e-01
-1.663737425208091736e+01 3.648272866383194923e+00 -2.463831956498268028e-01
-1.416947874426841736e+01 4.308551186695694923e+00 -2.191157395951393028e-01
-1.445512327551841736e+01 4.224444741383194923e+00 -2.142176683060768028e-01
-1.475553831458091736e+01 4.137042397633194923e+00 -2.087702806107643028e-01
-1.507047972083091736e+01 4.045489663258194923e+00 -2.030482347123268028e-01
-1.539860472083091736e+01 3.950152749195694923e+00 -1.970973069779518028e-01
-1.574211058020591736e+01 3.850177163258194923e+00 -1.908564622513893028e-01
-1.610331663489341736e+01 3.745196694508194923e+00 -1.843104417435768028e-01
-1.652458128333091736e+01 3.639727944508194923e+00 -1.768794114701393028e-01
-1.405351194739341736e+01 4.290973061695694923e+00 -1.610713060013893028e-01
-1.438774046301841736e+01 4.215899819508194923e+00 -1.542964036576393028e-01
-1.472599729895591736e+01 4.134845132008194923e+00 -1.472621018998268028e-01
-1.508280882239341736e+01 4.049517983570694923e+00 -1.398463304154518028e-01
-1.545707640051841736e+01 3.959918374195694923e+00 -1.320796067826393028e-01
-1.585136350989341736e+01 3.865558022633194923e+00 -1.238856370560768028e-01
-1.626896604895591736e+01 3.765582436695694923e+00 -1.152033860795143028e-01
-2.824662718176841736e+01 4.794024819508194923e+00 5.650465376731972356e-04
-1.420402464270591736e+01 4.318560952320694923e+00 -1.007380540482643028e-01
-1.452433714270591736e+01 4.239703530445694923e+00 -9.292555404826430276e-02
-2.181523069739341736e+01 5.193438882008194923e+00 6.150649861069723556e-05
-2.308952268958091736e+01 5.163287514820694923e+00 2.291917251423569724e-02
-1.652421507239341736e+01 4.099566811695694923e+00 -5.392408920451430276e-02
-2.769987425208091736e+01 5.273028725758194923e+00 9.828233169392319724e-02
-2.834696897864341736e+01 5.078204507008194923e+00 1.159062330611106972e-01
-2.904826292395591736e+01 4.877398842945694923e+00 1.353611891157981972e-01
-2.135917600989341736e+01 5.534015053883194923e+00 7.359361099079819724e-02
-2.592277464270591736e+01 6.058429116383194923e+00 1.553959791548606972e-01
-1.624259886145591736e+01 4.365558022633194923e+00 1.022810209548197236e-03
-2.484977659583091736e+01 5.411456460133194923e+00 1.534275953657981972e-01
-1.639030393958091736e+01 4.084796303883194923e+00 1.348924087361069724e-02
-1.629435667395591736e+01 3.922931069508194923e+00 1.673936294392319724e-02
-2.918058714270591736e+01 5.173297280445694923e+00 2.553105299361106972e-01
-2.988261350989341736e+01 4.964190835133194923e+00 2.774357740767356972e-01
-2.137797483801841736e+01 5.540484780445694923e+00 1.666569654829856972e-01
-2.395158323645591736e+01 5.748004311695694923e+00 2.275853102095481972e-01
-2.337919554114341736e+01 5.433795327320694923e+00 2.221684400923606972e-01
-2.790129026770591736e+01 5.840045327320694923e+00 3.277440016157981972e-01
-1.645561155676841736e+01 4.095782632008194923e+00 8.367967056111069724e-02
-1.625773558020591736e+01 3.921100014820694923e+00 8.413743423298569724e-02
-2.992594847083091736e+01 5.258990639820694923e+00 4.004063551314231972e-01
-3.074919065833091736e+01 5.054522866383194923e+00 4.286503736861106972e-01
-2.176725706458091736e+01 5.609942788258194923e+00 2.693180982954856972e-01
-2.398930296301841736e+01 5.757647866383194923e+00 3.326115553267356972e-01
-2.339140257239341736e+01 5.439288491383194923e+00 3.242955152876731972e-01
-2.864457640051841736e+01 5.947955483570694923e+00 4.700474684126731972e-01
-1.657975706458091736e+01 4.114215249195694923e+00 1.564183180220481972e-01
-1.624198850989341736e+01 3.921588296070694923e+00 1.521153395064231972e-01
-3.076151975989341736e+01 5.354815835133194923e+00 5.541233961470481972e-01
-3.155009397864341736e+01 5.138751382008194923e+00 5.860295240767356972e-01
-1.367912229895591736e+01 3.331622475758194923e+00 -9.776454026810768028e-01
-1.377409300208091736e+01 3.217486733570694923e+00 -9.780879075638893028e-01
-1.386186155676841736e+01 3.100909585133194923e+00 -9.783167893998268028e-01
-1.391715940833091736e+01 2.980304116383194923e+00 -9.765620286576393028e-01
-1.396879515051841736e+01 2.858966225758194923e+00 -9.745783860795143028e-01
-1.403825315833091736e+01 2.737506264820694923e+00 -9.735865647904518028e-01
-1.411357054114341736e+01 2.614703530445694923e+00 -9.728541429154518028e-01
-1.418180784583091736e+01 2.490680092945694923e+00 -9.720149095170143028e-01
-1.525834593176841736e+01 3.485064858570694923e+00 -1.008651262056076803e+00
-1.532084593176841736e+01 3.352252358570694923e+00 -1.006560807954514303e+00
-1.539311155676841736e+01 3.219195717945694923e+00 -1.004622941743576803e+00
-1.545695433020591736e+01 3.083697671070694923e+00 -1.002501970063889303e+00
-1.552116331458091736e+01 2.947711342945694923e+00 -1.000365739595139303e+00
-1.559025511145591736e+01 2.810748452320694923e+00 -9.984583909623268028e-01
-1.566496214270591736e+01 2.672320717945694923e+00 -9.971156175248268028e-01
-1.574333128333091736e+01 2.533160561695694923e+00 -9.955897386185768028e-01
-1.690226683020591736e+01 3.645221108570694923e+00 -1.028304582368576803e+00
-1.713175901770591736e+01 3.510333413258194923e+00 -1.033721452485764303e+00
-1.727885374426841736e+01 3.364825600758194923e+00 -1.034850602876389303e+00
-1.742912229895591736e+01 3.216143960133194923e+00 -1.035995012056076803e+00
-1.758146604895591736e+01 3.065265053883194923e+00 -1.037169938813889303e+00
-1.784025511145591736e+01 2.916583413258194923e+00 -1.043410783540451803e+00
-1.788713011145591736e+01 2.754596108570694923e+00 -1.039184098970139303e+00
-1.793412718176841736e+01 2.592608803883194923e+00 -1.034957414399826803e+00
-1.690360960364341736e+01 3.647906655445694923e+00 -9.574122483842018028e-01
-2.194987425208091736e+01 3.928180092945694923e+00 -1.181579118501389303e+00
-2.201567015051841736e+01 3.728228921070694923e+00 -1.176482682954514303e+00
-2.191557249426841736e+01 3.515460366383194923e+00 -1.163863664399826803e+00
-2.181681761145591736e+01 3.305743569508194923e+00 -1.151427751313889303e+00
-2.171928343176841736e+01 3.098224038258194923e+00 -1.139129167329514303e+00
-1.959989866614341736e+01 2.819293374195694923e+00 -1.038482194673264303e+00
-2.039738401770591736e+01 2.659747475758194923e+00 -1.066390519868576803e+00
-1.690507444739341736e+01 3.650714272633194923e+00 -8.861384446732643028e-01
-2.217900022864341736e+01 3.951373452320694923e+00 -1.096877580415451803e+00
-2.228556761145591736e+01 3.752276772633194923e+00 -1.093093400727951803e+00
-2.218266233801841736e+01 3.536578530445694923e+00 -1.080779557954514303e+00
-2.208122190833091736e+01 3.324054116383194923e+00 -1.068648820649826803e+00
-2.393095335364341736e+01 3.204058999195694923e+00 -1.133742814790451803e+00
-1.960185179114341736e+01 2.822467202320694923e+00 -9.554896409623268028e-01
-2.421293577551841736e+01 2.763507241383194923e+00 -1.127151017915451803e+00
-1.690641722083091736e+01 3.653399819508194923e+00 -8.152461106888893028e-01
-2.241459593176841736e+01 3.975299233570694923e+00 -1.009780412446701803e+00
-2.256413206458091736e+01 3.777057046070694923e+00 -1.007033830415451803e+00
-2.338456663489341736e+01 3.619952553883194923e+00 -1.028106218110764303e+00
-2.403800901770591736e+01 3.437945717945694923e+00 -1.042693620454514303e+00
-2.427677854895591736e+01 3.223956460133194923e+00 -1.042296891938889303e+00
-1.960368284583091736e+01 2.825641030445694923e+00 -8.720698411576393028e-01
-2.452067503333091736e+01 2.775470132008194923e+00 -1.033523088227951803e+00
-1.690775999426841736e+01 3.656085366383194923e+00 -7.439570481888893028e-01
-2.293168577551841736e+01 4.023639077320694923e+00 -9.300227220170143028e-01
-2.351298460364341736e+01 3.853350991383194923e+00 -9.400477464310768028e-01
-2.414237913489341736e+01 3.674151772633194923e+00 -9.510951097123268028e-01
-2.446745237708091736e+01 3.466143960133194923e+00 -9.523615892045143028e-01
-2.458817991614341736e+01 3.242389077320694923e+00 -9.471888597123268028e-01
-1.960563597083091736e+01 2.828814858570694923e+00 -7.890620286576393028e-01
-2.577104124426841736e+01 2.812823647633194923e+00 -9.643855149857643028e-01
-1.690922483801841736e+01 3.658770913258194923e+00 -6.730494554154518028e-01
-2.377714475989341736e+01 4.100665444508194923e+00 -8.544611985795143028e-01
-2.430070433020591736e+01 3.917559975758194923e+00 -8.594508226029518028e-01
-2.477275022864341736e+01 3.720050210133194923e+00 -8.631892259232643028e-01
-2.517692503333091736e+01 3.510333413258194923e+00 -8.648371751420143028e-01
-2.559477171301841736e+01 3.293414467945694923e+00 -8.665461595170143028e-01
-1.960746702551841736e+01 2.831866616383194923e+00 -7.060694749467018028e-01
-2.698149046301841736e+01 2.849444741383194923e+00 -8.833766038529518028e-01
-1.691056761145591736e+01 3.661578530445694923e+00 -6.017603929154518028e-01
-2.447782835364341736e+01 4.165362710133194923e+00 -7.673029954545143028e-01
-2.494657835364341736e+01 3.971148842945694923e+00 -7.689967210404518028e-01
-2.551493772864341736e+01 3.773639077320694923e+00 -7.725062425248268028e-01
-2.591410765051841736e+01 3.556231850758194923e+00 -7.719721849076393028e-01
-2.652934202551841736e+01 3.341388100758194923e+00 -7.757258470170143028e-01
-1.960942015051841736e+01 2.835040444508194923e+00 -6.226038987748268028e-01
-2.783012327551841736e+01 2.876666421070694923e+00 -7.832636888138893028e-01
-1.691203245520591736e+01 3.664264077320694923e+00 -5.308375413529518028e-01
-2.500797972083091736e+01 4.215411538258194923e+00 -6.711726243607643028e-01
-2.563896116614341736e+01 4.028521889820694923e+00 -6.734461839310768028e-01
-2.623893675208091736e+01 3.826251382008194923e+00 -6.746974046342018028e-01
-2.679960569739341736e+01 3.611041421070694923e+00 -6.748652513138893028e-01
-2.735514768958091736e+01 3.384600991383194923e+00 -6.745448167435768028e-01
-1.961125120520591736e+01 2.838214272633194923e+00 -5.395960862748268028e-01
-2.825321897864341736e+01 2.892657632008194923e+00 -6.692805345170143028e-01
-1.691337522864341736e+01 3.666949624195694923e+00 -4.595332200638893028e-01
-2.570182737708091736e+01 4.279986733570694923e+00 -5.717768724076393028e-01
-2.631034788489341736e+01 4.084430092945694923e+00 -5.706629808060768028e-01
-2.690251097083091736e+01 3.875079507008194923e+00 -5.688624436967018028e-01
-2.746525511145591736e+01 3.653399819508194923e+00 -5.662837083451393028e-01
-2.801859983801841736e+01 3.420367592945694923e+00 -5.632014329545143028e-01
-1.961308225989341736e+01 2.841388100758194923e+00 -4.561152513138893028e-01
-2.945036253333091736e+01 2.930011147633194923e+00 -5.594325120560768028e-01
-1.665202268958091736e+01 3.644122475758194923e+00 -3.861842210404518028e-01
-1.704093870520591736e+01 3.526080483570694923e+00 -3.839869554154518028e-01
-1.741484007239341736e+01 3.399249428883194923e+00 -3.813624436967018028e-01
-1.780998167395591736e+01 3.266070717945694923e+00 -3.786311204545143028e-01
-1.822331175208091736e+01 3.126666421070694923e+00 -3.757777268998268028e-01
-1.865763792395591736e+01 2.980304116383194923e+00 -3.727717454545143028e-01
-1.911613401770591736e+01 2.825763100758194923e+00 -3.696131761185768028e-01
-1.960758909583091736e+01 2.663897866383194923e+00 -3.663477952592018028e-01
-1.651457151770591736e+01 3.633136147633194923e+00 -3.154597337357643028e-01
-1.695280393958091736e+01 3.520953530445694923e+00 -3.117518479935768028e-01
-1.739482054114341736e+01 3.400348061695694923e+00 -3.081507737748268028e-01
-1.782560667395591736e+01 3.269854897633194923e+00 -3.037715013138893028e-01
-1.827836546301841736e+01 3.132647866383194923e+00 -2.991786058060768028e-01
-1.875614866614341736e+01 2.987994546070694923e+00 -2.943415696732643028e-01
-1.926078733801841736e+01 2.834308022633194923e+00 -2.887568528763893028e-01
-1.963786253333091736e+01 2.667804116383194923e+00 -2.830042893998268028e-01
-1.664005979895591736e+01 3.648028725758194923e+00 -2.463679368607643028e-01
-1.695414671301841736e+01 3.523639077320694923e+00 -2.406916673295143028e-01
-1.739421018958091736e+01 3.403033608570694923e+00 -2.347102220170143028e-01
-1.778398069739341736e+01 3.269732827320694923e+00 -2.284388597123268028e-01
-1.819132933020591736e+01 3.130572671070694923e+00 -2.218928392045143028e-01
-1.861906370520591736e+01 2.984332436695694923e+00 -2.150111253373268028e-01
-1.909587034583091736e+01 2.831012124195694923e+00 -2.077021653763893028e-01
-1.963774046301841736e+01 2.670855874195694923e+00 -1.999201829545143028e-01
-1.652751097083091736e+01 3.639483803883194923e+00 -1.768488938920143028e-01
-1.698210081458091736e+01 3.528643960133194923e+00 -1.694941575638893028e-01
-1.738700804114341736e+01 3.405108803883194923e+00 -1.617121751420143028e-01
-1.783122190833091736e+01 3.275714272633194923e+00 -1.533961351029518028e-01
-1.829862913489341736e+01 3.139605874195694923e+00 -1.446375901810768028e-01
-1.879301390051841736e+01 2.995562905445694923e+00 -1.353907640092018028e-01
-3.010649046301841736e+01 3.252276772633194923e+00 -5.223036361857680276e-02
-3.004692015051841736e+01 2.965777749195694923e+00 -4.164076400920180276e-02
-2.825102171301841736e+01 4.793536538258194923e+00 6.413404829856972356e-04
-2.899931272864341736e+01 4.591143960133194923e+00 1.747178481892319724e-02
-2.972428831458091736e+01 4.372271889820694923e+00 3.459214614704819724e-02
-3.048271116614341736e+01 4.140460366383194923e+00 5.261277602986069724e-02
-3.132719358801841736e+01 3.899981850758194923e+00 7.203721450642319724e-02
-3.225175413489341736e+01 3.646685952320694923e+00 9.295701431111069724e-02
-3.321891722083091736e+01 3.375933999195694923e+00 1.150364820845481972e-01
-2.953532347083091736e+01 2.956256264820694923e+00 8.306931899861069724e-02
-2.905302366614341736e+01 4.876910561695694923e+00 1.354527418501731972e-01
-2.981718382239341736e+01 4.667926186695694923e+00 1.554722731001731972e-01
-3.059867796301841736e+01 4.445514077320694923e+00 1.769719068892356972e-01
-3.140678343176841736e+01 4.208453530445694923e+00 1.994328443892356972e-01
-3.233219847083091736e+01 3.963580483570694923e+00 2.242283766157981972e-01
-3.330168089270591736e+01 3.702716225758194923e+00 2.503361647017356972e-01
-3.423088011145591736e+01 3.420123452320694923e+00 2.765355055220481972e-01
-3.219621214270591736e+01 3.036578530445694923e+00 2.556614820845481972e-01
-2.988798460364341736e+01 4.963824624195694923e+00 2.775731031782981972e-01
-3.071488890051841736e+01 4.752276772633194923e+00 3.032078688032981972e-01
-3.148918089270591736e+01 4.520343178883194923e+00 3.284001295454856972e-01
-3.237748655676841736e+01 4.279986733570694923e+00 3.564000074751731972e-01
-3.209245237708091736e+01 3.954791421070694923e+00 3.616337721236106972e-01
-3.431169065833091736e+01 3.757037514820694923e+00 4.173436109907981972e-01
-3.532377561926841736e+01 3.467852944508194923e+00 4.497837965376731972e-01
-3.647941526770591736e+01 3.164019936695694923e+00 4.858860914595481972e-01
-3.075419554114341736e+01 5.054034585133194923e+00 4.288029615767356972e-01
-3.158439573645591736e+01 4.834308022633194923e+00 4.585423414595481972e-01
-3.204057249426841736e+01 4.568683022633194923e+00 4.792180006392356972e-01
-3.324455198645591736e+01 4.344683999195694923e+00 5.190129225142356972e-01
-3.428739866614341736e+01 4.088702553883194923e+00 5.556492750532981972e-01
-3.529887327551841736e+01 3.810626382008194923e+00 5.922245924361106972e-01
-3.633952268958091736e+01 3.512896889820694923e+00 6.311345045454856972e-01
-3.767375120520591736e+01 3.204303139820694923e+00 6.773686354048606972e-01
-3.155534300208091736e+01 5.138263100758194923e+00 5.862126295454856972e-01
-3.206620725989341736e+01 4.882159585133194923e+00 6.102757398970481972e-01
-3.203825315833091736e+01 4.573687905445694923e+00 6.201329176314231972e-01
-3.421488890051841736e+01 4.416827553883194923e+00 6.933293287642356972e-01
-3.516068968176841736e+01 4.145587319508194923e+00 7.322087232954856972e-01
-3.629777464270591736e+01 3.865191811695694923e+00 7.773442213423606972e-01
