-1.287296853959560394e+01 1.241538885235786438e+01 -5.240934171015396714e-01
-1.316679178178310394e+01 1.251914861798286438e+01 -5.356595792109146714e-01
-1.342643533647060394e+01 1.258262518048286438e+01 -5.444944180781021714e-01
-8.024091586470603943e+00 7.063460141420364380e+00 -1.516416348749771714e-01
-1.327262674272060394e+01 1.204124334454536438e+01 -5.145566739374771714e-01
-1.329545389115810394e+01 1.187425115704536438e+01 -5.067289151484146714e-01
-1.253056131303310394e+01 1.245066717267036438e+01 -4.438932217890396714e-01
-1.274040018022060394e+01 1.247593572735786438e+01 -4.489591397577896714e-01
-1.301652322709560394e+01 1.256602361798286438e+01 -4.582822598749771714e-01
-1.331071268022060394e+01 1.266783025860786438e+01 -4.684903897577896714e-01
-1.357694803178310394e+01 1.273557928204536438e+01 -4.765775479609146714e-01
-8.024091586470603943e+00 7.064558774232864380e+00 -1.093595303827896714e-01
-1.326493631303310394e+01 1.203587225079536438e+01 -4.382016934687271714e-01
-1.328776346147060394e+01 1.186912420392036438e+01 -4.308622159296646714e-01
-1.260868631303310394e+01 1.253623846173286438e+01 -3.743284024531021714e-01
-1.284892068803310394e+01 1.259239080548286438e+01 -3.804319180781021714e-01
-1.315983377397060394e+01 1.271653631329536438e+01 -3.905790128046646714e-01
-1.345829568803310394e+01 1.282017400860786438e+01 -3.996579922968521714e-01
-1.373124490678310394e+01 1.289231756329536438e+01 -4.069516934687271714e-01
-8.024091586470603943e+00 7.065779477357864380e+00 -6.709268467966467142e-02
-1.325736795365810394e+01 1.203074529767036438e+01 -3.623807706171646714e-01
-1.328019510209560394e+01 1.186411932110786438e+01 -3.555143155390396714e-01
-1.268827615678310394e+01 1.262351873517036438e+01 -3.034055508906021714e-01
-1.300919900834560394e+01 1.276316717267036438e+01 -3.128660001093521714e-01
-1.330558572709560394e+01 1.286973455548286438e+01 -3.207242764765396714e-01
-1.260844217240810394e+01 1.195652654767036438e+01 -2.757413663202896714e-01
-1.389030252397060394e+01 1.305393865704536438e+01 -3.351590909296646714e-01
-8.024091586470603943e+00 7.066878110170364380e+00 -2.459695714060217142e-02
-1.324918924272060394e+01 1.202488592267036438e+01 -2.862241544062271714e-01
-1.327201639115810394e+01 1.185838201642036438e+01 -2.798307217890396714e-01
-1.284037576615810394e+01 1.278843572735786438e+01 -2.353208340937271714e-01
-1.315434060990810394e+01 1.291831853985786438e+01 -2.428891934687271714e-01
-1.345414529740810394e+01 1.302586248517036438e+01 -2.494962491327896714e-01
-1.376530252397060394e+01 1.313743475079536438e+01 -2.563474454218521714e-01
-1.405192361772060394e+01 1.321824529767036438e+01 -2.618711270624771714e-01
-8.023969516158103943e+00 7.068098813295364380e+00 1.765462977346032858e-02
-1.324052225053310394e+01 1.201866033673286438e+01 -2.105710782343521714e-01
-1.326493631303310394e+01 1.185374334454536438e+01 -2.047269620234146714e-01
-1.300163064897060394e+01 1.296336248517036438e+01 -1.651914395624771714e-01
-1.330131326615810394e+01 1.307517889142036438e+01 -1.706235684687271714e-01
-1.360648904740810394e+01 1.318589666485786438e+01 -1.764676846796646714e-01
-1.391959939897060394e+01 1.329698064923286438e+01 -1.819455899531021714e-01
-1.419718728959560394e+01 1.336607244610786438e+01 -1.858365811640396714e-01
-8.023969516158103943e+00 7.069197446107864380e+00 5.990621668752282858e-02
-1.323185525834560394e+01 1.201231268048286438e+01 -1.346433438593521714e-01
-1.326896463334560394e+01 1.185984686017036438e+01 -1.297452725702896714e-01
-1.314896951615810394e+01 1.312327459454536438e+01 -9.281900303903967142e-02
-1.345109353959560394e+01 1.323521307110786438e+01 -9.692361729685217142e-02
-1.291898904740810394e+01 1.247544744610786438e+01 -7.269266026560217142e-02
-1.400614725053310394e+01 1.338743475079536438e+01 -1.028592862421646714e-01
-1.428971658647060394e+01 1.346116521954536438e+01 -1.057584561640396714e-01
-8.023969516158103943e+00 7.070418149232864380e+00 1.023714266484603286e-01
-1.322318826615810394e+01 1.200608709454536438e+01 -5.923440831247717142e-02
-1.327299295365810394e+01 1.186582830548286438e+01 -5.511453526560217142e-02
-1.329691873490810394e+01 1.328404119610786438e+01 -1.808145421091467142e-02
-1.285734353959560394e+01 1.261155584454536438e+01 -7.474698359146714211e-04
-1.247343240678310394e+01 1.201560857892036438e+01 1.499960047658532858e-02
-1.410429178178310394e+01 1.348985174298286438e+01 -2.339151280466467142e-02
-1.425883279740810394e+01 1.343260076642036438e+01 -2.171304600778967142e-02
-8.023847445845603943e+00 7.071516782045364380e+00 1.445924959843978286e-01
-1.321452127397060394e+01 1.199986150860786438e+01 1.603719813283532858e-02
-1.327714334428310394e+01 1.187180975079536438e+01 1.994344813283532858e-02
-1.230546365678310394e+01 1.222337225079536438e+01 8.248922450002282858e-02
-1.231950174272060394e+01 1.204649236798286438e+01 8.673116785939782858e-02
-1.261759744584560394e+01 1.216721990704536438e+01 8.509847742971032858e-02
-1.420536600053310394e+01 1.359519842267036438e+01 5.773946864064782858e-02
-1.300053201615810394e+01 1.217283514142036438e+01 8.651754481252282858e-02
-8.023847445845603943e+00 7.072737485170364380e+00 1.870424471562728286e-01
-1.283134256303310394e+01 1.163023260235786438e+01 9.867879969533532858e-02
-1.328117166459560394e+01 1.187791326642036438e+01 9.465047938283532858e-02
-1.255729471147060394e+01 1.249522283673286438e+01 1.519930086797103286e-01
-1.233671365678310394e+01 1.206675603985786438e+01 1.587373934453353286e-01
-1.263126932084560394e+01 1.218333318829536438e+01 1.585085116093978286e-01
-1.277543435990810394e+01 1.213902166485786438e+01 1.604616366093978286e-01
-1.299235330522060394e+01 1.216673162579536438e+01 1.614687166875228286e-01
-8.023847445845603943e+00 7.073836117982864380e+00 2.292635164922103286e-01
-1.282047830522060394e+01 1.162168768048286438e+01 1.713564120000228286e-01
-1.328532205522060394e+01 1.188389471173286438e+01 1.697847567265853286e-01
-6.956952914595603943e+00 6.492171078920364380e+00 2.704622469609603286e-01
-7.116987094283103943e+00 6.563948422670364380e+00 2.709200106328353286e-01
-7.283735141158103943e+00 6.638655453920364380e+00 2.713930330937728286e-01
-7.458051547408103943e+00 6.716780453920364380e+00 2.718813143437728286e-01
-7.639325961470603943e+00 6.797957211732864380e+00 2.724001131718978286e-01
-7.829267367720603943e+00 6.883162289857864380e+00 2.729341707890853286e-01
-8.027265414595603943e+00 6.971785336732864380e+00 2.734987459843978286e-01
-8.225019320845603943e+00 7.055769711732864380e+00 2.741396151250228286e-01
-6.893964633345603943e+00 6.425764828920364380e+00 3.076021395390853286e-01
-7.050947055220603943e+00 6.495344907045364380e+00 3.087923250859603286e-01
-7.214277133345603943e+00 6.567732602357864380e+00 3.100282870000228286e-01
-7.385419711470603943e+00 6.643782407045364380e+00 3.111269198125228286e-01
-7.562909945845603943e+00 6.722395688295364380e+00 3.124696932500228286e-01
-7.748456820845603943e+00 6.804426938295364380e+00 3.141023836797103286e-01
-7.955976352095603943e+00 6.903792172670364380e+00 3.155824862187728286e-01
-8.174238070845603943e+00 7.008406430482864380e+00 3.171236239140853286e-01
-6.892743930220603943e+00 6.425398617982864380e+00 3.442232332890853286e-01
-7.060346469283103943e+00 6.506209164857864380e+00 3.460237703984603286e-01
-7.235883578658103943e+00 6.591170102357864380e+00 3.480989657109603286e-01
-7.420087680220603943e+00 6.680281430482864380e+00 3.502809725468978286e-01
-7.612470492720603943e+00 6.773299008607864380e+00 3.525545321172103286e-01
-7.640180453658103943e+00 6.698714047670364380e+00 3.538210116093978286e-01
-8.026532992720603943e+00 6.973494321107864380e+00 3.574678621953353286e-01
-8.237714633345603943e+00 7.070296078920364380e+00 3.602449618047103286e-01
-7.305707797408103943e+00 6.159773617982864380e+00 -3.517148770624771714e-01
-7.352338656783103943e+00 6.111677914857864380e+00 -3.502500333124771714e-01
-7.397016391158103943e+00 6.061507016420364380e+00 -3.487699307734146714e-01
-7.441938266158103943e+00 6.011336117982864380e+00 -3.472745694452896714e-01
-7.486616000533103943e+00 5.961287289857864380e+00 -3.457944669062271714e-01
-7.531415805220603943e+00 5.910994321107864380e+00 -3.442991055781021714e-01
-7.576093539595603943e+00 5.860945492982864380e+00 -3.428190030390396714e-01
-7.618696078658103943e+00 5.809065610170364380e+00 -3.413083829218521714e-01
-7.705610141158103943e+00 6.541487485170364380e+00 -3.574216641718521714e-01
-7.753339633345603943e+00 6.488020688295364380e+00 -3.558347501093521714e-01
-7.801069125533103943e+00 6.434431821107864380e+00 -3.542325772577896714e-01
-7.851240023970603943e+00 6.382918149232864380e+00 -3.526761807734146714e-01
-7.898969516158103943e+00 6.329451352357864380e+00 -3.510892667109146714e-01
-7.944501742720603943e+00 6.273665219545364380e+00 -3.494565762812271714e-01
-7.992231234908103943e+00 6.220198422670364380e+00 -3.478696622187271714e-01
-8.041181430220603943e+00 6.167830258607864380e+00 -3.464200772577896714e-01
-8.177656039595603943e+00 6.991926938295364380e+00 -3.653104581171646714e-01
-8.233930453658103943e+00 6.938948422670364380e+00 -3.640897549921646714e-01
-8.290326938033103943e+00 6.885969907045364380e+00 -3.628843106562271714e-01
-8.346967563033103943e+00 6.832747250795364380e+00 -3.616636075312271714e-01
-8.403364047408103943e+00 6.779646664857864380e+00 -3.604429044062271714e-01
-8.460248813033103943e+00 6.726301938295364380e+00 -3.592222012812271714e-01
-8.516889438033103943e+00 6.673079282045364380e+00 -3.580014981562271714e-01
-8.573652133345603943e+00 6.619734555482864380e+00 -3.567807950312271714e-01
-8.904584750533103943e+00 7.685042172670364380e+00 -3.915708340937271714e-01
-8.993085727095603943e+00 7.650984555482864380e+00 -3.924100674921646714e-01
-9.064618930220603943e+00 7.600325375795364380e+00 -3.918454922968521714e-01
-9.127729281783103943e+00 7.541121274232864380e+00 -3.904569424921646714e-01
-9.190717563033103943e+00 7.482039242982864380e+00 -3.890836514765396714e-01
-9.254072055220603943e+00 7.422591000795364380e+00 -3.876951016718521714e-01
-9.317182406783103943e+00 7.363386899232864380e+00 -3.863065518671646714e-01
-9.377363070845603943e+00 7.301497250795364380e+00 -3.849027432734146714e-01
-1.331803689897060394e+01 1.188877752423286438e+01 -7.341153897577896714e-01
-9.646161898970603943e+00 8.263899594545364380e+00 -4.021146573359146714e-01
-9.715375766158103943e+00 8.200911313295364380e+00 -4.006803311640396714e-01
-9.784955844283103943e+00 8.137678891420364380e+00 -3.992307462031021714e-01
-9.854413852095603943e+00 8.074446469545364380e+00 -3.977811612421646714e-01
-9.924116000533103943e+00 8.010969907045364380e+00 -3.963315762812271714e-01
-9.993818148970603943e+00 7.947493344545364380e+00 -3.948819913202896714e-01
-1.006864725053310394e+01 7.888289242982864380e+00 -3.938443936640396714e-01
-1.331046853959560394e+01 1.188365057110786438e+01 -6.583249844843521714e-01
-1.346549783647060394e+01 1.184263494610786438e+01 -6.601560391718521714e-01
-1.430717264115810394e+01 1.243211248517036438e+01 -7.173917569452896714e-01
-1.383366189897060394e+01 1.180662420392036438e+01 -6.688840665156021714e-01
-1.396391092240810394e+01 1.173679998517036438e+01 -6.687925137812271714e-01
-1.517069803178310394e+01 1.260825994610786438e+01 -7.523038663202896714e-01
-1.139054666459560394e+01 9.152205258607864380e+00 -4.503629483515396714e-01
-1.135966287553310394e+01 8.983382016420364380e+00 -4.404142178827896714e-01
-1.330277810990810394e+01 1.187852361798286438e+01 -5.822446622187271714e-01
-1.347160135209560394e+01 1.185044744610786438e+01 -5.851133145624771714e-01
-1.446867166459560394e+01 1.258323553204536438e+01 -6.491544522577896714e-01
-1.383842264115810394e+01 1.181321600079536438e+01 -5.925748624140396714e-01
-1.396867166459560394e+01 1.174326971173286438e+01 -5.922544278437271714e-01
-1.544901834428310394e+01 1.285459783673286438e+01 -6.885831631952896714e-01
-1.573100076615810394e+01 1.289366033673286438e+01 -6.978757657343521714e-01
-1.597074685990810394e+01 1.289170721173286438e+01 -7.039182462031021714e-01
-1.329520975053310394e+01 1.187339666485786438e+01 -5.066831387812271714e-01
-1.347758279740810394e+01 1.185838201642036438e+01 -5.099942960077896714e-01
-1.467692361772060394e+01 1.277744939923286438e+01 -5.816495694452896714e-01
-1.384318338334560394e+01 1.181980779767036438e+01 -5.158231534296646714e-01
-1.397343240678310394e+01 1.174986150860786438e+01 -5.152738370234146714e-01
-1.574040018022060394e+01 1.311241033673286438e+01 -6.218564786249771714e-01
-1.601823221147060394e+01 1.314366033673286438e+01 -6.300504483515396714e-01
-1.625126443803310394e+01 1.313206365704536438e+01 -6.346586026484146714e-01
-1.328764139115810394e+01 1.186839178204536438e+01 -4.308164395624771714e-01
-1.348368631303310394e+01 1.186619451642036438e+01 -4.344175137812271714e-01
-1.427470193803310394e+01 1.240916326642036438e+01 -4.744565762812271714e-01
-1.384281717240810394e+01 1.182163885235786438e+01 -4.391172208124771714e-01
-1.397685037553310394e+01 1.175511053204536438e+01 -4.385679044062271714e-01
-1.381083475053310394e+01 1.142381170392036438e+01 -4.201047696406021714e-01
-1.627165018022060394e+01 1.336472967267036438e+01 -5.563047208124771714e-01
-1.654923807084560394e+01 1.338719061017036438e+01 -5.625760831171646714e-01
-1.328007303178310394e+01 1.186326482892036438e+01 -3.554685391718521714e-01
-1.348978982865810394e+01 1.187400701642036438e+01 -3.591764249140396714e-01
-1.460172830522060394e+01 1.271287420392036438e+01 -4.125669278437271714e-01
-1.384123025834560394e+01 1.182249334454536438e+01 -3.623655118281021714e-01
-1.397526346147060394e+01 1.175596502423286438e+01 -3.615567960077896714e-01
-1.379411111772060394e+01 1.141136053204536438e+01 -3.438718594843521714e-01
-1.643192850053310394e+01 1.350559881329536438e+01 -4.750669278437271714e-01
-1.398612771928310394e+01 1.121714666485786438e+01 -3.384397305781021714e-01
-1.327177225053310394e+01 1.185752752423286438e+01 -2.798002042109146714e-01
-1.349479471147060394e+01 1.188096502423286438e+01 -2.834165372187271714e-01
-1.463297830522060394e+01 1.274412420392036438e+01 -3.316953458124771714e-01
-1.384135232865810394e+01 1.182481268048286438e+01 -2.853238858515396714e-01
-1.361503396928310394e+01 1.143699529767036438e+01 -2.670438565546646714e-01
-1.629923807084560394e+01 1.361033514142036438e+01 -3.864438809687271714e-01
-1.357523904740810394e+01 1.104514959454536438e+01 -2.508390225702896714e-01
-1.390287576615810394e+01 1.114878728985786438e+01 -2.589261807734146714e-01
-1.326615701615810394e+01 1.185435369610786438e+01 -2.047574796015396714e-01
-1.401945291459560394e+01 1.237510564923286438e+01 -2.305143155390396714e-01
-1.547746072709560394e+01 1.352537420392036438e+01 -2.856595792109146714e-01
-1.345951639115810394e+01 1.148069646954536438e+01 -1.925809659296646714e-01
-1.352787576615810394e+01 1.136143377423286438e+01 -1.887510098749771714e-01
-1.646732889115810394e+01 1.376035955548286438e+01 -3.028714932734146714e-01
-1.358866678178310394e+01 1.105882146954536438e+01 -1.780545987421646714e-01
-1.705717264115810394e+01 1.382627752423286438e+01 -3.103788174921646714e-01
-1.327018533647060394e+01 1.186033514142036438e+01 -1.297757901484146714e-01
-1.389140115678310394e+01 1.225730779767036438e+01 -1.464536465937271714e-01
-1.336405740678310394e+01 1.157847478985786438e+01 -1.210782803827896714e-01
-1.384147439897060394e+01 1.182945135235786438e+01 -1.320798672968521714e-01
-1.343790994584560394e+01 1.128343084454536438e+01 -1.114347256952896714e-01
-1.361894021928310394e+01 1.126438787579536438e+01 -1.117246426874771714e-01
-1.371195779740810394e+01 1.116746404767036438e+01 -1.085050381952896714e-01
-1.402665506303310394e+01 1.125840643048286438e+01 -1.132200040156021714e-01
-1.327433572709560394e+01 1.186631658673286438e+01 -5.514505284372717142e-02
-1.404313455522060394e+01 1.240183904767036438e+01 -7.302835362497717142e-02
-1.443339334428310394e+01 1.256724432110786438e+01 -7.882669346872717142e-02
-1.384159646928310394e+01 1.183177068829536438e+01 -5.506875889841467142e-02
-1.372697244584560394e+01 1.154356268048286438e+01 -4.595926182810217142e-02
-1.356620584428310394e+01 1.122032049298286438e+01 -3.569009678903967142e-02
-1.365910135209560394e+01 1.112400701642036438e+01 -3.286722081247717142e-02
-1.375199685990810394e+01 1.102757146954536438e+01 -3.005960362497717142e-02
-1.327836404740810394e+01 1.187242010235786438e+01 1.992818934377282858e-02
-1.405839334428310394e+01 1.241856268048286438e+01 5.630703992210328579e-03
-1.447672830522060394e+01 1.260948064923286438e+01 1.007290906272828579e-03
-1.384171853959560394e+01 1.183409002423286438e+01 2.153036219533532858e-02
-1.397440896928310394e+01 1.176658514142036438e+01 2.362081629689782858e-02
-1.351420389115810394e+01 1.117686346173286438e+01 3.927633387502282858e-02
-1.377567850053310394e+01 1.122679021954536438e+01 3.831503016408532858e-02
-1.398136697709560394e+01 1.122434881329536438e+01 3.912374598439782858e-02
-1.328251443803310394e+01 1.187840154767036438e+01 9.463522059377282858e-02
-1.567411600053310394e+01 1.393699529767036438e+01 5.584737879689782858e-02
-1.451420389115810394e+01 1.264646795392036438e+01 8.189413172658532858e-02
-1.384184060990810394e+01 1.183640936017036438e+01 9.851095301564782858e-02
-1.397428689897060394e+01 1.176878240704536438e+01 1.008608065312728286e-01
-1.377946268022060394e+01 1.141184881329536438e+01 1.087038241093978286e-01
-1.399821268022060394e+01 1.142112615704536438e+01 1.095888338750228286e-01
-1.724076639115810394e+01 1.399339178204536438e+01 6.242391688283532858e-02
-1.328654275834560394e+01 1.188450506329536438e+01 1.697847567265853286e-01
-8.508466586470603943e+00 7.213850766420364380e+00 2.300722323125228286e-01
-8.717206820845603943e+00 7.297468930482864380e+00 2.300264559453353286e-01
-8.936078891158103943e+00 7.385115414857864380e+00 2.299959383672103286e-01
-9.164228305220603943e+00 7.476546078920364380e+00 2.299501620000228286e-01
-9.403730258345603943e+00 7.572493344545364380e+00 2.299043856328353286e-01
-9.653974398970603943e+00 7.672713071107864380e+00 2.298586092656478286e-01
-9.915815219283103943e+00 7.777327328920364380e+00 2.300722323125228286e-01
-8.226240023970603943e+00 7.056502133607864380e+00 2.741396151250228286e-01
-8.422040805220603943e+00 7.134016782045364380e+00 2.750398836797103286e-01
-8.626264438033103943e+00 7.214827328920364380e+00 2.759706698125228286e-01
-8.840253695845603943e+00 7.299544125795364380e+00 2.769319735234603286e-01
-9.063276156783103943e+00 7.387678891420364380e+00 2.779543123906478286e-01
-9.297284945845603943e+00 7.480330258607864380e+00 2.790224276250228286e-01
-9.541547641158103943e+00 7.577009946107864380e+00 2.801363192265853286e-01
-9.797529086470603943e+00 7.678328305482864380e+00 2.812959871953353286e-01
-8.175580844283103943e+00 7.009382992982864380e+00 3.171388827031478286e-01
-8.379438266158103943e+00 7.095320492982864380e+00 3.189241610234603286e-01
-8.596113070845603943e+00 7.188338071107864380e+00 3.208009920781478286e-01
-8.823652133345603943e+00 7.285750180482864380e+00 3.225404940312728286e-01
-9.062055453658103943e+00 7.388045102357864380e+00 3.246004305547103286e-01
-9.313886508345603943e+00 7.496321469545364380e+00 3.270265780156478286e-01
-9.577436313033103943e+00 7.609480649232864380e+00 3.293153963750228286e-01
-9.855024203658103943e+00 7.728621274232864380e+00 3.317262850468978286e-01
-8.238935336470603943e+00 7.071150571107864380e+00 3.602602205937728286e-01
-8.449140414595603943e+00 7.161970883607864380e+00 3.628389559453353286e-01
-8.669721469283103943e+00 7.257551938295364380e+00 3.657839022343978286e-01
-8.901899203658103943e+00 7.358137875795364380e+00 3.688814364140853286e-01
-9.144819125533103943e+00 7.463362485170364380e+00 3.721162996953353286e-01
-9.380536898970603943e+00 7.556380063295364380e+00 3.753816805547103286e-01
-9.624433383345603943e+00 7.651594907045364380e+00 3.787538729375228286e-01
-9.879560336470603943e+00 7.750960141420364380e+00 3.825685702031478286e-01
-7.618818148970603943e+00 5.808943539857864380e+00 -3.412931241327896714e-01
-7.663740023970603943e+00 5.759138852357864380e+00 -3.398130215937271714e-01
-7.706708773970603943e+00 5.707503110170364380e+00 -3.383024014765396714e-01
-7.749677523970603943e+00 5.655745297670364380e+00 -3.367917813593521714e-01
-7.792646273970603943e+00 5.604109555482864380e+00 -3.352811612421646714e-01
-7.835737094283103943e+00 5.552229672670364380e+00 -3.337705411249771714e-01
-7.878705844283103943e+00 5.500593930482864380e+00 -3.322599210077896714e-01
-7.919355258345603943e+00 5.447249203920364380e+00 -3.307187833124771714e-01
-8.041303500533103943e+00 6.167586117982864380e+00 -3.464048184687271714e-01
-8.091596469283103943e+00 6.116194516420364380e+00 -3.452298917109146714e-01
-8.141889438033103943e+00 6.064680844545364380e+00 -3.440549649531021714e-01
-8.195112094283103943e+00 6.015120297670364380e+00 -3.429258145624771714e-01
-8.245649203658103943e+00 5.963362485170364380e+00 -3.417356290156021714e-01
-8.293622836470603943e+00 5.909285336732864380e+00 -3.404996671015396714e-01
-8.344282016158103943e+00 5.857405453920364380e+00 -3.393094815546646714e-01
-8.395063266158103943e+00 5.805525571107864380e+00 -3.381345547968521714e-01
-8.573774203658103943e+00 6.619490414857864380e+00 -3.567807950312271714e-01
-8.628461703658103943e+00 6.564314633607864380e+00 -3.555143155390396714e-01
-8.683393344283103943e+00 6.509016782045364380e+00 -3.542478360468521714e-01
-8.738447055220603943e+00 6.453474789857864380e+00 -3.529813565546646714e-01
-8.793500766158103943e+00 6.397932797670364380e+00 -3.516996182734146714e-01
-8.848920688033103943e+00 6.342146664857864380e+00 -3.504331387812271714e-01
-8.904096469283103943e+00 6.286482602357864380e+00 -3.491514004999771714e-01
-8.959516391158103943e+00 6.230696469545364380e+00 -3.478849210077896714e-01
-9.377607211470603943e+00 7.301253110170364380e+00 -3.849027432734146714e-01
-9.426191195845603943e+00 7.229597836732864380e+00 -3.821256436640396714e-01
-9.465497836470603943e+00 7.150374203920364380e+00 -3.787992276484146714e-01
-9.504804477095603943e+00 7.071272641420364380e+00 -3.754880704218521714e-01
-9.543866977095603943e+00 6.992781430482864380e+00 -3.721921719843521714e-01
-9.582929477095603943e+00 6.914168149232864380e+00 -3.688962735468521714e-01
-9.627363070845603943e+00 6.840681821107864380e+00 -3.661039151484146714e-01
-9.676801547408103943e+00 6.770857602357864380e+00 -3.639676846796646714e-01
-1.006889139115810394e+01 7.888045102357864380e+00 -3.938291348749771714e-01
-1.014603982865810394e+01 7.830427914857864380e+00 -3.930967129999771714e-01
-1.022355447709560394e+01 7.772444516420364380e+00 -3.923642911249771714e-01
-1.030167947709560394e+01 7.714094907045364380e+00 -3.916318692499771714e-01
-1.037992654740810394e+01 7.655745297670364380e+00 -3.908994473749771714e-01
-1.044169412553310394e+01 7.583601742982864380e+00 -3.888089932734146714e-01
-1.050102029740810394e+01 7.509993344545364380e+00 -3.865659512812271714e-01
-1.056034646928310394e+01 7.436384946107864380e+00 -3.843229092890396714e-01
-1.135941873490810394e+01 8.982649594545364380e+00 -4.403531827265396714e-01
-1.133634744584560394e+01 8.823225766420364380e+00 -4.306485928827896714e-01
-1.063908182084560394e+01 8.114363461732864380e+00 -3.710935391718521714e-01
-1.132047830522060394e+01 8.535872250795364380e+00 -4.144742764765396714e-01
-1.142655740678310394e+01 8.485579282045364380e+00 -4.149015225702896714e-01
-1.153385721147060394e+01 8.434798032045364380e+00 -4.153287686640396714e-01
-1.164164529740810394e+01 8.383772641420364380e+00 -4.157712735468521714e-01
-1.174479471147060394e+01 8.328230649232864380e+00 -4.161374844843521714e-01
-1.597160135209560394e+01 1.289170721173286438e+01 -7.039487637812271714e-01
-1.619096170365810394e+01 1.286888006329536438e+01 -7.085264004999771714e-01
-1.063908182084560394e+01 8.115950375795364380e+00 -3.166349210077896714e-01
-1.669437967240810394e+01 1.286460760235786438e+01 -7.215574063593521714e-01
-1.704630838334560394e+01 1.293589666485786438e+01 -7.344816006952896714e-01
-1.745243631303310394e+01 1.304185369610786438e+01 -7.506559171015396714e-01
-1.275797830522060394e+01 9.239485532045364380e+00 -4.304807462031021714e-01
-1.287504373490810394e+01 9.179671078920364380e+00 -4.304654874140396714e-01
-1.625260721147060394e+01 1.313242986798286438e+01 -6.347043790156021714e-01
-1.659269510209560394e+01 1.320628240704536438e+01 -6.460416592890396714e-01
-1.063908182084560394e+01 8.117659360170364380e+00 -2.619016446406021714e-01
-1.725370584428310394e+01 1.331785467267036438e+01 -6.660001553827896714e-01
-1.756290994584560394e+01 1.334776189923286438e+01 -6.744840421015396714e-01
-1.788126932084560394e+01 1.337852361798286438e+01 -6.832120694452896714e-01
-1.828178201615810394e+01 1.346739080548286438e+01 -6.971586026484146714e-01
-1.862492166459560394e+01 1.350547674298286438e+01 -7.068021573359146714e-01
-1.655045877397060394e+01 1.338755682110786438e+01 -5.626066006952896714e-01
-1.683451639115810394e+01 1.341062811017036438e+01 -5.690915860468521714e-01
-1.063895975053310394e+01 8.119246274232864380e+00 -2.074582852656021714e-01
-1.743644510209560394e+01 1.346787908673286438e+01 -5.832212247187271714e-01
-1.775163064897060394e+01 1.350010564923286438e+01 -5.907285489374771714e-01
-1.818449197709560394e+01 1.361765936017036438e+01 -6.044004239374771714e-01
-1.859196268022060394e+01 1.370774725079536438e+01 -6.163327969843521714e-01
-1.885136209428310394e+01 1.367881658673286438e+01 -6.199491299921646714e-01
-1.398649393022060394e+01 1.121678045392036438e+01 -3.384244717890396714e-01
-1.407243143022060394e+01 1.111106756329536438e+01 -3.352048672968521714e-01
-1.063895975053310394e+01 8.120833188295364380e+00 -1.530301846796646714e-01
-1.762333475053310394e+01 1.362132146954536438e+01 -4.985196866327896714e-01
-1.805558572709560394e+01 1.374388006329536438e+01 -5.104978360468521714e-01
-1.851872049272060394e+01 1.388084295392036438e+01 -5.235898770624771714e-01
-1.891203103959560394e+01 1.395579412579536438e+01 -5.329282559687271714e-01
-1.885233865678310394e+01 1.368260076642036438e+01 -5.202176846796646714e-01
-1.390311990678310394e+01 1.114842107892036438e+01 -2.589109219843521714e-01
-1.438395486772060394e+01 1.137303045392036438e+01 -2.736814297968521714e-01
-1.063895975053310394e+01 8.122542172670364380e+00 -9.831216710153967142e-02
-1.792460428178310394e+01 1.386704900860786438e+01 -4.161680020624771714e-01
-1.838871560990810394e+01 1.401072576642036438e+01 -4.274747647577896714e-01
-1.886832986772060394e+01 1.415623357892036438e+01 -4.390409268671646714e-01
-1.935038553178310394e+01 1.429453924298286438e+01 -4.503476895624771714e-01
-1.885319314897060394e+01 1.368650701642036438e+01 -4.199674405390396714e-01
-1.705888162553310394e+01 1.382688787579536438e+01 -3.104093350702896714e-01
-1.390617166459560394e+01 1.097691228985786438e+01 -1.776883878046646714e-01
-1.063883768022060394e+01 8.124129086732864380e+00 -4.391458409372717142e-02
-1.825871072709560394e+01 1.413926580548286438e+01 -3.320768155390396714e-01
-1.873344217240810394e+01 1.428697088360786438e+01 -3.415372647577896714e-01
-1.913639627397060394e+01 1.436814764142036438e+01 -3.479306973749771714e-01
-1.953812967240810394e+01 1.444163396954536438e+01 -3.540189542109146714e-01
-1.885416971147060394e+01 1.369041326642036438e+01 -3.202512540156021714e-01
-1.402677713334560394e+01 1.125779607892036438e+01 -1.132047452265396714e-01
-1.444511209428310394e+01 1.142869451642036438e+01 -1.210782803827896714e-01
-1.063883768022060394e+01 8.125716000795364380e+00 1.049825770314782858e-02
-1.851017557084560394e+01 1.434507635235786438e+01 -2.413633145624771714e-01
-1.888334451615810394e+01 1.440891912579536438e+01 -2.453305997187271714e-01
-1.932157693803310394e+01 1.451560857892036438e+01 -2.510984219843521714e-01
-1.856791482865810394e+01 1.370176580548286438e+01 -2.189176358515396714e-01
-1.885514627397060394e+01 1.369419744610786438e+01 -2.200162686640396714e-01
-1.400541482865810394e+01 1.124192693829536438e+01 -3.712442296091467142e-02
-1.444791971147060394e+01 1.143333318829536438e+01 -4.368570225778967142e-02
-1.063883768022060394e+01 8.127302914857864380e+00 6.517049891408532858e-02
-1.865275369584560394e+01 1.446311834454536438e+01 -1.442563809687271714e-01
-1.823588357865810394e+01 1.389878728985786438e+01 -1.259458340937271714e-01
-1.836356912553310394e+01 1.377220037579536438e+01 -1.220853604609146714e-01
-1.849503885209560394e+01 1.364890936017036438e+01 -1.183469571406021714e-01
-1.885612283647060394e+01 1.369810369610786438e+01 -1.203153409296646714e-01
-1.398148904740810394e+01 1.122386053204536438e+01 3.913900477346032858e-02
-1.806181131303310394e+01 1.445127752423286438e+01 -4.408243077341467142e-02
-1.063871560990810394e+01 8.129011899232864380e+00 1.195528231328353286e-01
-1.880485330522060394e+01 1.458897283673286438e+01 -4.623392003122717142e-02
-1.821403299272060394e+01 1.388450506329536438e+01 -2.741983311716467142e-02
-1.834159646928310394e+01 1.375816228985786438e+01 -2.348306553903967142e-02
-1.846891580522060394e+01 1.363194158673286438e+01 -1.954629796091467142e-02
-1.885709939897060394e+01 1.370200994610786438e+01 -2.008035557810217142e-02
-1.724125467240810394e+01 1.399302557110786438e+01 6.243917567189782858e-02
-1.819877420365810394e+01 1.456858709454536438e+01 5.332967860158532858e-02
-1.063871560990810394e+01 8.130598813295364380e+00 1.742250643437728286e-01
-1.899564920365810394e+01 1.474595525860786438e+01 5.354330164846032858e-02
-1.945634256303310394e+01 1.487278631329536438e+01 5.303976160939782858e-02
-1.990299783647060394e+01 1.497862127423286438e+01 5.299398524221032858e-02
-2.028678689897060394e+01 1.502842596173286438e+01 5.403158289846032858e-02
-1.885807596147060394e+01 1.370579412579536438e+01 7.962057215627282858e-02
-9.917524203658103943e+00 7.778303891420364380e+00 2.300722323125228286e-01
-1.019364725053310394e+01 7.889021664857864380e+00 2.299043856328353286e-01
-1.048368631303310394e+01 8.004988461732864380e+00 2.300264559453353286e-01
-1.079032693803310394e+01 8.127669125795364380e+00 2.301485262578353286e-01
-1.106242166459560394e+01 8.216536313295364380e+00 2.307283602422103286e-01
-1.135526834428310394e+01 8.315535336732864380e+00 2.312624178593978286e-01
-1.166117654740810394e+01 8.418928891420364380e+00 2.318269930547103286e-01
-1.198148904740810394e+01 8.526961117982864380e+00 2.327425203984603286e-01
-9.799116000533103943e+00 7.679304867982864380e+00 2.812959871953353286e-01
-1.006767068803310394e+01 7.785383969545364380e+00 2.826997957890853286e-01
-1.035136209428310394e+01 7.897932797670364380e+00 2.841798983281478286e-01
-1.067387185990810394e+01 8.035383969545364380e+00 2.856905184453353286e-01
-1.097831521928310394e+01 8.151594907045364380e+00 2.873689852422103286e-01
-1.128788553178310394e+01 8.264754086732864380e+00 2.891695223515853286e-01
-1.161259256303310394e+01 8.383528500795364380e+00 2.910768709843978286e-01
-1.195487771928310394e+01 8.508772641420364380e+00 2.930757723515853286e-01
-9.856733188033103943e+00 7.729719907045364380e+00 3.317262850468978286e-01
-1.015019021928310394e+01 7.855818539857864380e+00 3.344881258672103286e-01
-1.046049295365810394e+01 7.989241391420364380e+00 3.374025545781478286e-01
-1.073844705522060394e+01 8.089094907045364380e+00 3.400575838750228286e-01
-1.108195291459560394e+01 8.235457211732864380e+00 3.432924471562728286e-01
-1.139701639115810394e+01 8.351790219545364380e+00 3.468782625859603286e-01
-1.170011697709560394e+01 8.452498227357864380e+00 3.502351961797103286e-01
-1.201798807084560394e+01 8.558211117982864380e+00 3.537599764531478286e-01
-9.881025180220603943e+00 7.751936703920364380e+00 3.825838289922103286e-01
-1.014933572709560394e+01 7.856673032045364380e+00 3.862764559453353286e-01
-1.043070779740810394e+01 7.966414242982864380e+00 3.904268465703353286e-01
-1.072782693803310394e+01 8.082258969545364380e+00 3.948213778203353286e-01
-1.100150857865810394e+01 8.173323422670364380e+00 3.990785799687728286e-01
-1.128617654740810394e+01 8.266951352357864380e+00 4.035341463750228286e-01
-1.158317361772060394e+01 8.364607602357864380e+00 4.081728182500228286e-01
-1.189384256303310394e+01 8.466536313295364380e+00 4.133608065312728286e-01
-7.919477328658103943e+00 5.447005063295364380e+00 -3.307035245234146714e-01
-7.962812289595603943e+00 5.395491391420364380e+00 -3.291929044062271714e-01
-8.003827914595603943e+00 5.342268735170364380e+00 -3.276670254999771714e-01
-8.046918734908103943e+00 5.290266782045364380e+00 -3.263089932734146714e-01
-8.087324008345603943e+00 5.236433774232864380e+00 -3.247068204218521714e-01
-8.127485141158103943e+00 5.182112485170364380e+00 -3.230436124140396714e-01
-8.167402133345603943e+00 5.127913266420364380e+00 -3.213804044062271714e-01
-8.204755648970603943e+00 5.071882992982864380e+00 -3.196714200312271714e-01
-8.395185336470603943e+00 5.805281430482864380e+00 -3.381192960077896714e-01
-8.443891391158103943e+00 5.751692563295364380e+00 -3.368833340937271714e-01
-8.492597445845603943e+00 5.697859555482864380e+00 -3.356626309687271714e-01
-8.544477328658103943e+00 5.645857602357864380e+00 -3.344724454218521714e-01
-8.593549594283103943e+00 5.591902524232864380e+00 -3.332364835077896714e-01
-8.639936313033103943e+00 5.535628110170364380e+00 -3.319394864374771714e-01
-8.689008578658103943e+00 5.481428891420364380e+00 -3.307035245234146714e-01
-8.738324984908103943e+00 5.427229672670364380e+00 -3.294675626093521714e-01
-8.959638461470603943e+00 6.230452328920364380e+00 -3.478696622187271714e-01
-9.012861117720603943e+00 6.172957211732864380e+00 -3.465574063593521714e-01
-9.066205844283103943e+00 6.115217953920364380e+00 -3.452298917109146714e-01
-9.119916781783103943e+00 6.057234555482864380e+00 -3.439023770624771714e-01
-9.173505648970603943e+00 5.999373227357864380e+00 -3.425748624140396714e-01
-9.227460727095603943e+00 5.941145688295364380e+00 -3.412473477656021714e-01
-9.281293734908103943e+00 5.882918149232864380e+00 -3.399198331171646714e-01
-9.335248813033103943e+00 5.824568539857864380e+00 -3.385770596796646714e-01
-9.676801547408103943e+00 6.770613461732864380e+00 -3.639524258906021714e-01
-9.732099398970603943e+00 6.705305844545364380e+00 -3.619687833124771714e-01
-9.783246859908103943e+00 6.636824399232864380e+00 -3.598783292109146714e-01
-9.834638461470603943e+00 6.568098813295364380e+00 -3.577726163202896714e-01
-9.885785922408103943e+00 6.499617367982864380e+00 -3.556821622187271714e-01
-9.937177523970603943e+00 6.430769711732864380e+00 -3.535917081171646714e-01
-9.988324984908103943e+00 6.362288266420364380e+00 -3.515012540156021714e-01
-1.003654275834560394e+01 6.291487485170364380e+00 -3.494107999140396714e-01
-1.056046853959560394e+01 7.436018735170364380e+00 -3.843076504999771714e-01
-1.061723123490810394e+01 7.360335141420364380e+00 -3.820035733515396714e-01
-1.067436014115810394e+01 7.285017758607864380e+00 -3.797147549921646714e-01
-1.074137674272060394e+01 7.216170102357864380e+00 -3.781430997187271714e-01
-1.080827127397060394e+01 7.147444516420364380e+00 -3.765714444452896714e-01
-1.087565408647060394e+01 7.078230649232864380e+00 -3.749845303827896714e-01
-1.094291482865810394e+01 7.009016782045364380e+00 -3.733976163202896714e-01
-1.101029764115810394e+01 6.939680844545364380e+00 -3.718107022577896714e-01
-1.174528299272060394e+01 8.328108578920364380e+00 -4.161374844843521714e-01
-1.184977518022060394e+01 8.272444516420364380e+00 -4.160459317499771714e-01
-1.190983377397060394e+01 8.183455258607864380e+00 -4.131009854609146714e-01
-1.197013650834560394e+01 8.094221860170364380e+00 -4.101560391718521714e-01
-1.203007303178310394e+01 8.005232602357864380e+00 -4.072263516718521714e-01
-1.207877908647060394e+01 7.908186703920364380e+00 -4.035032071406021714e-01
-1.212760721147060394e+01 7.811873227357864380e+00 -3.998258389765396714e-01
-1.216850076615810394e+01 7.710676938295364380e+00 -3.959653653437271714e-01
-1.287553201615810394e+01 9.179549008607864380e+00 -4.304807462031021714e-01
-1.299101053178310394e+01 9.117537289857864380e+00 -4.304044522577896714e-01
-1.310746560990810394e+01 9.054915219545364380e+00 -4.303434171015396714e-01
-1.322526346147060394e+01 8.991560727357864380e+00 -4.302823819452896714e-01
-1.334367166459560394e+01 8.927840024232864380e+00 -4.302060879999771714e-01
-1.346342264115810394e+01 8.863508969545364380e+00 -4.301450528437271714e-01
-1.358378396928310394e+01 8.798689633607864380e+00 -4.300687588984146714e-01
-1.370512185990810394e+01 8.733504086732864380e+00 -4.300077237421646714e-01
-1.862675271928310394e+01 1.350608709454536438e+01 -7.068784512812271714e-01
-1.897941385209560394e+01 1.354490545392036438e+01 -7.169034756952896714e-01
-1.935233865678310394e+01 1.359214666485786438e+01 -7.272641934687271714e-01
-1.329960428178310394e+01 9.046736508607864380e+00 -3.678891934687271714e-01
-2.029496560990810394e+01 1.380369451642036438e+01 -7.592466153437271714e-01
-1.541239725053310394e+01 1.020799139142036438e+01 -4.727781094843521714e-01
-1.473368631303310394e+01 9.578963071107864380e+00 -4.271085538202896714e-01
-1.561613260209560394e+01 1.000572088360786438e+01 -4.681241788202896714e-01
-1.885062967240810394e+01 1.367747381329536438e+01 -6.198728360468521714e-01
-1.931913553178310394e+01 1.379917791485786438e+01 -6.344907559687271714e-01
-1.986771951615810394e+01 1.396983221173286438e+01 -6.528928555781021714e-01
-1.329972635209560394e+01 9.048811703920364380e+00 -3.011625088984146714e-01
-2.077860818803310394e+01 1.414622381329536438e+01 -6.785581387812271714e-01
-2.114262185990810394e+01 1.415830877423286438e+01 -6.861570157343521714e-01
-1.473368631303310394e+01 9.581282407045364380e+00 -3.532102383906021714e-01
-2.088444314897060394e+01 1.351011541485786438e+01 -6.515653409296646714e-01
-1.885160623490810394e+01 1.368138006329536438e+01 -5.201566495234146714e-01
-1.996720682084560394e+01 1.428159978985786438e+01 -5.633695401484146714e-01
-2.034733377397060394e+01 1.432163885235786438e+01 -5.710141934687271714e-01
-1.329972635209560394e+01 9.051008969545364380e+00 -2.344510831171646714e-01
-2.110880838334560394e+01 1.438133123517036438e+01 -5.854642667109146714e-01
-2.148429666459560394e+01 1.439720037579536438e+01 -5.919950284296646714e-01
-1.473368631303310394e+01 9.583723813295364380e+00 -2.797239102656021714e-01
-2.088163553178310394e+01 1.351170232892036438e+01 -5.445096768671646714e-01
-1.885258279740810394e+01 1.368516424298286438e+01 -4.199064053827896714e-01
-2.015763650834560394e+01 1.442576482892036438e+01 -4.652097501093521714e-01
-2.052103982865810394e+01 1.445127752423286438e+01 -4.705503262812271714e-01
-1.329972635209560394e+01 9.053206235170364380e+00 -1.673887051874771714e-01
-2.132121072709560394e+01 1.453391912579536438e+01 -4.833371915156021714e-01
-2.170158182084560394e+01 1.455064275860786438e+01 -4.885099210077896714e-01
-1.473368631303310394e+01 9.586043149232864380e+00 -2.058561124140396714e-01
-2.087870584428310394e+01 1.351341131329536438e+01 -4.369352139765396714e-01
-1.885355935990810394e+01 1.368907049298286438e+01 -3.202054776484146714e-01
-2.032792459428310394e+01 1.455503728985786438e+01 -3.647458829218521714e-01
-2.069694314897060394e+01 1.458262518048286438e+01 -3.687742032343521714e-01
-1.329972635209560394e+01 9.055281430482864380e+00 -1.007077969843521714e-01
-2.037321268022060394e+01 1.387217596173286438e+01 -3.393857754999771714e-01
-2.047306619584560394e+01 1.370725896954536438e+01 -3.339841641718521714e-01
-1.473356424272060394e+01 9.588484555482864380e+00 -1.323850430781021714e-01
-2.087589822709560394e+01 1.351499822735786438e+01 -3.299863614374771714e-01
-1.885453592240810394e+01 1.369297674298286438e+01 -2.199704922968521714e-01
-2.050224100053310394e+01 1.468748357892036438e+01 -2.619016446406021714e-01
-2.091935525834560394e+01 1.474766424298286438e+01 -2.664029874140396714e-01
-1.329972635209560394e+01 9.057478696107864380e+00 -3.402688878122717142e-02
-1.935648904740810394e+01 1.316184881329536438e+01 -2.040708340937271714e-01
-1.951737771928310394e+01 1.305149725079536438e+01 -2.009122647577896714e-01
-1.473356424272060394e+01 9.590803891420364380e+00 -5.853250401560217142e-02
-2.087309060990810394e+01 1.351658514142036438e+01 -2.225187100702896714e-01
-1.885539041459560394e+01 1.369676092267036438e+01 -1.202695645624771714e-01
-2.070646463334560394e+01 1.484202459454536438e+01 -1.584012784296646714e-01
-2.114640603959560394e+01 1.491636541485786438e+01 -1.610563077265396714e-01
-1.329972635209560394e+01 9.059553891420364380e+00 3.300497157033532858e-02
-2.197819314897060394e+01 1.500596502423286438e+01 -1.644437588984146714e-01
-1.947099100053310394e+01 1.302281072735786438e+01 -9.881570714060217142e-02
-1.473356424272060394e+01 9.593123227357864380e+00 1.490804774221032858e-02
-2.087028299272060394e+01 1.351817205548286438e+01 -1.156461514765396714e-01
-1.885636697709560394e+01 1.370066717267036438e+01 -2.003457921091467142e-02
-2.093925271928310394e+01 1.501780584454536438e+01 -5.311563389841467142e-02
-2.136637674272060394e+01 1.507993963360786438e+01 -5.361917393747717142e-02
-1.329984842240810394e+01 9.061751157045364380e+00 9.967062098439782858e-02
-2.042606912553310394e+01 1.391941717267036438e+01 -2.210977452341467142e-02
-1.944804178178310394e+01 1.301023748517036438e+01 1.800747937522828579e-03
-1.473356424272060394e+01 9.595564633607864380e+00 8.834859950002282858e-02
-2.029874978959560394e+01 1.314109686017036438e+01 1.159878796897828579e-03
-1.885734353959560394e+01 1.370457342267036438e+01 7.965108973439782858e-02
-1.833744607865810394e+01 1.309483221173286438e+01 9.252950770314782858e-02
-2.159257303178310394e+01 1.524815252423286438e+01 5.683920008596032858e-02
-1.329984842240810394e+01 9.063826352357864380e+00 1.666719637578353286e-01
-1.889506326615810394e+01 1.284727361798286438e+01 1.030885897343978286e-01
-1.395451150834560394e+01 9.221785336732864380e+00 1.669313631718978286e-01
-1.431913553178310394e+01 9.317000180482864380e+00 1.668855868047103286e-01
-1.470121560990810394e+01 9.416609555482864380e+00 1.668398104375228286e-01
-1.198356424272060394e+01 8.527937680482864380e+00 2.327272616093978286e-01
-1.232157693803310394e+01 8.642439633607864380e+00 2.332308016484603286e-01
-1.267667947709560394e+01 8.762312680482864380e+00 2.340852938359603286e-01
-1.305253396928310394e+01 8.889143735170364380e+00 2.350008211797103286e-01
-1.344816385209560394e+01 9.022688657045364380e+00 2.359621248906478286e-01
-1.379069314897060394e+01 9.110945492982864380e+00 2.374574862187728286e-01
-1.414665018022060394e+01 9.202254086732864380e+00 2.390138827031478286e-01
-1.454398904740810394e+01 9.314314633607864380e+00 2.409059725468978286e-01
-1.195707498490810394e+01 8.509993344545364380e+00 2.930757723515853286e-01
-1.231913553178310394e+01 8.642561703920364380e+00 2.954103670781478286e-01
-1.270231424272060394e+01 8.782942563295364380e+00 2.978822909062728286e-01
-1.310990701615810394e+01 8.932234555482864380e+00 3.005220614140853286e-01
-1.352287088334560394e+01 9.077376157045364380e+00 3.033144198125228286e-01
-1.389359842240810394e+01 9.184309750795364380e+00 3.063356600468978286e-01
-1.428178201615810394e+01 9.296248227357864380e+00 3.095094881718978286e-01
-1.467179666459560394e+01 9.401716977357864380e+00 3.128359041875228286e-01
-1.202006326615810394e+01 8.559309750795364380e+00 3.537752352422103286e-01
-1.235343728959560394e+01 8.670027524232864380e+00 3.577120028203353286e-01
-1.270438943803310394e+01 8.786482602357864380e+00 3.618776522343978286e-01
-1.307609353959560394e+01 8.910139828920364380e+00 3.659212313359603286e-01
-1.341093240678310394e+01 9.000838071107864380e+00 3.702699862187728286e-01
-1.380082498490810394e+01 9.122420102357864380e+00 3.753969393437728286e-01
-1.415287576615810394e+01 9.211043149232864380e+00 3.800966463750228286e-01
-1.452116189897060394e+01 9.303816586732864380e+00 3.850252352422103286e-01
-1.189579568803310394e+01 8.467512875795364380e+00 4.133913241093978286e-01
-1.225333963334560394e+01 8.597639828920364380e+00 4.187624178593978286e-01
-1.264689432084560394e+01 8.746687680482864380e+00 4.249422274297103286e-01
-1.306657205522060394e+01 8.905501157045364380e+00 4.315187655156478286e-01
-1.349906717240810394e+01 9.064924985170364380e+00 4.383852205937728286e-01
-1.387980447709560394e+01 9.179182797670364380e+00 4.448396883672103286e-01
-1.427921853959560394e+01 9.299055844545364380e+00 4.516298495000228286e-01
-2.064787088334560394e+01 1.339073064923286438e+01 5.245210848515853286e-01
-8.204877719283103943e+00 5.071760922670364380e+00 -3.196866788202896714e-01
-8.245282992720603943e+00 5.017805844545364380e+00 -3.180387296015396714e-01
-8.283002719283103943e+00 4.962019711732864380e+00 -3.163297452265396714e-01
-8.320844516158103943e+00 4.905989438295364380e+00 -3.146207608515396714e-01
-8.358564242720603943e+00 4.850203305482864380e+00 -3.129117764765396714e-01
-8.396528109908103943e+00 4.794050961732864380e+00 -3.112027921015396714e-01
-8.434247836470603943e+00 4.738142758607864380e+00 -3.094938077265396714e-01
-8.469282016158103943e+00 4.680525571107864380e+00 -3.077390469843521714e-01
-8.738569125533103943e+00 5.427107602357864380e+00 -3.294675626093521714e-01
-8.785688266158103943e+00 5.371199399232864380e+00 -3.281858243281021714e-01
-8.832929477095603943e+00 5.315169125795364380e+00 -3.269040860468521714e-01
-8.880536898970603943e+00 5.258772641420364380e+00 -3.254087247187271714e-01
-8.921552523970603943e+00 5.198469907045364380e+00 -3.235776700312271714e-01
-8.959516391158103943e+00 5.135969907045364380e+00 -3.216703213984146714e-01
-9.000532016158103943e+00 5.075667172670364380e+00 -3.198240079218521714e-01
-9.041547641158103943e+00 5.015242367982864380e+00 -3.179776944452896714e-01
-9.335492953658103943e+00 5.824568539857864380e+00 -3.385923184687271714e-01
-9.387250766158103943e+00 5.764509946107864380e+00 -3.372190274531021714e-01
-9.439130648970603943e+00 5.704329282045364380e+00 -3.358457364374771714e-01
-9.491376742720603943e+00 5.643904477357864380e+00 -3.344571866327896714e-01
-9.543500766158103943e+00 5.583479672670364380e+00 -3.330686368281021714e-01
-9.595991000533103943e+00 5.522566586732864380e+00 -3.316800870234146714e-01
-9.648481234908103943e+00 5.461897641420364380e+00 -3.302915372187271714e-01
-9.700971469283103943e+00 5.400862485170364380e+00 -3.289029874140396714e-01
-1.003678689897060394e+01 6.291487485170364380e+00 -3.494260587031021714e-01
-1.010624490678310394e+01 6.234602719545364380e+00 -3.486173428827896714e-01
-1.017204080522060394e+01 6.174910336732864380e+00 -3.477475919062271714e-01
-1.023832498490810394e+01 6.114729672670364380e+00 -3.468778409296646714e-01
-1.030473123490810394e+01 6.054426938295364380e+00 -3.460080899531021714e-01
-1.037162576615810394e+01 5.993635922670364380e+00 -3.451230801874771714e-01
-1.043864236772060394e+01 5.932844907045364380e+00 -3.442380704218521714e-01
-1.050102029740810394e+01 5.868757992982864380e+00 -3.432462491327896714e-01
-1.101054178178310394e+01 6.939558774232864380e+00 -3.718107022577896714e-01
-1.107572732865810394e+01 6.868391782045364380e+00 -3.701780118281021714e-01
-1.114103494584560394e+01 6.796980649232864380e+00 -3.685453213984146714e-01
-1.120683084428310394e+01 6.725081235170364380e+00 -3.669126309687271714e-01
-1.127262674272060394e+01 6.653303891420364380e+00 -3.652646817499771714e-01
-1.133878885209560394e+01 6.580916196107864380e+00 -3.636014737421646714e-01
-1.140495096147060394e+01 6.508650571107864380e+00 -3.619535245234146714e-01
-1.147135721147060394e+01 6.436262875795364380e+00 -3.603055753046646714e-01
-1.216886697709560394e+01 7.710432797670364380e+00 -3.959653653437271714e-01
-1.222196756303310394e+01 7.617659360170364380e+00 -3.924253262812271714e-01
-1.226847635209560394e+01 7.520735532045364380e+00 -3.887784756952896714e-01
