-1.461152383685112000e+01 6.361955795437097549e+00 -1.054157520318398156e+00
-1.198176309466362000e+01 6.381731186062097549e+00 -8.835947761777731557e-01
-1.212153360247612000e+01 6.311662826687097549e+00 -8.856699714902731557e-01
-1.189912149310112000e+01 6.104997787624597549e+00 -8.667948494199606557e-01
-1.196955606341362000e+01 6.009172592312097549e+00 -8.651011238340231557e-01
-1.204011270403862000e+01 5.913103256374597549e+00 -8.634073982480856557e-01
-1.116767618060112000e+01 5.498186264187097549e+00 -8.082163582090231557e-01
-1.485310098528862000e+01 6.590105209499597549e+00 -1.009952808404335656e+00
-1.503132364153862000e+01 6.496477279812097549e+00 -1.013096118951210656e+00
-1.181757852435112000e+01 6.318742904812097549e+00 -8.212931404355856557e-01
-1.211457559466362000e+01 6.310808334499597549e+00 -8.317148933652731557e-01
-1.303791543841362000e+01 6.529558334499597549e+00 -8.753092537168356557e-01
-1.194172403216362000e+01 6.000871811062097549e+00 -8.111765632871481557e-01
-1.132917520403862000e+01 5.667009506374597549e+00 -7.735636482480856557e-01
-1.119099161028862000e+01 5.507585678249597549e+00 -7.612040291074606557e-01
-1.514326211810112000e+01 6.687029037624597549e+00 -9.590189705137106557e-01
-1.519294473528862000e+01 6.549699936062097549e+00 -9.545023689512106557e-01
-1.196137735247612000e+01 6.377092514187097549e+00 -7.761271248105856557e-01
-1.177497598528862000e+01 6.182512436062097549e+00 -7.612345466855856557e-01
-1.160126993060112000e+01 5.997820053249597549e+00 -7.474711189512106557e-01
-1.149738809466362000e+01 5.842668686062097549e+00 -7.372477302793356557e-01
-1.497248575091362000e+01 6.939470443874597549e+00 -8.971140632871481557e-01
-1.121455118060112000e+01 5.517229232937097549e+00 -7.137491951230856557e-01
-1.396516153216362000e+01 6.304460678249597549e+00 -8.366739998105856557e-01
-1.517915078997612000e+01 6.547624740749597549e+00 -8.866617927793356557e-01
-1.197797891497612000e+01 6.385393295437097549e+00 -7.236216316465231557e-01
-1.174799844622612000e+01 6.173967514187097549e+00 -7.081797371152731557e-01
-1.154658243060112000e+01 5.979265365749597549e+00 -6.942637214902731557e-01
-1.188654825091362000e+01 5.984514389187097549e+00 -7.038767585996481557e-01
-1.195637246966362000e+01 5.889177475124597549e+00 -7.017100105527731557e-01
-1.123798868060112000e+01 5.526750717312097549e+00 -6.663096199277731557e-01
-1.517890664935112000e+01 6.703264389187097549e+00 -8.257334480527731557e-01
-1.516535684466362000e+01 6.545549545437097549e+00 -8.185923347715231557e-01
-1.197675821185112000e+01 6.386613998562097549e+00 -6.705210457090231557e-01
-1.141181680560112000e+01 6.046770248562097549e+00 -6.432841072324606557e-01
-1.178974649310112000e+01 6.071306381374597549e+00 -6.528361091855856557e-01
-1.149433633685112000e+01 5.844865951687097549e+00 -6.365854988340231557e-01
-1.140229532122612000e+01 5.697405014187097549e+00 -6.283304939512106557e-01
-1.126179239153862000e+01 5.536394271999597549e+00 -6.183970222715231557e-01
-1.511396524310112000e+01 6.684221420437097549e+00 -7.559702644590231557e-01
-1.417316934466362000e+01 6.234270248562097549e+00 -7.154124031308981557e-01
-1.145905801653862000e+01 6.184099350124597549e+00 -5.992319832090231557e-01
-1.208332559466362000e+01 6.305803451687097549e+00 -6.159250984433981557e-01
-1.143879434466362000e+01 5.942400131374597549e+00 -5.892222175840231557e-01
-1.144099161028862000e+01 5.827287826687097549e+00 -5.846903572324606557e-01
-1.142670938372612000e+01 5.707536850124597549e+00 -5.796396980527731557e-01
-1.128559610247612000e+01 5.546037826687097549e+00 -5.705302009824606557e-01
-1.381025430560112000e+01 6.260027084499597549e+00 -6.468546638730856557e-01
-1.411274453997612000e+01 6.217302475124597549e+00 -6.508829841855856557e-01
-1.138093301653862000e+01 6.154802475124597549e+00 -5.464213142637106557e-01
-1.138337442278862000e+01 6.039201889187097549e+00 -5.420420418027731557e-01
-1.301862832903862000e+01 6.531877670437097549e+00 -5.848429451230856557e-01
-1.539643594622612000e+01 7.255754623562097549e+00 -6.473734627012106557e-01
-1.139069864153862000e+01 5.696672592312097549e+00 -5.290262947324606557e-01
-1.130939981341362000e+01 5.555803451687097549e+00 -5.224497566465231557e-01
-1.507478067278862000e+01 6.675920639187097549e+00 -6.204569587949606557e-01
-1.507636758685112000e+01 6.524187240749597549e+00 -6.146738777402731557e-01
-1.132795450091362000e+01 6.135515365749597549e+00 -4.947550544980856557e-01
-1.133064004778862000e+01 6.020647201687097549e+00 -4.905588875058981557e-01
-1.301472207903862000e+01 6.532243881374597549e+00 -5.266917000058981557e-01
-1.133576700091362000e+01 5.792619857937097549e+00 -4.822428474668356557e-01
-1.184663125872612000e+01 5.857683334499597549e+00 -4.898875007871481557e-01
-1.133356973528862000e+01 5.565569076687097549e+00 -4.738657722715231557e-01
-1.507319375872612000e+01 6.677629623562097549e+00 -5.532267341855856557e-01
-1.399409219622612000e+01 6.183977279812097549e+00 -5.239756355527731557e-01
-1.164387246966362000e+01 6.261980209499597549e+00 -4.512064705137106557e-01
-1.127863809466362000e+01 6.002336654812097549e+00 -4.398844490293356557e-01
-1.301081582903862000e+01 6.532732162624597549e+00 -4.689066658262106557e-01
-1.310908243060112000e+01 6.434465561062097549e+00 -4.660380134824606557e-01
-1.181965371966362000e+01 5.849992904812097549e+00 -4.377634773496481557e-01
-1.395869180560112000e+01 6.456194076687097549e+00 -4.718668709043356557e-01
-1.365913125872612000e+01 6.216692123562097549e+00 -4.616587410215231557e-01
-1.393574258685112000e+01 6.167497787624597549e+00 -4.615671882871481557e-01
-1.162519571185112000e+01 6.256242904812097549e+00 -3.992808113340231557e-01
-1.163251993060112000e+01 6.139787826687097549e+00 -3.953745613340231557e-01
-1.292670938372612000e+01 6.503313217312097549e+00 -4.100229988340231557e-01
-1.320686075091362000e+01 6.471697006374597549e+00 -4.094279060605856557e-01
-1.319172403216362000e+01 6.331804428249597549e+00 -4.046824226621481557e-01
-1.393110391497612000e+01 6.448869857937097549e+00 -4.098551521543356557e-01
-1.531892129778862000e+01 6.762590561062097549e+00 -4.223368416074606557e-01
-1.023994180560112000e+01 4.998918686062097549e+00 -3.547098884824606557e-01
-8.863476961851119995e+00 5.165666732937097549e+00 -3.203623543027731557e-01
-9.027173250913619995e+00 5.140886459499597549e+00 -3.191263923887106557e-01
-9.196606844663619995e+00 5.115129623562097549e+00 -3.178446541074606557e-01
-9.372998446226119995e+00 5.088274154812097549e+00 -3.165171394590231557e-01
-9.555371493101119995e+00 5.060564193874597549e+00 -3.151285896543356557e-01
-9.744702547788619995e+00 5.031877670437097549e+00 -3.136942634824606557e-01
-9.942090243101119995e+00 5.001848373562097549e+00 -3.121989021543356557e-01
-1.014655801653862000e+01 4.970842514187097549e+00 -3.106577644590231557e-01
-8.794385164976119995e+00 5.139543686062097549e+00 -2.821390877012106557e-01
-8.955640047788619995e+00 5.114641342312097549e+00 -2.804453621152731557e-01
-9.122388094663619995e+00 5.088640365749597549e+00 -2.784922371152731557e-01
-9.295605868101119995e+00 5.061662826687097549e+00 -2.764475593808981557e-01
-9.478589266538619995e+00 5.035051498562097549e+00 -2.743571052793356557e-01
-9.678052157163619995e+00 5.010637436062097549e+00 -2.722056160215231557e-01
-9.886548250913619995e+00 4.985002670437097549e+00 -2.699625740293356557e-01
-1.010358926653862000e+01 4.958635482937097549e+00 -2.673990974668356557e-01
-8.808057039976119995e+00 5.146135482937097549e+00 -2.448160896543356557e-01
-8.980908602476119995e+00 5.125627670437097549e+00 -2.422526130918356557e-01
-9.160474032163619995e+00 5.104143295437097549e+00 -2.395975837949606557e-01
-9.347729891538619995e+00 5.081804428249597549e+00 -2.368204841855856557e-01
-9.542065829038619995e+00 5.058611068874597549e+00 -2.339365730527731557e-01
-9.744336336851119995e+00 5.034441146999597549e+00 -2.309458503965231557e-01
-9.955884188413619995e+00 5.009294662624597549e+00 -2.278025398496481557e-01
-1.017585489153862000e+01 4.983049545437097549e+00 -2.245524177793356557e-01
-8.862500399351119995e+00 5.168962631374597549e+00 -2.069742927793356557e-01
-9.037305086851119995e+00 5.148454818874597549e+00 -2.038614998105856557e-01
-9.219189852476119995e+00 5.127336654812097549e+00 -2.004282722715231557e-01
-9.400098055601119995e+00 5.102068100124597549e+00 -1.969034919980856557e-01
-9.580151766538619995e+00 5.073381576687097549e+00 -1.932871589902731557e-01
-9.767041414976119995e+00 5.043596420437097549e+00 -1.895487556699606557e-01
-9.961743563413619995e+00 5.012590561062097549e+00 -1.856425056699606557e-01
-1.016279336810112000e+01 4.980241928249597549e+00 -1.813700447324606557e-01
-8.839062899351119995e+00 5.160905990749597549e+00 -1.695444832090231557e-01
-8.998730868101119995e+00 5.134905014187097549e+00 -1.656687507871481557e-01
-9.164014071226119995e+00 5.108049545437097549e+00 -1.616709480527731557e-01
-9.335767000913619995e+00 5.080095443874597549e+00 -1.575052986387106557e-01
-9.513257235288619995e+00 5.051164779812097549e+00 -1.532023201230856557e-01
-9.697339266538619995e+00 5.021257553249597549e+00 -1.487467537168356557e-01
-9.889111727476119995e+00 4.990129623562097549e+00 -1.440928230527731557e-01
-1.008747598528862000e+01 4.957780990749597549e+00 -1.392863044980856557e-01
-8.782666414976119995e+00 5.139787826687097549e+00 -1.326334724668356557e-01
-8.940137118101119995e+00 5.113664779812097549e+00 -1.281626472715231557e-01
-9.103467196226119995e+00 5.086687240749597549e+00 -1.237375984433981557e-01
-9.290356844663619995e+00 5.064958725124597549e+00 -1.186564216855856557e-01
-9.489331454038619995e+00 5.044206771999597549e+00 -1.133005867246481557e-01
-9.696850985288619995e+00 5.022478256374597549e+00 -1.077311287168356557e-01
-9.914746493101119995e+00 4.999895248562097549e+00 -1.016581306699606557e-01
-1.014118692278862000e+01 4.976335678249597549e+00 -9.556987383402315572e-02
-8.806225985288619995e+00 5.150407943874597549e+00 -9.473064043558565572e-02
-8.985058993101119995e+00 5.132219467312097549e+00 -8.937480547464815572e-02
-9.171582430601119995e+00 5.113420639187097549e+00 -8.360698320902315572e-02
-9.366406649351119995e+00 5.093767318874597549e+00 -7.756450274027315572e-02
-9.568921297788619995e+00 5.073381576687097549e+00 -7.129314043558565572e-02
-9.780225008726119995e+00 5.052141342312097549e+00 -6.476237871683565572e-02
-1.000166055560112000e+01 5.029924545437097549e+00 -5.789592363871065572e-02
-1.354353067278862000e+01 6.059343490749597549e+00 2.041218183003934428e-02
-1.135578653216362000e+01 5.332292709499597549e+00 -9.553416023496481557e-01
-1.437885782122612000e+01 6.140154037624597549e+00 -1.159977222466835656e+00
-1.454780313372612000e+01 6.046770248562097549e+00 -1.164600635552773156e+00
-1.113337442278862000e+01 4.938860092312097549e+00 -9.235575447324606557e-01
-1.475813028216362000e+01 5.816301498562097549e+00 -1.164722705865273156e+00
-1.480073282122612000e+01 5.682756576687097549e+00 -1.160480762505898156e+00
-1.297443887591362000e+01 5.081316146999597549e+00 -1.031116748834023156e+00
-1.254060098528862000e+01 4.853166732937097549e+00 -9.964640388730856557e-01
-1.133027383685112000e+01 5.325945053249597549e+00 -9.046213875058981557e-01
-1.464729043841362000e+01 6.223894271999597549e+00 -1.114216114068398156e+00
-1.477876016497612000e+01 6.116594467312097549e+00 -1.115314746880898156e+00
-1.113398477435112000e+01 4.940691146999597549e+00 -8.760111580137106557e-01
-1.498823282122612000e+01 5.880998764187097549e+00 -1.114490772271523156e+00
-1.506831094622612000e+01 5.754778061062097549e+00 -1.112446094537148156e+00
-1.510554239153862000e+01 5.616594467312097549e+00 -1.108036304498085656e+00
-1.503071328997612000e+01 5.451921615749597549e+00 -1.096363330865273156e+00
-1.461420938372612000e+01 6.362322006374597549e+00 -1.054294849419960656e+00
-1.490363809466362000e+01 6.304094467312097549e+00 -1.064808155084023156e+00
-1.500959512591362000e+01 6.186540756374597549e+00 -1.064152027154335656e+00
-1.113459512591362000e+01 4.942400131374597549e+00 -8.287394294980856557e-01
-1.511127969622612000e+01 5.916643295437097549e+00 -1.056171680474648156e+00
-1.507539102435112000e+01 5.758928451687097549e+00 -1.047153736138710656e+00
-1.503986856341362000e+01 5.602434311062097549e+00 -1.038196826959023156e+00
-1.558759805560112000e+01 5.587785873562097549e+00 -1.062565113091835656e+00
-1.503156778216362000e+01 6.495988998562097549e+00 -1.013080860162148156e+00
-1.514069864153862000e+01 6.378435287624597549e+00 -1.011875415826210656e+00
-1.515327188372612000e+01 6.230974350124597549e+00 -1.005665088677773156e+00
-1.113520547747612000e+01 4.944231186062097549e+00 -7.811930427793356557e-01
-1.564863321185112000e+01 6.065080795437097549e+00 -1.018558765435585656e+00
-1.504926797747612000e+01 5.754411850124597549e+00 -9.796641121152731557e-01
-1.501386758685112000e+01 5.598161850124597549e+00 -9.710886726621481557e-01
-1.643708536028862000e+01 5.794084701687097549e+00 -1.039142871880898156e+00
-1.519233438372612000e+01 6.548967514187097549e+00 -9.544565925840231557e-01
-1.513349649310112000e+01 6.378557357937097549e+00 -9.447214851621481557e-01
-1.511237832903862000e+01 6.221208725124597549e+00 -9.369700203183981557e-01
-1.113581582903862000e+01 4.946062240749597549e+00 -7.339213142637106557e-01
-1.505866739153862000e+01 5.906877670437097549e+00 -9.210703621152731557e-01
-1.502326700091362000e+01 5.749773178249597549e+00 -9.128000984433981557e-01
-1.497980996966362000e+01 5.591814193874597549e+00 -9.041941414121481557e-01
-1.655585977435112000e+01 5.825090561062097549e+00 -9.726145515683981557e-01
-1.517854043841362000e+01 6.546892318874597549e+00 -8.866007576230856557e-01
-1.443159219622612000e+01 6.166887436062097549e+00 -8.456766853574606557e-01
-1.602229043841362000e+01 6.490862045437097549e+00 -9.111674080137106557e-01
-1.113654825091362000e+01 4.947771225124597549e+00 -6.863749275449606557e-01
-1.582172891497612000e+01 6.116838607937097549e+00 -8.885691414121481557e-01
-1.499726602435112000e+01 5.745256576687097549e+00 -8.458445320371481557e-01
-1.689851114153862000e+01 6.075578842312097549e+00 -9.216807136777731557e-01
-1.659455606341362000e+01 5.836931381374597549e+00 -9.019358406308981557e-01
-1.516462442278862000e+01 6.544817123562097549e+00 -8.185312996152731557e-01
-1.612800332903862000e+01 6.686174545437097549e+00 -8.514139900449606557e-01
-1.503107950091362000e+01 6.201799545437097549e+00 -8.004496345762106557e-01
-1.113715860247612000e+01 4.949602279812097549e+00 -6.391031990293356557e-01
-1.566145059466362000e+01 6.075578842312097549e+00 -8.128092537168356557e-01
-1.662934610247612000e+01 6.174699936062097549e+00 -8.440287361387106557e-01
-1.183967325091362000e+01 4.807878646999597549e+00 -6.528208503965231557e-01
-1.661176797747612000e+01 5.843523178249597549e+00 -8.296854744199606557e-01
-1.417561075091362000e+01 6.234636459499597549e+00 -7.154886970762106557e-01
-1.539021036028862000e+01 6.463518295437097549e+00 -7.534067878965231557e-01
-1.518586465716362000e+01 6.249651107937097549e+00 -7.395365486387106557e-01
-1.113776895403862000e+01 4.951433334499597549e+00 -5.915568123105856557e-01
-1.602607461810112000e+01 6.177263412624597549e+00 -7.563822517637106557e-01
-1.610358926653862000e+01 6.039568100124597549e+00 -7.526133308652731557e-01
-1.183527871966362000e+01 4.808488998562097549e+00 -6.024515877012106557e-01
-1.662324258685112000e+01 5.848772201687097549e+00 -7.574808845762106557e-01
-1.411530801653862000e+01 6.217668686062097549e+00 -6.509440193418356557e-01
-1.540900918841362000e+01 6.471574936062097549e+00 -6.856730232480856557e-01
-1.470564004778862000e+01 6.110490951687097549e+00 -6.580088386777731557e-01
-1.113837930560112000e+01 4.953142318874597549e+00 -5.442698250058981557e-01
-1.491071817278862000e+01 5.875505600124597549e+00 -6.526835212949606557e-01
-1.670820352435112000e+01 6.200334701687097549e+00 -6.998331794980856557e-01
-1.183088418841362000e+01 4.809099350124597549e+00 -5.518381843808981557e-01
-1.686738321185112000e+01 5.910051498562097549e+00 -6.914408455137106557e-01
-1.507624551653862000e+01 6.523576889187097549e+00 -6.146433601621481557e-01
-1.542756387591362000e+01 6.479509506374597549e+00 -6.181376228574606557e-01
-1.446711465716362000e+01 6.042497787624597549e+00 -5.873606453183981557e-01
-1.113898965716362000e+01 4.954973373562097549e+00 -4.969980964902731557e-01
-1.612214395403862000e+01 6.208391342312097549e+00 -6.180002937558981557e-01
-1.486872598528862000e+01 5.720476303249597549e+00 -5.809824714902731557e-01
-1.182661172747612000e+01 4.809709701687097549e+00 -5.015604744199606557e-01
-1.593610879778862000e+01 5.688249740749597549e+00 -5.954325447324606557e-01
-1.399653360247612000e+01 6.184221420437097549e+00 -5.240214119199606557e-01
-1.333173868060112000e+01 5.841570053249597549e+00 -5.045664558652731557e-01
-1.561152383685112000e+01 6.381731186062097549e+00 -5.478556404355856557e-01
-1.113960000872612000e+01 4.956682357937097549e+00 -4.494517097715231557e-01
-1.484126016497612000e+01 5.860979232937097549e+00 -5.207407722715231557e-01
-1.665498086810112000e+01 6.191423568874597549e+00 -5.515177498105856557e-01
-1.182221719622612000e+01 4.810320053249597549e+00 -4.510538826230856557e-01
-1.621174356341362000e+01 5.757097396999597549e+00 -5.309489021543356557e-01
-1.393818399310112000e+01 6.167863998562097549e+00 -4.615977058652731557e-01
-1.333588907122612000e+01 5.844865951687097549e+00 -4.465677986387106557e-01
-1.332038614153862000e+01 5.708757553249597549e+00 -4.416239509824606557e-01
-1.114021036028862000e+01 4.958513412624597549e+00 -4.021647224668356557e-01
-1.536994668841362000e+01 6.007707748562097549e+00 -4.642222175840231557e-01
-1.480341836810112000e+01 5.707780990749597549e+00 -4.502299080137106557e-01
-1.181940957903862000e+01 4.811418686062097549e+00 -4.008829841855856557e-01
-1.621784707903862000e+01 5.761003646999597549e+00 -4.603770027402731557e-01
-1.024128457903862000e+01 4.999040756374597549e+00 -3.547251472715231557e-01
-1.045832559466362000e+01 4.966814193874597549e+00 -3.539164314512106557e-01
-1.068525430560112000e+01 4.933488998562097549e+00 -3.533213386777731557e-01
-1.092255899310112000e+01 4.898332748562097549e+00 -3.524363289121481557e-01
-1.116975137591362000e+01 4.861711654812097549e+00 -3.515360603574606557e-01
-1.138618203997612000e+01 4.812273178249597549e+00 -3.501322517637106557e-01
-1.161469766497612000e+01 4.761491928249597549e+00 -3.484385261777731557e-01
-1.185212442278862000e+01 4.709001693874597549e+00 -3.469736824277731557e-01
-1.014790078997612000e+01 4.970964584499597549e+00 -3.106577644590231557e-01
-1.036066934466362000e+01 4.938493881374597549e+00 -3.089335212949606557e-01
-1.058259317278862000e+01 4.904680404812097549e+00 -3.071329841855856557e-01
-1.081501504778862000e+01 4.869280014187097549e+00 -3.052561531308981557e-01
-1.105695840716362000e+01 4.832414779812097549e+00 -3.033030281308981557e-01
-1.128461953997612000e+01 4.787248764187097549e+00 -3.011057625058981557e-01
-1.150935098528862000e+01 4.736589584499597549e+00 -2.987559089902731557e-01
-1.174213907122612000e+01 4.684221420437097549e+00 -2.962992439512106557e-01
-1.010505411028862000e+01 4.958757553249597549e+00 -2.673990974668356557e-01
-1.033137246966362000e+01 4.930925521999597549e+00 -2.650492439512106557e-01
-1.056843301653862000e+01 4.901994857937097549e+00 -2.623636970762106557e-01
-1.081770059466362000e+01 4.871599350124597549e+00 -2.595255623105856557e-01
-1.107819864153862000e+01 4.839861068874597549e+00 -2.565806160215231557e-01
-1.131977578997612000e+01 4.798113021999597549e+00 -2.534373054746481557e-01
-1.156342813372612000e+01 4.751970443874597549e+00 -2.501566658262106557e-01
-1.181721231341362000e+01 4.704118881374597549e+00 -2.464640388730856557e-01
-1.017731973528862000e+01 4.983171615749597549e+00 -2.245371589902731557e-01
-1.040754434466362000e+01 4.955827865749597549e+00 -2.209666023496481557e-01
-1.064851114153862000e+01 4.927141342312097549e+00 -2.172129402402731557e-01
-1.090180703997612000e+01 4.897112045437097549e+00 -2.132761726621481557e-01
-1.114960977435112000e+01 4.860979232937097549e+00 -2.092325935605856557e-01
-1.136469766497612000e+01 4.811540756374597549e+00 -2.051432380918356557e-01
-1.158930703997612000e+01 4.760149154812097549e+00 -2.009012947324606557e-01
-1.182197305560112000e+01 4.706926498562097549e+00 -1.965067634824606557e-01
-1.016413614153862000e+01 4.980363998562097549e+00 -1.813547859433981557e-01
-1.037397500872612000e+01 4.946916732937097549e+00 -1.771738777402731557e-01
-1.059211465716362000e+01 4.912004623562097549e+00 -1.725962410215231557e-01
-1.082038614153862000e+01 4.875505600124597549e+00 -1.677897224668356557e-01
-1.105781289935112000e+01 4.837419662624597549e+00 -1.628000984433981557e-01
-1.128193399310112000e+01 4.791399154812097549e+00 -1.577799568418356557e-01
-1.150300332903862000e+01 4.740007553249597549e+00 -1.526682625058981557e-01
-1.173139688372612000e+01 4.686784896999597549e+00 -1.471140632871481557e-01
-1.008881875872612000e+01 4.957903061062097549e+00 -1.392557869199606557e-01
-1.029487344622612000e+01 4.924211654812097549e+00 -1.340372810605856557e-01
-1.053010293841362000e+01 4.895280990749597549e+00 -1.283457527402731557e-01
-1.078730508685112000e+01 4.867571029812097549e+00 -1.222269783262106557e-01
-1.105647012591362000e+01 4.838762436062097549e+00 -1.158182869199606557e-01
-1.130878946185112000e+01 4.800188217312097549e+00 -1.095011482480856557e-01
-1.156037637591362000e+01 4.756242904812097549e+00 -1.030466804746481557e-01
-1.182246133685112000e+01 4.710588607937097549e+00 -9.631755449808565572e-02
-1.014265176653862000e+01 4.976457748562097549e+00 -9.552409746683565572e-02
-1.038020059466362000e+01 4.951921615749597549e+00 -8.888652422464815572e-02
-1.062873575091362000e+01 4.925920639187097549e+00 -8.217265703714815572e-02
-1.089118692278862000e+01 4.898821029812097549e+00 -7.483317949808565572e-02
-1.116608926653862000e+01 4.870378646999597549e+00 -6.714274981058565572e-02
-1.584077188372612000e+01 5.996843490749597549e+00 2.001545331441434428e-02
-1.181171914935112000e+01 4.821550521999597549e+00 -4.932048418558565572e-02
-1.584724161028862000e+01 5.688249740749597549e+00 2.888080975972684428e-02
-1.354389688372612000e+01 6.058977279812097549e+00 2.042744061910184428e-02
-1.362214395403862000e+01 5.948381576687097549e+00 2.527973554097684428e-02
-1.335358926653862000e+01 5.734270248562097549e+00 2.285358808003934428e-02
-1.478913614153862000e+01 6.012224350124597549e+00 5.816242597066434428e-02
-1.493671914935112000e+01 5.907121811062097549e+00 6.524250409566434428e-02
-1.585358926653862000e+01 6.002580795437097549e+00 8.991596600972684428e-02
-1.181062051653862000e+01 4.823015365749597549e+00 6.825675722268442769e-04
-1.625117227435112000e+01 5.788713607937097549e+00 1.075703849550393443e-01
-1.253791543841362000e+01 4.852068100124597549e+00 -9.962656746152731557e-01
-1.249909707903862000e+01 4.724260482937097549e+00 -9.879038582090231557e-01
-1.255146524310112000e+01 4.617571029812097549e+00 -9.858744392637106557e-01
-1.260432168841362000e+01 4.510027084499597549e+00 -9.838145027402731557e-01
-1.265730020403862000e+01 4.402238998562097549e+00 -9.817545662168356557e-01
-1.271052286028862000e+01 4.293962631374597549e+00 -9.796793709043356557e-01
-1.277338907122612000e+01 4.186296615749597549e+00 -9.781687507871481557e-01
-1.284834024310112000e+01 4.080217514187097549e+00 -9.776957283262106557e-01
-1.503034707903862000e+01 5.451311264187097549e+00 -1.096317554498085656e+00
-1.518110391497612000e+01 5.340715561062097549e+00 -1.098957325005898156e+00
-1.521955606341362000e+01 5.203020248562097549e+00 -1.094318653130898156e+00
-1.391901895403862000e+01 4.785661850124597549e+00 -1.009327198052773156e+00
-1.403645059466362000e+01 4.677019271999597549e+00 -1.010349536919960656e+00
-1.415559121966362000e+01 4.566911850124597549e+00 -1.011402393365273156e+00
-1.390290567278862000e+01 4.388322982937097549e+00 -9.907877693418356557e-01
-1.511787149310112000e+01 4.461198959499597549e+00 -1.055820728326210656e+00
-1.558820840716362000e+01 5.587419662624597549e+00 -1.062580371880898156e+00
-1.569697305560112000e+01 5.461321029812097549e+00 -1.062000537896523156e+00
-1.580708047747612000e+01 5.333879623562097549e+00 -1.061435962701210656e+00
-1.577937051653862000e+01 5.175554428249597549e+00 -1.053104663873085656e+00
-1.599763223528862000e+01 5.067522201687097549e+00 -1.058414722466835656e+00
-1.623481485247612000e+01 4.959245834499597549e+00 -1.064579273248085656e+00
-1.390388223528862000e+01 4.390642318874597549e+00 -9.314005623105856557e-01
-1.763654825091362000e+01 4.884416732937097549e+00 -1.126133228326210656e+00
-1.643879434466362000e+01 5.793962631374597549e+00 -1.039219165826210656e+00
-1.670930215716362000e+01 5.696062240749597549e+00 -1.045871997857460656e+00
-1.636445352435112000e+01 5.458391342312097549e+00 -1.021122241998085656e+00
-1.583259317278862000e+01 5.188982162624597549e+00 -9.871714363340231557e-01
-1.604658243060112000e+01 5.079729232937097549e+00 -9.913676033262106557e-01
-1.775007364153862000e+01 5.246477279812097549e+00 -1.069767261529335656e+00
-1.390485879778862000e+01 4.392961654812097549e+00 -8.720133552793356557e-01
-1.681013223528862000e+01 4.748918686062097549e+00 -1.009235645318398156e+00
-1.655573770403862000e+01 5.824480209499597549e+00 -9.725840339902731557e-01
-1.634455606341362000e+01 5.614763412624597549e+00 -9.557841072324606557e-01
-1.632233926653862000e+01 5.451555404812097549e+00 -9.480021248105856557e-01
-1.765583536028862000e+01 5.572038803249597549e+00 -1.002826953912148156e+00
-1.766889688372612000e+01 5.403947982937097549e+00 -9.961436043027731557e-01
-1.736567422747612000e+01 5.176897201687097549e+00 -9.751780281308981557e-01
-1.390571328997612000e+01 4.395158920437097549e+00 -8.129465828183981557e-01
-1.559821817278862000e+01 4.548479232937097549e+00 -8.825419197324606557e-01
-1.659443399310112000e+01 5.836321029812097549e+00 -9.019053230527731557e-01
-1.656086465716362000e+01 5.667009506374597549e+00 -8.933604011777731557e-01
-1.673896524310112000e+01 5.545549545437097549e+00 -8.941233406308981557e-01
-1.632514688372612000e+01 5.296770248562097549e+00 -8.702128181699606557e-01
-1.616438028216362000e+01 5.107927475124597549e+00 -8.570750007871481557e-01
-1.645136758685112000e+01 5.007463607937097549e+00 -8.622782478574606557e-01
-1.390668985247612000e+01 4.397478256374597549e+00 -7.535441169980856557e-01
-1.665327188372612000e+01 4.727678451687097549e+00 -8.576243171933981557e-01
-1.661140176653862000e+01 5.842912826687097549e+00 -8.296549568418356557e-01
-1.657624551653862000e+01 5.672990951687097549e+00 -8.217356453183981557e-01
-1.623847696185112000e+01 5.438127670437097549e+00 -8.026163826230856557e-01
-1.628693887591362000e+01 5.291155014187097549e+00 -7.979929695371481557e-01
-1.625080606341362000e+01 5.127580795437097549e+00 -7.903177986387106557e-01
-1.631452676653862000e+01 4.984148178249597549e+00 -7.862742195371481557e-01
-1.390766641497612000e+01 4.399675521999597549e+00 -6.944773445371481557e-01
-1.589411661028862000e+01 4.602922592312097549e+00 -7.588541755918356557e-01
-1.662275430560112000e+01 5.848161850124597549e+00 -7.574503669980856557e-01
-1.661201211810112000e+01 5.683733139187097549e+00 -7.506449470762106557e-01
-1.619685098528862000e+01 5.431535873562097549e+00 -7.303507576230856557e-01
-1.604597207903862000e+01 5.243303451687097549e+00 -7.192881355527731557e-01
-1.628059121966362000e+01 5.136003646999597549e+00 -7.205698738340231557e-01
-1.606660196185112000e+01 4.939958725124597549e+00 -7.076914558652731557e-01
-1.390864297747612000e+01 4.401994857937097549e+00 -6.353953132871481557e-01
-1.681586953997612000e+01 4.760149154812097549e+00 -7.186930427793356557e-01
-1.686811563372612000e+01 5.909685287624597549e+00 -6.914408455137106557e-01
-1.696333047747612000e+01 5.767229232937097549e+00 -6.877329597715231557e-01
-1.615571328997612000e+01 5.424822006374597549e+00 -6.588785896543356557e-01
-1.620942422747612000e+01 5.279924545437097549e+00 -6.542704353574606557e-01
-1.624262735247612000e+01 5.130876693874597549e+00 -6.491129646543356557e-01
-1.602045938372612000e+01 4.933611068874597549e+00 -6.371653328183981557e-01
-1.390961953997612000e+01 4.404192123562097549e+00 -5.759928474668356557e-01
-1.622736856341362000e+01 4.663713607937097549e+00 -6.306498298887106557e-01
-1.593549844622612000e+01 5.687517318874597549e+00 -5.953867683652731557e-01
-1.611445352435112000e+01 5.574113998562097549e+00 -5.937235603574606557e-01
-1.614533731341362000e+01 5.425066146999597549e+00 -5.885050544980856557e-01
-1.673298379778862000e+01 5.392107162624597549e+00 -5.959208259824606557e-01
-1.603083536028862000e+01 5.091203842312097549e+00 -5.741465339902731557e-01
-1.657636758685112000e+01 5.041032943874597549e+00 -5.802805671933981557e-01
-1.391059610247612000e+01 4.406511459499597549e+00 -5.169108162168356557e-01
-1.620673868060112000e+01 4.662737045437097549e+00 -5.604594002012106557e-01
-1.621284219622612000e+01 5.756853256374597549e+00 -5.309489021543356557e-01
-1.606916543841362000e+01 5.566179428249597549e+00 -5.224192390683981557e-01
-1.597480508685112000e+01 5.389909896999597549e+00 -5.149271736387106557e-01
-1.604096719622612000e+01 5.249529037624597549e+00 -5.103953132871481557e-01
-1.598469278216362000e+01 5.084367904812097549e+00 -5.037119636777731557e-01
-1.588972207903862000e+01 4.913835678249597549e+00 -4.964182625058981557e-01
-1.391157266497612000e+01 4.408708725124597549e+00 -4.575083503965231557e-01
-1.699763223528862000e+01 4.798479232937097549e+00 -5.034525642637106557e-01
-1.621894571185112000e+01 5.760759506374597549e+00 -4.603770027402731557e-01
-1.602448770403862000e+01 5.558244857937097549e+00 -4.519388923887106557e-01
-1.606269571185112000e+01 5.411638412624597549e+00 -4.468729744199606557e-01
-1.599494668841362000e+01 5.242204818874597549e+00 -4.403574714902731557e-01
-1.593891641497612000e+01 5.077654037624597549e+00 -4.340861091855856557e-01
-1.677570840716362000e+01 5.083879623562097549e+00 -4.390909919980856557e-01
-1.391254922747612000e+01 4.411028061062097549e+00 -3.984263191465231557e-01
-1.709797403216362000e+01 4.818010482937097549e+00 -4.313242683652731557e-01
-1.185358926653862000e+01 4.709001693874597549e+00 -3.469736824277731557e-01
-1.210078164935112000e+01 4.654314193874597549e+00 -3.453409919980856557e-01
-1.235920450091362000e+01 4.597429428249597549e+00 -3.439219246152731557e-01
-1.262934610247612000e+01 4.537737045437097549e+00 -3.421519050840231557e-01
-1.291084024310112000e+01 4.475359115749597549e+00 -3.403055916074606557e-01
-1.320515176653862000e+01 4.410295639187097549e+00 -3.383677253965231557e-01
-1.351374551653862000e+01 4.341692123562097549e+00 -3.360178718808981557e-01
-1.383698770403862000e+01 4.270158920437097549e+00 -3.338969002012106557e-01
-1.174372598528862000e+01 4.684221420437097549e+00 -2.962992439512106557e-01
-1.199384805560112000e+01 4.631364975124597549e+00 -2.936594734433981557e-01
-1.226679727435112000e+01 4.578874740749597549e+00 -2.909586677793356557e-01
-1.255390664935112000e+01 4.523698959499597549e+00 -2.881205330137106557e-01
-1.285395547747612000e+01 4.465959701687097549e+00 -2.851603279355856557e-01
-1.316901895403862000e+01 4.405412826687097549e+00 -2.820322761777731557e-01
-1.350129434466362000e+01 4.341447982937097549e+00 -2.787516365293356557e-01
-1.384992715716362000e+01 4.274431381374597549e+00 -2.753031502012106557e-01
-1.181892129778862000e+01 4.704118881374597549e+00 -2.464487800840231557e-01
-1.208344766497612000e+01 4.653947982937097549e+00 -2.429850349668356557e-01
-1.236103555560112000e+01 4.601457748562097549e+00 -2.390787849668356557e-01
-1.265278360247612000e+01 4.546281967312097549e+00 -2.349589119199606557e-01
-1.295795938372612000e+01 4.488664779812097549e+00 -2.306559334043356557e-01
-1.325800821185112000e+01 4.424211654812097549e+00 -2.261698494199606557e-01
-1.356477090716362000e+01 4.354875717312097549e+00 -2.214701423887106557e-01
-1.388459512591362000e+01 4.282365951687097549e+00 -2.162363777402731557e-01
-1.182343789935112000e+01 4.706926498562097549e+00 -1.964762459043356557e-01
-1.206525918841362000e+01 4.651506576687097549e+00 -1.917002449277731557e-01
-1.231721231341362000e+01 4.593645248562097549e+00 -1.867258796933981557e-01
-1.258100625872612000e+01 4.533098373562097549e+00 -1.815226326230856557e-01
-1.285554239153862000e+01 4.470110092312097549e+00 -1.761057625058981557e-01
-1.314240762591362000e+01 4.404314193874597549e+00 -1.704294929746481557e-01
-1.344367715716362000e+01 4.335222396999597549e+00 -1.644938240293356557e-01
-1.376838418841362000e+01 4.264787826687097549e+00 -1.582072029355856557e-01
-1.173298379778862000e+01 4.686784896999597549e+00 -1.470835457090231557e-01
-1.198701211810112000e+01 4.635149154812097549e+00 -1.414530525449606557e-01
-1.226972696185112000e+01 4.584978256374597549e+00 -1.351206550840231557e-01
-1.256733438372612000e+01 4.532121811062097549e+00 -1.284525642637106557e-01
-1.287910196185112000e+01 4.476701889187097549e+00 -1.214792976621481557e-01
-1.320698282122612000e+01 4.418474350124597549e+00 -1.141398201230856557e-01
-1.355366250872612000e+01 4.356950912624597549e+00 -1.063730964902731557e-01
-1.391889688372612000e+01 4.292375717312097549e+00 -9.788920977152315572e-02
-1.182417032122612000e+01 4.710588607937097549e+00 -9.628703691996065572e-02
-1.209919473528862000e+01 4.662859115749597549e+00 -8.896281816996065572e-02
-1.238752481341362000e+01 4.612810287624597549e+00 -8.128764727152315572e-02
-1.693659707903862000e+01 5.455339584499597549e+00 -1.012065508402315572e-02
-1.524909707903862000e+01 4.953874740749597549e+00 -3.073527910746065572e-02
-1.570222207903862000e+01 4.895036850124597549e+00 -1.929118731058565572e-02
-2.113288614153862000e+01 5.722185287624597549e+00 7.114765546285184428e-02
-2.107685586810112000e+01 5.508562240749597549e+00 7.648823163472684428e-02
-1.584663125872612000e+01 5.687517318874597549e+00 2.888080975972684428e-02
-1.576875039935112000e+01 5.515886459499597549e+00 3.196308515035184428e-02
-1.564887735247612000e+01 5.337053451687097549e+00 3.380939862691434428e-02
-1.539985391497612000e+01 5.133562240749597549e+00 3.342792890035184428e-02
-1.528352090716362000e+01 4.963030014187097549e+00 3.548786542378934428e-02
-1.552082559466362000e+01 4.862810287624597549e+00 4.458210370503934428e-02
-2.112959024310112000e+01 5.724870834499597549e+00 1.641957511659768443e-01
-2.109565469622612000e+01 5.515031967312097549e+00 1.695363273378518443e-01
-1.625202676653862000e+01 5.788347396999597549e+00 1.076009025331643443e-01
-1.569526407122612000e+01 5.501115951687097549e+00 9.859821698628934428e-02
-1.552949258685112000e+01 5.312883529812097549e+00 9.899494550191434428e-02
-1.543000528216362000e+01 5.142351303249597549e+00 1.008870353456643443e-01
-2.325495645403862000e+01 6.566423568874597549e+00 2.971303214784768443e-01
-1.546272012591362000e+01 4.854143295437097549e+00 1.101491203066018443e-01
-2.582600137591362000e+01 6.574358139187097549e+00 3.748280753847268443e-01
-2.148457071185112000e+01 5.584367904812097549e+00 2.721974601503518443e-01
-1.284882852435112000e+01 4.079973373562097549e+00 -9.777109871152731557e-01
-1.292951700091362000e+01 3.973650131374597549e+00 -9.773142585996481557e-01
-1.300446817278862000e+01 3.865251693874597549e+00 -9.768107185605856557e-01
-1.308051797747612000e+01 3.755266342312097549e+00 -9.762919197324606557e-01
-1.315705606341362000e+01 3.644670639187097549e+00 -9.757731209043356557e-01
-1.323432657122612000e+01 3.532854232937097549e+00 -9.752543220762106557e-01
-1.331281778216362000e+01 3.419572982937097549e+00 -9.747202644590231557e-01
-1.339594766497612000e+01 3.305803451687097549e+00 -9.747355232480856557e-01
-1.511726114153862000e+01 4.460588607937097549e+00 -1.055774951959023156e+00
-1.503852578997612000e+01 4.306169662624597549e+00 -1.045139575982460656e+00
-1.497114297747612000e+01 4.155412826687097549e+00 -1.034916187310585656e+00
-1.489411661028862000e+01 4.004533920437097549e+00 -1.024524951959023156e+00
-1.481843301653862000e+01 3.856340561062097549e+00 -1.014316822076210656e+00
-1.484028360247612000e+01 3.721330795437097549e+00 -1.009678150201210656e+00
-1.490314981341362000e+01 3.590105209499597549e+00 -1.007633472466835656e+00
-1.497517129778862000e+01 3.459245834499597549e+00 -1.005741382623085656e+00
-1.763740274310112000e+01 4.884050521999597549e+00 -1.126163745904335656e+00
-1.697895547747612000e+01 4.612810287624597549e+00 -1.084018970513710656e+00
-1.639387246966362000e+01 4.366350326687097549e+00 -1.046329761529335656e+00
-1.638789102435112000e+01 4.210710678249597549e+00 -1.039493824029335656e+00
-1.801020547747612000e+01 4.261858139187097549e+00 -1.117389942193398156e+00
-1.636640664935112000e+01 3.901018295437097549e+00 -1.025455738091835656e+00
-1.655268594622612000e+01 3.767473373562097549e+00 -1.028538013482460656e+00
-1.661994668841362000e+01 3.619646225124597549e+00 -1.025455738091835656e+00
-1.681135293841362000e+01 4.748552475124597549e+00 -1.009281421685585656e+00
-1.707514688372612000e+01 4.630632553249597549e+00 -1.015095020318398156e+00
-1.726594278216362000e+01 4.496965561062097549e+00 -1.017597461724648156e+00
-1.636152383685112000e+01 4.209612045437097549e+00 -9.675944099668356557e-01
-1.635566446185112000e+01 4.055315170437097549e+00 -9.609568367246481557e-01
-1.631110879778862000e+01 3.897112045437097549e+00 -9.525034675840231557e-01
-2.037238809466362000e+01 4.176042709499597549e+00 -1.135105396294960656e+00
-1.662128946185112000e+01 3.622331771999597549e+00 -9.545634041074606557e-01
-1.559980508685112000e+01 4.548235092312097549e+00 -8.825876960996481557e-01
-1.851740762591362000e+01 4.860002670437097549e+00 -1.004902149224648156e+00
-1.634113809466362000e+01 4.363664779812097549e+00 -9.028818855527731557e-01
-1.633527871966362000e+01 4.208513412624597549e+00 -8.963358650449606557e-01
-1.632941934466362000e+01 4.054582748562097549e+00 -8.898203621152731557e-01
-2.057758828997612000e+01 4.396989975124597549e+00 -1.063358570123085656e+00
-2.144086953997612000e+01 4.292986068874597549e+00 -1.091526294732460656e+00
-1.662263223528862000e+01 3.625017318874597549e+00 -8.832896003965231557e-01
-1.665571328997612000e+01 4.727556381374597549e+00 -8.577006111387106557e-01
-1.724726602435112000e+01 4.662859115749597549e+00 -8.742258796933981557e-01
-1.965144082903862000e+01 4.853410873562097549e+00 -9.611857185605856557e-01
-1.630903360247612000e+01 4.207536850124597549e+00 -8.249399910215231557e-01
-2.079365274310112000e+01 4.623430404812097549e+00 -9.895975837949606557e-01
-2.144050332903862000e+01 4.500993881374597549e+00 -1.006000782037148156e+00
-2.166669961810112000e+01 4.320451889187097549e+00 -1.006183887505898156e+00
-1.662409707903862000e+01 3.627824936062097549e+00 -8.123820076230856557e-01
-1.589143106341362000e+01 4.601946029812097549e+00 -7.587473640683981557e-01
-1.800825235247612000e+01 4.785417709499597549e+00 -8.261912117246481557e-01
-2.030354043841362000e+01 4.952531967312097549e+00 -8.980753669980856557e-01
-1.627705118060112000e+01 4.205583725124597549e+00 -7.539866218808981557e-01
-2.143977090716362000e+01 4.708757553249597549e+00 -9.207041511777731557e-01
-2.172553750872612000e+01 4.537737045437097549e+00 -9.220469246152731557e-01
-2.201911661028862000e+01 4.361589584499597549e+00 -9.234049568418356557e-01
-1.662543985247612000e+01 3.630510482937097549e+00 -7.410929451230856557e-01
-1.681464883685112000e+01 4.759416732937097549e+00 -7.186320076230856557e-01
-1.570710489153862000e+01 4.425310287624597549e+00 -6.791422615293356557e-01
-1.622773477435112000e+01 4.354387436062097549e+00 -6.884348640683981557e-01
-1.623579141497612000e+01 4.202409896999597549e+00 -6.826975593808981557e-01
-2.199458047747612000e+01 4.782610092312097549e+00 -8.427164802793356557e-01
-2.229487344622612000e+01 4.607805404812097549e+00 -8.430521736387106557e-01
-2.257893106341362000e+01 4.424944076687097549e+00 -8.432047615293356557e-01
-1.662690469622612000e+01 3.633196029812097549e+00 -6.701853523496481557e-01
-1.622468301653862000e+01 4.662737045437097549e+00 -6.305582771543356557e-01
-1.589887735247612000e+01 4.458025131374597549e+00 -6.163981209043356557e-01
-2.115144082903862000e+01 5.084123764187097549e+00 -7.418558845762106557e-01
-1.599213907122612000e+01 4.171404037624597549e+00 -6.071818123105856557e-01
-1.585090371966362000e+01 4.003679428249597549e+00 -5.980112800840231557e-01
-2.284577676653862000e+01 4.675920639187097549e+00 -7.588694343808981557e-01
-2.321540567278862000e+01 4.496721420437097549e+00 -7.591135750058981557e-01
-1.662824746966362000e+01 3.635881576687097549e+00 -5.988810310605856557e-01
-1.620637246966362000e+01 4.662126693874597549e+00 -5.604441414121481557e-01
-1.617329141497612000e+01 4.503801498562097549e+00 -5.539591560605856557e-01
-1.614643594622612000e+01 4.347429428249597549e+00 -5.476420173887106557e-01
-1.603449746966362000e+01 4.179704818874597549e+00 -5.396464119199606557e-01
-1.590192911028862000e+01 4.012590561062097549e+00 -5.313761482480856557e-01
-1.622089883685112000e+01 3.901628646999597549e+00 -5.318796882871481557e-01
-2.386848184466362000e+01 4.570451889187097549e+00 -6.700175056699606557e-01
-1.662959024310112000e+01 3.638689193874597549e+00 -5.279734382871481557e-01
-1.699726602435112000e+01 4.797868881374597549e+00 -5.034220466855856557e-01
-1.613886758685112000e+01 4.500749740749597549e+00 -4.836313972715231557e-01
-1.581550332903862000e+01 4.300920639187097549e+00 -4.729044685605856557e-01
-1.606709024310112000e+01 4.186662826687097549e+00 -4.712107429746481557e-01
-1.595368692278862000e+01 4.021623764187097549e+00 -4.639170418027731557e-01
-1.612934610247612000e+01 3.893327865749597549e+00 -4.609263191465231557e-01
-2.440009805560112000e+01 4.631364975124597549e+00 -5.726053962949606557e-01
-1.663105508685112000e+01 3.641374740749597549e+00 -4.566691169980856557e-01
-1.709553262591362000e+01 4.817033920437097549e+00 -4.312784919980856557e-01
-1.610505411028862000e+01 4.497942123562097549e+00 -4.140208015683981557e-01
-1.458418008685112000e+01 4.120866928249597549e+00 -3.916514168027731557e-01
-1.490876504778862000e+01 4.029314193874597549e+00 -3.901255378965231557e-01
-1.524738809466362000e+01 3.933855209499597549e+00 -3.885386238340231557e-01
-1.560212442278862000e+01 3.833757553249597549e+00 -3.868754158262106557e-01
-1.567939493060112000e+01 3.696550521999597549e+00 -3.822825203183981557e-01
-1.636665078997612000e+01 3.618181381374597549e+00 -3.832896003965231557e-01
-1.383918496966362000e+01 4.270158920437097549e+00 -3.338969002012106557e-01
-1.413227578997612000e+01 4.187639389187097549e+00 -3.312266121152731557e-01
-1.443574258685112000e+01 4.100969467312097549e+00 -3.287699470762106557e-01
-1.475324746966362000e+01 4.010027084499597549e+00 -3.258402595762106557e-01
-1.508430215716362000e+01 3.915300521999597549e+00 -3.227885017637106557e-01
-1.546040078997612000e+01 3.819353256374597549e+00 -3.197367439512106557e-01
-1.569282266497612000e+01 3.700334701687097549e+00 -3.153422127012106557e-01
-1.623090860247612000e+01 3.607439193874597549e+00 -3.125803718808981557e-01
-1.385224649310112000e+01 4.274431381374597549e+00 -2.753031502012106557e-01
-1.416865274310112000e+01 4.195573959499597549e+00 -2.713969002012106557e-01
-1.449909707903862000e+01 4.112566146999597549e+00 -2.673228035215231557e-01
-1.484711953997612000e+01 4.025285873562097549e+00 -2.630198250058981557e-01
-1.521149942278862000e+01 3.933855209499597549e+00 -2.585032234433981557e-01
-1.559492227435112000e+01 3.837663803249597549e+00 -2.537729988340231557e-01
-1.570234414935112000e+01 3.703752670437097549e+00 -2.486460457090231557e-01
-1.635468789935112000e+01 3.622087631374597549e+00 -2.434885750058981557e-01
-1.388679239153862000e+01 4.282365951687097549e+00 -2.162211189512106557e-01
-1.417243692278862000e+01 4.198259506374597549e+00 -2.113230476621481557e-01
-1.447285196185112000e+01 4.110857162624597549e+00 -2.058756599668356557e-01
-1.478779336810112000e+01 4.019304428249597549e+00 -2.001536140683981557e-01
-1.511591836810112000e+01 3.923967514187097549e+00 -1.942026863340231557e-01
-1.545942422747612000e+01 3.823991928249597549e+00 -1.879618416074606557e-01
-1.582063028216362000e+01 3.719011459499597549e+00 -1.814158210996481557e-01
-1.624189493060112000e+01 3.613542709499597549e+00 -1.739847908262106557e-01
-1.377082559466362000e+01 4.264787826687097549e+00 -1.581766853574606557e-01
-1.410505411028862000e+01 4.189714584499597549e+00 -1.514017830137106557e-01
-1.444331094622612000e+01 4.108659896999597549e+00 -1.443674812558981557e-01
-1.480012246966362000e+01 4.023332748562097549e+00 -1.369517097715231557e-01
-1.517439004778862000e+01 3.933733139187097549e+00 -1.291849861387106557e-01
-1.556867715716362000e+01 3.839372787624597549e+00 -1.209910164121481557e-01
-1.598627969622612000e+01 3.739397201687097549e+00 -1.123087654355856557e-01
-2.796394082903862000e+01 4.767839584499597549e+00 3.459667181601844277e-03
-1.392133828997612000e+01 4.292375717312097549e+00 -9.784343340433565572e-02
-1.424165078997612000e+01 4.213518295437097549e+00 -9.003093340433565572e-02
-2.153254434466362000e+01 5.167253646999597549e+00 2.956127142539344277e-03
-2.280683633685112000e+01 5.137102279812097549e+00 2.581379315816434428e-02
-1.624152871966362000e+01 4.073381576687097549e+00 -5.102946856058565572e-02
-2.741718789935112000e+01 5.246843490749597549e+00 1.011769523378518443e-01
-2.806428262591362000e+01 5.052019271999597549e+00 1.188008537050393443e-01
-2.876557657122612000e+01 4.851213607937097549e+00 1.382558097597268443e-01
-2.107648965716362000e+01 5.507829818874597549e+00 7.648823163472684428e-02
-2.564008828997612000e+01 6.032243881374597549e+00 1.582905997987893443e-01
-1.595991250872612000e+01 4.339372787624597549e+00 3.917430853476844277e-03
-2.456709024310112000e+01 5.385271225124597549e+00 1.563222160097268443e-01
-1.610761758685112000e+01 4.058611068874597549e+00 1.638386151753934428e-02
-1.601167032122612000e+01 3.896745834499597549e+00 1.963398358785184428e-02
-2.889790078997612000e+01 5.147112045437097549e+00 2.582051505800393443e-01
-2.959992715716362000e+01 4.938005600124597549e+00 2.803303947206643443e-01
-2.109528848528862000e+01 5.514299545437097549e+00 1.695515861269143443e-01
-2.366889688372612000e+01 5.721819076687097549e+00 2.304799308534768443e-01
-2.309650918841362000e+01 5.407610092312097549e+00 2.250630607362893443e-01
-2.761860391497612000e+01 5.813860092312097549e+00 3.306386222597268443e-01
-1.617292520403862000e+01 4.069597396999597549e+00 8.657429120503934428e-02
-1.597504922747612000e+01 3.894914779812097549e+00 8.703205487691434428e-02
-2.964326211810112000e+01 5.232805404812097549e+00 4.033009757753518443e-01
-3.046650430560112000e+01 5.028337631374597549e+00 4.315449943300393443e-01
-2.148457071185112000e+01 5.583757553249597549e+00 2.722127189394143443e-01
-2.370661661028862000e+01 5.731462631374597549e+00 3.355061759706643443e-01
-2.310871621966362000e+01 5.413103256374597549e+00 3.271901359316018443e-01
-2.836189004778862000e+01 5.921770248562097549e+00 4.729420890566018443e-01
-1.629707071185112000e+01 4.088030014187097549e+00 1.593129386659768443e-01
-1.595930215716362000e+01 3.895403061062097549e+00 1.550099601503518443e-01
-3.047883340716362000e+01 5.328630600124597549e+00 5.570180167909768443e-01
-3.126740762591362000e+01 5.112566146999597549e+00 5.889241447206643443e-01
-1.339643594622612000e+01 3.305437240749597549e+00 -9.747507820371481557e-01
-1.349140664935112000e+01 3.191301498562097549e+00 -9.751932869199606557e-01
-1.357917520403862000e+01 3.074724350124597549e+00 -9.754221687558981557e-01
-1.363447305560112000e+01 2.954118881374597549e+00 -9.736674080137106557e-01
-1.368610879778862000e+01 2.832780990749597549e+00 -9.716837654355856557e-01
-1.375556680560112000e+01 2.711321029812097549e+00 -9.706919441465231557e-01
-1.383088418841362000e+01 2.588518295437097549e+00 -9.699595222715231557e-01
