-1.309524478018283844e+01 1.174280470609664917e+01 -5.044099029619246721e-01
-1.327761782705783844e+01 1.172779005765914917e+01 -5.077210601884871721e-01
-1.447695864737033844e+01 1.264685744047164917e+01 -5.793763336259871721e-01
-1.364321841299533844e+01 1.168921583890914917e+01 -5.135499176103621721e-01
-1.377346743643283844e+01 1.161926954984664917e+01 -5.130006012041121721e-01
-1.554043520987033844e+01 1.298181837797164917e+01 -6.195832428056746721e-01
-1.581826724112033844e+01 1.301306837797164917e+01 -6.277772125322371721e-01
-1.605129946768283844e+01 1.300147169828414917e+01 -6.323853668291121721e-01
-1.308767642080783844e+01 1.173779982328414917e+01 -4.285432037431746721e-01
-1.328372134268283844e+01 1.173560255765914917e+01 -4.321442779619246721e-01
-1.407473696768283844e+01 1.227857130765914917e+01 -4.721833404619246721e-01
-1.364285220205783844e+01 1.169104689359664917e+01 -4.368439849931746721e-01
-1.377688540518283844e+01 1.162451857328414917e+01 -4.362946685869246721e-01
-1.361086978018283844e+01 1.129321974515914917e+01 -4.178315338212996721e-01
-1.607168520987033844e+01 1.323413771390914917e+01 -5.540314849931746721e-01
-1.634927310049533844e+01 1.325659865140914917e+01 -5.603028472978621721e-01
-1.308010806143283844e+01 1.173267287015914917e+01 -3.531953033525496721e-01
-1.328982485830783844e+01 1.174341505765914917e+01 -3.569031890947371721e-01
-1.440176333487033844e+01 1.258228224515914917e+01 -4.102936920244246721e-01
-1.364126528799533844e+01 1.169190138578414917e+01 -3.600922760087996721e-01
-1.377529849112033844e+01 1.162537306547164917e+01 -3.592835601884871721e-01
-1.359414614737033844e+01 1.128076857328414917e+01 -3.415986236650496721e-01
-1.623196353018283844e+01 1.337500685453414917e+01 -4.727936920244246721e-01
-1.378616274893283844e+01 1.108655470609664917e+01 -3.361664947587996721e-01
-1.307180728018283844e+01 1.172693556547164917e+01 -2.775269683916121721e-01
-1.329482974112033844e+01 1.175037306547164917e+01 -2.811433013994246721e-01
-1.443301333487033844e+01 1.261353224515914917e+01 -3.294221099931746721e-01
-1.364138735830783844e+01 1.169422072172164917e+01 -2.830506500322371721e-01
-1.341506899893283844e+01 1.130640333890914917e+01 -2.647706207353621721e-01
-1.609927310049533844e+01 1.347974318265914917e+01 -3.841706451494246721e-01
-1.337527407705783844e+01 1.091455763578414917e+01 -2.485657867509871721e-01
-1.370291079580783844e+01 1.101819533109664917e+01 -2.566529449541121721e-01
-1.306619204580783844e+01 1.172376173734664917e+01 -2.024842437822371721e-01
-1.381948794424533844e+01 1.224451369047164917e+01 -2.282410797197371721e-01
-1.527749575674533844e+01 1.339478224515914917e+01 -2.833863433916121721e-01
-1.325955142080783844e+01 1.135010451078414917e+01 -1.903077301103621721e-01
-1.332791079580783844e+01 1.123084181547164917e+01 -1.864777740556746721e-01
-1.626736392080783844e+01 1.362976759672164917e+01 -3.005982574541121721e-01
-1.338870181143283844e+01 1.092822951078414917e+01 -1.757813629228621721e-01
-1.685720767080783844e+01 1.369568556547164917e+01 -3.081055816728621721e-01
-1.307022036612033844e+01 1.172974318265914917e+01 -1.275025543291121721e-01
-1.369143618643283844e+01 1.212671583890914917e+01 -1.441804107744246721e-01
-1.316409243643283844e+01 1.144788283109664917e+01 -1.188050445634871721e-01
-1.364150942862033844e+01 1.169885939359664917e+01 -1.298066314775496721e-01
-1.323794497549533844e+01 1.115283888578414917e+01 -1.091614898759871721e-01
-1.341897524893283844e+01 1.113379591703414917e+01 -1.094514068681746721e-01
-1.351199282705783844e+01 1.103687208890914917e+01 -1.062318023759871721e-01
-1.382669009268283844e+01 1.112781447172164917e+01 -1.109467681962996721e-01
-1.307437075674533844e+01 1.173572462797164917e+01 -5.287181702442467213e-02
-1.384316958487033844e+01 1.227124708890914917e+01 -7.075511780567467213e-02
-1.423342837393283844e+01 1.243665236234664917e+01 -7.655345764942467213e-02
-1.364163149893283844e+01 1.170117872953414917e+01 -5.279552307911217213e-02
-1.352700747549533844e+01 1.141297072172164917e+01 -4.368602600879967213e-02
-1.336624087393283844e+01 1.108972853422164917e+01 -3.341686096973717213e-02
-1.345913638174533844e+01 1.099341505765914917e+01 -3.059398499317467213e-02
-1.355203188955783844e+01 1.089697951078414917e+01 -2.778636780567467213e-02
-1.307839907705783844e+01 1.174182814359664917e+01 2.220142516307532787e-02
-1.385842837393283844e+01 1.228797072172164917e+01 7.903939811512827873e-03
-1.427676333487033844e+01 1.247888869047164917e+01 3.280526725575327873e-03
-1.364175356924533844e+01 1.170349806547164917e+01 2.380359801463782787e-02
-1.377444399893283844e+01 1.163599318265914917e+01 2.589405211620032787e-02
-1.331423892080783844e+01 1.104627150297164917e+01 4.154956969432532787e-02
-1.357571353018283844e+01 1.109619826078414917e+01 4.058826598338782787e-02
-1.378140200674533844e+01 1.109375685453414917e+01 4.139698180370032787e-02
-1.308254946768283844e+01 1.174780958890914917e+01 9.690845641307532787e-02
-1.547415103018283844e+01 1.380640333890914917e+01 5.812061461620032787e-02
-1.431423892080783844e+01 1.251587599515914917e+01 8.416736754588782787e-02
-1.364187563955783844e+01 1.170581740140914917e+01 1.007841888349503279e-01
-1.377432192862033844e+01 1.163819044828414917e+01 1.031340423505753279e-01
-1.357949770987033844e+01 1.128125685453414917e+01 1.109770599287003279e-01
-1.379824770987033844e+01 1.129053419828414917e+01 1.118620696943253279e-01
-1.704080142080783844e+01 1.386279982328414917e+01 6.469715270213782787e-02
-1.308657778799533844e+01 1.175391310453414917e+01 1.720579925458878279e-01
-8.308501616120338440e+00 7.083258807659149170e+00 2.323454681318253279e-01
-8.517241850495338440e+00 7.166876971721649170e+00 2.322996917646378279e-01
-8.736113920807838440e+00 7.254523456096649170e+00 2.322691741865128279e-01
-8.964263334870338440e+00 7.345954120159149170e+00 2.322233978193253279e-01
-9.203765287995338440e+00 7.441901385784149170e+00 2.321776214521378279e-01
-9.454009428620338440e+00 7.542121112346649170e+00 2.321318450849503279e-01
-9.715850248932838440e+00 7.646735370159149170e+00 2.323454681318253279e-01
-8.026275053620338440e+00 6.925910174846649170e+00 2.764128509443253279e-01
-8.222075834870338440e+00 7.003424823284149170e+00 2.773131194990128279e-01
-8.426299467682838440e+00 7.084235370159149170e+00 2.782439056318253279e-01
-8.640288725495338440e+00 7.168952167034149170e+00 2.792052093427628279e-01
-8.863311186432838440e+00 7.257086932659149170e+00 2.802275482099503279e-01
-9.097319975495338440e+00 7.349738299846649170e+00 2.812956634443253279e-01
-9.341582670807838440e+00 7.446417987346649170e+00 2.824095550458878279e-01
-9.597564116120338440e+00 7.547736346721649170e+00 2.835692230146378279e-01
-7.975615873932838440e+00 6.878791034221649170e+00 3.194121185224503279e-01
-8.179473295807838440e+00 6.964728534221649170e+00 3.211973968427628279e-01
-8.396148100495338440e+00 7.057746112346649170e+00 3.230742278974503279e-01
-8.623687162995338440e+00 7.155158221721649170e+00 3.248137298505753279e-01
-8.862090483307838440e+00 7.257453143596649170e+00 3.268736663740128279e-01
-9.113921537995338440e+00 7.365729510784149170e+00 3.292998138349503279e-01
-9.377471342682838440e+00 7.478888690471649170e+00 3.315886321943253279e-01
-9.655059233307838440e+00 7.598029315471649170e+00 3.339995208662003279e-01
-8.038970366120338440e+00 6.940558612346649170e+00 3.625334564130753279e-01
-8.249175444245338440e+00 7.031378924846649170e+00 3.651121917646378279e-01
-8.469756498932838440e+00 7.126959979534149170e+00 3.680571380537003279e-01
-8.701934233307838440e+00 7.227545917034149170e+00 3.711546722333878279e-01
-8.944854155182838440e+00 7.332770526409149170e+00 3.743895355146378279e-01
-9.180571928620338440e+00 7.425788104534149170e+00 3.776549163740128279e-01
-9.424468412995338440e+00 7.521002948284149170e+00 3.810271087568253279e-01
-9.679595366120338440e+00 7.620368182659149170e+00 3.848418060224503279e-01
-7.418853178620338440e+00 5.678351581096649170e+00 -3.390198883134871721e-01
-7.463775053620338440e+00 5.628546893596649170e+00 -3.375397857744246721e-01
-7.506743803620338440e+00 5.576911151409149170e+00 -3.360291656572371721e-01
-7.549712553620338440e+00 5.525153338909149170e+00 -3.345185455400496721e-01
-7.592681303620338440e+00 5.473517596721649170e+00 -3.330079254228621721e-01
-7.635772123932838440e+00 5.421637713909149170e+00 -3.314973053056746721e-01
-7.678740873932838440e+00 5.370001971721649170e+00 -3.299866851884871721e-01
-7.719390287995338440e+00 5.316657245159149170e+00 -3.284455474931746721e-01
-7.841338530182838440e+00 6.036994159221649170e+00 -3.441315826494246721e-01
-7.891631498932838440e+00 5.985602557659149170e+00 -3.429566558916121721e-01
-7.941924467682838440e+00 5.934088885784149170e+00 -3.417817291337996721e-01
-7.995147123932838440e+00 5.884528338909149170e+00 -3.406525787431746721e-01
-8.045684233307838440e+00 5.832770526409149170e+00 -3.394623931962996721e-01
-8.093657866120338440e+00 5.778693377971649170e+00 -3.382264312822371721e-01
-8.144317045807838440e+00 5.726813495159149170e+00 -3.370362457353621721e-01
-8.195098295807838440e+00 5.674933612346649170e+00 -3.358613189775496721e-01
-8.373809233307838440e+00 6.488898456096649170e+00 -3.545075592119246721e-01
-8.428496733307838440e+00 6.433722674846649170e+00 -3.532410797197371721e-01
-8.483428373932838440e+00 6.378424823284149170e+00 -3.519746002275496721e-01
-8.538482084870338440e+00 6.322882831096649170e+00 -3.507081207353621721e-01
-8.593535795807838440e+00 6.267340838909149170e+00 -3.494263824541121721e-01
-8.648955717682838440e+00 6.211554706096649170e+00 -3.481599029619246721e-01
-8.704131498932838440e+00 6.155890643596649170e+00 -3.468781646806746721e-01
-8.759551420807838440e+00 6.100104510784149170e+00 -3.456116851884871721e-01
-9.177642241120338440e+00 7.170661151409149170e+00 -3.826295074541121721e-01
-9.226226225495338440e+00 7.099005877971649170e+00 -3.798524078447371721e-01
-9.265532866120338440e+00 7.019782245159149170e+00 -3.765259918291121721e-01
-9.304839506745338440e+00 6.940680682659149170e+00 -3.732148346025496721e-01
-9.343902006745338440e+00 6.862189471721649170e+00 -3.699189361650496721e-01
-9.382964506745338440e+00 6.783576190471649170e+00 -3.666230377275496721e-01
-9.427398100495338440e+00 6.710089862346649170e+00 -3.638306793291121721e-01
-9.476836577057838440e+00 6.640265643596649170e+00 -3.616944488603621721e-01
-9.868926420807838440e+00 7.757453143596649170e+00 -3.915558990556746721e-01
-9.946074858307838440e+00 7.699835956096649170e+00 -3.908234771806746721e-01
-1.002358950674533844e+01 7.641852557659149170e+00 -3.900910553056746721e-01
-1.010171450674533844e+01 7.583502948284149170e+00 -3.893586334306746721e-01
-1.017996157705783844e+01 7.525153338909149170e+00 -3.886262115556746721e-01
-1.024172915518283844e+01 7.453009784221649170e+00 -3.865357574541121721e-01
-1.030105532705783844e+01 7.379401385784149170e+00 -3.842927154619246721e-01
-1.036038149893283844e+01 7.305792987346649170e+00 -3.820496734697371721e-01
-1.115945376455783844e+01 8.852057635784149170e+00 -4.380799469072371721e-01
-1.113638247549533844e+01 8.692633807659149170e+00 -4.283753570634871721e-01
-1.043911685049533844e+01 7.983771502971649170e+00 -3.688203033525496721e-01
-1.112051333487033844e+01 8.405280292034149170e+00 -4.122010406572371721e-01
-1.122659243643283844e+01 8.354987323284149170e+00 -4.126282867509871721e-01
-1.133389224112033844e+01 8.304206073284149170e+00 -4.130555328447371721e-01
-1.144168032705783844e+01 8.253180682659149170e+00 -4.134980377275496721e-01
-1.154482974112033844e+01 8.197638690471649170e+00 -4.138642486650496721e-01
-1.577163638174533844e+01 1.276111525297164917e+01 -7.016755279619246721e-01
-1.599099673330783844e+01 1.273828810453414917e+01 -7.062531646806746721e-01
-1.043911685049533844e+01 7.985358417034149170e+00 -3.143616851884871721e-01
-1.649441470205783844e+01 1.273401564359664917e+01 -7.192841705400496721e-01
-1.684634341299533844e+01 1.280530470609664917e+01 -7.322083648759871721e-01
-1.725247134268283844e+01 1.291126173734664917e+01 -7.483826812822371721e-01
-1.255801333487033844e+01 9.108893573284149170e+00 -4.282075103837996721e-01
-1.267507876455783844e+01 9.049079120159149170e+00 -4.281922515947371721e-01
-1.605264224112033844e+01 1.300183790922164917e+01 -6.324311431962996721e-01
-1.639273013174533844e+01 1.307569044828414917e+01 -6.437684234697371721e-01
-1.043911685049533844e+01 7.987067401409149170e+00 -2.596284088212996721e-01
-1.705374087393283844e+01 1.318726271390914917e+01 -6.637269195634871721e-01
-1.736294497549533844e+01 1.321716994047164917e+01 -6.722108062822371721e-01
-1.768130435049533844e+01 1.324793165922164917e+01 -6.809388336259871721e-01
-1.808181704580783844e+01 1.333679884672164917e+01 -6.948853668291121721e-01
-1.842495669424533844e+01 1.337488478422164917e+01 -7.045289215166121721e-01
-1.635049380362033844e+01 1.325696486234664917e+01 -5.603333648759871721e-01
-1.663455142080783844e+01 1.328003615140914917e+01 -5.668183502275496721e-01
-1.043899478018283844e+01 7.988654315471649170e+00 -2.051850494462996721e-01
-1.723648013174533844e+01 1.333728712797164917e+01 -5.809479888994246721e-01
-1.755166567862033844e+01 1.336951369047164917e+01 -5.884553131181746721e-01
-1.798452700674533844e+01 1.348706740140914917e+01 -6.021271881181746721e-01
-1.839199770987033844e+01 1.357715529203414917e+01 -6.140595611650496721e-01
-1.865139712393283844e+01 1.354822462797164917e+01 -6.176758941728621721e-01
-1.378652895987033844e+01 1.108618849515914917e+01 -3.361512359697371721e-01
-1.387246645987033844e+01 1.098047560453414917e+01 -3.329316314775496721e-01
-1.043899478018283844e+01 7.990241229534149170e+00 -1.507569488603621721e-01
-1.742336978018283844e+01 1.349072951078414917e+01 -4.962464508134871721e-01
-1.785562075674533844e+01 1.361328810453414917e+01 -5.082246002275496721e-01
-1.831875552237033844e+01 1.375025099515914917e+01 -5.213166412431746721e-01
-1.871206606924533844e+01 1.382520216703414917e+01 -5.306550201494246721e-01
-1.865237368643283844e+01 1.355200880765914917e+01 -5.179444488603621721e-01
-1.370315493643283844e+01 1.101782912015914917e+01 -2.566376861650496721e-01
-1.418398989737033844e+01 1.124243849515914917e+01 -2.714081939775496721e-01
-1.043899478018283844e+01 7.991950213909149170e+00 -9.603893128223717213e-02
-1.772463931143283844e+01 1.373645704984664917e+01 -4.138947662431746721e-01
-1.818875063955783844e+01 1.388013380765914917e+01 -4.252015289384871721e-01
-1.866836489737033844e+01 1.402564162015914917e+01 -4.367676910478621721e-01
-1.915042056143283844e+01 1.416394728422164917e+01 -4.480744537431746721e-01
-1.865322817862033844e+01 1.355591505765914917e+01 -4.176942047197371721e-01
-1.685891665518283844e+01 1.369629591703414917e+01 -3.081360992509871721e-01
-1.370620669424533844e+01 1.084632033109664917e+01 -1.754151519853621721e-01
-1.043887270987033844e+01 7.993537127971649170e+00 -4.164134827442467213e-02
-1.805874575674533844e+01 1.400867384672164917e+01 -3.298035797197371721e-01
-1.853347720205783844e+01 1.415637892484664917e+01 -3.392640289384871721e-01
-1.893643130362033844e+01 1.423755568265914917e+01 -3.456574615556746721e-01
-1.933816470205783844e+01 1.431104201078414917e+01 -3.517457183916121721e-01
-1.865420474112033844e+01 1.355982130765914917e+01 -3.179780181962996721e-01
-1.382681216299533844e+01 1.112720412015914917e+01 -1.109315094072371721e-01
-1.424514712393283844e+01 1.129810255765914917e+01 -1.188050445634871721e-01
-1.043887270987033844e+01 7.995124042034149170e+00 1.277149352245032787e-02
-1.831021060049533844e+01 1.421448439359664917e+01 -2.390900787431746721e-01
-1.868337954580783844e+01 1.427832716703414917e+01 -2.430573638994246721e-01
-1.912161196768283844e+01 1.438501662015914917e+01 -2.488251861650496721e-01
-1.836794985830783844e+01 1.357117384672164917e+01 -2.166444000322371721e-01
-1.865518130362033844e+01 1.356360548734664917e+01 -2.177430328447371721e-01
-1.380544985830783844e+01 1.111133497953414917e+01 -3.485118714161217213e-02
-1.424795474112033844e+01 1.130274122953414917e+01 -4.141246643848717213e-02
-1.043887270987033844e+01 7.996710956096649170e+00 6.744373473338782787e-02
-1.845278872549533844e+01 1.433252638578414917e+01 -1.419831451494246721e-01
-1.803591860830783844e+01 1.376819533109664917e+01 -1.236725982744246721e-01
-1.816360415518283844e+01 1.364160841703414917e+01 -1.198121246416121721e-01
-1.829507388174533844e+01 1.351831740140914917e+01 -1.160737213212996721e-01
-1.865615786612033844e+01 1.356751173734664917e+01 -1.180421051103621721e-01
-1.378152407705783844e+01 1.109326857328414917e+01 4.141224059276282787e-02
-1.786184634268283844e+01 1.432068556547164917e+01 -4.180919495411217213e-02
-1.043875063955783844e+01 7.998419940471649170e+00 1.218260589521378279e-01
-1.860488833487033844e+01 1.445838087797164917e+01 -4.396068421192467213e-02
-1.801406802237033844e+01 1.375391310453414917e+01 -2.514659729786217213e-02
-1.814163149893283844e+01 1.362757033109664917e+01 -2.120982971973717213e-02
-1.826895083487033844e+01 1.350134962797164917e+01 -1.727306214161217213e-02
-1.865713442862033844e+01 1.357141798734664917e+01 -1.780711975879967213e-02
-1.704128970205783844e+01 1.386243361234664917e+01 6.471241149120032787e-02
-1.799880923330783844e+01 1.443799513578414917e+01 5.560291442088782787e-02
-1.043875063955783844e+01 8.000006854534149170e+00 1.764983001630753279e-01
-1.879568423330783844e+01 1.461536329984664917e+01 5.581653746776282787e-02
-1.925637759268283844e+01 1.474219435453414917e+01 5.531299742870032787e-02
-1.970303286612033844e+01 1.484802931547164917e+01 5.526722106151282787e-02
-2.008682192862033844e+01 1.489783400297164917e+01 5.630481871776282787e-02
-1.865811099112033844e+01 1.357520216703414917e+01 8.189380797557532787e-02
-9.717559233307838440e+00 7.647711932659149170e+00 2.323454681318253279e-01
-9.993682280182838440e+00 7.758429706096649170e+00 2.321776214521378279e-01
-1.028372134268283844e+01 7.874396502971649170e+00 2.322996917646378279e-01
-1.059036196768283844e+01 7.997077167034149170e+00 2.324217620771378279e-01
-1.086245669424533844e+01 8.085944354534149170e+00 2.330015960615128279e-01
-1.115530337393283844e+01 8.184943377971649170e+00 2.335356536787003279e-01
-1.146121157705783844e+01 8.288336932659149170e+00 2.341002288740128279e-01
-1.178152407705783844e+01 8.396369159221649170e+00 2.350157562177628279e-01
-9.599151030182838440e+00 7.548712909221649170e+00 2.835692230146378279e-01
-9.867705717682838440e+00 7.654792010784149170e+00 2.849730316083878279e-01
-1.015139712393283844e+01 7.767340838909149170e+00 2.864531341474503279e-01
-1.047390688955783844e+01 7.904792010784149170e+00 2.879637542646378279e-01
-1.077835024893283844e+01 8.021002948284149170e+00 2.896422210615128279e-01
-1.108792056143283844e+01 8.134162127971649170e+00 2.914427581708878279e-01
-1.141262759268283844e+01 8.252936542034149170e+00 2.933501068037003279e-01
-1.175491274893283844e+01 8.378180682659149170e+00 2.953490081708878279e-01
-9.656768217682838440e+00 7.599127948284149170e+00 3.339995208662003279e-01
-9.950225248932838440e+00 7.725226581096649170e+00 3.367613616865128279e-01
-1.026052798330783844e+01 7.858649432659149170e+00 3.396757903974503279e-01
-1.053848208487033844e+01 7.958502948284149170e+00 3.423308196943253279e-01
-1.088198794424533844e+01 8.104865252971649170e+00 3.455656829755753279e-01
-1.119705142080783844e+01 8.221198260784149170e+00 3.491514984052628279e-01
-1.150015200674533844e+01 8.321906268596649170e+00 3.525084319990128279e-01
-1.181802310049533844e+01 8.427619159221649170e+00 3.560332122724503279e-01
-9.681060209870338440e+00 7.621344745159149170e+00 3.848570648115128279e-01
-9.949370756745338440e+00 7.726081073284149170e+00 3.885496917646378279e-01
-1.023074282705783844e+01 7.835822284221649170e+00 3.927000823896378279e-01
-1.052786196768283844e+01 7.951667010784149170e+00 3.970946136396378279e-01
-1.080154360830783844e+01 8.042731463909149170e+00 4.013518157880753279e-01
-1.108621157705783844e+01 8.136359393596649170e+00 4.058073821943253279e-01
-1.138320864737033844e+01 8.234015643596649170e+00 4.104460540693253279e-01
-1.169387759268283844e+01 8.335944354534149170e+00 4.156340423505753279e-01
-7.719512358307838440e+00 5.316413104534149170e+00 -3.284302887041121721e-01
-7.762847319245338440e+00 5.264899432659149170e+00 -3.269196685869246721e-01
-7.803862944245338440e+00 5.211676776409149170e+00 -3.253937896806746721e-01
-7.846953764557838440e+00 5.159674823284149170e+00 -3.240357574541121721e-01
-7.887359037995338440e+00 5.105841815471649170e+00 -3.224335846025496721e-01
-7.927520170807838440e+00 5.051520526409149170e+00 -3.207703765947371721e-01
-7.967437162995338440e+00 4.997321307659149170e+00 -3.191071685869246721e-01
-8.004790678620338440e+00 4.941291034221649170e+00 -3.173981842119246721e-01
-8.195220366120338440e+00 5.674689471721649170e+00 -3.358460601884871721e-01
-8.243926420807838440e+00 5.621100604534149170e+00 -3.346100982744246721e-01
-8.292632475495338440e+00 5.567267596721649170e+00 -3.333893951494246721e-01
-8.344512358307838440e+00 5.515265643596649170e+00 -3.321992096025496721e-01
-8.393584623932838440e+00 5.461310565471649170e+00 -3.309632476884871721e-01
-8.439971342682838440e+00 5.405036151409149170e+00 -3.296662506181746721e-01
-8.489043608307838440e+00 5.350836932659149170e+00 -3.284302887041121721e-01
-8.538360014557838440e+00 5.296637713909149170e+00 -3.271943267900496721e-01
-8.759673491120338440e+00 6.099860370159149170e+00 -3.455964263994246721e-01
-8.812896147370338440e+00 6.042365252971649170e+00 -3.442841705400496721e-01
-8.866240873932838440e+00 5.984625995159149170e+00 -3.429566558916121721e-01
-8.919951811432838440e+00 5.926642596721649170e+00 -3.416291412431746721e-01
-8.973540678620338440e+00 5.868781268596649170e+00 -3.403016265947371721e-01
-9.027495756745338440e+00 5.810553729534149170e+00 -3.389741119462996721e-01
-9.081328764557838440e+00 5.752326190471649170e+00 -3.376465972978621721e-01
-9.135283842682838440e+00 5.693976581096649170e+00 -3.363038238603621721e-01
-9.476836577057838440e+00 6.640021502971649170e+00 -3.616791900712996721e-01
-9.532134428620338440e+00 6.574713885784149170e+00 -3.596955474931746721e-01
-9.583281889557838440e+00 6.506232440471649170e+00 -3.576050933916121721e-01
-9.634673491120338440e+00 6.437506854534149170e+00 -3.554993805009871721e-01
-9.685820952057838440e+00 6.369025409221649170e+00 -3.534089263994246721e-01
-9.737212553620338440e+00 6.300177752971649170e+00 -3.513184722978621721e-01
-9.788360014557838440e+00 6.231696307659149170e+00 -3.492280181962996721e-01
-9.836577787995338440e+00 6.160895526409149170e+00 -3.471375640947371721e-01
-1.036050356924533844e+01 7.305426776409149170e+00 -3.820344146806746721e-01
-1.041726626455783844e+01 7.229743182659149170e+00 -3.797303375322371721e-01
-1.047439517080783844e+01 7.154425799846649170e+00 -3.774415191728621721e-01
-1.054141177237033844e+01 7.085578143596649170e+00 -3.758698638994246721e-01
-1.060830630362033844e+01 7.016852557659149170e+00 -3.742982086259871721e-01
-1.067568911612033844e+01 6.947638690471649170e+00 -3.727112945634871721e-01
-1.074294985830783844e+01 6.878424823284149170e+00 -3.711243805009871721e-01
-1.081033267080783844e+01 6.809088885784149170e+00 -3.695374664384871721e-01
-1.154531802237033844e+01 8.197516620159149170e+00 -4.138642486650496721e-01
-1.164981020987033844e+01 8.141852557659149170e+00 -4.137726959306746721e-01
-1.170986880362033844e+01 8.052863299846649170e+00 -4.108277496416121721e-01
-1.177017153799533844e+01 7.963629901409149170e+00 -4.078828033525496721e-01
-1.183010806143283844e+01 7.874640643596649170e+00 -4.049531158525496721e-01
-1.187881411612033844e+01 7.777594745159149170e+00 -4.012299713212996721e-01
-1.192764224112033844e+01 7.681281268596649170e+00 -3.975526031572371721e-01
-1.196853579580783844e+01 7.580084979534149170e+00 -3.936921295244246721e-01
-1.267556704580783844e+01 9.048957049846649170e+00 -4.282075103837996721e-01
-1.279104556143283844e+01 8.986945331096649170e+00 -4.281312164384871721e-01
-1.290750063955783844e+01 8.924323260784149170e+00 -4.280701812822371721e-01
-1.302529849112033844e+01 8.860968768596649170e+00 -4.280091461259871721e-01
-1.314370669424533844e+01 8.797248065471649170e+00 -4.279328521806746721e-01
-1.326345767080783844e+01 8.732917010784149170e+00 -4.278718170244246721e-01
-1.338381899893283844e+01 8.668097674846649170e+00 -4.277955230791121721e-01
-1.350515688955783844e+01 8.602912127971649170e+00 -4.277344879228621721e-01
-1.842678774893283844e+01 1.337549513578414917e+01 -7.046052154619246721e-01
-1.877944888174533844e+01 1.341431349515914917e+01 -7.146302398759871721e-01
-1.915237368643283844e+01 1.346155470609664917e+01 -7.249909576494246721e-01
-1.309963931143283844e+01 8.916144549846649170e+00 -3.656159576494246721e-01
-2.009500063955783844e+01 1.367310255765914917e+01 -7.569733795244246721e-01
-1.521243228018283844e+01 1.007739943265914917e+01 -4.705048736650496721e-01
-1.453372134268283844e+01 9.448371112346649170e+00 -4.248353180009871721e-01
-1.541616763174533844e+01 9.875128924846649170e+00 -4.658509430009871721e-01
-1.865066470205783844e+01 1.354688185453414917e+01 -6.175996002275496721e-01
-1.911917056143283844e+01 1.366858595609664917e+01 -6.322175201494246721e-01
-1.966775454580783844e+01 1.383924025297164917e+01 -6.506196197587996721e-01
-1.309976138174533844e+01 8.918219745159149170e+00 -2.988892730791121721e-01
-2.057864321768283844e+01 1.401563185453414917e+01 -6.762849029619246721e-01
-2.094265688955783844e+01 1.402771681547164917e+01 -6.838837799150496721e-01
-1.453372134268283844e+01 9.450690448284149170e+00 -3.509370025712996721e-01
-2.068447817862033844e+01 1.337952345609664917e+01 -6.492921051103621721e-01
-1.865164126455783844e+01 1.355078810453414917e+01 -5.178834137041121721e-01
-1.976724185049533844e+01 1.415100783109664917e+01 -5.610963043291121721e-01
-2.014736880362033844e+01 1.419104689359664917e+01 -5.687409576494246721e-01
-1.309976138174533844e+01 8.920417010784149170e+00 -2.321778472978621721e-01
-2.090884341299533844e+01 1.425073927640914917e+01 -5.831910308916121721e-01
-2.128433169424533844e+01 1.426660841703414917e+01 -5.897217926103621721e-01
-1.453372134268283844e+01 9.453131854534149170e+00 -2.774506744462996721e-01
-2.068167056143283844e+01 1.338111037015914917e+01 -5.422364410478621721e-01
-1.865261782705783844e+01 1.355457228422164917e+01 -4.176331695634871721e-01
-1.995767153799533844e+01 1.429517287015914917e+01 -4.629365142900496721e-01
-2.032107485830783844e+01 1.432068556547164917e+01 -4.682770904619246721e-01
-1.309976138174533844e+01 8.922614276409149170e+00 -1.651154693681746721e-01
-2.112124575674533844e+01 1.440332716703414917e+01 -4.810639556962996721e-01
-2.150161685049533844e+01 1.442005079984664917e+01 -4.862366851884871721e-01
-1.453372134268283844e+01 9.455451190471649170e+00 -2.035828765947371721e-01
-2.067874087393283844e+01 1.338281935453414917e+01 -4.346619781572371721e-01
-1.865359438955783844e+01 1.355847853422164917e+01 -3.179322418291121721e-01
-2.012795962393283844e+01 1.442444533109664917e+01 -3.624726471025496721e-01
-2.049697817862033844e+01 1.445203322172164917e+01 -3.665009674150496721e-01
-1.309976138174533844e+01 8.924689471721649170e+00 -9.843456116504967213e-02
-2.017324770987033844e+01 1.374158400297164917e+01 -3.371125396806746721e-01
-2.027310122549533844e+01 1.357666701078414917e+01 -3.317109283525496721e-01
-1.453359927237033844e+01 9.457892596721649170e+00 -1.301118072587996721e-01
-2.067593325674533844e+01 1.338440626859664917e+01 -3.277131256181746721e-01
-1.865457095205783844e+01 1.356238478422164917e+01 -2.176972564775496721e-01
-2.030227603018283844e+01 1.455689162015914917e+01 -2.596284088212996721e-01
-2.071939028799533844e+01 1.461707228422164917e+01 -2.641297515947371721e-01
-1.309976138174533844e+01 8.926886737346649170e+00 -3.175365296192467213e-02
-1.915652407705783844e+01 1.303125685453414917e+01 -2.017975982744246721e-01
-1.931741274893283844e+01 1.292090529203414917e+01 -1.986390289384871721e-01
-1.453359927237033844e+01 9.460211932659149170e+00 -5.625926819629967213e-02
-2.067312563955783844e+01 1.338599318265914917e+01 -2.202454742509871721e-01
-1.865542544424533844e+01 1.356616896390914917e+01 -1.179963287431746721e-01
-2.050649966299533844e+01 1.471143263578414917e+01 -1.561280426103621721e-01
-2.094644106924533844e+01 1.478577345609664917e+01 -1.587830719072371721e-01
-1.309976138174533844e+01 8.928961932659149170e+00 3.527820738963782787e-02
-2.177822817862033844e+01 1.487537306547164917e+01 -1.621705230791121721e-01
-1.927102603018283844e+01 1.289221876859664917e+01 -9.654247132129967213e-02
-1.453359927237033844e+01 9.462531268596649170e+00 1.718128356151282787e-02
-2.067031802237033844e+01 1.338758009672164917e+01 -1.133729156572371721e-01
-1.865640200674533844e+01 1.357007521390914917e+01 -1.776134339161217213e-02
-2.073928774893283844e+01 1.488721388578414917e+01 -5.084239807911217213e-02
-2.116641177237033844e+01 1.494934767484664917e+01 -5.134593811817467213e-02
-1.309988345205783844e+01 8.931159198284149170e+00 1.019438568037003279e-01
-2.022610415518283844e+01 1.378882521390914917e+01 -1.983653870411217213e-02
-1.924807681143283844e+01 1.287964552640914917e+01 4.073983756825327873e-03
-1.453359927237033844e+01 9.464972674846649170e+00 9.062183531932532787e-02
-2.009878481924533844e+01 1.301050490140914917e+01 3.433114616200327873e-03
-1.865737856924533844e+01 1.357398146390914917e+01 8.192432555370032787e-02
-1.813748110830783844e+01 1.296424025297164917e+01 9.480274352245032787e-02
-2.139260806143283844e+01 1.511756056547164917e+01 5.911243590526282787e-02
-1.309988345205783844e+01 8.933234393596649170e+00 1.689451995771378279e-01
-1.869509829580783844e+01 1.271668165922164917e+01 1.053618255537003279e-01
-1.375454653799533844e+01 9.091193377971649170e+00 1.692045989912003279e-01
-1.411917056143283844e+01 9.186408221721649170e+00 1.691588226240128279e-01
-1.450125063955783844e+01 9.286017596721649170e+00 1.691130462568253279e-01
-1.178359927237033844e+01 8.397345721721649170e+00 2.350004974287003279e-01
-1.212161196768283844e+01 8.511847674846649170e+00 2.355040374677628279e-01
-1.247671450674533844e+01 8.631720721721649170e+00 2.363585296552628279e-01
-1.285256899893283844e+01 8.758551776409149170e+00 2.372740569990128279e-01
-1.324819888174533844e+01 8.892096698284149170e+00 2.382353607099503279e-01
-1.359072817862033844e+01 8.980353534221649170e+00 2.397307220380753279e-01
-1.394668520987033844e+01 9.071662127971649170e+00 2.412871185224503279e-01
-1.434402407705783844e+01 9.183722674846649170e+00 2.431792083662003279e-01
-1.175711001455783844e+01 8.379401385784149170e+00 2.953490081708878279e-01
-1.211917056143283844e+01 8.511969745159149170e+00 2.976836028974503279e-01
-1.250234927237033844e+01 8.652350604534149170e+00 3.001555267255753279e-01
-1.290994204580783844e+01 8.801642596721649170e+00 3.027952972333878279e-01
-1.332290591299533844e+01 8.946784198284149170e+00 3.055876556318253279e-01
-1.369363345205783844e+01 9.053717792034149170e+00 3.086088958662003279e-01
-1.408181704580783844e+01 9.165656268596649170e+00 3.117827239912003279e-01
-1.447183169424533844e+01 9.271125018596649170e+00 3.151091400068253279e-01
-1.182009829580783844e+01 8.428717792034149170e+00 3.560484710615128279e-01
-1.215347231924533844e+01 8.539435565471649170e+00 3.599852386396378279e-01
-1.250442446768283844e+01 8.655890643596649170e+00 3.641508880537003279e-01
-1.287612856924533844e+01 8.779547870159149170e+00 3.681944671552628279e-01
-1.321096743643283844e+01 8.870246112346649170e+00 3.725432220380753279e-01
-1.360086001455783844e+01 8.991828143596649170e+00 3.776701751630753279e-01
-1.395291079580783844e+01 9.080451190471649170e+00 3.823698821943253279e-01
-1.432119692862033844e+01 9.173224627971649170e+00 3.872984710615128279e-01
-1.169583071768283844e+01 8.336920917034149170e+00 4.156645599287003279e-01
-1.205337466299533844e+01 8.467047870159149170e+00 4.210356536787003279e-01
-1.244692935049533844e+01 8.616095721721649170e+00 4.272154632490128279e-01
-1.286660708487033844e+01 8.774909198284149170e+00 4.337920013349503279e-01
-1.329910220205783844e+01 8.934333026409149170e+00 4.406584564130753279e-01
-1.367983950674533844e+01 9.048590838909149170e+00 4.471129241865128279e-01
-1.407925356924533844e+01 9.168463885784149170e+00 4.539030853193253279e-01
-2.044790591299533844e+01 1.326013869047164917e+01 5.267943206708878279e-01
-8.004912748932838440e+00 4.941168963909149170e+00 -3.174134430009871721e-01
-8.045318022370338440e+00 4.887213885784149170e+00 -3.157654937822371721e-01
-8.083037748932838440e+00 4.831427752971649170e+00 -3.140565094072371721e-01
-8.120879545807838440e+00 4.775397479534149170e+00 -3.123475250322371721e-01
-8.158599272370338440e+00 4.719611346721649170e+00 -3.106385406572371721e-01
-8.196563139557838440e+00 4.663459002971649170e+00 -3.089295562822371721e-01
-8.234282866120338440e+00 4.607550799846649170e+00 -3.072205719072371721e-01
-8.269317045807838440e+00 4.549933612346649170e+00 -3.054658111650496721e-01
-8.538604155182838440e+00 5.296515643596649170e+00 -3.271943267900496721e-01
-8.585723295807838440e+00 5.240607440471649170e+00 -3.259125885087996721e-01
-8.632964506745338440e+00 5.184577167034149170e+00 -3.246308502275496721e-01
-8.680571928620338440e+00 5.128180682659149170e+00 -3.231354888994246721e-01
-8.721587553620338440e+00 5.067877948284149170e+00 -3.213044342119246721e-01
-8.759551420807838440e+00 5.005377948284149170e+00 -3.193970855791121721e-01
-8.800567045807838440e+00 4.945075213909149170e+00 -3.175507721025496721e-01
-8.841582670807838440e+00 4.884650409221649170e+00 -3.157044586259871721e-01
-9.135527983307838440e+00 5.693976581096649170e+00 -3.363190826494246721e-01
-9.187285795807838440e+00 5.633917987346649170e+00 -3.349457916337996721e-01
-9.239165678620338440e+00 5.573737323284149170e+00 -3.335725006181746721e-01
-9.291411772370338440e+00 5.513312518596649170e+00 -3.321839508134871721e-01
-9.343535795807838440e+00 5.452887713909149170e+00 -3.307954010087996721e-01
-9.396026030182838440e+00 5.391974627971649170e+00 -3.294068512041121721e-01
-9.448516264557838440e+00 5.331305682659149170e+00 -3.280183013994246721e-01
-9.501006498932838440e+00 5.270270526409149170e+00 -3.266297515947371721e-01
-9.836821928620338440e+00 6.160895526409149170e+00 -3.471528228837996721e-01
-9.906279936432838440e+00 6.104010760784149170e+00 -3.463441070634871721e-01
-9.972075834870338440e+00 6.044318377971649170e+00 -3.454743560869246721e-01
-1.003836001455783844e+01 5.984137713909149170e+00 -3.446046051103621721e-01
-1.010476626455783844e+01 5.923834979534149170e+00 -3.437348541337996721e-01
-1.017166079580783844e+01 5.863043963909149170e+00 -3.428498443681746721e-01
-1.023867739737033844e+01 5.802252948284149170e+00 -3.419648346025496721e-01
-1.030105532705783844e+01 5.738166034221649170e+00 -3.409730133134871721e-01
-1.081057681143283844e+01 6.808966815471649170e+00 -3.695374664384871721e-01
-1.087576235830783844e+01 6.737799823284149170e+00 -3.679047760087996721e-01
-1.094106997549533844e+01 6.666388690471649170e+00 -3.662720855791121721e-01
-1.100686587393283844e+01 6.594489276409149170e+00 -3.646393951494246721e-01
-1.107266177237033844e+01 6.522711932659149170e+00 -3.629914459306746721e-01
-1.113882388174533844e+01 6.450324237346649170e+00 -3.613282379228621721e-01
-1.120498599112033844e+01 6.378058612346649170e+00 -3.596802887041121721e-01
-1.127139224112033844e+01 6.305670917034149170e+00 -3.580323394853621721e-01
-1.196890200674533844e+01 7.579840838909149170e+00 -3.936921295244246721e-01
-1.202200259268283844e+01 7.487067401409149170e+00 -3.901520904619246721e-01
-1.206851138174533844e+01 7.390143573284149170e+00 -3.865052398759871721e-01
-1.214297427237033844e+01 7.310553729534149170e+00 -3.846436676103621721e-01
-1.221743716299533844e+01 7.231085956096649170e+00 -3.827820953447371721e-01
-1.229238833487033844e+01 7.151007831096649170e+00 -3.809052642900496721e-01
-1.236733950674533844e+01 7.070929706096649170e+00 -3.790436920244246721e-01
-1.243386782705783844e+01 6.985480487346649170e+00 -3.769379791337996721e-01
-1.350576724112033844e+01 8.602912127971649170e+00 -4.277497467119246721e-01
-1.362551821768283844e+01 8.535285174846649170e+00 -4.276276763994246721e-01
-1.374636782705783844e+01 8.467047870159149170e+00 -4.275208648759871721e-01
-1.386282290518283844e+01 8.394171893596649170e+00 -4.270478424150496721e-01
-1.396658267080783844e+01 8.312995135784149170e+00 -4.258118805009871721e-01
-1.407144106924533844e+01 8.230963885784149170e+00 -4.245606597978621721e-01
-1.417300356924533844e+01 8.146735370159149170e+00 -4.231110748369246721e-01
-1.424624575674533844e+01 8.045050799846649170e+00 -4.200135406572371721e-01
-1.541677798330783844e+01 9.874884784221649170e+00 -4.658509430009871721e-01
-1.552090395987033844e+01 9.774420917034149170e+00 -4.635010894853621721e-01
-1.563198794424533844e+01 9.677619159221649170e+00 -4.610596832353621721e-01
-1.573745669424533844e+01 9.575934588909149170e+00 -4.586793121416121721e-01
-1.584915103018283844e+01 9.477912127971649170e+00 -4.566193756181746721e-01
-1.601626528799533844e+01 9.412116229534149170e+00 -4.573975738603621721e-01
-1.614541567862033844e+01 9.322272479534149170e+00 -4.565583404619246721e-01
-1.627285708487033844e+01 9.230231463909149170e+00 -4.551545318681746721e-01
-2.068545474112033844e+01 1.337940138578414917e+01 -6.493073638994246721e-01
-2.215920962393283844e+01 1.411035841703414917e+01 -7.112580474931746721e-01
-2.255056704580783844e+01 1.411511915922164917e+01 -7.191315826494246721e-01
-2.293167056143283844e+01 1.410596388578414917e+01 -7.261658844072371721e-01
-2.329104556143283844e+01 1.407800978422164917e+01 -7.319337066728621721e-01
-2.365994204580783844e+01 1.404932326078414917e+01 -7.378541168291121721e-01
-2.402004946768283844e+01 1.401062697172164917e+01 -7.431336578447371721e-01
-2.437234438955783844e+01 1.396179884672164917e+01 -7.478181060869246721e-01
-2.068252505362033844e+01 1.338098829984664917e+01 -5.422516998369246721e-01
-2.243508853018283844e+01 1.429419630765914917e+01 -6.088868316728621721e-01
-2.284756411612033844e+01 1.430933302640914917e+01 -6.159821685869246721e-01
-2.323745669424533844e+01 1.430225294828414917e+01 -6.217957672197371721e-01
-2.363357485830783844e+01 1.429358595609664917e+01 -6.276246246416121721e-01
-2.403481997549533844e+01 1.428076857328414917e+01 -6.333619293291121721e-01
-2.443789614737033844e+01 1.426331251859664917e+01 -6.389313873369246721e-01
-2.485513247549533844e+01 1.424780958890914917e+01 -6.448060211259871721e-01
-2.067971743643283844e+01 1.338257521390914917e+01 -4.346772369462996721e-01
-2.267947329580783844e+01 1.445764845609664917e+01 -5.016633209306746721e-01
-2.309585513174533844e+01 1.447241896390914917e+01 -5.071564849931746721e-01
-1.586990298330783844e+01 9.667121112346649170e+00 -2.278596099931746721e-01
-2.103274478018283844e+01 1.268994826078414917e+01 -4.108124908525496721e-01
-2.429653872549533844e+01 1.444361037015914917e+01 -5.200959381181746721e-01
-2.471450747549533844e+01 1.443225783109664917e+01 -5.245515045244246721e-01
-2.513626040518283844e+01 1.441638869047164917e+01 -5.288697418291121721e-01
-2.067690981924533844e+01 1.338416212797164917e+01 -3.277131256181746721e-01
-2.295046938955783844e+01 1.463855665922164917e+01 -3.932801422197371721e-01
-2.334805239737033844e+01 1.463819044828414917e+01 -3.963929351884871721e-01
-1.586257876455783844e+01 9.665167987346649170e+00 -1.484986480791121721e-01
-2.096340884268283844e+01 1.265064162015914917e+01 -3.020783599931746721e-01
-2.109939517080783844e+01 1.250745314359664917e+01 -2.977143463212996721e-01
-2.123525942862033844e+01 1.236426466703414917e+01 -2.933350738603621721e-01
-2.542129458487033844e+01 1.458716505765914917e+01 -4.107514556962996721e-01
-2.067398013174533844e+01 1.338574904203414917e+01 -2.202454742509871721e-01
-2.053677310049533844e+01 1.306507033109664917e+01 -2.082825836259871721e-01
-2.360513247549533844e+01 1.480713576078414917e+01 -2.830201324541121721e-01
-1.585525454580783844e+01 9.663092792034149170e+00 -6.921398011036217213e-02
-2.094045962393283844e+01 1.263989943265914917e+01 -1.953278717119246721e-01
-2.486721743643283844e+01 1.479822462797164917e+01 -2.877198394853621721e-01
-2.122207583487033844e+01 1.235999220609664917e+01 -1.859131988603621721e-01
-2.571462954580783844e+01 1.476294630765914917e+01 -2.891389068681746721e-01
-2.067117251455783844e+01 1.338733595609664917e+01 -1.133729156572371721e-01
-2.052358950674533844e+01 1.305982130765914917e+01 -1.025086578447371721e-01
-2.386880435049533844e+01 1.498035353422164917e+01 -1.663666900712996721e-01
-1.584793032705783844e+01 9.661139667034149170e+00 1.039112242870032787e-02
-2.091738833487033844e+01 1.262915724515914917e+01 -8.827220764942467213e-02
-2.105288638174533844e+01 1.248633497953414917e+01 -8.354198304004967213e-02
-2.121560610830783844e+01 1.235974806547164917e+01 -7.936107483692467213e-02
-2.600784243643283844e+01 1.493884962797164917e+01 -1.651154693681746721e-01
-2.010061587393283844e+01 1.301099318265914917e+01 3.417855827137827873e-03
-2.042434634268283844e+01 1.299841994047164917e+01 4.501229850575327873e-03
-2.414395083487033844e+01 1.516101759672164917e+01 -4.768382874317467213e-02
-1.584072817862033844e+01 9.659186542034149170e+00 8.949268492870032787e-02
-2.501333560049533844e+01 1.516760939359664917e+01 -4.455577698536217213e-02
-2.104580630362033844e+01 1.248560255765914917e+01 2.262867125682532787e-02
-2.120901431143283844e+01 1.235938185453414917e+01 2.713001403026282787e-02
-2.366726626455783844e+01 1.357422560453414917e+01 -1.374420244246721268e-04
-1.450369204580783844e+01 9.287116229534149170e+00 1.690977874677628279e-01
-1.490408267080783844e+01 9.391486346721649170e+00 1.692503753583878279e-01
-1.532498110830783844e+01 9.501105487346649170e+00 1.694029632490128279e-01
-1.576943911612033844e+01 9.616828143596649170e+00 1.695708099287003279e-01
-1.612759341299533844e+01 9.671271502971649170e+00 1.708067718427628279e-01
-1.651565493643283844e+01 9.736701190471649170e+00 1.719511810224503279e-01
-1.691860903799533844e+01 9.804694354534149170e+00 1.731413665693253279e-01
-1.733901919424533844e+01 9.875495135784149170e+00 1.743925872724503279e-01
-1.434658755362033844e+01 9.184943377971649170e+00 2.431792083662003279e-01
-1.476785220205783844e+01 9.304816424846649170e+00 2.445982757490128279e-01
-1.521328677237033844e+01 9.431769549846649170e+00 2.464903655927628279e-01
-1.568557681143283844e+01 9.566535174846649170e+00 2.484892669599503279e-01
-1.608706606924533844e+01 9.648810565471649170e+00 2.510374847333878279e-01
-1.650088442862033844e+01 9.730475604534149170e+00 2.537382903974503279e-01
-1.693215884268283844e+01 9.815558612346649170e+00 2.565459075849503279e-01
-1.738479556143283844e+01 9.905158221721649170e+00 2.599486175458878279e-01
-1.447415103018283844e+01 9.272223651409149170e+00 3.151243987958878279e-01
-1.486782778799533844e+01 9.372565448284149170e+00 3.188780609052628279e-01
-1.528115786612033844e+01 9.478034198284149170e+00 3.228300872724503279e-01
-1.571731509268283844e+01 9.589118182659149170e+00 3.270109954755753279e-01
-1.608157290518283844e+01 9.648078143596649170e+00 3.312834564130753279e-01
-1.646401919424533844e+01 9.710700213909149170e+00 3.357542816083878279e-01
-1.686099185049533844e+01 9.775885760784149170e+00 3.403929534833878279e-01
-1.727493228018283844e+01 9.843756854534149170e+00 3.452299896162003279e-01
-1.432351626455783844e+01 9.174201190471649170e+00 3.873137298505753279e-01
-1.475588931143283844e+01 9.301764667034149170e+00 3.930510345380753279e-01
-1.521475161612033844e+01 9.437873065471649170e+00 3.991087737958878279e-01
-1.570132388174533844e+01 9.581671893596649170e+00 4.051359954755753279e-01
-1.611001528799533844e+01 9.668341815471649170e+00 4.112547698896378279e-01
-1.653640688955783844e+01 9.757575213909149170e+00 4.180907073896378279e-01
-1.698049868643283844e+01 9.849982440471649170e+00 4.247893157880753279e-01
-2.628750552237033844e+01 1.512476271390914917e+01 4.951018157880753279e-01
-2.044985903799533844e+01 1.326074904203414917e+01 5.268248382490128279e-01
-2.060952700674533844e+01 1.313684767484664917e+01 5.322874847333878279e-01
-2.053738345205783844e+01 1.286255568265914917e+01 5.356901946943253279e-01
-2.061148013174533844e+01 1.268396681547164917e+01 5.407255950849503279e-01
-2.613272036612033844e+01 1.588257521390914917e+01 6.101683441083878279e-01
-2.662551821768283844e+01 1.589746779203414917e+01 6.213835540693253279e-01
-2.653445376455783844e+01 1.555652540922164917e+01 6.255797210615128279e-01
-2.608718813955783844e+01 1.501184767484664917e+01 6.259459319990128279e-01
-8.269439116120338440e+00 4.549811542034149170e+00 -3.054658111650496721e-01
-8.307647123932838440e+00 4.494025409221649170e+00 -3.037568267900496721e-01
-8.343169584870338440e+00 4.436530292034149170e+00 -3.020020660478621721e-01
-8.378692045807838440e+00 4.378913104534149170e+00 -3.002473053056746721e-01
-8.414214506745338440e+00 4.321295917034149170e+00 -2.984925445634871721e-01
-8.449981108307838440e+00 4.263556659221649170e+00 -2.967225250322371721e-01
-8.485503569245338440e+00 4.205817401409149170e+00 -2.949677642900496721e-01
-8.519072905182838440e+00 4.147101581096649170e+00 -2.932282623369246721e-01
-8.841826811432838440e+00 4.884528338909149170e+00 -3.157044586259871721e-01
-8.880401030182838440e+00 4.822516620159149170e+00 -3.138123687822371721e-01
-8.918975248932838440e+00 4.760626971721649170e+00 -3.119202789384871721e-01
-8.961089506745338440e+00 4.700202167034149170e+00 -3.100739654619246721e-01
-8.999785795807838440e+00 4.638068377971649170e+00 -3.081818756181746721e-01
-9.035186186432838440e+00 4.573859393596649170e+00 -3.062134918291121721e-01
-9.074004545807838440e+00 4.511725604534149170e+00 -3.043214019853621721e-01
-9.112700834870338440e+00 4.449469745159149170e+00 -3.024140533525496721e-01
-9.501250639557838440e+00 5.270148456096649170e+00 -3.266297515947371721e-01
-9.551543608307838440e+00 5.207648456096649170e+00 -3.251954254228621721e-01
-9.600493803620338440e+00 5.144049823284149170e+00 -3.236542877275496721e-01
-9.643096342682838440e+00 5.076544940471649170e+00 -3.215943512041121721e-01
-9.518706694245338440e+00 4.919196307659149170e+00 -3.069459137041121721e-01
-9.549102202057838440e+00 4.846808612346649170e+00 -3.040772613603621721e-01
-9.802276030182838440e+00 4.890143573284149170e+00 -3.177338775712996721e-01
-9.856475248932838440e+00 4.828009784221649170e+00 -3.165131744462996721e-01
-1.030142153799533844e+01 5.738043963909149170e+00 -3.409882721025496721e-01
-1.036807192862033844e+01 5.676032245159149170e+00 -3.399201568681746721e-01
-1.041506899893283844e+01 5.602423846721649170e+00 -3.376771148759871721e-01
-9.414946928620338440e+00 4.952521502971649170e+00 -2.612916168291121721e-01
-9.446563139557838440e+00 4.881720721721649170e+00 -2.585755523759871721e-01
-9.478179350495338440e+00 4.810797870159149170e+00 -2.558594879228621721e-01
-1.060378970205783844e+01 5.306769549846649170e+00 -3.286439117509871721e-01
-1.064614810049533844e+01 5.230353534221649170e+00 -3.263093170244246721e-01
-1.127175845205783844e+01 6.305426776409149170e+00 -3.580170806962996721e-01
-1.133572329580783844e+01 6.231208026409149170e+00 -3.563233551103621721e-01
-1.139981020987033844e+01 6.156623065471649170e+00 -3.546143707353621721e-01
-9.376738920807838440e+00 4.932990252971649170e+00 -2.160645660478621721e-01
-9.407622709870338440e+00 4.862189471721649170e+00 -2.133637603837996721e-01
-9.438628569245338440e+00 4.791266620159149170e+00 -2.106476959306746721e-01
-9.822783842682838440e+00 4.903815448284149170e+00 -2.305146392900496721e-01
-1.172463931143283844e+01 5.779425799846649170e+00 -3.459931549150496721e-01
-1.243423403799533844e+01 6.985236346721649170e+00 -3.769379791337996721e-01
