-5.369887565262615681e+00 -1.116083963215351105e+01 -2.036539436317923446e-01
-5.112807487137615681e+00 -1.089082010090351105e+01 -2.062021614052298446e-01
-4.869277213700115681e+00 -1.063508279621601105e+01 -2.086283088661673446e-01
-4.637465690262615681e+00 -1.039179666340351105e+01 -2.109476448036673446e-01
-4.418227409012615681e+00 -1.016144998371601105e+01 -2.131296516396048446e-01
-6.450576041825115681e+00 -1.251594217121601105e+01 -1.257883430458548446e-01
-5.929702018387615681e+00 -1.174848611652851105e+01 -1.355081916786673446e-01
-5.641616080887615681e+00 -1.144611795246601105e+01 -1.401773811317923446e-01
-5.368788932450115681e+00 -1.115961892902851105e+01 -1.446024299599173446e-01
-5.111708854325115681e+00 -1.088959939777851105e+01 -1.487680793739798446e-01
-4.868178580887615681e+00 -1.063398416340351105e+01 -1.527048469521048446e-01
-4.636611198075115681e+00 -1.039082010090351105e+01 -1.564585090614798446e-01
-4.417372916825115681e+00 -1.016059549152851105e+01 -1.597391487099173446e-01
-6.447402213700115681e+00 -1.251093728840351105e+01 -5.913795242085484460e-02
-5.928359244950115681e+00 -1.174714334309101105e+01 -7.264198074116734460e-02
-5.640395377762615681e+00 -1.144477517902851105e+01 -7.911170730366734460e-02
-5.367690299637615681e+00 -1.115839822590351105e+01 -8.524574050679234460e-02
-5.110610221512615681e+00 -1.088850076496601105e+01 -9.102882156147984460e-02
-4.867202018387615681e+00 -1.063300760090351105e+01 -9.650672683491734460e-02
-4.635634635575115681e+00 -1.038972146809101105e+01 -1.017099739052298446e-01
-4.416518424637615681e+00 -1.015961892902851105e+01 -1.066385627724173446e-01
-6.444228385575115681e+00 -1.250581033527851105e+01 7.817613985395155396e-03
-5.927016471512615681e+00 -1.174580056965351105e+01 -1.012672195210484460e-02
-5.639174674637615681e+00 -1.144355447590351105e+01 -1.839698562397984460e-02
-5.366469596512615681e+00 -1.115717752277851105e+01 -2.624000320210484460e-02
-5.109633659012615681e+00 -1.088740213215351105e+01 -3.362525710835484460e-02
-4.866225455887615681e+00 -1.063190896809101105e+01 -4.061378249897984460e-02
-4.634658073075115681e+00 -1.038874490559101105e+01 -4.726661453022984460e-02
-4.415541862137615681e+00 -1.015876443684101105e+01 -5.327857742085484460e-02
-6.441176627762615681e+00 -1.250068338215351105e+01 7.434593429789515540e-02
-5.925673698075115681e+00 -1.174433572590351105e+01 5.269371261820765540e-02
-5.637953971512615681e+00 -1.144221170246601105e+01 4.260765304789515540e-02
-5.365370963700115681e+00 -1.115595681965351105e+01 3.307090988383265540e-02
-5.108535026200115681e+00 -1.088630349934101105e+01 2.406822433695765540e-02
-4.865248893387615681e+00 -1.063093240559101105e+01 1.555382004008265540e-02
-4.633803580887615681e+00 -1.038776834309101105e+01 7.436144258832655396e-03
-4.414687369950115681e+00 -1.015778787434101105e+01 -2.237678505423446040e-04
-6.438002799637615681e+00 -1.249567849934101105e+01 1.411794303916451554e-01
-5.924452994950115681e+00 -1.174299295246601105e+01 1.154836296103951554e-01
-5.636733268387615681e+00 -1.144099099934101105e+01 1.032765983603951554e-01
-5.364272330887615681e+00 -1.115485818684101105e+01 9.203087082133265540e-02
-5.107436393387615681e+00 -1.088520486652851105e+01 8.144127121195765540e-02
-4.864272330887615681e+00 -1.062983377277851105e+01 7.140098800883265540e-02
-4.632827018387615681e+00 -1.038679178059101105e+01 6.213890304789515540e-02
-4.413832877762615681e+00 -1.015693338215351105e+01 5.309044113383265540e-02
-6.434828971512615681e+00 -1.249055154621601105e+01 2.079518913291451554e-01
-5.923110221512615681e+00 -1.174165017902851105e+01 1.779225944541451554e-01
-5.635512565262615681e+00 -1.143964822590351105e+01 1.642507194541451554e-01
-5.363051627762615681e+00 -1.115363748371601105e+01 1.512960075400826554e-01
-5.106337760575115681e+00 -1.088410623371601105e+01 1.390889762900826554e-01
-4.863295768387615681e+00 -1.062873513996601105e+01 1.275228141807076554e-01
-4.631972526200115681e+00 -1.038581521809101105e+01 1.165212272666451554e-01
-4.412978385575115681e+00 -1.015595681965351105e+01 1.064046501182076554e-01
-2.658583854325115681e+00 -5.742016389966011047e+00 -6.393076301552298446e-01
-2.581557487137615681e+00 -5.731762483716011047e+00 -6.377054573036673446e-01
-2.504286979325115681e+00 -5.719067171216011047e+00 -6.361338020302298446e-01
-2.427748893387615681e+00 -5.706493929028511047e+00 -6.345621467567923446e-01
-2.352187369950115681e+00 -5.694164827466011047e+00 -6.330210090614798446e-01
-2.277602409012615681e+00 -5.681957796216011047e+00 -6.314951301552298446e-01
-2.204482291825115681e+00 -5.672802522778511047e+00 -6.301676155067923446e-01
-2.133437369950115681e+00 -5.667187288403511047e+00 -6.292215705849173446e-01
-2.863051627762615681e+00 -6.254711702466011047e+00 -6.361948371864798446e-01
-2.777602409012615681e+00 -6.237743929028511047e+00 -6.344858528114798446e-01
-2.694106315262615681e+00 -6.223949983716011047e+00 -6.327921272255423446e-01
-2.610366080887615681e+00 -6.207348421216011047e+00 -6.311289192177298446e-01
-2.527846549637615681e+00 -6.190990999341011047e+00 -6.294809699989798446e-01
-2.446303580887615681e+00 -6.174877718091011047e+00 -6.278635383583548446e-01
-2.364516471512615681e+00 -6.156078889966011047e+00 -6.262766242958548446e-01
-2.284926627762615681e+00 -6.140331819653511047e+00 -6.246897102333548446e-01
-3.095229362137615681e+00 -6.836620882153511047e+00 -6.314798713661673446e-01
-3.005629752762615681e+00 -6.826366975903511047e+00 -6.302591682411673446e-01
-2.915541862137615681e+00 -6.812695100903511047e+00 -6.288858772255423446e-01
-2.823134635575115681e+00 -6.790844514966011047e+00 -6.271005989052298446e-01
-2.732192252762615681e+00 -6.769360139966011047e+00 -6.253458381630423446e-01
-2.642470573075115681e+00 -6.748119905591011047e+00 -6.236215949989798446e-01
-2.553603385575115681e+00 -6.727123811841011047e+00 -6.218973518349173446e-01
-2.466078971512615681e+00 -6.706493929028511047e+00 -6.202188850380423446e-01
-3.388320182450115681e+00 -7.571362093091011047e+00 -6.281534553505423446e-01
-3.284316276200115681e+00 -7.545849397778511047e+00 -6.261698127724173446e-01
-3.180190299637615681e+00 -7.516674593091011047e+00 -6.242319465614798446e-01
-3.077162955887615681e+00 -7.487743929028511047e+00 -6.223093391396048446e-01
-2.975966666825115681e+00 -7.459301546216011047e+00 -6.204325080849173446e-01
-2.879409049637615681e+00 -7.440502718091011047e+00 -6.189829231239798446e-01
-2.785048698075115681e+00 -7.426342561841011047e+00 -6.177622199989798446e-01
-2.690932487137615681e+00 -7.408764436841011047e+00 -6.165872932411673446e-01
-3.838637565262615681e+00 -8.699902132153511047e+00 -6.333414436317923446e-01
-3.719252799637615681e+00 -8.668163850903511047e+00 -6.315103889442923446e-01
-3.601577018387615681e+00 -8.636913850903511047e+00 -6.297098518349173446e-01
-3.485121940262615681e+00 -8.605907991528511047e+00 -6.279398323036673446e-01
-3.370619987137615681e+00 -8.575390413403511047e+00 -6.261850715614798446e-01
-3.246718619950115681e+00 -8.513622835278511047e+00 -6.231790901161673446e-01
-3.121108268387615681e+00 -8.440990999341011047e+00 -6.197458625771048446e-01
-2.998671744950115681e+00 -8.370190218091011047e+00 -6.164041877724173446e-01
-4.424086784012615681e+00 -1.016718728840351105e+01 -6.396585823036673446e-01
-4.214980338700115681e+00 -9.947704866528511047e+00 -6.311441780067923446e-01
-4.019423698075115681e+00 -9.748119905591011047e+00 -6.236368537880423446e-01
-3.869643424637615681e+00 -9.660351350903511047e+00 -6.201120735146048446e-01
-3.723769401200115681e+00 -9.575146272778511047e+00 -6.166941047646048446e-01
-3.581435416825115681e+00 -9.491772249341011047e+00 -6.133371711708548446e-01
-3.442031119950115681e+00 -9.410107210278511047e+00 -6.100717903114798446e-01
-3.306166862137615681e+00 -9.330517366528511047e+00 -6.071268440224173446e-01
-4.423232291825115681e+00 -1.016621072590351105e+01 -5.861460090614798446e-01
-4.214247916825115681e+00 -9.946728304028511047e+00 -5.791880012489798446e-01
-4.018813346512615681e+00 -9.747753694653511047e+00 -5.728556037880423446e-01
-3.869033073075115681e+00 -9.660107210278511047e+00 -5.699411750771048446e-01
-3.723281119950115681e+00 -9.574780061841011047e+00 -5.671182991005423446e-01
-3.580947135575115681e+00 -9.491406038403511047e+00 -5.643564582802298446e-01
-3.441420768387615681e+00 -9.409740999341011047e+00 -5.616403938271048446e-01
-3.305678580887615681e+00 -9.330273225903511047e+00 -5.590006233192923446e-01
-4.422377799637615681e+00 -1.016535623371601105e+01 -5.329233528114798446e-01
-4.213393424637615681e+00 -9.945873811841011047e+00 -5.272318244911673446e-01
-4.018202994950115681e+00 -9.747387483716011047e+00 -5.218149543739798446e-01
-3.868422721512615681e+00 -9.659740999341011047e+00 -5.195261360146048446e-01
-3.722670768387615681e+00 -9.574413850903511047e+00 -5.172830940224173446e-01
-3.580458854325115681e+00 -9.491161897778511047e+00 -5.151163459755423446e-01
-3.440932487137615681e+00 -9.409496858716011047e+00 -5.132395149208548446e-01
-3.305190299637615681e+00 -9.330029085278511047e+00 -5.111490608192923446e-01
-4.421401237137615681e+00 -1.016437967121601105e+01 -4.794412971474173446e-01
-4.212538932450115681e+00 -9.945019319653511047e+00 -4.750315071083548446e-01
-4.017592643387615681e+00 -9.747021272778511047e+00 -4.710642219521048446e-01
-3.867934440262615681e+00 -9.659374788403511047e+00 -4.693704963661673446e-01
-3.722182487137615681e+00 -9.574169710278511047e+00 -4.677378059364798446e-01
-3.579848502762615681e+00 -9.490795686841011047e+00 -4.661356330849173446e-01
-3.440444205887615681e+00 -9.409252718091011047e+00 -4.645792366005423446e-01
-3.304702018387615681e+00 -9.329662874341011047e+00 -4.630380989052298446e-01
-4.420546744950115681e+00 -1.016340310871601105e+01 -4.262644172646048446e-01
-4.211806510575115681e+00 -9.944164827466011047e+00 -4.231211067177298446e-01
-4.016982291825115681e+00 -9.746777132153511047e+00 -4.203134895302298446e-01
-3.867324088700115681e+00 -9.659130647778511047e+00 -4.192453742958548446e-01
-3.721694205887615681e+00 -9.573803499341011047e+00 -4.181925178505423446e-01
-3.579360221512615681e+00 -9.490551546216011047e+00 -4.171854377724173446e-01
-3.439955924637615681e+00 -9.408886507153511047e+00 -4.161783576942923446e-01
-3.304213737137615681e+00 -9.329418733716011047e+00 -4.152017951942923446e-01
-4.419692252762615681e+00 -1.016254861652851105e+01 -3.728128791786673446e-01
-4.210952018387615681e+00 -9.943310335278511047e+00 -3.709513069130423446e-01
-4.016371940262615681e+00 -9.746410921216011047e+00 -3.693033576942923446e-01
-3.866713737137615681e+00 -9.658764436841011047e+00 -3.688455940224173446e-01
-3.721083854325115681e+00 -9.573437288403511047e+00 -3.684030891396048446e-01
-3.578871940262615681e+00 -9.490185335278511047e+00 -3.679605842567923446e-01
-3.439467643387615681e+00 -9.408642366528511047e+00 -3.675333381630423446e-01
-3.303725455887615681e+00 -9.329174593091011047e+00 -3.671213508583548446e-01
-4.418837760575115681e+00 -1.016157205402851105e+01 -3.196665168739798446e-01
-4.210097526200115681e+00 -9.942455843091011047e+00 -3.190714241005423446e-01
-4.015883659012615681e+00 -9.746044710278511047e+00 -3.185831428505423446e-01
-3.866225455887615681e+00 -9.658398225903511047e+00 -3.187357307411673446e-01
-3.720595573075115681e+00 -9.573193147778511047e+00 -3.188730598427298446e-01
-3.578383659012615681e+00 -9.489941194653511047e+00 -3.190256477333548446e-01
-3.438979362137615681e+00 -9.408276155591011047e+00 -3.191629768349173446e-01
-3.303237174637615681e+00 -9.328808382153511047e+00 -3.193003059364798446e-01
-4.417983268387615681e+00 -1.016071756184101105e+01 -2.662454963661673446e-01
-4.209365104325115681e+00 -9.941601350903511047e+00 -2.669321418739798446e-01
-4.015273307450115681e+00 -9.745678499341011047e+00 -2.678629280067923446e-01
-3.865615104325115681e+00 -9.658032014966011047e+00 -2.686258674599173446e-01
-3.719985221512615681e+00 -9.572826936841011047e+00 -2.693735481239798446e-01
-3.577773307450115681e+00 -9.489574983716011047e+00 -2.700907112099173446e-01
-3.438369010575115681e+00 -9.408032014966011047e+00 -2.705484748817923446e-01
-3.302748893387615681e+00 -9.328564241528511047e+00 -2.712351203896048446e-01
-4.417128776200115681e+00 -1.015974099934101105e+01 -2.131296516396048446e-01
-4.208510612137615681e+00 -9.940746858716011047e+00 -2.150827766396048446e-01
-4.014662955887615681e+00 -9.745312288403511047e+00 -2.168985725380423446e-01
-3.865004752762615681e+00 -9.657787874341011047e+00 -2.182718635536673446e-01
-3.719496940262615681e+00 -9.572460725903511047e+00 -2.195993782021048446e-01
-3.577285026200115681e+00 -9.489330843091011047e+00 -2.209116340614798446e-01
-3.437880729325115681e+00 -9.407665804028511047e+00 -2.221933723427298446e-01
-3.302260612137615681e+00 -9.328320100903511047e+00 -2.234293342567923446e-01
-4.416274284012615681e+00 -1.015888650715351105e+01 -1.597544074989798446e-01
-4.207656119950115681e+00 -9.939892366528511047e+00 -1.632486701942923446e-01
-4.014052604325115681e+00 -9.744946077466011047e+00 -1.662088752724173446e-01
-3.864516471512615681e+00 -9.657421663403511047e+00 -1.681925178505423446e-01
-3.718886588700115681e+00 -9.572216585278511047e+00 -1.701151252724173446e-01
-3.576796744950115681e+00 -9.488964632153511047e+00 -1.719919563271048446e-01
-3.437392448075115681e+00 -9.407421663403511047e+00 -1.738535285927298446e-01
-3.301772330887615681e+00 -9.327953889966011047e+00 -1.753946662880423446e-01
-4.415419791825115681e+00 -1.015790994465351105e+01 -1.066690803505423446e-01
-4.206923698075115681e+00 -9.939037874341011047e+00 -1.111704231239798446e-01
-4.013442252762615681e+00 -9.744701936841011047e+00 -1.152445198036673446e-01
-3.863906119950115681e+00 -9.657055452466011047e+00 -1.178385139442923446e-01
-3.718398307450115681e+00 -9.571850374341011047e+00 -1.203714729286673446e-01
-3.576186393387615681e+00 -9.488720491528511047e+00 -1.228433967567923446e-01
-3.436904166825115681e+00 -9.407177522778511047e+00 -1.252542854286673446e-01
-3.301284049637615681e+00 -9.327709749341011047e+00 -1.276041389442923446e-01
-4.414565299637615681e+00 -1.015705545246601105e+01 -5.332435378804234460e-02
-4.206069205887615681e+00 -9.938183382153511047e+00 -5.936683425679234460e-02
-4.012831901200115681e+00 -9.744335725903511047e+00 -6.458534011616734460e-02
-3.863295768387615681e+00 -9.656689241528511047e+00 -6.778968581929234460e-02
-3.717787955887615681e+00 -9.571606233716011047e+00 -7.090247878804234460e-02
-3.575698112137615681e+00 -9.488354280591011047e+00 -7.393897781147984460e-02
-3.436415885575115681e+00 -9.406811311841011047e+00 -7.692970046772984460e-02
-3.300795768387615681e+00 -9.327465608716011047e+00 -7.958472976460484460e-02
-4.413588737137615681e+00 -1.015607888996601105e+01 -2.695442177298446040e-04
-4.205214713700115681e+00 -9.937328889966011047e+00 -7.303845975542344604e-03
-4.012343619950115681e+00 -9.743969514966011047e+00 -1.365150222554234460e-02
-3.862807487137615681e+00 -9.656445100903511047e+00 -1.746619949116734460e-02
-3.717299674637615681e+00 -9.571240022778511047e+00 -2.117408523335484460e-02
-3.575209830887615681e+00 -9.488110139966011047e+00 -2.480567703022984460e-02
-3.435927604325115681e+00 -9.406567171216011047e+00 -2.836097488179234460e-02
-3.300307487137615681e+00 -9.327099397778511047e+00 -3.182471999897984460e-02
-4.412734244950115681e+00 -1.015522439777851105e+01 5.302940597758265540e-02
-4.204360221512615681e+00 -9.936474397778511047e+00 4.474388351664515540e-02
-4.011733268387615681e+00 -9.743603304028511047e+00 3.700767746195765540e-02
-3.862197135575115681e+00 -9.656078889966011047e+00 3.258262863383265540e-02
-3.716689323075115681e+00 -9.570873811841011047e+00 2.827965011820765540e-02
-3.574599479325115681e+00 -9.487743929028511047e+00 2.406822433695765540e-02
-3.435439323075115681e+00 -9.406200960278511047e+00 2.020775070414515540e-02
-3.299819205887615681e+00 -9.326855257153511047e+00 1.619468918070765540e-02
-4.411879752762615681e+00 -1.015424783527851105e+01 1.063283561728951554e-01
-4.203627799637615681e+00 -9.935497835278511047e+00 9.648643722758265540e-02
-4.011122916825115681e+00 -9.743237093091011047e+00 8.791099777445765540e-02
-3.861586784012615681e+00 -9.655712679028511047e+00 8.287559738383265540e-02
-3.716201041825115681e+00 -9.570629671216011047e+00 7.797752609477015540e-02
-3.574111198075115681e+00 -9.487499788403511047e+00 7.318626632914515540e-02
-3.434828971512615681e+00 -9.405956819653511047e+00 6.850181808695765540e-02
-3.299330924637615681e+00 -9.326611116528511047e+00 6.418358078227015540e-02
-2.133071159012615681e+00 -5.666943147778511047e+00 -6.292063117958548446e-01
-2.063124869950115681e+00 -5.662792757153511047e+00 -6.282297492958548446e-01
-1.993056510575115681e+00 -5.656689241528511047e+00 -6.272989631630423446e-01
-1.922621940262615681e+00 -5.648632600903511047e+00 -6.262461067177298446e-01
-1.851699088700115681e+00 -5.635693147778511047e+00 -6.249185920692923446e-01
-1.781386588700115681e+00 -5.622875764966011047e+00 -6.236063362099173446e-01
-1.711562369950115681e+00 -5.610058382153511047e+00 -6.222940803505423446e-01
-1.642104362137615681e+00 -5.595409944653511047e+00 -6.210428596474173446e-01
-2.284560416825115681e+00 -6.139965608716011047e+00 -6.246591926552298446e-01
-2.204848502762615681e+00 -6.121288850903511047e+00 -6.231180549599173446e-01
-2.126845573075115681e+00 -6.105663850903511047e+00 -6.215769172646048446e-01
-2.048720573075115681e+00 -6.087353304028511047e+00 -6.200662971474173446e-01
-1.971572135575115681e+00 -6.069286897778511047e+00 -6.185709358192923446e-01
-1.895400260575115681e+00 -6.051464632153511047e+00 -6.171060920692923446e-01
-1.818984244950115681e+00 -6.031078889966011047e+00 -6.156717658974173446e-01
-1.744399284012615681e+00 -6.013744905591011047e+00 -6.142221809364798446e-01
-2.465712760575115681e+00 -6.706127718091011047e+00 -6.201883674599173446e-01
-2.378310416825115681e+00 -6.682568147778511047e+00 -6.185556770302298446e-01
-2.292006705887615681e+00 -6.659252718091011047e+00 -6.169382453896048446e-01
-2.206435416825115681e+00 -6.636059358716011047e+00 -6.153208137489798446e-01
-2.122084830887615681e+00 -6.613354280591011047e+00 -6.137491584755423446e-01
-2.038832877762615681e+00 -6.590893343091011047e+00 -6.121775032021048446e-01
-1.956191276200115681e+00 -6.568554475903511047e+00 -6.106363655067923446e-01
-1.874892448075115681e+00 -6.546703889966011047e+00 -6.090952278114798446e-01
-2.690566276200115681e+00 -7.408398225903511047e+00 -6.165720344521048446e-01
-2.598647330887615681e+00 -7.395214632153511047e+00 -6.153818489052298446e-01
-2.505507682450115681e+00 -7.374950960278511047e+00 -6.140695930458548446e-01
-2.408827994950115681e+00 -7.340405061841011047e+00 -6.121164680458548446e-01
-2.313857291825115681e+00 -7.306347444653511047e+00 -6.102091194130423446e-01
-2.220229362137615681e+00 -7.272900179028511047e+00 -6.083170295692923446e-01
-2.127577994950115681e+00 -7.239697054028511047e+00 -6.064554573036673446e-01
-2.035414909012615681e+00 -7.202831819653511047e+00 -6.046244026161673446e-01
-2.998061393387615681e+00 -8.369213655591011047e+00 -6.163584114052298446e-01
-2.882094596512615681e+00 -8.311962679028511047e+00 -6.137338996864798446e-01
-2.772597526200115681e+00 -8.270458772778511047e+00 -6.117502571083548446e-01
-2.664321159012615681e+00 -8.229321077466011047e+00 -6.097818733192923446e-01
-2.557997916825115681e+00 -8.189037874341011047e+00 -6.078592658974173446e-01
-2.453261588700115681e+00 -8.149365022778511047e+00 -6.059519172646048446e-01
-2.349745963700115681e+00 -8.110058382153511047e+00 -6.040750862099173446e-01
-2.248061393387615681e+00 -8.071484163403511047e+00 -6.022135139442923446e-01
-3.305556510575115681e+00 -9.329907014966011047e+00 -6.071115852333548446e-01
-3.172744010575115681e+00 -9.252148225903511047e+00 -6.038767219521048446e-01
-3.042617057450115681e+00 -9.175976350903511047e+00 -6.009622932411673446e-01
-2.914809440262615681e+00 -9.101147249341011047e+00 -5.981088996864798446e-01
-2.790175651200115681e+00 -9.028149202466011047e+00 -5.953165412880423446e-01
-2.667983268387615681e+00 -8.956615999341011047e+00 -5.925852180458548446e-01
-2.547866080887615681e+00 -8.886303499341011047e+00 -5.898996711708548446e-01
-2.430556510575115681e+00 -8.817699983716011047e+00 -5.875040412880423446e-01
-3.305068229325115681e+00 -9.329662874341011047e+00 -5.589853645302298446e-01
-3.172255729325115681e+00 -9.251904085278511047e+00 -5.565286994911673446e-01
-3.042128776200115681e+00 -9.175732210278511047e+00 -5.541178108192923446e-01
-2.914443229325115681e+00 -9.100903108716011047e+00 -5.517374397255423446e-01
-2.789687369950115681e+00 -9.027905061841011047e+00 -5.494333625771048446e-01
-2.667617057450115681e+00 -8.956371858716011047e+00 -5.471598030067923446e-01
-2.547499869950115681e+00 -8.886181429028511047e+00 -5.449320198036673446e-01
-2.430190299637615681e+00 -8.817455843091011047e+00 -5.427652717567923446e-01
-3.304579948075115681e+00 -9.329296663403511047e+00 -5.111338020302298446e-01
-3.171767448075115681e+00 -9.251537874341011047e+00 -5.091806770302298446e-01
-3.041762565262615681e+00 -9.175488069653511047e+00 -5.070139289833548446e-01
-2.913954948075115681e+00 -9.100658968091011047e+00 -5.051370979286673446e-01
-2.789321159012615681e+00 -9.027660921216011047e+00 -5.033060432411673446e-01
-2.667128776200115681e+00 -8.956249788403511047e+00 -5.015055061317923446e-01
-2.547133659012615681e+00 -8.885937288403511047e+00 -4.999796272255423446e-01
-2.429824088700115681e+00 -8.817211702466011047e+00 -4.982553840614798446e-01
-3.304091666825115681e+00 -9.329052522778511047e+00 -4.630380989052298446e-01
-3.171279166825115681e+00 -9.251293733716011047e+00 -4.615885139442923446e-01
-3.041274284012615681e+00 -9.175243929028511047e+00 -4.601694465614798446e-01
-2.913588737137615681e+00 -9.100414827466011047e+00 -4.587808967567923446e-01
-2.788832877762615681e+00 -9.027416780591011047e+00 -4.574381233192923446e-01
-2.666762565262615681e+00 -8.956005647778511047e+00 -4.561106086708548446e-01
-2.546645377762615681e+00 -8.885693147778511047e+00 -4.547983528114798446e-01
-2.429457877762615681e+00 -8.817089632153511047e+00 -4.535318733192923446e-01
-3.303603385575115681e+00 -9.328808382153511047e+00 -4.152017951942923446e-01
-3.170790885575115681e+00 -9.251049593091011047e+00 -4.142557502724173446e-01
-3.040786002762615681e+00 -9.174999788403511047e+00 -4.133402229286673446e-01
-2.913100455887615681e+00 -9.100170686841011047e+00 -4.124552131630423446e-01
-2.788466666825115681e+00 -9.027172639966011047e+00 -4.115702033974173446e-01
-2.666396354325115681e+00 -8.955761507153511047e+00 -4.107157112099173446e-01
-2.546279166825115681e+00 -8.885449007153511047e+00 -4.098612190224173446e-01
-2.429091666825115681e+00 -8.816845491528511047e+00 -4.090372444130423446e-01
-3.303115104325115681e+00 -9.328442171216011047e+00 -3.671213508583548446e-01
-3.170302604325115681e+00 -9.250805452466011047e+00 -3.666941047646048446e-01
-3.040419791825115681e+00 -9.174633577466011047e+00 -3.662821174599173446e-01
-2.912734244950115681e+00 -9.099926546216011047e+00 -3.658701301552298446e-01
-2.788100455887615681e+00 -9.026928499341011047e+00 -3.654734016396048446e-01
-2.665908073075115681e+00 -8.955517366528511047e+00 -3.650766731239798446e-01
-2.545912955887615681e+00 -8.885204866528511047e+00 -3.646952033974173446e-01
-2.428725455887615681e+00 -8.816601350903511047e+00 -3.643289924599173446e-01
-3.302626823075115681e+00 -9.328198030591011047e+00 -3.193003059364798446e-01
-3.169936393387615681e+00 -9.250439241528511047e+00 -3.193918586708548446e-01
-3.039931510575115681e+00 -9.174389436841011047e+00 -3.194681526161673446e-01
-2.912245963700115681e+00 -9.099682405591011047e+00 -3.195444465614798446e-01
-2.787612174637615681e+00 -9.026684358716011047e+00 -3.196207405067923446e-01
-2.665541862137615681e+00 -8.955273225903511047e+00 -3.197122932411673446e-01
-2.545546744950115681e+00 -8.884960725903511047e+00 -3.197885871864798446e-01
-2.428359244950115681e+00 -8.816357210278511047e+00 -3.198496223427298446e-01
-3.302138541825115681e+00 -9.327953889966011047e+00 -2.712351203896048446e-01
-3.169448112137615681e+00 -9.250195100903511047e+00 -2.718302131630423446e-01
-3.039443229325115681e+00 -9.174145296216011047e+00 -2.726694465614798446e-01
-2.911879752762615681e+00 -9.099438264966011047e+00 -2.732340217567923446e-01
-2.787245963700115681e+00 -9.026440218091011047e+00 -2.737985969521048446e-01
-2.665175651200115681e+00 -8.955029085278511047e+00 -2.743326545692923446e-01
-2.545180534012615681e+00 -8.884716585278511047e+00 -2.746378303505423446e-01
-2.427993034012615681e+00 -8.816113069653511047e+00 -2.751566291786673446e-01
-3.301650260575115681e+00 -9.327587679028511047e+00 -2.234445930458548446e-01
-3.168959830887615681e+00 -9.249950960278511047e+00 -2.245432258583548446e-01
-3.039077018387615681e+00 -9.173901155591011047e+00 -2.256265998817923446e-01
-2.911391471512615681e+00 -9.099194124341011047e+00 -2.266794563271048446e-01
-2.786757682450115681e+00 -9.026196077466011047e+00 -2.277170539833548446e-01
-2.664809440262615681e+00 -8.954784944653511047e+00 -2.287393928505423446e-01
-2.544814323075115681e+00 -8.884594514966011047e+00 -2.297312141396048446e-01
-2.427626823075115681e+00 -8.815990999341011047e+00 -2.307077766396048446e-01
-3.301161979325115681e+00 -9.327343538403511047e+00 -1.753946662880423446e-01
-3.168471549637615681e+00 -9.249706819653511047e+00 -1.772714973427298446e-01
-3.038588737137615681e+00 -9.173657014966011047e+00 -1.788431526161673446e-01
-2.910903190262615681e+00 -9.098949983716011047e+00 -1.803842903114798446e-01
-2.786391471512615681e+00 -9.025951936841011047e+00 -1.818949104286673446e-01
-2.664321159012615681e+00 -8.954540804028511047e+00 -1.833902717567923446e-01
-2.544326041825115681e+00 -8.884350374341011047e+00 -1.848398567177298446e-01
-2.427260612137615681e+00 -8.815746858716011047e+00 -1.860300422646048446e-01
-3.300673698075115681e+00 -9.327099397778511047e+00 -1.276193977333548446e-01
-3.167983268387615681e+00 -9.249340608716011047e+00 -1.297403694130423446e-01
-3.038100455887615681e+00 -9.173412874341011047e+00 -1.318155647255423446e-01
-2.910536979325115681e+00 -9.098705843091011047e+00 -1.338602424599173446e-01
-2.786025260575115681e+00 -9.025707796216011047e+00 -1.358438850380423446e-01
-2.663954948075115681e+00 -8.954296663403511047e+00 -1.377970100380423446e-01
-2.543959830887615681e+00 -8.884106233716011047e+00 -1.397196174599173446e-01
-2.426894401200115681e+00 -8.815502718091011047e+00 -1.415811897255423446e-01
-3.300185416825115681e+00 -9.326733186841011047e+00 -7.959998855366734460e-02
-3.167494987137615681e+00 -9.249096468091011047e+00 -8.248389968647984460e-02
-3.037734244950115681e+00 -9.173046663403511047e+00 -8.504737624897984460e-02
-2.910048698075115681e+00 -9.098339632153511047e+00 -8.758033523335484460e-02
-2.785536979325115681e+00 -9.025463655591011047e+00 -9.005225906147984460e-02
-2.663588737137615681e+00 -8.954052522778511047e+00 -9.246314773335484460e-02
-2.543593619950115681e+00 -8.883862093091011047e+00 -9.484351882710484460e-02
-2.426528190262615681e+00 -8.815258577466011047e+00 -9.691871413960484460e-02
-3.299697135575115681e+00 -9.326489046216011047e+00 -3.183997878804234460e-02
-3.167128776200115681e+00 -9.248852327466011047e+00 -3.496803054585484460e-02
-3.037245963700115681e+00 -9.172802522778511047e+00 -3.805030593647984460e-02
-2.909682487137615681e+00 -9.098095491528511047e+00 -4.107154617085484460e-02
-2.785170768387615681e+00 -9.025219514966011047e+00 -4.401649245991734460e-02
-2.663100455887615681e+00 -8.953808382153511047e+00 -4.690040359272984460e-02
-2.543227409012615681e+00 -8.883617952466011047e+00 -4.973853835835484460e-02
-2.426039909012615681e+00 -8.815014436841011047e+00 -5.250037917866734460e-02
-3.299208854325115681e+00 -9.326244905591011047e+00 1.616417160258265540e-02
-3.166640494950115681e+00 -9.248608186841011047e+00 1.251732101664515540e-02
-3.036757682450115681e+00 -9.172558382153511047e+00 8.702623751020155396e-03
-2.909194205887615681e+00 -9.097851350903511047e+00 5.193102266645155396e-03
-2.784682487137615681e+00 -9.024975374341011047e+00 1.775133516645155396e-03
-2.662734244950115681e+00 -8.953564241528511047e+00 -1.581800077104844604e-03
-2.542861198075115681e+00 -8.883373811841011047e+00 -4.633557889604844604e-03
-2.425673698075115681e+00 -8.814892366528511047e+00 -7.853162381792344604e-03
-3.298720573075115681e+00 -9.325878694653511047e+00 6.416832199320765540e-02
-3.166152213700115681e+00 -9.248241975903511047e+00 5.975853195414515540e-02
-3.036269401200115681e+00 -9.172314241528511047e+00 5.568443527445765540e-02
-2.908827994950115681e+00 -9.097607210278511047e+00 5.168663254008265540e-02
-2.784316276200115681e+00 -9.024731233716011047e+00 4.779564132914515540e-02
-2.662368034012615681e+00 -8.953320100903511047e+00 4.396568527445765540e-02
-2.542494987137615681e+00 -8.883129671216011047e+00 4.021202316508265540e-02
-2.425307487137615681e+00 -8.814648225903511047e+00 3.677879562602015540e-02
-1.641860221512615681e+00 -5.595409944653511047e+00 -6.210428596474173446e-01
-1.573500846512615681e+00 -5.582470491528511047e+00 -6.197763801552298446e-01
-1.505263541825115681e+00 -5.567577913403511047e+00 -6.185556770302298446e-01
-1.437270377762615681e+00 -5.552807405591011047e+00 -6.173349739052298446e-01
-1.370253776200115681e+00 -5.538158968091011047e+00 -6.161295295692923446e-01
-1.303725455887615681e+00 -5.523632600903511047e+00 -6.149393440224173446e-01
-1.237685416825115681e+00 -5.509228304028511047e+00 -6.137644172646048446e-01
-1.172011588700115681e+00 -5.493115022778511047e+00 -6.126200080849173446e-01
-1.744155143387615681e+00 -6.013622835278511047e+00 -6.142221809364798446e-01
-1.669692252762615681e+00 -5.993481233716011047e+00 -6.128183723427298446e-01
-1.596572135575115681e+00 -5.976147249341011047e+00 -6.114145637489798446e-01
-1.523452018387615681e+00 -5.956860139966011047e+00 -6.100717903114798446e-01
-1.451552604325115681e+00 -5.939404085278511047e+00 -6.088205696083548446e-01
-1.380385612137615681e+00 -5.922070100903511047e+00 -6.075846076942923446e-01
-1.309218619950115681e+00 -5.902660921216011047e+00 -6.064096809364798446e-01
-1.239394401200115681e+00 -5.885693147778511047e+00 -6.051889778114798446e-01
-1.874526237137615681e+00 -6.546459749341011047e+00 -6.090952278114798446e-01
-1.793349479325115681e+00 -6.521801546216011047e+00 -6.076151252724173446e-01
-1.713149284012615681e+00 -6.497387483716011047e+00 -6.061502815224173446e-01
-1.633437369950115681e+00 -6.473095491528511047e+00 -6.046854377724173446e-01
-1.554946159012615681e+00 -6.449169710278511047e+00 -6.032511116005423446e-01
-1.477309440262615681e+00 -6.425610139966011047e+00 -6.018320442177298446e-01
-1.400161002762615681e+00 -6.402172639966011047e+00 -6.004282356239798446e-01
-1.324233268387615681e+00 -6.378979280591011047e+00 -5.990396858192923446e-01
-2.035048698075115681e+00 -7.202465608716011047e+00 -6.046091438271048446e-01
-1.945449088700115681e+00 -7.170971468091011047e+00 -6.027933479286673446e-01
-1.855971549637615681e+00 -7.135815218091011047e+00 -6.010080696083548446e-01
-1.767348502762615681e+00 -7.100903108716011047e+00 -5.992533088661673446e-01
-1.680190299637615681e+00 -7.066479280591011047e+00 -5.975138069130423446e-01
-1.594130729325115681e+00 -7.032665804028511047e+00 -5.958048225380423446e-01
-1.508925651200115681e+00 -6.999096468091011047e+00 -5.941110969521048446e-01
-1.424330924637615681e+00 -6.962109163403511047e+00 -5.924631477333548446e-01
-2.247573112137615681e+00 -8.071117952466011047e+00 -6.021982551552298446e-01
-2.146010612137615681e+00 -8.027538850903511047e+00 -6.003214241005423446e-01
-2.045790885575115681e+00 -7.984692171216011047e+00 -5.984598518349173446e-01
-1.948378776200115681e+00 -7.950268343091011047e+00 -5.969492317177298446e-01
-1.850478385575115681e+00 -7.905956819653511047e+00 -5.950418830849173446e-01
-1.753798698075115681e+00 -7.862377718091011047e+00 -5.931497932411673446e-01
-1.658339713700115681e+00 -7.819286897778511047e+00 -5.913034797646048446e-01
-1.564467643387615681e+00 -7.776928499341011047e+00 -5.894724250771048446e-01
-2.430068229325115681e+00 -8.817089632153511047e+00 -5.874887824989798446e-01
-2.315077994950115681e+00 -8.749828889966011047e+00 -5.848184944130423446e-01
-2.202040885575115681e+00 -8.683666780591011047e+00 -5.824228645302298446e-01
-2.090834830887615681e+00 -8.618481233716011047e+00 -5.800730110146048446e-01
-1.981948112137615681e+00 -8.554760530591011047e+00 -5.777536750771048446e-01
-1.874892448075115681e+00 -8.492138460278511047e+00 -5.754953742958548446e-01
-1.769545768387615681e+00 -8.430370882153511047e+00 -5.732675910927298446e-01
-1.666274284012615681e+00 -8.369946077466011047e+00 -5.712992073036673446e-01
-2.429702018387615681e+00 -8.816967561841011047e+00 -5.427500129677298446e-01
-2.314711784012615681e+00 -8.749584749341011047e+00 -5.407205940224173446e-01
-2.201796744950115681e+00 -8.683422639966011047e+00 -5.387216926552298446e-01
-2.090468619950115681e+00 -8.618359163403511047e+00 -5.367685676552298446e-01
-1.981581901200115681e+00 -8.554638460278511047e+00 -5.348459602333548446e-01
-1.874648307450115681e+00 -8.492016389966011047e+00 -5.329691291786673446e-01
-1.769179557450115681e+00 -8.430248811841011047e+00 -5.311075569130423446e-01
-1.666030143387615681e+00 -8.369824007153511047e+00 -5.292917610146048446e-01
-2.429335807450115681e+00 -8.816723421216011047e+00 -4.982401252724173446e-01
-2.314345573075115681e+00 -8.749340608716011047e+00 -4.966226936317923446e-01
-2.201430534012615681e+00 -8.683300569653511047e+00 -4.948068977333548446e-01
-2.090102409012615681e+00 -8.618115022778511047e+00 -4.932505012489798446e-01
-1.981215690262615681e+00 -8.554394319653511047e+00 -4.917246223427298446e-01
-1.874282096512615681e+00 -8.491772249341011047e+00 -4.902140022255423446e-01
-1.768935416825115681e+00 -8.430126741528511047e+00 -4.889627815224173446e-01
-1.665663932450115681e+00 -8.369701936841011047e+00 -4.875131965614798446e-01
-2.428969596512615681e+00 -8.816479280591011047e+00 -4.535166145302298446e-01
-2.313979362137615681e+00 -8.749218538403511047e+00 -4.523111701942923446e-01
-2.201064323075115681e+00 -8.683056429028511047e+00 -4.511362434364798446e-01
-2.089858268387615681e+00 -8.617992952466011047e+00 -4.499613166786673446e-01
-1.980971549637615681e+00 -8.554272249341011047e+00 -4.488321662880423446e-01
-1.874037955887615681e+00 -8.491650179028511047e+00 -4.477030158974173446e-01
-1.768569205887615681e+00 -8.429882600903511047e+00 -4.466043830849173446e-01
-1.665419791825115681e+00 -8.369457796216011047e+00 -4.455210090614798446e-01
-2.428603385575115681e+00 -8.816235139966011047e+00 -4.090372444130423446e-01
-2.313613151200115681e+00 -8.748974397778511047e+00 -4.082437873817923446e-01
-2.200698112137615681e+00 -8.682812288403511047e+00 -4.074655891396048446e-01
-2.089492057450115681e+00 -8.617748811841011047e+00 -4.066873908974173446e-01
-1.980605338700115681e+00 -8.554028108716011047e+00 -4.059397102333548446e-01
-1.873671744950115681e+00 -8.491406038403511047e+00 -4.052072883583548446e-01
-1.768325065262615681e+00 -8.429760530591011047e+00 -4.044748664833548446e-01
-1.665175651200115681e+00 -8.369335725903511047e+00 -4.037577033974173446e-01
-2.428237174637615681e+00 -8.816113069653511047e+00 -3.643289924599173446e-01
-2.313246940262615681e+00 -8.748730257153511047e+00 -3.639322639442923446e-01
-2.200331901200115681e+00 -8.682690218091011047e+00 -3.635660530067923446e-01
-2.089125846512615681e+00 -8.617504671216011047e+00 -3.631998420692923446e-01
-1.980361198075115681e+00 -8.553783968091011047e+00 -3.628336311317923446e-01
-1.873427604325115681e+00 -8.491283968091011047e+00 -3.624826789833548446e-01
-1.768080924637615681e+00 -8.429516389966011047e+00 -3.621317268349173446e-01
-1.664809440262615681e+00 -8.369091585278511047e+00 -3.617807746864798446e-01
-2.427870963700115681e+00 -8.815868929028511047e+00 -3.198496223427298446e-01
-2.312880729325115681e+00 -8.748486116528511047e+00 -3.198801399208548446e-01
-2.200087760575115681e+00 -8.682446077466011047e+00 -3.199106574989798446e-01
-2.088881705887615681e+00 -8.617382600903511047e+00 -3.199411750771048446e-01
-1.979994987137615681e+00 -8.553661897778511047e+00 -3.199564338661673446e-01
-1.873061393387615681e+00 -8.491039827466011047e+00 -3.199869514442923446e-01
-1.767714713700115681e+00 -8.429394319653511047e+00 -3.200174690224173446e-01
-1.664565299637615681e+00 -8.368969514966011047e+00 -3.200327278114798446e-01
-2.427504752762615681e+00 -8.815624788403511047e+00 -2.751566291786673446e-01
-2.312514518387615681e+00 -8.748364046216011047e+00 -2.755991340614798446e-01
-2.199721549637615681e+00 -8.682201936841011047e+00 -2.762705207802298446e-01
-2.088515494950115681e+00 -8.617138460278511047e+00 -2.766825080849173446e-01
-1.979628776200115681e+00 -8.553417757153511047e+00 -2.770944953896048446e-01
-1.872817252762615681e+00 -8.490917757153511047e+00 -2.775064826942923446e-01
-1.767470573075115681e+00 -8.429272249341011047e+00 -2.776743293739798446e-01
-1.664321159012615681e+00 -8.368847444653511047e+00 -2.780710578896048446e-01
-2.427138541825115681e+00 -8.815380647778511047e+00 -2.307077766396048446e-01
-2.312148307450115681e+00 -8.748119905591011047e+00 -2.315622688271048446e-01
-2.199355338700115681e+00 -8.682079866528511047e+00 -2.323862434364798446e-01
-2.088149284012615681e+00 -8.617016389966011047e+00 -2.332102180458548446e-01
-1.979384635575115681e+00 -8.553295686841011047e+00 -2.340189338661673446e-01
-1.872451041825115681e+00 -8.490673616528511047e+00 -2.347971321083548446e-01
-1.767104362137615681e+00 -8.429028108716011047e+00 -2.355753303505423446e-01
-1.663954948075115681e+00 -8.368603304028511047e+00 -2.363382698036673446e-01
-2.426772330887615681e+00 -8.815136507153511047e+00 -1.860300422646048446e-01
-2.311782096512615681e+00 -8.747875764966011047e+00 -1.875254035927298446e-01
-2.198989127762615681e+00 -8.681835725903511047e+00 -1.887613655067923446e-01
-2.087783073075115681e+00 -8.616772249341011047e+00 -1.899820686317923446e-01
-1.979018424637615681e+00 -8.553051546216011047e+00 -1.911722541786673446e-01
-1.872206901200115681e+00 -8.490551546216011047e+00 -1.923319221474173446e-01
-1.766860221512615681e+00 -8.428906038403511047e+00 -1.934915901161673446e-01
-1.663710807450115681e+00 -8.368481233716011047e+00 -1.943918586708548446e-01
-2.426406119950115681e+00 -8.815014436841011047e+00 -1.415964485146048446e-01
-2.311415885575115681e+00 -8.747753694653511047e+00 -1.432596565224173446e-01
-2.198622916825115681e+00 -8.681713655591011047e+00 -1.449076057411673446e-01
-2.087538932450115681e+00 -8.616650179028511047e+00 -1.465250373817923446e-01
-1.978774284012615681e+00 -8.552929475903511047e+00 -1.480966926552298446e-01
-1.871840690262615681e+00 -8.490307405591011047e+00 -1.496530891396048446e-01
-1.766616080887615681e+00 -8.428661897778511047e+00 -1.511789680458548446e-01
-1.663466666825115681e+00 -8.368359163403511047e+00 -1.526743293739798446e-01
-2.426039909012615681e+00 -8.814770296216011047e+00 -9.693397292866734460e-02
-2.311049674637615681e+00 -8.747509554028511047e+00 -9.925330886616734460e-02
-2.198256705887615681e+00 -8.681469514966011047e+00 -1.012827278114798446e-01
-2.087172721512615681e+00 -8.616406038403511047e+00 -1.032968879677298446e-01
-1.978408073075115681e+00 -8.552685335278511047e+00 -1.052652717567923446e-01
-1.871596549637615681e+00 -8.490185335278511047e+00 -1.072031379677298446e-01
-1.766249869950115681e+00 -8.428539827466011047e+00 -1.090952278114798446e-01
-1.663100455887615681e+00 -8.368115022778511047e+00 -1.107431770302298446e-01
-2.425673698075115681e+00 -8.814526155591011047e+00 -5.251563796772984460e-02
-2.310805534012615681e+00 -8.747265413403511047e+00 -5.500282058491734460e-02
-2.198012565262615681e+00 -8.681225374341011047e+00 -5.744422683491734460e-02
-2.086806510575115681e+00 -8.616161897778511047e+00 -5.985511550679234460e-02
-1.978041862137615681e+00 -8.552563264966011047e+00 -6.220496902241734460e-02
-1.871230338700115681e+00 -8.489941194653511047e+00 -6.452430495991734460e-02
-1.766005729325115681e+00 -8.428417757153511047e+00 -6.679786453022984460e-02
-1.662856315262615681e+00 -8.367992952466011047e+00 -6.904090652241734460e-02
-2.425307487137615681e+00 -8.814282014966011047e+00 -7.868421170854844604e-03
-2.310439323075115681e+00 -8.747021272778511047e+00 -1.076759109272984460e-02
-2.197646354325115681e+00 -8.681103304028511047e+00 -1.384986648335484460e-02
-2.086562369950115681e+00 -8.616039827466011047e+00 -1.665748367085484460e-02
-1.977797721512615681e+00 -8.552319124341011047e+00 -1.938880691304234460e-02
-1.870986198075115681e+00 -8.489819124341011047e+00 -2.208961257710484460e-02
-1.765639518387615681e+00 -8.428173616528511047e+00 -2.451576003804234460e-02
-1.662612174637615681e+00 -8.367870882153511047e+00 -2.712501296772984460e-02
-2.424819205887615681e+00 -8.814037874341011047e+00 3.676353683695765540e-02
-2.310073112137615681e+00 -8.746899202466011047e+00 3.322349777445765540e-02
-2.197280143387615681e+00 -8.680859163403511047e+00 2.997337570414515540e-02
-2.086196159012615681e+00 -8.615795686841011047e+00 2.676903000102015540e-02
-1.977431510575115681e+00 -8.552197054028511047e+00 2.364097824320765540e-02
-1.870619987137615681e+00 -8.489697054028511047e+00 2.057396164164515540e-02
-1.765395377762615681e+00 -8.428051546216011047e+00 1.753746261820765540e-02
-1.662245963700115681e+00 -8.367626741528511047e+00 1.479088058695765540e-02
-1.171767448075115681e+00 -5.492870882153511047e+00 -6.126200080849173446e-01
-1.106826041825115681e+00 -5.478344514966011047e+00 -6.114603401161673446e-01
-1.042250846512615681e+00 -5.461865022778511047e+00 -6.103617073036673446e-01
-9.779197918251156807e-01 -5.445629671216011047e+00 -6.092630744911673446e-01
-9.146873699501156807e-01 -5.432201936841011047e+00 -6.083322883583548446e-01
-8.521873699501156807e-01 -5.422314241528511047e+00 -6.075998664833548446e-01
-7.900535808876156807e-01 -5.412304475903511047e+00 -6.068827033974173446e-01
-7.281639324501156807e-01 -5.400707796216011047e+00 -6.062113166786673446e-01
-1.239150260575115681e+00 -5.885449007153511047e+00 -6.051889778114798446e-01
-1.169570182450115681e+00 -5.866161897778511047e+00 -6.040293098427298446e-01
-1.100844596512615681e+00 -5.849316194653511047e+00 -6.028391242958548446e-01
-1.032119010575115681e+00 -5.830273225903511047e+00 -6.017099739052298446e-01
-9.642479168251156807e-01 -5.811474397778511047e+00 -6.005808235146048446e-01
-8.975975262001156807e-01 -5.797558382153511047e+00 -5.997263313271048446e-01
-8.310692058876156807e-01 -5.783642366528511047e+00 -5.990244270302298446e-01
-7.655174480751156807e-01 -5.772045686841011047e+00 -5.982920051552298446e-01
-1.323867057450115681e+00 -6.378735139966011047e+00 -5.990244270302298446e-01
-1.248183463700115681e+00 -6.353100374341011047e+00 -5.976816535927298446e-01
-1.173232291825115681e+00 -6.327709749341011047e+00 -5.963541389442923446e-01
-1.098769401200115681e+00 -6.302441194653511047e+00 -5.950418830849173446e-01
-1.025405143387615681e+00 -6.277538850903511047e+00 -5.937448860146048446e-01
-9.526512371376156807e-01 -6.252880647778511047e+00 -5.924478889442923446e-01
-8.812401043251156807e-01 -6.235912874341011047e+00 -5.915476203896048446e-01
-8.106834637001156807e-01 -6.220409944653511047e+00 -5.907083869911673446e-01
-1.424086784012615681e+00 -6.961987093091011047e+00 -5.924478889442923446e-01
-1.342055534012615681e+00 -6.934277132153511047e+00 -5.909983039833548446e-01
-1.260390494950115681e+00 -6.903637483716011047e+00 -5.895944953896048446e-01
-1.179335807450115681e+00 -6.873119905591011047e+00 -5.881906867958548446e-01
-1.099501823075115681e+00 -6.843090608716011047e+00 -5.868173957802298446e-01
-1.020400260575115681e+00 -6.813427522778511047e+00 -5.854593635536673446e-01
-9.419090496376156807e-01 -6.784008577466011047e+00 -5.841165901161673446e-01
-8.652488933876156807e-01 -6.762035921216011047e+00 -5.832926155067923446e-01
-1.564101432450115681e+00 -7.776562288403511047e+00 -5.894571662880423446e-01
-1.470961784012615681e+00 -7.731396272778511047e+00 -5.876718879677298446e-01
-1.379042838700115681e+00 -7.686840608716011047e+00 -5.859018684364798446e-01
-1.287978385575115681e+00 -7.642651155591011047e+00 -5.841623664833548446e-01
-1.198500846512615681e+00 -7.599316194653511047e+00 -5.824381233192923446e-01
-1.110244010575115681e+00 -7.556469514966011047e+00 -5.807443977333548446e-01
-1.022719596512615681e+00 -7.513989046216011047e+00 -5.790659309364798446e-01
-9.369041668251156807e-01 -7.473217561841011047e+00 -5.774484992958548446e-01
-1.665908073075115681e+00 -8.369457796216011047e+00 -5.712839485146048446e-01
-1.564345573075115681e+00 -8.310131624341011047e+00 -5.690409065224173446e-01
-1.464369987137615681e+00 -8.251537874341011047e+00 -5.670420051552298446e-01
-1.371840690262615681e+00 -8.237133577466011047e+00 -5.666147590614798446e-01
-1.278456901200115681e+00 -8.209911897778511047e+00 -5.657144905067923446e-01
-1.185927604325115681e+00 -8.182812288403511047e+00 -5.648294807411673446e-01
-1.093886588700115681e+00 -8.155956819653511047e+00 -5.639444709755423446e-01
-1.002944205887615681e+00 -8.129345491528511047e+00 -5.633036018349173446e-01
-1.665541862137615681e+00 -8.369335725903511047e+00 -5.292765022255423446e-01
-1.564101432450115681e+00 -8.309887483716011047e+00 -5.275827766396048446e-01
-1.464125846512615681e+00 -8.251415804028511047e+00 -5.259348274208548446e-01
-1.371596549637615681e+00 -8.237133577466011047e+00 -5.256143928505423446e-01
-1.278212760575115681e+00 -8.209789827466011047e+00 -5.248972297646048446e-01
-1.185683463700115681e+00 -8.182812288403511047e+00 -5.241953254677298446e-01
-1.093642448075115681e+00 -8.155834749341011047e+00 -5.234934211708548446e-01
-1.002700065262615681e+00 -8.129345491528511047e+00 -5.228067756630423446e-01
-1.665297721512615681e+00 -8.369213655591011047e+00 -4.874979377724173446e-01
-1.563735221512615681e+00 -8.309765413403511047e+00 -4.861551643349173446e-01
-1.463881705887615681e+00 -8.251293733716011047e+00 -4.845987678505423446e-01
-1.371352409012615681e+00 -8.237011507153511047e+00 -4.844004035927298446e-01
-1.277968619950115681e+00 -8.209789827466011047e+00 -4.838816047646048446e-01
-1.185439323075115681e+00 -8.182690218091011047e+00 -4.833628059364798446e-01
-1.093398307450115681e+00 -8.155834749341011047e+00 -4.830576301552298446e-01
-1.002455924637615681e+00 -8.129223421216011047e+00 -4.825388313271048446e-01
-1.665053580887615681e+00 -8.368969514966011047e+00 -4.455210090614798446e-01
-1.563491080887615681e+00 -8.309643343091011047e+00 -4.444986701942923446e-01
-1.463637565262615681e+00 -8.251171663403511047e+00 -4.434915901161673446e-01
-1.371108268387615681e+00 -8.236889436841011047e+00 -4.434305549599173446e-01
-1.277724479325115681e+00 -8.209667757153511047e+00 -4.430796028114798446e-01
-1.185195182450115681e+00 -8.182568147778511047e+00 -4.427286506630423446e-01
-1.093154166825115681e+00 -8.155712679028511047e+00 -4.423929573036673446e-01
-1.002211784012615681e+00 -8.129101350903511047e+00 -4.420572639442923446e-01
-1.664687369950115681e+00 -8.368847444653511047e+00 -4.037577033974173446e-01
-1.563246940262615681e+00 -8.309399202466011047e+00 -4.030710578896048446e-01
-1.463393424637615681e+00 -8.250927522778511047e+00 -4.023996711708548446e-01
-1.370864127762615681e+00 -8.236889436841011047e+00 -4.024454475380423446e-01
-1.277602409012615681e+00 -8.209545686841011047e+00 -4.022776008583548446e-01
-1.184951041825115681e+00 -8.182568147778511047e+00 -4.021250129677298446e-01
-1.092910026200115681e+00 -8.155712679028511047e+00 -4.019571662880423446e-01
-1.002089713700115681e+00 -8.129101350903511047e+00 -4.018045783974173446e-01
-1.664443229325115681e+00 -8.368725374341011047e+00 -3.617807746864798446e-01
-1.563002799637615681e+00 -8.309277132153511047e+00 -3.614298225380423446e-01
-1.463149284012615681e+00 -8.250805452466011047e+00 -3.610788703896048446e-01
