-2.298695611953735352e+01 -7.022091656923294067e+00 3.219078676775097847e-01
-2.361329889297485352e+01 -7.405514508485794067e+00 3.271263735368847847e-01
-2.383375787734985352e+01 -7.679074078798294067e+00 3.337639467790722847e-01
-2.396815729141235352e+01 -7.931759625673294067e+00 3.407829897478222847e-01
-1.127479791641235352e+01 -4.093624860048294067e+00 3.713158266618847847e-01
-1.122328424453735352e+01 -4.174557477235794067e+00 3.747795717790722847e-01
-2.496315240859985352e+01 -8.909664899110794067e+00 3.618401186540722847e-01
-2.538966608047485352e+01 -9.282833844423294067e+00 3.692864077165722847e-01
-2.346522760391235352e+01 -7.153317242860794067e+00 4.290398256853222847e-01
-2.384462213516235352e+01 -7.468746930360794067e+00 4.371727602556347847e-01
-2.403517389297485352e+01 -7.735348492860794067e+00 4.451531069353222847e-01
-2.417238092422485352e+01 -7.990719586610794067e+00 4.531944887712597847e-01
-1.127516412734985352e+01 -4.091793805360794067e+00 4.224327700212597847e-01
-1.122365045547485352e+01 -4.172604352235794067e+00 4.257897036150097847e-01
-2.518068170547485352e+01 -8.978512555360794067e+00 4.802025454118847847e-01
-2.582313776016235352e+01 -9.428341656923294067e+00 4.909447329118847847e-01
-2.379164361953735352e+01 -7.241329938173294067e+00 5.403221743181347847e-01
-2.408180475234985352e+01 -7.533566266298294067e+00 5.500725405290722847e-01
-2.424110651016235352e+01 -7.792965680360794067e+00 5.591210024431347847e-01
-2.472023248672485352e+01 -8.156002789735794067e+00 5.707329409196972847e-01
-1.127553033828735352e+01 -4.089962750673294067e+00 4.738396303728222847e-01
-1.122401666641235352e+01 -4.170773297548294067e+00 4.770744936540722847e-01
-2.574721002578735352e+01 -9.164791852235794067e+00 6.042565004900097847e-01
-2.611879205703735352e+01 -9.525997906923294067e+00 6.162346499040722847e-01
-9.822771549224853516e+00 -3.292721539735794067e+00 4.937370913103222847e-01
-1.005446100234985352e+01 -3.442623883485794067e+00 4.996117250993847847e-01
-1.029957818984985352e+01 -3.601071149110794067e+00 5.058220522478222847e-01
-1.055995416641235352e+01 -3.769528180360794067e+00 5.124291079118847847e-01
-1.083534479141235352e+01 -3.947628766298294067e+00 5.194023745134472847e-01
-1.112904596328735352e+01 -4.137692242860794067e+00 5.268486635759472847e-01
-1.143116998672485352e+01 -4.336056500673294067e+00 5.346306459978222847e-01
-1.174159479141235352e+01 -4.543453961610794067e+00 5.427483217790722847e-01
-9.681780338287353516e+00 -3.251217633485794067e+00 5.353935854509472847e-01
-9.905901432037353516e+00 -3.397579938173294067e+00 5.423210756853222847e-01
-1.014357233047485352e+01 -3.552487164735794067e+00 5.494011538103222847e-01
-1.039515924453735352e+01 -3.716793805360794067e+00 5.571678774431347847e-01
-1.066090631484985352e+01 -3.890255719423294067e+00 5.653618471696972847e-01
-1.094398736953735352e+01 -4.075070172548294067e+00 5.741051333025097847e-01
-1.124305963516235352e+01 -4.270626813173294067e+00 5.836266176775097847e-01
-1.154970026016235352e+01 -4.474972516298294067e+00 5.932549135759472847e-01
-9.637468814849853516e+00 -3.237179547548294067e+00 5.774773256853222847e-01
-9.883318424224853516e+00 -3.389401227235794067e+00 5.860222475603222847e-01
-1.014430475234985352e+01 -3.551022320985794067e+00 5.951012270525097847e-01
-1.042286920547485352e+01 -3.723507672548294067e+00 6.047905581071972847e-01
-1.071888971328735352e+01 -3.906857281923294067e+00 6.150749819353222847e-01
-1.103615045547485352e+01 -4.103268414735794067e+00 6.261070864275097847e-01
-1.124684381484985352e+01 -4.269894391298294067e+00 6.349419252946972847e-01
-1.170619440078735352e+01 -4.526974469423294067e+00 6.497734682634472847e-01
-9.748919010162353516e+00 -3.266842633485794067e+00 6.233452456071972847e-01
-1.000050592422485352e+01 -3.421749860048294067e+00 6.331413881853222847e-01
-1.026857233047485352e+01 -3.586422711610794067e+00 6.438072817400097847e-01
-1.052955865859985352e+01 -3.754635602235794067e+00 6.545189516618847847e-01
-1.079274225234985352e+01 -3.928463727235794067e+00 6.655205385759472847e-01
-1.107277154922485352e+01 -4.113400250673294067e+00 6.772087709978222847e-01
-1.124721002578735352e+01 -4.268063336610794067e+00 6.861961977556347847e-01
-1.165858697891235352e+01 -4.508419781923294067e+00 7.023247377946972847e-01
-9.707537174224853516e+00 -3.253536969423294067e+00 6.654137270525097847e-01
-9.924456119537353516e+00 -3.397946149110794067e+00 6.756676333025097847e-01
-1.015321588516235352e+01 -3.550167828798294067e+00 6.865013735368847847e-01
-1.039576959609985352e+01 -3.711544781923294067e+00 6.979607241228222847e-01
-1.065138483047485352e+01 -3.881588727235794067e+00 7.100609438493847847e-01
-1.092323541641235352e+01 -4.062496930360794067e+00 7.229241030290722847e-01
-1.121071100234985352e+01 -4.253781110048294067e+00 7.365196840837597847e-01
-1.156300592422485352e+01 -4.473385602235794067e+00 7.525261538103222847e-01
-9.595842838287353516e+00 -3.220455914735794067e+00 7.048424379900097847e-01
-9.818743228912353516e+00 -3.365475445985794067e+00 7.161949770525097847e-01
-1.009462213516235352e+01 -3.530880719423294067e+00 7.298668520525097847e-01
-1.039015436172485352e+01 -3.708004742860794067e+00 7.445152895525097847e-01
-1.070533990859985352e+01 -3.896847516298294067e+00 7.601555483415722847e-01
-1.104469537734985352e+01 -4.100216656923294067e+00 7.769707338884472847e-01
-1.140004205703735352e+01 -4.315426617860794067e+00 7.946861879900097847e-01
-1.176393365859985352e+01 -4.540646344423294067e+00 8.133476870134472847e-01
-9.699724674224853516e+00 -3.248043805360794067e+00 7.515648500993847847e-01
-9.967302799224853516e+00 -3.406857281923294067e+00 7.661675112321972847e-01
-1.025270318984985352e+01 -3.576412945985794067e+00 7.817314760759472847e-01
-1.055873346328735352e+01 -3.758175641298294067e+00 7.984398500993847847e-01
-2.723951959609985352e+01 -9.143673688173294067e+00 1.495629181154072285e+00
-2.753077936172485352e+01 -9.483273297548294067e+00 1.519356598146259785e+00
-2.830287408828735352e+01 -9.990109235048294067e+00 1.563744415529072285e+00
-2.858449029922485352e+01 -1.034325864911079407e+01 1.587853302247822285e+00
-2.567921686172485352e+01 -7.737789899110794067e+00 1.507881988771259785e+00
-2.625953912734985352e+01 -8.130734235048294067e+00 1.544915069825947285e+00
-2.647401666641235352e+01 -8.425778180360794067e+00 1.565850128419697285e+00
-2.716591119766235352e+01 -8.873898297548294067e+00 1.608330597169697285e+00
-2.752699518203735352e+01 -9.229977399110794067e+00 1.636772979982197285e+00
-2.808436822891235352e+01 -9.658932477235794067e+00 1.675515045411884785e+00
-2.858192682266235352e+01 -1.007848814129829407e+01 1.711266388185322285e+00
-2.918007135391235352e+01 -1.054333189129829407e+01 1.752327789552509785e+00
-2.626344537734985352e+01 -7.897335797548294067e+00 1.656456817872822285e+00
-2.644948053359985352e+01 -8.181027203798294067e+00 1.676506866700947285e+00
-2.684742975234985352e+01 -8.532589703798294067e+00 1.708107818849384785e+00
-2.752577447891235352e+01 -8.979733258485794067e+00 1.754387726075947285e+00
-2.799647760391235352e+01 -9.373776227235794067e+00 1.790673126466572285e+00
-2.857777643203735352e+01 -9.814816266298294067e+00 1.833214630372822285e+00
-2.916920709609985352e+01 -1.027026060223579407e+01 1.876839508302509785e+00
-2.982924127578735352e+01 -1.076171568036079407e+01 1.925423492677509785e+00
-1.252418756484985352e+01 -4.839474469423294067e+00 -8.191598486155271530e-02
-1.256056451797485352e+01 -4.963253766298294067e+00 -8.069528173655271530e-02
-1.314967584609985352e+01 -5.291256695985794067e+00 -1.015082700178027153e-01
-1.303053522109985352e+01 -5.364865094423294067e+00 -9.433663915842771530e-02
-1.291346979141235352e+01 -5.437374860048294067e+00 -8.727181982249021530e-02
-1.279738092422485352e+01 -5.509152203798294067e+00 -8.028329443186521530e-02
-1.269728326797485352e+01 -5.585568219423294067e+00 -7.395089697092771530e-02
-1.269703912734985352e+01 -5.702145367860794067e+00 -7.178414892405271530e-02
-1.882081842422485352e+01 -7.029415875673294067e+00 -2.437507016584277153e-01
-1.458290338516235352e+01 -5.683956891298294067e+00 -9.288705419749021530e-02
-1.450905084609985352e+01 -5.787594586610794067e+00 -8.734811376780271530e-02
-1.444179010391235352e+01 -5.893551617860794067e+00 -8.168710302561521530e-02
-1.360048151016235352e+01 -5.700070172548294067e+00 -5.007089208811521530e-02
-1.428859186172485352e+01 -6.096432477235794067e+00 -7.085336279124021530e-02
-1.421596002578735352e+01 -6.198239117860794067e+00 -6.540597509592771530e-02
-1.414357233047485352e+01 -6.299679547548294067e+00 -5.998910497874021530e-02
-2.177858209609985352e+01 -8.055172711610794067e+00 -2.439490659162402153e-01
-2.187867975234985352e+01 -8.287960797548294067e+00 -2.421180112287402153e-01
-2.248402643203735352e+01 -8.708981305360794067e+00 -2.551490170881152153e-01
-2.261085748672485352e+01 -8.963619977235794067e+00 -2.538062436506152153e-01
-1.360096979141235352e+01 -5.697750836610794067e+00 1.352774072438478470e-02
-1.539686822891235352e+01 -6.531735211610794067e+00 -3.526986669749021530e-02
-1.536488580703735352e+01 -6.660763531923294067e+00 -3.089059423655271530e-02
-1.534962701797485352e+01 -6.796994000673294067e+00 -2.696908544749021530e-02
-2.297792291641235352e+01 -8.468258649110794067e+00 -1.716834409162402153e-01
-2.314283990859985352e+01 -8.735348492860794067e+00 -1.697760922834277153e-01
-2.331080865859985352e+01 -9.007809430360794067e+00 -1.684028012678027153e-01
-2.380934381484985352e+01 -9.409909039735794067e+00 -1.749793393537402153e-01
-1.360145807266235352e+01 -5.695431500673294067e+00 7.747732568532228470e-02
-2.401259088516235352e+01 -9.932369977235794067e+00 -1.682959897443652153e-01
-2.458632135391235352e+01 -1.038927915692329407e+01 -1.760016782209277153e-01
-2.477028131484985352e+01 -1.069726255536079407e+01 -1.749030454084277153e-01
-2.382521295547485352e+01 -8.758541852235794067e+00 -8.002389501780271530e-02
-2.412599420547485352e+01 -9.081906110048294067e+00 -8.006967138499021530e-02
-2.443641901016235352e+01 -9.415768414735794067e+00 -8.010018896311521530e-02
-2.472963190078735352e+01 -9.751217633485794067e+00 -7.956613134592771530e-02
-1.360182428359985352e+01 -5.693112164735794067e+00 1.410912172868847847e-01
-2.536708307266235352e+01 -1.046264341473579407e+01 -7.892526220530271530e-02
-2.578200006484985352e+01 -1.086816099286079407e+01 -8.010018896311521530e-02
-2.631080865859985352e+01 -1.133044126629829407e+01 -8.312142919749021530e-02
-2.429310846328735352e+01 -8.916744977235794067e+00 2.512442041188478470e-02
-2.460292291641235352e+01 -9.247555524110794067e+00 2.752005029469728470e-02
-2.492567682266235352e+01 -9.590328961610794067e+00 2.930532861500978470e-02
-2.527565240859985352e+01 -9.951657086610794067e+00 3.095327783375978470e-02
-1.360231256484985352e+01 -5.690792828798294067e+00 2.050408022478222847e-01
-2.614198541641235352e+01 -1.076366880536079407e+01 3.258596826344728470e-02
-2.660707330703735352e+01 -1.119677427411079407e+01 3.339468408375978470e-02
-2.717872858047485352e+01 -1.168468931317329407e+01 3.237234521657228470e-02
-2.467653131484985352e+01 -9.045407086610794067e+00 1.363152163103222847e-01
-2.481532526016235352e+01 -9.318722516298294067e+00 1.418388979509472847e-01
-2.543800592422485352e+01 -9.773190289735794067e+00 1.426323549821972847e-01
-2.568898248672485352e+01 -1.010216978192329407e+01 1.474693911150097847e-01
-1.360280084609985352e+01 -5.688473492860794067e+00 2.686546938493847847e-01
-2.669911432266235352e+01 -1.097839048504829407e+01 1.530693667009472847e-01
-2.686928033828735352e+01 -1.129772642254829407e+01 1.593407290056347847e-01
-2.774269342422485352e+01 -1.191283872723579407e+01 1.597679750993847847e-01
-2.488954401016235352e+01 -9.114743024110794067e+00 2.515953676775097847e-01
-2.560072565078735352e+01 -9.593991070985794067e+00 2.551048891618847847e-01
-2.576295709609985352e+01 -9.887326031923294067e+00 2.625511782243847847e-01
-2.592762994766235352e+01 -1.018688657879829407e+01 2.695244448259472847e-01
-1.360316705703735352e+01 -5.686154156923294067e+00 3.326042788103222847e-01
-2.696376276016235352e+01 -1.107775571942329407e+01 2.809532778337597847e-01
-2.784987115859985352e+01 -1.168871763348579407e+01 2.850731508806347847e-01
-2.801674127578735352e+01 -1.202087095379829407e+01 2.930687563493847847e-01
-2.539857721328735352e+01 -9.286740094423294067e+00 3.693016665056347847e-01
-2.583619928359985352e+01 -9.673092633485794067e+00 3.769615786150097847e-01
-2.600087213516235352e+01 -9.969479352235794067e+00 3.850182192400097847e-01
-2.684327936172485352e+01 -1.052538755536079407e+01 3.933190004900097847e-01
-1.360365533828735352e+01 -5.683834820985794067e+00 3.962181704118847847e-01
-2.783558893203735352e+01 -1.141625669598579407e+01 4.112023012712597847e-01
-2.812672662734985352e+01 -1.179504087567329407e+01 4.204643862321972847e-01
-2.885878229141235352e+01 -1.236352232098579407e+01 4.306114809587597847e-01
-2.582618951797485352e+01 -9.430294781923294067e+00 4.909752504900097847e-01
-2.607472467422485352e+01 -9.753292828798294067e+00 5.004662172868847847e-01
-2.669679498672485352e+01 -1.021886900067329407e+01 5.119255678728222847e-01
-2.714930963516235352e+01 -1.063500669598579407e+01 5.230339663103222847e-01
-1.360414361953735352e+01 -5.681515485048294067e+00 4.598320620134472847e-01
-2.822316217422485352e+01 -1.156359556317329407e+01 5.472801821306347847e-01
-2.873597955703735352e+01 -1.203551939129829407e+01 5.598839418962597847e-01
-2.924525690078735352e+01 -1.251769712567329407e+01 5.728691713884472847e-01
-2.612184381484985352e+01 -9.527951031923294067e+00 6.162956850603222847e-01
-2.631923151016235352e+01 -9.835446149110794067e+00 6.270073549821972847e-01
-2.706239557266235352e+01 -1.034740903973579407e+01 6.431511538103222847e-01
-2.742140436172485352e+01 -1.073193052411079407e+01 6.560906069353222847e-01
-1.360463190078735352e+01 -5.679196149110794067e+00 5.237816469743847847e-01
-2.861696100234985352e+01 -1.171325376629829407e+01 6.879662172868847847e-01
-2.911989068984985352e+01 -1.218493345379829407e+01 7.035759584978222847e-01
-2.963258600234985352e+01 -1.267211607098579407e+01 7.197350161150097847e-01
-1.174391412734985352e+01 -4.544552594423294067e+00 5.427940981462597847e-01
-1.207460260391235352e+01 -4.765621930360794067e+00 5.514916079118847847e-01
-1.242787408828735352e+01 -5.001583844423294067e+00 5.607842104509472847e-01
-1.280751276016235352e+01 -5.255245953798294067e+00 5.707787172868847847e-01
-1.321364068984985352e+01 -5.526608258485794067e+00 5.814598696306347847e-01
-1.365211725234985352e+01 -5.819577008485794067e+00 5.929955141618847847e-01
-1.408241510391235352e+01 -6.118038922548294067e+00 6.047447817400097847e-01
-1.454554986953735352e+01 -6.439205914735794067e+00 6.173790590837597847e-01
-1.155214166641235352e+01 -4.476193219423294067e+00 5.933159487321972847e-01
-1.190346002578735352e+01 -4.702511578798294067e+00 6.041191713884472847e-01
-1.227955865859985352e+01 -4.945309430360794067e+00 6.153954165056347847e-01
-1.268678522109985352e+01 -5.207760602235794067e+00 6.279076235368847847e-01
-1.312489557266235352e+01 -5.490109235048294067e+00 6.413658754900097847e-01
-1.360084772109985352e+01 -5.796871930360794067e+00 6.559837954118847847e-01
-1.407325983047485352e+01 -6.111813336610794067e+00 6.712731020525097847e-01
-1.457911920547485352e+01 -6.450314313173294067e+00 6.873406069353222847e-01
-1.170875787734985352e+01 -4.528195172548294067e+00 6.498497622087597847e-01
-1.207081842422485352e+01 -4.759884625673294067e+00 6.628349917009472847e-01
-1.245997858047485352e+01 -5.008785992860794067e+00 6.767967836931347847e-01
-1.286342096328735352e+01 -5.271481305360794067e+00 6.914757387712597847e-01
-1.325868463516235352e+01 -5.539059430360794067e+00 7.062767641618847847e-01
-1.361195611953735352e+01 -5.798702985048294067e+00 7.203911440446972847e-01
-1.410048151016235352e+01 -6.120114117860794067e+00 7.382897036150097847e-01
-1.454933404922485352e+01 -6.435299664735794067e+00 7.555931704118847847e-01
-1.166078424453735352e+01 -4.509518414735794067e+00 7.024010317400097847e-01
-1.197523736953735352e+01 -4.723751813173294067e+00 7.156456606462597847e-01
-1.230946588516235352e+01 -4.951779156923294067e+00 7.300346987321972847e-01
-1.266749811172485352e+01 -5.195919781923294067e+00 7.454613344743847847e-01
-1.304933404922485352e+01 -5.456295758485794067e+00 7.619103090837597847e-01
-1.350209283828735352e+01 -5.753170758485794067e+00 7.808922426775097847e-01
-1.400404596328735352e+01 -6.078732281923294067e+00 8.017662661150097847e-01
-1.453737115859985352e+01 -6.427731305360794067e+00 8.244713442400097847e-01
-1.156556940078735352e+01 -4.474606305360794067e+00 7.526177065446972847e-01
-1.194203424453735352e+01 -4.709835797548294067e+00 7.699059145525097847e-01
-1.234804010391235352e+01 -4.963497906923294067e+00 7.885368959978222847e-01
-1.278871393203735352e+01 -5.238888531923294067e+00 8.087547915056347847e-01
-1.326527643203735352e+01 -5.536740094423294067e+00 8.306358950212597847e-01
-1.377491998672485352e+01 -5.857785016298294067e+00 8.541344301775097847e-01
-3.132972955703735352e+01 -1.304626157879829407e+01 1.487069000490009785e+00
-3.168654108047485352e+01 -1.348998716473579407e+01 1.513527740724384785e+00
-1.176649713516235352e+01 -4.541867047548294067e+00 8.134544985368847847e-01
-2.862929010391235352e+01 -1.062536314129829407e+01 1.465859283693134785e+00
-2.942103815078735352e+01 -1.117565611004829407e+01 1.509026397950947285e+00
-2.988209772109985352e+01 -1.162011411786079407e+01 1.540032257325947285e+00
-3.053871393203735352e+01 -1.214880064129829407e+01 1.579247345216572285e+00
-3.124965143203735352e+01 -1.271423032879829407e+01 1.621392120607197285e+00
-3.174354791641235352e+01 -1.320678403973579407e+01 1.655388702638447285e+00
-3.173878717422485352e+01 -1.350536802411079407e+01 1.670235504396259785e+00
-2.858693170547485352e+01 -1.034496763348579407e+01 1.588005890138447285e+00
-2.941627740859985352e+01 -1.089904478192329407e+01 1.636650909669697285e+00
-2.983168268203735352e+01 -1.131957700848579407e+01 1.668022979982197285e+00
-3.053126764297485352e+01 -1.185668638348579407e+01 1.712471832521259785e+00
-3.113624811172485352e+01 -1.237170103192329407e+01 1.753380645997822285e+00
-3.180458307266235352e+01 -1.292590025067329407e+01 1.797860016115009785e+00
-3.202162408828735352e+01 -1.331249693036079407e+01 1.822411407716572285e+00
-3.252321100234985352e+01 -1.382214048504829407e+01 1.860390533693134785e+00
-2.918519830703735352e+01 -1.054601743817329407e+01 1.752632965333759785e+00
-2.982008600234985352e+01 -1.103661802411079407e+01 1.796654571779072285e+00
-3.044374322891235352e+01 -1.153661802411079407e+01 1.840828766115009785e+00
-3.113258600234985352e+01 -1.207531431317329407e+01 1.888131012208759785e+00
-3.195643854141235352e+01 -1.267968443036079407e+01 1.943627228029072285e+00
-3.210060358047485352e+01 -1.303600767254829407e+01 1.966835846193134785e+00
-3.189137506484985352e+01 -1.325402525067329407e+01 1.971535553224384785e+00
-3.254445123672485352e+01 -1.382470396161079407e+01 2.020180572755634785e+00
-2.983510065078735352e+01 -1.076476743817329407e+01 1.925789703615009785e+00
-3.058973932266235352e+01 -1.130358579754829407e+01 1.979241241700947285e+00
-3.115077447891235352e+01 -1.178783872723579407e+01 2.023918976075947285e+00
-3.222328424453735352e+01 -1.247619321942329407e+01 2.096932281740009785e+00
-3.300685358047485352e+01 -1.307519224286079407e+01 2.155297149904072285e+00
-3.187379693984985352e+01 -1.294103696942329407e+01 2.109139312990009785e+00
-3.225941705703735352e+01 -1.339574888348579407e+01 2.146202911622822285e+00
-3.462269830703735352e+01 -1.467297056317329407e+01 2.295464386232197285e+00
-1.269679498672485352e+01 -5.702389508485794067e+00 -7.176889013499021530e-02
-1.265504693984985352e+01 -5.802243024110794067e+00 -6.763375829905271530e-02
-1.260658502578735352e+01 -5.899166852235794067e+00 -6.357492040842771530e-02
-1.256166315078735352e+01 -5.997921735048294067e+00 -5.963815283030271530e-02
-1.251991510391235352e+01 -6.097775250673294067e+00 -5.582345556467771530e-02
-1.247804498672485352e+01 -6.197994977235794067e+00 -5.199349950999021530e-02
-1.243629693984985352e+01 -6.297970563173294067e+00 -4.819406103342771530e-02
-1.238868951797485352e+01 -6.395138531923294067e+00 -4.448617529124021530e-02
-1.414332818984985352e+01 -6.300045758485794067e+00 -5.997384618967771530e-02
-1.406630182266235352e+01 -6.398922711610794067e+00 -5.469430517405271530e-02
-1.398964166641235352e+01 -6.497433453798294067e+00 -4.943002294749021530e-02
-1.393214654922485352e+01 -6.604367047548294067e+00 -4.444039892405271530e-02
-1.390431451797485352e+01 -6.724240094423294067e+00 -4.079354833811521530e-02
-1.386842584609985352e+01 -6.841183453798294067e+00 -3.722299169749021530e-02
-1.384034967422485352e+01 -6.961666852235794067e+00 -3.354562353342771530e-02
-1.381227350234985352e+01 -7.082638531923294067e+00 -2.985299658030271530e-02
-1.534962701797485352e+01 -6.797482281923294067e+00 -2.695382665842771530e-02
-1.542860651016235352e+01 -6.974240094423294067e+00 -2.593148779124021530e-02
-1.552089166641235352e+01 -7.159542828798294067e+00 -2.522958349436521530e-02
-1.560414361953735352e+01 -7.344235211610794067e+00 -2.419198583811521530e-02
-1.566212701797485352e+01 -7.519650250673294067e+00 -2.242196630686521530e-02
-1.567933893203735352e+01 -7.678952008485794067e+00 -1.946176122874021530e-02
-1.567848443984985352e+01 -7.830685406923294067e+00 -1.599801611155271530e-02
-1.567762994766235352e+01 -7.983517438173294067e+00 -1.251901220530271530e-02
-2.477101373672485352e+01 -1.069836118817329407e+01 -1.749030454084277153e-01
-2.481093072891235352e+01 -1.095043638348579407e+01 -1.694251401349902153e-01
-1.595118951797485352e+01 -7.343258649110794067e+00 3.958975244313478470e-02
-1.812318658828735352e+01 -8.459347516298294067e+00 -5.972991697490215302e-03
-1.789015436172485352e+01 -8.527706891298294067e+00 3.517975099384784698e-03
-1.775245904922485352e+01 -8.637570172548294067e+00 1.084219384938478470e-02
-1.779640436172485352e+01 -8.831539899110794067e+00 1.410757470875978470e-02
-1.774379205703735352e+01 -8.980831891298294067e+00 1.908193994313478470e-02
-2.631447076797485352e+01 -1.133288267254829407e+01 -8.316720556467771530e-02
-2.684169244766235352e+01 -1.180651548504829407e+01 -8.615792822092771530e-02
-1.593910455703735352e+01 -7.335079938173294067e+00 1.162346499040722847e-01
-2.786024713516235352e+01 -1.277550962567329407e+01 -9.052194189280271530e-02
-2.832289361953735352e+01 -1.325658872723579407e+01 -9.143746923655271530e-02
-1.825966119766235352e+01 -8.869381695985794067e+00 8.852468896657228470e-02
-2.106422662734985352e+01 -1.037633970379829407e+01 4.587637353688478470e-02
-2.087013483047485352e+01 -1.049047544598579407e+01 5.458914209157228470e-02
-2.718239068984985352e+01 -1.168713071942329407e+01 3.234182763844728470e-02
-2.763673639297485352e+01 -1.213818052411079407e+01 3.435598779469728470e-02
-1.592689752578735352e+01 -7.326779156923294067e+00 1.931694643571972847e-01
-2.864857721328735352e+01 -1.311974790692329407e+01 3.662954736500978470e-02
-2.914259576797485352e+01 -1.362267759442329407e+01 3.839956689625978470e-02
-1.826027154922485352e+01 -8.866085797548294067e+00 1.779411928728222847e-01
-3.001393365859985352e+01 -1.461059263348579407e+01 4.438101220875978470e-02
-3.042665338516235352e+01 -1.510961607098579407e+01 4.728018213063478470e-02
-2.774428033828735352e+01 -1.191442564129829407e+01 1.597832338884472847e-01
-2.790956354141235352e+01 -1.224841001629829407e+01 1.663750307634472847e-01
-1.591481256484985352e+01 -7.318478375673294067e+00 2.695702211931347847e-01
-2.891566705703735352e+01 -1.323254087567329407e+01 1.749046938493847847e-01
-2.972438287734985352e+01 -1.388073423504829407e+01 1.774681704118847847e-01
-1.826088190078735352e+01 -8.862789899110794067e+00 2.668694155290722847e-01
-3.068849420547485352e+01 -1.492406919598579407e+01 1.886681215837597847e-01
-3.083302545547485352e+01 -1.530004575848579407e+01 1.969689028337597847e-01
-2.801832818984985352e+01 -1.202245786786079407e+01 2.930992739275097847e-01
-2.889735651016235352e+01 -1.266125181317329407e+01 2.987755434587597847e-01
-1.590529108047485352e+01 -7.311398297548294067e+00 3.462456362321972847e-01
-2.985609674453735352e+01 -1.364355161786079407e+01 3.148888247087597847e-01
-3.000856256484985352e+01 -1.400365903973579407e+01 3.238609926775097847e-01
-1.826149225234985352e+01 -8.859616070985794067e+00 3.562859194353222847e-01
-3.097328424453735352e+01 -1.505273130536079407e+01 3.404320375993847847e-01
-3.174379205703735352e+01 -1.573412778973579407e+01 3.492973940446972847e-01
-2.886281061172485352e+01 -1.236620786786079407e+01 4.306572573259472847e-01
-2.916859674453735352e+01 -1.277050474286079407e+01 4.405144350603222847e-01
-1.590577936172485352e+01 -7.308590680360794067e+00 4.224327700212597847e-01
-3.014015436172485352e+01 -1.376354673504829407e+01 4.619377749040722847e-01
-3.081935358047485352e+01 -1.436486509442329407e+01 4.737633364275097847e-01
-1.826210260391235352e+01 -8.856320172548294067e+00 4.452141420915722847e-01
-3.178041315078735352e+01 -1.542834165692329407e+01 4.977043764665722847e-01
-3.203236627578735352e+01 -1.586718443036079407e+01 5.094078676775097847e-01
-2.924928522109985352e+01 -1.252038267254829407e+01 5.729302065446972847e-01
-2.972560358047485352e+01 -1.300036314129829407e+01 5.860985415056347847e-01
-1.590638971328735352e+01 -7.305783063173294067e+00 4.986199038103222847e-01
-3.071986627578735352e+01 -1.401440122723579407e+01 6.140068667009472847e-01
-3.122804498672485352e+01 -1.454394224286079407e+01 6.286705629900097847e-01
-3.170741510391235352e+01 -1.507360532879829407e+01 6.435936586931347847e-01
-3.215394830703735352e+01 -1.559875181317329407e+01 6.586235659196972847e-01
-3.263612604141235352e+01 -1.615246275067329407e+01 6.743706362321972847e-01
-2.963612604141235352e+01 -1.267455747723579407e+01 7.198113100603222847e-01
-3.011940240859985352e+01 -1.316112974286079407e+01 7.361076967790722847e-01
-1.590687799453735352e+01 -7.302975445985794067e+00 5.752190249040722847e-01
-3.112648248672485352e+01 -1.418822935223579407e+01 7.705467836931347847e-01
-3.163575983047485352e+01 -1.472216489911079407e+01 7.885216372087597847e-01
-3.208925104141235352e+01 -1.524389341473579407e+01 8.062523500993847847e-01
-3.244899225234985352e+01 -1.573180845379829407e+01 8.231133120134472847e-01
-3.303651666641235352e+01 -1.633935239911079407e+01 8.435295717790722847e-01
-1.454908990859985352e+01 -6.441159039735794067e+00 6.174553530290722847e-01
-1.504872369766235352e+01 -6.787716656923294067e+00 6.311577456071972847e-01
-1.558986139297485352e+01 -7.162960797548294067e+00 6.459740297868847847e-01
-1.615626764297485352e+01 -7.561642438173294067e+00 6.617363588884472847e-01
-1.671925592422485352e+01 -7.970700055360794067e+00 6.778954165056347847e-01
-1.733619928359985352e+01 -8.417721539735794067e+00 6.955650942400097847e-01
-1.805507135391235352e+01 -8.926022320985794067e+00 7.156456606462597847e-01
-1.874806451797485352e+01 -9.437741070985794067e+00 7.358635561540722847e-01
-1.458278131484985352e+01 -6.452389508485794067e+00 6.874321596696972847e-01
-1.513270807266235352e+01 -6.820309430360794067e+00 7.049797670915722847e-01
-1.573085260391235352e+01 -7.220944195985794067e+00 7.236870424821972847e-01
-1.634047174453735352e+01 -7.640011578798294067e+00 7.435845034196972847e-01
-1.695094537734985352e+01 -8.072262555360794067e+00 7.640160219743847847e-01
-1.756288385391235352e+01 -8.519161969423294067e+00 7.850884096696972847e-01
-1.822352838516235352e+01 -9.002072125673294067e+00 8.083122866228222847e-01
-1.884242486953735352e+01 -9.479611188173294067e+00 8.306816713884472847e-01
-1.455275201797485352e+01 -6.437252789735794067e+00 7.556999819353222847e-01
-1.503578424453735352e+01 -6.776486188173294067e+00 7.744377749040722847e-01
-1.555751276016235352e+01 -7.143063336610794067e+00 7.946861879900097847e-01
-1.610792779922485352e+01 -7.534176617860794067e+00 8.162315981462597847e-01
-1.670094537734985352e+01 -7.956051617860794067e+00 8.394554750993847847e-01
-1.739930963516235352e+01 -8.440182477235794067e+00 8.662804262712597847e-01
-1.816456842422485352e+01 -8.970700055360794067e+00 8.956535952165722847e-01
-1.888002252578735352e+01 -9.494015485048294067e+00 9.243096010759472847e-01
-1.454127740859985352e+01 -6.429806500673294067e+00 8.246086733415722847e-01
-1.512062311172485352e+01 -6.809567242860794067e+00 8.486717836931347847e-01
-1.575709772109985352e+01 -7.226315289735794067e+00 8.754967348650097847e-01
-3.171791315078735352e+01 -1.442528989911079407e+01 1.401314605958759785e+00
-3.339991998672485352e+01 -1.549425962567329407e+01 1.470742096193134785e+00
-3.262294244766235352e+01 -1.546508482098579407e+01 1.459664215333759785e+00
-3.429005670547485352e+01 -1.657470396161079407e+01 1.530739654786884785e+00
-3.272438287734985352e+01 -1.616259458661079407e+01 1.493325104005634785e+00
-3.169203424453735352e+01 -1.349328306317329407e+01 1.513771881349384785e+00
-3.096730279922485352e+01 -1.348986509442329407e+01 1.501442779786884785e+00
-3.266456842422485352e+01 -1.451965025067329407e+01 1.578392853029072285e+00
-3.219813776016235352e+01 -1.463110044598579407e+01 1.575814117677509785e+00
-3.396266412734985352e+01 -1.574169614911079407e+01 1.657677520997822285e+00
-3.297963190078735352e+01 -1.562328794598579407e+01 1.635613312013447285e+00
-3.330262994766235352e+01 -1.610229185223579407e+01 1.663567413575947285e+00
-3.252064752578735352e+01 -1.605798032879829407e+01 1.648354400880634785e+00
-3.173744440078735352e+01 -1.350585630536079407e+01 1.670235504396259785e+00
-3.298988580703735352e+01 -1.433654478192329407e+01 1.736321319825947285e+00
-3.355153131484985352e+01 -1.489587095379829407e+01 1.775460113771259785e+00
-3.225514459609985352e+01 -1.465002134442329407e+01 1.736245025880634785e+00
-3.186012506484985352e+01 -1.478637388348579407e+01 1.734642853029072285e+00
-3.492701959609985352e+01 -1.651513364911079407e+01 1.883538116700947285e+00
-3.268837213516235352e+01 -1.580614927411079407e+01 1.801903595216572285e+00
-3.283497858047485352e+01 -1.620287778973579407e+01 1.825264801271259785e+00
-3.252369928359985352e+01 -1.382348325848579407e+01 1.860466827638447285e+00
-3.124598932266235352e+01 -1.359533384442329407e+01 1.816689361818134785e+00
-3.260914850234985352e+01 -1.448315122723579407e+01 1.896141876466572285e+00
-3.374537897109985352e+01 -1.530102232098579407e+01 1.966301788575947285e+00
-3.455543756484985352e+01 -1.599572446942329407e+01 2.022011627443134785e+00
-3.278529596328735352e+01 -1.552074888348579407e+01 1.953301300294697285e+00
-3.289454889297485352e+01 -1.589684751629829407e+01 1.975167145021259785e+00
-3.277638483047485352e+01 -1.616808775067329407e+01 1.985970367677509785e+00
-3.254530572891235352e+01 -1.382616880536079407e+01 2.020272125490009785e+00
-3.119337701797485352e+01 -1.356713560223579407e+01 1.966896881349384785e+00
-3.084193658828735352e+01 -1.371520689129829407e+01 1.964363922365009785e+00
-3.375563287734985352e+01 -1.529894712567329407e+01 2.132592071779072285e+00
-3.068702936172485352e+01 -1.424511411786079407e+01 1.986916412599384785e+00
-3.501661920547485352e+01 -1.654259946942329407e+01 2.236092437990009785e+00
-3.289576959609985352e+01 -1.589086607098579407e+01 2.139397491700947285e+00
-3.298097467422485352e+01 -1.626000669598579407e+01 2.161354889161884785e+00
-3.462001276016235352e+01 -1.467297056317329407e+01 2.295372833497822285e+00
-3.050111627578735352e+01 -1.326977232098579407e+01 2.079552520997822285e+00
-3.399635553359985352e+01 -1.506799009442329407e+01 2.295098175294697285e+00
-3.026588678359985352e+01 -1.375463560223579407e+01 2.098122467286884785e+00
-3.357277154922485352e+01 -1.553942564129829407e+01 2.306603302247822285e+00
-3.373585748672485352e+01 -1.594567564129829407e+01 2.334252228029072285e+00
-3.897084283828735352e+01 -1.874425962567329407e+01 2.662804474122822285e+00
-3.296180963516235352e+01 -1.624425962567329407e+01 2.325432647950947285e+00
-1.238856744766235352e+01 -6.395504742860794067e+00 -4.447091650217771530e-02
-1.234767389297485352e+01 -6.495968610048294067e+00 -4.064096044749021530e-02
-1.230763483047485352e+01 -6.597042828798294067e+00 -3.716195654124021530e-02
-1.229164361953735352e+01 -6.711178570985794067e+00 -3.453744482249021530e-02
-1.227553033828735352e+01 -6.825558453798294067e+00 -3.192819189280271530e-02
-1.225941705703735352e+01 -6.941036969423294067e+00 -2.928842138499021530e-02
-1.224318170547485352e+01 -7.056881695985794067e+00 -2.663339208811521530e-02
-1.222023248672485352e+01 -7.169552594423294067e+00 -2.405465673655271530e-02
-1.381215143203735352e+01 -7.083004742860794067e+00 -2.983773779124021530e-02
-1.377797174453735352e+01 -7.201535016298294067e+00 -2.622140478342771530e-02
-1.374379205703735352e+01 -7.320309430360794067e+00 -2.260507177561521530e-02
-1.371693658828735352e+01 -7.443844586610794067e+00 -1.882089208811521530e-02
-1.368239068984985352e+01 -7.563595563173294067e+00 -1.517404150217771530e-02
-1.364003229141235352e+01 -7.679928570985794067e+00 -1.161874365061521530e-02
-1.360524225234985352e+01 -7.800411969423294067e+00 -7.956634275615215302e-03
-1.357045221328735352e+01 -7.921261578798294067e+00 -4.264007322490215302e-03
-1.567787408828735352e+01 -7.984127789735794067e+00 -1.250375341624021530e-02
-1.567079401016235352e+01 -8.135128766298294067e+00 -9.101043455302715302e-03
-1.566371393203735352e+01 -8.287350445985794067e+00 -5.683074705302715302e-03
-1.565663385391235352e+01 -8.441159039735794067e+00 -2.204070799052715302e-03
-1.565687799453735352e+01 -8.599606305360794067e+00 1.076568849384784698e-03
-1.559254693984985352e+01 -8.725338727235794067e+00 6.066192872822284698e-03
-1.553261041641235352e+01 -8.852902203798294067e+00 1.093374658375978470e-02
-1.547267389297485352e+01 -8.980587750673294067e+00 1.580130029469728470e-02
-1.774366998672485352e+01 -8.981320172548294067e+00 1.909719873219728470e-02
-1.771376276016235352e+01 -9.142208844423294067e+00 2.423941064625978470e-02
-1.766749811172485352e+01 -9.295773297548294067e+00 2.927481103688478470e-02
-1.762098932266235352e+01 -9.450436383485794067e+00 3.434072900563478470e-02
-1.758571100234985352e+01 -9.610836774110794067e+00 3.917776513844728470e-02
-1.758595514297485352e+01 -9.791744977235794067e+00 4.332815576344728470e-02
-1.758619928359985352e+01 -9.973629742860794067e+00 4.747854638844728470e-02
-1.757472467422485352e+01 -1.015063169598579407e+01 5.144583154469728470e-02
-2.086891412734985352e+01 -1.049059751629829407e+01 5.461965966969728470e-02
-2.070765924453735352e+01 -1.061864927411079407e+01 6.246267724782228470e-02
-2.067177057266235352e+01 -1.080834653973579407e+01 6.826101709157228470e-02
-2.063539361953735352e+01 -1.099975278973579407e+01 7.408987451344728470e-02
-2.059791803359985352e+01 -1.119079282879829407e+01 7.994924951344728470e-02
-2.056837701797485352e+01 -1.138781431317329407e+01 8.574758935719728470e-02
-2.052565240859985352e+01 -1.157812193036079407e+01 9.174429345875978470e-02
-2.054298639297485352e+01 -1.180285337567329407e+01 9.687124658375978470e-02
-3.043019342422485352e+01 -1.511230161786079407e+01 4.728018213063478470e-02
-3.083265924453735352e+01 -1.561706236004829407e+01 5.188833642750978470e-02
-3.129445123672485352e+01 -1.616283872723579407e+01 5.533682275563478470e-02
-3.174086236953735352e+01 -1.671398618817329407e+01 5.930410791188478470e-02
-3.196229791641235352e+01 -1.715807798504829407e+01 6.592642236500978470e-02
-3.217323541641235352e+01 -1.760534361004829407e+01 7.286917138844728470e-02
-2.700892877578735352e+01 -1.511925962567329407e+01 1.326225893571972847e-01
-2.529701471328735352e+01 -1.444994810223579407e+01 1.559227602556347847e-01
-3.083461236953735352e+01 -1.530187681317329407e+01 1.969994204118847847e-01
-3.162465143203735352e+01 -1.600207212567329407e+01 2.012566225603222847e-01
-3.178883600234985352e+01 -1.640575864911079407e+01 2.096947329118847847e-01
-3.239564752578735352e+01 -1.704455259442329407e+01 2.159203188493847847e-01
-3.273427057266235352e+01 -1.755712583661079407e+01 2.239617006853222847e-01
-3.313832330703735352e+01 -1.811596372723579407e+01 2.320183413103222847e-01
-3.331971979141235352e+01 -1.856359556317329407e+01 2.413872377946972847e-01
-3.340870904922485352e+01 -1.896654966473579407e+01 2.513664858415722847e-01
-3.174550104141235352e+01 -1.573608091473579407e+01 3.493431704118847847e-01
-3.191078424453735352e+01 -1.613708189129829407e+01 3.592003481462597847e-01
-3.263417291641235352e+01 -1.682543638348579407e+01 3.697594301775097847e-01
-3.281898736953735352e+01 -1.725585630536079407e+01 3.802422182634472847e-01
-3.329091119766235352e+01 -1.784264829754829407e+01 3.908928530290722847e-01
-3.366481256484985352e+01 -1.839123228192329407e+01 4.019554750993847847e-01
-3.406837701797485352e+01 -1.896581724286079407e+01 4.124230043962597847e-01
-3.436805963516235352e+01 -1.949425962567329407e+01 4.240654604509472847e-01
-3.203407526016235352e+01 -1.586913755536079407e+01 5.094536440446972847e-01
-3.272023248672485352e+01 -1.653002622723579407e+01 5.230950014665722847e-01
-3.293495416641235352e+01 -1.697045591473579407e+01 5.351952211931347847e-01
-3.342543268203735352e+01 -1.756115415692329407e+01 5.489128725603222847e-01
-3.353688287734985352e+01 -1.796508482098579407e+01 5.610741274431347847e-01
-3.415541315078735352e+01 -1.864696958661079407e+01 5.762566225603222847e-01
-3.458363580703735352e+01 -1.924023130536079407e+01 5.908287661150097847e-01
-3.506630182266235352e+01 -1.987609556317329407e+01 6.061485903337597847e-01
-3.264003229141235352e+01 -1.615551450848579407e+01 6.744621889665722847e-01
-3.305128717422485352e+01 -1.668688657879829407e+01 6.899651186540722847e-01
-3.338514947891235352e+01 -1.719054868817329407e+01 7.051323549821972847e-01
-3.357081842422485352e+01 -1.762914732098579407e+01 7.192162172868847847e-01
-3.415468072891235352e+01 -1.828234556317329407e+01 7.376335756853222847e-01
-3.350868463516235352e+01 -1.829382017254829407e+01 7.434319155290722847e-01
-3.519935846328735352e+01 -1.956921079754829407e+01 7.747887270525097847e-01
-3.566530084609985352e+01 -2.020238950848579407e+01 7.934654848650097847e-01
-3.304054498672485352e+01 -1.634228208661079407e+01 8.436211245134472847e-01
-3.336036920547485352e+01 -1.683263853192329407e+01 8.607872622087597847e-01
-2.046718072891235352e+01 -1.068078306317329407e+01 6.832970278337597847e-01
-2.111781549453735352e+01 -1.122289732098579407e+01 7.010124819353222847e-01
-2.184376764297485352e+01 -1.181921079754829407e+01 7.204521792009472847e-01
-2.263283014297485352e+01 -1.246740415692329407e+01 7.415703432634472847e-01
-2.337636041641235352e+01 -1.310900571942329407e+01 7.626427309587597847e-01
-2.416664361953735352e+01 -1.379455259442329407e+01 7.851799624040722847e-01
-1.875294733047485352e+01 -9.440670758485794067e+00 7.359856264665722847e-01
-1.945265436172485352e+01 -9.971432477235794067e+00 7.570274965837597847e-01
-2.021534967422485352e+01 -1.055004575848579407e+01 7.799614565446972847e-01
-2.091725397109985352e+01 -1.111559751629829407e+01 8.023918764665722847e-01
-2.167604303359985352e+01 -1.172692564129829407e+01 8.266380922868847847e-01
-2.250404596328735352e+01 -1.239403989911079407e+01 8.530968325212597847e-01
-2.331276178359985352e+01 -1.306945493817329407e+01 8.798912661150097847e-01
-2.416163873672485352e+01 -1.378686216473579407e+01 9.083489077165722847e-01
-1.884694147109985352e+01 -9.482418805360794067e+00 8.308190004900097847e-01
-1.949232721328735352e+01 -9.987179547548294067e+00 8.545616762712597847e-01
-2.019325494766235352e+01 -1.053490903973579407e+01 8.797691958025097847e-01
-2.084486627578735352e+01 -1.107421568036079407e+01 9.049614565446972847e-01
-2.153407526016235352e+01 -1.164819028973579407e+01 9.317406313493847847e-01
-2.236024713516235352e+01 -1.231261900067329407e+01 9.628685610368847847e-01
-2.320826959609985352e+01 -1.300780943036079407e+01 9.959953920915722847e-01
-2.408107233047485352e+01 -1.373705747723579407e+01 1.030053009279072285e+00
-1.888514947891235352e+01 -9.497067242860794067e+00 9.244927065446972847e-01
-1.962929010391235352e+01 -1.005077818036079407e+01 9.548729555681347847e-01
-3.292347955703735352e+01 -1.693163755536079407e+01 1.364601959474384785e+00
-3.384340143203735352e+01 -1.774181821942329407e+01 1.407708038575947285e+00
-3.656740045547485352e+01 -1.951830747723579407e+01 1.507836212404072285e+00
-3.345582818984985352e+01 -1.823815611004829407e+01 1.426522125490009785e+00
-3.571657037734985352e+01 -1.982214048504829407e+01 1.514458526857197285e+00
-3.555922174453735352e+01 -2.011376646161079407e+01 1.526085724122822285e+00
-3.272316217422485352e+01 -1.616308286786079407e+01 1.493325104005634785e+00
-3.283888483047485352e+01 -1.654931333661079407e+01 1.511711944825947285e+00
-3.408961725234985352e+01 -1.751110532879829407e+01 1.571266998536884785e+00
-3.386390924453735352e+01 -1.774560239911079407e+01 1.579399933107197285e+00
-3.385780572891235352e+01 -1.809216001629829407e+01 1.595360626466572285e+00
-3.347865533828735352e+01 -1.824352720379829407e+01 1.597786773927509785e+00
-3.497365045547485352e+01 -1.941003111004829407e+01 1.669747223146259785e+00
-3.491090631484985352e+01 -1.974609068036079407e+01 1.685509552247822285e+00
-3.251942682266235352e+01 -1.605846861004829407e+01 1.648369659669697285e+00
-3.431520318984985352e+01 -1.726903989911079407e+01 1.735924591310322285e+00
-3.410682916641235352e+01 -1.751281431317329407e+01 1.744362701661884785e+00
-3.391163873672485352e+01 -1.776318052411079407e+01 1.753319610841572285e+00
-3.391627740859985352e+01 -1.811584165692329407e+01 1.770455230958759785e+00
-3.350160455703735352e+01 -1.824889829754829407e+01 1.770195831544697285e+00
-3.522487115859985352e+01 -1.953954771161079407e+01 1.860466827638447285e+00
-3.538136529922485352e+01 -2.000011900067329407e+01 1.885277618654072285e+00
-3.283302545547485352e+01 -1.620299986004829407e+01 1.825234283693134785e+00
-3.322365045547485352e+01 -1.672546079754829407e+01 1.858635772950947285e+00
-3.372316217422485352e+01 -1.731335142254829407e+01 1.898430694825947285e+00
-3.380653619766235352e+01 -1.770251157879829407e+01 1.919762481935322285e+00
-3.997389459609985352e+01 -2.127807310223579407e+01 2.224999298341572285e+00
-3.352455377578735352e+01 -1.825426939129829407e+01 1.941918243654072285e+00
-3.507069635391235352e+01 -1.944836118817329407e+01 2.033486236818134785e+00
-3.525917291641235352e+01 -1.992492368817329407e+01 2.062325348146259785e+00
-3.277467584609985352e+01 -1.616845396161079407e+01 1.985955108888447285e+00
-3.330934381484985352e+01 -1.676086118817329407e+01 2.030129303224384785e+00
-3.938283014297485352e+01 -2.014757993817329407e+01 2.356011261232197285e+00
-4.021107721328735352e+01 -2.097753599286079407e+01 2.419823517091572285e+00
-4.081569147109985352e+01 -2.171020200848579407e+01 2.473076690919697285e+00
-3.353248834609985352e+01 -1.825158384442329407e+01 2.114006866700947285e+00
-4.193178033828735352e+01 -2.317577818036079407e+01 2.577355255372822285e+00
-3.532216119766235352e+01 -1.995263364911079407e+01 2.247032989747822285e+00
-3.298048639297485352e+01 -1.626086118817329407e+01 2.161400665529072285e+00
-3.326759576797485352e+01 -1.673363950848579407e+01 2.195443023927509785e+00
-4.044679498672485352e+01 -2.067345884442329407e+01 2.615105499513447285e+00
-4.094581842422485352e+01 -2.134582212567329407e+01 2.664986480958759785e+00
-3.753932428359985352e+01 -1.998913267254829407e+01 2.494027008302509785e+00
-3.352174615859985352e+01 -1.823901060223579407e+01 2.285088409669697285e+00
-4.265455865859985352e+01 -2.356042173504829407e+01 2.835900177247822285e+00
-3.541676568984985352e+01 -1.999779966473579407e+01 2.435219635255634785e+00
-3.296132135391235352e+01 -1.624511411786079407e+01 2.325463165529072285e+00
-3.296559381484985352e+01 -1.657861021161079407e+01 2.343697418458759785e+00
-4.109144830703735352e+01 -2.098864439129829407e+01 2.858437408693134785e+00
-4.165053033828735352e+01 -2.169823911786079407e+01 2.916954864747822285e+00
-4.215846490859985352e+01 -2.239513853192329407e+01 2.973091949708759785e+00
-3.351368951797485352e+01 -1.822790220379829407e+01 2.455300201661884785e+00
-4.340675592422485352e+01 -2.396069028973579407e+01 3.102684845216572285e+00
-4.406642389297485352e+01 -2.478844907879829407e+01 3.172402252443134785e+00
-1.222035455703735352e+01 -7.170162945985794067e+00 -2.405465673655271530e-02
-1.218898248672485352e+01 -7.278805524110794067e+00 -2.078927587717771530e-02
-1.214381647109985352e+01 -7.379879742860794067e+00 -1.737130712717771530e-02
-1.209840631484985352e+01 -7.481686383485794067e+00 -1.390756200999021530e-02
-1.205494928359985352e+01 -7.584347516298294067e+00 -1.053536962717771530e-02
-1.202821588516235352e+01 -7.698117047548294067e+00 -7.727752439677715302e-03
-1.200136041641235352e+01 -7.812008649110794067e+00 -4.920135252177715302e-03
-1.196657037734985352e+01 -7.921505719423294067e+00 -2.158294431865215302e-03
-1.357033014297485352e+01 -7.921749860048294067e+00 -4.248748533427715302e-03
-1.352955865859985352e+01 -8.039669781923294067e+00 -6.476743146777153015e-04
-1.348854303359985352e+01 -8.158077985048294067e+00 2.953399904072284698e-03
-1.345485162734985352e+01 -8.281735211610794067e+00 6.722320802509784698e-03
-1.341359186172485352e+01 -8.400997906923294067e+00 1.036917138844728470e-02
-1.336451959609985352e+01 -8.516476422548294067e+00 1.389395166188478470e-02
-1.332289361953735352e+01 -8.636471539735794067e+00 1.755606103688478470e-02
-1.328126764297485352e+01 -8.756954938173294067e+00 2.123342920094728470e-02
-1.547242975234985352e+01 -8.980953961610794067e+00 1.581655908375978470e-02
-1.540638971328735352e+01 -9.105343610048294067e+00 2.056204248219728470e-02
-1.534022760391235352e+01 -9.229855328798294067e+00 2.530752588063478470e-02
-1.417885065078735352e+01 -8.707150250673294067e+00 5.706106591969728470e-02
-1.424537897109985352e+01 -8.899655133485794067e+00 5.834280420094728470e-02
-1.514650201797485352e+01 -9.608029156923294067e+00 3.948294091969728470e-02
-1.510219049453735352e+01 -9.746823102235794067e+00 4.370962549000978470e-02
-1.505787897109985352e+01 -9.886227399110794067e+00 4.796682763844728470e-02
-1.757496881484985352e+01 -1.015136411786079407e+01 5.146109033375978470e-02
-1.758009576797485352e+01 -1.033923032879829407e+01 5.579458642750978470e-02
-1.422474908828735352e+01 -8.579586774110794067e+00 1.253441469743847847e-01
-1.411085748672485352e+01 -8.664059430360794067e+00 1.307915346696972847e-01
-1.431996393203735352e+01 -8.941525250673294067e+00 1.300591127946972847e-01
-1.744252252578735352e+01 -1.101440122723579407e+01 7.465444970875978470e-02
-1.634120416641235352e+01 -1.051855161786079407e+01 9.922110009938478470e-02
-1.622877740859985352e+01 -1.062878111004829407e+01 1.047295229509472847e-01
-2.054347467422485352e+01 -1.180395200848579407e+01 9.688650537282228470e-02
-2.055067682266235352e+01 -1.202526548504829407e+01 1.019371645525097847e-01
-1.416285943984985352e+01 -8.540768414735794067e+00 1.981438295915722847e-01
-1.407533502578735352e+01 -8.640255719423294067e+00 2.029503481462597847e-01
-1.438209772109985352e+01 -8.976071149110794067e+00 2.023399965837597847e-01
-2.049489068984985352e+01 -1.288390806317329407e+01 1.239098208025097847e-01
-1.445436334609985352e+01 -9.335446149110794067e+00 2.088554995134472847e-01
-1.424757623672485352e+01 -9.363766461610794067e+00 2.153252260759472847e-01
-2.483449029922485352e+01 -1.419286802411079407e+01 1.603630678728222847e-01
-2.538417291641235352e+01 -1.476952818036079407e+01 1.628807680681347847e-01
-1.405079889297485352e+01 -8.473019391298294067e+00 2.710961000993847847e-01
-1.405751276016235352e+01 -8.626705914735794067e+00 2.749565737321972847e-01
-1.419008111953735352e+01 -8.857418805360794067e+00 2.777947084978222847e-01
-1.403944635391235352e+01 -8.919430524110794067e+00 2.830437319353222847e-01
