-1.418317057192325592e+00 -7.061087705194950104e+00 -5.315544264391007800e-01
-1.334698893129825592e+00 -7.036673642694950104e+00 -5.283958571031632800e-01
-1.251569010317325592e+00 -7.012381650507450104e+00 -5.252525465562882800e-01
-1.169659830629825592e+00 -6.988455869257450104e+00 -5.221397535875382800e-01
-1.088605143129825592e+00 -6.964774228632450104e+00 -5.190727369859757800e-01
-1.008160807192325592e+00 -6.941214658319950104e+00 -5.160209791734757800e-01
-9.286930337548255920e-01 -6.918021298944950104e+00 -5.131981031969132800e-01
-1.503644205629825592e+00 -7.085990048944950104e+00 -4.992515699937882800e-01
-1.419171549379825592e+00 -7.061331845819950104e+00 -4.962303297594132800e-01
-1.335431315004825592e+00 -7.036917783319950104e+00 -4.932548658922257800e-01
-1.252423502504825592e+00 -7.012625791132450104e+00 -4.902946608141007800e-01
-1.170514322817325592e+00 -6.988700009882450104e+00 -4.873649733141007800e-01
-1.089459635317325592e+00 -6.965018369257450104e+00 -4.844810621812882800e-01
-1.008893229067325592e+00 -6.941458798944950104e+00 -4.816124098375382800e-01
-9.294254556298255920e-01 -6.918265439569950104e+00 -4.787742750719132800e-01
-1.504498697817325592e+00 -7.086234189569950104e+00 -4.637443678453507800e-01
-1.419903971254825592e+00 -7.061575986444950104e+00 -4.607231276109757800e-01
-1.336285807192325592e+00 -7.037161923944950104e+00 -4.579307692125382800e-01
-1.253277994692325592e+00 -7.012869931757450104e+00 -4.551536696031632800e-01
-1.171246744692325592e+00 -6.988944150507450104e+00 -4.524070875719132800e-01
-1.090192057192325592e+00 -6.965262509882450104e+00 -4.496910231187882800e-01
-1.009625650942325592e+00 -6.941702939569950104e+00 -4.470054762437882800e-01
-9.302799478173255920e-01 -6.918509580194950104e+00 -4.445335524156632800e-01
-1.505353190004825592e+00 -7.086478330194950104e+00 -4.280388014391007800e-01
-1.420758463442325592e+00 -7.061820127069950104e+00 -4.253990309312882800e-01
-1.337140299379825592e+00 -7.037406064569950104e+00 -4.227897780016007800e-01
-1.254010416567325592e+00 -7.013114072382450104e+00 -4.201957838609757800e-01
-1.172101236879825592e+00 -6.989188291132450104e+00 -4.176323072984757800e-01
-1.091046549379825592e+00 -6.965506650507450104e+00 -4.150993483141007800e-01
-1.010480143129825592e+00 -6.941947080194950104e+00 -4.125816481187882800e-01
-9.310123696923255920e-01 -6.918753720819950104e+00 -4.100944655016007800e-01
-1.506085611879825592e+00 -7.086722470819950104e+00 -3.925315992906632800e-01
-1.421612955629825592e+00 -7.062064267694950104e+00 -3.900749342516007800e-01
-1.337872721254825592e+00 -7.037650205194950104e+00 -3.874504225328507800e-01
-1.254864908754825592e+00 -7.013358213007450104e+00 -3.850395338609757800e-01
-1.172955729067325592e+00 -6.989432431757450104e+00 -3.826744215562882800e-01
-1.091778971254825592e+00 -6.965628720819950104e+00 -3.803093092516007800e-01
-1.011212565004825592e+00 -6.942191220819950104e+00 -3.781578199937882800e-01
-9.317447915673255920e-01 -6.918875791132450104e+00 -3.758537428453507800e-01
-1.506940104067325592e+00 -7.086966611444950104e+00 -3.568260328844132800e-01
-1.422345377504825592e+00 -7.062308408319950104e+00 -3.545677321031632800e-01
-1.338727213442325592e+00 -7.037772275507450104e+00 -3.523094313219132800e-01
-1.255597330629825592e+00 -7.013602353632450104e+00 -3.500816481187882800e-01
-1.173688150942325592e+00 -6.989554502069950104e+00 -3.478843824937882800e-01
-1.092633463442325592e+00 -6.965872861444950104e+00 -3.457176344469132800e-01
-1.012067057192325592e+00 -6.942313291132450104e+00 -3.435508864000382800e-01
-9.325992837548255920e-01 -6.919119931757450104e+00 -3.414146559312882800e-01
-1.507794596254825592e+00 -7.087210752069950104e+00 -3.213188307359757800e-01
-1.423199869692325592e+00 -7.062552548944950104e+00 -3.192283766344132800e-01
-1.339581705629825592e+00 -7.038016416132450104e+00 -3.171684401109757800e-01
-1.256451822817325592e+00 -7.013724423944950104e+00 -3.151237623766007800e-01
-1.174542643129825592e+00 -6.989798642694950104e+00 -3.131096022203507800e-01
-1.093365885317325592e+00 -6.966117002069950104e+00 -3.111107008531632800e-01
-1.012799479067325592e+00 -6.942557431757450104e+00 -3.091270582750382800e-01
-9.333317056298255920e-01 -6.919364072382450104e+00 -3.071739332750382800e-01
-1.508527018129825592e+00 -7.087454892694950104e+00 -2.856132643297257800e-01
-1.424054361879825592e+00 -7.062796689569950104e+00 -2.837211744859757800e-01
-1.340314127504825592e+00 -7.038260556757450104e+00 -2.818443434312882800e-01
-1.257306315004825592e+00 -7.013968564569950104e+00 -2.799827711656632800e-01
-1.175275065004825592e+00 -6.990042783319950104e+00 -2.781517164781632800e-01
-1.094220377504825592e+00 -6.966361142694950104e+00 -2.763206617906632800e-01
-1.013653971254825592e+00 -6.942801572382450104e+00 -2.745201246812882800e-01
-9.341861978173255920e-01 -6.919608213007450104e+00 -2.727348463609757800e-01
-1.509381510317325592e+00 -7.087699033319950104e+00 -2.501060621812882800e-01
-1.424786783754825592e+00 -7.062918759882450104e+00 -2.483970778062882800e-01
-1.341168619692325592e+00 -7.038504697382450104e+00 -2.467033522203507800e-01
-1.258038736879825592e+00 -7.014212705194950104e+00 -2.450248854234757800e-01
-1.176129557192325592e+00 -6.990286923944950104e+00 -2.433616774156632800e-01
-1.094952799379825592e+00 -6.966605283319950104e+00 -2.417289869859757800e-01
-1.014386393129825592e+00 -6.943045713007450104e+00 -2.400962965562882800e-01
-9.349186196923255920e-01 -6.919852353632450104e+00 -2.384941237047257800e-01
-1.510236002504825592e+00 -7.087943173944950104e+00 -2.144004957750382800e-01
-1.425641275942325592e+00 -7.063162900507450104e+00 -2.128746168687882800e-01
-1.341901041567325592e+00 -7.038748838007450104e+00 -2.115471022203507800e-01
-1.258893229067325592e+00 -7.014456845819950104e+00 -2.100517408922257800e-01
-1.176861979067325592e+00 -6.990531064569950104e+00 -2.085868971422257800e-01
-1.095807291567325592e+00 -6.966849423944950104e+00 -2.071220533922257800e-01
-1.015240885317325592e+00 -6.943289853632450104e+00 -2.054893629625382800e-01
-9.357731118798255920e-01 -6.920096494257450104e+00 -2.040550367906632800e-01
-1.511090494692325592e+00 -7.088187314569950104e+00 -1.788780348375382800e-01
-1.426495768129825592e+00 -7.063407041132450104e+00 -1.775352614000382800e-01
-1.342755533754825592e+00 -7.038992978632450104e+00 -1.762230055406632800e-01
-1.259625650942325592e+00 -7.014700986444950104e+00 -1.749107496812882800e-01
-1.177716471254825592e+00 -6.990775205194950104e+00 -1.736137526109757800e-01
-1.096539713442325592e+00 -6.967093564569950104e+00 -1.723320143297257800e-01
-1.015973307192325592e+00 -6.943533994257450104e+00 -1.710655348375382800e-01
-9.365055337548255920e-01 -6.920218564569950104e+00 -1.697990553453507800e-01
-1.511822916567325592e+00 -7.088431455194950104e+00 -1.431724684312882800e-01
-1.427228190004825592e+00 -7.063651181757450104e+00 -1.422111647203507800e-01
-1.343610025942325592e+00 -7.039237119257450104e+00 -1.410667555406632800e-01
-1.260480143129825592e+00 -7.014945127069950104e+00 -1.399376051500382800e-01
-1.178448893129825592e+00 -6.991019345819950104e+00 -1.388237135484757800e-01
-1.097394205629825592e+00 -6.967215634882450104e+00 -1.377250807359757800e-01
-1.016827799379825592e+00 -6.943778134882450104e+00 -1.366264479234757800e-01
-9.372379556298255920e-01 -6.920462705194950104e+00 -1.353599684312882800e-01
-1.512677408754825592e+00 -7.088675595819950104e+00 -1.076500074937882800e-01
-1.428082682192325592e+00 -7.063895322382450104e+00 -1.066887037828507800e-01
-1.344342447817325592e+00 -7.039481259882450104e+00 -1.057426588609757800e-01
-1.261212565004825592e+00 -7.015189267694950104e+00 -1.047966139391007800e-01
-1.179303385317325592e+00 -6.991263486444950104e+00 -1.038658278062882800e-01
-1.098126627504825592e+00 -6.967459775507450104e+00 -1.029350416734757800e-01
-1.017560221254825592e+00 -6.943900205194950104e+00 -1.020195143297257800e-01
-9.380924478173255920e-01 -6.920706845819950104e+00 -1.011192457750382800e-01
-1.513531900942325592e+00 -7.088919736444950104e+00 -7.194444108753828004e-02
-1.428937174379825592e+00 -7.064139463007450104e+00 -7.136460710316328004e-02
-1.345196940004825592e+00 -7.039725400507450104e+00 -7.058640886097578004e-02
-1.262067057192325592e+00 -7.015433408319950104e+00 -6.982346940785078004e-02
-1.180035807192325592e+00 -6.991385556757450104e+00 -6.907578874378828004e-02
-1.098981119692325592e+00 -6.967703916132450104e+00 -6.832810807972578004e-02
-1.018292643129825592e+00 -6.944144345819950104e+00 -6.759568620472578004e-02
-9.388248696923255920e-01 -6.920950986444950104e+00 -6.668015886097578004e-02
-1.514264322817325592e+00 -7.089041806757450104e+00 -3.642198015003828004e-02
-1.429669596254825592e+00 -7.064383603632450104e+00 -3.584214616566328004e-02
-1.346051432192325592e+00 -7.039969541132450104e+00 -3.524705339222578004e-02
-1.262921549379825592e+00 -7.015677548944950104e+00 -3.466721940785078004e-02
-1.180890299379825592e+00 -6.991629697382450104e+00 -3.410264421253828004e-02
-1.099713541567325592e+00 -6.967948056757450104e+00 -3.353806901722578004e-02
-1.019147135317325592e+00 -6.944388486444950104e+00 -3.297349382191328004e-02
-9.396793618798255920e-01 -6.921195127069950104e+00 -3.242417741566328004e-02
-1.515118815004825592e+00 -7.089285947382450104e+00 -7.164137437882800441e-04
-1.430524088442325592e+00 -7.064627744257450104e+00 -3.196852281632800441e-04
-1.346783854067325592e+00 -7.040091611444950104e+00 -1.060621812882800441e-04
-1.263653971254825592e+00 -7.015799619257450104e+00 2.906663343367199559e-04
-1.181744791567325592e+00 -6.991873838007450104e+00 6.873948499617199559e-04
-1.100568033754825592e+00 -6.968192197382450104e+00 1.068864576524219956e-03
-1.019879557192325592e+00 -6.944632627069950104e+00 1.633439771836719956e-03
-9.404117837548255920e-01 -6.921439267694950104e+00 2.014909498399219956e-03
-1.515973307192325592e+00 -7.089530088007450104e+00 3.498915266246171996e-02
-1.431378580629825592e+00 -7.064871884882450104e+00 3.501967024058671996e-02
-1.347638346254825592e+00 -7.040335752069950104e+00 3.523329328746171996e-02
-1.264508463442325592e+00 -7.016043759882450104e+00 3.544691633433671996e-02
-1.182477213442325592e+00 -6.992117978632450104e+00 3.566053938121171996e-02
-1.101300455629825592e+00 -6.968436338007450104e+00 3.585890363902421996e-02
-1.020734049379825592e+00 -6.944876767694950104e+00 3.607252668589921996e-02
-9.412662759423255920e-01 -6.921683408319950104e+00 3.645399641246171996e-02
-8.234684243798255920e-01 -6.275931455194950104e+00 -5.831443922594132800e-01
-7.575504556298255920e-01 -6.294119931757450104e+00 -5.819999830797257800e-01
-6.916324868798255920e-01 -6.314139463007450104e+00 -5.811149733141007800e-01
-6.253483071923255920e-01 -6.335501767694950104e+00 -5.802757399156632800e-01
-5.591861978173255920e-01 -6.356986142694950104e+00 -5.794365065172257800e-01
-4.926578775048255920e-01 -6.378470517694950104e+00 -5.786125319078507800e-01
-4.257633462548255920e-01 -6.400076963007450104e+00 -5.777732985094132800e-01
-3.585026040673255920e-01 -6.419119931757450104e+00 -5.769645826891007800e-01
-9.206363931298255920e-01 -6.878958798944950104e+00 -5.800468580797257800e-01
-8.481266275048255920e-01 -6.894339658319950104e+00 -5.787346022203507800e-01
-7.701236978173255920e-01 -6.871634580194950104e+00 -5.754539625719132800e-01
-6.926090493798255920e-01 -6.848929502069950104e+00 -5.723716871812882800e-01
-6.159488931298255920e-01 -6.826590634882450104e+00 -5.693199293687882800e-01
-5.398990884423255920e-01 -6.804373838007450104e+00 -5.662986891344132800e-01
-4.643375650048255920e-01 -6.782279111444950104e+00 -5.634758131578507800e-01
-3.896305337548255920e-01 -6.760428525507450104e+00 -5.605156080797257800e-01
-9.275944009423255920e-01 -6.917655088007450104e+00 -5.474235670641007800e-01
-8.489811196923255920e-01 -6.894583798944950104e+00 -5.444481031969132800e-01
-7.709781900048255920e-01 -6.871878720819950104e+00 -5.415031569078507800e-01
-6.933414712548255920e-01 -6.849173642694950104e+00 -5.385734694078507800e-01
-6.166813150048255920e-01 -6.826712705194950104e+00 -5.356742994859757800e-01
-5.407535806298255920e-01 -6.804495908319950104e+00 -5.328056471422257800e-01
-4.650699868798255920e-01 -6.782401181757450104e+00 -5.299369947984757800e-01
-3.903629556298255920e-01 -6.760672666132450104e+00 -5.271141188219132800e-01
-9.283268228173255920e-01 -6.917777158319950104e+00 -5.131828444078507800e-01
-8.497135415673255920e-01 -6.894827939569950104e+00 -5.101768629625382800e-01
-7.717106118798255920e-01 -6.872000791132450104e+00 -5.073845045641007800e-01
-6.940738931298255920e-01 -6.849417783319950104e+00 -5.045921461656632800e-01
-6.174137368798255920e-01 -6.826956845819950104e+00 -5.018455641344132800e-01
-5.414860025048255920e-01 -6.804740048944950104e+00 -4.991142408922257800e-01
-4.658024087548255920e-01 -6.782645322382450104e+00 -4.963981764391007800e-01
-3.910953775048255920e-01 -6.760794736444950104e+00 -4.938957350328507800e-01
-9.291813150048255920e-01 -6.918021298944950104e+00 -4.787590162828507800e-01
-8.504459634423255920e-01 -6.895072080194950104e+00 -4.760887281969132800e-01
-7.724430337548255920e-01 -6.872244931757450104e+00 -4.734336989000382800e-01
-6.949283853173255920e-01 -6.849539853632450104e+00 -4.707939283922257800e-01
-6.182682290673255920e-01 -6.827200986444950104e+00 -4.681846754625382800e-01
-5.422184243798255920e-01 -6.804984189569950104e+00 -4.656059401109757800e-01
-4.666569009423255920e-01 -6.782889463007450104e+00 -4.630272047594132800e-01
-3.919498696923255920e-01 -6.761038877069950104e+00 -4.604942457750382800e-01
-9.299137368798255920e-01 -6.918265439569950104e+00 -4.445182936266007800e-01
-8.513004556298255920e-01 -6.895316220819950104e+00 -4.418022291734757800e-01
-7.732975259423255920e-01 -6.872489072382450104e+00 -4.392997877672257800e-01
-6.956608071923255920e-01 -6.849783994257450104e+00 -4.368126051500382800e-01
-6.190006509423255920e-01 -6.827445127069950104e+00 -4.343559401109757800e-01
-5.429508462548255920e-01 -6.805228330194950104e+00 -4.319145338609757800e-01
-4.673893228173255920e-01 -6.783133603632450104e+00 -4.294883864000382800e-01
-3.926822915673255920e-01 -6.761283017694950104e+00 -4.272758619859757800e-01
-9.307682290673255920e-01 -6.918509580194950104e+00 -4.100944655016007800e-01
-8.520328775048255920e-01 -6.895560361444950104e+00 -4.077140944078507800e-01
-7.740299478173255920e-01 -6.872733213007450104e+00 -4.053642408922257800e-01
-6.963932290673255920e-01 -6.850028134882450104e+00 -4.030143873766007800e-01
-6.197330728173255920e-01 -6.827567197382450104e+00 -4.006950514391007800e-01
-5.438053384423255920e-01 -6.805472470819950104e+00 -3.984062330797257800e-01
-4.681217446923255920e-01 -6.783255673944950104e+00 -3.961174147203507800e-01
-3.934147134423255920e-01 -6.761527158319950104e+00 -3.938743727281632800e-01
-9.315006509423255920e-01 -6.918753720819950104e+00 -3.758384840562882800e-01
-8.527652993798255920e-01 -6.895682431757450104e+00 -3.736107008531632800e-01
-7.747623696923255920e-01 -6.872977353632450104e+00 -3.712303297594132800e-01
-6.972477212548255920e-01 -6.850272275507450104e+00 -3.690330641344132800e-01
-6.205875650048255920e-01 -6.827811338007450104e+00 -3.668663160875382800e-01
-5.445377603173255920e-01 -6.805594541132450104e+00 -3.647148268297257800e-01
-4.688541665673255920e-01 -6.783499814569950104e+00 -3.627617018297257800e-01
-3.941471353173255920e-01 -6.761649228632450104e+00 -3.606407301500382800e-01
-9.323551431298255920e-01 -6.918997861444950104e+00 -3.414146559312882800e-01
-8.536197915673255920e-01 -6.895926572382450104e+00 -3.393394606187882800e-01
-7.756168618798255920e-01 -6.873099423944950104e+00 -3.372795240953507800e-01
-6.979801431298255920e-01 -6.850516416132450104e+00 -3.352348463609757800e-01
-6.213199868798255920e-01 -6.828055478632450104e+00 -3.332054274156632800e-01
-5.452701821923255920e-01 -6.805838681757450104e+00 -3.312065260484757800e-01
-4.697086587548255920e-01 -6.783743955194950104e+00 -3.292076246812882800e-01
-3.948795571923255920e-01 -6.761893369257450104e+00 -3.272392408922257800e-01
-9.330875650048255920e-01 -6.919119931757450104e+00 -3.071586744859757800e-01
-8.543522134423255920e-01 -6.896170713007450104e+00 -3.052360670641007800e-01
-7.763492837548255920e-01 -6.873343564569950104e+00 -3.033287184312882800e-01
-6.987125650048255920e-01 -6.850638486444950104e+00 -3.014366285875382800e-01
-6.220524087548255920e-01 -6.828299619257450104e+00 -2.995597975328507800e-01
-5.460026040673255920e-01 -6.806082822382450104e+00 -2.976982252672257800e-01
-4.704410806298255920e-01 -6.783988095819950104e+00 -2.958366530016007800e-01
-3.957340493798255920e-01 -6.762137509882450104e+00 -2.940055983141007800e-01
-9.338199868798255920e-01 -6.919364072382450104e+00 -2.727348463609757800e-01
-8.552067056298255920e-01 -6.896414853632450104e+00 -2.709495680406632800e-01
-7.770817056298255920e-01 -6.873587705194950104e+00 -2.691948072984757800e-01
-6.995670571923255920e-01 -6.850882627069950104e+00 -2.674400465562882800e-01
-6.227848306298255920e-01 -6.828543759882450104e+00 -2.657158033922257800e-01
-5.468570962548255920e-01 -6.806326963007450104e+00 -2.640068190172257800e-01
-4.711735025048255920e-01 -6.784232236444950104e+00 -2.622978346422257800e-01
-3.964664712548255920e-01 -6.762381650507450104e+00 -2.606041090562882800e-01
-9.346744790673255920e-01 -6.919608213007450104e+00 -2.384788649156632800e-01
-8.559391275048255920e-01 -6.896658994257450104e+00 -2.368614332750382800e-01
-7.779361978173255920e-01 -6.873831845819950104e+00 -2.352440016344132800e-01
-7.002994790673255920e-01 -6.851126767694950104e+00 -2.336418287828507800e-01
-6.236393228173255920e-01 -6.828665830194950104e+00 -2.320549147203507800e-01
-5.475895181298255920e-01 -6.806449033319950104e+00 -2.304832594469132800e-01
-4.719059243798255920e-01 -6.784354306757450104e+00 -2.289268629625382800e-01
-3.971988931298255920e-01 -6.762503720819950104e+00 -2.273857252672257800e-01
-9.354069009423255920e-01 -6.919852353632450104e+00 -2.040550367906632800e-01
-8.566715493798255920e-01 -6.896903134882450104e+00 -2.025749342516007800e-01
-7.786686196923255920e-01 -6.874075986444950104e+00 -2.012931959703507800e-01
-7.010319009423255920e-01 -6.851370908319950104e+00 -1.998436110094132800e-01
-6.243717446923255920e-01 -6.828909970819950104e+00 -1.983940260484757800e-01
-5.483219400048255920e-01 -6.806693173944950104e+00 -1.969749586656632800e-01
-4.726383462548255920e-01 -6.784598447382450104e+00 -1.953727858141007800e-01
-3.979313150048255920e-01 -6.762747861444950104e+00 -1.939689772203507800e-01
-9.362613931298255920e-01 -6.920096494257450104e+00 -1.697990553453507800e-01
-8.575260415673255920e-01 -6.897025205194950104e+00 -1.684715406969132800e-01
-7.794010415673255920e-01 -6.874320127069950104e+00 -1.671592848375382800e-01
-7.017643228173255920e-01 -6.851615048944950104e+00 -1.658470289781632800e-01
-6.251041665673255920e-01 -6.829154111444950104e+00 -1.645652906969132800e-01
-5.490543618798255920e-01 -6.806937314569950104e+00 -1.632835524156632800e-01
-4.734928384423255920e-01 -6.784842588007450104e+00 -1.620018141344132800e-01
-3.986637368798255920e-01 -6.762992002069950104e+00 -1.607353346422257800e-01
-9.369938150048255920e-01 -6.920340634882450104e+00 -1.353599684312882800e-01
-8.582584634423255920e-01 -6.897269345819950104e+00 -1.343681471422257800e-01
-7.802555337548255920e-01 -6.874442197382450104e+00 -1.332084791734757800e-01
-7.026188150048255920e-01 -6.851737119257450104e+00 -1.320488112047257800e-01
-6.258365884423255920e-01 -6.829398252069950104e+00 -1.309044020250382800e-01
-5.497867837548255920e-01 -6.807181455194950104e+00 -1.297599928453507800e-01
-4.742252603173255920e-01 -6.785086728632450104e+00 -1.286308424547257800e-01
-3.993961587548255920e-01 -6.763236142694950104e+00 -1.273338453844132800e-01
-9.377262368798255920e-01 -6.920584775507450104e+00 -1.011192457750382800e-01
-8.589908853173255920e-01 -6.897513486444950104e+00 -1.000816481187882800e-01
-7.809879556298255920e-01 -6.874686338007450104e+00 -9.907456804066328004e-02
-7.033512368798255920e-01 -6.851981259882450104e+00 -9.805222917347578004e-02
-6.266910806298255920e-01 -6.829642392694950104e+00 -9.706040788441328004e-02
-5.506412759423255920e-01 -6.807425595819950104e+00 -9.606858659535078004e-02
-4.749576821923255920e-01 -6.785208798944950104e+00 -9.507676530628828004e-02
-4.002506509423255920e-01 -6.763480283319950104e+00 -9.410020280628828004e-02
-9.385807290673255920e-01 -6.920706845819950104e+00 -6.668015886097578004e-02
-8.598453775048255920e-01 -6.897757627069950104e+00 -6.597825456410078004e-02
-7.817203775048255920e-01 -6.874930478632450104e+00 -6.510850358753828004e-02
-7.040836587548255920e-01 -6.852225400507450104e+00 -6.425401140003828004e-02
-6.274235025048255920e-01 -6.829764463007450104e+00 -6.339951921253828004e-02
-5.513736978173255920e-01 -6.807547666132450104e+00 -6.254502702503828004e-02
-4.756901040673255920e-01 -6.785452939569950104e+00 -6.170579362660078004e-02
-4.009830728173255920e-01 -6.763602353632450104e+00 -6.069871354847578004e-02
-9.393131509423255920e-01 -6.920950986444950104e+00 -3.242417741566328004e-02
-8.605777993798255920e-01 -6.898001767694950104e+00 -3.169175554066328004e-02
-7.825748696923255920e-01 -6.875174619257450104e+00 -3.097459245472578004e-02
-7.049381509423255920e-01 -6.852469541132450104e+00 -3.025742936878828004e-02
-6.281559243798255920e-01 -6.830008603632450104e+00 -2.955552507191328004e-02
-5.521061196923255920e-01 -6.807791806757450104e+00 -2.885362077503828004e-02
-4.764225259423255920e-01 -6.785697080194950104e+00 -2.815171647816328004e-02
-4.017154946923255920e-01 -6.763846494257450104e+00 -2.746507097035078004e-02
-9.401676431298255920e-01 -6.921195127069950104e+00 2.014909498399219956e-03
-8.614322915673255920e-01 -6.898245908319950104e+00 2.594743482774219956e-03
-7.833072915673255920e-01 -6.875418759882450104e+00 2.976213209336719956e-03
-7.056705728173255920e-01 -6.852713681757450104e+00 3.556047193711719956e-03
-6.290104165673255920e-01 -6.830252744257450104e+00 4.120622389024219956e-03
-5.528385415673255920e-01 -6.808035947382450104e+00 4.669938795274219956e-03
-4.772770181298255920e-01 -6.785941220819950104e+00 5.402360670274219956e-03
-4.024479165673255920e-01 -6.764090634882450104e+00 5.951677076524219956e-03
-9.409000650048255920e-01 -6.921439267694950104e+00 3.645399641246171996e-02
-8.621647134423255920e-01 -6.898367978632450104e+00 3.669813703746171996e-02
-7.840397134423255920e-01 -6.875540830194950104e+00 3.712538313121171996e-02
-7.064029946923255920e-01 -6.852957822382450104e+00 3.753737043589921996e-02
-6.297428384423255920e-01 -6.830496884882450104e+00 3.796461652964921996e-02
-5.536930337548255920e-01 -6.808280088007450104e+00 3.837660383433671996e-02
-4.780094400048255920e-01 -6.786185361444950104e+00 3.878859113902421996e-02
-4.031803384423255920e-01 -6.764334775507450104e+00 3.936842512339921996e-02
-3.582584634423255920e-01 -6.419242002069950104e+00 -5.769645826891007800e-01
-2.909977212548255920e-01 -6.440360166132450104e+00 -5.761253492906632800e-01
-2.231266275048255920e-01 -6.458914853632450104e+00 -5.753318922594132800e-01
-1.545231118798255920e-01 -6.472830869257450104e+00 -5.742790358141007800e-01
-8.567545562982559204e-02 -6.483328916132450104e+00 -5.730735914781632800e-01
-1.682779937982559204e-02 -6.493704892694950104e+00 -5.718528883531632800e-01
5.250813812017440796e-02 -6.504325009882450104e+00 -5.706474440172257800e-01
1.217220053076744080e-01 -6.512137509882450104e+00 -5.694725172594132800e-01
-3.893863931298255920e-01 -6.760184384882450104e+00 -5.605003492906632800e-01
-3.152897134423255920e-01 -6.738577939569950104e+00 -5.577537672594132800e-01
-2.416813150048255920e-01 -6.717093564569950104e+00 -5.548545973375382800e-01
-1.683170571923255920e-01 -6.695609189569950104e+00 -5.521232740953507800e-01
-9.580729156732559204e-02 -6.674368955194950104e+00 -5.494377272203507800e-01
-2.378580719232559204e-02 -6.653372861444950104e+00 -5.467674391344132800e-01
4.811360687017440796e-02 -6.632376767694950104e+00 -5.442802565172257800e-01
1.191585287451744080e-01 -6.611624814569950104e+00 -5.416404860094132800e-01
-3.901188150048255920e-01 -6.760428525507450104e+00 -5.270988600328507800e-01
-3.160221353173255920e-01 -6.738822080194950104e+00 -5.244743483141007800e-01
-2.424137368798255920e-01 -6.717215634882450104e+00 -5.218650953844132800e-01
-1.690494790673255920e-01 -6.695853330194950104e+00 -5.192558424547257800e-01
-9.653971344232559204e-02 -6.674613095819950104e+00 -5.166923658922257800e-01
-2.451822906732559204e-02 -6.653617002069950104e+00 -5.141288893297257800e-01
4.738118499517440796e-02 -6.632620908319950104e+00 -5.115806715562882800e-01
1.184261068701744080e-01 -6.611868955194950104e+00 -5.090629713609757800e-01
-3.908512368798255920e-01 -6.760672666132450104e+00 -4.938804762437882800e-01
-3.167545571923255920e-01 -6.738944150507450104e+00 -4.911949293687882800e-01
-2.431461587548255920e-01 -6.717459775507450104e+00 -4.886924879625382800e-01
-1.697819009423255920e-01 -6.696097470819950104e+00 -4.862205641344132800e-01
-9.727213531732559204e-02 -6.674857236444950104e+00 -4.837486403062882800e-01
-2.525065094232559204e-02 -6.653739072382450104e+00 -4.813072340562882800e-01
4.664876312017440796e-02 -6.632865048944950104e+00 -4.788810865953507800e-01
1.176936849951744080e-01 -6.611991025507450104e+00 -4.766533033922257800e-01
-3.915836587548255920e-01 -6.760916806757450104e+00 -4.604789869859757800e-01
-3.174869790673255920e-01 -6.739188291132450104e+00 -4.580833571031632800e-01
-2.438785806298255920e-01 -6.717703916132450104e+00 -4.557182447984757800e-01
-1.705143228173255920e-01 -6.696219541132450104e+00 -4.533378737047257800e-01
-9.800455719232559204e-02 -6.675101377069950104e+00 -4.510032789781632800e-01
-2.598307281732559204e-02 -6.653983213007450104e+00 -4.486686842516007800e-01
4.591634124517440796e-02 -6.632987119257450104e+00 -4.463493483141007800e-01
1.169612631201744080e-01 -6.612235166132450104e+00 -4.440605299547257800e-01
-3.924381509423255920e-01 -6.761038877069950104e+00 -4.272606031969132800e-01
-3.182194009423255920e-01 -6.739432431757450104e+00 -4.248039381578507800e-01
-2.446110025048255920e-01 -6.717948056757450104e+00 -4.225456373766007800e-01
-1.713688150048255920e-01 -6.696463681757450104e+00 -4.203025953844132800e-01
-9.873697906732559204e-02 -6.675223447382450104e+00 -4.180748121812882800e-01
-2.671549469232559204e-02 -6.654227353632450104e+00 -4.158622877672257800e-01
4.518391937017440796e-02 -6.633231259882450104e+00 -4.136497633531632800e-01
1.162288412451744080e-01 -6.612479306757450104e+00 -4.116508619859757800e-01
-3.931705728173255920e-01 -6.761283017694950104e+00 -3.938591139391007800e-01
-3.190738931298255920e-01 -6.739676572382450104e+00 -3.917076246812882800e-01
-2.453434243798255920e-01 -6.718192197382450104e+00 -3.895561354234757800e-01
-1.721012368798255920e-01 -6.696707822382450104e+00 -3.874199049547257800e-01
-9.946940094232559204e-02 -6.675467588007450104e+00 -3.853141920641007800e-01
-2.744791656732559204e-02 -6.654471494257450104e+00 -3.832084791734757800e-01
4.445149749517440796e-02 -6.633475400507450104e+00 -3.811332838609757800e-01
1.154964193701744080e-01 -6.612723447382450104e+00 -3.790580885484757800e-01
-3.939029946923255920e-01 -6.761527158319950104e+00 -3.606407301500382800e-01
-3.198063150048255920e-01 -6.739798642694950104e+00 -3.585960524156632800e-01
-2.461979165673255920e-01 -6.718314267694950104e+00 -3.563987867906632800e-01
-1.728336587548255920e-01 -6.696951963007450104e+00 -3.543693678453507800e-01
-1.002018228173255920e-01 -6.675711728632450104e+00 -3.523857252672257800e-01
-2.818033844232559204e-02 -6.654593564569950104e+00 -3.504020826891007800e-01
4.371907562017440796e-02 -6.633597470819950104e+00 -3.486015455797257800e-01
1.147639974951744080e-01 -6.612845517694950104e+00 -3.466484205797257800e-01
-3.946354165673255920e-01 -6.761771298944950104e+00 -3.272239821031632800e-01
-3.205387368798255920e-01 -6.740042783319950104e+00 -3.253166334703507800e-01
-2.469303384423255920e-01 -6.718558408319950104e+00 -3.234092848375382800e-01
-1.735660806298255920e-01 -6.697074033319950104e+00 -3.215019362047257800e-01
-1.009342446923255920e-01 -6.675955869257450104e+00 -3.196251051500382800e-01
-2.891276031732559204e-02 -6.654837705194950104e+00 -3.177482740953507800e-01
4.298665374517440796e-02 -6.633841611444950104e+00 -3.158867018297257800e-01
1.140315756201744080e-01 -6.613089658319950104e+00 -3.140556471422257800e-01
-3.953678384423255920e-01 -6.762015439569950104e+00 -2.940055983141007800e-01
-3.212711587548255920e-01 -6.740286923944950104e+00 -2.922050612047257800e-01
-2.476627603173255920e-01 -6.718802548944950104e+00 -2.904197828844132800e-01
-1.742985025048255920e-01 -6.697318173944950104e+00 -2.886345045641007800e-01
-1.016666665673255920e-01 -6.676077939569950104e+00 -2.868644850328507800e-01
-2.964518219232559204e-02 -6.655081845819950104e+00 -2.851097242906632800e-01
4.225423187017440796e-02 -6.634085752069950104e+00 -2.833702223375382800e-01
1.132991537451744080e-01 -6.613333798944950104e+00 -2.816307203844132800e-01
-3.962223306298255920e-01 -6.762137509882450104e+00 -2.606041090562882800e-01
-3.220035806298255920e-01 -6.740531064569950104e+00 -2.589103834703507800e-01
-2.483951821923255920e-01 -6.719046689569950104e+00 -2.572471754625382800e-01
-1.750309243798255920e-01 -6.697562314569950104e+00 -2.555839674547257800e-01
-1.023990884423255920e-01 -6.676322080194950104e+00 -2.539207594469132800e-01
-3.037760406732559204e-02 -6.655203916132450104e+00 -2.522880690172257800e-01
4.152180999517440796e-02 -6.634329892694950104e+00 -2.506553785875382800e-01
1.125667318701744080e-01 -6.613455869257450104e+00 -2.490379469469132800e-01
-3.969547525048255920e-01 -6.762381650507450104e+00 -2.273704664781632800e-01
-3.227360025048255920e-01 -6.740775205194950104e+00 -2.258140699937882800e-01
-2.491276040673255920e-01 -6.719168759882450104e+00 -2.242576735094132800e-01
-1.757633462548255920e-01 -6.697806455194950104e+00 -2.227012770250382800e-01
-1.031315103173255920e-01 -6.676566220819950104e+00 -2.211601393297257800e-01
-3.111002594232559204e-02 -6.655448056757450104e+00 -2.196495192125382800e-01
4.078938812017440796e-02 -6.634451963007450104e+00 -2.181236403062882800e-01
1.118343099951744080e-01 -6.613700009882450104e+00 -2.166282789781632800e-01
-3.976871743798255920e-01 -6.762625791132450104e+00 -1.939689772203507800e-01
-3.234684243798255920e-01 -6.740897275507450104e+00 -1.925193922594132800e-01
-2.498600259423255920e-01 -6.719412900507450104e+00 -1.912529127672257800e-01
-1.764957681298255920e-01 -6.697928525507450104e+00 -1.898185865953507800e-01
-1.038639321923255920e-01 -6.676810361444950104e+00 -1.883995192125382800e-01
-3.184244781732559204e-02 -6.655692197382450104e+00 -1.869957106187882800e-01
3.993489593267440796e-02 -6.634696103632450104e+00 -1.854240553453507800e-01
1.111018881201744080e-01 -6.613944150507450104e+00 -1.840355055406632800e-01
-3.984195962548255920e-01 -6.762869931757450104e+00 -1.607353346422257800e-01
-3.243229165673255920e-01 -6.741141416132450104e+00 -1.594078199937882800e-01
-2.505924478173255920e-01 -6.719657041132450104e+00 -1.580803053453507800e-01
-1.772281900048255920e-01 -6.698172666132450104e+00 -1.567680494859757800e-01
-1.047184243798255920e-01 -6.676932431757450104e+00 -1.554710524156632800e-01
-3.257486969232559204e-02 -6.655936338007450104e+00 -1.541740553453507800e-01
3.920247405767440796e-02 -6.634940244257450104e+00 -1.528923170641007800e-01
1.103694662451744080e-01 -6.614066220819950104e+00 -1.516105787828507800e-01
-3.991520181298255920e-01 -6.762992002069950104e+00 -1.273338453844132800e-01
-3.250553384423255920e-01 -6.741385556757450104e+00 -1.262962477281632800e-01
-2.513248696923255920e-01 -6.719779111444950104e+00 -1.250908033922257800e-01
-1.779606118798255920e-01 -6.698416806757450104e+00 -1.238853590562882800e-01
-1.054508462548255920e-01 -6.677176572382450104e+00 -1.227104322984757800e-01
-3.330729156732559204e-02 -6.656058408319950104e+00 -1.215202467516007800e-01
3.859212249517440796e-02 -6.635062314569950104e+00 -1.203453199937882800e-01
1.096370443701744080e-01 -6.614310361444950104e+00 -1.190178053453507800e-01
-3.998844400048255920e-01 -6.763236142694950104e+00 -9.410020280628828004e-02
-3.257877603173255920e-01 -6.741629697382450104e+00 -9.300156999378828004e-02
-2.521793618798255920e-01 -6.720023252069950104e+00 -9.191819597035078004e-02
-1.786930337548255920e-01 -6.698660947382450104e+00 -9.083482194691328004e-02
-1.061832681298255920e-01 -6.677420713007450104e+00 -8.976670671253828004e-02
-3.403971344232559204e-02 -6.656302548944950104e+00 -8.869859147816328004e-02
3.773763030767440796e-02 -6.635306455194950104e+00 -8.764573503285078004e-02
1.089046224951744080e-01 -6.614554502069950104e+00 -8.659287858753828004e-02
-4.007389321923255920e-01 -6.763480283319950104e+00 -6.069871354847578004e-02
-3.265201821923255920e-01 -6.741751767694950104e+00 -5.988999772816328004e-02
-2.529117837548255920e-01 -6.720267392694950104e+00 -5.892869401722578004e-02
-1.795475259423255920e-01 -6.698783017694950104e+00 -5.795213151722578004e-02
-1.069156900048255920e-01 -6.677542783319950104e+00 -5.700608659535078004e-02
-3.477213531732559204e-02 -6.656546689569950104e+00 -5.606004167347578004e-02
3.700520843267440796e-02 -6.635550595819950104e+00 -5.511399675160078004e-02
1.081722006201744080e-01 -6.614798642694950104e+00 -5.400010515003828004e-02
-4.014713540673255920e-01 -6.763724423944950104e+00 -2.746507097035078004e-02
-3.272526040673255920e-01 -6.741995908319950104e+00 -2.659531999378828004e-02
-2.536442056298255920e-01 -6.720511533319950104e+00 -2.575608659535078004e-02
-1.802799478173255920e-01 -6.699027158319950104e+00 -2.490159440785078004e-02
-1.076481118798255920e-01 -6.677786923944950104e+00 -2.406236100941328004e-02
-3.550455719232559204e-02 -6.656790830194950104e+00 -2.322312761097578004e-02
3.627278655767440796e-02 -6.635794736444950104e+00 -2.239915300160078004e-02
1.074397787451744080e-01 -6.614920713007450104e+00 -2.157517839222578004e-02
-4.022037759423255920e-01 -6.763846494257450104e+00 5.951677076524219956e-03
-3.279850259423255920e-01 -6.742240048944950104e+00 6.684098951524219956e-03
-2.543766275048255920e-01 -6.720633603632450104e+00 7.248674146836719956e-03
-1.810123696923255920e-01 -6.699271298944950104e+00 7.981096021836719956e-03
-1.083805337548255920e-01 -6.678031064569950104e+00 8.698259107774219956e-03
-3.623697906732559204e-02 -6.656912900507450104e+00 9.430680982774219956e-03
3.554036468267440796e-02 -6.635916806757450104e+00 1.031569074839921996e-02
1.067073568701744080e-01 -6.615164853632450104e+00 1.101759504527421996e-02
-4.029361978173255920e-01 -6.764090634882450104e+00 3.936842512339921996e-02
-3.287174478173255920e-01 -6.742484189569950104e+00 3.981093000621171996e-02
-2.551090493798255920e-01 -6.720877744257450104e+00 4.042128156871171996e-02
-1.817447915673255920e-01 -6.699515439569950104e+00 4.103163313121171996e-02
-1.091129556298255920e-01 -6.678275205194950104e+00 4.164198469371171996e-02
-3.696940094232559204e-02 -6.657157041132450104e+00 4.225233625621171996e-02
3.480794280767440796e-02 -6.636160947382450104e+00 4.284742902964921996e-02
1.059749349951744080e-01 -6.615408994257450104e+00 4.362562727183671996e-02
1.219661459326744080e-01 -6.512137509882450104e+00 -5.694572584703507800e-01
1.913020834326744080e-01 -6.522025205194950104e+00 -5.682518141344132800e-01
2.608821615576744080e-01 -6.529227353632450104e+00 -5.670921461656632800e-01
3.308284506201744080e-01 -6.536429502069950104e+00 -5.659019606187882800e-01
4.004085287451744080e-01 -6.529349423944950104e+00 -5.640556471422257800e-01
4.695003256201744080e-01 -6.509085752069950104e+00 -5.615989821031632800e-01
5.384700521826744080e-01 -6.488944150507450104e+00 -5.591423170641007800e-01
6.067073568701744080e-01 -6.469046689569950104e+00 -5.568687574937882800e-01
1.194026693701744080e-01 -6.611502744257450104e+00 -5.416404860094132800e-01
1.899593099951744080e-01 -6.590872861444950104e+00 -5.392143385484757800e-01
2.601497396826744080e-01 -6.570365048944950104e+00 -5.366203444078507800e-01
3.302180990576744080e-01 -6.549857236444950104e+00 -5.342094557359757800e-01
3.996761068701744080e-01 -6.529471494257450104e+00 -5.318290846422257800e-01
4.687679037451744080e-01 -6.509329892694950104e+00 -5.294487135484757800e-01
5.377376303076744080e-01 -6.489188291132450104e+00 -5.272514479234757800e-01
6.059749349951744080e-01 -6.469168759882450104e+00 -5.249168531969132800e-01
1.186702474951744080e-01 -6.611624814569950104e+00 -5.090477125719132800e-01
1.892268881201744080e-01 -6.590994931757450104e+00 -5.067131178453507800e-01
2.594173178076744080e-01 -6.570487119257450104e+00 -5.043937819078507800e-01
3.294856771826744080e-01 -6.549979306757450104e+00 -5.020744459703507800e-01
3.989436849951744080e-01 -6.529715634882450104e+00 -4.997703688219132800e-01
4.680354818701744080e-01 -6.509574033319950104e+00 -4.974815504625382800e-01
5.370052084326744080e-01 -6.489432431757450104e+00 -4.952079908922257800e-01
6.052425131201744080e-01 -6.469412900507450104e+00 -4.929496901109757800e-01
1.179378256201744080e-01 -6.611868955194950104e+00 -4.766380446031632800e-01
1.884944662451744080e-01 -6.591239072382450104e+00 -4.742118971422257800e-01
2.586848959326744080e-01 -6.570731259882450104e+00 -4.719841139391007800e-01
3.287532553076744080e-01 -6.550223447382450104e+00 -4.697563307359757800e-01
3.982112631201744080e-01 -6.529959775507450104e+00 -4.675438063219132800e-01
4.673030599951744080e-01 -6.509696103632450104e+00 -4.653465406969132800e-01
5.362727865576744080e-01 -6.489554502069950104e+00 -4.631492750719132800e-01
6.046321615576744080e-01 -6.469657041132450104e+00 -4.611503737047257800e-01
1.172054037451744080e-01 -6.612113095819950104e+00 -4.440452711656632800e-01
1.877620443701744080e-01 -6.591483213007450104e+00 -4.418937819078507800e-01
2.579524740576744080e-01 -6.570975400507450104e+00 -4.397575514391007800e-01
3.281429037451744080e-01 -6.550467588007450104e+00 -4.376060621812882800e-01
3.976009115576744080e-01 -6.530203916132450104e+00 -4.354850905016007800e-01
4.665706381201744080e-01 -6.509940244257450104e+00 -4.333793776109757800e-01
5.355403646826744080e-01 -6.489798642694950104e+00 -4.312736647203507800e-01
6.038997396826744080e-01 -6.469779111444950104e+00 -4.291832106187882800e-01
1.164729818701744080e-01 -6.612357236444950104e+00 -4.116356031969132800e-01
1.870296224951744080e-01 -6.591727353632450104e+00 -4.093925612047257800e-01
2.573421224951744080e-01 -6.571097470819950104e+00 -4.073478834703507800e-01
3.274104818701744080e-01 -6.550711728632450104e+00 -4.052879469469132800e-01
3.968684896826744080e-01 -6.530325986444950104e+00 -4.032585280016007800e-01
4.659602865576744080e-01 -6.510184384882450104e+00 -4.012443678453507800e-01
5.348079428076744080e-01 -6.490042783319950104e+00 -3.992302076891007800e-01
6.031673178076744080e-01 -6.470023252069950104e+00 -3.973991530016007800e-01
1.157405599951744080e-01 -6.612479306757450104e+00 -3.790580885484757800e-01
1.862972006201744080e-01 -6.591849423944950104e+00 -3.770744459703507800e-01
2.566097006201744080e-01 -6.571341611444950104e+00 -3.751060621812882800e-01
3.266780599951744080e-01 -6.550833798944950104e+00 -3.731529371812882800e-01
3.961360678076744080e-01 -6.530570127069950104e+00 -3.711998121812882800e-01
4.652278646826744080e-01 -6.510306455194950104e+00 -3.692772047594132800e-01
5.340755209326744080e-01 -6.490164853632450104e+00 -3.673393385484757800e-01
6.024348959326744080e-01 -6.470267392694950104e+00 -3.654319899156632800e-01
1.150081381201744080e-01 -6.612723447382450104e+00 -3.466331617906632800e-01
1.855647787451744080e-01 -6.592093564569950104e+00 -3.447563307359757800e-01
2.558772787451744080e-01 -6.571585752069950104e+00 -3.426963942125382800e-01
3.259456381201744080e-01 -6.551077939569950104e+00 -3.408348219469132800e-01
3.954036459326744080e-01 -6.530814267694950104e+00 -3.389732496812882800e-01
4.644954428076744080e-01 -6.510550595819950104e+00 -3.371269362047257800e-01
5.334651693701744080e-01 -6.490408994257450104e+00 -3.354637281969132800e-01
6.017024740576744080e-01 -6.470389463007450104e+00 -3.336326735094132800e-01
1.142757162451744080e-01 -6.612967588007450104e+00 -3.140403883531632800e-01
1.848323568701744080e-01 -6.592337705194950104e+00 -3.122551100328507800e-01
2.551448568701744080e-01 -6.571707822382450104e+00 -3.104698317125382800e-01
3.252132162451744080e-01 -6.551322080194950104e+00 -3.086845533922257800e-01
3.946712240576744080e-01 -6.530936338007450104e+00 -3.069145338609757800e-01
4.637630209326744080e-01 -6.510794736444950104e+00 -3.051597731187882800e-01
5.327327474951744080e-01 -6.490653134882450104e+00 -3.034050123766007800e-01
6.010921224951744080e-01 -6.470633603632450104e+00 -3.016655104234757800e-01
1.135432943701744080e-01 -6.613089658319950104e+00 -2.816307203844132800e-01
1.840999349951744080e-01 -6.592459775507450104e+00 -2.799217360094132800e-01
2.544124349951744080e-01 -6.571951963007450104e+00 -2.782280104234757800e-01
3.244807943701744080e-01 -6.551444150507450104e+00 -2.765342848375382800e-01
3.939388021826744080e-01 -6.531180478632450104e+00 -2.748558180406632800e-01
4.630305990576744080e-01 -6.511038877069950104e+00 -2.731773512437882800e-01
5.320003256201744080e-01 -6.490775205194950104e+00 -2.715141432359757800e-01
6.003597006201744080e-01 -6.470877744257450104e+00 -2.698661940172257800e-01
1.128108724951744080e-01 -6.613333798944950104e+00 -2.490379469469132800e-01
1.833675131201744080e-01 -6.592703916132450104e+00 -2.474205153062882800e-01
2.536800131201744080e-01 -6.572196103632450104e+00 -2.458183424547257800e-01
3.237483724951744080e-01 -6.551688291132450104e+00 -2.442161696031632800e-01
3.932063803076744080e-01 -6.531424619257450104e+00 -2.426139967516007800e-01
4.622981771826744080e-01 -6.511160947382450104e+00 -2.410423414781632800e-01
5.312679037451744080e-01 -6.491019345819950104e+00 -2.394554274156632800e-01
5.996272787451744080e-01 -6.470999814569950104e+00 -2.378990309312882800e-01
1.120784506201744080e-01 -6.613577939569950104e+00 -2.166130201891007800e-01
1.827571615576744080e-01 -6.592948056757450104e+00 -2.150871412828507800e-01
2.529475912451744080e-01 -6.572440244257450104e+00 -2.135765211656632800e-01
3.230159506201744080e-01 -6.551932431757450104e+00 -2.120659010484757800e-01
3.924739584326744080e-01 -6.531546689569950104e+00 -2.105552809312882800e-01
4.615657553076744080e-01 -6.511405088007450104e+00 -2.090599196031632800e-01
5.305354818701744080e-01 -6.491263486444950104e+00 -2.075798170641007800e-01
5.988948568701744080e-01 -6.471243955194950104e+00 -2.060997145250382800e-01
1.113460287451744080e-01 -6.613822080194950104e+00 -1.840355055406632800e-01
1.820247396826744080e-01 -6.593070127069950104e+00 -1.825859205797257800e-01
2.522151693701744080e-01 -6.572562314569950104e+00 -1.813346998766007800e-01
3.222835287451744080e-01 -6.552054502069950104e+00 -1.799156324937882800e-01
3.918636068701744080e-01 -6.531790830194950104e+00 -1.784965651109757800e-01
4.609554037451744080e-01 -6.511649228632450104e+00 -1.770927565172257800e-01
5.298030599951744080e-01 -6.491385556757450104e+00 -1.755211012437882800e-01
5.981624349951744080e-01 -6.471488095819950104e+00 -1.741325514391007800e-01
1.106136068701744080e-01 -6.613944150507450104e+00 -1.516105787828507800e-01
1.812923178076744080e-01 -6.593314267694950104e+00 -1.502678053453507800e-01
2.514827474951744080e-01 -6.572806455194950104e+00 -1.489250319078507800e-01
3.215511068701744080e-01 -6.552298642694950104e+00 -1.475822584703507800e-01
3.911311849951744080e-01 -6.532034970819950104e+00 -1.462700026109757800e-01
4.602229818701744080e-01 -6.511771298944950104e+00 -1.449424879625382800e-01
5.291927084326744080e-01 -6.491629697382450104e+00 -1.436302321031632800e-01
5.975520834326744080e-01 -6.471610166132450104e+00 -1.423332350328507800e-01
1.098811849951744080e-01 -6.614188291132450104e+00 -1.190178053453507800e-01
1.805598959326744080e-01 -6.593558408319950104e+00 -1.179344313219132800e-01
2.507503256201744080e-01 -6.573050595819950104e+00 -1.166832106187882800e-01
3.209407553076744080e-01 -6.552542783319950104e+00 -1.154319899156632800e-01
3.903987631201744080e-01 -6.532157041132450104e+00 -1.141960280016007800e-01
4.594905599951744080e-01 -6.512015439569950104e+00 -1.129753248766007800e-01
5.284602865576744080e-01 -6.491873838007450104e+00 -1.117393629625382800e-01
5.968196615576744080e-01 -6.471854306757450104e+00 -1.103508131578507800e-01
1.091487631201744080e-01 -6.614432431757450104e+00 -8.659287858753828004e-02
1.798274740576744080e-01 -6.593802548944950104e+00 -8.543321061878828004e-02
2.500179037451744080e-01 -6.573172666132450104e+00 -8.427354265003828004e-02
3.202083334326744080e-01 -6.552664853632450104e+00 -8.311387468128828004e-02
3.896663412451744080e-01 -6.532401181757450104e+00 -8.196946550160078004e-02
4.587581381201744080e-01 -6.512259580194950104e+00 -8.082505632191328004e-02
5.277278646826744080e-01 -6.491995908319950104e+00 -7.968064714222578004e-02
5.960872396826744080e-01 -6.472098447382450104e+00 -7.855149675160078004e-02
1.084163412451744080e-01 -6.614554502069950104e+00 -5.400010515003828004e-02
1.790950521826744080e-01 -6.593924619257450104e+00 -5.309983659535078004e-02
2.492854818701744080e-01 -6.573416806757450104e+00 -5.201646257191328004e-02
3.194759115576744080e-01 -6.552908994257450104e+00 -5.094834733753828004e-02
3.889339193701744080e-01 -6.532645322382450104e+00 -4.989549089222578004e-02
4.580257162451744080e-01 -6.512381650507450104e+00 -4.884263444691328004e-02
5.269954428076744080e-01 -6.492240048944950104e+00 -4.778977800160078004e-02
5.953548178076744080e-01 -6.472220517694950104e+00 -4.658433366566328004e-02
1.076839193701744080e-01 -6.614798642694950104e+00 -2.157517839222578004e-02
1.783626303076744080e-01 -6.594168759882450104e+00 -2.058335710316328004e-02
2.485530599951744080e-01 -6.573660947382450104e+00 -1.960679460316328004e-02
3.187434896826744080e-01 -6.553153134882450104e+00 -1.863023210316328004e-02
3.882014974951744080e-01 -6.532767392694950104e+00 -1.765366960316328004e-02
4.572932943701744080e-01 -6.512625791132450104e+00 -1.669236589222578004e-02
5.262630209326744080e-01 -6.492484189569950104e+00 -1.573106218128828004e-02
5.946223959326744080e-01 -6.472464658319950104e+00 -1.478501725941328004e-02
1.069514974951744080e-01 -6.615042783319950104e+00 1.101759504527421996e-02
1.776302084326744080e-01 -6.594412900507450104e+00 1.191786359996171996e-02
2.478206381201744080e-01 -6.573783017694950104e+00 1.263502668589921996e-02
3.180110678076744080e-01 -6.553275205194950104e+00 1.352003645152421996e-02
3.874690756201744080e-01 -6.533011533319950104e+00 1.440504621714921996e-02
4.565608724951744080e-01 -6.512869931757450104e+00 1.529005598277421996e-02
5.255305990576744080e-01 -6.492606259882450104e+00 1.632765363902421996e-02
5.938899740576744080e-01 -6.472708798944950104e+00 1.719740461558671996e-02
1.062190756201744080e-01 -6.615286923944950104e+00 4.362562727183671996e-02
1.768977865576744080e-01 -6.594534970819950104e+00 4.425123762339921996e-02
2.472102865576744080e-01 -6.574027158319950104e+00 4.505995344371171996e-02
3.172786459326744080e-01 -6.553519345819950104e+00 4.585341047496171996e-02
3.867366537451744080e-01 -6.533255673944950104e+00 4.664686750621171996e-02
4.559505209326744080e-01 -6.512992002069950104e+00 4.744032453746171996e-02
5.249202474951744080e-01 -6.492850400507450104e+00 4.821852277964921996e-02
5.932796224951744080e-01 -6.472830869257450104e+00 4.916456770152421996e-02
6.069514974951744080e-01 -6.468924619257450104e+00 -5.568534987047257800e-01
6.749446615576744080e-01 -6.449027158319950104e+00 -5.544731276109757800e-01
7.426936849951744080e-01 -6.429251767694950104e+00 -5.522758619859757800e-01
