-1.034403696656227112e+00 -6.744284778833389282e+00 -5.847067492082658191e-01
-9.628704935312271118e-01 -6.765402942895889282e+00 -5.834555285051408191e-01
-1.544047251343727112e+00 -6.972190052270889282e+00 -5.738577501848283191e-01
-1.459452524781227112e+00 -6.947409778833389282e+00 -5.704702990129533191e-01
-1.375834360718727112e+00 -6.922995716333389282e+00 -5.671286242082658191e-01
-1.292826548218727112e+00 -6.898703724145889282e+00 -5.638022081926408191e-01
-1.210917368531227112e+00 -6.874777942895889282e+00 -5.605063097551408191e-01
-1.129862681031227112e+00 -6.851096302270889282e+00 -5.572561876848283191e-01
-1.049296274781227112e+00 -6.827536731958389282e+00 -5.540365831926408191e-01
-9.698285013437271118e-01 -6.804343372583389282e+00 -5.508474962785783191e-01
-1.544779673218727112e+00 -6.972434192895889282e+00 -5.383505480363908191e-01
-1.460307016968727112e+00 -6.947653919458389282e+00 -5.349630968645158191e-01
-1.376688852906227112e+00 -6.923239856958389282e+00 -5.318045275285783191e-01
-1.293558970093727112e+00 -6.898947864770889282e+00 -5.286612169817033191e-01
-1.211649790406227112e+00 -6.875022083520889282e+00 -5.255484240129533191e-01
-1.130595102906227112e+00 -6.851340442895889282e+00 -5.224814074113908191e-01
-1.050150766968727112e+00 -6.827780872583389282e+00 -5.194296495988908191e-01
-9.706829935312271118e-01 -6.804587513208389282e+00 -5.166067736223283191e-01
-1.545634165406227112e+00 -6.972556263208389282e+00 -5.026602404192033191e-01
-1.461161509156227112e+00 -6.947898060083389282e+00 -4.996390001848283191e-01
-1.377421274781227112e+00 -6.923483997583389282e+00 -4.966635363176408191e-01
-1.294413462281227112e+00 -6.899192005395889282e+00 -4.937033312395158191e-01
-1.212504282593727112e+00 -6.875266224145889282e+00 -4.907736437395158191e-01
-1.131449595093727112e+00 -6.851584583520889282e+00 -4.878897326067033191e-01
-1.050883188843727112e+00 -6.828025013208389282e+00 -4.850210802629533191e-01
-9.714154154062271118e-01 -6.804831653833389282e+00 -4.821829454973283191e-01
-1.546488657593727112e+00 -6.972800403833389282e+00 -4.671530382707658191e-01
-1.461893931031227112e+00 -6.948142200708389282e+00 -4.641317980363908191e-01
-1.378275766968727112e+00 -6.923728138208389282e+00 -4.613394396379533191e-01
-1.295267954468727112e+00 -6.899436146020889282e+00 -4.585623400285783191e-01
-1.213236704468727112e+00 -6.875510364770889282e+00 -4.558157579973283191e-01
-1.132182016968727112e+00 -6.851828724145889282e+00 -4.530996935442033191e-01
-1.051615610718727112e+00 -6.828269153833389282e+00 -4.504141466692033191e-01
-9.722699075937271118e-01 -6.805075794458389282e+00 -4.479422228410783191e-01
-1.547343149781227112e+00 -6.973044544458389282e+00 -4.314474718645158191e-01
-1.462748423218727112e+00 -6.948386341333389282e+00 -4.288077013567033191e-01
-1.379130259156227112e+00 -6.923972278833389282e+00 -4.261984484270158191e-01
-1.296000376343727112e+00 -6.899680286645889282e+00 -4.236044542863908191e-01
-1.214091196656227112e+00 -6.875754505395889282e+00 -4.210409777238908191e-01
-1.133036509156227112e+00 -6.852072864770889282e+00 -4.185080187395158191e-01
-1.052470102906227112e+00 -6.828513294458389282e+00 -4.159903185442033191e-01
-9.730023294687271118e-01 -6.805319935083389282e+00 -4.135031359270158191e-01
-1.548075571656227112e+00 -6.973288685083389282e+00 -3.959402697160783191e-01
-1.463602915406227112e+00 -6.948630481958389282e+00 -3.934836046770158191e-01
-1.379862681031227112e+00 -6.924216419458389282e+00 -3.908590929582658191e-01
-1.296854868531227112e+00 -6.899924427270889282e+00 -3.884482042863908191e-01
-1.214945688843727112e+00 -6.875998646020889282e+00 -3.860830919817033191e-01
-1.133768931031227112e+00 -6.852194935083389282e+00 -3.837179796770158191e-01
-1.053202524781227112e+00 -6.828757435083389282e+00 -3.815664904192033191e-01
-9.737347513437271118e-01 -6.805442005395889282e+00 -3.792624132707658191e-01
-1.548930063843727112e+00 -6.973532825708389282e+00 -3.602347033098283191e-01
-1.464335337281227112e+00 -6.948874622583389282e+00 -3.579764025285783191e-01
-1.380717173218727112e+00 -6.924338489770889282e+00 -3.557181017473283191e-01
-1.297587290406227112e+00 -6.900168567895889282e+00 -3.534903185442033191e-01
-1.215678110718727112e+00 -6.876120716333389282e+00 -3.512930529192033191e-01
-1.134623423218727112e+00 -6.852439075708389282e+00 -3.491263048723283191e-01
-1.054057016968727112e+00 -6.828879505395889282e+00 -3.469595568254533191e-01
-9.745892435312271118e-01 -6.805686146020889282e+00 -3.448233263567033191e-01
-1.549784556031227112e+00 -6.973776966333389282e+00 -3.247275011613908191e-01
-1.465189829468727112e+00 -6.949118763208389282e+00 -3.226370470598283191e-01
-1.381571665406227112e+00 -6.924582630395889282e+00 -3.205771105363908191e-01
-1.298441782593727112e+00 -6.900290638208389282e+00 -3.185324328020158191e-01
-1.216532602906227112e+00 -6.876364856958389282e+00 -3.165182726457658191e-01
-1.135355845093727112e+00 -6.852683216333389282e+00 -3.145193712785783191e-01
-1.054789438843727112e+00 -6.829123646020889282e+00 -3.125357287004533191e-01
-9.753216654062271118e-01 -6.805930286645889282e+00 -3.105826037004533191e-01
-1.550516977906227112e+00 -6.974021106958389282e+00 -2.890219347551408191e-01
-1.466044321656227112e+00 -6.949362903833389282e+00 -2.871298449113908191e-01
-1.382304087281227112e+00 -6.924826771020889282e+00 -2.852530138567033191e-01
-1.299296274781227112e+00 -6.900534778833389282e+00 -2.833914415910783191e-01
-1.217265024781227112e+00 -6.876608997583389282e+00 -2.815603869035783191e-01
-1.136210337281227112e+00 -6.852927356958389282e+00 -2.797293322160783191e-01
-1.055643931031227112e+00 -6.829367786645889282e+00 -2.779287951067033191e-01
-9.761761575937271118e-01 -6.806174427270889282e+00 -2.761435167863908191e-01
-1.551371470093727112e+00 -6.974265247583389282e+00 -2.535147326067033191e-01
-1.466776743531227112e+00 -6.949484974145889282e+00 -2.518057482317033191e-01
-1.383158579468727112e+00 -6.925070911645889282e+00 -2.501120226457658191e-01
-1.300028696656227112e+00 -6.900778919458389282e+00 -2.484335558488908191e-01
-1.218119516968727112e+00 -6.876853138208389282e+00 -2.467703478410783191e-01
-1.136942759156227112e+00 -6.853171497583389282e+00 -2.451376574113908191e-01
-1.056376352906227112e+00 -6.829611927270889282e+00 -2.435049669817033191e-01
-9.769085794687271118e-01 -6.806418567895889282e+00 -2.419027941301408191e-01
-1.552225962281227112e+00 -6.974509388208389282e+00 -2.178091662004533191e-01
-1.467631235718727112e+00 -6.949729114770889282e+00 -2.162832872942033191e-01
-1.383891001343727112e+00 -6.925315052270889282e+00 -2.149557726457658191e-01
-1.300883188843727112e+00 -6.901023060083389282e+00 -2.134604113176408191e-01
-1.218851938843727112e+00 -6.877097278833389282e+00 -2.119955675676408191e-01
-1.137797251343727112e+00 -6.853415638208389282e+00 -2.105307238176408191e-01
-1.057230845093727112e+00 -6.829856067895889282e+00 -2.088980333879533191e-01
-9.777630716562271118e-01 -6.806662708520889282e+00 -2.074637072160783191e-01
-1.553080454468727112e+00 -6.974753528833389282e+00 -1.822867052629533191e-01
-1.468485727906227112e+00 -6.949973255395889282e+00 -1.809439318254533191e-01
-1.384745493531227112e+00 -6.925559192895889282e+00 -1.796316759660783191e-01
-1.301615610718727112e+00 -6.901267200708389282e+00 -1.783194201067033191e-01
-1.219706431031227112e+00 -6.877341419458389282e+00 -1.770224230363908191e-01
-1.138529673218727112e+00 -6.853659778833389282e+00 -1.757406847551408191e-01
-1.057963266968727112e+00 -6.830100208520889282e+00 -1.744742052629533191e-01
-9.784954935312271118e-01 -6.806784778833389282e+00 -1.732077257707658191e-01
-1.553812876343727112e+00 -6.974997669458389282e+00 -1.465811388567033191e-01
-1.469218149781227112e+00 -6.950217396020889282e+00 -1.456198351457658191e-01
-1.385599985718727112e+00 -6.925803333520889282e+00 -1.444754259660783191e-01
-1.302470102906227112e+00 -6.901511341333389282e+00 -1.433462755754533191e-01
-1.220438852906227112e+00 -6.877585560083389282e+00 -1.422323839738908191e-01
-1.139384165406227112e+00 -6.853781849145889282e+00 -1.411337511613908191e-01
-1.058817759156227112e+00 -6.830344349145889282e+00 -1.400351183488908191e-01
-9.792279154062271118e-01 -6.807028919458389282e+00 -1.387686388567033191e-01
-1.554667368531227112e+00 -6.975241810083389282e+00 -1.110586779192033191e-01
-1.470072641968727112e+00 -6.950461536645889282e+00 -1.100973742082658191e-01
-1.386332407593727112e+00 -6.926047474145889282e+00 -1.091513292863908191e-01
-1.303202524781227112e+00 -6.901755481958389282e+00 -1.082052843645158191e-01
-1.221293345093727112e+00 -6.877829700708389282e+00 -1.072744982317033191e-01
-1.140116587281227112e+00 -6.854025989770889282e+00 -1.063437120988908191e-01
-1.059550181031227112e+00 -6.830466419458389282e+00 -1.054281847551408191e-01
-9.800824075937271118e-01 -6.807273060083389282e+00 -1.045279162004533191e-01
-1.555521860718727112e+00 -6.975485950708389282e+00 -7.535311151295331911e-02
-1.470927134156227112e+00 -6.950705677270889282e+00 -7.477327752857831911e-02
-1.387186899781227112e+00 -6.926291614770889282e+00 -7.399507928639081911e-02
-1.304057016968727112e+00 -6.901999622583389282e+00 -7.323213983326581911e-02
-1.222025766968727112e+00 -6.877951771020889282e+00 -7.248445916920331911e-02
-1.140971079468727112e+00 -6.854270130395889282e+00 -7.173677850514081911e-02
-1.060282602906227112e+00 -6.830710560083389282e+00 -7.100435663014081911e-02
-9.808148294687271118e-01 -6.807517200708389282e+00 -7.008882928639081911e-02
-1.556254282593727112e+00 -6.975608021020889282e+00 -3.983065057545331911e-02
-1.471659556031227112e+00 -6.950949817895889282e+00 -3.925081659107831911e-02
-1.388041391968727112e+00 -6.926535755395889282e+00 -3.865572381764081911e-02
-1.304911509156227112e+00 -6.902243763208389282e+00 -3.807588983326581911e-02
-1.222880259156227112e+00 -6.878195911645889282e+00 -3.751131463795331911e-02
-1.141703501343727112e+00 -6.854514271020889282e+00 -3.694673944264081911e-02
-1.061137095093727112e+00 -6.830954700708389282e+00 -3.638216424732831911e-02
-9.816693216562271118e-01 -6.807761341333389282e+00 -3.583284784107831911e-02
-1.557108774781227112e+00 -6.975852161645889282e+00 -4.125084169203319107e-03
-1.472514048218727112e+00 -6.951193958520889282e+00 -3.728355653578319107e-03
-1.388773813843727112e+00 -6.926657825708389282e+00 -3.514732606703319107e-03
-1.305643931031227112e+00 -6.902365833520889282e+00 -3.118004091078319107e-03
-1.223734751343727112e+00 -6.878440052270889282e+00 -2.721275575453319107e-03
-1.142557993531227112e+00 -6.854758411645889282e+00 -2.339805848890819107e-03
-1.061869516968727112e+00 -6.831198841333389282e+00 -1.775230653578319107e-03
-9.824017435312271118e-01 -6.808005481958389282e+00 -1.393760927015819107e-03
-1.557963266968727112e+00 -6.976096302270889282e+00 3.158048223704668089e-02
-1.473368540406227112e+00 -6.951438099145889282e+00 3.161099981517168089e-02
-1.389628306031227112e+00 -6.926901966333389282e+00 3.182462286204668089e-02
-1.306498423218727112e+00 -6.902609974145889282e+00 3.203824590892168089e-02
-1.224467173218727112e+00 -6.878684192895889282e+00 3.225186895579668089e-02
-1.143290415406227112e+00 -6.855002552270889282e+00 3.245023321360918089e-02
-1.062724009156227112e+00 -6.831442981958389282e+00 3.266385626048418089e-02
-9.832562357187271118e-01 -6.808249622583389282e+00 3.304532598704668089e-02
-8.654583841562271118e-01 -6.162497669458389282e+00 -5.865530626848283191e-01
-7.995404154062271118e-01 -6.180686146020889282e+00 -5.854086535051408191e-01
-7.336224466562271118e-01 -6.200705677270889282e+00 -5.845236437395158191e-01
-6.673382669687271118e-01 -6.222067981958389282e+00 -5.836844103410783191e-01
-6.011761575937271118e-01 -6.243552356958389282e+00 -5.828451769426408191e-01
-5.346478372812271118e-01 -6.265036731958389282e+00 -5.820212023332658191e-01
-4.677533060312271118e-01 -6.286643177270889282e+00 -5.811819689348283191e-01
-4.004925638437271118e-01 -6.305686146020889282e+00 -5.803732531145158191e-01
-9.626263529062271118e-01 -6.765525013208389282e+00 -5.834555285051408191e-01
-8.901165872812271118e-01 -6.780905872583389282e+00 -5.821432726457658191e-01
-8.121136575937271118e-01 -6.758200794458389282e+00 -5.788626329973283191e-01
-7.345990091562271118e-01 -6.735495716333389282e+00 -5.757803576067033191e-01
-6.579388529062271118e-01 -6.713156849145889282e+00 -5.727285997942033191e-01
-5.818890482187271118e-01 -6.690940052270889282e+00 -5.697073595598283191e-01
-5.063275247812271118e-01 -6.668845325708389282e+00 -5.668844835832658191e-01
-4.316204935312271118e-01 -6.646994739770889282e+00 -5.639242785051408191e-01
-9.695843607187271118e-01 -6.804221302270889282e+00 -5.508322374895158191e-01
-8.909710794687271118e-01 -6.781150013208389282e+00 -5.478567736223283191e-01
-8.129681497812271118e-01 -6.758444935083389282e+00 -5.449118273332658191e-01
-7.353314310312271118e-01 -6.735739856958389282e+00 -5.419821398332658191e-01
-6.586712747812271118e-01 -6.713278919458389282e+00 -5.390829699113908191e-01
-5.827435404062271118e-01 -6.691062122583389282e+00 -5.362143175676408191e-01
-5.070599466562271118e-01 -6.668967396020889282e+00 -5.333456652238908191e-01
-4.323529154062271118e-01 -6.647238880395889282e+00 -5.305227892473283191e-01
-9.703167825937271118e-01 -6.804343372583389282e+00 -5.165915148332658191e-01
-8.917035013437271118e-01 -6.781394153833389282e+00 -5.135855333879533191e-01
-8.137005716562271118e-01 -6.758567005395889282e+00 -5.107931749895158191e-01
-7.360638529062271118e-01 -6.735983997583389282e+00 -5.080008165910783191e-01
-6.594036966562271118e-01 -6.713523060083389282e+00 -5.052542345598283191e-01
-5.834759622812271118e-01 -6.691306263208389282e+00 -5.025229113176408191e-01
-5.077923685312271118e-01 -6.669211536645889282e+00 -4.998068468645158191e-01
-4.330853372812271118e-01 -6.647360950708389282e+00 -4.973044054582658191e-01
-9.711712747812271118e-01 -6.804587513208389282e+00 -4.821676867082658191e-01
-8.924359232187271118e-01 -6.781638294458389282e+00 -4.794973986223283191e-01
-8.144329935312271118e-01 -6.758811146020889282e+00 -4.768423693254533191e-01
-7.369183450937271118e-01 -6.736106067895889282e+00 -4.742025988176408191e-01
-6.602581888437271118e-01 -6.713767200708389282e+00 -4.715933458879533191e-01
-5.842083841562271118e-01 -6.691550403833389282e+00 -4.690146105363908191e-01
-5.086468607187271118e-01 -6.669455677270889282e+00 -4.664358751848283191e-01
-4.339398294687271118e-01 -6.647605091333389282e+00 -4.639029162004533191e-01
-9.719036966562271118e-01 -6.804831653833389282e+00 -4.479269640520158191e-01
-8.932904154062271118e-01 -6.781882435083389282e+00 -4.452108995988908191e-01
-8.152874857187271118e-01 -6.759055286645889282e+00 -4.427084581926408191e-01
-7.376507669687271118e-01 -6.736350208520889282e+00 -4.402212755754533191e-01
-6.609906107187271118e-01 -6.714011341333389282e+00 -4.377646105363908191e-01
-5.849408060312271118e-01 -6.691794544458389282e+00 -4.353232042863908191e-01
-5.093792825937271118e-01 -6.669699817895889282e+00 -4.328970568254533191e-01
-4.346722513437271118e-01 -6.647849231958389282e+00 -4.306845324113908191e-01
-9.727581888437271118e-01 -6.805075794458389282e+00 -4.135031359270158191e-01
-8.940228372812271118e-01 -6.782126575708389282e+00 -4.111227648332658191e-01
-8.160199075937271118e-01 -6.759299427270889282e+00 -4.087729113176408191e-01
-7.383831888437271118e-01 -6.736594349145889282e+00 -4.064230578020158191e-01
-6.617230325937271118e-01 -6.714133411645889282e+00 -4.041037218645158191e-01
-5.857952982187271118e-01 -6.692038685083389282e+00 -4.018149035051408191e-01
-5.101117044687271118e-01 -6.669821888208389282e+00 -3.995260851457658191e-01
-4.354046732187271118e-01 -6.648093372583389282e+00 -3.972830431535783191e-01
-9.734906107187271118e-01 -6.805319935083389282e+00 -3.792471544817033191e-01
-8.947552591562271118e-01 -6.782248646020889282e+00 -3.770193712785783191e-01
-8.167523294687271118e-01 -6.759543567895889282e+00 -3.746390001848283191e-01
-7.392376810312271118e-01 -6.736838489770889282e+00 -3.724417345598283191e-01
-6.625775247812271118e-01 -6.714377552270889282e+00 -3.702749865129533191e-01
-5.865277200937271118e-01 -6.692160755395889282e+00 -3.681234972551408191e-01
-5.108441263437271118e-01 -6.670066028833389282e+00 -3.661703722551408191e-01
-4.361370950937271118e-01 -6.648215442895889282e+00 -3.640494005754533191e-01
-9.743451029062271118e-01 -6.805564075708389282e+00 -3.448233263567033191e-01
-8.956097513437271118e-01 -6.782492786645889282e+00 -3.427481310442033191e-01
-8.176068216562271118e-01 -6.759665638208389282e+00 -3.406881945207658191e-01
-7.399701029062271118e-01 -6.737082630395889282e+00 -3.386435167863908191e-01
-6.633099466562271118e-01 -6.714621692895889282e+00 -3.366140978410783191e-01
-5.872601419687271118e-01 -6.692404896020889282e+00 -3.346151964738908191e-01
-5.116986185312271118e-01 -6.670310169458389282e+00 -3.326162951067033191e-01
-4.368695169687271118e-01 -6.648459583520889282e+00 -3.306479113176408191e-01
-9.750775247812271118e-01 -6.805686146020889282e+00 -3.105673449113908191e-01
-8.963421732187271118e-01 -6.782736927270889282e+00 -3.086447374895158191e-01
-8.183392435312271118e-01 -6.759909778833389282e+00 -3.067373888567033191e-01
-7.407025247812271118e-01 -6.737204700708389282e+00 -3.048452990129533191e-01
-6.640423685312271118e-01 -6.714865833520889282e+00 -3.029684679582658191e-01
-5.879925638437271118e-01 -6.692649036645889282e+00 -3.011068956926408191e-01
-5.124310404062271118e-01 -6.670554310083389282e+00 -2.992453234270158191e-01
-4.377240091562271118e-01 -6.648703724145889282e+00 -2.974142687395158191e-01
-9.758099466562271118e-01 -6.805930286645889282e+00 -2.761435167863908191e-01
-8.971966654062271118e-01 -6.782981067895889282e+00 -2.743582384660783191e-01
-8.190716654062271118e-01 -6.760153919458389282e+00 -2.726034777238908191e-01
-7.415570169687271118e-01 -6.737448841333389282e+00 -2.708487169817033191e-01
-6.647747904062271118e-01 -6.715109974145889282e+00 -2.691244738176408191e-01
-5.888470560312271118e-01 -6.692893177270889282e+00 -2.674154894426408191e-01
-5.131634622812271118e-01 -6.670798450708389282e+00 -2.657065050676408191e-01
-4.384564310312271118e-01 -6.648947864770889282e+00 -2.640127794817033191e-01
-9.766644388437271118e-01 -6.806174427270889282e+00 -2.418875353410783191e-01
-8.979290872812271118e-01 -6.783225208520889282e+00 -2.402701037004533191e-01
-8.199261575937271118e-01 -6.760398060083389282e+00 -2.386526720598283191e-01
-7.422894388437271118e-01 -6.737692981958389282e+00 -2.370504992082658191e-01
-6.656292825937271118e-01 -6.715232044458389282e+00 -2.354635851457658191e-01
-5.895794779062271118e-01 -6.693015247583389282e+00 -2.338919298723283191e-01
-5.138958841562271118e-01 -6.670920521020889282e+00 -2.323355333879533191e-01
-4.391888529062271118e-01 -6.649069935083389282e+00 -2.307943956926408191e-01
-9.773968607187271118e-01 -6.806418567895889282e+00 -2.074637072160783191e-01
-8.986615091562271118e-01 -6.783469349145889282e+00 -2.059836046770158191e-01
-8.206585794687271118e-01 -6.760642200708389282e+00 -2.047018663957658191e-01
-7.430218607187271118e-01 -6.737937122583389282e+00 -2.032522814348283191e-01
-6.663617044687271118e-01 -6.715476185083389282e+00 -2.018026964738908191e-01
-5.903118997812271118e-01 -6.693259388208389282e+00 -2.003836290910783191e-01
-5.146283060312271118e-01 -6.671164661645889282e+00 -1.987814562395158191e-01
-4.399212747812271118e-01 -6.649314075708389282e+00 -1.973776476457658191e-01
-9.782513529062271118e-01 -6.806662708520889282e+00 -1.732077257707658191e-01
-8.995160013437271118e-01 -6.783591419458389282e+00 -1.718802111223283191e-01
-8.213910013437271118e-01 -6.760886341333389282e+00 -1.705679552629533191e-01
-7.437542825937271118e-01 -6.738181263208389282e+00 -1.692556994035783191e-01
-6.670941263437271118e-01 -6.715720325708389282e+00 -1.679739611223283191e-01
-5.910443216562271118e-01 -6.693503528833389282e+00 -1.666922228410783191e-01
-5.154827982187271118e-01 -6.671408802270889282e+00 -1.654104845598283191e-01
-4.406536966562271118e-01 -6.649558216333389282e+00 -1.641440050676408191e-01
-9.789837747812271118e-01 -6.806906849145889282e+00 -1.387686388567033191e-01
-9.002484232187271118e-01 -6.783835560083389282e+00 -1.377768175676408191e-01
-8.222454935312271118e-01 -6.761008411645889282e+00 -1.366171495988908191e-01
-7.446087747812271118e-01 -6.738303333520889282e+00 -1.354574816301408191e-01
-6.678265482187271118e-01 -6.715964466333389282e+00 -1.343130724504533191e-01
-5.917767435312271118e-01 -6.693747669458389282e+00 -1.331686632707658191e-01
-5.162152200937271118e-01 -6.671652942895889282e+00 -1.320395128801408191e-01
-4.413861185312271118e-01 -6.649802356958389282e+00 -1.307425158098283191e-01
-9.797161966562271118e-01 -6.807150989770889282e+00 -1.045279162004533191e-01
-9.009808450937271118e-01 -6.784079700708389282e+00 -1.034903185442033191e-01
-8.229779154062271118e-01 -6.761252552270889282e+00 -1.024832384660783191e-01
-7.453411966562271118e-01 -6.738547474145889282e+00 -1.014608995988908191e-01
-6.686810404062271118e-01 -6.716208606958389282e+00 -1.004690783098283191e-01
-5.926312357187271118e-01 -6.693991810083389282e+00 -9.947725702076581911e-02
-5.169476419687271118e-01 -6.671775013208389282e+00 -9.848543573170331911e-02
-4.422406107187271118e-01 -6.650046497583389282e+00 -9.750887323170331911e-02
-9.805706888437271118e-01 -6.807273060083389282e+00 -7.008882928639081911e-02
-9.018353372812271118e-01 -6.784323841333389282e+00 -6.938692498951581911e-02
-8.237103372812271118e-01 -6.761496692895889282e+00 -6.851717401295331911e-02
-7.460736185312271118e-01 -6.738791614770889282e+00 -6.766268182545331911e-02
-6.694134622812271118e-01 -6.716330677270889282e+00 -6.680818963795331911e-02
-5.933636575937271118e-01 -6.694113880395889282e+00 -6.595369745045331911e-02
-5.176800638437271118e-01 -6.672019153833389282e+00 -6.511446405201581911e-02
-4.429730325937271118e-01 -6.650168567895889282e+00 -6.410738397389081911e-02
-9.813031107187271118e-01 -6.807517200708389282e+00 -3.583284784107831911e-02
-9.025677591562271118e-01 -6.784567981958389282e+00 -3.510042596607831911e-02
-8.245648294687271118e-01 -6.761740833520889282e+00 -3.438326288014081911e-02
-7.469281107187271118e-01 -6.739035755395889282e+00 -3.366609979420331911e-02
-6.701458841562271118e-01 -6.716574817895889282e+00 -3.296419549732831911e-02
-5.940960794687271118e-01 -6.694358021020889282e+00 -3.226229120045331911e-02
-5.184124857187271118e-01 -6.672263294458389282e+00 -3.156038690357831911e-02
-4.437054544687271118e-01 -6.650412708520889282e+00 -3.087374139576581911e-02
-9.821576029062271118e-01 -6.807761341333389282e+00 -1.393760927015819107e-03
-9.034222513437271118e-01 -6.784812122583389282e+00 -8.139269426408191066e-04
-8.252972513437271118e-01 -6.761984974145889282e+00 -4.324572160783191066e-04
-7.476605325937271118e-01 -6.739279896020889282e+00 1.473767682966808934e-04
-6.710003763437271118e-01 -6.716818958520889282e+00 7.119519636091808934e-04
-5.948285013437271118e-01 -6.694602161645889282e+00 1.261268369859180893e-03
-5.192669779062271118e-01 -6.672507435083389282e+00 1.993690244859180893e-03
-4.444378763437271118e-01 -6.650656849145889282e+00 2.543006651109180893e-03
-9.828900247812271118e-01 -6.808005481958389282e+00 3.304532598704668089e-02
-9.041546732187271118e-01 -6.784934192895889282e+00 3.328946661204668089e-02
-8.260296732187271118e-01 -6.762107044458389282e+00 3.371671270579668089e-02
-7.483929544687271118e-01 -6.739524036645889282e+00 3.412870001048418089e-02
-6.717327982187271118e-01 -6.717063099145889282e+00 3.455594610423418089e-02
-5.956829935312271118e-01 -6.694846302270889282e+00 3.496793340892168089e-02
-5.199993997812271118e-01 -6.672751575708389282e+00 3.537992071360918089e-02
-4.451702982187271118e-01 -6.650900989770889282e+00 3.595975469798418089e-02
-4.002484232187271118e-01 -6.305808216333389282e+00 -5.803732531145158191e-01
-3.329876810312271118e-01 -6.326926380395889282e+00 -5.795340197160783191e-01
-2.651165872812271118e-01 -6.345481067895889282e+00 -5.787405626848283191e-01
-1.965130716562271118e-01 -6.359397083520889282e+00 -5.776877062395158191e-01
-1.276654154062271118e-01 -6.369895130395889282e+00 -5.764822619035783191e-01
-5.881775915622711182e-02 -6.380271106958389282e+00 -5.752615587785783191e-01
1.051817834377288818e-02 -6.390891224145889282e+00 -5.740561144426408191e-01
7.973204553127288818e-02 -6.398703724145889282e+00 -5.728811876848283191e-01
-4.313763529062271118e-01 -6.646750599145889282e+00 -5.639090197160783191e-01
-3.572796732187271118e-01 -6.625144153833389282e+00 -5.611624376848283191e-01
-2.836712747812271118e-01 -6.603659778833389282e+00 -5.582632677629533191e-01
-2.103070169687271118e-01 -6.582175403833389282e+00 -5.555319445207658191e-01
-1.377972513437271118e-01 -6.560935169458389282e+00 -5.528463976457658191e-01
-6.577576696872711182e-02 -6.539939075708389282e+00 -5.501761095598283191e-01
6.123647093772888184e-03 -6.518942981958389282e+00 -5.476889269426408191e-01
7.716856896877288818e-02 -6.498191028833389282e+00 -5.450491564348283191e-01
-4.321087747812271118e-01 -6.646994739770889282e+00 -5.305075304582658191e-01
-3.580120950937271118e-01 -6.625388294458389282e+00 -5.278830187395158191e-01
-2.844036966562271118e-01 -6.603781849145889282e+00 -5.252737658098283191e-01
-2.110394388437271118e-01 -6.582419544458389282e+00 -5.226645128801408191e-01
-1.385296732187271118e-01 -6.561179310083389282e+00 -5.201010363176408191e-01
-6.650818884372711182e-02 -6.540183216333389282e+00 -5.175375597551408191e-01
5.391225218772888184e-03 -6.519187122583389282e+00 -5.149893419817033191e-01
7.643614709377288818e-02 -6.498435169458389282e+00 -5.124716417863908191e-01
-4.328411966562271118e-01 -6.647238880395889282e+00 -4.972891466692033191e-01
-3.587445169687271118e-01 -6.625510364770889282e+00 -4.946035997942033191e-01
-2.851361185312271118e-01 -6.604025989770889282e+00 -4.921011583879533191e-01
-2.117718607187271118e-01 -6.582663685083389282e+00 -4.896292345598283191e-01
-1.392620950937271118e-01 -6.561423450708389282e+00 -4.871573107317033191e-01
-6.724061071872711182e-02 -6.540305286645889282e+00 -4.847159044817033191e-01
4.658803343772888184e-03 -6.519431263208389282e+00 -4.822897570207658191e-01
7.570372521877288818e-02 -6.498557239770889282e+00 -4.800619738176408191e-01
-4.335736185312271118e-01 -6.647483021020889282e+00 -4.638876574113908191e-01
-3.594769388437271118e-01 -6.625754505395889282e+00 -4.614920275285783191e-01
-2.858685404062271118e-01 -6.604270130395889282e+00 -4.591269152238908191e-01
-2.125042825937271118e-01 -6.582785755395889282e+00 -4.567465441301408191e-01
-1.399945169687271118e-01 -6.561667591333389282e+00 -4.544119494035783191e-01
-6.797303259372711182e-02 -6.540549427270889282e+00 -4.520773546770158191e-01
3.926381468772888184e-03 -6.519553333520889282e+00 -4.497580187395158191e-01
7.497130334377288818e-02 -6.498801380395889282e+00 -4.474692003801408191e-01
-4.344281107187271118e-01 -6.647605091333389282e+00 -4.306692736223283191e-01
-3.602093607187271118e-01 -6.625998646020889282e+00 -4.282126085832658191e-01
-2.866009622812271118e-01 -6.604514271020889282e+00 -4.259543078020158191e-01
-2.133587747812271118e-01 -6.583029896020889282e+00 -4.237112658098283191e-01
-1.407269388437271118e-01 -6.561789661645889282e+00 -4.214834826067033191e-01
-6.870545446872711182e-02 -6.540793567895889282e+00 -4.192709581926408191e-01
3.193959593772888184e-03 -6.519797474145889282e+00 -4.170584337785783191e-01
7.423888146877288818e-02 -6.499045521020889282e+00 -4.150595324113908191e-01
-4.351605325937271118e-01 -6.647849231958389282e+00 -3.972677843645158191e-01
-3.610638529062271118e-01 -6.626242786645889282e+00 -3.951162951067033191e-01
-2.873333841562271118e-01 -6.604758411645889282e+00 -3.929648058488908191e-01
-2.140911966562271118e-01 -6.583274036645889282e+00 -3.908285753801408191e-01
-1.414593607187271118e-01 -6.562033802270889282e+00 -3.887228624895158191e-01
-6.943787634372711182e-02 -6.541037708520889282e+00 -3.866171495988908191e-01
2.461537718772888184e-03 -6.520041614770889282e+00 -3.845419542863908191e-01
7.350645959377288818e-02 -6.499289661645889282e+00 -3.824667589738908191e-01
-4.358929544687271118e-01 -6.648093372583389282e+00 -3.640494005754533191e-01
-3.617962747812271118e-01 -6.626364856958389282e+00 -3.620047228410783191e-01
-2.881878763437271118e-01 -6.604880481958389282e+00 -3.598074572160783191e-01
-2.148236185312271118e-01 -6.583518177270889282e+00 -3.577780382707658191e-01
-1.421917825937271118e-01 -6.562277942895889282e+00 -3.557943956926408191e-01
-7.017029821872711182e-02 -6.541159778833389282e+00 -3.538107531145158191e-01
1.729115843772888184e-03 -6.520163685083389282e+00 -3.520102160051408191e-01
7.277403771877288818e-02 -6.499411731958389282e+00 -3.500570910051408191e-01
-4.366253763437271118e-01 -6.648337513208389282e+00 -3.306326525285783191e-01
-3.625286966562271118e-01 -6.626608997583389282e+00 -3.287253038957658191e-01
-2.889202982187271118e-01 -6.605124622583389282e+00 -3.268179552629533191e-01
-2.155560404062271118e-01 -6.583640247583389282e+00 -3.249106066301408191e-01
-1.429242044687271118e-01 -6.562522083520889282e+00 -3.230337755754533191e-01
-7.090272009372711182e-02 -6.541403919458389282e+00 -3.211569445207658191e-01
9.966939687728881836e-04 -6.520407825708389282e+00 -3.192953722551408191e-01
7.204161584377288818e-02 -6.499655872583389282e+00 -3.174643175676408191e-01
-4.373577982187271118e-01 -6.648581653833389282e+00 -2.974142687395158191e-01
-3.632611185312271118e-01 -6.626853138208389282e+00 -2.956137316301408191e-01
-2.896527200937271118e-01 -6.605368763208389282e+00 -2.938284533098283191e-01
-2.162884622812271118e-01 -6.583884388208389282e+00 -2.920431749895158191e-01
-1.436566263437271118e-01 -6.562644153833389282e+00 -2.902731554582658191e-01
-7.163514196872711182e-02 -6.541648060083389282e+00 -2.885183947160783191e-01
2.642720937728881836e-04 -6.520651966333389282e+00 -2.867788927629533191e-01
7.130919396877288818e-02 -6.499900013208389282e+00 -2.850393908098283191e-01
-4.382122904062271118e-01 -6.648703724145889282e+00 -2.640127794817033191e-01
-3.639935404062271118e-01 -6.627097278833389282e+00 -2.623190538957658191e-01
-2.903851419687271118e-01 -6.605612903833389282e+00 -2.606558458879533191e-01
-2.170208841562271118e-01 -6.584128528833389282e+00 -2.589926378801408191e-01
-1.443890482187271118e-01 -6.562888294458389282e+00 -2.573294298723283191e-01
-7.236756384372711182e-02 -6.541770130395889282e+00 -2.556967394426408191e-01
-4.681497812271118164e-04 -6.520896106958389282e+00 -2.540640490129533191e-01
7.057677209377288818e-02 -6.500022083520889282e+00 -2.524466173723283191e-01
-4.389447122812271118e-01 -6.648947864770889282e+00 -2.307791369035783191e-01
-3.647259622812271118e-01 -6.627341419458389282e+00 -2.292227404192033191e-01
-2.911175638437271118e-01 -6.605734974145889282e+00 -2.276663439348283191e-01
-2.177533060312271118e-01 -6.584372669458389282e+00 -2.261099474504533191e-01
-1.451214700937271118e-01 -6.563132435083389282e+00 -2.245688097551408191e-01
-7.309998571872711182e-02 -6.542014271020889282e+00 -2.230581896379533191e-01
-1.200571656227111816e-03 -6.521018177270889282e+00 -2.215323107317033191e-01
6.984435021877288818e-02 -6.500266224145889282e+00 -2.200369494035783191e-01
-4.396771341562271118e-01 -6.649192005395889282e+00 -1.973776476457658191e-01
-3.654583841562271118e-01 -6.627463489770889282e+00 -1.959280626848283191e-01
-2.918499857187271118e-01 -6.605979114770889282e+00 -1.946615831926408191e-01
-2.184857279062271118e-01 -6.584494739770889282e+00 -1.932272570207658191e-01
-1.458538919687271118e-01 -6.563376575708389282e+00 -1.918081896379533191e-01
-7.383240759372711182e-02 -6.542258411645889282e+00 -1.904043810442033191e-01
-2.055063843727111816e-03 -6.521262317895889282e+00 -1.888327257707658191e-01
6.911192834377288818e-02 -6.500510364770889282e+00 -1.874441759660783191e-01
-4.404095560312271118e-01 -6.649436146020889282e+00 -1.641440050676408191e-01
-3.663128763437271118e-01 -6.627707630395889282e+00 -1.628164904192033191e-01
-2.925824075937271118e-01 -6.606223255395889282e+00 -1.614889757707658191e-01
-2.192181497812271118e-01 -6.584738880395889282e+00 -1.601767199113908191e-01
-1.467083841562271118e-01 -6.563498646020889282e+00 -1.588797228410783191e-01
-7.456482946872711182e-02 -6.542502552270889282e+00 -1.575827257707658191e-01
-2.787485718727111816e-03 -6.521506458520889282e+00 -1.563009874895158191e-01
6.837950646877288818e-02 -6.500632435083389282e+00 -1.550192492082658191e-01
-4.411419779062271118e-01 -6.649558216333389282e+00 -1.307425158098283191e-01
-3.670452982187271118e-01 -6.627951771020889282e+00 -1.297049181535783191e-01
-2.933148294687271118e-01 -6.606345325708389282e+00 -1.284994738176408191e-01
-2.199505716562271118e-01 -6.584983021020889282e+00 -1.272940294817033191e-01
-1.474408060312271118e-01 -6.563742786645889282e+00 -1.261191027238908191e-01
-7.529725134372711182e-02 -6.542624622583389282e+00 -1.249289171770158191e-01
-3.397837281227111816e-03 -6.521628528833389282e+00 -1.237539904192033191e-01
6.764708459377288818e-02 -6.500876575708389282e+00 -1.224264757707658191e-01
-4.418743997812271118e-01 -6.649802356958389282e+00 -9.750887323170331911e-02
-3.677777200937271118e-01 -6.628195911645889282e+00 -9.641024041920331911e-02
-2.941693216562271118e-01 -6.606589466333389282e+00 -9.532686639576581911e-02
-2.206829935312271118e-01 -6.585227161645889282e+00 -9.424349237232831911e-02
-1.481732279062271118e-01 -6.563986927270889282e+00 -9.317537713795331911e-02
-7.602967321872711182e-02 -6.542868763208389282e+00 -9.210726190357831911e-02
-4.252329468727111816e-03 -6.521872669458389282e+00 -9.105440545826581911e-02
6.691466271877288818e-02 -6.501120716333389282e+00 -9.000154901295331911e-02
-4.427288919687271118e-01 -6.650046497583389282e+00 -6.410738397389081911e-02
-3.685101419687271118e-01 -6.628317981958389282e+00 -6.329866815357831911e-02
-2.949017435312271118e-01 -6.606833606958389282e+00 -6.233736444264081911e-02
-2.215374857187271118e-01 -6.585349231958389282e+00 -6.136080194264081911e-02
-1.489056497812271118e-01 -6.564108997583389282e+00 -6.041475702076581911e-02
-7.676209509372711182e-02 -6.543112903833389282e+00 -5.946871209889081911e-02
-4.984751343727111816e-03 -6.522116810083389282e+00 -5.852266717701581911e-02
6.618224084377288818e-02 -6.501364856958389282e+00 -5.740877557545331911e-02
-4.434613138437271118e-01 -6.650290638208389282e+00 -3.087374139576581911e-02
-3.692425638437271118e-01 -6.628562122583389282e+00 -3.000399041920331911e-02
-2.956341654062271118e-01 -6.607077747583389282e+00 -2.916475702076581911e-02
-2.222699075937271118e-01 -6.585593372583389282e+00 -2.831026483326581911e-02
-1.496380716562271118e-01 -6.564353138208389282e+00 -2.747103143482831911e-02
-7.749451696872711182e-02 -6.543357044458389282e+00 -2.663179803639081911e-02
-5.717173218727111816e-03 -6.522360950708389282e+00 -2.580782342701581911e-02
6.544981896877288818e-02 -6.501486927270889282e+00 -2.498384881764081911e-02
-4.441937357187271118e-01 -6.650412708520889282e+00 2.543006651109180893e-03
-3.699749857187271118e-01 -6.628806263208389282e+00 3.275428526109180893e-03
-2.963665872812271118e-01 -6.607199817895889282e+00 3.840003721421680893e-03
-2.230023294687271118e-01 -6.585837513208389282e+00 4.572425596421680893e-03
-1.503704935312271118e-01 -6.564597278833389282e+00 5.289588682359180893e-03
-7.822693884372711182e-02 -6.543479114770889282e+00 6.022010557359180893e-03
-6.449595093727111816e-03 -6.522483021020889282e+00 6.907020322984180893e-03
6.471739709377288818e-02 -6.501731067895889282e+00 7.608924619859180893e-03
-4.449261575937271118e-01 -6.650656849145889282e+00 3.595975469798418089e-02
-3.707074075937271118e-01 -6.629050403833389282e+00 3.640225958079668089e-02
-2.970990091562271118e-01 -6.607443958520889282e+00 3.701261114329668089e-02
-2.237347513437271118e-01 -6.586081653833389282e+00 3.762296270579668089e-02
-1.511029154062271118e-01 -6.564841419458389282e+00 3.823331426829668089e-02
-7.895936071872711182e-02 -6.543723255395889282e+00 3.884366583079668089e-02
-7.182016968727111816e-03 -6.522727161645889282e+00 3.943875860423418089e-02
6.398497521877288818e-02 -6.501975208520889282e+00 4.021695684642168089e-02
7.997618615627288818e-02 -6.398703724145889282e+00 -5.728659288957658191e-01
1.493121236562728882e-01 -6.408591419458389282e+00 -5.716604845598283191e-01
2.188922017812728882e-01 -6.415793567895889282e+00 -5.705008165910783191e-01
2.888384908437728882e-01 -6.422995716333389282e+00 -5.693106310442033191e-01
3.584185689687728882e-01 -6.415915638208389282e+00 -5.674643175676408191e-01
4.275103658437728882e-01 -6.395651966333389282e+00 -5.650076525285783191e-01
4.964800924062728882e-01 -6.375510364770889282e+00 -5.625509874895158191e-01
5.647173970937728882e-01 -6.355612903833389282e+00 -5.602774279192033191e-01
7.741270959377288818e-02 -6.498068958520889282e+00 -5.450491564348283191e-01
1.479693502187728882e-01 -6.477439075708389282e+00 -5.426230089738908191e-01
2.181597799062728882e-01 -6.456931263208389282e+00 -5.400290148332658191e-01
2.882281392812728882e-01 -6.436423450708389282e+00 -5.376181261613908191e-01
3.576861470937728882e-01 -6.416037708520889282e+00 -5.352377550676408191e-01
4.267779439687728882e-01 -6.395896106958389282e+00 -5.328573839738908191e-01
4.957476705312728882e-01 -6.375754505395889282e+00 -5.306601183488908191e-01
5.639849752187728882e-01 -6.355734974145889282e+00 -5.283255236223283191e-01
7.668028771877288818e-02 -6.498191028833389282e+00 -5.124563829973283191e-01
1.472369283437728882e-01 -6.477561146020889282e+00 -5.101217882707658191e-01
2.174273580312728882e-01 -6.457053333520889282e+00 -5.078024523332658191e-01
2.874957174062728882e-01 -6.436545521020889282e+00 -5.054831163957658191e-01
3.569537252187728882e-01 -6.416281849145889282e+00 -5.031790392473283191e-01
4.260455220937728882e-01 -6.396140247583389282e+00 -5.008902208879533191e-01
4.950152486562728882e-01 -6.375998646020889282e+00 -4.986166613176408191e-01
5.632525533437728882e-01 -6.355979114770889282e+00 -4.963583605363908191e-01
7.594786584377288818e-02 -6.498435169458389282e+00 -4.800467150285783191e-01
1.465045064687728882e-01 -6.477805286645889282e+00 -4.776205675676408191e-01
2.166949361562728882e-01 -6.457297474145889282e+00 -4.753927843645158191e-01
2.867632955312728882e-01 -6.436789661645889282e+00 -4.731650011613908191e-01
3.562213033437728882e-01 -6.416525989770889282e+00 -4.709524767473283191e-01
4.253131002187728882e-01 -6.396262317895889282e+00 -4.687552111223283191e-01
4.942828267812728882e-01 -6.376120716333389282e+00 -4.665579454973283191e-01
5.626422017812728882e-01 -6.356223255395889282e+00 -4.645590441301408191e-01
7.521544396877288818e-02 -6.498679310083389282e+00 -4.474539415910783191e-01
1.457720845937728882e-01 -6.478049427270889282e+00 -4.453024523332658191e-01
2.159625142812728882e-01 -6.457541614770889282e+00 -4.431662218645158191e-01
2.861529439687728882e-01 -6.437033802270889282e+00 -4.410147326067033191e-01
3.556109517812728882e-01 -6.416770130395889282e+00 -4.388937609270158191e-01
4.245806783437728882e-01 -6.396506458520889282e+00 -4.367880480363908191e-01
4.935504049062728882e-01 -6.376364856958389282e+00 -4.346823351457658191e-01
5.619097799062728882e-01 -6.356345325708389282e+00 -4.325918810442033191e-01
7.448302209377288818e-02 -6.498923450708389282e+00 -4.150442736223283191e-01
1.450396627187728882e-01 -6.478293567895889282e+00 -4.128012316301408191e-01
2.153521627187728882e-01 -6.457663685083389282e+00 -4.107565538957658191e-01
2.854205220937728882e-01 -6.437277942895889282e+00 -4.086966173723283191e-01
3.548785299062728882e-01 -6.416892200708389282e+00 -4.066671984270158191e-01
4.239703267812728882e-01 -6.396750599145889282e+00 -4.046530382707658191e-01
4.928179830312728882e-01 -6.376608997583389282e+00 -4.026388781145158191e-01
5.611773580312728882e-01 -6.356589466333389282e+00 -4.008078234270158191e-01
7.375060021877288818e-02 -6.499045521020889282e+00 -3.824667589738908191e-01
1.443072408437728882e-01 -6.478415638208389282e+00 -3.804831163957658191e-01
2.146197408437728882e-01 -6.457907825708389282e+00 -3.785147326067033191e-01
2.846881002187728882e-01 -6.437400013208389282e+00 -3.765616076067033191e-01
3.541461080312728882e-01 -6.417136341333389282e+00 -3.746084826067033191e-01
4.232379049062728882e-01 -6.396872669458389282e+00 -3.726858751848283191e-01
4.920855611562728882e-01 -6.376731067895889282e+00 -3.707480089738908191e-01
5.604449361562728882e-01 -6.356833606958389282e+00 -3.688406603410783191e-01
7.301817834377288818e-02 -6.499289661645889282e+00 -3.500418322160783191e-01
1.435748189687728882e-01 -6.478659778833389282e+00 -3.481650011613908191e-01
2.138873189687728882e-01 -6.458151966333389282e+00 -3.461050646379533191e-01
2.839556783437728882e-01 -6.437644153833389282e+00 -3.442434923723283191e-01
3.534136861562728882e-01 -6.417380481958389282e+00 -3.423819201067033191e-01
4.225054830312728882e-01 -6.397116810083389282e+00 -3.405356066301408191e-01
4.914752095937728882e-01 -6.376975208520889282e+00 -3.388723986223283191e-01
5.597125142812728882e-01 -6.356955677270889282e+00 -3.370413439348283191e-01
7.228575646877288818e-02 -6.499533802270889282e+00 -3.174490587785783191e-01
1.428423970937728882e-01 -6.478903919458389282e+00 -3.156637804582658191e-01
2.131548970937728882e-01 -6.458274036645889282e+00 -3.138785021379533191e-01
2.832232564687728882e-01 -6.437888294458389282e+00 -3.120932238176408191e-01
3.526812642812728882e-01 -6.417502552270889282e+00 -3.103232042863908191e-01
4.217730611562728882e-01 -6.397360950708389282e+00 -3.085684435442033191e-01
4.907427877187728882e-01 -6.377219349145889282e+00 -3.068136828020158191e-01
5.591021627187728882e-01 -6.357199817895889282e+00 -3.050741808488908191e-01
7.155333459377288818e-02 -6.499655872583389282e+00 -2.850393908098283191e-01
1.421099752187728882e-01 -6.479025989770889282e+00 -2.833304064348283191e-01
2.124224752187728882e-01 -6.458518177270889282e+00 -2.816366808488908191e-01
2.824908345937728882e-01 -6.438010364770889282e+00 -2.799429552629533191e-01
3.519488424062728882e-01 -6.417746692895889282e+00 -2.782644884660783191e-01
4.210406392812728882e-01 -6.397605091333389282e+00 -2.765860216692033191e-01
4.900103658437728882e-01 -6.377341419458389282e+00 -2.749228136613908191e-01
5.583697408437728882e-01 -6.357443958520889282e+00 -2.732748644426408191e-01
7.082091271877288818e-02 -6.499900013208389282e+00 -2.524466173723283191e-01
1.413775533437728882e-01 -6.479270130395889282e+00 -2.508291857317033191e-01
2.116900533437728882e-01 -6.458762317895889282e+00 -2.492270128801408191e-01
2.817584127187728882e-01 -6.438254505395889282e+00 -2.476248400285783191e-01
3.512164205312728882e-01 -6.417990833520889282e+00 -2.460226671770158191e-01
4.203082174062728882e-01 -6.397727161645889282e+00 -2.444510119035783191e-01
4.892779439687728882e-01 -6.377585560083389282e+00 -2.428640978410783191e-01
5.576373189687728882e-01 -6.357566028833389282e+00 -2.413077013567033191e-01
7.008849084377288818e-02 -6.500144153833389282e+00 -2.200216906145158191e-01
1.407672017812728882e-01 -6.479514271020889282e+00 -2.184958117082658191e-01
2.109576314687728882e-01 -6.459006458520889282e+00 -2.169851915910783191e-01
2.810259908437728882e-01 -6.438498646020889282e+00 -2.154745714738908191e-01
3.504839986562728882e-01 -6.418112903833389282e+00 -2.139639513567033191e-01
4.195757955312728882e-01 -6.397971302270889282e+00 -2.124685900285783191e-01
4.885455220937728882e-01 -6.377829700708389282e+00 -2.109884874895158191e-01
5.569048970937728882e-01 -6.357810169458389282e+00 -2.095083849504533191e-01
6.935606896877288818e-02 -6.500388294458389282e+00 -1.874441759660783191e-01
1.400347799062728882e-01 -6.479636341333389282e+00 -1.859945910051408191e-01
2.102252095937728882e-01 -6.459128528833389282e+00 -1.847433703020158191e-01
2.802935689687728882e-01 -6.438620716333389282e+00 -1.833243029192033191e-01
3.498736470937728882e-01 -6.418357044458389282e+00 -1.819052355363908191e-01
4.189654439687728882e-01 -6.398215442895889282e+00 -1.805014269426408191e-01
4.878131002187728882e-01 -6.377951771020889282e+00 -1.789297716692033191e-01
5.561724752187728882e-01 -6.358054310083389282e+00 -1.775412218645158191e-01
6.862364709377288818e-02 -6.500510364770889282e+00 -1.550192492082658191e-01
1.393023580312728882e-01 -6.479880481958389282e+00 -1.536764757707658191e-01
2.094927877187728882e-01 -6.459372669458389282e+00 -1.523337023332658191e-01
2.795611470937728882e-01 -6.438864856958389282e+00 -1.509909288957658191e-01
3.491412252187728882e-01 -6.418601185083389282e+00 -1.496786730363908191e-01
4.182330220937728882e-01 -6.398337513208389282e+00 -1.483511583879533191e-01
4.872027486562728882e-01 -6.378195911645889282e+00 -1.470389025285783191e-01
5.555621236562728882e-01 -6.358176380395889282e+00 -1.457419054582658191e-01
6.789122521877288818e-02 -6.500754505395889282e+00 -1.224264757707658191e-01
1.385699361562728882e-01 -6.480124622583389282e+00 -1.213431017473283191e-01
2.087603658437728882e-01 -6.459616810083389282e+00 -1.200918810442033191e-01
2.789507955312728882e-01 -6.439108997583389282e+00 -1.188406603410783191e-01
3.484088033437728882e-01 -6.418723255395889282e+00 -1.176046984270158191e-01
4.175006002187728882e-01 -6.398581653833389282e+00 -1.163839953020158191e-01
4.864703267812728882e-01 -6.378440052270889282e+00 -1.151480333879533191e-01
5.548297017812728882e-01 -6.358420521020889282e+00 -1.137594835832658191e-01
6.715880334377288818e-02 -6.500998646020889282e+00 -9.000154901295331911e-02
1.378375142812728882e-01 -6.480368763208389282e+00 -8.884188104420331911e-02
2.080279439687728882e-01 -6.459738880395889282e+00 -8.768221307545331911e-02
2.782183736562728882e-01 -6.439231067895889282e+00 -8.652254510670331911e-02
3.476763814687728882e-01 -6.418967396020889282e+00 -8.537813592701581911e-02
4.167681783437728882e-01 -6.398825794458389282e+00 -8.423372674732831911e-02
4.857379049062728882e-01 -6.378562122583389282e+00 -8.308931756764081911e-02
5.540972799062728882e-01 -6.358664661645889282e+00 -8.196016717701581911e-02
6.642638146877288818e-02 -6.501120716333389282e+00 -5.740877557545331911e-02
1.371050924062728882e-01 -6.480490833520889282e+00 -5.650850702076581911e-02
2.072955220937728882e-01 -6.459983021020889282e+00 -5.542513299732831911e-02
2.774859517812728882e-01 -6.439475208520889282e+00 -5.435701776295331911e-02
3.469439595937728882e-01 -6.419211536645889282e+00 -5.330416131764081911e-02
4.160357564687728882e-01 -6.398947864770889282e+00 -5.225130487232831911e-02
4.850054830312728882e-01 -6.378806263208389282e+00 -5.119844842701581911e-02
5.533648580312728882e-01 -6.358786731958389282e+00 -4.999300409107831911e-02
6.569395959377288818e-02 -6.501364856958389282e+00 -2.498384881764081911e-02
1.363726705312728882e-01 -6.480734974145889282e+00 -2.399202752857831911e-02
2.065631002187728882e-01 -6.460227161645889282e+00 -2.301546502857831911e-02
2.767535299062728882e-01 -6.439719349145889282e+00 -2.203890252857831911e-02
3.462115377187728882e-01 -6.419333606958389282e+00 -2.106234002857831911e-02
4.153033345937728882e-01 -6.399192005395889282e+00 -2.010103631764081911e-02
4.842730611562728882e-01 -6.379050403833389282e+00 -1.913973260670331911e-02
5.526324361562728882e-01 -6.359030872583389282e+00 -1.819368768482831911e-02
6.496153771877288818e-02 -6.501608997583389282e+00 7.608924619859180893e-03
1.356402486562728882e-01 -6.480979114770889282e+00 8.509193174546680893e-03
2.058306783437728882e-01 -6.460349231958389282e+00 9.226356260484180893e-03
2.760211080312728882e-01 -6.439841419458389282e+00 1.011136602610918089e-02
3.454791158437728882e-01 -6.419577747583389282e+00 1.099637579173418089e-02
4.145709127187728882e-01 -6.399436146020889282e+00 1.188138555735918089e-02
4.835406392812728882e-01 -6.379172474145889282e+00 1.291898321360918089e-02
5.519000142812728882e-01 -6.359275013208389282e+00 1.378873419017168089e-02
