-2.092928215861320496e+01 -6.831519111990928650e+00 -1.744625307619571686e-01
-2.115206047892570496e+01 -7.080664619803428650e+00 -1.766292788088321686e-01
-2.124361321330070496e+01 -7.293433174490928650e+00 -1.749508120119571686e-01
-2.172444817423820496e+01 -7.635962471365928650e+00 -1.841518618166446686e-01
-2.201827141642570496e+01 -7.925147041678428650e+00 -1.879207827150821686e-01
-2.214095208048820496e+01 -8.162940010428428650e+00 -1.867763735353946686e-01
-2.220638176798820496e+01 -8.383154854178428650e+00 -1.839992739260196686e-01
-1.261617180705070496e+01 -5.111548408865928650e+00 8.202245458960533142e-02
-2.166573235392570496e+01 -7.047095283865928650e+00 -9.659693017601966858e-02
-2.194881340861320496e+01 -7.321265205740928650e+00 -9.816858544945716858e-02
-2.223885247111320496e+01 -7.603857979178428650e+00 -1.002742983400821686e-01
-2.253975579142570496e+01 -7.897070869803428650e+00 -1.024715639650821686e-01
-2.281380364298820496e+01 -8.187109932303428650e+00 -1.038906313478946686e-01
-2.307894036173820496e+01 -8.481055244803428650e+00 -1.049434877932071686e-01
-2.332442376017570496e+01 -8.773413643240928650e+00 -1.054165102541446686e-01
-1.261641594767570496e+01 -5.109717354178428650e+00 1.388919614255428314e-01
-2.210603997111320496e+01 -7.174414619803428650e+00 -5.486700683832168579e-03
-2.240010735392570496e+01 -7.455908760428428650e+00 -6.051275879144668579e-03
-2.264351555705070496e+01 -7.727881416678428650e+00 -5.517218261957168579e-03
-2.296712395548820496e+01 -8.032080635428428650e+00 -6.310675293207168579e-03
-2.324166008830070496e+01 -8.326148018240928650e+00 -6.020758301019668579e-03
-2.352571770548820496e+01 -8.630469307303428650e+00 -5.746100097894668579e-03
-2.369771477580070496e+01 -8.901099190115928650e+00 -3.319952636957168579e-03
-1.261666008830070496e+01 -5.107764229178428650e+00 1.960819028317928314e-01
-2.256294915080070496e+01 -7.306616768240928650e+00 8.907201513648033142e-02
-2.270870110392570496e+01 -7.546851143240928650e+00 9.294774755835533142e-02
-2.285237786173820496e+01 -7.790015205740928650e+00 9.639623388648033142e-02
-2.340218254923820496e+01 -8.169409736990928650e+00 9.444310888648033142e-02
-2.364217278361320496e+01 -8.455908760428428650e+00 9.691503271460533142e-02
-2.376973626017570496e+01 -8.710303291678428650e+00 1.010349057614803314e-01
-2.427571770548820496e+01 -9.100562080740928650e+00 1.003635190427303314e-01
-1.261690422892570496e+01 -5.105933174490928650e+00 2.529514096677303314e-01
-2.277315422892570496e+01 -7.365332588553428650e+00 1.909244321286678314e-01
-2.289485833048820496e+01 -7.600073799490928650e+00 1.955020688474178314e-01
-2.356075188517570496e+01 -8.009497627615928650e+00 1.952426694333553314e-01
-2.371260735392570496e+01 -8.266211494803428650e+00 1.999118588864803314e-01
-2.384029290080070496e+01 -8.518164619803428650e+00 2.048862241208553314e-01
-2.428890129923820496e+01 -8.884253486990928650e+00 2.073123715817928314e-01
-2.467562004923820496e+01 -9.237280830740928650e+00 2.105014584958553314e-01
-1.261727043986320496e+01 -5.103980049490928650e+00 3.101413510739803314e-01
-2.295979973673820496e+01 -7.417090401053428650e+00 2.943485043942928314e-01
-2.338509270548820496e+01 -7.746314033865928650e+00 2.984531186521053314e-01
-2.378365227580070496e+01 -8.075781807303428650e+00 3.035342954099178314e-01
-2.391243645548820496e+01 -8.327124580740928650e+00 3.093936704099178314e-01
-2.408711907267570496e+01 -8.596533760428428650e+00 3.151614926755428314e-01
-2.474727532267570496e+01 -9.037207588553428650e+00 3.194492124021053314e-01
-2.489656731486320496e+01 -9.311011299490928650e+00 3.250797055661678314e-01
-1.261751458048820496e+01 -5.102148994803428650e+00 3.670108579099178314e-01
-2.319075676798820496e+01 -7.481909736990928650e+00 4.001071713864803314e-01
-2.377437493205070496e+01 -7.861426338553428650e+00 4.066684506833553314e-01
-2.398311516642570496e+01 -8.134741768240928650e+00 4.133823178708553314e-01
-2.411470696330070496e+01 -8.388770088553428650e+00 4.202182553708553314e-01
-2.470491692423820496e+01 -8.798315986990928650e+00 4.276645444333553314e-01
-2.496895501017570496e+01 -9.108984932303428650e+00 4.350650571286678314e-01
-2.512288567423820496e+01 -9.386450752615928650e+00 4.424350522458553314e-01
-1.261775872111320496e+01 -5.100195869803428650e+00 4.242007993161678314e-01
-2.370992180705070496e+01 -7.631934151053428650e+00 5.088718198239803314e-01
-2.401497551798820496e+01 -7.931006416678428650e+00 5.172641538083553314e-01
-2.418611809611320496e+01 -8.194678291678428650e+00 5.251529477536678314e-01
-2.463802239298820496e+01 -8.554175361990928650e+00 5.348117612302303314e-01
-2.497481438517570496e+01 -8.884009346365928650e+00 5.440585874021053314e-01
-2.519478508830070496e+01 -9.182227119803428650e+00 5.528476499021053314e-01
-2.579231926798820496e+01 -9.617529854178428650e+00 5.642764829099178314e-01
-1.261812493205070496e+01 -5.098364815115928650e+00 4.810855649411678314e-01
-2.394978997111320496e+01 -7.699194893240928650e+00 6.205356381833553314e-01
-2.425899407267570496e+01 -8.001685127615928650e+00 6.308048032224178314e-01
-2.449605461955070496e+01 -8.288184151053428650e+00 6.405704282224178314e-01
-2.490706536173820496e+01 -8.637183174490928650e+00 6.523807309567928314e-01
-2.525228020548820496e+01 -8.972266182303428650e+00 6.637637875974178314e-01
-2.566646477580070496e+01 -9.339331611990928650e+00 6.761997006833553314e-01
-1.202327629923820496e+01 -4.778296455740928650e+00 5.276553891599178314e-01
-1.236482903361320496e+01 -5.005103096365928650e+00 5.352847836911678314e-01
-1.021480461955070496e+01 -3.630835518240928650e+00 5.335300229489803314e-01
-1.044930168986320496e+01 -3.786231026053428650e+00 5.399997495114803314e-01
-1.069234368205070496e+01 -3.949072822928428650e+00 5.467593930661678314e-01
-1.095052239298820496e+01 -4.121924385428428650e+00 5.539462827146053314e-01
-1.122322747111320496e+01 -4.304663643240928650e+00 5.615451596677303314e-01
-1.151387688517570496e+01 -4.499365791678428650e+00 5.696323178708553314e-01
-1.182210442423820496e+01 -4.705786690115928650e+00 5.782077573239803314e-01
-1.215059563517570496e+01 -4.925879463553428650e+00 5.873630307614803314e-01
-1.010652825236320496e+01 -3.597266182303428650e+00 5.760104916989803314e-01
-1.036226555705070496e+01 -3.758032783865928650e+00 5.841129086911678314e-01
-1.062178704142570496e+01 -3.925269111990928650e+00 5.922153256833553314e-01
-1.089925286173820496e+01 -4.103735908865928650e+00 6.011417172849178314e-01
-1.119368645548820496e+01 -4.293066963553428650e+00 6.106174252927303314e-01
-1.150887200236320496e+01 -4.495825752615928650e+00 6.207492612302303314e-01
-1.184566399455070496e+01 -4.712256416678428650e+00 6.318576596677303314e-01
-1.220564934611320496e+01 -4.943823799490928650e+00 6.434390805661678314e-01
-1.022469231486320496e+01 -3.630591377615928650e+00 6.226413510739803314e-01
-1.048079583048820496e+01 -3.792578682303428650e+00 6.321323178708553314e-01
-1.074812981486320496e+01 -3.963232979178428650e+00 6.420963071286678314e-01
-1.103328606486320496e+01 -4.145361885428428650e+00 6.527316831052303314e-01
-1.133614251017570496e+01 -4.338721260428428650e+00 6.640231870114803314e-01
-1.162557122111320496e+01 -4.533911690115928650e+00 6.752078793942928314e-01
-1.192879387736320496e+01 -4.739478096365928650e+00 6.869876645505428314e-01
-1.225154778361320496e+01 -4.958472236990928650e+00 6.995151303708553314e-01
-1.022603508830070496e+01 -3.629492744803428650e+00 6.672885678708553314e-01
-1.045235344767570496e+01 -3.782324776053428650e+00 6.770236752927303314e-01
-1.068636223673820496e+01 -3.942236885428428650e+00 6.873996518552303314e-01
-1.093428704142570496e+01 -4.111670479178428650e+00 6.984012387692928314e-01
-1.119576165080070496e+01 -4.290381416678428650e+00 7.099979184567928314e-01
-1.147383782267570496e+01 -4.480322822928428650e+00 7.223422788083553314e-01
-1.176790520548820496e+01 -4.681250557303428650e+00 7.353885434567928314e-01
-1.207979485392570496e+01 -4.894629463553428650e+00 7.495181821286678314e-01
-1.010726067423820496e+01 -3.592871651053428650e+00 7.076938413083553314e-01
-1.033260247111320496e+01 -3.744360908865928650e+00 7.187869809567928314e-01
-1.058003899455070496e+01 -3.907324776053428650e+00 7.308414243161678314e-01
-1.087398430705070496e+01 -4.090552315115928650e+00 7.447269223630428314e-01
-1.118709465861320496e+01 -4.285742744803428650e+00 7.594974301755428314e-01
-1.152352043986320496e+01 -4.495459541678428650e+00 7.753970883786678314e-01
-1.188374993205070496e+01 -4.719946846365928650e+00 7.923953793942928314e-01
-1.227132317423820496e+01 -4.961646065115928650e+00 8.107059262692928314e-01
-1.018147942423820496e+01 -3.613257393240928650e+00 7.545688413083553314e-01
-1.045455071330070496e+01 -3.779883369803428650e+00 7.685153745114803314e-01
-1.073860833048820496e+01 -3.955298408865928650e+00 7.833469174802303314e-01
-1.104292961955070496e+01 -4.143286690115928650e+00 7.992465756833553314e-01
-2.732564446330070496e+01 -9.635107979178428650e+00 1.452048089355230331e+00
-2.759029290080070496e+01 -9.969946846365928650e+00 1.473288323730230331e+00
-2.839412590861320496e+01 -1.049899958074092865e+01 1.516669061034917831e+00
-2.874056145548820496e+01 -1.087985895574092865e+01 1.542715813964605331e+00
-2.564217278361320496e+01 -8.171484932303428650e+00 1.464575555175542831e+00
-2.630928704142570496e+01 -8.597510322928428650e+00 1.503561761230230331e+00
-2.658003899455070496e+01 -8.912940010428428650e+00 1.525748040527105331e+00
-2.732662102580070496e+01 -9.388525947928428650e+00 1.569327142089605331e+00
-2.758956047892570496e+01 -9.718115791678428650e+00 1.591925408691167831e+00
-2.839363762736320496e+01 -1.023911188542842865e+01 1.639242913573980331e+00
-2.873506829142570496e+01 -1.061350153386592865e+01 1.666189935058355331e+00
-2.941438958048820496e+01 -1.111716364324092865e+01 1.709006097167730331e+00
-2.631172844767570496e+01 -8.364722236990928650e+00 1.615240838378667831e+00
-2.658187004923820496e+01 -8.676123604178428650e+00 1.638876702636480331e+00
-2.713045403361320496e+01 -9.080786690115928650e+00 1.676337029784917831e+00
-2.758846184611320496e+01 -9.468359932303428650e+00 1.709234979003667831e+00
-2.813631340861320496e+01 -9.894751533865928650e+00 1.747671868652105331e+00
-2.873262688517570496e+01 -1.034982965886592865e+01 1.789816644042730331e+00
-2.930513665080070496e+01 -1.080820368230342865e+01 1.830588128417730331e+00
-2.992317864298820496e+01 -1.129502008855342865e+01 1.874228265136480331e+00
-2.658357903361320496e+01 -8.440527901053428650e+00 1.751395013183355331e+00
-2.705098626017570496e+01 -8.814307197928428650e+00 1.786566521972417831e+00
-2.758772942423820496e+01 -9.219458565115928650e+00 1.826575066894292831e+00
-2.813533684611320496e+01 -9.639990791678428650e+00 1.867743279784917831e+00
-2.875252434611320496e+01 -1.009409235417842865e+01 1.913183953613042831e+00
-2.945113274455070496e+01 -1.058969782292842865e+01 1.963751580566167831e+00
-3.016768547892570496e+01 -1.110495661199092865e+01 2.015951897948980331e+00
-3.022188469767570496e+01 -1.139731501042842865e+01 2.032721307128667831e+00
-1.261531731486320496e+01 -5.115698799490928650e+00 -3.231165185570716858e-02
-1.382015129923820496e+01 -5.673315986990928650e+00 -7.444116845726966858e-02
-1.376033684611320496e+01 -5.772437080740928650e+00 -7.006189599633216858e-02
-1.370040032267570496e+01 -5.871680244803428650e+00 -6.566736474633216858e-02
-1.364095208048820496e+01 -5.970313057303428650e+00 -6.131860986351966858e-02
-1.360799309611320496e+01 -6.079932197928428650e+00 -5.791589990258216858e-02
-1.358016106486320496e+01 -6.191382393240928650e+00 -5.471155419945716858e-02
-1.354146477580070496e+01 -6.298560127615928650e+00 -5.143091455101966858e-02
-1.261556145548820496e+01 -5.113745674490928650e+00 2.486303076148033142e-02
-2.170369622111320496e+01 -8.599585518240928650e+00 -2.635128237307071686e-01
-1.659419915080070496e+01 -6.849829658865928650e+00 -9.726831689476966858e-02
-1.490291497111320496e+01 -6.339087471365928650e+00 -4.052088037133216858e-02
-1.494124504923820496e+01 -6.488379463553428650e+00 -3.910181298851966858e-02
-1.497115227580070496e+01 -6.636328682303428650e+00 -3.774378076195716858e-02
-1.501033684611320496e+01 -6.789160713553428650e+00 -3.627893701195716858e-02
-1.504988762736320496e+01 -6.943823799490928650e+00 -3.479883447289466858e-02
-1.261580559611320496e+01 -5.111914619803428650e+00 8.203771337866783142e-02
-2.293318840861320496e+01 -9.052466377615928650e+00 -1.947719790041446686e-01
-2.296736809611320496e+01 -9.273657783865928650e+00 -1.912471987307071686e-01
-2.300191399455070496e+01 -9.497778877615928650e+00 -1.876919008791446686e-01
-2.368318840861320496e+01 -9.981909736990928650e+00 -2.011959291994571686e-01
-2.372505852580070496e+01 -1.021933649480342865e+01 -1.975948549807071686e-01
-1.496187493205070496e+01 -6.766333565115928650e+00 3.525426611304283142e-02
-1.723226067423820496e+01 -7.877783760428428650e+00 -2.045557275414466858e-02
-1.261617180705070496e+01 -5.109961494803428650e+00 1.389072202146053314e-01
-2.384041497111320496e+01 -9.385474190115928650e+00 -1.068355776369571686e-01
-2.411946770548820496e+01 -9.708350166678428650e+00 -1.079647280275821686e-01
-2.437496086955070496e+01 -1.002963922917842865e+01 -1.084072329103946686e-01
-2.480562493205070496e+01 -1.042661188542842865e+01 -1.124965883791446686e-01
-2.527254387736320496e+01 -1.084897516667842865e+01 -1.171047426760196686e-01
-1.495259758830070496e+01 -6.759985908865928650e+00 1.054752133786678314e-01
-2.526778313517570496e+01 -1.132138727605342865e+01 -1.067440249025821686e-01
-1.261641594767570496e+01 -5.108130440115928650e+00 1.960971616208553314e-01
-2.444332024455070496e+01 -9.605078682303428650e+00 -5.349371582269668579e-03
-2.468245598673820496e+01 -9.918555244803428650e+00 -3.915045410394668579e-03
-2.525948235392570496e+01 -1.037058161199092865e+01 -8.004400879144668579e-03
-2.563985344767570496e+01 -1.075583551824092865e+01 -8.553717285394668579e-03
-2.620284172892570496e+01 -1.122544001042842865e+01 -1.183435693383216858e-02
-1.494332024455070496e+01 -6.753638252615928650e+00 1.752383969724178314e-01
-2.718196770548820496e+01 -1.213779352605342865e+01 -1.517603173851966858e-02
-1.261666008830070496e+01 -5.106177315115928650e+00 2.529666684567928314e-01
-2.475520989298820496e+01 -9.716773018240928650e+00 1.062534116208553314e-01
-2.551131340861320496e+01 -1.022959040105342865e+01 1.030490659177303314e-01
-2.573055168986320496e+01 -1.055002497136592865e+01 1.066501401364803314e-01
-2.653401848673820496e+01 -1.110861872136592865e+01 1.035983823239803314e-01
-2.673885247111320496e+01 -1.144028376042842865e+01 1.078098081052303314e-01
-1.493392083048820496e+01 -6.747290596365928650e+00 2.452762387692928314e-01
-2.773348137736320496e+01 -1.236960504949092865e+01 1.095950864255428314e-01
-1.261702629923820496e+01 -5.104346260428428650e+00 3.101566098630428314e-01
-2.566353508830070496e+01 -1.004929254949092865e+01 2.158267758786678314e-01
-2.581941887736320496e+01 -1.034250544011592865e+01 2.212741635739803314e-01
-2.638655754923820496e+01 -1.080136774480342865e+01 2.240054868161678314e-01
-2.684224602580070496e+01 -1.122714899480342865e+01 2.278201840817928314e-01
-2.699751946330070496e+01 -1.154160211980342865e+01 2.338626645505428314e-01
-1.492464348673820496e+01 -6.740942940115928650e+00 3.148410581052303314e-01
-2.798848626017570496e+01 -1.247409723699092865e+01 2.423312924802303314e-01
-1.261727043986320496e+01 -5.102393135428428650e+00 3.670261166989803314e-01
-2.590889641642570496e+01 -1.013596247136592865e+01 3.359897397458553314e-01
-2.607015129923820496e+01 -1.043344782292842865e+01 3.432986997067928314e-01
-2.694759270548820496e+01 -1.101535700261592865e+01 3.487003110349178314e-01
-2.710347649455070496e+01 -1.132700251042842865e+01 3.558414243161678314e-01
-2.790694329142570496e+01 -1.190866754949092865e+01 3.622501157224178314e-01
-1.491548821330070496e+01 -6.734595283865928650e+00 3.843143247067928314e-01
-2.878194329142570496e+01 -1.280905817449092865e+01 3.764102719724178314e-01
-1.261751458048820496e+01 -5.100562080740928650e+00 4.242160581052303314e-01
-2.616060540080070496e+01 -1.022482965886592865e+01 4.592044614255428314e-01
-2.684200188517570496e+01 -1.072226618230342865e+01 4.684970639646053314e-01
-2.720870110392570496e+01 -1.111252497136592865e+01 4.773471616208553314e-01
-2.779451653361320496e+01 -1.159799860417842865e+01 4.871585629880428314e-01
-2.823323723673820496e+01 -1.203732965886592865e+01 4.968784116208553314e-01
-1.491512200236320496e+01 -6.732031807303428650e+00 4.541080258786678314e-01
-2.915584465861320496e+01 -1.296420954167842865e+01 5.174167416989803314e-01
-1.261788079142570496e+01 -5.098608955740928650e+00 4.811008237302303314e-01
-2.672481438517570496e+01 -1.042929743230342865e+01 5.864780209958553314e-01
-2.720259758830070496e+01 -1.085471247136592865e+01 5.981509946286678314e-01
-2.768538567423820496e+01 -1.129355524480342865e+01 6.102512143552303314e-01
-2.815425774455070496e+01 -1.173679254949092865e+01 6.225650571286678314e-01
-2.862056633830070496e+01 -1.219077204167842865e+01 6.352451108396053314e-01
-1.491548821330070496e+01 -6.729712471365928650e+00 5.235202573239803314e-01
-2.945784661173820496e+01 -1.308847711980342865e+01 6.607578061521053314e-01
-1.236739251017570496e+01 -5.006323799490928650e+00 5.353305600583553314e-01
-1.272872063517570496e+01 -5.247412666678428650e+00 5.434482358396053314e-01
-1.308919426798820496e+01 -5.495825752615928650e+00 5.518100522458553314e-01
-1.347640129923820496e+01 -5.762549385428428650e+00 5.608127377927303314e-01
-1.389046379923820496e+01 -6.047705635428428650e+00 5.704257749021053314e-01
-1.433736321330070496e+01 -6.355566963553428650e+00 5.808017514646053314e-01
-1.481770989298820496e+01 -6.686377510428428650e+00 5.919559262692928314e-01
-1.530098626017570496e+01 -7.028784736990928650e+00 6.035068295896053314e-01
-1.215303704142570496e+01 -4.927100166678428650e+00 5.874088071286678314e-01
-1.250411126017570496e+01 -5.162451729178428650e+00 5.972354672849178314e-01
-1.286189934611320496e+01 -5.407568916678428650e+00 6.074283383786678314e-01
-1.323384758830070496e+01 -5.665991768240928650e+00 6.181705258786678314e-01
-1.363094231486320496e+01 -5.942114815115928650e+00 6.296451352536678314e-01
-1.409493157267570496e+01 -6.254370674490928650e+00 6.426608823239803314e-01
-1.459578606486320496e+01 -6.591284736990928650e+00 6.567142270505428314e-01
-1.512203118205070496e+01 -6.949805244803428650e+00 6.716525815427303314e-01
-1.220833489298820496e+01 -4.945166572928428650e+00 6.435153745114803314e-01
-1.259578606486320496e+01 -5.194312080740928650e+00 6.560428403317928314e-01
-1.298238274455070496e+01 -5.451148018240928650e+00 6.685550473630428314e-01
-1.339449211955070496e+01 -5.726294502615928650e+00 6.822574399411678314e-01
-1.383711907267570496e+01 -6.021948799490928650e+00 6.969974301755428314e-01
-1.431734368205070496e+01 -6.342749580740928650e+00 7.129733823239803314e-01
-1.480159661173820496e+01 -6.674902901053428650e+00 7.297885678708553314e-01
-1.526985833048820496e+01 -7.010474190115928650e+00 7.462528012692928314e-01
-1.225398918986320496e+01 -4.959692940115928650e+00 6.995914243161678314e-01
-1.259822747111320496e+01 -5.193213447928428650e+00 7.130649350583553314e-01
-1.294270989298820496e+01 -5.434058174490928650e+00 7.268283627927303314e-01
-1.330647942423820496e+01 -5.690039619803428650e+00 7.414157651364803314e-01
-1.369417473673820496e+01 -5.962866768240928650e+00 7.569797299802303314e-01
-1.411116692423820496e+01 -6.256323799490928650e+00 7.737033627927303314e-01
-1.455782219767570496e+01 -6.570654854178428650e+00 7.916324399411678314e-01
-1.507955071330070496e+01 -6.926733955740928650e+00 8.121249936521053314e-01
-1.208211418986320496e+01 -4.895850166678428650e+00 7.496097348630428314e-01
-1.246138665080070496e+01 -5.140601143240928650e+00 7.656924985349178314e-01
-1.287496086955070496e+01 -5.406348213553428650e+00 7.834842465817928314e-01
-1.330525872111320496e+01 -5.687354072928428650e+00 8.021915219724178314e-01
-1.376912590861320496e+01 -5.990454658865928650e+00 8.223636411130428314e-01
-1.427437493205070496e+01 -6.320532783865928650e+00 8.443362973630428314e-01
-1.482283684611320496e+01 -6.678809151053428650e+00 8.681857846677303314e-01
-3.154585930705070496e+01 -1.395493219792842865e+01 1.444586541503667831e+00
-1.227425286173820496e+01 -4.963110908865928650e+00 8.108279965817928314e-01
-1.269380852580070496e+01 -5.224463447928428650e+00 8.307864926755428314e-01
-2.946651360392570496e+01 -1.168442438542842865e+01 1.456198479980230331e+00
-3.008626458048820496e+01 -1.219748590886592865e+01 1.491171624511480331e+00
-3.053438469767570496e+01 -1.265488336980342865e+01 1.520193841308355331e+00
-3.135091301798820496e+01 -1.327390192449092865e+01 1.563818719238042831e+00
-2.992928215861320496e+01 -1.297629450261592865e+01 1.521597649902105331e+00
-3.166048333048820496e+01 -1.399851129949092865e+01 1.601523187011480331e+00
-2.874446770548820496e+01 -1.088217829167842865e+01 1.542914178222417831e+00
-2.946138665080070496e+01 -1.140793512761592865e+01 1.583655145019292831e+00
-2.993746086955070496e+01 -1.185776422917842865e+01 1.615713860839605331e+00
-3.056160637736320496e+01 -1.237680719792842865e+01 1.654577996581792831e+00
-3.094991204142570496e+01 -1.281491754949092865e+01 1.683935906738042831e+00
-3.064522454142570496e+01 -1.298129938542842865e+01 1.683813836425542831e+00
-2.994747063517570496e+01 -1.297885797917842865e+01 1.666327264159917831e+00
-2.977181145548820496e+01 -1.318735407292842865e+01 1.672079827636480331e+00
-2.942281243205070496e+01 -1.112119196355342865e+01 1.709433343261480331e+00
-2.992842766642570496e+01 -1.157517145574092865e+01 1.745367791503667831e+00
-3.058956047892570496e+01 -1.209934137761592865e+01 1.789099480956792831e+00
-3.123299309611320496e+01 -1.263205622136592865e+01 1.832709100097417831e+00
-3.084737297892570496e+01 -1.276901911199092865e+01 1.827841546386480331e+00
-3.162874504923820496e+01 -1.337644098699092865e+01 1.878958489745855331e+00
-3.013863274455070496e+01 -1.305344294011592865e+01 1.820395257323980331e+00
-2.978999993205070496e+01 -1.319003961980342865e+01 1.816580560058355331e+00
-2.992854973673820496e+01 -1.129794977605342865e+01 1.874548699706792831e+00
-3.073995110392570496e+01 -1.186936090886592865e+01 1.929327752441167831e+00
-3.146187493205070496e+01 -1.242392633855342865e+01 1.980292107909917831e+00
-3.114083001017570496e+01 -1.259104059636592865e+01 1.976813104003667831e+00
-3.123824211955070496e+01 -1.291904352605342865e+01 1.995917107909917831e+00
-3.157320305705070496e+01 -1.334848688542842865e+01 2.028677728027105331e+00
-3.009688469767570496e+01 -1.303085993230342865e+01 1.963888909667730331e+00
-3.292391106486320496e+01 -1.452085016667842865e+01 2.130545403808355331e+00
-3.022371575236320496e+01 -1.139890192449092865e+01 2.032873895019292831e+00
-3.169380852580070496e+01 -1.221555231511592865e+01 2.128439690917730331e+00
-3.190352532267570496e+01 -1.258566950261592865e+01 2.154852654784917831e+00
-3.292378899455070496e+01 -1.327646540105342865e+01 2.227911736816167831e+00
-3.149495598673820496e+01 -1.301560114324092865e+01 2.160910394042730331e+00
-2.977181145548820496e+01 -1.261057184636592865e+01 2.075598504394292831e+00
-3.249397942423820496e+01 -1.402377985417842865e+01 2.249029900878667831e+00
-3.194673821330070496e+01 -1.409885309636592865e+01 2.232947137206792831e+00
-1.354134270548820496e+01 -6.298926338553428650e+00 -5.141565576195716858e-02
-1.351045891642570496e+01 -6.409522041678428650e+00 -4.804346337914466858e-02
-1.347261711955070496e+01 -6.517432197928428650e+00 -4.474756494164466858e-02
-1.343465325236320496e+01 -6.625830635428428650e+00 -4.145166650414466858e-02
-1.339668938517570496e+01 -6.733984932303428650e+00 -3.814050927758216858e-02
-1.335860344767570496e+01 -6.842749580740928650e+00 -3.482935205101966858e-02
-1.332051751017570496e+01 -6.951270088553428650e+00 -3.151819482445716858e-02
-1.327559563517570496e+01 -7.056616768240928650e+00 -2.829859033226966858e-02
-1.505049797892570496e+01 -6.944556221365928650e+00 -3.479883447289466858e-02
-1.505110833048820496e+01 -7.083838447928428650e+00 -3.238794580101966858e-02
-1.503560540080070496e+01 -7.217017158865928650e+00 -2.945825830101966858e-02
-1.502779290080070496e+01 -7.354956611990928650e+00 -2.636072412133216858e-02
-1.501216790080070496e+01 -7.489722236990928650e+00 -2.340051904320716858e-02
-1.499227043986320496e+01 -7.623633369803428650e+00 -2.065393701195716858e-02
-1.500105950236320496e+01 -7.771948799490928650e+00 -1.839563623070716858e-02
-1.500997063517570496e+01 -7.921484932303428650e+00 -1.612207666039466858e-02
-1.723055168986320496e+01 -7.877539619803428650e+00 -2.039453759789466858e-02
-1.700984856486320496e+01 -7.941138252615928650e+00 -1.160547509789466858e-02
-1.682478997111320496e+01 -8.017676338553428650e+00 -3.792975097894668579e-03
-1.686775872111320496e+01 -8.196875557303428650e+00 -1.778814941644668579e-03
-1.686165520548820496e+01 -8.354590401053428650e+00 1.501824706792831421e-03
-1.680525872111320496e+01 -8.489966377615928650e+00 6.064202636480331421e-03
-1.674910637736320496e+01 -8.624976143240928650e+00 1.061132177710533142e-02
-1.669283196330070496e+01 -8.759985908865928650e+00 1.515844091773033142e-02
-2.526717278361320496e+01 -1.132199762761592865e+01 -1.066982485353946686e-01
-2.645882317423820496e+01 -1.208457086980342865e+01 -1.254818178713321686e-01
-2.628926751017570496e+01 -1.226181696355342865e+01 -1.166012026369571686e-01
-1.722359368205070496e+01 -8.357275947928428650e+00 7.176854833960533142e-02
-1.977242180705070496e+01 -9.716528877615928650e+00 2.440526708960533142e-02
-1.958711907267570496e+01 -9.819678291678428650e+00 3.217199072241783142e-02
-1.942452141642570496e+01 -9.931128486990928650e+00 3.943517431616783142e-02
-1.929830071330070496e+01 -1.005881403386592865e+01 4.544713720679283142e-02
-2.718501946330070496e+01 -1.213999079167842865e+01 -1.519129052758216858e-02
-2.761592766642570496e+01 -1.258762262761592865e+01 -1.589319482445716858e-02
-2.798995110392570496e+01 -1.302011774480342865e+01 -1.546594873070716858e-02
-1.722395989298820496e+01 -8.354590401053428650e+00 1.538455747067928314e-01
-2.867232415080070496e+01 -1.388413141667842865e+01 -1.293298974633216858e-02
-2.916658684611320496e+01 -1.440341852605342865e+01 -1.358911767601966858e-02
-2.955757805705070496e+01 -1.488364313542842865e+01 -1.249048486351966858e-02
-2.992232415080070496e+01 -1.536106012761592865e+01 -1.078150048851966858e-02
-2.773445793986320496e+01 -1.237082575261592865e+01 1.096103452146053314e-01
-2.786763665080070496e+01 -1.269321344792842865e+01 1.155917905271053314e-01
-2.866048333048820496e+01 -1.331589411199092865e+01 1.141574643552303314e-01
-1.722444817423820496e+01 -8.351904854178428650e+00 2.363803647458553314e-01
-2.956563469767570496e+01 -1.429758356511592865e+01 1.193607114255428314e-01
-2.973409172892570496e+01 -1.466989801824092865e+01 1.251132749021053314e-01
-3.030770012736320496e+01 -1.524521540105342865e+01 1.272342465817928314e-01
-3.066316887736320496e+01 -1.572556208074092865e+01 1.308658383786678314e-01
-2.798946282267570496e+01 -1.247544001042842865e+01 2.423465512692928314e-01
-2.878645989298820496e+01 -1.309116266667842865e+01 2.451541684567928314e-01
-2.892757317423820496e+01 -1.343076227605342865e+01 2.519138120114803314e-01
-1.722481438517570496e+01 -8.349097236990928650e+00 3.184573911130428314e-01
-2.986922356486320496e+01 -1.443466852605342865e+01 2.627475522458553314e-01
-3.062935540080070496e+01 -1.509311579167842865e+01 2.673557065427303314e-01
-3.078279778361320496e+01 -1.547202204167842865e+01 2.749698422849178314e-01
-3.131929680705070496e+01 -1.604758356511592865e+01 2.812412045896053314e-01
-2.878536126017570496e+01 -1.281149958074092865e+01 3.764407895505428314e-01
-2.905489251017570496e+01 -1.320383356511592865e+01 3.842685483396053314e-01
-2.971919915080070496e+01 -1.378037165105342865e+01 3.929813168942928314e-01
-1.722518059611320496e+01 -8.346411690115928650e+00 4.009769223630428314e-01
-3.062789055705070496e+01 -1.478464411199092865e+01 4.101321958005428314e-01
-3.090242668986320496e+01 -1.521848200261592865e+01 4.191196225583553314e-01
-3.115059563517570496e+01 -1.564633844792842865e+01 4.274509213864803314e-01
-3.177144524455070496e+01 -1.626767633855342865e+01 4.372623227536678314e-01
-2.915938469767570496e+01 -1.296665094792842865e+01 5.174625180661678314e-01
-2.963130852580070496e+01 -1.345127008855342865e+01 5.282047055661678314e-01
-3.010311028361320496e+01 -1.394724176824092865e+01 5.392825864255428314e-01
-1.722554680705070496e+01 -8.343726143240928650e+00 4.830692075192928314e-01
-3.098836418986320496e+01 -1.494797419011592865e+01 5.622623227536678314e-01
-3.117916008830070496e+01 -1.534543512761592865e+01 5.728671811521053314e-01
-3.188082024455070496e+01 -1.599741266667842865e+01 5.866916440427303314e-01
-3.206294915080070496e+01 -1.640744684636592865e+01 5.977542661130428314e-01
-2.945906731486320496e+01 -1.308994196355342865e+01 6.608035825192928314e-01
-3.001143547892570496e+01 -1.361264704167842865e+01 6.752841733396053314e-01
-3.041976067423820496e+01 -1.408383844792842865e+01 6.887882016599178314e-01
-1.722591301798820496e+01 -8.340918526053428650e+00 5.651614926755428314e-01
-3.129793450236320496e+01 -1.508737848699092865e+01 7.175052426755428314e-01
-3.180757805705070496e+01 -1.564035700261592865e+01 7.332065366208553314e-01
-3.217732903361320496e+01 -1.613669489324092865e+01 7.477329038083553314e-01
-3.261067864298820496e+01 -1.667478083074092865e+01 7.633273862302303314e-01
-1.530440422892570496e+01 -7.030737861990928650e+00 6.035678647458553314e-01
-1.580232903361320496e+01 -7.390112861990928650e+00 6.157291196286678314e-01
-1.634029290080070496e+01 -7.778296455740928650e+00 6.288516782224178314e-01
-1.692525383830070496e+01 -8.200537666678428650e+00 6.431186459958553314e-01
-1.752596184611320496e+01 -8.642432197928428650e+00 6.580722592771053314e-01
-1.809895989298820496e+01 -9.085181221365928650e+00 6.730716489255428314e-01
-1.871553704142570496e+01 -9.561743721365928650e+00 6.892154477536678314e-01
-1.938350579142570496e+01 -1.007785700261592865e+01 7.067172788083553314e-01
-1.512569329142570496e+01 -6.951880440115928650e+00 6.717288754880428314e-01
-1.564632317423820496e+01 -7.319312080740928650e+00 6.870334409177303314e-01
-1.621114251017570496e+01 -7.717871651053428650e+00 7.036044858396053314e-01
-1.682820793986320496e+01 -8.153296455740928650e+00 7.217319272458553314e-01
-1.747359368205070496e+01 -8.614966377615928650e+00 7.409122250974178314e-01
-1.807564446330070496e+01 -9.071021065115928650e+00 7.597415708005428314e-01
-1.872615715861320496e+01 -9.563696846365928650e+00 7.800815366208553314e-01
-1.943367668986320496e+01 -1.009946344792842865e+01 8.022067807614803314e-01
-1.527327629923820496e+01 -7.012427315115928650e+00 7.463596127927303314e-01
-1.575252434611320496e+01 -7.363135322928428650e+00 7.635715268552303314e-01
-1.627046868205070496e+01 -7.741675361990928650e+00 7.817600034177303314e-01
-1.683077141642570496e+01 -8.151587471365928650e+00 8.018710874021053314e-01
-1.742195793986320496e+01 -8.587866768240928650e+00 8.232333920896053314e-01
-1.797090813517570496e+01 -9.017920479178428650e+00 8.440463803708553314e-01
-1.855855461955070496e+01 -9.478735908865928650e+00 8.668124936521053314e-01
-1.921541497111320496e+01 -9.987402901053428650e+00 8.915012143552303314e-01
-1.508333489298820496e+01 -6.928809151053428650e+00 8.122470639646053314e-01
-1.563057610392570496e+01 -7.307227119803428650e+00 8.340671323239803314e-01
-1.622652336955070496e+01 -7.719336494803428650e+00 8.578250668942928314e-01
-1.688033196330070496e+01 -8.171484932303428650e+00 8.838870786130428314e-01
-1.755281731486320496e+01 -8.646094307303428650e+00 9.110934995114803314e-01
-1.819026848673820496e+01 -9.119482979178428650e+00 9.378268979489803314e-01
-3.188057610392570496e+01 -1.596945856511592865e+01 1.377035882323980331e+00
-3.191878411173820496e+01 -1.630747126042842865e+01 1.391241814941167831e+00
-3.154183098673820496e+01 -1.395432184636592865e+01 1.444494988769292831e+00
-3.063704583048820496e+01 -1.386020563542842865e+01 1.425314690917730331e+00
-3.254695793986320496e+01 -1.500803278386592865e+01 1.504568841308355331e+00
-3.267537590861320496e+01 -1.538376520574092865e+01 1.522635247558355331e+00
-3.193001458048820496e+01 -1.535532282292842865e+01 1.509588982909917831e+00
-3.240486809611320496e+01 -1.589743708074092865e+01 1.540243890136480331e+00
-3.183724114298820496e+01 -1.594272516667842865e+01 1.533163812011480331e+00
-3.507369133830070496e+01 -1.787155817449092865e+01 1.667731072753667831e+00
-3.166072747111320496e+01 -1.399960993230342865e+01 1.601584222167730331e+00
-3.097054192423820496e+01 -1.400058649480342865e+01 1.587775018066167831e+00
-3.219661614298820496e+01 -1.484592340886592865e+01 1.650061395019292831e+00
-3.245821282267570496e+01 -1.527890680730342865e+01 1.674612786620855331e+00
-3.366841790080070496e+01 -1.616110895574092865e+01 1.738211419433355331e+00
-3.148482415080070496e+01 -1.545310114324092865e+01 1.662848260253667831e+00
-3.524239251017570496e+01 -1.759580133855342865e+01 1.833761956542730331e+00
-3.270113274455070496e+01 -1.668527887761592865e+01 1.742178704589605331e+00
-2.977107903361320496e+01 -1.318796442449092865e+01 1.672095086425542831e+00
-3.275447747111320496e+01 -1.477402399480342865e+01 1.817374017089605331e+00
-3.351717278361320496e+01 -1.543002985417842865e+01 1.866354729980230331e+00
-3.189131829142570496e+01 -1.501450251042842865e+01 1.807638909667730331e+00
-3.371614739298820496e+01 -1.617746637761592865e+01 1.905951287597417831e+00
-3.184187981486320496e+01 -1.561777399480342865e+01 1.834509637206792831e+00
-3.247151848673820496e+01 -1.624045465886592865e+01 1.878714349120855331e+00
-3.234969231486320496e+01 -1.650473688542842865e+01 1.888922479003667831e+00
-2.978914543986320496e+01 -1.319064997136592865e+01 1.816595818847417831e+00
-3.276448723673820496e+01 -1.477268122136592865e+01 1.977789666503667831e+00
-3.351717278361320496e+01 -1.542417047917842865e+01 2.030737664550542831e+00
-3.176290032267570496e+01 -1.495041559636592865e+01 1.957937981933355331e+00
-3.191866204142570496e+01 -1.533335016667842865e+01 1.980917718261480331e+00
-3.178194329142570496e+01 -1.558359430730342865e+01 1.989157464355230331e+00
-3.231087395548820496e+01 -1.615647028386592865e+01 2.031943108886480331e+00
-3.840328118205070496e+01 -1.950791071355342865e+01 2.367422845214605331e+00
-3.292049309611320496e+01 -1.452048395574092865e+01 2.130408074706792831e+00
-3.277449700236320496e+01 -1.477146051824092865e+01 2.138296868652105331e+00
-2.964375969767570496e+01 -1.369064997136592865e+01 1.981756951659917831e+00
-3.270992180705070496e+01 -1.537680719792842865e+01 2.165838982909917831e+00
-3.188594719767570496e+01 -1.531259821355342865e+01 2.135763909667730331e+00
-3.773067376017570496e+01 -1.841159723699092865e+01 2.483313348144292831e+00
-3.227107903361320496e+01 -1.613144586980342865e+01 2.190405633300542831e+00
-3.944881340861320496e+01 -2.002060602605342865e+01 2.620398309081792831e+00
-3.194734856486320496e+01 -1.410019586980342865e+01 2.233038689941167831e+00
-3.278438469767570496e+01 -1.477023981511592865e+01 2.298041131347417831e+00
-2.951070305705070496e+01 -1.362619684636592865e+01 2.117819573730230331e+00
-3.273018547892570496e+01 -1.538034723699092865e+01 2.327978875488042831e+00
-3.805440422892570496e+01 -1.818137262761592865e+01 2.670279290527105331e+00
-3.197347161173820496e+01 -1.566367243230342865e+01 2.314978387206792831e+00
-3.198006340861320496e+01 -1.598422907292842865e+01 2.331991937011480331e+00
-3.192818352580070496e+01 -1.627829645574092865e+01 2.346319939941167831e+00
-1.327559563517570496e+01 -7.057105049490928650e+00 -2.829859033226966858e-02
-1.323836418986320496e+01 -7.166480049490928650e+00 -2.495691552758216858e-02
-1.319429680705070496e+01 -7.272681221365928650e+00 -2.170679345726966858e-02
-1.314998528361320496e+01 -7.379370674490928650e+00 -1.845667138695716858e-02
-1.310567376017570496e+01 -7.485938057303428650e+00 -1.520654931664466858e-02
-1.306124016642570496e+01 -7.592993721365928650e+00 -1.194116845726966858e-02
-1.301692864298820496e+01 -7.699927315115928650e+00 -8.675787597894668579e-03
-1.296578118205070496e+01 -7.803198799490928650e+00 -5.517218261957168579e-03
-1.501033684611320496e+01 -7.922217354178428650e+00 -1.612207666039466858e-02
-1.498641106486320496e+01 -8.056494697928428650e+00 -1.314661279320716858e-02
-1.493746086955070496e+01 -8.178442940115928650e+00 -9.423468261957168579e-03
-1.489498040080070496e+01 -8.304663643240928650e+00 -5.501959472894668579e-03
-1.481453606486320496e+01 -8.410132393240928650e+00 -8.632875978946685791e-04
-1.472481438517570496e+01 -8.510718330740928650e+00 3.653313964605331421e-03
-1.464485833048820496e+01 -8.615576729178428650e+00 8.276727050542831421e-03
-1.456978508830070496e+01 -8.722998604178428650e+00 1.273229345679283142e-02
-1.669283196330070496e+01 -8.760474190115928650e+00 1.517369970679283142e-02
-1.662740227580070496e+01 -8.891089424490928650e+00 1.965978369116783142e-02
-1.657906243205070496e+01 -9.030615791678428650e+00 2.373388037085533142e-02
-1.655928704142570496e+01 -9.186377510428428650e+00 2.713659033179283142e-02
-1.653951165080070496e+01 -9.342505440115928650e+00 3.056981787085533142e-02
-1.651949211955070496e+01 -9.500220283865928650e+00 3.401830419898033142e-02
-1.649935051798820496e+01 -9.658423408865928650e+00 3.748204931616783142e-02
-1.647920891642570496e+01 -9.817603096365928650e+00 4.096105322241783142e-02
-1.929854485392570496e+01 -1.005954645574092865e+01 4.546239599585533142e-02
-1.926216790080070496e+01 -1.023203180730342865e+01 5.045202001929283142e-02
-1.921382805705070496e+01 -1.039914606511592865e+01 5.518224462866783142e-02
-1.916414543986320496e+01 -1.056699274480342865e+01 5.995824560523033142e-02
-1.907308098673820496e+01 -1.071237848699092865e+01 6.551244482398033142e-02
-1.898177239298820496e+01 -1.085813044011592865e+01 7.106664404273033142e-02
-1.889095208048820496e+01 -1.100314997136592865e+01 7.660558447241783142e-02
-1.885738274455070496e+01 -1.118088434636592865e+01 8.060338720679283142e-02
-2.992439934611320496e+01 -1.536313532292842865e+01 -1.078150048851966858e-02
-2.235347649455070496e+01 -1.180478571355342865e+01 1.015231870114803314e-01
-2.241097161173820496e+01 -1.205942438542842865e+01 1.056735776364803314e-01
-2.164424797892570496e+01 -1.188034723699092865e+01 1.210391782224178314e-01
-2.266927239298820496e+01 -1.265683649480342865e+01 1.123264096677303314e-01
-2.280574700236320496e+01 -1.296726129949092865e+01 1.157291196286678314e-01
-2.277303215861320496e+01 -1.318662165105342865e+01 1.213748715817928314e-01
-2.271907708048820496e+01 -1.339523981511592865e+01 1.273257993161678314e-01
-3.066451165080070496e+01 -1.572727106511592865e+01 1.308810971677303314e-01
-3.107051751017570496e+01 -1.624338434636592865e+01 1.355960629880428314e-01
-3.144905754923820496e+01 -1.675644586980342865e+01 1.400211118161678314e-01
-2.163082024455070496e+01 -1.186948297917842865e+01 2.291324399411678314e-01
-3.188765618205070496e+01 -1.764401911199092865e+01 1.522281430661678314e-01
-3.202730461955070496e+01 -1.805576227605342865e+01 1.592319272458553314e-01
-3.201863762736320496e+01 -1.838901422917842865e+01 1.674869321286678314e-01
-3.217085930705070496e+01 -1.881735895574092865e+01 1.737430356442928314e-01
-3.132234856486320496e+01 -1.605026911199092865e+01 2.812564633786678314e-01
-3.165914055705070496e+01 -1.653781794011592865e+01 2.883518002927303314e-01
-3.196395012736320496e+01 -1.701865290105342865e+01 2.958286069333553314e-01
-2.162862297892570496e+01 -1.186447809636592865e+01 3.364627622067928314e-01
-3.271346184611320496e+01 -1.808518122136592865e+01 3.111331723630428314e-01
-3.290975090861320496e+01 -1.853720758855342865e+01 3.196933530271053314e-01
-3.308870598673820496e+01 -1.898557184636592865e+01 3.284518979489803314e-01
-3.316561028361320496e+01 -1.938242243230342865e+01 3.376071713864803314e-01
-3.177315422892570496e+01 -1.626962946355342865e+01 4.373080991208553314e-01
-3.194820305705070496e+01 -1.667941950261592865e+01 4.467075131833553314e-01
-3.248702141642570496e+01 -1.728488825261592865e+01 4.578311704099178314e-01
-2.162911126017570496e+01 -1.186093805730342865e+01 4.443576596677303314e-01
-3.319539543986320496e+01 -1.834006403386592865e+01 4.787204526364803314e-01
-3.360445305705070496e+01 -1.891464899480342865e+01 4.897830747067928314e-01
-3.396407219767570496e+01 -1.947214411199092865e+01 5.000827573239803314e-01
-3.426814934611320496e+01 -2.000888727605342865e+01 5.114352963864803314e-01
-3.206465813517570496e+01 -1.640939997136592865e+01 5.978153012692928314e-01
-3.263033196330070496e+01 -1.702109430730342865e+01 6.115176938474178314e-01
-3.286165520548820496e+01 -1.747360895574092865e+01 6.233279965817928314e-01
-2.162959954142570496e+01 -1.185739801824092865e+01 5.516727231442928314e-01
-3.368306633830070496e+01 -1.859787653386592865e+01 6.504733823239803314e-01
-3.417806145548820496e+01 -1.922507379949092865e+01 6.652896665036678314e-01
-3.461739251017570496e+01 -1.983347223699092865e+01 6.800296567380428314e-01
-3.512459465861320496e+01 -2.049375055730342865e+01 6.957462094724178314e-01
-3.261580559611320496e+01 -1.667844294011592865e+01 7.634189389646053314e-01
-3.213472649455070496e+01 -1.676303766667842865e+01 7.685764096677303314e-01
-3.327681633830070496e+01 -1.768344782292842865e+01 7.931888364255428314e-01
-2.163020989298820496e+01 -1.185385797917842865e+01 6.589877866208553314e-01
-3.427596184611320496e+01 -1.891245172917842865e+01 8.286655209958553314e-01
-3.474495598673820496e+01 -1.953147028386592865e+01 8.467014096677303314e-01
-3.529048821330070496e+01 -2.020566461980342865e+01 8.661716245114803314e-01
-3.497029778361320496e+01 -2.039890192449092865e+01 8.740909360349178314e-01
-1.938851067423820496e+01 -1.008103083074092865e+01 7.068240903317928314e-01
-1.998177239298820496e+01 -1.057468317449092865e+01 7.236087583005428314e-01
-2.063948723673820496e+01 -1.111594294011592865e+01 7.420108579099178314e-01
-2.135323235392570496e+01 -1.170334528386592865e+01 7.619693540036678314e-01
-2.206502434611320496e+01 -1.230600641667842865e+01 7.824771665036678314e-01
-2.278401848673820496e+01 -1.293076227605342865e+01 8.037631772458553314e-01
-2.355818840861320496e+01 -1.360349176824092865e+01 8.266666196286678314e-01
-2.430635735392570496e+01 -1.428037165105342865e+01 8.497379086911678314e-01
-1.943904778361320496e+01 -1.010288141667842865e+01 8.023441098630428314e-01
-2.005708977580070496e+01 -1.060947321355342865e+01 8.231723569333553314e-01
-2.075972649455070496e+01 -1.117478083074092865e+01 8.464267514646053314e-01
-2.147737786173820496e+01 -1.176523493230342865e+01 8.706882260739803314e-01
-2.216829583048820496e+01 -1.235788629949092865e+01 8.949344418942928314e-01
-2.288033196330070496e+01 -1.297971247136592865e+01 9.203403256833553314e-01
-2.364607903361320496e+01 -1.364865778386592865e+01 9.476688168942928314e-01
-2.436507317423820496e+01 -1.430966852605342865e+01 9.745548032224178314e-01
-1.922078606486320496e+01 -9.990820869803428650e+00 8.916690610349178314e-01
-1.988045403361320496e+01 -1.051621149480342865e+01 9.171512387692928314e-01
-2.059639641642570496e+01 -1.108627985417842865e+01 9.442508481442928314e-01
-2.138069817423820496e+01 -1.171030329167842865e+01 9.744937680661678314e-01
-2.216695305705070496e+01 -1.235324762761592865e+01 1.005484368652105331e+00
-2.297664543986320496e+01 -1.302878473699092865e+01 1.037939812988042831e+00
-3.354488274455070496e+01 -1.920566461980342865e+01 1.358435418456792831e+00
-3.419356438517570496e+01 -1.993479059636592865e+01 1.391867425292730331e+00
-3.191780754923820496e+01 -1.630795954167842865e+01 1.391257073730230331e+00
-3.288313958048820496e+01 -1.712058161199092865e+01 1.435934808105230331e+00
-3.289351555705070496e+01 -1.746091364324092865e+01 1.450186517089605331e+00
-3.251949211955070496e+01 -1.760214899480342865e+01 1.451834466308355331e+00
-3.440413567423820496e+01 -1.895688532292842865e+01 1.529410149902105331e+00
-3.414449211955070496e+01 -1.917551325261592865e+01 1.535574700683355331e+00
-3.560286614298820496e+01 -2.035544489324092865e+01 1.601065423339605331e+00
-3.694454094767570496e+01 -2.150376032292842865e+01 1.663931634277105331e+00
-3.311653801798820496e+01 -1.689890192449092865e+01 1.595129754394292831e+00
-3.290645501017570496e+01 -1.712656305730342865e+01 1.600989129394292831e+00
-3.296041008830070496e+01 -1.748984430730342865e+01 1.617697503417730331e+00
-3.254476067423820496e+01 -1.760971735417842865e+01 1.616568353027105331e+00
-3.395491692423820496e+01 -1.870822809636592865e+01 1.686224725097417831e+00
-3.448909661173820496e+01 -1.935910700261592865e+01 1.722876336425542831e+00
-3.613350579142570496e+01 -2.064682672917842865e+01 1.804404046386480331e+00
-3.695430657267570496e+01 -2.150241754949092865e+01 1.855414178222417831e+00
-3.270210930705070496e+01 -1.668686579167842865e+01 1.742285516113042831e+00
-3.294112297892570496e+01 -1.713840387761592865e+01 1.767645623534917831e+00
-3.301619622111320496e+01 -1.751279352605342865e+01 1.786291863769292831e+00
-3.875179192423820496e+01 -2.088693903386592865e+01 2.052466180175542831e+00
-3.415816399455070496e+01 -1.881174372136592865e+01 1.868078973144292831e+00
-3.406941887736320496e+01 -1.912180231511592865e+01 1.880575921386480331e+00
-3.507100579142570496e+01 -2.004392145574092865e+01 1.942343499511480331e+00
-3.420406243205070496e+01 -1.992197321355342865e+01 1.919928338378667831e+00
-3.235115715861320496e+01 -1.650656794011592865e+01 1.889044549316167831e+00
-3.280831047892570496e+01 -1.706516169011592865e+01 1.925757195800542831e+00
-3.898042961955070496e+01 -2.059714411199092865e+01 2.240286614745855331e+00
-3.963826653361320496e+01 -2.134873102605342865e+01 2.291846062988042831e+00
-3.414510247111320496e+01 -1.879856012761592865e+01 2.040442254394292831e+00
-3.425496575236320496e+01 -1.921774958074092865e+01 2.063162591308355331e+00
-3.516976067423820496e+01 -2.009287165105342865e+01 2.126684930175542831e+00
-3.942720696330070496e+01 -2.290341852605342865e+01 2.362707879394292831e+00
-3.841207024455070496e+01 -1.951364801824092865e+01 2.367956902831792831e+00
-3.305098626017570496e+01 -1.718234919011592865e+01 2.103277947753667831e+00
-3.979231926798820496e+01 -2.101059626042842865e+01 2.481161858886480331e+00
-3.620040032267570496e+01 -1.952439020574092865e+01 2.307638909667730331e+00
-4.085933586955070496e+01 -2.241281794011592865e+01 2.580984856933355331e+00
-3.419051262736320496e+01 -1.917600153386592865e+01 2.234823968261480331e+00
-3.454854485392570496e+01 -1.973801325261592865e+01 2.272909905761480331e+00
-3.426167961955070496e+01 -1.994235895574092865e+01 2.275290276855230331e+00
-3.945357415080070496e+01 -2.002426813542842865e+01 2.620749261230230331e+00
-3.311312004923820496e+01 -1.720810602605342865e+01 2.272803094238042831e+00
-4.046272942423820496e+01 -2.135056208074092865e+01 2.722159173339605331e+00
-3.605940911173820496e+01 -1.944345758855342865e+01 2.482092645019292831e+00
-4.155245110392570496e+01 -2.277902887761592865e+01 2.830343987792730331e+00
-4.221187493205070496e+01 -2.358017633855342865e+01 2.894308831542730331e+00
-3.408797356486320496e+01 -1.947348688542842865e+01 2.422369744628667831e+00
-3.471150872111320496e+01 -2.019321344792842865e+01 2.479803826659917831e+00
-3.192830559611320496e+01 -1.627939508855342865e+01 2.346380975097417831e+00
-4.060738274455070496e+01 -2.100253961980342865e+01 2.912695672363042831e+00
-4.108077141642570496e+01 -2.166318415105342865e+01 2.965643670409917831e+00
-3.613497063517570496e+01 -1.947678278386592865e+01 2.670019891113042831e+00
-3.613509270548820496e+01 -1.985239313542842865e+01 2.690527703613042831e+00
-3.509212395548820496e+01 -1.965915583074092865e+01 2.642813470214605331e+00
