-3.040404284000396729e+01 -1.167000442743301392e+01 1.924898692872375250e+00
-3.112596666812896729e+01 -1.222456985712051392e+01 1.975863048341125250e+00
-3.080492174625396729e+01 -1.239168411493301392e+01 1.972384044434875250e+00
-3.090233385562896729e+01 -1.271968704462051392e+01 1.991488048341125250e+00
-3.123729479312896729e+01 -1.314913040399551392e+01 2.024248668458312750e+00
-2.976097643375396729e+01 -1.283150345087051392e+01 1.959459850098937750e+00
-3.258800280094146729e+01 -1.432149368524551392e+01 2.126116344239562750e+00
-2.988780748844146729e+01 -1.119954544305801392e+01 2.028444835450500250e+00
-3.135790026187896729e+01 -1.201619583368301392e+01 2.124010631348937750e+00
-3.156761705875396729e+01 -1.238631302118301392e+01 2.150423595216125250e+00
-3.258788073062896729e+01 -1.307710891962051392e+01 2.223482677247375250e+00
-3.115904772281646729e+01 -1.281624466180801392e+01 2.156481334473937750e+00
-2.943590319156646729e+01 -1.241121536493301392e+01 2.071169444825500250e+00
-3.215807116031646729e+01 -1.382442337274551392e+01 2.244600841309875250e+00
-3.161082994937896729e+01 -1.389949661493301392e+01 2.228518077638000250e+00
-1.320543444156646729e+01 -6.099569857120513916e+00 -5.584471533074975014e-02
-1.317455065250396729e+01 -6.210165560245513916e+00 -5.247252294793725014e-02
-1.313670885562896729e+01 -6.318075716495513916e+00 -4.917662451043725014e-02
-1.309874498844146729e+01 -6.426474153995513916e+00 -4.588072607293725014e-02
-1.306078112125396729e+01 -6.534628450870513916e+00 -4.256956884637475014e-02
-1.302269518375396729e+01 -6.643393099308013916e+00 -3.925841161981225014e-02
-1.298460924625396729e+01 -6.751913607120513916e+00 -3.594725439324975014e-02
-1.293968737125396729e+01 -6.857260286808013916e+00 -3.272764990106225014e-02
-1.471458971500396729e+01 -6.745199739933013916e+00 -3.922789404168725014e-02
-1.471520006656646729e+01 -6.884481966495513916e+00 -3.681700536981225014e-02
-1.469969713687896729e+01 -7.017660677433013916e+00 -3.388731786981225014e-02
-1.469188463687896729e+01 -7.155600130558013916e+00 -3.078978369012475014e-02
-1.467625963687896729e+01 -7.290365755558013916e+00 -2.782957861199975014e-02
-1.465636217594146729e+01 -7.424276888370513916e+00 -2.508299658074975014e-02
-1.466515123844146729e+01 -7.572592318058013916e+00 -2.282469579949975014e-02
-1.467406237125396729e+01 -7.722128450870513916e+00 -2.055113622918725014e-02
-1.689464342594146729e+01 -7.678183138370513916e+00 -2.482359716668725014e-02
-1.667394030094146729e+01 -7.741781771183013916e+00 -1.603453466668725014e-02
-1.648888170719146729e+01 -7.818319857120513916e+00 -8.222034666687250137e-03
-1.653185045719146729e+01 -7.997519075870513916e+00 -6.207874510437250137e-03
-1.652574694156646729e+01 -8.155233919620513916e+00 -2.927234861999750137e-03
-1.646935045719146729e+01 -8.290609896183013916e+00 1.635143067687749863e-03
-1.641319811344146729e+01 -8.425619661808013916e+00 6.182262208312749863e-03
-1.635692369937896729e+01 -8.560629427433013916e+00 1.072938134893774986e-02
-2.493126451969146729e+01 -1.112264114618301392e+01 -1.111273081041872501e-01
-2.612291491031646729e+01 -1.188521438837051392e+01 -1.299108774401247501e-01
-2.595335924625396729e+01 -1.206246048212051392e+01 -1.210302622057497501e-01
-1.688768541812896729e+01 -8.157919466495513916e+00 6.733948877081274986e-02
-1.943651354312896729e+01 -9.517172396183013916e+00 1.997620752081274986e-02
-1.925121080875396729e+01 -9.620321810245513916e+00 2.774293115362524986e-02
-1.908861315250396729e+01 -9.731772005558013916e+00 3.500611474737524986e-02
-1.896239244937896729e+01 -9.859457552433013916e+00 4.101807763800024986e-02
-2.684911119937896729e+01 -1.194063431024551392e+01 -1.962035009637475014e-02
-2.728001940250396729e+01 -1.238826614618301392e+01 -2.032225439324975014e-02
-2.765404284000396729e+01 -1.282076126337051392e+01 -1.989500829949975014e-02
-1.688805162906646729e+01 -8.155233919620513916e+00 1.494165151380002499e-01
-2.833641588687896729e+01 -1.368477493524551392e+01 -1.736204931512475014e-02
-2.883067858219146729e+01 -1.420406204462051392e+01 -1.801817724481225014e-02
-2.922166979312896729e+01 -1.468428665399551392e+01 -1.691954443231225014e-02
-2.958641588687896729e+01 -1.516170364618301392e+01 -1.521056005731225014e-02
-2.739854967594146729e+01 -1.217146927118301392e+01 1.051812856458127499e-01
-2.753172838687896729e+01 -1.249385696649551392e+01 1.111627309583127499e-01
-2.832457506656646729e+01 -1.311653763055801392e+01 1.097284047864377499e-01
-1.688853991031646729e+01 -8.152548372745513916e+00 2.319513051770627499e-01
-2.922972643375396729e+01 -1.409822708368301392e+01 1.149316518567502499e-01
-2.939818346500396729e+01 -1.447054153680801392e+01 1.206842153333127499e-01
-2.997179186344146729e+01 -1.504585891962051392e+01 1.228051870130002499e-01
-3.032726061344146729e+01 -1.552620559930801392e+01 1.264367788098752499e-01
-2.765355455875396729e+01 -1.227608352899551392e+01 2.379174917005002499e-01
-2.845055162906646729e+01 -1.289180618524551392e+01 2.407251088880002499e-01
-2.859166491031646729e+01 -1.323140579462051392e+01 2.474847524426877499e-01
-1.688890612125396729e+01 -8.149740755558013916e+00 3.140283315442502499e-01
-2.953331530094146729e+01 -1.423531204462051392e+01 2.583184926770627499e-01
-3.029344713687896729e+01 -1.489375931024551392e+01 2.629266469739377499e-01
-3.044688951969146729e+01 -1.527266556024551392e+01 2.705407827161252499e-01
-3.098338854312896729e+01 -1.584822708368301392e+01 2.768121450208127499e-01
-2.844945299625396729e+01 -1.261214309930801392e+01 3.720117299817502499e-01
-2.871898424625396729e+01 -1.300447708368301392e+01 3.798394887708127499e-01
-2.938329088687896729e+01 -1.358101516962051392e+01 3.885522573255002499e-01
-1.688927233219146729e+01 -8.147055208683013916e+00 3.965478627942502499e-01
-3.029198229312896729e+01 -1.458528763055801392e+01 4.057031362317502499e-01
-3.056651842594146729e+01 -1.501912552118301392e+01 4.146905629895627499e-01
-3.081468737125396729e+01 -1.544698196649551392e+01 4.230218618176877499e-01
-3.143553698062896729e+01 -1.606831985712051392e+01 4.328332631848752499e-01
-2.882347643375396729e+01 -1.276729446649551392e+01 5.130334584973752499e-01
-2.929540026187896729e+01 -1.325191360712051392e+01 5.237756459973752499e-01
-2.976720201969146729e+01 -1.374788528680801392e+01 5.348535268567502499e-01
-1.688963854312896729e+01 -8.144369661808013916e+00 4.786401479505002499e-01
-3.065245592594146729e+01 -1.474861770868301392e+01 5.578332631848752499e-01
-3.084325182437896729e+01 -1.514607864618301392e+01 5.684381215833127499e-01
-3.154491198062896729e+01 -1.579805618524551392e+01 5.822625844739377499e-01
-3.172704088687896729e+01 -1.620809036493301392e+01 5.933252065442502499e-01
-2.912315905094146729e+01 -1.289058548212051392e+01 6.563745229505002499e-01
-2.967552721500396729e+01 -1.341329056024551392e+01 6.708551137708127499e-01
-3.008385241031646729e+01 -1.388448196649551392e+01 6.843591420911252499e-01
-1.689000475406646729e+01 -8.141562044620513916e+00 5.607324331067502499e-01
-3.096202623844146729e+01 -1.488802200555801392e+01 7.130761831067502499e-01
-3.147166979312896729e+01 -1.544100052118301392e+01 7.287774770520627499e-01
-3.184142076969146729e+01 -1.593733841180801392e+01 7.433038442395627499e-01
-3.227477037906646729e+01 -1.647542434930801392e+01 7.588983266614377499e-01
-1.496849596500396729e+01 -6.831381380558013916e+00 5.991388051770627499e-01
-1.546642076969146729e+01 -7.190756380558013916e+00 6.113000600598752499e-01
-1.600438463687896729e+01 -7.578939974308013916e+00 6.244226186536252499e-01
-1.658934557437896729e+01 -8.001181185245513916e+00 6.386895864270627499e-01
-1.719005358219146729e+01 -8.443075716495513916e+00 6.536431997083127499e-01
-1.776305162906646729e+01 -8.885824739933013916e+00 6.686425893567502499e-01
-1.837962877750396729e+01 -9.362387239933013916e+00 6.847863881848752499e-01
-1.904759752750396729e+01 -9.878500521183013916e+00 7.022882192395627499e-01
-1.478978502750396729e+01 -6.752523958683013916e+00 6.672998159192502499e-01
-1.531041491031646729e+01 -7.119955599308013916e+00 6.826043813489377499e-01
-1.587523424625396729e+01 -7.518515169620513916e+00 6.991754262708127499e-01
-1.649229967594146729e+01 -7.953939974308013916e+00 7.173028676770627499e-01
-1.713768541812896729e+01 -8.415609896183013916e+00 7.364831655286252499e-01
-1.773973619937896729e+01 -8.871664583683013916e+00 7.553125112317502499e-01
-1.839024889469146729e+01 -9.364340364933013916e+00 7.756524770520627499e-01
-1.909776842594146729e+01 -9.900106966495513916e+00 7.977777211926877499e-01
-1.493736803531646729e+01 -6.813070833683013916e+00 7.419305532239377499e-01
-1.541661608219146729e+01 -7.163778841495513916e+00 7.591424672864377499e-01
-1.593456041812896729e+01 -7.542318880558013916e+00 7.773309438489377499e-01
-1.649486315250396729e+01 -7.952230989933013916e+00 7.974420278333127499e-01
-1.708604967594146729e+01 -8.388510286808013916e+00 8.188043325208127499e-01
-1.763499987125396729e+01 -8.818563997745513916e+00 8.396173208020627499e-01
-1.822264635562896729e+01 -9.279379427433013916e+00 8.623834340833127499e-01
-1.887950670719146729e+01 -9.788046419620513916e+00 8.870721547864377499e-01
-1.474742662906646729e+01 -6.729452669620513916e+00 8.078180043958127499e-01
-1.529466784000396729e+01 -7.107870638370513916e+00 8.296380727551877499e-01
-1.589061510562896729e+01 -7.519980013370513916e+00 8.533960073255002499e-01
-1.654442369937896729e+01 -7.972128450870513916e+00 8.794580190442502499e-01
-1.721690905094146729e+01 -8.446737825870513916e+00 9.066644399426877499e-01
-1.785436022281646729e+01 -8.920126497745513916e+00 9.333978383801877499e-01
-3.154466784000396729e+01 -1.577010208368301392e+01 1.372606822755187750e+00
-3.158287584781646729e+01 -1.610811477899551392e+01 1.386812755372375250e+00
-3.120592272281646729e+01 -1.375496536493301392e+01 1.440065929200500250e+00
-3.030113756656646729e+01 -1.366084915399551392e+01 1.420885631348937750e+00
-3.221104967594146729e+01 -1.480867630243301392e+01 1.500139781739562750e+00
-3.233946764469146729e+01 -1.518440872430801392e+01 1.518206187989562750e+00
-3.159410631656646729e+01 -1.515596634149551392e+01 1.505159923341125250e+00
-3.206895983219146729e+01 -1.569808059930801392e+01 1.535814830567687750e+00
-3.150133287906646729e+01 -1.574336868524551392e+01 1.528734752442687750e+00
-3.473778307437896729e+01 -1.767220169305801392e+01 1.663302013184875250e+00
-3.132481920719146729e+01 -1.380025345087051392e+01 1.597155162598937750e+00
-3.063463366031646729e+01 -1.380123001337051392e+01 1.583345958497375250e+00
-3.186070787906646729e+01 -1.464656692743301392e+01 1.645632335450500250e+00
-3.212230455875396729e+01 -1.507955032587051392e+01 1.670183727052062750e+00
-3.333250963687896729e+01 -1.596175247430801392e+01 1.733782359864562750e+00
-3.114891588687896729e+01 -1.525374466180801392e+01 1.658419200684875250e+00
-3.490648424625396729e+01 -1.739644485712051392e+01 1.829332896973937750e+00
-3.236522448062896729e+01 -1.648592239618301392e+01 1.737749645020812750e+00
-2.943517076969146729e+01 -1.298860794305801392e+01 1.667666026856750250e+00
-3.241856920719146729e+01 -1.457466751337051392e+01 1.812944957520812750e+00
-3.318126451969146729e+01 -1.523067337274551392e+01 1.861925670411437750e+00
-3.155541002750396729e+01 -1.481514602899551392e+01 1.803209850098937750e+00
-3.338023912906646729e+01 -1.597810989618301392e+01 1.901522228028625250e+00
-3.150597155094146729e+01 -1.541841751337051392e+01 1.830080577638000250e+00
-3.213561022281646729e+01 -1.604109817743301392e+01 1.874285289552062750e+00
-3.201378405094146729e+01 -1.630538040399551392e+01 1.884493419434875250e+00
-2.945323717594146729e+01 -1.299129348993301392e+01 1.812166759278625250e+00
-3.242857897281646729e+01 -1.457332473993301392e+01 1.973360606934875250e+00
-3.318126451969146729e+01 -1.522481399774551392e+01 2.026308604981750250e+00
-3.142699205875396729e+01 -1.475105911493301392e+01 1.953508922364562750e+00
-3.158275377750396729e+01 -1.513399368524551392e+01 1.976488658692687750e+00
-3.144603502750396729e+01 -1.538423782587051392e+01 1.984728404786437750e+00
-3.197496569156646729e+01 -1.595711380243301392e+01 2.027514049317687750e+00
-3.806737291812896729e+01 -1.930855423212051392e+01 2.362993785645812750e+00
-3.258458483219146729e+01 -1.432112747430801392e+01 2.125979015138000250e+00
-3.243858873844146729e+01 -1.457210403680801392e+01 2.133867809083312750e+00
-2.930785143375396729e+01 -1.349129348993301392e+01 1.977327892091125250e+00
-3.237401354312896729e+01 -1.517745071649551392e+01 2.161409923341125250e+00
-3.155003893375396729e+01 -1.511324173212051392e+01 2.131334850098937750e+00
-3.739476549625396729e+01 -1.821224075555801392e+01 2.478884288575500250e+00
-3.193517076969146729e+01 -1.593208938837051392e+01 2.185976573731750250e+00
-3.911290514469146729e+01 -1.982124954462051392e+01 2.615969249513000250e+00
-3.161144030094146729e+01 -1.390083938837051392e+01 2.228609630372375250e+00
-3.244847643375396729e+01 -1.457088333368301392e+01 2.293612071778625250e+00
-2.917479479312896729e+01 -1.342684036493301392e+01 2.113390514161437750e+00
-3.239427721500396729e+01 -1.518099075555801392e+01 2.323549815919250250e+00
-3.771849596500396729e+01 -1.798201614618301392e+01 2.665850230958312750e+00
-3.163756334781646729e+01 -1.546431595087051392e+01 2.310549327638000250e+00
-3.164415514469146729e+01 -1.578487259149551392e+01 2.327562877442687750e+00
-3.159227526187896729e+01 -1.607893997430801392e+01 2.341890880372375250e+00
-1.293968737125396729e+01 -6.857748568058013916e+00 -3.272764990106225014e-02
-1.290245592594146729e+01 -6.967123568058013916e+00 -2.938597509637475014e-02
-1.285838854312896729e+01 -7.073324739933013916e+00 -2.613585302606225014e-02
-1.281407701969146729e+01 -7.180014193058013916e+00 -2.288573095574975014e-02
-1.276976549625396729e+01 -7.286581575870513916e+00 -1.963560888543725014e-02
-1.272533190250396729e+01 -7.393637239933013916e+00 -1.637022802606225014e-02
-1.268102037906646729e+01 -7.500570833683013916e+00 -1.310484716668725014e-02
-1.262987291812896729e+01 -7.603842318058013916e+00 -9.946277830749750137e-03
-1.467442858219146729e+01 -7.722860872745513916e+00 -2.055113622918725014e-02
-1.465050280094146729e+01 -7.857138216495513916e+00 -1.757567236199975014e-02
-1.460155260562896729e+01 -7.979086458683013916e+00 -1.385252783074975014e-02
-1.455907213687896729e+01 -8.105307161808013916e+00 -9.931019041687250137e-03
-1.447862780094146729e+01 -8.210775911808013916e+00 -5.292347166687250137e-03
-1.438890612125396729e+01 -8.311361849308013916e+00 -7.757456041872501373e-04
-1.430895006656646729e+01 -8.416220247745513916e+00 3.847667481750249863e-03
-1.423387682437896729e+01 -8.523642122745513916e+00 8.303233888000249863e-03
-1.635692369937896729e+01 -8.561117708683013916e+00 1.074464013800024986e-02
-1.629149401187896729e+01 -8.691732943058013916e+00 1.523072412237524986e-02
-1.624315416812896729e+01 -8.831259310245513916e+00 1.930482080206274986e-02
-1.622337877750396729e+01 -8.987021028995513916e+00 2.270753076300024986e-02
-1.620360338687896729e+01 -9.143148958683013916e+00 2.614075830206274986e-02
-1.618358385562896729e+01 -9.300863802433013916e+00 2.958924463018774986e-02
-1.616344225406646729e+01 -9.459066927433013916e+00 3.305298974737524986e-02
-1.614330065250396729e+01 -9.618246614933013916e+00 3.653199365362524986e-02
-1.896263659000396729e+01 -9.860189974308013916e+00 4.103333642706274986e-02
-1.892625963687896729e+01 -1.003267532587051392e+01 4.602296045050024986e-02
-1.887791979312896729e+01 -1.019978958368301392e+01 5.075318505987524986e-02
-1.882823717594146729e+01 -1.036763626337051392e+01 5.552918603643774986e-02
-1.873717272281646729e+01 -1.051302200555801392e+01 6.108338525518774986e-02
-1.864586412906646729e+01 -1.065877395868301392e+01 6.663758447393774986e-02
-1.855504381656646729e+01 -1.080379348993301392e+01 7.217652490362524986e-02
-1.852147448062896729e+01 -1.098152786493301392e+01 7.617432763800024986e-02
-2.958849108219146729e+01 -1.516377884149551392e+01 -1.521056005731225014e-02
-2.201756823062896729e+01 -1.160542923212051392e+01 9.709412744268774986e-02
-2.207506334781646729e+01 -1.186006790399551392e+01 1.012445180676877499e-01
-2.130833971500396729e+01 -1.168099075555801392e+01 1.166101186536252499e-01
-2.233336412906646729e+01 -1.245748001337051392e+01 1.078973500989377499e-01
-2.246983873844146729e+01 -1.276790481805801392e+01 1.113000600598752499e-01
-2.243712389469146729e+01 -1.298726516962051392e+01 1.169458120130002499e-01
-2.238316881656646729e+01 -1.319588333368301392e+01 1.228967397473752499e-01
-3.032860338687896729e+01 -1.552791458368301392e+01 1.264520375989377499e-01
-3.073460924625396729e+01 -1.604402786493301392e+01 1.311670034192502499e-01
-3.111314928531646729e+01 -1.655708938837051392e+01 1.355920522473752499e-01
-2.129491198062896729e+01 -1.167012649774551392e+01 2.247033803723752499e-01
-3.155174791812896729e+01 -1.744466263055801392e+01 1.477990834973752499e-01
-3.169139635562896729e+01 -1.785640579462051392e+01 1.548028676770627499e-01
-3.168272936344146729e+01 -1.818965774774551392e+01 1.630578725598752499e-01
-3.183495104312896729e+01 -1.861800247430801392e+01 1.693139760755002499e-01
-3.098644030094146729e+01 -1.585091263055801392e+01 2.768274038098752499e-01
-3.132323229312896729e+01 -1.633846145868301392e+01 2.839227407239377499e-01
-3.162804186344146729e+01 -1.681929641962051392e+01 2.913995473645627499e-01
-2.129271471500396729e+01 -1.166512161493301392e+01 3.320337026380002499e-01
-3.237755358219146729e+01 -1.788582473993301392e+01 3.067041127942502499e-01
-3.257384264469146729e+01 -1.833785110712051392e+01 3.152642934583127499e-01
-3.275279772281646729e+01 -1.878621536493301392e+01 3.240228383801877499e-01
-3.282970201969146729e+01 -1.918306595087051392e+01 3.331781118176877499e-01
-3.143724596500396729e+01 -1.607027298212051392e+01 4.328790395520627499e-01
-3.161229479312896729e+01 -1.648006302118301392e+01 4.422784536145627499e-01
-3.215111315250396729e+01 -1.708553177118301392e+01 4.534021108411252499e-01
-2.129320299625396729e+01 -1.166158157587051392e+01 4.399286000989377499e-01
-3.285948717594146729e+01 -1.814070755243301392e+01 4.742913930676877499e-01
-3.326854479312896729e+01 -1.871529251337051392e+01 4.853540151380002499e-01
-3.362816393375396729e+01 -1.927278763055801392e+01 4.956536977551877499e-01
-3.393224108219146729e+01 -1.980953079462051392e+01 5.070062368176877499e-01
-3.172874987125396729e+01 -1.621004348993301392e+01 5.933862417005002499e-01
-3.229442369937896729e+01 -1.682173782587051392e+01 6.070886342786252499e-01
-3.252574694156646729e+01 -1.727425247430801392e+01 6.188989370130002499e-01
-2.129369127750396729e+01 -1.165804153680801392e+01 5.472436635755002499e-01
-3.334715807437896729e+01 -1.839852005243301392e+01 6.460443227551877499e-01
-3.384215319156646729e+01 -1.902571731805801392e+01 6.608606069348752499e-01
-3.428148424625396729e+01 -1.963411575555801392e+01 6.756005971692502499e-01
-3.478868639469146729e+01 -2.029439407587051392e+01 6.913171499036252499e-01
-3.227989733219146729e+01 -1.647908645868301392e+01 7.589898793958127499e-01
-3.179881823062896729e+01 -1.656368118524551392e+01 7.641473500989377499e-01
-3.294090807437896729e+01 -1.748409134149551392e+01 7.887597768567502499e-01
-2.129430162906646729e+01 -1.165450149774551392e+01 6.545587270520627499e-01
-3.394005358219146729e+01 -1.871309524774551392e+01 8.242364614270627499e-01
-3.440904772281646729e+01 -1.933211380243301392e+01 8.422723500989377499e-01
-3.495457994937896729e+01 -2.000630813837051392e+01 8.617425649426877499e-01
-3.463438951969146729e+01 -2.019954544305801392e+01 8.696618764661252499e-01
-1.905260241031646729e+01 -9.881674349308013916e+00 7.023950307630002499e-01
-1.964586412906646729e+01 -1.037532669305801392e+01 7.191796987317502499e-01
-2.030357897281646729e+01 -1.091658645868301392e+01 7.375817983411252499e-01
-2.101732409000396729e+01 -1.150398880243301392e+01 7.575402944348752499e-01
-2.172911608219146729e+01 -1.210664993524551392e+01 7.780481069348752499e-01
-2.244811022281646729e+01 -1.273140579462051392e+01 7.993341176770627499e-01
-2.322228014469146729e+01 -1.340413528680801392e+01 8.222375600598752499e-01
-2.397044909000396729e+01 -1.408101516962051392e+01 8.453088491223752499e-01
-1.910313951969146729e+01 -9.903524935245513916e+00 7.979150502942502499e-01
-1.972118151187896729e+01 -1.041011673212051392e+01 8.187432973645627499e-01
-2.042381823062896729e+01 -1.097542434930801392e+01 8.419976918958127499e-01
-2.114146959781646729e+01 -1.156587845087051392e+01 8.662591665051877499e-01
-2.183238756656646729e+01 -1.215852981805801392e+01 8.905053823255002499e-01
-2.254442369937896729e+01 -1.278035598993301392e+01 9.159112661145627499e-01
-2.331017076969146729e+01 -1.344930130243301392e+01 9.432397573255002499e-01
-2.402916491031646729e+01 -1.411031204462051392e+01 9.701257436536252499e-01
-1.888487780094146729e+01 -9.791464388370513916e+00 8.872400014661252499e-01
-1.954454576969146729e+01 -1.031685501337051392e+01 9.127221792005002499e-01
-2.026048815250396729e+01 -1.088692337274551392e+01 9.398217885755002499e-01
-2.104478991031646729e+01 -1.151094681024551392e+01 9.700647084973752499e-01
-2.183104479312896729e+01 -1.215389114618301392e+01 1.001055309083312750e+00
-2.264073717594146729e+01 -1.282942825555801392e+01 1.033510753419250250e+00
-3.320897448062896729e+01 -1.900630813837051392e+01 1.354006358888000250e+00
-3.385765612125396729e+01 -1.973543411493301392e+01 1.387438365723937750e+00
-3.158189928531646729e+01 -1.610860306024551392e+01 1.386828014161437750e+00
-3.254723131656646729e+01 -1.692122513055801392e+01 1.431505748536437750e+00
-3.255760729312896729e+01 -1.726155716180801392e+01 1.445757457520812750e+00
-3.218358385562896729e+01 -1.740279251337051392e+01 1.447405406739562750e+00
-3.406822741031646729e+01 -1.875752884149551392e+01 1.524981090333312750e+00
-3.380858385562896729e+01 -1.897615677118301392e+01 1.531145641114562750e+00
-3.526695787906646729e+01 -2.015608841180801392e+01 1.596636363770812750e+00
-3.660863268375396729e+01 -2.130440384149551392e+01 1.659502574708312750e+00
-3.278062975406646729e+01 -1.669954544305801392e+01 1.590700694825500250e+00
-3.257054674625396729e+01 -1.692720657587051392e+01 1.596560069825500250e+00
-3.262450182437896729e+01 -1.729048782587051392e+01 1.613268443848937750e+00
-3.220885241031646729e+01 -1.741036087274551392e+01 1.612139293458312750e+00
-3.361900866031646729e+01 -1.850887161493301392e+01 1.681795665528625250e+00
-3.415318834781646729e+01 -1.915975052118301392e+01 1.718447276856750250e+00
-3.579759752750396729e+01 -2.044747024774551392e+01 1.799974986817687750e+00
-3.661839830875396729e+01 -2.130306106805801392e+01 1.850985118653625250e+00
-3.236620104312896729e+01 -1.648750931024551392e+01 1.737856456544250250e+00
-3.260521471500396729e+01 -1.693904739618301392e+01 1.763216563966125250e+00
-3.268028795719146729e+01 -1.731343704462051392e+01 1.781862804200500250e+00
-3.841588366031646729e+01 -2.068758255243301392e+01 2.048037120606750250e+00
-3.382225573062896729e+01 -1.861238723993301392e+01 1.863649913575500250e+00
-3.373351061344146729e+01 -1.892244583368301392e+01 1.876146861817687750e+00
-3.473509752750396729e+01 -1.984456497430801392e+01 1.937914439942687750e+00
-3.386815416812896729e+01 -1.972261673212051392e+01 1.915499278809875250e+00
-3.201524889469146729e+01 -1.630721145868301392e+01 1.884615489747375250e+00
-3.247240221500396729e+01 -1.686580520868301392e+01 1.921328136231750250e+00
-3.864452135562896729e+01 -2.039778763055801392e+01 2.235857555177062750e+00
-3.930235826969146729e+01 -2.114937454462051392e+01 2.287417003419250250e+00
-3.380919420719146729e+01 -1.859920364618301392e+01 2.036013194825500250e+00
-3.391905748844146729e+01 -1.901839309930801392e+01 2.058733531739562750e+00
-3.483385241031646729e+01 -1.989351516962051392e+01 2.122255870606750250e+00
-3.909129869937896729e+01 -2.270406204462051392e+01 2.358278819825500250e+00
-3.807616198062896729e+01 -1.931429153680801392e+01 2.363527843263000250e+00
-3.271507799625396729e+01 -1.698299270868301392e+01 2.098848888184875250e+00
-3.945641100406646729e+01 -2.081123977899551392e+01 2.476732799317687750e+00
-3.586449205875396729e+01 -1.932503372430801392e+01 2.303209850098937750e+00
-4.052342760562896729e+01 -2.221346145868301392e+01 2.576555797364562750e+00
-3.385460436344146729e+01 -1.897664505243301392e+01 2.230394908692687750e+00
-3.421263659000396729e+01 -1.953865677118301392e+01 2.268480846192687750e+00
-3.392577135562896729e+01 -1.974300247430801392e+01 2.270861217286437750e+00
-3.911766588687896729e+01 -1.982491165399551392e+01 2.616320201661437750e+00
-3.277721178531646729e+01 -1.700874954462051392e+01 2.268374034669250250e+00
-4.012682116031646729e+01 -2.115120559930801392e+01 2.717730113770812750e+00
-3.572350084781646729e+01 -1.924410110712051392e+01 2.477663585450500250e+00
-4.121654284000396729e+01 -2.257967239618301392e+01 2.825914928223937750e+00
-4.187596666812896729e+01 -2.338081985712051392e+01 2.889879771973937750e+00
-3.375206530094146729e+01 -1.927413040399551392e+01 2.417940685059875250e+00
-3.437560045719146729e+01 -1.999385696649551392e+01 2.475374767091125250e+00
-3.159239733219146729e+01 -1.608003860712051392e+01 2.341951915528625250e+00
-4.027147448062896729e+01 -2.080318313837051392e+01 2.908266612794250250e+00
-4.074486315250396729e+01 -2.146382766962051392e+01 2.961214610841125250e+00
-3.579906237125396729e+01 -1.927742630243301392e+01 2.665590831544250250e+00
-3.579918444156646729e+01 -1.965303665399551392e+01 2.686098644044250250e+00
-3.475621569156646729e+01 -1.945979934930801392e+01 2.638384410645812750e+00
-3.542320787906646729e+01 -2.020455032587051392e+01 2.702822276856750250e+00
-3.418651354312896729e+01 -1.987947708368301392e+01 2.641939708497375250e+00
-1.262987291812896729e+01 -7.604208528995513916e+00 -9.946277830749750137e-03
-1.258629381656646729e+01 -7.711996614933013916e+00 -6.665638182312250137e-03
-1.253917467594146729e+01 -7.818075716495513916e+00 -3.583362791687250137e-03
-1.250548326969146729e+01 -7.933065950870513916e+00 -9.588510729372501373e-04
-1.247179186344146729e+01 -8.048178255558013916e+00 1.680919434875249863e-03
-1.243785631656646729e+01 -8.164145052433013916e+00 4.335948731750249863e-03
-1.240379869937896729e+01 -8.280355989933013916e+00 6.990978028625249863e-03
-1.236241686344146729e+01 -8.392294466495513916e+00 9.554454591125249863e-03
-1.423363268375396729e+01 -8.524008333683013916e+00 8.318492677062749863e-03
-1.416014635562896729e+01 -8.632040560245513916e+00 1.245362451300024986e-02
-1.408678209781646729e+01 -8.739950716495513916e+00 1.655823877081274986e-02
-1.391881334781646729e+01 -8.790731966495513916e+00 2.371461084112524986e-02
-1.384251940250396729e+01 -8.895590364933013916e+00 2.789551904425024986e-02
-1.390978014469146729e+01 -9.091513216495513916e+00 2.772767236456274986e-02
-1.385387194156646729e+01 -9.210653841495513916e+00 3.137452295050024986e-02
-1.379784166812896729e+01 -9.330160677433013916e+00 3.500611474737524986e-02
-1.614342272281646729e+01 -9.618856966495513916e+00 3.654725244268774986e-02
-1.606615221500396729e+01 -9.745810091495513916e+00 4.106385400518774986e-02
-1.599657213687896729e+01 -9.877523958683013916e+00 4.541260888800024986e-02
-1.381895983219146729e+01 -8.727499544620513916e+00 9.738404443487524986e-02
-1.375267565250396729e+01 -8.837362825870513916e+00 1.012750356458127499e-01
-1.584520494937896729e+01 -1.031075149774551392e+01 5.719239404425024986e-02
-1.578294909000396729e+01 -1.044844681024551392e+01 6.140381982550024986e-02
-1.572057116031646729e+01 -1.058650833368301392e+01 6.561524560675024986e-02
-1.852159655094146729e+01 -1.098226028680801392e+01 7.618958642706274986e-02
-1.850902330875396729e+01 -1.117342239618301392e+01 8.055360009893774986e-02
-1.847972643375396729e+01 -1.135640579462051392e+01 8.474976709112524986e-02
-1.377379381656646729e+01 -8.697470247745513916e+00 1.694055288098752499e-01
-1.372679674625396729e+01 -8.818808138370513916e+00 1.729608266614377499e-01
-1.836656725406646729e+01 -1.189913040399551392e+01 9.790284326300024986e-02
-1.829698717594146729e+01 -1.206136184930801392e+01 1.028619497083127499e-01
-1.584703600406646729e+01 -1.066634231805801392e+01 1.462884633801877499e-01
-2.238329088687896729e+01 -1.319673782587051392e+01 1.229119985364377499e-01
-2.232091295719146729e+01 -1.340157181024551392e+01 1.286950795911252499e-01
-2.225011217594146729e+01 -1.360237747430801392e+01 1.345849721692502499e-01
-1.374937975406646729e+01 -8.680136263370513916e+00 2.403283803723752499e-01
-1.389464342594146729e+01 -8.920248568058013916e+00 2.417474477551877499e-01
-1.375963366031646729e+01 -8.988974153995513916e+00 2.464776723645627499e-01
-1.362950670719146729e+01 -9.058798372745513916e+00 2.511010854505002499e-01
-1.394603502750396729e+01 -9.419272005558013916e+00 2.508416860364377499e-01
-3.183946764469146729e+01 -1.862178665399551392e+01 1.693139760755002499e-01
-3.212328112125396729e+01 -1.913387161493301392e+01 1.762262075208127499e-01
-3.228612291812896729e+01 -1.958370071649551392e+01 1.833062856458127499e-01
-1.333287584781646729e+01 -8.424521028995513916e+00 3.138757436536252499e-01
-1.318883287906646729e+01 -8.480673372745513916e+00 3.181329458020627499e-01
-1.307689440250396729e+01 -8.555868685245513916e+00 3.221765249036252499e-01
-1.297777330875396729e+01 -8.637533724308013916e+00 3.260980336926877499e-01
-1.288829576969146729e+01 -8.724813997745513916e+00 3.295922963880002499e-01
-3.283092272281646729e+01 -1.918501907587051392e+01 3.332086293958127499e-01
-3.344066393375396729e+01 -1.989864212274551392e+01 3.413110463880002499e-01
-3.358885729312896729e+01 -2.035433059930801392e+01 3.504968374036252499e-01
-1.329344713687896729e+01 -8.398031771183013916e+00 3.821893422864377499e-01
-1.315440905094146729e+01 -8.456991732120513916e+00 3.860040395520627499e-01
-1.304564440250396729e+01 -8.533651888370513916e+00 3.897577016614377499e-01
-1.294896471500396729e+01 -8.616659700870513916e+00 3.934961049817502499e-01
-1.286058580875396729e+01 -8.704306185245513916e+00 3.971887319348752499e-01
-3.393492662906646729e+01 -1.981233841180801392e+01 5.070520131848752499e-01
-3.440721666812896729e+01 -2.045772415399551392e+01 5.190911977551877499e-01
-3.336681139469146729e+01 -2.021578079462051392e+01 5.264764516614377499e-01
-1.327647936344146729e+01 -8.385336458683013916e+00 4.505181997083127499e-01
-1.313805162906646729e+01 -8.444296419620513916e+00 4.539209096692502499e-01
-1.302794420719146729e+01 -8.520102083683013916e+00 4.574456899426877499e-01
-1.292979967594146729e+01 -8.601889193058013916e+00 4.606195180676877499e-01
-1.283971178531646729e+01 -8.688192903995513916e+00 4.641748159192502499e-01
-3.479295885562896729e+01 -2.029817825555801392e+01 6.913934438489377499e-01
-3.522166979312896729e+01 -2.092745071649551392e+01 7.067437856458127499e-01
-3.339330065250396729e+01 -2.022530227899551392e+01 7.014642446301877499e-01
-1.326830065250396729e+01 -8.377890169620513916e+00 5.183892934583127499e-01
-1.314110338687896729e+01 -8.443930208683013916e+00 5.215173452161252499e-01
-1.303124010562896729e+01 -8.519735872745513916e+00 5.247827260755002499e-01
-1.294518053531646729e+01 -8.609335482120513916e+00 5.282464711926877499e-01
-1.285790026187896729e+01 -8.697714388370513916e+00 5.316949575208127499e-01
-3.463487780094146729e+01 -2.020101028680801392e+01 8.697076528333127499e-01
-3.461363756656646729e+01 -2.056551223993301392e+01 8.817468374036252499e-01
-3.469640123844146729e+01 -2.099519973993301392e+01 8.954187124036252499e-01
-1.326610338687896729e+01 -8.374105989933013916e+00 5.862603872083127499e-01
-1.313927233219146729e+01 -8.440268099308013916e+00 5.890527456067502499e-01
-1.302940905094146729e+01 -8.516195833683013916e+00 5.920739858411252499e-01
-1.294591295719146729e+01 -8.607382357120513916e+00 5.954614370130002499e-01
-1.286412584781646729e+01 -8.699301302433013916e+00 5.988641469739377499e-01
-2.397618639469146729e+01 -1.408516556024551392e+01 8.454461782239377499e-01
-2.477794420719146729e+01 -1.481246048212051392e+01 8.702722280286252499e-01
-2.562486803531646729e+01 -1.558711868524551392e+01 8.967309682630002499e-01
-1.328136217594146729e+01 -8.380941927433013916e+00 6.548333852551877499e-01
-1.315367662906646729e+01 -8.446737825870513916e+00 6.572595327161252499e-01
-1.304381334781646729e+01 -8.522787630558013916e+00 6.600366323255002499e-01
-1.294237291812896729e+01 -8.602743685245513916e+00 6.629510610364377499e-01
-1.287511217594146729e+01 -8.704062044620513916e+00 6.665673940442502499e-01
-2.403441393375396729e+01 -1.411409622430801392e+01 9.702783315442502499e-01
-2.476830065250396729e+01 -1.480220657587051392e+01 9.983239858411252499e-01
-2.557201159000396729e+01 -1.555086380243301392e+01 1.028826305177062750e+00
-1.334789049625396729e+01 -8.418905794620513916e+00 7.245202749036252499e-01
-1.321715319156646729e+01 -8.483603060245513916e+00 7.265649526380002499e-01
-1.310790026187896729e+01 -8.560751497745513916e+00 7.291284292005002499e-01
-1.300682604312896729e+01 -8.641684114933013916e+00 7.318750112317502499e-01
-1.291417467594146729e+01 -8.727255403995513916e+00 7.348046987317502499e-01
-3.385533678531646729e+01 -1.973531204462051392e+01 1.387407848145812750e+00
-3.901024401187896729e+01 -2.311324173212051392e+01 1.558077403809875250e+00
-3.566673815250396729e+01 -2.155318313837051392e+01 1.471590587403625250e+00
-1.339317858219146729e+01 -8.443930208683013916e+00 7.942529409192502499e-01
-1.323644030094146729e+01 -8.493002474308013916e+00 7.951379506848752499e-01
-1.312633287906646729e+01 -8.569906771183013916e+00 7.974572866223752499e-01
-1.302513659000396729e+01 -8.650961458683013916e+00 8.003564565442502499e-01
-1.293187487125396729e+01 -8.736410677433013916e+00 8.031182973645627499e-01
-3.660790026187896729e+01 -2.130525833368301392e+01 1.659533092286437750e+00
-3.983165514469146729e+01 -2.358540970087051392e+01 1.791048595216125250e+00
-4.049034655094146729e+01 -2.441585403680801392e+01 1.833361217286437750e+00
-1.343163073062896729e+01 -8.464804232120513916e+00 8.645959584973752499e-01
-1.326207506656646729e+01 -8.506430208683013916e+00 8.645196645520627499e-01
-1.315135729312896729e+01 -8.583334505558013916e+00 8.665796010755002499e-01
-1.304771959781646729e+01 -8.663046419620513916e+00 8.688379018567502499e-01
-1.295384752750396729e+01 -8.748251497745513916e+00 8.714318959973752499e-01
-3.661681139469146729e+01 -2.130354934930801392e+01 1.850985118653625250e+00
-3.317821276187896729e+01 -1.969576126337051392e+01 1.727312633302062750e+00
-4.133238756656646729e+01 -2.490901809930801392e+01 2.080874034669250250e+00
-1.345287096500396729e+01 -8.475180208683013916e+00 9.342523305676877499e-01
-1.327623522281646729e+01 -8.512777864933013916e+00 9.333368032239377499e-01
-1.316051256656646729e+01 -8.586630403995513916e+00 9.349389760755002499e-01
-1.305675280094146729e+01 -8.666342318058013916e+00 9.369683950208127499e-01
-1.296031725406646729e+01 -8.749960482120513916e+00 9.396692006848752499e-01
-3.436180651187896729e+01 -2.000630813837051392e+01 1.938097545411437750e+00
-3.637987291812896729e+01 -2.155708938837051392e+01 2.048952647950500250e+00
-3.604857409000396729e+01 -2.176009231805801392e+01 2.052340099122375250e+00
-3.396776354312896729e+01 -2.090108352899551392e+01 1.972963878419250250e+00
-1.328746569156646729e+01 -8.517294466495513916e+00 1.002520152833312750e+00
-1.316747057437896729e+01 -8.588461458683013916e+00 1.003634044434875250e+00
-1.306505358219146729e+01 -8.669272005558013916e+00 1.005541393067687750e+00
-1.296861803531646729e+01 -8.753012239933013916e+00 1.007692882325500250e+00
-3.909300768375396729e+01 -2.270650345087051392e+01 2.358446666505187750e+00
-3.519640123844146729e+01 -2.086018997430801392e+01 2.177813121583312750e+00
-3.575914537906646729e+01 -2.158125931024551392e+01 2.226275035645812750e+00
-3.470641100406646729e+01 -2.134200149774551392e+01 2.190630504395812750e+00
-2.911559069156646729e+01 -1.828133255243301392e+01 1.912600108888000250e+00
-1.405345690250396729e+01 -9.143026888370513916e+00 1.119310924317687750e+00
-1.380589830875396729e+01 -9.141073763370513916e+00 1.113619395997375250e+00
-1.371214830875396729e+01 -9.235312044620513916e+00 1.116564342286437750e+00
-3.392564928531646729e+01 -1.974410110712051392e+01 2.270906993653625250e+00
-3.346678698062896729e+01 -1.984529739618301392e+01 2.264010020997375250e+00
-3.337621080875396729e+01 -2.015877395868301392e+01 2.277910777833312750e+00
-3.381053698062896729e+01 -2.079305130243301392e+01 2.322405406739562750e+00
-2.910960924625396729e+01 -1.827205520868301392e+01 2.066652843263000250e+00
-1.374901354312896729e+01 -8.949057161808013916e+00 1.174517223145812750e+00
-1.458165514469146729e+01 -9.635092318058013916e+00 1.232271739747375250e+00
-1.488976061344146729e+01 -1.000032669305801392e+01 1.259432384278625250e+00
-3.437340319156646729e+01 -1.999385696649551392e+01 2.475313731934875250e+00
-3.319359362125396729e+01 -1.967989212274551392e+01 2.422304698731750250e+00
-3.307811510562896729e+01 -1.997554641962051392e+01 2.434862682130187750e+00
-3.366783678531646729e+01 -2.070027786493301392e+01 2.491304942872375250e+00
-2.909874498844146729e+01 -1.825984817743301392e+01 2.219500133302062750e+00
-2.968285143375396729e+01 -1.895625931024551392e+01 2.276003429200500250e+00
-1.389940416812896729e+01 -9.195761263370513916e+00 1.264223644044250250e+00
-1.457213366031646729e+01 -9.790609896183013916e+00 1.317080089356750250e+00
-3.418431627750396729e+01 -1.987947708368301392e+01 2.641863414552062750e+00
-3.309337389469146729e+01 -1.961543899774551392e+01 2.588427135255187750e+00
-3.359666979312896729e+01 -2.027730423212051392e+01 2.643328258302062750e+00
-3.992113268375396729e+01 -2.447762161493301392e+01 3.099337169434875250e+00
-2.908910143375396729e+01 -1.824849563837051392e+01 2.373125621583312750e+00
-2.967284166812896729e+01 -1.894429641962051392e+01 2.432726451661437750e+00
-1.406200182437896729e+01 -9.297201693058013916e+00 1.348101207520812750e+00
-1.381810534000396729e+01 -9.296591341495513916e+00 1.340059825684875250e+00
-1.236229479312896729e+01 -8.392782747745513916e+00 9.554454591125249863e-03
-1.232896959781646729e+01 -8.510702669620513916e+00 1.225526025518774986e-02
-1.228832018375396729e+01 -8.624350130558013916e+00 1.486451318487524986e-02
-1.224498522281646729e+01 -8.737265169620513916e+00 1.755006005987524986e-02
-1.218797838687896729e+01 -8.840780794620513916e+00 2.069337060675024986e-02
-1.212096178531646729e+01 -8.937826693058013916e+00 2.415711572393774986e-02
-1.205406725406646729e+01 -9.034506380558013916e+00 2.762086084112524986e-02
-1.197984850406646729e+01 -9.125692903995513916e+00 3.097779443487524986e-02
-1.379771959781646729e+01 -9.330526888370513916e+00 3.502137353643774986e-02
-1.373521959781646729e+01 -9.446127474308013916e+00 3.854615380987524986e-02
-1.367271959781646729e+01 -9.561972200870513916e+00 4.208619287237524986e-02
-1.361791002750396729e+01 -9.683920443058013916e+00 4.580933740362524986e-02
-1.355516588687896729e+01 -9.800253450870513916e+00 4.934937646612524986e-02
-1.348399889469146729e+01 -9.911337435245513916e+00 5.275208642706274986e-02
-1.342088854312896729e+01 -1.002803665399551392e+01 5.630738427862524986e-02
-1.335777819156646729e+01 -1.014485794305801392e+01 5.987794091925024986e-02
-1.572020494937896729e+01 -1.058687454462051392e+01 6.563050439581274986e-02
-1.565062487125396729e+01 -1.072054153680801392e+01 6.970460107550024986e-02
-1.558080065250396729e+01 -1.085445266962051392e+01 7.379395654425024986e-02
-1.551061022281646729e+01 -1.098909622430801392e+01 7.789857080206274986e-02
-1.544054186344146729e+01 -1.112361770868301392e+01 8.200318505987524986e-02
-1.537010729312896729e+01 -1.125887161493301392e+01 8.613831689581274986e-02
-1.529967272281646729e+01 -1.139388138055801392e+01 9.025818994268774986e-02
-1.522911608219146729e+01 -1.152925735712051392e+01 9.439332177862524986e-02
-1.584654772281646729e+01 -1.066658645868301392e+01 1.463037221692502499e-01
-1.595885241031646729e+01 -1.092293411493301392e+01 1.480127065442502499e-01
-1.806969225406646729e+01 -1.254024368524551392e+01 1.174798696301877499e-01
-1.799071276187896729e+01 -1.269930130243301392e+01 1.223321645520627499e-01
-1.792552721500396729e+01 -1.286775833368301392e+01 1.269708364270627499e-01
-1.788463366031646729e+01 -1.305525833368301392e+01 1.312585561536252499e-01
-1.784361803531646729e+01 -1.324349075555801392e+01 1.355615346692502499e-01
-1.778587877750396729e+01 -1.342073684930801392e+01 1.396051137708127499e-01
-1.394432604312896729e+01 -9.418783724308013916e+00 2.508722036145627499e-01
-1.340929186344146729e+01 -9.221151888370513916e+00 2.596765249036252499e-01
-1.368004381656646729e+01 -9.559164583683013916e+00 2.598596303723752499e-01
-1.400731432437896729e+01 -9.944906771183013916e+00 2.596612661145627499e-01
-1.346043932437896729e+01 -9.725790560245513916e+00 2.683129995130002499e-01
-1.338976061344146729e+01 -9.836142122745513916e+00 2.721276967786252499e-01
-1.300938951969146729e+01 -9.720541536808013916e+00 2.788720815442502499e-01
-1.295946276187896729e+01 -9.842001497745513916e+00 2.824121206067502499e-01
-1.288792955875396729e+01 -8.725058138370513916e+00 3.296075551770627499e-01
-1.280162584781646729e+01 -8.813925325870513916e+00 3.336511342786252499e-01
-1.271812975406646729e+01 -8.904135286808013916e+00 3.373132436536252499e-01
-1.263695299625396729e+01 -8.996298372745513916e+00 3.409600942395627499e-01
-1.255870592594146729e+01 -9.089560091495513916e+00 3.445764272473752499e-01
-1.249120104312896729e+01 -9.190878450870513916e+00 3.481622426770627499e-01
-1.243126451969146729e+01 -9.297201693058013916e+00 3.517175405286252499e-01
-1.239183580875396729e+01 -9.419027864933013916e+00 3.548303334973752499e-01
-1.286021959781646729e+01 -8.704550325870513916e+00 3.972039907239377499e-01
-1.277428209781646729e+01 -8.793173372745513916e+00 4.007898061536252499e-01
-1.269041979312896729e+01 -8.882895052433013916e+00 4.043603627942502499e-01
-1.260838854312896729e+01 -8.974081575870513916e+00 4.079461782239377499e-01
-1.252977526187896729e+01 -9.066855013370513916e+00 4.115014760755002499e-01
-1.246043932437896729e+01 -9.166464388370513916e+00 4.150872915051877499e-01
-1.239952623844146729e+01 -9.271811068058013916e+00 4.186731069348752499e-01
-1.235924303531646729e+01 -9.392538607120513916e+00 4.223046987317502499e-01
-1.283934557437896729e+01 -8.688437044620513916e+00 4.641748159192502499e-01
-1.275340807437896729e+01 -8.776938021183013916e+00 4.676690786145627499e-01
-1.266991198062896729e+01 -8.866659700870513916e+00 4.715142934583127499e-01
-1.258946764469146729e+01 -8.958578646183013916e+00 4.750238149426877499e-01
-1.251329576969146729e+01 -9.052816927433013916e+00 4.785333364270627499e-01
-1.244432604312896729e+01 -9.152548372745513916e+00 4.821191518567502499e-01
-1.238426744937896729e+01 -9.258261263370513916e+00 4.853997915051877499e-01
-1.234654772281646729e+01 -9.380697786808013916e+00 4.892144887708127499e-01
-1.285753405094146729e+01 -8.697958528995513916e+00 5.317102163098752499e-01
-1.276073229312896729e+01 -8.779379427433013916e+00 5.349755971692502499e-01
-1.267625963687896729e+01 -8.868612825870513916e+00 5.383783071301877499e-01
-1.260289537906646729e+01 -8.965536653995513916e+00 5.419183461926877499e-01
-1.251634752750396729e+01 -9.052572786808013916e+00 5.452752797864377499e-01
-1.244762194156646729e+01 -9.152426302433013916e+00 5.488610952161252499e-01
-1.238707506656646729e+01 -9.257772982120513916e+00 5.525384633801877499e-01
-1.234093248844146729e+01 -9.374105989933013916e+00 5.564294545911252499e-01
-1.286375963687896729e+01 -8.699545443058013916e+00 5.988794057630002499e-01
-1.276695787906646729e+01 -8.781088411808013916e+00 6.020074575208127499e-01
-1.268248522281646729e+01 -8.870321810245513916e+00 6.053186147473752499e-01
-1.260948717594146729e+01 -8.967611849308013916e+00 6.088433950208127499e-01
-1.251231920719146729e+01 -9.047445833683013916e+00 6.119104116223752499e-01
-1.244420397281646729e+01 -9.147665560245513916e+00 6.155114858411252499e-01
-1.238316881656646729e+01 -9.252523958683013916e+00 6.192346303723752499e-01
-1.233702623844146729e+01 -9.368734896183013916e+00 6.232476918958127499e-01
-1.287474596500396729e+01 -8.704306185245513916e+00 6.665826528333127499e-01
-1.277318346500396729e+01 -8.782919466495513916e+00 6.694513051770627499e-01
-1.268871080875396729e+01 -8.872152864933013916e+00 6.726861684583127499e-01
-1.261974108219146729e+01 -8.972372591495513916e+00 6.762872426770627499e-01
-1.252354967594146729e+01 -9.052816927433013916e+00 6.792321889661252499e-01
-1.245531237125396729e+01 -9.153158724308013916e+00 6.828332631848752499e-01
-1.239305651187896729e+01 -9.257406771183013916e+00 6.865716665051877499e-01
-1.234593737125396729e+01 -9.372885286808013916e+00 6.906915395520627499e-01
-1.291380846500396729e+01 -8.727377474308013916e+00 7.348199575208127499e-01
-1.282591784000396729e+01 -8.815512239933013916e+00 7.379174917005002499e-01
-1.274193346500396729e+01 -8.905844271183013916e+00 7.411065786145627499e-01
-1.266087877750396729e+01 -8.998251497745513916e+00 7.443872182630002499e-01
-1.258458483219146729e+01 -9.093222200870513916e+00 7.477746694348752499e-01
-1.251463854312896729e+01 -9.193197786808013916e+00 7.513604848645627499e-01
-1.245079576969146729e+01 -9.296835482120513916e+00 7.551141469739377499e-01
-1.239305651187896729e+01 -9.405355989933013916e+00 7.590661733411252499e-01
-1.293150866031646729e+01 -8.736532747745513916e+00 8.031335561536252499e-01
-1.284312975406646729e+01 -8.824545443058013916e+00 8.061242788098752499e-01
-1.275816881656646729e+01 -8.914389193058013916e+00 8.088403432630002499e-01
-1.267650377750396729e+01 -9.006674349308013916e+00 8.120446889661252499e-01
-1.259984362125396729e+01 -9.101522982120513916e+00 8.153863637708127499e-01
-1.252940905094146729e+01 -9.201254427433013916e+00 8.189721792005002499e-01
-1.246495592594146729e+01 -9.304770052433013916e+00 8.231073110364377499e-01
-1.241454088687896729e+01 -9.418783724308013916e+00 8.273950307630002499e-01
-1.295348131656646729e+01 -8.748495638370513916e+00 8.714318959973752499e-01
-1.286412584781646729e+01 -8.836142122745513916e+00 8.743005483411252499e-01
-1.277892076969146729e+01 -8.925985872745513916e+00 8.772912709973752499e-01
-1.269688951969146729e+01 -9.018148958683013916e+00 8.804345815442502499e-01
-1.261961901187896729e+01 -9.112997591495513916e+00 8.837304799817502499e-01
-1.255016100406646729e+01 -9.213583528995513916e+00 8.873468129895627499e-01
-1.248497545719146729e+01 -9.316977083683013916e+00 8.911462514661252499e-01
-1.243480455875396729e+01 -9.431356966495513916e+00 8.955560415051877499e-01
-1.295995104312896729e+01 -8.750204622745513916e+00 9.396692006848752499e-01
-1.287108385562896729e+01 -8.838217318058013916e+00 9.420800893567502499e-01
-1.278624498844146729e+01 -8.928549349308013916e+00 9.450250356458127499e-01
-1.270482409000396729e+01 -9.021200716495513916e+00 9.481225698255002499e-01
-1.262926256656646729e+01 -9.117270052433013916e+00 9.514489858411252499e-01
-1.256664049625396729e+01 -9.222982943058013916e+00 9.554010122083127499e-01
-1.251170885562896729e+01 -9.333822786808013916e+00 9.597039907239377499e-01
-1.248473131656646729e+01 -9.465780794620513916e+00 9.657312124036252499e-01
-1.296812975406646729e+01 -8.753256380558013916e+00 1.007692882325500250e+00
-1.287853014469146729e+01 -8.840780794620513916e+00 1.010332652833312750e+00
-1.279381334781646729e+01 -8.931234896183013916e+00 1.013186046388000250e+00
-1.271373522281646729e+01 -9.024984896183013916e+00 1.016298839356750250e+00
-1.263939440250396729e+01 -9.122030794620513916e+00 1.019671031739562750e+00
-1.256944811344146729e+01 -9.222494661808013916e+00 1.023287364747375250e+00
-1.251268541812896729e+01 -9.332113802433013916e+00 1.027575084473937750e+00
