-4.320126961916685104e+00 -9.908741563558578491e+00 7.171516981912873234e-03
-4.112241219729185104e+00 -9.690601915121078491e+00 2.898031147253732343e-04
-3.946225594729185104e+00 -9.563648790121078491e+00 -4.257316025899626766e-03
-3.799497079104185104e+00 -9.477833360433578491e+00 -7.751578721212126766e-03
-3.655820321291685104e+00 -9.393726915121078491e+00 -1.089488926808712677e-02
-3.516171883791685104e+00 -9.311939805746078491e+00 -1.422130528371212677e-02
-4.767026375979185104e+00 -1.037810191512107849e+01 7.669055995066287323e-02
-4.537534188479185104e+00 -1.013713511824607849e+01 6.736743983347537323e-02
-4.319638680666685104e+00 -9.908375352621078491e+00 5.879200038035037323e-02
-4.111997079104185104e+00 -9.690235704183578491e+00 5.061328944285037323e-02
-3.945981454104185104e+00 -9.563526719808578491e+00 4.525745448191287323e-02
-3.799252938479185104e+00 -9.477589219808578491e+00 4.115284022410037323e-02
-3.655698250979185104e+00 -9.393604844808578491e+00 3.713977870066287323e-02
-3.515927743166685104e+00 -9.311817735433578491e+00 3.349292811472537323e-02
-2.156674813479185104e+00 -5.465626329183578491e+00 -6.290436929790246268e-01
-2.091123055666685104e+00 -5.467701524496078491e+00 -6.279908365337121268e-01
-2.025327157229185104e+00 -5.467945665121078491e+00 -6.269837564555871268e-01
-1.959775399416685104e+00 -5.468311876058578491e+00 -6.259766763774621268e-01
-1.892880868166685104e+00 -5.462208360433578491e+00 -6.245881265727746268e-01
-1.826474618166685104e+00 -5.456226915121078491e+00 -6.231995767680871268e-01
-1.760434579104185104e+00 -5.450245469808578491e+00 -6.218262857524621268e-01
-1.694638680666685104e+00 -5.442432969808578491e+00 -6.204987711040246268e-01
-2.306577157229185104e+00 -5.889332383871078491e+00 -6.247559732524621268e-01
-2.232358407229185104e+00 -5.879932969808578491e+00 -6.231995767680871268e-01
-2.159726571291685104e+00 -5.873097032308578491e+00 -6.216431802837121268e-01
-2.086606454104185104e+00 -5.863819688558578491e+00 -6.201020425883996268e-01
-2.014340829104185104e+00 -5.854664415121078491e+00 -6.185914224712121268e-01
-1.942807625979185104e+00 -5.845631211996078491e+00 -6.170960611430871268e-01
-1.871030282229185104e+00 -5.834156602621078491e+00 -6.156159586040246268e-01
-1.800839852541685104e+00 -5.825611680746078491e+00 -6.141663736430871268e-01
-2.488095711916685104e+00 -6.402515977621078491e+00 -6.210938638774621268e-01
-2.407041024416685104e+00 -6.389698594808578491e+00 -6.194306558696496268e-01
-2.326840829104185104e+00 -6.377125352621078491e+00 -6.177827066508996268e-01
-2.247128915041685104e+00 -6.364552110433578491e+00 -6.161500162212121268e-01
-2.168393563479185104e+00 -6.352223008871078491e+00 -6.145325845805871268e-01
-2.090512704104185104e+00 -6.340015977621078491e+00 -6.129456705180871268e-01
-2.013120125979185104e+00 -6.327808946371078491e+00 -6.113587564555871268e-01
-1.936704110354185104e+00 -6.315846055746078491e+00 -6.097871011821496268e-01
-2.710019540041685104e+00 -7.029591172933578491e+00 -6.181489175883996268e-01
-2.620908211916685104e+00 -7.013722032308578491e+00 -6.162263101665246268e-01
-2.531430672854185104e+00 -6.993946641683578491e+00 -6.143342203227746268e-01
-2.442563485354185104e+00 -6.974415391683578491e+00 -6.124421304790246268e-01
-2.355039071291685104e+00 -6.955128282308578491e+00 -6.105958170024621268e-01
-2.268613290041685104e+00 -6.936207383871078491e+00 -6.087495035258996268e-01
-2.182797860354185104e+00 -6.917286485433578491e+00 -6.069337076274621268e-01
-2.097226571291685104e+00 -6.894825547933578491e+00 -6.051484293071496268e-01
-2.954892586916685104e+00 -7.721363633871078491e+00 -6.117249673930871268e-01
-2.860410165041685104e+00 -7.712452501058578491e+00 -6.104279703227746268e-01
-2.766782235354185104e+00 -7.703663438558578491e+00 -6.091309732524621268e-01
-2.673520516604185104e+00 -7.694874376058578491e+00 -6.078339761821496268e-01
-2.581479500979185104e+00 -7.686207383871078491e+00 -6.065674966899621268e-01
-2.490048836916685104e+00 -7.677662461996078491e+00 -6.053010171977746268e-01
-2.399228524416685104e+00 -7.669117540121078491e+00 -6.040497964946496268e-01
-2.309384774416685104e+00 -7.660572618246078491e+00 -6.028138345805871268e-01
-3.440000008791685104e+00 -9.092213243246078491e+00 -6.251527017680871268e-01
-3.328671883791685104e+00 -9.078541368246078491e+00 -6.234589761821496268e-01
-3.215756844729185104e+00 -9.057667344808578491e+00 -6.217347330180871268e-01
-3.099912118166685104e+00 -9.024708360433578491e+00 -6.195527261821496268e-01
-2.984067391604185104e+00 -8.986622422933578491e+00 -6.171876138774621268e-01
-2.864316415041685104e+00 -8.929981797933578491e+00 -6.141205972758996268e-01
-2.741513680666685104e+00 -8.858082383871078491e+00 -6.104890054790246268e-01
-2.621884774416685104e+00 -8.788014024496078491e+00 -6.071778482524621268e-01
-3.517880868166685104e+00 -9.312550157308578491e+00 -5.858918375102746268e-01
-3.381284188479185104e+00 -9.232594102621078491e+00 -5.823975748149621268e-01
-3.247739266604185104e+00 -9.154469102621078491e+00 -5.789643472758996268e-01
-3.116757821291685104e+00 -9.077808946371078491e+00 -5.756074136821496268e-01
-2.989072274416685104e+00 -9.002979844808578491e+00 -5.723420328227746268e-01
-2.864072274416685104e+00 -8.929859727621078491e+00 -5.691376871196496268e-01
-2.741391610354185104e+00 -8.858082383871078491e+00 -5.659791177837121268e-01
-2.621762704104185104e+00 -8.788014024496078491e+00 -5.629121011821496268e-01
-3.517758797854185104e+00 -9.312428086996078491e+00 -5.383454507915246268e-01
-3.381162118166685104e+00 -9.232594102621078491e+00 -5.353699869243371268e-01
-3.247617196291685104e+00 -9.154347032308578491e+00 -5.322266763774621268e-01
-3.116635750979185104e+00 -9.077686876058578491e+00 -5.293885416118371268e-01
-2.988950204104185104e+00 -9.002979844808578491e+00 -5.266114420024621268e-01
-2.863950204104185104e+00 -8.929859727621078491e+00 -5.239106363383996268e-01
-2.741391610354185104e+00 -8.857960313558578491e+00 -5.214844888774621268e-01
-2.621640633791685104e+00 -8.787891954183578491e+00 -5.188904947368371268e-01
-3.517514657229185104e+00 -9.312428086996078491e+00 -4.905396646587121268e-01
-3.380917977541685104e+00 -9.232472032308578491e+00 -4.881135171977746268e-01
-3.247495125979185104e+00 -9.154224961996078491e+00 -4.857484048930871268e-01
-3.116513680666685104e+00 -9.077564805746078491e+00 -4.834138101665246268e-01
-2.988828133791685104e+00 -9.002857774496078491e+00 -4.811555093852746268e-01
-2.863828133791685104e+00 -8.929737657308578491e+00 -4.789429849712121268e-01
-2.741269540041685104e+00 -8.857960313558578491e+00 -4.767609781352746268e-01
-2.621518563479185104e+00 -8.787891954183578491e+00 -4.746400064555871268e-01
-3.517270516604185104e+00 -9.312306016683578491e+00 -4.429932779399621268e-01
-3.380795907229185104e+00 -9.232349961996078491e+00 -4.411164468852746268e-01
-3.247250985354185104e+00 -9.154224961996078491e+00 -4.392701334087121268e-01
-3.116269540041685104e+00 -9.077564805746078491e+00 -4.374543375102746268e-01
-2.988583993166685104e+00 -9.002735704183578491e+00 -4.356995767680871268e-01
-2.863706063479185104e+00 -8.929615586996078491e+00 -4.339753336040246268e-01
-2.741147469729185104e+00 -8.857838243246078491e+00 -4.322816080180871268e-01
-2.621518563479185104e+00 -8.787769883871078491e+00 -4.306336587993371268e-01
-3.517148446291685104e+00 -9.312183946371078491e+00 -3.952027505962121268e-01
-3.380551766604185104e+00 -9.232227891683578491e+00 -3.938599771587121268e-01
-3.247128915041685104e+00 -9.154102891683578491e+00 -3.925477212993371268e-01
-3.116147469729185104e+00 -9.077442735433578491e+00 -3.912659830180871268e-01
-2.988461922854185104e+00 -9.002735704183578491e+00 -3.899995035258996268e-01
-2.863583993166685104e+00 -8.929615586996078491e+00 -3.887788004008996268e-01
-2.741025399416685104e+00 -8.857838243246078491e+00 -3.875733560649621268e-01
-2.621396493166685104e+00 -8.787769883871078491e+00 -3.863831705180871268e-01
-3.516904305666685104e+00 -9.312061876058578491e+00 -3.476868814555871268e-01
-3.380429696291685104e+00 -9.232105821371078491e+00 -3.468781656352746268e-01
-3.247006844729185104e+00 -9.153980821371078491e+00 -3.460847086040246268e-01
-3.116025399416685104e+00 -9.077320665121078491e+00 -3.453217691508996268e-01
-2.988339852541685104e+00 -9.002613633871078491e+00 -3.445588296977746268e-01
-2.863461922854185104e+00 -8.929493516683578491e+00 -3.438264078227746268e-01
-2.740903329104185104e+00 -8.857716172933578491e+00 -3.430939859477746268e-01
-2.621274422854185104e+00 -8.787647813558578491e+00 -3.423920816508996268e-01
-3.516782235354185104e+00 -9.311939805746078491e+00 -2.999116129008996268e-01
-3.380185555666685104e+00 -9.231983751058578491e+00 -2.996522134868371268e-01
-3.246762704104185104e+00 -9.153858751058578491e+00 -2.996369546977746268e-01
-3.115903329104185104e+00 -9.077198594808578491e+00 -2.993775552837121268e-01
-2.988217782229185104e+00 -9.002491563558578491e+00 -2.991334146587121268e-01
-2.863339852541685104e+00 -8.929371446371078491e+00 -2.988740152446496268e-01
-2.740781258791685104e+00 -8.857594102621078491e+00 -2.984009927837121268e-01
-2.621152352541685104e+00 -8.787647813558578491e+00 -2.981721109477746268e-01
-3.516538094729185104e+00 -9.311817735433578491e+00 -2.524110025493371268e-01
-3.380063485354185104e+00 -9.231861680746078491e+00 -2.526856607524621268e-01
-3.246640633791685104e+00 -9.153736680746078491e+00 -2.529450601665246268e-01
-3.115659188479185104e+00 -9.077198594808578491e+00 -2.532044595805871268e-01
-2.988095711916685104e+00 -9.002491563558578491e+00 -2.534638589946496268e-01
-2.863217782229185104e+00 -8.929371446371078491e+00 -2.537079996196496268e-01
-2.740659188479185104e+00 -8.857594102621078491e+00 -2.539521402446496268e-01
-2.621030282229185104e+00 -8.787525743246078491e+00 -2.541810220805871268e-01
-3.516293954104185104e+00 -9.311695665121078491e+00 -2.046509927837121268e-01
-3.379819344729185104e+00 -9.231861680746078491e+00 -2.057191080180871268e-01
-3.246396493166685104e+00 -9.153736680746078491e+00 -2.065125650493371268e-01
-3.115537118166685104e+00 -9.077076524496078491e+00 -2.072755045024621268e-01
-2.987973641604185104e+00 -9.002369493246078491e+00 -2.080384439555871268e-01
-2.863095711916685104e+00 -8.929249376058578491e+00 -2.087708658305871268e-01
-2.740537118166685104e+00 -8.857472032308578491e+00 -2.095032877055871268e-01
-2.620908211916685104e+00 -8.787525743246078491e+00 -2.099763101665246268e-01
-3.516171883791685104e+00 -9.311573594808578491e+00 -1.571656412212121268e-01
-3.379697274416685104e+00 -9.231739610433578491e+00 -1.585084146587121268e-01
-3.246274422854185104e+00 -9.153614610433578491e+00 -1.598359293071496268e-01
-3.115415047854185104e+00 -9.076954454183578491e+00 -1.611176675883996268e-01
-2.987851571291685104e+00 -9.002247422933578491e+00 -1.623841470805871268e-01
-2.862973641604185104e+00 -8.929249376058578491e+00 -1.636201089946496268e-01
-2.740415047854185104e+00 -8.857472032308578491e+00 -1.648255533305871268e-01
-2.620786141604185104e+00 -8.787403672933578491e+00 -1.660157388774621268e-01
-3.515927743166685104e+00 -9.311451524496078491e+00 -1.094361490337121268e-01
-3.379453133791685104e+00 -9.231617540121078491e+00 -1.115723795024621268e-01
-3.246152352541685104e+00 -9.153492540121078491e+00 -1.134034341899621268e-01
-3.115292977541685104e+00 -9.076832383871078491e+00 -1.152192300883996268e-01
-2.987607430666685104e+00 -9.002247422933578491e+00 -1.169892496196496268e-01
-2.862851571291685104e+00 -8.929127305746078491e+00 -1.187134927837121268e-01
-2.740292977541685104e+00 -8.857349961996078491e+00 -1.203919595805871268e-01
-2.620786141604185104e+00 -8.787403672933578491e+00 -1.218110269633996268e-01
-3.515805672854185104e+00 -9.311329454183578491e+00 -6.195079747121212677e-02
-3.379331063479185104e+00 -9.231495469808578491e+00 -6.437694493214962677e-02
-3.245908211916685104e+00 -9.153370469808578491e+00 -6.675731602589962677e-02
-3.115048836916685104e+00 -9.076832383871078491e+00 -6.907665196339962677e-02
-2.987485360354185104e+00 -9.002125352621078491e+00 -7.135021153371212677e-02
-2.862729500979185104e+00 -8.929005235433578491e+00 -7.356273594777462677e-02
-2.740170907229185104e+00 -8.857349961996078491e+00 -7.574474278371212677e-02
-2.620664071291685104e+00 -8.787281602621078491e+00 -7.786571446339962677e-02
-3.515561532229185104e+00 -9.311207383871078491e+00 -1.423656407277462677e-02
-3.379208993166685104e+00 -9.231373399496078491e+00 -1.719676915089962677e-02
-3.245786141604185104e+00 -9.153370469808578491e+00 -2.034007969777462677e-02
-3.114926766604185104e+00 -9.076710313558578491e+00 -2.319347325246212677e-02
-2.987363290041685104e+00 -9.002003282308578491e+00 -2.595531407277462677e-02
-2.862607430666685104e+00 -8.929005235433578491e+00 -2.867137852589962677e-02
-2.740048836916685104e+00 -8.857227891683578491e+00 -3.108226719777462677e-02
-2.620542000979185104e+00 -8.787281602621078491e+00 -3.367626133839962677e-02
-3.515317391604185104e+00 -9.311085313558578491e+00 3.347766932566287323e-02
-3.378964852541685104e+00 -9.231251329183578491e+00 2.972400721628787323e-02
-3.245664071291685104e+00 -9.153248399496078491e+00 2.629077967722537323e-02
-3.114804696291685104e+00 -9.076588243246078491e+00 2.293384608347537323e-02
-2.987241219729185104e+00 -9.002003282308578491e+00 1.966846522410037323e-02
-2.862485360354185104e+00 -8.928883165121078491e+00 1.646411952097537323e-02
-2.739926766604185104e+00 -8.857227891683578491e+00 1.332080897410037323e-02
-2.620419930666685104e+00 -8.787159532308578491e+00 1.048267420847537323e-02
-1.694394540041685104e+00 -5.442432969808578491e+00 -6.204987711040246268e-01
-1.629575204104185104e+00 -5.436085313558578491e+00 -6.191559976665246268e-01
-1.564633797854185104e+00 -5.427906602621078491e+00 -6.178590005962121268e-01
-1.500058602541685104e+00 -5.419727891683578491e+00 -6.165620035258996268e-01
-1.436093758791685104e+00 -5.411671251058578491e+00 -6.152955240337121268e-01
-1.372617196291685104e+00 -5.403736680746078491e+00 -6.140137857524621268e-01
-1.309384774416685104e+00 -5.395802110433578491e+00 -6.127625650493371268e-01
-1.246518563479185104e+00 -5.386036485433578491e+00 -6.115418619243371268e-01
-1.800717782229185104e+00 -5.825733751058578491e+00 -6.141816324321496268e-01
-1.730649422854185104e+00 -5.815357774496078491e+00 -6.128083414165246268e-01
-1.661679696291685104e+00 -5.807301133871078491e+00 -6.114197916118371268e-01
-1.592465829104185104e+00 -5.797169297933578491e+00 -6.100617593852746268e-01
-1.524106454104185104e+00 -5.787037461996078491e+00 -6.087342447368371268e-01
-1.456235360354185104e+00 -5.777027696371078491e+00 -6.074067300883996268e-01
-1.388242196291685104e+00 -5.765064805746078491e+00 -6.061249918071496268e-01
-1.321591805666685104e+00 -5.755177110433578491e+00 -6.048127359477746268e-01
-1.936459969729185104e+00 -6.315846055746078491e+00 -6.097871011821496268e-01
-1.860043954104185104e+00 -6.301319688558578491e+00 -6.082612222758996268e-01
-1.784360360354185104e+00 -6.286793321371078491e+00 -6.067506021587121268e-01
-1.709042977541685104e+00 -6.272389024496078491e+00 -6.052399820415246268e-01
-1.634702157229185104e+00 -6.258106797933578491e+00 -6.037598795024621268e-01
-1.560971688479185104e+00 -6.243946641683578491e+00 -6.022797769633996268e-01
-1.487607430666685104e+00 -6.230030626058578491e+00 -6.008149332133996268e-01
-1.415219735354185104e+00 -6.216114610433578491e+00 -5.993806070415246268e-01
-2.096860360354185104e+00 -6.894825547933578491e+00 -6.051484293071496268e-01
-2.013486336916685104e+00 -6.877125352621078491e+00 -6.033631509868371268e-01
-1.929868172854185104e+00 -6.855640977621078491e+00 -6.016083902446496268e-01
-1.846860360354185104e+00 -6.834400743246078491e+00 -5.998688882915246268e-01
-1.765439461916685104e+00 -6.815723985433578491e+00 -5.982667154399621268e-01
-1.684995125979185104e+00 -6.797657579183578491e+00 -5.966950601665246268e-01
-1.605161141604185104e+00 -6.779835313558578491e+00 -5.951386636821496268e-01
-1.525571297854185104e+00 -6.759083360433578491e+00 -5.936280435649621268e-01
-2.309140633791685104e+00 -7.660572618246078491e+00 -6.027985757915246268e-01
-2.219174813479185104e+00 -7.649464219808578491e+00 -6.015931314555871268e-01
-2.129086922854185104e+00 -7.634815782308578491e+00 -6.002503580180871268e-01
-2.036191415041685104e+00 -7.606739610433578491e+00 -5.983430093852746268e-01
-1.944638680666685104e+00 -7.579151719808578491e+00 -5.964509195415246268e-01
-1.854062508791685104e+00 -7.551807969808578491e+00 -5.945893472758996268e-01
-1.764340829104185104e+00 -7.524708360433578491e+00 -5.927430337993371268e-01
-1.675839852541685104e+00 -7.497974961996078491e+00 -5.909119791118371268e-01
-2.621396493166685104e+00 -8.787525743246078491e+00 -6.071625894633996268e-01
-2.504208993166685104e+00 -8.718922227621078491e+00 -6.035920328227746268e-01
-2.389218758791685104e+00 -8.651539415121078491e+00 -6.003266519633996268e-01
-2.276059579104185104e+00 -8.585377305746078491e+00 -5.971070474712121268e-01
-2.165463875979185104e+00 -8.520557969808578491e+00 -5.939637369243371268e-01
-2.056943368166685104e+00 -8.457081407308578491e+00 -5.908814615337121268e-01
-1.950131844729185104e+00 -8.394581407308578491e+00 -5.878449625102746268e-01
-1.845639657229185104e+00 -8.333424180746078491e+00 -5.850983804790246268e-01
-2.621274422854185104e+00 -8.787403672933578491e+00 -5.628968423930871268e-01
-2.504086922854185104e+00 -8.718800157308578491e+00 -5.599976724712121268e-01
-2.389096688479185104e+00 -8.651539415121078491e+00 -5.571442789165246268e-01
-2.276059579104185104e+00 -8.585255235433578491e+00 -5.543519205180871268e-01
-2.165463875979185104e+00 -8.520557969808578491e+00 -5.516205972758996268e-01
-2.056943368166685104e+00 -8.457081407308578491e+00 -5.489350504008996268e-01
-1.950131844729185104e+00 -8.394581407308578491e+00 -5.462952798930871268e-01
-1.845639657229185104e+00 -8.333424180746078491e+00 -5.437012857524621268e-01
-2.621152352541685104e+00 -8.787403672933578491e+00 -5.188752359477746268e-01
-2.503964852541685104e+00 -8.718800157308578491e+00 -5.164033121196496268e-01
-2.389096688479185104e+00 -8.651539415121078491e+00 -5.137482828227746268e-01
-2.275937508791685104e+00 -8.585255235433578491e+00 -5.113679117290246268e-01
-2.165341805666685104e+00 -8.520557969808578491e+00 -5.090485757915246268e-01
-2.056943368166685104e+00 -8.457081407308578491e+00 -5.067597574321496268e-01
-1.950131844729185104e+00 -8.394459336996078491e+00 -5.047455972758996268e-01
-1.845639657229185104e+00 -8.333302110433578491e+00 -5.025330728618371268e-01
-2.621030282229185104e+00 -8.787281602621078491e+00 -4.746247476665246268e-01
-2.503842782229185104e+00 -8.718678086996078491e+00 -4.725953287212121268e-01
-2.388974618166685104e+00 -8.651417344808578491e+00 -4.705964273540246268e-01
-2.275815438479185104e+00 -8.585255235433578491e+00 -4.686280435649621268e-01
-2.165341805666685104e+00 -8.520557969808578491e+00 -4.667054361430871268e-01
-2.056821297854185104e+00 -8.456959336996078491e+00 -4.648286050883996268e-01
-1.950009774416685104e+00 -8.394459336996078491e+00 -4.629670328227746268e-01
-1.845517586916685104e+00 -8.333302110433578491e+00 -4.611664957133996268e-01
-2.621030282229185104e+00 -8.787281602621078491e+00 -4.306184000102746268e-01
-2.503842782229185104e+00 -8.718678086996078491e+00 -4.290162271587121268e-01
-2.388852547854185104e+00 -8.651417344808578491e+00 -4.274445718852746268e-01
-2.275815438479185104e+00 -8.585133165121078491e+00 -4.258881754008996268e-01
-2.165219735354185104e+00 -8.520435899496078491e+00 -4.243775552837121268e-01
-2.056821297854185104e+00 -8.456959336996078491e+00 -4.228974527446496268e-01
-1.950009774416685104e+00 -8.394459336996078491e+00 -4.214326089946496268e-01
-1.845517586916685104e+00 -8.333302110433578491e+00 -4.200135416118371268e-01
-2.620908211916685104e+00 -8.787159532308578491e+00 -3.863831705180871268e-01
-2.503720711916685104e+00 -8.718556016683578491e+00 -3.852082437602746268e-01
-2.388852547854185104e+00 -8.651295274496078491e+00 -3.840638345805871268e-01
-2.275693368166685104e+00 -8.585133165121078491e+00 -3.829346841899621268e-01
-2.165219735354185104e+00 -8.520435899496078491e+00 -3.818360513774621268e-01
-2.056699227541685104e+00 -8.456959336996078491e+00 -3.807526773540246268e-01
-1.949887704104185104e+00 -8.394459336996078491e+00 -3.796845621196496268e-01
-1.845517586916685104e+00 -8.333302110433578491e+00 -3.786469644633996268e-01
-2.620786141604185104e+00 -8.787159532308578491e+00 -3.423920816508996268e-01
-2.503598641604185104e+00 -8.718556016683578491e+00 -3.416444009868371268e-01
-2.388730477541685104e+00 -8.651295274496078491e+00 -3.409272379008996268e-01
-2.275693368166685104e+00 -8.585133165121078491e+00 -3.402100748149621268e-01
-2.165097665041685104e+00 -8.520435899496078491e+00 -3.395234293071496268e-01
-2.056699227541685104e+00 -8.456959336996078491e+00 -3.388367837993371268e-01
-1.949887704104185104e+00 -8.394337266683578491e+00 -3.381653970805871268e-01
-1.845395516604185104e+00 -8.333302110433578491e+00 -3.375092691508996268e-01
-2.620664071291685104e+00 -8.787037461996078491e+00 -2.981721109477746268e-01
-2.503476571291685104e+00 -8.718433946371078491e+00 -2.978669351665246268e-01
-2.388608407229185104e+00 -8.651295274496078491e+00 -2.977906412212121268e-01
-2.275571297854185104e+00 -8.585011094808578491e+00 -2.975007242290246268e-01
-2.165097665041685104e+00 -8.520313829183578491e+00 -2.972108072368371268e-01
-2.056577157229185104e+00 -8.456837266683578491e+00 -2.969208902446496268e-01
-1.949887704104185104e+00 -8.394337266683578491e+00 -2.964173502055871268e-01
-1.845395516604185104e+00 -8.333180040121078491e+00 -2.961426920024621268e-01
-2.620542000979185104e+00 -8.787037461996078491e+00 -2.541810220805871268e-01
-2.503354500979185104e+00 -8.718433946371078491e+00 -2.543183511821496268e-01
-2.388486336916685104e+00 -8.651173204183578491e+00 -2.544404214946496268e-01
-2.275449227541685104e+00 -8.585011094808578491e+00 -2.545624918071496268e-01
-2.164975594729185104e+00 -8.520313829183578491e+00 -2.546845621196496268e-01
-2.056577157229185104e+00 -8.456837266683578491e+00 -2.547913736430871268e-01
-1.949765633791685104e+00 -8.394337266683578491e+00 -2.549134439555871268e-01
-1.845395516604185104e+00 -8.333180040121078491e+00 -2.550202554790246268e-01
-2.620419930666685104e+00 -8.786915391683578491e+00 -2.099763101665246268e-01
-2.503354500979185104e+00 -8.718433946371078491e+00 -2.107697671977746268e-01
-2.388486336916685104e+00 -8.651173204183578491e+00 -2.113190836040246268e-01
-2.275449227541685104e+00 -8.585011094808578491e+00 -2.118531412212121268e-01
-2.164975594729185104e+00 -8.520313829183578491e+00 -2.123871988383996268e-01
-2.056455086916685104e+00 -8.456837266683578491e+00 -2.128907388774621268e-01
-1.949765633791685104e+00 -8.394337266683578491e+00 -2.134095377055871268e-01
-1.845273446291685104e+00 -8.333180040121078491e+00 -2.136841959087121268e-01
-2.620297860354185104e+00 -8.786915391683578491e+00 -1.660157388774621268e-01
-2.503232430666685104e+00 -8.718311876058578491e+00 -1.670075601665246268e-01
-2.388364266604185104e+00 -8.651051133871078491e+00 -1.679841226665246268e-01
-2.275327157229185104e+00 -8.584889024496078491e+00 -1.689301675883996268e-01
-2.164853524416685104e+00 -8.520191758871078491e+00 -1.698609537212121268e-01
-2.056455086916685104e+00 -8.456837266683578491e+00 -1.707764810649621268e-01
-1.949643563479185104e+00 -8.394337266683578491e+00 -1.716920084087121268e-01
-1.845273446291685104e+00 -8.333180040121078491e+00 -1.725617593852746268e-01
-2.620297860354185104e+00 -8.786793321371078491e+00 -1.218262857524621268e-01
-2.503110360354185104e+00 -8.718311876058578491e+00 -1.234742349712121268e-01
-2.388242196291685104e+00 -8.651051133871078491e+00 -1.248780435649621268e-01
-2.275327157229185104e+00 -8.584889024496078491e+00 -1.262513345805871268e-01
-2.164731454104185104e+00 -8.520191758871078491e+00 -1.275788492290246268e-01
-2.056333016604185104e+00 -8.456715196371078491e+00 -1.289063638774621268e-01
-1.949643563479185104e+00 -8.394215196371078491e+00 -1.301881021587121268e-01
-1.845273446291685104e+00 -8.333180040121078491e+00 -1.312409586040246268e-01
-2.620175790041685104e+00 -8.786793321371078491e+00 -7.788097325246212677e-02
-2.502988290041685104e+00 -8.718189805746078491e+00 -7.972728672902462677e-02
-2.388242196291685104e+00 -8.651051133871078491e+00 -8.154308262746212677e-02
-2.275205086916685104e+00 -8.584889024496078491e+00 -8.332836094777462677e-02
-2.164731454104185104e+00 -8.520191758871078491e+00 -8.508312168996212677e-02
-2.056333016604185104e+00 -8.456715196371078491e+00 -8.679210606496212677e-02
-1.949643563479185104e+00 -8.394215196371078491e+00 -8.848583165089962677e-02
-1.845273446291685104e+00 -8.333180040121078491e+00 -9.013378086964962677e-02
-2.620053719729185104e+00 -8.786671251058578491e+00 -3.370677891652462677e-02
-2.502988290041685104e+00 -8.718189805746078491e+00 -3.598033848683712677e-02
-2.388120125979185104e+00 -8.650929063558578491e+00 -3.845226231496212677e-02
-2.275083016604185104e+00 -8.584766954183578491e+00 -4.066478672902462677e-02
-2.164609383791685104e+00 -8.520069688558578491e+00 -4.281627598683712677e-02
-2.056333016604185104e+00 -8.456715196371078491e+00 -4.492198887746212677e-02
-1.949521493166685104e+00 -8.394215196371078491e+00 -4.678356114308712677e-02
-1.845151375979185104e+00 -8.333057969808578491e+00 -4.882823887746212677e-02
-2.619931649416685104e+00 -8.786671251058578491e+00 1.046741541941287323e-02
-2.502866219729185104e+00 -8.718067735433578491e+00 7.522469130350373234e-03
-2.387998055666685104e+00 -8.650929063558578491e+00 4.852181044412873234e-03
-2.275083016604185104e+00 -8.584766954183578491e+00 2.227669325662873234e-03
-2.164609383791685104e+00 -8.520069688558578491e+00 -3.205484477746267657e-04
-2.056210946291685104e+00 -8.456593126058578491e+00 -2.838248643087126766e-03
-1.949521493166685104e+00 -8.394215196371078491e+00 -5.310172471212126766e-03
-1.845151375979185104e+00 -8.333057969808578491e+00 -7.522696885274626766e-03
-1.246274422854185104e+00 -5.385792344808578491e+00 -6.115266031352746268e-01
-1.184140633791685104e+00 -5.377613633871078491e+00 -6.102906412212121268e-01
-1.122006844729185104e+00 -5.367603868246078491e+00 -6.091004556743371268e-01
-1.060117196291685104e+00 -5.357594102621078491e+00 -6.079102701274621268e-01
-9.988378994166851044e-01 -5.347706407308578491e+00 -6.067353433696496268e-01
-9.382910244166851044e-01 -5.339893907308578491e+00 -6.056824869243371268e-01
-8.783545009791851044e-01 -5.335743516683578491e+00 -6.048585123149621268e-01
-8.187841884791851044e-01 -5.329884141683578491e+00 -6.040803140727746268e-01
-1.321225594729185104e+00 -5.754932969808578491e+00 -6.048127359477746268e-01
-1.254575204104185104e+00 -5.742970079183578491e+00 -6.035615152446496268e-01
-1.188657235354185104e+00 -5.733082383871078491e+00 -6.022797769633996268e-01
-1.122739266604185104e+00 -5.721119493246078491e+00 -6.010285562602746268e-01
-1.057431649416685104e+00 -5.709278672933578491e+00 -5.998078531352746268e-01
-9.926123134791851044e-01 -5.697559922933578491e+00 -5.986024087993371268e-01
-9.281591884791851044e-01 -5.686939805746078491e+00 -5.975953287212121268e-01
-8.650488369166851044e-01 -5.681812852621078491e+00 -5.967560953227746268e-01
-1.414975594729185104e+00 -6.215870469808578491e+00 -5.993653482524621268e-01
-1.342709969729185104e+00 -6.199513047933578491e+00 -5.979615396587121268e-01
-1.270932625979185104e+00 -6.183399766683578491e+00 -5.965577310649621268e-01
-1.199521493166685104e+00 -6.167286485433578491e+00 -5.951691812602746268e-01
-1.129086922854185104e+00 -6.151295274496078491e+00 -5.938111490337121268e-01
-1.059018563479185104e+00 -6.135426133871078491e+00 -5.924378580180871268e-01
-9.894384853541851044e-01 -6.119801133871078491e+00 -5.910950845805871268e-01
-9.212011806666851044e-01 -6.108692735433578491e+00 -5.899811929790246268e-01
-1.525327157229185104e+00 -6.758717149496078491e+00 -5.936127847758996268e-01
-1.447324227541685104e+00 -6.741871446371078491e+00 -5.920869058696496268e-01
-1.369321297854185104e+00 -6.721851915121078491e+00 -5.906068033305871268e-01
-1.291684579104185104e+00 -6.702076524496078491e+00 -5.891419595805871268e-01
-1.215146493166685104e+00 -6.682545274496078491e+00 -5.876771158305871268e-01
-1.139218758791685104e+00 -6.663136094808578491e+00 -5.862427896587121268e-01
-1.063657235354185104e+00 -6.643848985433578491e+00 -5.848084634868371268e-01
-9.885839931666851044e-01 -6.621876329183578491e+00 -5.834199136821496268e-01
-1.675473641604185104e+00 -7.497730821371078491e+00 -5.908967203227746268e-01
-1.587338875979185104e+00 -7.468189805746078491e+00 -5.891114420024621268e-01
-1.500180672854185104e+00 -7.439015001058578491e+00 -5.873414224712121268e-01
-1.413754891604185104e+00 -7.410084336996078491e+00 -5.855714029399621268e-01
-1.328427743166685104e+00 -7.381397813558578491e+00 -5.838471597758996268e-01
-1.243955086916685104e+00 -7.353199571371078491e+00 -5.821229166118371268e-01
-1.160092782229185104e+00 -7.325123399496078491e+00 -5.804139322368371268e-01
-1.077451180666685104e+00 -7.297413438558578491e+00 -5.787354654399621268e-01
-1.845273446291685104e+00 -8.332935899496078491e+00 -5.850831216899621268e-01
-1.742612313479185104e+00 -8.272877305746078491e+00 -5.820618814555871268e-01
-1.641660165041685104e+00 -8.213795274496078491e+00 -5.793305582133996268e-01
-1.542172860354185104e+00 -8.155445665121078491e+00 -5.766144937602746268e-01
-1.447812508791685104e+00 -8.118702501058578491e+00 -5.747224039165246268e-01
-1.356748055666685104e+00 -8.095875352621078491e+00 -5.733643716899621268e-01
-1.265561532229185104e+00 -8.069141954183578491e+00 -5.718537515727746268e-01
-1.175473641604185104e+00 -8.042896836996078491e+00 -5.705872720805871268e-01
-1.845273446291685104e+00 -8.332935899496078491e+00 -5.436860269633996268e-01
-1.742612313479185104e+00 -8.272755235433578491e+00 -5.412446207133996268e-01
-1.641660165041685104e+00 -8.213795274496078491e+00 -5.388489908305871268e-01
-1.542172860354185104e+00 -8.155445665121078491e+00 -5.364838785258996268e-01
-1.447934579104185104e+00 -8.118946641683578491e+00 -5.348359293071496268e-01
-1.356748055666685104e+00 -8.095875352621078491e+00 -5.336304849712121268e-01
-1.265561532229185104e+00 -8.069141954183578491e+00 -5.323182291118371268e-01
-1.175473641604185104e+00 -8.042896836996078491e+00 -5.310212320415246268e-01
-1.845151375979185104e+00 -8.332813829183578491e+00 -5.025178140727746268e-01
-1.742612313479185104e+00 -8.272755235433578491e+00 -5.004273599712121268e-01
-1.641660165041685104e+00 -8.213673204183578491e+00 -4.981690591899621268e-01
-1.542172860354185104e+00 -8.155445665121078491e+00 -4.961396402446496268e-01
-1.447934579104185104e+00 -8.119190782308578491e+00 -4.947358316508996268e-01
-1.356748055666685104e+00 -8.095875352621078491e+00 -4.936982339946496268e-01
-1.265561532229185104e+00 -8.069141954183578491e+00 -4.927827066508996268e-01
-1.175595711916685104e+00 -8.042896836996078491e+00 -4.916840738383996268e-01
-1.845151375979185104e+00 -8.332813829183578491e+00 -4.611512369243371268e-01
-1.742490243166685104e+00 -8.272755235433578491e+00 -4.594117349712121268e-01
-1.641660165041685104e+00 -8.213673204183578491e+00 -4.577027505962121268e-01
-1.542050790041685104e+00 -8.155445665121078491e+00 -4.560090250102746268e-01
-1.447934579104185104e+00 -8.119434922933578491e+00 -4.548493570415246268e-01
-1.356748055666685104e+00 -8.095875352621078491e+00 -4.539948648540246268e-01
-1.265561532229185104e+00 -8.069141954183578491e+00 -4.530488199321496268e-01
-1.175595711916685104e+00 -8.042896836996078491e+00 -4.521332925883996268e-01
-1.845151375979185104e+00 -8.332813829183578491e+00 -4.199982828227746268e-01
-1.742490243166685104e+00 -8.272755235433578491e+00 -4.186097330180871268e-01
-1.641660165041685104e+00 -8.213673204183578491e+00 -4.172364420024621268e-01
-1.542050790041685104e+00 -8.155445665121078491e+00 -4.158936685649621268e-01
-1.448056649416685104e+00 -8.119679063558578491e+00 -4.149781412212121268e-01
-1.356748055666685104e+00 -8.095875352621078491e+00 -4.142762369243371268e-01
-1.265561532229185104e+00 -8.069141954183578491e+00 -4.135285562602746268e-01
-1.175595711916685104e+00 -8.042896836996078491e+00 -4.127961343852746268e-01
-1.845029305666685104e+00 -8.332813829183578491e+00 -3.786317056743371268e-01
-1.742490243166685104e+00 -8.272755235433578491e+00 -3.775941080180871268e-01
-1.641538094729185104e+00 -8.213673204183578491e+00 -3.765717691508996268e-01
-1.542050790041685104e+00 -8.155445665121078491e+00 -3.755646890727746268e-01
-1.448056649416685104e+00 -8.119923204183578491e+00 -3.748933023540246268e-01
-1.356748055666685104e+00 -8.095875352621078491e+00 -3.743592447368371268e-01
-1.265561532229185104e+00 -8.069141954183578491e+00 -3.738099283305871268e-01
-1.175595711916685104e+00 -8.042896836996078491e+00 -3.732606119243371268e-01
-1.845029305666685104e+00 -8.332813829183578491e+00 -3.374940103618371268e-01
-1.742490243166685104e+00 -8.272755235433578491e+00 -3.368073648540246268e-01
-1.641538094729185104e+00 -8.213673204183578491e+00 -3.361359781352746268e-01
-1.542050790041685104e+00 -8.155445665121078491e+00 -3.354645914165246268e-01
-1.448056649416685104e+00 -8.120167344808578491e+00 -3.350220865337121268e-01
-1.356748055666685104e+00 -8.095753282308578491e+00 -3.346711343852746268e-01
-1.265561532229185104e+00 -8.069141954183578491e+00 -3.343049234477746268e-01
-1.175595711916685104e+00 -8.042896836996078491e+00 -3.339387125102746268e-01
-1.845029305666685104e+00 -8.332813829183578491e+00 -2.961426920024621268e-01
-1.742368172854185104e+00 -8.272755235433578491e+00 -2.958069986430871268e-01
-1.641538094729185104e+00 -8.213673204183578491e+00 -2.957001871196496268e-01
-1.542050790041685104e+00 -8.155445665121078491e+00 -2.953644937602746268e-01
-1.448056649416685104e+00 -8.120411485433578491e+00 -2.951508707133996268e-01
-1.356748055666685104e+00 -8.095753282308578491e+00 -2.949830240337121268e-01
-1.265561532229185104e+00 -8.069141954183578491e+00 -2.946015543071496268e-01
-1.175595711916685104e+00 -8.042896836996078491e+00 -2.944184488383996268e-01
-1.844907235354185104e+00 -8.332691758871078491e+00 -2.550202554790246268e-01
-1.742368172854185104e+00 -8.272633165121078491e+00 -2.550355142680871268e-01
-1.641538094729185104e+00 -8.213673204183578491e+00 -2.550507730571496268e-01
-1.542050790041685104e+00 -8.155445665121078491e+00 -2.550507730571496268e-01
-1.448178719729185104e+00 -8.120655626058578491e+00 -2.550660318462121268e-01
-1.356748055666685104e+00 -8.095753282308578491e+00 -2.550812906352746268e-01
-1.265561532229185104e+00 -8.069141954183578491e+00 -2.550965494243371268e-01
-1.175595711916685104e+00 -8.042896836996078491e+00 -2.551118082133996268e-01
-1.844907235354185104e+00 -8.332691758871078491e+00 -2.136841959087121268e-01
-1.742368172854185104e+00 -8.272633165121078491e+00 -2.142640298930871268e-01
-1.641538094729185104e+00 -8.213673204183578491e+00 -2.146149820415246268e-01
-1.542050790041685104e+00 -8.155445665121078491e+00 -2.149659341899621268e-01
-1.448178719729185104e+00 -8.120899766683578491e+00 -2.152100748149621268e-01
-1.356748055666685104e+00 -8.095753282308578491e+00 -2.154084390727746268e-01
-1.265561532229185104e+00 -8.069141954183578491e+00 -2.156068033305871268e-01
-1.175595711916685104e+00 -8.042896836996078491e+00 -2.156068033305871268e-01
-1.844907235354185104e+00 -8.332691758871078491e+00 -1.725770181743371268e-01
-1.742368172854185104e+00 -8.272633165121078491e+00 -1.732789224712121268e-01
-1.641538094729185104e+00 -8.213673204183578491e+00 -1.739808267680871268e-01
-1.542050790041685104e+00 -8.155323594808578491e+00 -1.746674722758996268e-01
-1.448178719729185104e+00 -8.121265977621078491e+00 -1.751404947368371268e-01
-1.356748055666685104e+00 -8.095753282308578491e+00 -1.755219644633996268e-01
-1.265561532229185104e+00 -8.069141954183578491e+00 -1.759186929790246268e-01
-1.175595711916685104e+00 -8.042896836996078491e+00 -1.763001627055871268e-01
-1.844785165041685104e+00 -8.332691758871078491e+00 -1.312562173930871268e-01
-1.742246102541685104e+00 -8.272633165121078491e+00 -1.325226968852746268e-01
-1.641416024416685104e+00 -8.213673204183578491e+00 -1.335755533305871268e-01
-1.541928719729185104e+00 -8.155323594808578491e+00 -1.345978921977746268e-01
-1.448300790041685104e+00 -8.121510118246078491e+00 -1.352845377055871268e-01
-1.356748055666685104e+00 -8.095753282308578491e+00 -1.358643716899621268e-01
-1.265561532229185104e+00 -8.069141954183578491e+00 -1.364442056743371268e-01
-1.175717782229185104e+00 -8.042896836996078491e+00 -1.368104166118371268e-01
-1.844785165041685104e+00 -8.332691758871078491e+00 -9.014903965871212677e-02
-1.742246102541685104e+00 -8.272633165121078491e+00 -9.156810704152462677e-02
-1.641416024416685104e+00 -8.213551133871078491e+00 -9.294139805714962677e-02
-1.541928719729185104e+00 -8.155323594808578491e+00 -9.431468907277462677e-02
-1.448300790041685104e+00 -8.121754258871078491e+00 -9.523021641652462677e-02
-1.356748055666685104e+00 -8.095753282308578491e+00 -9.599315586964962677e-02
-1.265561532229185104e+00 -8.069141954183578491e+00 -9.675609532277462677e-02
-1.175717782229185104e+00 -8.042896836996078491e+00 -9.751903477589962677e-02
-1.844785165041685104e+00 -8.332569688558578491e+00 -4.884349766652462677e-02
-1.742246102541685104e+00 -8.272633165121078491e+00 -5.059825840871212677e-02
-1.641416024416685104e+00 -8.213551133871078491e+00 -5.255138340871212677e-02
-1.541928719729185104e+00 -8.155323594808578491e+00 -5.426036778371212677e-02
-1.448300790041685104e+00 -8.121998399496078491e+00 -5.537425938527462677e-02
-1.356748055666685104e+00 -8.095753282308578491e+00 -5.633556309621212677e-02
-1.265683602541685104e+00 -8.069141954183578491e+00 -5.708324376027462677e-02
-1.175717782229185104e+00 -8.042896836996078491e+00 -5.802928868214962677e-02
-1.844663094729185104e+00 -8.332569688558578491e+00 -7.537955674337126766e-03
-1.742246102541685104e+00 -8.272633165121078491e+00 -9.857291611837126766e-03
-1.641416024416685104e+00 -8.213551133871078491e+00 -1.193248692433712677e-02
-1.541928719729185104e+00 -8.155323594808578491e+00 -1.397716465871212677e-02
-1.448300790041685104e+00 -8.122242540121078491e+00 -1.531993809621212677e-02
-1.356748055666685104e+00 -8.095753282308578491e+00 -1.646434727589962677e-02
-1.265683602541685104e+00 -8.069141954183578491e+00 -1.762401524464962677e-02
-1.175717782229185104e+00 -8.042896836996078491e+00 -1.855480137746212677e-02
-8.185400478541851044e-01 -5.330006211996078491e+00 -6.040955728618371268e-01
-7.593359462916851044e-01 -5.325489610433578491e+00 -6.032868570415246268e-01
-7.001318447291851044e-01 -5.319264024496078491e+00 -6.025239175883996268e-01
-6.410498134791851044e-01 -5.313038438558578491e+00 -6.017609781352746268e-01
-5.823339931666851044e-01 -5.306934922933578491e+00 -6.010132974712121268e-01
-5.238623134791851044e-01 -5.300831407308578491e+00 -6.002503580180871268e-01
-4.653906337916851044e-01 -5.294727891683578491e+00 -5.995026773540246268e-01
-4.072851650416851044e-01 -5.286915391683578491e+00 -5.988007730571496268e-01
-8.648046962916851044e-01 -5.681812852621078491e+00 -5.967560953227746268e-01
-8.016943447291851044e-01 -5.674488633871078491e+00 -5.959626382915246268e-01
-7.390722744166851044e-01 -5.669117540121078491e+00 -5.951234048930871268e-01
-6.763281337916851044e-01 -5.661793321371078491e+00 -5.943299478618371268e-01
-6.139502041041851044e-01 -5.654469102621078491e+00 -5.935517496196496268e-01
-5.519384853541851044e-01 -5.647266954183578491e+00 -5.927735513774621268e-01
-4.898046962916851044e-01 -5.638111680746078491e+00 -5.920258707133996268e-01
-4.284033291041851044e-01 -5.630909532308578491e+00 -5.912476724712121268e-01
-9.209570400416851044e-01 -6.108692735433578491e+00 -5.899811929790246268e-01
-8.532080166041851044e-01 -6.098927110433578491e+00 -5.890961832133996268e-01
-7.858252041041851044e-01 -6.089161485433578491e+00 -5.882111734477746268e-01
-7.185644619166851044e-01 -6.079395860433578491e+00 -5.873414224712121268e-01
-6.517920009791851044e-01 -6.069752305746078491e+00 -5.864716714946496268e-01
-5.853857509791851044e-01 -6.060108751058578491e+00 -5.856019205180871268e-01
-5.191015712916851044e-01 -6.050465196371078491e+00 -5.847321695415246268e-01
-4.534277431666851044e-01 -6.040943711996078491e+00 -5.838776773540246268e-01
-9.883398525416851044e-01 -6.621754258871078491e+00 -5.834199136821496268e-01
-9.150976650416851044e-01 -6.609058946371078491e+00 -5.822755045024621268e-01
-8.423437587916851044e-01 -6.597096055746078491e+00 -5.813447183696496268e-01
-7.697119228541851044e-01 -6.585255235433578491e+00 -5.804139322368371268e-01
-6.978125087916851044e-01 -6.574268907308578491e+00 -5.795289224712121268e-01
-6.268896572291851044e-01 -6.571095079183578491e+00 -5.790101236430871268e-01
-5.559668056666851044e-01 -6.568043321371078491e+00 -5.784913248149621268e-01
-4.851660244166851044e-01 -6.561695665121078491e+00 -5.780030435649621268e-01
-1.077207040041685104e+00 -7.297413438558578491e+00 -5.787354654399621268e-01
-9.949316494166851044e-01 -7.267017930746078491e+00 -5.770875162212121268e-01
-9.143652431666851044e-01 -7.244190782308578491e+00 -5.757447427837121268e-01
-8.346533291041851044e-01 -7.227223008871078491e+00 -5.746613687602746268e-01
-7.557959072291851044e-01 -7.210377305746078491e+00 -5.735932535258996268e-01
-6.773046962916851044e-01 -7.193653672933578491e+00 -5.725098795024621268e-01
-5.993017666041851044e-01 -7.178761094808578491e+00 -5.715180582133996268e-01
-5.226416103541851044e-01 -7.174976915121078491e+00 -5.709992593852746268e-01
-1.175229500979185104e+00 -8.042652696371078491e+00 -5.705720132915246268e-01
-1.085996102541685104e+00 -8.016651719808578491e+00 -5.690156168071496268e-01
-9.974951259791851044e-01 -7.990772813558578491e+00 -5.676728433696496268e-01
-9.093603603541851044e-01 -7.965015977621078491e+00 -5.663453287212121268e-01
-8.222021572291851044e-01 -7.939503282308578491e+00 -5.650178140727746268e-01
-7.357763759791851044e-01 -7.914234727621078491e+00 -5.637208170024621268e-01
-6.497168056666851044e-01 -7.889088243246078491e+00 -5.624085611430871268e-01
-5.647558681666851044e-01 -7.864307969808578491e+00 -5.613251871196496268e-01
-1.175229500979185104e+00 -8.042652696371078491e+00 -5.310212320415246268e-01
-1.085996102541685104e+00 -8.016651719808578491e+00 -5.298157877055871268e-01
-9.974951259791851044e-01 -7.990772813558578491e+00 -5.286408609477746268e-01
-9.093603603541851044e-01 -7.965015977621078491e+00 -5.274659341899621268e-01
-8.222021572291851044e-01 -7.939503282308578491e+00 -5.263062662212121268e-01
-7.358984462916851044e-01 -7.914234727621078491e+00 -5.251465982524621268e-01
-6.498388759791851044e-01 -7.889088243246078491e+00 -5.240021890727746268e-01
-5.647558681666851044e-01 -7.864307969808578491e+00 -5.228577798930871268e-01
-1.175229500979185104e+00 -8.042652696371078491e+00 -4.916688150493371268e-01
-1.085996102541685104e+00 -8.016651719808578491e+00 -4.906464761821496268e-01
-9.974951259791851044e-01 -7.990772813558578491e+00 -4.894105142680871268e-01
-9.093603603541851044e-01 -7.965015977621078491e+00 -4.883881754008996268e-01
-8.223242275416851044e-01 -7.939503282308578491e+00 -4.873810953227746268e-01
-7.358984462916851044e-01 -7.914234727621078491e+00 -4.863740152446496268e-01
-6.498388759791851044e-01 -7.889088243246078491e+00 -4.855958170024621268e-01
-5.647558681666851044e-01 -7.864307969808578491e+00 -4.846039957133996268e-01
-1.175229500979185104e+00 -8.042652696371078491e+00 -4.521332925883996268e-01
-1.085996102541685104e+00 -8.016651719808578491e+00 -4.512482828227746268e-01
-9.974951259791851044e-01 -7.990772813558578491e+00 -4.503785318462121268e-01
-9.094824306666851044e-01 -7.965015977621078491e+00 -4.495240396587121268e-01
-8.223242275416851044e-01 -7.939503282308578491e+00 -4.486695474712121268e-01
-7.358984462916851044e-01 -7.914234727621078491e+00 -4.478303140727746268e-01
-6.499609462916851044e-01 -7.889088243246078491e+00 -4.469758218852746268e-01
-5.648779384791851044e-01 -7.864307969808578491e+00 -4.461518472758996268e-01
-1.175229500979185104e+00 -8.042652696371078491e+00 -4.127961343852746268e-01
-1.085996102541685104e+00 -8.016651719808578491e+00 -4.120789712993371268e-01
-9.974951259791851044e-01 -7.990772813558578491e+00 -4.113770670024621268e-01
-9.094824306666851044e-01 -7.965015977621078491e+00 -4.106599039165246268e-01
-8.223242275416851044e-01 -7.939503282308578491e+00 -4.099732584087121268e-01
-7.360205166041851044e-01 -7.914234727621078491e+00 -4.092713541118371268e-01
-6.499609462916851044e-01 -7.889210313558578491e+00 -4.085847086040246268e-01
-5.648779384791851044e-01 -7.864307969808578491e+00 -4.078980630962121268e-01
-1.175229500979185104e+00 -8.042652696371078491e+00 -3.732606119243371268e-01
-1.086118172854185104e+00 -8.016651719808578491e+00 -3.727112955180871268e-01
-9.976171962916851044e-01 -7.990772813558578491e+00 -3.721467203227746268e-01
-9.094824306666851044e-01 -7.965015977621078491e+00 -3.715974039165246268e-01
-8.224462978541851044e-01 -7.939503282308578491e+00 -3.710633462993371268e-01
-7.360205166041851044e-01 -7.914356797933578491e+00 -3.705140298930871268e-01
-6.499609462916851044e-01 -7.889210313558578491e+00 -3.699799722758996268e-01
-5.650000087916851044e-01 -7.864307969808578491e+00 -3.694611734477746268e-01
-1.175229500979185104e+00 -8.042652696371078491e+00 -3.339387125102746268e-01
-1.086118172854185104e+00 -8.016651719808578491e+00 -3.335419839946496268e-01
-9.976171962916851044e-01 -7.990772813558578491e+00 -3.331452554790246268e-01
-9.094824306666851044e-01 -7.965015977621078491e+00 -3.327637857524621268e-01
-8.224462978541851044e-01 -7.939503282308578491e+00 -3.323670572368371268e-01
-7.360205166041851044e-01 -7.914356797933578491e+00 -3.319855875102746268e-01
-6.500830166041851044e-01 -7.889210313558578491e+00 -3.316041177837121268e-01
-5.650000087916851044e-01 -7.864307969808578491e+00 -3.312226480571496268e-01
-1.175229500979185104e+00 -8.042652696371078491e+00 -2.944184488383996268e-01
-1.086118172854185104e+00 -8.016651719808578491e+00 -2.941895670024621268e-01
-9.976171962916851044e-01 -7.990772813558578491e+00 -2.941590494243371268e-01
-9.096045009791851044e-01 -7.965015977621078491e+00 -2.939149087993371268e-01
-8.224462978541851044e-01 -7.939503282308578491e+00 -2.936860269633996268e-01
-7.361425869166851044e-01 -7.914356797933578491e+00 -2.934418863383996268e-01
-6.500830166041851044e-01 -7.889210313558578491e+00 -2.930146402446496268e-01
-5.651220791041851044e-01 -7.864307969808578491e+00 -2.927857584087121268e-01
-1.175351571291685104e+00 -8.042652696371078491e+00 -2.551118082133996268e-01
-1.086118172854185104e+00 -8.016651719808578491e+00 -2.550355142680871268e-01
-9.976171962916851044e-01 -7.990772813558578491e+00 -2.549592203227746268e-01
-9.096045009791851044e-01 -7.965015977621078491e+00 -2.548676675883996268e-01
-8.225683681666851044e-01 -7.939503282308578491e+00 -2.547913736430871268e-01
-7.361425869166851044e-01 -7.914356797933578491e+00 -2.547150796977746268e-01
-6.502050869166851044e-01 -7.889210313558578491e+00 -2.546387857524621268e-01
-5.651220791041851044e-01 -7.864307969808578491e+00 -2.545624918071496268e-01
-1.175351571291685104e+00 -8.042652696371078491e+00 -2.156068033305871268e-01
-1.086118172854185104e+00 -8.016651719808578491e+00 -2.158967203227746268e-01
-9.976171962916851044e-01 -7.990772813558578491e+00 -2.159730142680871268e-01
-9.096045009791851044e-01 -7.965015977621078491e+00 -2.160493082133996268e-01
-8.225683681666851044e-01 -7.939625352621078491e+00 -2.161103433696496268e-01
-7.361425869166851044e-01 -7.914356797933578491e+00 -2.161866373149621268e-01
-6.502050869166851044e-01 -7.889210313558578491e+00 -2.162629312602746268e-01
-5.652441494166851044e-01 -7.864307969808578491e+00 -2.161408609477746268e-01
-1.175351571291685104e+00 -8.042652696371078491e+00 -1.763154214946496268e-01
