-4.788285005837678909e+00 -1.025171592831611633e+01 -1.940820511314029773e-01
-4.558548677712678909e+00 -1.001050499081611633e+01 -1.963250931235904773e-01
-4.340531099587678909e+00 -9.781623154878616333e+00 -1.981714066001529773e-01
-4.132645357400178909e+00 -9.563239365816116333e+00 -1.999261673423404773e-01
-3.966141451150178909e+00 -9.435431748628616333e+00 -2.011926468345279773e-01
-3.819290865212678909e+00 -9.349494248628616333e+00 -2.022302444907779773e-01
-3.675614107400178909e+00 -9.265387803316116333e+00 -2.032220657798404773e-01
-3.535843599587678909e+00 -9.183478623628616333e+00 -2.039544876548404773e-01
-4.787796724587678909e+00 -1.025122764706611633e+01 -1.399286087485904773e-01
-4.558182466775178909e+00 -1.001013877987861633e+01 -1.433008011314029773e-01
-4.340164888650178909e+00 -9.781134873628616333e+00 -1.465051468345279773e-01
-4.132279146462678909e+00 -9.562873154878616333e+00 -1.495569046470279773e-01
-3.965897310525178909e+00 -9.435309678316116333e+00 -1.516473587485904773e-01
-3.819168794900178909e+00 -9.349372178316116333e+00 -1.532800491782779773e-01
-3.675369966775178909e+00 -9.265265733003616333e+00 -1.548974808189029773e-01
-3.535721529275178909e+00 -9.183478623628616333e+00 -1.564538773032779773e-01
-4.787430513650178909e+00 -1.025073936581611633e+01 -8.551576695171547726e-02
-4.557694185525178909e+00 -1.000965049862861633e+01 -9.058168492046547726e-02
-4.339798677712678909e+00 -9.780768662691116333e+00 -9.512880406109047726e-02
-4.131912935525178909e+00 -9.562506943941116333e+00 -9.944704136577797726e-02
-3.965653169900178909e+00 -9.435187608003616333e+00 -1.023614700767154773e-01
-3.818924654275178909e+00 -9.349250108003616333e+00 -1.046197708579654773e-01
-3.675247896462678909e+00 -9.265143662691116333e+00 -1.068322952720279773e-01
-3.535477388650178909e+00 -9.183356553316116333e+00 -1.087243851157779773e-01
-4.786942232400178909e+00 -1.025025108456611633e+01 -3.139284214702797726e-02
-4.557327974587678909e+00 -1.000916221737861633e+01 -3.758791050640297726e-02
-4.339432466775178909e+00 -9.780402451753616333e+00 -4.347780308452797726e-02
-4.131546724587678909e+00 -9.562140733003616333e+00 -4.909303745952797726e-02
-3.965409029275178909e+00 -9.435065537691116333e+00 -5.283144077984047726e-02
-3.818680513650178909e+00 -9.349128037691116333e+00 -5.570009312359047726e-02
-3.675003755837678909e+00 -9.265021592378616333e+00 -5.850771031109047726e-02
-3.535355318337678909e+00 -9.183234483003616333e+00 -6.123903355327797726e-02
-4.786453951150178909e+00 -1.024976280331611633e+01 2.300474086078452274e-02
-4.556839693337678909e+00 -1.000879600644111633e+01 1.537534632953452274e-02
-4.339066255837678909e+00 -9.779914170503616333e+00 7.868022110784522738e-03
-4.131180513650178909e+00 -9.561774522066116333e+00 9.863082435970227380e-04
-3.965164888650178909e+00 -9.434821397066116333e+00 -3.560810897027977262e-03
-3.818436373025178909e+00 -9.349005967378616333e+00 -7.055073592340477262e-03
-3.674759615212678909e+00 -9.264899522066116333e+00 -1.019838413921547726e-02
-3.535111177712678909e+00 -9.183112412691116333e+00 -1.352480015484047726e-02
-4.785965669900178909e+00 -1.024927452206611633e+01 7.738706507953452274e-02
-4.556473482400178909e+00 -1.000830772519111633e+01 6.806394496234702274e-02
-4.338577974587678909e+00 -9.779547959566116333e+00 5.948850550922202274e-02
-4.130936373025178909e+00 -9.561408311128616333e+00 5.130979457172202274e-02
-3.964920748025178909e+00 -9.434699326753616333e+00 4.595395961078452274e-02
-3.818192232400178909e+00 -9.348761826753616333e+00 4.184934535297202274e-02
-3.674637544900178909e+00 -9.264777451753616333e+00 3.783628382953452274e-02
-3.534867037087678909e+00 -9.182990342378616333e+00 3.418943324359702274e-02
-2.175614107400178909e+00 -5.336798936128616333e+00 -6.283471878501529773e-01
-2.110062349587678909e+00 -5.338874131441116333e+00 -6.272943314048404773e-01
-2.044266451150178909e+00 -5.339118272066116333e+00 -6.262872513267154773e-01
-1.978714693337678909e+00 -5.339484483003616333e+00 -6.252801712485904773e-01
-1.911820162087678909e+00 -5.333380967378616333e+00 -6.238916214439029773e-01
-1.845413912087678909e+00 -5.327399522066116333e+00 -6.225030716392154773e-01
-1.779373873025178909e+00 -5.321418076753616333e+00 -6.211297806235904773e-01
-1.713577974587678909e+00 -5.313605576753616333e+00 -6.198022659751529773e-01
-2.325516451150178909e+00 -5.760504990816116333e+00 -6.240594681235904773e-01
-2.251297701150178909e+00 -5.751105576753616333e+00 -6.225030716392154773e-01
-2.178665865212678909e+00 -5.744269639253616333e+00 -6.209466751548404773e-01
-2.105545748025178909e+00 -5.734992295503616333e+00 -6.194055374595279773e-01
-2.033280123025178909e+00 -5.725837022066116333e+00 -6.178949173423404773e-01
-1.961746919900178909e+00 -5.716803818941116333e+00 -6.163995560142154773e-01
-1.889969576150178909e+00 -5.705329209566116333e+00 -6.149194534751529773e-01
-1.819779146462678909e+00 -5.696784287691116333e+00 -6.134698685142154773e-01
-2.507035005837678909e+00 -6.273688584566116333e+00 -6.203973587485904773e-01
-2.425980318337678909e+00 -6.260871201753616333e+00 -6.187341507407779773e-01
-2.345780123025178909e+00 -6.248297959566116333e+00 -6.170862015220279773e-01
-2.266068208962678909e+00 -6.235724717378616333e+00 -6.154535110923404773e-01
-2.187332857400178909e+00 -6.223395615816116333e+00 -6.138360794517154773e-01
-2.109451998025178909e+00 -6.211188584566116333e+00 -6.122491653892154773e-01
-2.032059419900178909e+00 -6.198981553316116333e+00 -6.106622513267154773e-01
-1.955643404275178909e+00 -6.187018662691116333e+00 -6.090905960532779773e-01
-2.728958833962678909e+00 -6.900763779878616333e+00 -6.174524124595279773e-01
-2.639847505837678909e+00 -6.884894639253616333e+00 -6.155298050376529773e-01
-2.550369966775178909e+00 -6.865119248628616333e+00 -6.136377151939029773e-01
-2.461502779275178909e+00 -6.845587998628616333e+00 -6.117456253501529773e-01
-2.373978365212678909e+00 -6.826300889253616333e+00 -6.098993118735904773e-01
-2.287552583962678909e+00 -6.807379990816116333e+00 -6.080529983970279773e-01
-2.201737154275178909e+00 -6.788459092378616333e+00 -6.062372024985904773e-01
-2.116165865212678909e+00 -6.765998154878616333e+00 -6.044519241782779773e-01
-2.973831880837678909e+00 -7.592536240816116333e+00 -6.110284622642154773e-01
-2.879349458962678909e+00 -7.583625108003616333e+00 -6.097314651939029773e-01
-2.785721529275178909e+00 -7.574836045503616333e+00 -6.084344681235904773e-01
-2.692459810525178909e+00 -7.566046983003616333e+00 -6.071374710532779773e-01
-2.600418794900178909e+00 -7.557379990816116333e+00 -6.058709915610904773e-01
-2.508988130837678909e+00 -7.548835068941116333e+00 -6.046045120689029773e-01
-2.418167818337678909e+00 -7.540290147066116333e+00 -6.033532913657779773e-01
-2.328324068337678909e+00 -7.531745225191116333e+00 -6.021173294517154773e-01
-3.458939302712678909e+00 -8.963385850191116333e+00 -6.244561966392154773e-01
-3.347611177712678909e+00 -8.949713975191116333e+00 -6.227624710532779773e-01
-3.234696138650178909e+00 -8.928839951753616333e+00 -6.210382278892154773e-01
-3.118851412087678909e+00 -8.895880967378616333e+00 -6.188562210532779773e-01
-3.003006685525178909e+00 -8.857795029878616333e+00 -6.164911087485904773e-01
-2.883255708962678909e+00 -8.801154404878616333e+00 -6.134240921470279773e-01
-2.760452974587678909e+00 -8.729254990816116333e+00 -6.097925003501529773e-01
-2.640824068337678909e+00 -8.659186631441116333e+00 -6.064813431235904773e-01
-3.536820162087678909e+00 -9.183722764253616333e+00 -5.851953323814029773e-01
-3.400223482400178909e+00 -9.103766709566116333e+00 -5.817010696860904773e-01
-3.266678560525178909e+00 -9.025641709566116333e+00 -5.782678421470279773e-01
-3.135697115212678909e+00 -8.948981553316116333e+00 -5.749109085532779773e-01
-3.008011568337678909e+00 -8.874152451753616333e+00 -5.716455276939029773e-01
-2.883011568337678909e+00 -8.801032334566116333e+00 -5.684411819907779773e-01
-2.760330904275178909e+00 -8.729254990816116333e+00 -5.652826126548404773e-01
-2.640701998025178909e+00 -8.659186631441116333e+00 -5.622155960532779773e-01
-3.536698091775178909e+00 -9.183600693941116333e+00 -5.376489456626529773e-01
-3.400101412087678909e+00 -9.103766709566116333e+00 -5.346734817954654773e-01
-3.266556490212678909e+00 -9.025519639253616333e+00 -5.315301712485904773e-01
-3.135575044900178909e+00 -8.948859483003616333e+00 -5.286920364829654773e-01
-3.007889498025178909e+00 -8.874152451753616333e+00 -5.259149368735904773e-01
-2.882889498025178909e+00 -8.801032334566116333e+00 -5.232141312095279773e-01
-2.760330904275178909e+00 -8.729132920503616333e+00 -5.207879837485904773e-01
-2.640579927712678909e+00 -8.659064561128616333e+00 -5.181939896079654773e-01
-3.536453951150178909e+00 -9.183600693941116333e+00 -4.898431595298404773e-01
-3.399857271462678909e+00 -9.103644639253616333e+00 -4.874170120689029773e-01
-3.266434419900178909e+00 -9.025397568941116333e+00 -4.850518997642154773e-01
-3.135452974587678909e+00 -8.948737412691116333e+00 -4.827173050376529773e-01
-3.007767427712678909e+00 -8.874030381441116333e+00 -4.804590042564029773e-01
-2.882767427712678909e+00 -8.800910264253616333e+00 -4.782464798423404773e-01
-2.760208833962678909e+00 -8.729132920503616333e+00 -4.760644730064029773e-01
-2.640457857400178909e+00 -8.659064561128616333e+00 -4.739435013267154773e-01
-3.536209810525178909e+00 -9.183478623628616333e+00 -4.422967728110904773e-01
-3.399735201150178909e+00 -9.103522568941116333e+00 -4.404199417564029773e-01
-3.266190279275178909e+00 -9.025397568941116333e+00 -4.385736282798404773e-01
-3.135208833962678909e+00 -8.948737412691116333e+00 -4.367578323814029773e-01
-3.007523287087678909e+00 -8.873908311128616333e+00 -4.350030716392154773e-01
-2.882645357400178909e+00 -8.800788193941116333e+00 -4.332788284751529773e-01
-2.760086763650178909e+00 -8.729010850191116333e+00 -4.315851028892154773e-01
-2.640457857400178909e+00 -8.658942490816116333e+00 -4.299371536704654773e-01
-3.536087740212678909e+00 -9.183356553316116333e+00 -3.945062454673404773e-01
-3.399491060525178909e+00 -9.103400498628616333e+00 -3.931634720298404773e-01
-3.266068208962678909e+00 -9.025275498628616333e+00 -3.918512161704654773e-01
-3.135086763650178909e+00 -8.948615342378616333e+00 -3.905694778892154773e-01
-3.007401216775178909e+00 -8.873908311128616333e+00 -3.893029983970279773e-01
-2.882523287087678909e+00 -8.800788193941116333e+00 -3.880822952720279773e-01
-2.759964693337678909e+00 -8.729010850191116333e+00 -3.868768509360904773e-01
-2.640335787087678909e+00 -8.658942490816116333e+00 -3.856866653892154773e-01
-3.535843599587678909e+00 -9.183234483003616333e+00 -3.469903763267154773e-01
-3.399368990212678909e+00 -9.103278428316116333e+00 -3.461816605064029773e-01
-3.265946138650178909e+00 -9.025153428316116333e+00 -3.453882034751529773e-01
-3.134964693337678909e+00 -8.948493272066116333e+00 -3.446252640220279773e-01
-3.007279146462678909e+00 -8.873786240816116333e+00 -3.438623245689029773e-01
-2.882401216775178909e+00 -8.800666123628616333e+00 -3.431299026939029773e-01
-2.759842623025178909e+00 -8.728888779878616333e+00 -3.423974808189029773e-01
-2.640213716775178909e+00 -8.658820420503616333e+00 -3.416955765220279773e-01
-3.535721529275178909e+00 -9.183112412691116333e+00 -2.992151077720279773e-01
-3.399124849587678909e+00 -9.103156358003616333e+00 -2.989557083579654773e-01
-3.265701998025178909e+00 -9.025031358003616333e+00 -2.989404495689029773e-01
-3.134842623025178909e+00 -8.948371201753616333e+00 -2.986810501548404773e-01
-3.007157076150178909e+00 -8.873664170503616333e+00 -2.984369095298404773e-01
-2.882279146462678909e+00 -8.800544053316116333e+00 -2.981775101157779773e-01
-2.759720552712678909e+00 -8.728766709566116333e+00 -2.977044876548404773e-01
-2.640091646462678909e+00 -8.658820420503616333e+00 -2.974756058189029773e-01
-3.535477388650178909e+00 -9.182990342378616333e+00 -2.517144974204654773e-01
-3.399002779275178909e+00 -9.103034287691116333e+00 -2.519891556235904773e-01
-3.265579927712678909e+00 -9.024909287691116333e+00 -2.522485550376529773e-01
-3.134598482400178909e+00 -8.948371201753616333e+00 -2.525079544517154773e-01
-3.007035005837678909e+00 -8.873664170503616333e+00 -2.527673538657779773e-01
-2.882157076150178909e+00 -8.800544053316116333e+00 -2.530114944907779773e-01
-2.759598482400178909e+00 -8.728766709566116333e+00 -2.532556351157779773e-01
-2.639969576150178909e+00 -8.658698350191116333e+00 -2.534845169517154773e-01
-3.535233248025178909e+00 -9.182868272066116333e+00 -2.039544876548404773e-01
-3.398758638650178909e+00 -9.103034287691116333e+00 -2.050226028892154773e-01
-3.265335787087678909e+00 -9.024909287691116333e+00 -2.058160599204654773e-01
-3.134476412087678909e+00 -8.948249131441116333e+00 -2.065789993735904773e-01
-3.006912935525178909e+00 -8.873542100191116333e+00 -2.073419388267154773e-01
-2.882035005837678909e+00 -8.800421983003616333e+00 -2.080743607017154773e-01
-2.759476412087678909e+00 -8.728644639253616333e+00 -2.088067825767154773e-01
-2.639847505837678909e+00 -8.658698350191116333e+00 -2.092798050376529773e-01
-3.535111177712678909e+00 -9.182746201753616333e+00 -1.564691360923404773e-01
-3.398636568337678909e+00 -9.102912217378616333e+00 -1.578119095298404773e-01
-3.265213716775178909e+00 -9.024787217378616333e+00 -1.591394241782779773e-01
-3.134354341775178909e+00 -8.948127061128616333e+00 -1.604211624595279773e-01
-3.006790865212678909e+00 -8.873420029878616333e+00 -1.616876419517154773e-01
-2.881912935525178909e+00 -8.800421983003616333e+00 -1.629236038657779773e-01
-2.759354341775178909e+00 -8.728644639253616333e+00 -1.641290482017154773e-01
-2.639725435525178909e+00 -8.658576279878616333e+00 -1.653192337485904773e-01
-3.534867037087678909e+00 -9.182624131441116333e+00 -1.087396439048404773e-01
-3.398392427712678909e+00 -9.102790147066116333e+00 -1.108758743735904773e-01
-3.265091646462678909e+00 -9.024665147066116333e+00 -1.127069290610904773e-01
-3.134232271462678909e+00 -8.948004990816116333e+00 -1.145227249595279773e-01
-3.006546724587678909e+00 -8.873420029878616333e+00 -1.162927444907779773e-01
-2.881790865212678909e+00 -8.800299912691116333e+00 -1.180169876548404773e-01
-2.759232271462678909e+00 -8.728522568941116333e+00 -1.196954544517154773e-01
-2.639725435525178909e+00 -8.658576279878616333e+00 -1.211145218345279773e-01
-3.534744966775178909e+00 -9.182502061128616333e+00 -6.125429234234047726e-02
-3.398270357400178909e+00 -9.102668076753616333e+00 -6.368043980327797726e-02
-3.264847505837678909e+00 -9.024543076753616333e+00 -6.606081089702797726e-02
-3.133988130837678909e+00 -8.948004990816116333e+00 -6.838014683452797726e-02
-3.006424654275178909e+00 -8.873297959566116333e+00 -7.065370640484047726e-02
-2.881668794900178909e+00 -8.800177842378616333e+00 -7.286623081890297726e-02
-2.759110201150178909e+00 -8.728522568941116333e+00 -7.504823765484047726e-02
-2.639603365212678909e+00 -8.658454209566116333e+00 -7.716920933452797726e-02
-3.534500826150178909e+00 -9.182379990816116333e+00 -1.354005894390297726e-02
-3.398148287087678909e+00 -9.102546006441116333e+00 -1.650026402202797726e-02
-3.264725435525178909e+00 -9.024543076753616333e+00 -1.964357456890297726e-02
-3.133866060525178909e+00 -8.947882920503616333e+00 -2.249696812359047726e-02
-3.006302583962678909e+00 -8.873175889253616333e+00 -2.525880894390297726e-02
-2.881546724587678909e+00 -8.800177842378616333e+00 -2.797487339702797726e-02
-2.758988130837678909e+00 -8.728400498628616333e+00 -3.038576206890297726e-02
-2.639481294900178909e+00 -8.658454209566116333e+00 -3.297975620952797726e-02
-3.534256685525178909e+00 -9.182257920503616333e+00 3.417417445453452274e-02
-3.397904146462678909e+00 -9.102423936128616333e+00 3.042051234515952274e-02
-3.264603365212678909e+00 -9.024421006441116333e+00 2.698728480609702274e-02
-3.133743990212678909e+00 -8.947760850191116333e+00 2.363035121234702274e-02
-3.006180513650178909e+00 -8.873175889253616333e+00 2.036497035297202274e-02
-2.881424654275178909e+00 -8.800055772066116333e+00 1.716062464984702274e-02
-2.758866060525178909e+00 -8.728400498628616333e+00 1.401731410297202274e-02
-2.639359224587678909e+00 -8.658332139253616333e+00 1.117917933734702274e-02
-1.713333833962678909e+00 -5.313605576753616333e+00 -6.198022659751529773e-01
-1.648514498025178909e+00 -5.307257920503616333e+00 -6.184594925376529773e-01
-1.583573091775178909e+00 -5.299079209566116333e+00 -6.171624954673404773e-01
-1.518997896462678909e+00 -5.290900498628616333e+00 -6.158654983970279773e-01
-1.455033052712678909e+00 -5.282843858003616333e+00 -6.145990189048404773e-01
-1.391556490212678909e+00 -5.274909287691116333e+00 -6.133172806235904773e-01
-1.328324068337678909e+00 -5.266974717378616333e+00 -6.120660599204654773e-01
-1.265457857400178909e+00 -5.257209092378616333e+00 -6.108453567954654773e-01
-1.819657076150178909e+00 -5.696906358003616333e+00 -6.134851273032779773e-01
-1.749588716775178909e+00 -5.686530381441116333e+00 -6.121118362876529773e-01
-1.680618990212678909e+00 -5.678473740816116333e+00 -6.107232864829654773e-01
-1.611405123025178909e+00 -5.668341904878616333e+00 -6.093652542564029773e-01
-1.543045748025178909e+00 -5.658210068941116333e+00 -6.080377396079654773e-01
-1.475174654275178909e+00 -5.648200303316116333e+00 -6.067102249595279773e-01
-1.407181490212678909e+00 -5.636237412691116333e+00 -6.054284866782779773e-01
-1.340531099587678909e+00 -5.626349717378616333e+00 -6.041162308189029773e-01
-1.955399263650178909e+00 -6.187018662691116333e+00 -6.090905960532779773e-01
-1.878983248025178909e+00 -6.172492295503616333e+00 -6.075647171470279773e-01
-1.803299654275178909e+00 -6.157965928316116333e+00 -6.060540970298404773e-01
-1.727982271462678909e+00 -6.143561631441116333e+00 -6.045434769126529773e-01
-1.653641451150178909e+00 -6.129279404878616333e+00 -6.030633743735904773e-01
-1.579910982400178909e+00 -6.115119248628616333e+00 -6.015832718345279773e-01
-1.506546724587678909e+00 -6.101203233003616333e+00 -6.001184280845279773e-01
-1.434159029275178909e+00 -6.087287217378616333e+00 -5.986841019126529773e-01
-2.115799654275178909e+00 -6.765998154878616333e+00 -6.044519241782779773e-01
-2.032425630837678909e+00 -6.748297959566116333e+00 -6.026666458579654773e-01
-1.948807466775178909e+00 -6.726813584566116333e+00 -6.009118851157779773e-01
-1.865799654275178909e+00 -6.705573350191116333e+00 -5.991723831626529773e-01
-1.784378755837678909e+00 -6.686896592378616333e+00 -5.975702103110904773e-01
-1.703934419900178909e+00 -6.668830186128616333e+00 -5.959985550376529773e-01
-1.624100435525178909e+00 -6.651007920503616333e+00 -5.944421585532779773e-01
-1.544510591775178909e+00 -6.630255967378616333e+00 -5.929315384360904773e-01
-2.328079927712678909e+00 -7.531745225191116333e+00 -6.021020706626529773e-01
-2.238114107400178909e+00 -7.520636826753616333e+00 -6.008966263267154773e-01
-2.148026216775178909e+00 -7.505988389253616333e+00 -5.995538528892154773e-01
-2.055130708962678909e+00 -7.477912217378616333e+00 -5.976465042564029773e-01
-1.963577974587678909e+00 -7.450324326753616333e+00 -5.957544144126529773e-01
-1.873001802712678909e+00 -7.422980576753616333e+00 -5.938928421470279773e-01
-1.783280123025178909e+00 -7.395880967378616333e+00 -5.920465286704654773e-01
-1.694779146462678909e+00 -7.369147568941116333e+00 -5.902154739829654773e-01
-2.640335787087678909e+00 -8.658698350191116333e+00 -6.064660843345279773e-01
-2.523148287087678909e+00 -8.590094834566116333e+00 -6.028955276939029773e-01
-2.408158052712678909e+00 -8.522712022066116333e+00 -5.996301468345279773e-01
-2.294998873025178909e+00 -8.456549912691116333e+00 -5.964105423423404773e-01
-2.184403169900178909e+00 -8.391730576753616333e+00 -5.932672317954654773e-01
-2.075882662087678909e+00 -8.328254014253616333e+00 -5.901849564048404773e-01
-1.969071138650178909e+00 -8.265754014253616333e+00 -5.871484573814029773e-01
-1.864578951150178909e+00 -8.204596787691116333e+00 -5.844018753501529773e-01
-2.640213716775178909e+00 -8.658576279878616333e+00 -5.622003372642154773e-01
-2.523026216775178909e+00 -8.589972764253616333e+00 -5.593011673423404773e-01
-2.408035982400178909e+00 -8.522712022066116333e+00 -5.564477737876529773e-01
-2.294998873025178909e+00 -8.456427842378616333e+00 -5.536554153892154773e-01
-2.184403169900178909e+00 -8.391730576753616333e+00 -5.509240921470279773e-01
-2.075882662087678909e+00 -8.328254014253616333e+00 -5.482385452720279773e-01
-1.969071138650178909e+00 -8.265754014253616333e+00 -5.455987747642154773e-01
-1.864578951150178909e+00 -8.204596787691116333e+00 -5.430047806235904773e-01
-2.640091646462678909e+00 -8.658576279878616333e+00 -5.181787308189029773e-01
-2.522904146462678909e+00 -8.589972764253616333e+00 -5.157068069907779773e-01
-2.408035982400178909e+00 -8.522712022066116333e+00 -5.130517776939029773e-01
-2.294876802712678909e+00 -8.456427842378616333e+00 -5.106714066001529773e-01
-2.184281099587678909e+00 -8.391730576753616333e+00 -5.083520706626529773e-01
-2.075882662087678909e+00 -8.328254014253616333e+00 -5.060632523032779773e-01
-1.969071138650178909e+00 -8.265631943941116333e+00 -5.040490921470279773e-01
-1.864578951150178909e+00 -8.204474717378616333e+00 -5.018365677329654773e-01
-2.639969576150178909e+00 -8.658454209566116333e+00 -4.739282425376529773e-01
-2.522782076150178909e+00 -8.589850693941116333e+00 -4.718988235923404773e-01
-2.407913912087678909e+00 -8.522589951753616333e+00 -4.698999222251529773e-01
-2.294754732400178909e+00 -8.456427842378616333e+00 -4.679315384360904773e-01
-2.184281099587678909e+00 -8.391730576753616333e+00 -4.660089310142154773e-01
-2.075760591775178909e+00 -8.328131943941116333e+00 -4.641320999595279773e-01
-1.968949068337678909e+00 -8.265631943941116333e+00 -4.622705276939029773e-01
-1.864456880837678909e+00 -8.204474717378616333e+00 -4.604699905845279773e-01
-2.639969576150178909e+00 -8.658454209566116333e+00 -4.299218948814029773e-01
-2.522782076150178909e+00 -8.589850693941116333e+00 -4.283197220298404773e-01
-2.407791841775178909e+00 -8.522589951753616333e+00 -4.267480667564029773e-01
-2.294754732400178909e+00 -8.456305772066116333e+00 -4.251916702720279773e-01
-2.184159029275178909e+00 -8.391608506441116333e+00 -4.236810501548404773e-01
-2.075760591775178909e+00 -8.328131943941116333e+00 -4.222009476157779773e-01
-1.968949068337678909e+00 -8.265631943941116333e+00 -4.207361038657779773e-01
-1.864456880837678909e+00 -8.204474717378616333e+00 -4.193170364829654773e-01
-2.639847505837678909e+00 -8.658332139253616333e+00 -3.856866653892154773e-01
-2.522660005837678909e+00 -8.589728623628616333e+00 -3.845117386314029773e-01
-2.407791841775178909e+00 -8.522467881441116333e+00 -3.833673294517154773e-01
-2.294632662087678909e+00 -8.456305772066116333e+00 -3.822381790610904773e-01
-2.184159029275178909e+00 -8.391608506441116333e+00 -3.811395462485904773e-01
-2.075638521462678909e+00 -8.328131943941116333e+00 -3.800561722251529773e-01
-1.968826998025178909e+00 -8.265631943941116333e+00 -3.789880569907779773e-01
-1.864456880837678909e+00 -8.204474717378616333e+00 -3.779504593345279773e-01
-2.639725435525178909e+00 -8.658332139253616333e+00 -3.416955765220279773e-01
-2.522537935525178909e+00 -8.589728623628616333e+00 -3.409478958579654773e-01
-2.407669771462678909e+00 -8.522467881441116333e+00 -3.402307327720279773e-01
-2.294632662087678909e+00 -8.456305772066116333e+00 -3.395135696860904773e-01
-2.184036958962678909e+00 -8.391608506441116333e+00 -3.388269241782779773e-01
-2.075638521462678909e+00 -8.328131943941116333e+00 -3.381402786704654773e-01
-1.968826998025178909e+00 -8.265509873628616333e+00 -3.374688919517154773e-01
-1.864334810525178909e+00 -8.204474717378616333e+00 -3.368127640220279773e-01
-2.639603365212678909e+00 -8.658210068941116333e+00 -2.974756058189029773e-01
-2.522415865212678909e+00 -8.589606553316116333e+00 -2.971704300376529773e-01
-2.407547701150178909e+00 -8.522467881441116333e+00 -2.970941360923404773e-01
-2.294510591775178909e+00 -8.456183701753616333e+00 -2.968042191001529773e-01
-2.184036958962678909e+00 -8.391486436128616333e+00 -2.965143021079654773e-01
-2.075516451150178909e+00 -8.328009873628616333e+00 -2.962243851157779773e-01
-1.968826998025178909e+00 -8.265509873628616333e+00 -2.957208450767154773e-01
-1.864334810525178909e+00 -8.204352647066116333e+00 -2.954461868735904773e-01
-2.639481294900178909e+00 -8.658210068941116333e+00 -2.534845169517154773e-01
-2.522293794900178909e+00 -8.589606553316116333e+00 -2.536218460532779773e-01
-2.407425630837678909e+00 -8.522345811128616333e+00 -2.537439163657779773e-01
-2.294388521462678909e+00 -8.456183701753616333e+00 -2.538659866782779773e-01
-2.183914888650178909e+00 -8.391486436128616333e+00 -2.539880569907779773e-01
-2.075516451150178909e+00 -8.328009873628616333e+00 -2.540948685142154773e-01
-1.968704927712678909e+00 -8.265509873628616333e+00 -2.542169388267154773e-01
-1.864334810525178909e+00 -8.204352647066116333e+00 -2.543237503501529773e-01
-2.639359224587678909e+00 -8.658087998628616333e+00 -2.092798050376529773e-01
-2.522293794900178909e+00 -8.589606553316116333e+00 -2.100732620689029773e-01
-2.407425630837678909e+00 -8.522345811128616333e+00 -2.106225784751529773e-01
-2.294388521462678909e+00 -8.456183701753616333e+00 -2.111566360923404773e-01
-2.183914888650178909e+00 -8.391486436128616333e+00 -2.116906937095279773e-01
-2.075394380837678909e+00 -8.328009873628616333e+00 -2.121942337485904773e-01
-1.968704927712678909e+00 -8.265509873628616333e+00 -2.127130325767154773e-01
-1.864212740212678909e+00 -8.204352647066116333e+00 -2.129876907798404773e-01
-2.639237154275178909e+00 -8.658087998628616333e+00 -1.653192337485904773e-01
-2.522171724587678909e+00 -8.589484483003616333e+00 -1.663110550376529773e-01
-2.407303560525178909e+00 -8.522223740816116333e+00 -1.672876175376529773e-01
-2.294266451150178909e+00 -8.456061631441116333e+00 -1.682336624595279773e-01
-2.183792818337678909e+00 -8.391364365816116333e+00 -1.691644485923404773e-01
-2.075394380837678909e+00 -8.328009873628616333e+00 -1.700799759360904773e-01
-1.968582857400178909e+00 -8.265509873628616333e+00 -1.709955032798404773e-01
-1.864212740212678909e+00 -8.204352647066116333e+00 -1.718652542564029773e-01
-2.639237154275178909e+00 -8.657965928316116333e+00 -1.211297806235904773e-01
-2.522049654275178909e+00 -8.589484483003616333e+00 -1.227777298423404773e-01
-2.407181490212678909e+00 -8.522223740816116333e+00 -1.241815384360904773e-01
-2.294266451150178909e+00 -8.456061631441116333e+00 -1.255548294517154773e-01
-2.183670748025178909e+00 -8.391364365816116333e+00 -1.268823441001529773e-01
-2.075272310525178909e+00 -8.327887803316116333e+00 -1.282098587485904773e-01
-1.968582857400178909e+00 -8.265387803316116333e+00 -1.294915970298404773e-01
-1.864212740212678909e+00 -8.204352647066116333e+00 -1.305444534751529773e-01
-2.639115083962678909e+00 -8.657965928316116333e+00 -7.718446812359047726e-02
-2.521927583962678909e+00 -8.589362412691116333e+00 -7.903078160015297726e-02
-2.407181490212678909e+00 -8.522223740816116333e+00 -8.084657749859047726e-02
-2.294144380837678909e+00 -8.456061631441116333e+00 -8.263185581890297726e-02
-2.183670748025178909e+00 -8.391364365816116333e+00 -8.438661656109047726e-02
-2.075272310525178909e+00 -8.327887803316116333e+00 -8.609560093609047726e-02
-1.968582857400178909e+00 -8.265387803316116333e+00 -8.778932652202797726e-02
-1.864212740212678909e+00 -8.204352647066116333e+00 -8.943727574077797726e-02
-2.638993013650178909e+00 -8.657843858003616333e+00 -3.301027378765297726e-02
-2.521927583962678909e+00 -8.589362412691116333e+00 -3.528383335796547726e-02
-2.407059419900178909e+00 -8.522101670503616333e+00 -3.775575718609047726e-02
-2.294022310525178909e+00 -8.455939561128616333e+00 -3.996828160015297726e-02
-2.183548677712678909e+00 -8.391242295503616333e+00 -4.211977085796547726e-02
-2.075272310525178909e+00 -8.327887803316116333e+00 -4.422548374859047726e-02
-1.968460787087678909e+00 -8.265387803316116333e+00 -4.608705601421547726e-02
-1.864090669900178909e+00 -8.204230576753616333e+00 -4.813173374859047726e-02
-2.638870943337678909e+00 -8.657843858003616333e+00 1.116392054828452274e-02
-2.521805513650178909e+00 -8.589240342378616333e+00 8.218974259222022738e-03
-2.406937349587678909e+00 -8.522101670503616333e+00 5.548686173284522738e-03
-2.294022310525178909e+00 -8.455939561128616333e+00 2.924174454534522738e-03
-2.183548677712678909e+00 -8.391242295503616333e+00 3.759566810970227380e-04
-2.075150240212678909e+00 -8.327765733003616333e+00 -2.141743514215477262e-03
-1.968460787087678909e+00 -8.265387803316116333e+00 -4.613667342340477262e-03
-1.864090669900178909e+00 -8.204230576753616333e+00 -6.826191756402977262e-03
-1.265213716775178909e+00 -5.256964951753616333e+00 -6.108300980064029773e-01
-1.203079927712678909e+00 -5.248786240816116333e+00 -6.095941360923404773e-01
-1.140946138650178909e+00 -5.238776475191116333e+00 -6.084039505454654773e-01
-1.079056490212678909e+00 -5.228766709566116333e+00 -6.072137649985904773e-01
-1.017777193337678909e+00 -5.218879014253616333e+00 -6.060388382407779773e-01
-9.572303183376789093e-01 -5.211066514253616333e+00 -6.049859817954654773e-01
-8.972937949001789093e-01 -5.206916123628616333e+00 -6.041620071860904773e-01
-8.377234824001789093e-01 -5.201056748628616333e+00 -6.033838089439029773e-01
-1.340164888650178909e+00 -5.626105576753616333e+00 -6.041162308189029773e-01
-1.273514498025178909e+00 -5.614142686128616333e+00 -6.028650101157779773e-01
-1.207596529275178909e+00 -5.604254990816116333e+00 -6.015832718345279773e-01
-1.141678560525178909e+00 -5.592292100191116333e+00 -6.003320511314029773e-01
-1.076370943337678909e+00 -5.580451279878616333e+00 -5.991113480064029773e-01
-1.011551607400178909e+00 -5.568732529878616333e+00 -5.979059036704654773e-01
-9.470984824001789093e-01 -5.558112412691116333e+00 -5.968988235923404773e-01
-8.839881308376789093e-01 -5.552985459566116333e+00 -5.960595901939029773e-01
-1.433914888650178909e+00 -6.087043076753616333e+00 -5.986688431235904773e-01
-1.361649263650178909e+00 -6.070685654878616333e+00 -5.972650345298404773e-01
-1.289871919900178909e+00 -6.054572373628616333e+00 -5.958612259360904773e-01
-1.218460787087678909e+00 -6.038459092378616333e+00 -5.944726761314029773e-01
-1.148026216775178909e+00 -6.022467881441116333e+00 -5.931146439048404773e-01
-1.077957857400178909e+00 -6.006598740816116333e+00 -5.917413528892154773e-01
-1.008377779275178909e+00 -5.990973740816116333e+00 -5.903985794517154773e-01
-9.401404745876789093e-01 -5.979865342378616333e+00 -5.892846878501529773e-01
-1.544266451150178909e+00 -6.629889756441116333e+00 -5.929162796470279773e-01
-1.466263521462678909e+00 -6.613044053316116333e+00 -5.913904007407779773e-01
-1.388260591775178909e+00 -6.593024522066116333e+00 -5.899102982017154773e-01
-1.310623873025178909e+00 -6.573249131441116333e+00 -5.884454544517154773e-01
-1.234085787087678909e+00 -6.553717881441116333e+00 -5.869806107017154773e-01
-1.158158052712678909e+00 -6.534308701753616333e+00 -5.855462845298404773e-01
-1.082596529275178909e+00 -6.515021592378616333e+00 -5.841119583579654773e-01
-1.007523287087678909e+00 -6.493048936128616333e+00 -5.827234085532779773e-01
-1.694412935525178909e+00 -7.368903428316116333e+00 -5.902002151939029773e-01
-1.606278169900178909e+00 -7.339362412691116333e+00 -5.884149368735904773e-01
-1.519119966775178909e+00 -7.310187608003616333e+00 -5.866449173423404773e-01
-1.432694185525178909e+00 -7.281256943941116333e+00 -5.848748978110904773e-01
-1.347367037087678909e+00 -7.252570420503616333e+00 -5.831506546470279773e-01
-1.262894380837678909e+00 -7.224372178316116333e+00 -5.814264114829654773e-01
-1.179032076150178909e+00 -7.196296006441116333e+00 -5.797174271079654773e-01
-1.096390474587678909e+00 -7.168586045503616333e+00 -5.780389603110904773e-01
-1.864212740212678909e+00 -8.204108506441116333e+00 -5.843866165610904773e-01
-1.761551607400178909e+00 -8.144049912691116333e+00 -5.813653763267154773e-01
-1.660599458962678909e+00 -8.084967881441116333e+00 -5.786340530845279773e-01
-1.561112154275178909e+00 -8.026618272066116333e+00 -5.759179886314029773e-01
-1.466751802712678909e+00 -7.989875108003616333e+00 -5.740258987876529773e-01
-1.375687349587678909e+00 -7.967047959566116333e+00 -5.726678665610904773e-01
-1.284500826150178909e+00 -7.940314561128616333e+00 -5.711572464439029773e-01
-1.194412935525178909e+00 -7.914069443941116333e+00 -5.698907669517154773e-01
-1.864212740212678909e+00 -8.204108506441116333e+00 -5.429895218345279773e-01
-1.761551607400178909e+00 -8.143927842378616333e+00 -5.405481155845279773e-01
-1.660599458962678909e+00 -8.084967881441116333e+00 -5.381524857017154773e-01
-1.561112154275178909e+00 -8.026618272066116333e+00 -5.357873733970279773e-01
-1.466873873025178909e+00 -7.990119248628616333e+00 -5.341394241782779773e-01
-1.375687349587678909e+00 -7.967047959566116333e+00 -5.329339798423404773e-01
-1.284500826150178909e+00 -7.940314561128616333e+00 -5.316217239829654773e-01
-1.194412935525178909e+00 -7.914069443941116333e+00 -5.303247269126529773e-01
-1.864090669900178909e+00 -8.203986436128616333e+00 -5.018213089439029773e-01
-1.761551607400178909e+00 -8.143927842378616333e+00 -4.997308548423404773e-01
-1.660599458962678909e+00 -8.084845811128616333e+00 -4.974725540610904773e-01
-1.561112154275178909e+00 -8.026618272066116333e+00 -4.954431351157779773e-01
-1.466873873025178909e+00 -7.990363389253616333e+00 -4.940393265220279773e-01
-1.375687349587678909e+00 -7.967047959566116333e+00 -4.930017288657779773e-01
-1.284500826150178909e+00 -7.940314561128616333e+00 -4.920862015220279773e-01
-1.194535005837678909e+00 -7.914069443941116333e+00 -4.909875687095279773e-01
-1.864090669900178909e+00 -8.203986436128616333e+00 -4.604547317954654773e-01
-1.761429537087678909e+00 -8.143927842378616333e+00 -4.587152298423404773e-01
-1.660599458962678909e+00 -8.084845811128616333e+00 -4.570062454673404773e-01
-1.560990083962678909e+00 -8.026618272066116333e+00 -4.553125198814029773e-01
-1.466873873025178909e+00 -7.990607529878616333e+00 -4.541528519126529773e-01
-1.375687349587678909e+00 -7.967047959566116333e+00 -4.532983597251529773e-01
-1.284500826150178909e+00 -7.940314561128616333e+00 -4.523523148032779773e-01
-1.194535005837678909e+00 -7.914069443941116333e+00 -4.514367874595279773e-01
-1.864090669900178909e+00 -8.203986436128616333e+00 -4.193017776939029773e-01
-1.761429537087678909e+00 -8.143927842378616333e+00 -4.179132278892154773e-01
-1.660599458962678909e+00 -8.084845811128616333e+00 -4.165399368735904773e-01
-1.560990083962678909e+00 -8.026618272066116333e+00 -4.151971634360904773e-01
-1.466995943337678909e+00 -7.990851670503616333e+00 -4.142816360923404773e-01
-1.375687349587678909e+00 -7.967047959566116333e+00 -4.135797317954654773e-01
-1.284500826150178909e+00 -7.940314561128616333e+00 -4.128320511314029773e-01
-1.194535005837678909e+00 -7.914069443941116333e+00 -4.120996292564029773e-01
-1.863968599587678909e+00 -8.203986436128616333e+00 -3.779352005454654773e-01
-1.761429537087678909e+00 -8.143927842378616333e+00 -3.768976028892154773e-01
-1.660477388650178909e+00 -8.084845811128616333e+00 -3.758752640220279773e-01
-1.560990083962678909e+00 -8.026618272066116333e+00 -3.748681839439029773e-01
-1.466995943337678909e+00 -7.991095811128616333e+00 -3.741967972251529773e-01
-1.375687349587678909e+00 -7.967047959566116333e+00 -3.736627396079654773e-01
-1.284500826150178909e+00 -7.940314561128616333e+00 -3.731134232017154773e-01
-1.194535005837678909e+00 -7.914069443941116333e+00 -3.725641067954654773e-01
-1.863968599587678909e+00 -8.203986436128616333e+00 -3.367975052329654773e-01
-1.761429537087678909e+00 -8.143927842378616333e+00 -3.361108597251529773e-01
-1.660477388650178909e+00 -8.084845811128616333e+00 -3.354394730064029773e-01
-1.560990083962678909e+00 -8.026618272066116333e+00 -3.347680862876529773e-01
-1.466995943337678909e+00 -7.991339951753616333e+00 -3.343255814048404773e-01
-1.375687349587678909e+00 -7.966925889253616333e+00 -3.339746292564029773e-01
-1.284500826150178909e+00 -7.940314561128616333e+00 -3.336084183189029773e-01
-1.194535005837678909e+00 -7.914069443941116333e+00 -3.332422073814029773e-01
-1.863968599587678909e+00 -8.203986436128616333e+00 -2.954461868735904773e-01
-1.761307466775178909e+00 -8.143927842378616333e+00 -2.951104935142154773e-01
-1.660477388650178909e+00 -8.084845811128616333e+00 -2.950036819907779773e-01
-1.560990083962678909e+00 -8.026618272066116333e+00 -2.946679886314029773e-01
-1.466995943337678909e+00 -7.991584092378616333e+00 -2.944543655845279773e-01
-1.375687349587678909e+00 -7.966925889253616333e+00 -2.942865189048404773e-01
-1.284500826150178909e+00 -7.940314561128616333e+00 -2.939050491782779773e-01
-1.194535005837678909e+00 -7.914069443941116333e+00 -2.937219437095279773e-01
-1.863846529275178909e+00 -8.203864365816116333e+00 -2.543237503501529773e-01
-1.761307466775178909e+00 -8.143805772066116333e+00 -2.543390091392154773e-01
-1.660477388650178909e+00 -8.084845811128616333e+00 -2.543542679282779773e-01
-1.560990083962678909e+00 -8.026618272066116333e+00 -2.543542679282779773e-01
-1.467118013650178909e+00 -7.991828233003616333e+00 -2.543695267173404773e-01
-1.375687349587678909e+00 -7.966925889253616333e+00 -2.543847855064029773e-01
-1.284500826150178909e+00 -7.940314561128616333e+00 -2.544000442954654773e-01
-1.194535005837678909e+00 -7.914069443941116333e+00 -2.544153030845279773e-01
-1.863846529275178909e+00 -8.203864365816116333e+00 -2.129876907798404773e-01
-1.761307466775178909e+00 -8.143805772066116333e+00 -2.135675247642154773e-01
-1.660477388650178909e+00 -8.084845811128616333e+00 -2.139184769126529773e-01
-1.560990083962678909e+00 -8.026618272066116333e+00 -2.142694290610904773e-01
-1.467118013650178909e+00 -7.992072373628616333e+00 -2.145135696860904773e-01
-1.375687349587678909e+00 -7.966925889253616333e+00 -2.147119339439029773e-01
-1.284500826150178909e+00 -7.940314561128616333e+00 -2.149102982017154773e-01
-1.194535005837678909e+00 -7.914069443941116333e+00 -2.149102982017154773e-01
-1.863846529275178909e+00 -8.203864365816116333e+00 -1.718805130454654773e-01
-1.761307466775178909e+00 -8.143805772066116333e+00 -1.725824173423404773e-01
-1.660477388650178909e+00 -8.084845811128616333e+00 -1.732843216392154773e-01
-1.560990083962678909e+00 -8.026496201753616333e+00 -1.739709671470279773e-01
-1.467118013650178909e+00 -7.992438584566116333e+00 -1.744439896079654773e-01
-1.375687349587678909e+00 -7.966925889253616333e+00 -1.748254593345279773e-01
-1.284500826150178909e+00 -7.940314561128616333e+00 -1.752221878501529773e-01
-1.194535005837678909e+00 -7.914069443941116333e+00 -1.756036575767154773e-01
-1.863724458962678909e+00 -8.203864365816116333e+00 -1.305597122642154773e-01
-1.761185396462678909e+00 -8.143805772066116333e+00 -1.318261917564029773e-01
-1.660355318337678909e+00 -8.084845811128616333e+00 -1.328790482017154773e-01
-1.560868013650178909e+00 -8.026496201753616333e+00 -1.339013870689029773e-01
-1.467240083962678909e+00 -7.992682725191116333e+00 -1.345880325767154773e-01
-1.375687349587678909e+00 -7.966925889253616333e+00 -1.351678665610904773e-01
-1.284500826150178909e+00 -7.940314561128616333e+00 -1.357477005454654773e-01
-1.194657076150178909e+00 -7.914069443941116333e+00 -1.361139114829654773e-01
-1.863724458962678909e+00 -8.203864365816116333e+00 -8.945253452984047726e-02
-1.761185396462678909e+00 -8.143805772066116333e+00 -9.087160191265297726e-02
-1.660355318337678909e+00 -8.084723740816116333e+00 -9.224489292827797726e-02
-1.560868013650178909e+00 -8.026496201753616333e+00 -9.361818394390297726e-02
-1.467240083962678909e+00 -7.992926865816116333e+00 -9.453371128765297726e-02
-1.375687349587678909e+00 -7.966925889253616333e+00 -9.529665074077797726e-02
-1.284500826150178909e+00 -7.940314561128616333e+00 -9.605959019390297726e-02
-1.194657076150178909e+00 -7.914069443941116333e+00 -9.682252964702797726e-02
-1.863724458962678909e+00 -8.203742295503616333e+00 -4.814699253765297726e-02
-1.761185396462678909e+00 -8.143805772066116333e+00 -4.990175327984047726e-02
-1.660355318337678909e+00 -8.084723740816116333e+00 -5.185487827984047726e-02
-1.560868013650178909e+00 -8.026496201753616333e+00 -5.356386265484047726e-02
-1.467240083962678909e+00 -7.993171006441116333e+00 -5.467775425640297726e-02
-1.375687349587678909e+00 -7.966925889253616333e+00 -5.563905796734047726e-02
-1.284622896462678909e+00 -7.940314561128616333e+00 -5.638673863140297726e-02
-1.194657076150178909e+00 -7.914069443941116333e+00 -5.733278355327797726e-02
-1.863602388650178909e+00 -8.203742295503616333e+00 -6.841450545465477262e-03
-1.761185396462678909e+00 -8.143805772066116333e+00 -9.160786482965477262e-03
-1.660355318337678909e+00 -8.084723740816116333e+00 -1.123598179546547726e-02
-1.560868013650178909e+00 -8.026496201753616333e+00 -1.328065952984047726e-02
-1.467240083962678909e+00 -7.993415147066116333e+00 -1.462343296734047726e-02
-1.375687349587678909e+00 -7.966925889253616333e+00 -1.576784214702797726e-02
-1.284622896462678909e+00 -7.940314561128616333e+00 -1.692751011577797726e-02
-1.194657076150178909e+00 -7.914069443941116333e+00 -1.785829624859047726e-02
-8.374793417751789093e-01 -5.201178818941116333e+00 -6.033990677329654773e-01
-7.782752402126789093e-01 -5.196662217378616333e+00 -6.025903519126529773e-01
-7.190711386501789093e-01 -5.190436631441116333e+00 -6.018274124595279773e-01
-6.599891074001789093e-01 -5.184211045503616333e+00 -6.010644730064029773e-01
-6.012732870876789093e-01 -5.178107529878616333e+00 -6.003167923423404773e-01
-5.428016074001789093e-01 -5.172004014253616333e+00 -5.995538528892154773e-01
-4.843299277126789093e-01 -5.165900498628616333e+00 -5.988061722251529773e-01
-4.262244589626789093e-01 -5.158087998628616333e+00 -5.981042679282779773e-01
-8.837439902126789093e-01 -5.552985459566116333e+00 -5.960595901939029773e-01
-8.206336386501789093e-01 -5.545661240816116333e+00 -5.952661331626529773e-01
-7.580115683376789093e-01 -5.540290147066116333e+00 -5.944268997642154773e-01
-6.952674277126789093e-01 -5.532965928316116333e+00 -5.936334427329654773e-01
-6.328894980251789093e-01 -5.525641709566116333e+00 -5.928552444907779773e-01
-5.708777792751789093e-01 -5.518439561128616333e+00 -5.920770462485904773e-01
-5.087439902126789093e-01 -5.509284287691116333e+00 -5.913293655845279773e-01
-4.473426230251789093e-01 -5.502082139253616333e+00 -5.905511673423404773e-01
-9.398963339626789093e-01 -5.979865342378616333e+00 -5.892846878501529773e-01
-8.721473105251789093e-01 -5.970099717378616333e+00 -5.883996780845279773e-01
-8.047644980251789093e-01 -5.960334092378616333e+00 -5.875146683189029773e-01
-7.375037558376789093e-01 -5.950568467378616333e+00 -5.866449173423404773e-01
-6.707312949001789093e-01 -5.940924912691116333e+00 -5.857751663657779773e-01
-6.043250449001789093e-01 -5.931281358003616333e+00 -5.849054153892154773e-01
-5.380408652126789093e-01 -5.921637803316116333e+00 -5.840356644126529773e-01
-4.723670370876789093e-01 -5.912116318941116333e+00 -5.831811722251529773e-01
-1.007279146462678909e+00 -6.492926865816116333e+00 -5.827234085532779773e-01
-9.340369589626789093e-01 -6.480231553316116333e+00 -5.815789993735904773e-01
-8.612830527126789093e-01 -6.468268662691116333e+00 -5.806482132407779773e-01
-7.886512167751789093e-01 -6.456427842378616333e+00 -5.797174271079654773e-01
-7.167518027126789093e-01 -6.445441514253616333e+00 -5.788324173423404773e-01
-6.458289511501789093e-01 -6.442267686128616333e+00 -5.783136185142154773e-01
-5.749060995876789093e-01 -6.439215928316116333e+00 -5.777948196860904773e-01
-5.041053183376789093e-01 -6.432868272066116333e+00 -5.773065384360904773e-01
-1.096146333962678909e+00 -7.168586045503616333e+00 -5.780389603110904773e-01
-1.013870943337678909e+00 -7.138190537691116333e+00 -5.763910110923404773e-01
-9.333045370876789093e-01 -7.115363389253616333e+00 -5.750482376548404773e-01
-8.535926230251789093e-01 -7.098395615816116333e+00 -5.739648636314029773e-01
-7.747352011501789093e-01 -7.081549912691116333e+00 -5.728967483970279773e-01
-6.962439902126789093e-01 -7.064826279878616333e+00 -5.718133743735904773e-01
-6.182410605251789093e-01 -7.049933701753616333e+00 -5.708215530845279773e-01
-5.415809042751789093e-01 -7.046149522066116333e+00 -5.703027542564029773e-01
-1.194168794900178909e+00 -7.913825303316116333e+00 -5.698755081626529773e-01
-1.104935396462678909e+00 -7.887824326753616333e+00 -5.683191116782779773e-01
-1.016434419900178909e+00 -7.861945420503616333e+00 -5.669763382407779773e-01
-9.282996542751789093e-01 -7.836188584566116333e+00 -5.656488235923404773e-01
-8.411414511501789093e-01 -7.810675889253616333e+00 -5.643213089439029773e-01
-7.547156699001789093e-01 -7.785407334566116333e+00 -5.630243118735904773e-01
-6.686560995876789093e-01 -7.760260850191116333e+00 -5.617120560142154773e-01
-5.836951620876789093e-01 -7.735480576753616333e+00 -5.606286819907779773e-01
-1.194168794900178909e+00 -7.913825303316116333e+00 -5.303247269126529773e-01
-1.104935396462678909e+00 -7.887824326753616333e+00 -5.291192825767154773e-01
-1.016434419900178909e+00 -7.861945420503616333e+00 -5.279443558189029773e-01
-9.282996542751789093e-01 -7.836188584566116333e+00 -5.267694290610904773e-01
-8.411414511501789093e-01 -7.810675889253616333e+00 -5.256097610923404773e-01
-7.548377402126789093e-01 -7.785407334566116333e+00 -5.244500931235904773e-01
-6.687781699001789093e-01 -7.760260850191116333e+00 -5.233056839439029773e-01
-5.836951620876789093e-01 -7.735480576753616333e+00 -5.221612747642154773e-01
-1.194168794900178909e+00 -7.913825303316116333e+00 -4.909723099204654773e-01
-1.104935396462678909e+00 -7.887824326753616333e+00 -4.899499710532779773e-01
-1.016434419900178909e+00 -7.861945420503616333e+00 -4.887140091392154773e-01
-9.282996542751789093e-01 -7.836188584566116333e+00 -4.876916702720279773e-01
-8.412635214626789093e-01 -7.810675889253616333e+00 -4.866845901939029773e-01
-7.548377402126789093e-01 -7.785407334566116333e+00 -4.856775101157779773e-01
-6.687781699001789093e-01 -7.760260850191116333e+00 -4.848993118735904773e-01
-5.836951620876789093e-01 -7.735480576753616333e+00 -4.839074905845279773e-01
-1.194168794900178909e+00 -7.913825303316116333e+00 -4.514367874595279773e-01
-1.104935396462678909e+00 -7.887824326753616333e+00 -4.505517776939029773e-01
-1.016434419900178909e+00 -7.861945420503616333e+00 -4.496820267173404773e-01
-9.284217245876789093e-01 -7.836188584566116333e+00 -4.488275345298404773e-01
-8.412635214626789093e-01 -7.810675889253616333e+00 -4.479730423423404773e-01
-7.548377402126789093e-01 -7.785407334566116333e+00 -4.471338089439029773e-01
-6.689002402126789093e-01 -7.760260850191116333e+00 -4.462793167564029773e-01
-5.838172324001789093e-01 -7.735480576753616333e+00 -4.454553421470279773e-01
-1.194168794900178909e+00 -7.913825303316116333e+00 -4.120996292564029773e-01
-1.104935396462678909e+00 -7.887824326753616333e+00 -4.113824661704654773e-01
-1.016434419900178909e+00 -7.861945420503616333e+00 -4.106805618735904773e-01
-9.284217245876789093e-01 -7.836188584566116333e+00 -4.099633987876529773e-01
-8.412635214626789093e-01 -7.810675889253616333e+00 -4.092767532798404773e-01
-7.549598105251789093e-01 -7.785407334566116333e+00 -4.085748489829654773e-01
-6.689002402126789093e-01 -7.760382920503616333e+00 -4.078882034751529773e-01
-5.838172324001789093e-01 -7.735480576753616333e+00 -4.072015579673404773e-01
-1.194168794900178909e+00 -7.913825303316116333e+00 -3.725641067954654773e-01
-1.105057466775178909e+00 -7.887824326753616333e+00 -3.720147903892154773e-01
-1.016556490212678909e+00 -7.861945420503616333e+00 -3.714502151939029773e-01
-9.284217245876789093e-01 -7.836188584566116333e+00 -3.709008987876529773e-01
-8.413855917751789093e-01 -7.810675889253616333e+00 -3.703668411704654773e-01
-7.549598105251789093e-01 -7.785529404878616333e+00 -3.698175247642154773e-01
-6.689002402126789093e-01 -7.760382920503616333e+00 -3.692834671470279773e-01
