-1.107220801711082458e+01 -4.020414963364601135e+00 5.804063356481492519e-01
-1.138714942336082458e+01 -4.218657150864601135e+00 5.896226442418992519e-01
-9.547671884298324585e+00 -3.055205002427101135e+00 5.775224245153367519e-01
-9.787295907735824585e+00 -3.199247971177101135e+00 5.855332887731492519e-01
-1.004144629836082458e+01 -3.352202072739601135e+00 5.940324342809617519e-01
-1.031244239211082458e+01 -3.515165939927101135e+00 6.031114137731492519e-01
-1.060016211867332458e+01 -3.688261643052101135e+00 6.127397096715867519e-01
-1.079010352492332458e+01 -3.837065353989601135e+00 6.203691042028367519e-01
-1.121136817336082458e+01 -4.063139572739601135e+00 6.334611452184617519e-01
-1.154046973586082458e+01 -4.267119064927101135e+00 6.446916139684617519e-01
-9.656924813985824585e+00 -3.082670822739601135e+00 6.224595583043992519e-01
-9.902164071798324585e+00 -3.229155197739601135e+00 6.316758668981492519e-01
-1.016095313429832458e+01 -3.384306564927101135e+00 6.416551149450242519e-01
-1.040472754836082458e+01 -3.540556564927101135e+00 6.514359987340867519e-01
-1.066192969679832458e+01 -3.705229416489601135e+00 6.617661989293992519e-01
-1.079034766554832458e+01 -3.835478439927101135e+00 6.687547243200242519e-01
-1.120245704054832458e+01 -4.058500900864601135e+00 6.837235963903367519e-01
-1.149115332961082458e+01 -4.249174728989601135e+00 6.958085573278367519e-01
-9.602237313985824585e+00 -3.066801682114601135e+00 6.632157838903367519e-01
-9.814639657735824585e+00 -3.203886643052101135e+00 6.728898561559617519e-01
-1.003851661086082458e+01 -3.348295822739601135e+00 6.830979860387742519e-01
-1.027569922804832458e+01 -3.501371994614601135e+00 6.939164674840867519e-01
-1.052557715773582458e+01 -3.662748947739601135e+00 7.052995241247117519e-01
-1.079108008742332458e+01 -3.834135666489601135e+00 7.174150026403367519e-01
-1.105719336867332458e+01 -4.010649338364601135e+00 7.297441042028367519e-01
-1.138946875929832458e+01 -4.214140549302101135e+00 7.444535768590867519e-01
-9.494327157735824585e+00 -3.036894455552101135e+00 7.017900026403367519e-01
-9.717715829610824585e+00 -3.175932541489601135e+00 7.127152956090867519e-01
-9.985904306173324585e+00 -3.332060471177101135e+00 7.256547487340867519e-01
-1.027301368117332458e+01 -3.499052658677101135e+00 7.394944704137742519e-01
-1.057892188429832458e+01 -3.677153244614601135e+00 7.542497194372117519e-01
-1.090253028273582458e+01 -3.866850510239601135e+00 7.699204958043992519e-01
-1.123175391554832458e+01 -4.064482346177101135e+00 7.860490358434617519e-01
-1.158600196242332458e+01 -4.276640549302101135e+00 8.036576784215867519e-01
-9.602725595235824585e+00 -3.064116135239601135e+00 7.477647340856492519e-01
-9.862979501485824585e+00 -3.214140549302101135e+00 7.616197145543992519e-01
-1.014044532179832458e+01 -3.374052658677101135e+00 7.763749635778367519e-01
-1.043768653273582458e+01 -3.545439377427101135e+00 7.921830690465867519e-01
-2.653790625929832458e+01 -8.454741135239601135e+00 1.463981775101274252e+00
-2.811615332961082458e+01 -9.176787033677101135e+00 1.540001062210649252e+00
-2.834735450148582458e+01 -9.499907150864601135e+00 1.560310510452836752e+00
-2.906000098586082458e+01 -9.985991135239601135e+00 1.601387170609086752e+00
-2.324420508742332458e+01 -6.656645432114601135e+00 1.400520471390336752e+00
-2.644305762648582458e+01 -7.728300705552101135e+00 1.553611902054399252e+00
-2.169464454054832458e+01 -6.622465744614601135e+00 1.347465661820024252e+00
-2.305890235304832458e+01 -7.207670822739601135e+00 1.417762903030961752e+00
-2.322589454054832458e+01 -7.459257736802101135e+00 1.434272912796586752e+00
-2.836102637648582458e+01 -9.247831955552101135e+00 1.683571008499711752e+00
-2.870502051711082458e+01 -9.609038010239601135e+00 1.710746911820024252e+00
-2.944488868117332458e+01 -1.010708488523960114e+01 1.757042077835649252e+00
-2.303937110304832458e+01 -6.599150314927101135e+00 1.497703698929399252e+00
-2.698871192336082458e+01 -7.872709885239601135e+00 1.703025964554399252e+00
-2.315082129836082458e+01 -7.028593674302101135e+00 1.520591882523149252e+00
-2.307318457961082458e+01 -7.208159103989601135e+00 1.525718835648149252e+00
-2.742352637648582458e+01 -8.711332932114601135e+00 1.757011560257524252e+00
-2.756659278273582458e+01 -8.998442307114601135e+00 1.775261071976274252e+00
-2.944501075148582458e+01 -9.839262619614601135e+00 1.883735803421586752e+00
-2.996185645461082458e+01 -1.027114738523960114e+01 1.923317102249711752e+00
-1.302814063429832458e+01 -4.780913010239601135e+00 -9.528336161747574806e-02
-1.288873633742332458e+01 -4.847197189927101135e+00 -8.747086161747574806e-02
-1.275690039992332458e+01 -4.914335861802101135e+00 -8.032974833622574806e-02
-1.276202735304832458e+01 -5.028959885239601135e+00 -7.854447001591324806e-02
-1.276715430617332458e+01 -5.144072189927101135e+00 -7.674393290653824806e-02
-1.277228125929832458e+01 -5.260283127427101135e+00 -7.494339579716324806e-02
-1.277740821242332458e+01 -5.376860275864601135e+00 -7.312759989872574806e-02
-1.277655372023582458e+01 -5.491850510239601135e+00 -7.137283915653824806e-02
-1.963995704054832458e+01 -6.957304611802101135e+00 -2.647627317346632481e-01
-1.956207618117332458e+01 -7.105497971177101135e+00 -2.587355100549757481e-01
-1.447174414992332458e+01 -5.509062424302101135e+00 -8.071121806278824806e-02
-1.319452247023582458e+01 -5.181547775864601135e+00 -3.430924052372574806e-02
-1.409430274367332458e+01 -5.628691330552101135e+00 -6.259903544560074806e-02
-1.404108008742332458e+01 -5.735502853989601135e+00 -5.872330302372574806e-02
-1.407428321242332458e+01 -5.875029221177101135e+00 -5.741104716435074806e-02
-1.410773047804832458e+01 -6.015898361802101135e+00 -5.608353251591324806e-02
-2.182721289992332458e+01 -7.674467697739601135e+00 -2.382124387659132481e-01
-2.211932715773582458e+01 -7.968046799302101135e+00 -2.428358518518507481e-01
-2.242145118117332458e+01 -8.271635666489601135e+00 -2.476118528284132481e-01
-1.319476661086082458e+01 -5.179594650864601135e+00 2.645125752314925194e-02
-2.309674414992332458e+01 -8.926176682114601135e+00 -2.587965452112257481e-01
-2.080719336867332458e+01 -8.277372971177101135e+00 -1.883314573206007481e-01
-1.653058204054832458e+01 -6.819609299302101135e+00 -6.180557841435074806e-02
-1.643817481398582458e+01 -6.934355393052101135e+00 -5.605301493778824806e-02
-2.283636817336082458e+01 -8.003203049302101135e+00 -1.615828000940382481e-01
-2.354132422804832458e+01 -8.445707932114601135e+00 -1.739271604456007481e-01
-2.380731543898582458e+01 -8.749907150864601135e+00 -1.757582151331007481e-01
-1.319513282179832458e+01 -5.177641525864601135e+00 8.754744892939925194e-02
-2.449957618117332458e+01 -9.436430588364601135e+00 -1.828230344690382481e-01
-2.476373633742332458e+01 -9.761015549302101135e+00 -1.841352903284132481e-01
-2.484064063429832458e+01 -1.001907218992710114e+01 -1.808699094690382481e-01
-2.503119239211082458e+01 -1.032498039305210114e+01 -1.808546506799757481e-01
-2.406598243117332458e+01 -8.404081955552101135e+00 -7.909378642216324806e-02
-2.439483985304832458e+01 -8.730620041489601135e+00 -8.051285380497574806e-02
-2.481964454054832458e+01 -9.097807541489601135e+00 -8.365616435185074806e-02
-1.319537696242332458e+01 -5.175688400864601135e+00 1.483232057653367519e-01
-2.555743750929832458e+01 -9.819853439927101135e+00 -8.710465067997574806e-02
-2.585150489211082458e+01 -1.016567863523960114e+01 -8.708939189091324806e-02
-2.615350684523582458e+01 -1.052078117430210114e+01 -8.708939189091324806e-02
-2.629693946242332458e+01 -1.082046379148960114e+01 -8.396134013310074806e-02
-2.469110450148582458e+01 -8.605864182114601135e+00 2.396407490596175194e-02
-2.512164649367332458e+01 -8.972319260239601135e+00 2.370467549189925194e-02
-2.549750098586082458e+01 -9.329252853989601135e+00 2.387252217158675194e-02
-1.319562110304832458e+01 -5.173613205552101135e+00 2.094041383825242519e-01
-2.617682227492332458e+01 -1.004238761961460114e+01 2.591719990596175194e-02
-2.652289161086082458e+01 -1.041360343992710114e+01 2.715316182002425194e-02
-2.688580664992332458e+01 -1.079836906492710114e+01 2.834334736689925194e-02
-2.727081641554832458e+01 -1.120046867430210114e+01 2.874007588252425194e-02
-2.531866797804832458e+01 -8.808134689927101135e+00 1.336442506872117519e-01
-2.558551368117332458e+01 -9.125151291489601135e+00 1.370164430700242519e-01
-2.573004493117332458e+01 -9.405913010239601135e+00 1.417924440465867519e-01
-1.319586524367332458e+01 -5.171660080552101135e+00 2.701798952184617519e-01
-2.660443457961082458e+01 -1.019460929930210114e+01 1.461411989293992519e-01
-2.696222266554832458e+01 -1.057424797117710114e+01 1.494370973668992519e-01
-2.746039161086082458e+01 -1.101516593992710114e+01 1.516953981481492519e-01
-2.767010840773582458e+01 -1.135342277586460114e+01 1.567460573278367519e-01
-2.566058692336082458e+01 -8.916533127427101135e+00 2.503587282262742519e-01
-2.580585059523582458e+01 -9.195463791489601135e+00 2.561418092809617519e-01
-2.653754004836082458e+01 -9.681913986802101135e+00 2.596818483434617519e-01
-1.319623145461082458e+01 -5.169706955552101135e+00 3.312760866247117519e-01
-1.318255957961082458e+01 -5.281889572739601135e+00 3.346787965856492519e-01
-2.757757911086082458e+01 -1.080068840086460114e+01 2.759629762731492519e-01
-2.775201758742332458e+01 -1.112283195555210114e+01 2.818223512731492519e-01
-2.863360938429832458e+01 -1.172866691648960114e+01 2.858506715856492519e-01
-2.588275489211082458e+01 -8.985380783677101135e+00 3.711320436559617519e-01
-2.636786231398582458e+01 -9.381010666489601135e+00 3.778459108434617519e-01
-2.676922950148582458e+01 -9.758085861802101135e+00 3.848954713903367519e-01
-1.319647559523582458e+01 -5.167753830552101135e+00 3.920365846715867519e-01
-1.317486914992332458e+01 -5.277006760239601135e+00 3.955613649450242519e-01
-2.783526954054832458e+01 -1.089285148680210114e+01 4.076158083043992519e-01
-2.855829200148582458e+01 -1.142837394773960114e+01 4.159928834997117519e-01
-2.892084082961082458e+01 -1.183718742430210114e+01 4.244004762731492519e-01
-2.610773047804832458e+01 -9.055082932114601135e+00 4.934007204137742519e-01
-2.676507911086082458e+01 -9.510893478989601135e+00 5.036241090856492519e-01
-2.700506934523582458e+01 -9.835478439927101135e+00 5.123673952184617519e-01
-1.319671973586082458e+01 -5.165800705552101135e+00 4.528123415075242519e-01
-1.316730079054832458e+01 -5.272246018052101135e+00 4.563676393590867519e-01
-2.809808692336082458e+01 -1.098684562742710114e+01 5.418015993200242519e-01
-2.896185645461082458e+01 -1.157876457273960114e+01 5.550157106481492519e-01
-2.921246680617332458e+01 -1.194729484617710114e+01 5.650712526403367519e-01
-2.668512305617332458e+01 -9.240263596177101135e+00 6.216203249059617519e-01
-2.705987891554832458e+01 -9.605986252427101135e+00 6.329881227575242519e-01
-2.724664649367332458e+01 -9.914824143052101135e+00 6.428605592809617519e-01
-1.319696387648582458e+01 -5.163847580552101135e+00 5.138932741247117519e-01
-1.315961036086082458e+01 -5.267363205552101135e+00 5.174180543981492519e-01
-2.880353125929832458e+01 -1.124648918211460114e+01 6.838914430700242519e-01
-2.931805762648582458e+01 -1.171084465086460114e+01 6.982499635778367519e-01
-2.992877539992332458e+01 -1.222451652586460114e+01 7.140580690465867519e-01
-1.155841407179832458e+01 -4.276884689927101135e+00 5.401994264684617519e-01
-1.188190039992332458e+01 -4.485869064927101135e+00 5.481950319372117519e-01
-1.222735938429832458e+01 -4.709135666489601135e+00 5.567399538122117519e-01
-1.259845313429832458e+01 -4.948881760239601135e+00 5.659104860387742519e-01
-1.299530372023582458e+01 -5.205229416489601135e+00 5.757218874059617519e-01
-1.340765723586082458e+01 -5.475981369614601135e+00 5.860673463903367519e-01
-1.383331641554832458e+01 -5.760038986802101135e+00 5.969010866247117519e-01
-1.429132422804832458e+01 -6.065580978989601135e+00 6.085588014684617519e-01
-1.138959082961082458e+01 -4.219755783677101135e+00 5.896684206090867519e-01
-1.173175391554832458e+01 -4.433500900864601135e+00 5.996934450231492519e-01
-1.209808692336082458e+01 -4.662504807114601135e+00 6.101304567418992519e-01
-1.249432715773582458e+01 -4.909819260239601135e+00 6.217271364293992519e-01
-1.292010840773582458e+01 -5.175810471177101135e+00 6.341935670934617519e-01
-1.336822852492332458e+01 -5.459135666489601135e+00 6.474229372106492519e-01
-1.382904395461082458e+01 -5.756254807114601135e+00 6.615983522497117519e-01
-1.432648047804832458e+01 -6.077177658677101135e+00 6.765367067418992519e-01
-1.154291114211082458e+01 -4.268217697739601135e+00 6.447679079137742519e-01
-1.189569434523582458e+01 -4.486845627427101135e+00 6.568986452184617519e-01
-1.227460059523582458e+01 -4.721708908677101135e+00 6.699296510778367519e-01
-1.266900977492332458e+01 -4.969999924302101135e+00 6.836320436559617519e-01
-1.305585059523582458e+01 -5.223295822739601135e+00 6.974565065465867519e-01
-1.345404395461082458e+01 -5.489164963364601135e+00 7.118760622106492519e-01
-1.386786231398582458e+01 -5.768950119614601135e+00 7.269975221715867519e-01
-1.431219825148582458e+01 -6.069243088364601135e+00 7.432176149450242519e-01
-1.149322852492332458e+01 -4.250273361802101135e+00 6.958848512731492519e-01
-1.180145606398582458e+01 -4.453276291489601135e+00 7.083207643590867519e-01
-1.212884864211082458e+01 -4.669340744614601135e+00 7.218247926793992519e-01
-1.247955664992332458e+01 -4.900786057114601135e+00 7.362901247106492519e-01
-1.285345801711082458e+01 -5.147368088364601135e+00 7.517167604528367519e-01
-1.326410254836082458e+01 -5.416044846177101135e+00 7.685624635778367519e-01
-1.374493750929832458e+01 -5.719511643052101135e+00 7.878648317418992519e-01
-1.426874122023582458e+01 -6.049955978989601135e+00 8.092271364293992519e-01
-1.139191016554832458e+01 -4.215361252427101135e+00 7.445451295934617519e-01
-1.175812110304832458e+01 -4.436918869614601135e+00 7.608109987340867519e-01
-1.215277442336082458e+01 -4.675688400864601135e+00 7.783128297887742519e-01
-1.258063086867332458e+01 -4.934721603989601135e+00 7.973100221715867519e-01
-1.304315528273582458e+01 -5.214506760239601135e+00 8.178330934606492519e-01
-1.352081641554832458e+01 -5.509916916489601135e+00 8.393022096715867519e-01
-3.141962012648582458e+01 -1.249246086180210114e+01 1.475944665726274252e+00
-3.224078711867332458e+01 -1.310818351805210114e+01 1.517265466507524252e+00
-1.158856543898582458e+01 -4.277861252427101135e+00 8.037797487340867519e-01
-2.913116797804832458e+01 -1.027651847898960114e+01 1.477882531937211752e+00
-2.944623145461082458e+01 -1.064858879148960114e+01 1.501243737991899252e+00
-3.024920997023582458e+01 -1.120217765867710114e+01 1.543998864945024252e+00
-3.058771094679832458e+01 -1.160244621336460114e+01 1.569114831741899252e+00
-3.141534766554832458e+01 -1.219436515867710114e+01 1.614082483109086752e+00
-3.200958594679832458e+01 -1.271340812742710114e+01 1.650367883499711752e+00
-3.265460547804832458e+01 -1.326541008055210114e+01 1.690117029007524252e+00
-2.907037696242332458e+01 -9.990263596177101135e+00 1.601875451859086752e+00
-2.944659766554832458e+01 -1.037783683836460114e+01 1.629600671585649252e+00
-3.022565039992332458e+01 -1.091299308836460114e+01 1.675209192093461752e+00
-3.058465918898582458e+01 -1.131631340086460114e+01 1.703132776077836752e+00
-3.141180762648582458e+01 -1.189749015867710114e+01 1.752128747757524252e+00
-3.195209082961082458e+01 -1.238967765867710114e+01 1.789100793655961752e+00
-3.264105567336082458e+01 -1.294998039305210114e+01 1.833274987991899252e+00
-3.338763770461082458e+01 -1.354788078367710114e+01 1.880729821976274252e+00
-2.944708594679832458e+01 -1.010867179930210114e+01 1.757179406937211752e+00
-2.996686133742332458e+01 -1.054788078367710114e+01 1.794181970413774252e+00
-3.057941016554832458e+01 -1.103018058836460114e+01 1.836174157913774252e+00
-3.126324805617332458e+01 -1.155190910398960114e+01 1.881477502640336752e+00
-3.193927344679832458e+01 -1.208425773680210114e+01 1.927803186234086752e+00
-3.274847754836082458e+01 -1.268179191648960114e+01 1.982277063187211752e+00
-3.367438086867332458e+01 -1.334023918211460114e+01 2.042518762405961752e+00
-3.449371680617332458e+01 -1.397622551023960114e+01 2.098259118851274252e+00
-2.996600684523582458e+01 -1.027346672117710114e+01 1.923576501663774252e+00
-3.057281836867332458e+01 -1.074648918211460114e+01 1.967567590530961752e+00
-3.139899024367332458e+01 -1.130813468992710114e+01 2.024574426468461752e+00
-3.222980079054832458e+01 -1.188931144773960114e+01 2.082679895218461752e+00
-3.307001075148582458e+01 -1.249038566648960114e+01 2.142067102249711752e+00
-3.309027442336082458e+01 -1.280410636961460114e+01 2.157646325882524252e+00
-3.475323829054832458e+01 -1.374758781492710114e+01 2.263557580765336752e+00
-3.552191504836082458e+01 -1.437380851805210114e+01 2.322410730179399252e+00
-1.277667579054832458e+01 -5.492338791489601135e+00 -7.137283915653824806e-02
-1.278277930617332458e+01 -5.610869064927101135e+00 -6.951126689091324806e-02
-1.275336036086082458e+01 -5.715727463364601135e+00 -6.661209696903824806e-02
-1.270953711867332458e+01 -5.815092697739601135e+00 -6.316361064091324806e-02
-1.266583594679832458e+01 -5.914091721177101135e+00 -5.971512431278824806e-02
-1.262213477492332458e+01 -6.013456955552101135e+00 -5.626663798466324806e-02
-1.257843360304832458e+01 -6.112333908677101135e+00 -5.281815165653824806e-02
-1.252972754836082458e+01 -6.209013596177101135e+00 -4.950699442997574806e-02
-1.410809668898582458e+01 -6.016508713364601135e+00 -5.608353251591324806e-02
-1.413568457961082458e+01 -6.156645432114601135e+00 -5.480179423466324806e-02
-1.416363868117332458e+01 -6.298369064927101135e+00 -5.352005595341324806e-02
-1.415643653273582458e+01 -6.427031174302101135e+00 -5.066666239872574806e-02
-1.413434180617332458e+01 -6.549589768052101135e+00 -4.770645732060074806e-02
-1.409820899367332458e+01 -6.666899338364601135e+00 -4.460892314091324806e-02
-1.405170020461082458e+01 -6.779204025864601135e+00 -4.082474345341324806e-02
-1.400506934523582458e+01 -6.891630783677101135e+00 -3.704056376591324806e-02
-1.643756446242332458e+01 -6.934599533677101135e+00 -5.602249735966324806e-02
-1.555267676711082458e+01 -6.727812424302101135e+00 -2.814468974247574806e-02
-1.622858008742332458e+01 -7.151762619614601135e+00 -4.442581767216324806e-02
-1.612469825148582458e+01 -7.259550705552101135e+00 -3.865799540653824806e-02
-1.602179297804832458e+01 -7.366484299302101135e+00 -3.295120829716324806e-02
-1.591925391554832458e+01 -7.472929611802101135e+00 -2.725967997685074806e-02
-1.581769141554832458e+01 -7.578520432114601135e+00 -2.162918681278824806e-02
-1.573480567336082458e+01 -7.691679611802101135e+00 -1.651749247685074806e-02
-2.504474219679832458e+01 -1.033108390867710114e+01 -1.811445676721632481e-01
-1.555292090773582458e+01 -6.725371018052101135e+00 4.561629658564925194e-02
-2.564801368117332458e+01 -1.105068840086460114e+01 -1.847456418909132481e-01
-1.774188575148582458e+01 -7.942656174302101135e+00 1.442102249711751938e-03
-1.780682715773582458e+01 -8.138090744614601135e+00 3.425744827836751938e-03
-1.786786231398582458e+01 -8.334990158677101135e+00 5.561975296586751938e-03
-1.793976172804832458e+01 -8.538725510239601135e+00 7.484582718461751938e-03
-1.796161231398582458e+01 -8.721830978989601135e+00 1.010909443721175194e-02
-2.629767188429832458e+01 -1.082156242430210114e+01 -8.394608134403824806e-02
-1.555328711867332458e+01 -6.723051682114601135e+00 1.189805543981492519e-01
-2.712567481398582458e+01 -1.165835441648960114e+01 -8.788284892216324806e-02
-2.716315039992332458e+01 -1.193276847898960114e+01 -8.275589579716324806e-02
-2.814569434523582458e+01 -1.261868156492710114e+01 -9.432205790653824806e-02
-1.786822852492332458e+01 -8.332304611802101135e+00 9.157576924189925194e-02
-2.047369727492332458e+01 -9.684965744614601135e+00 5.042281514033675194e-02
-2.183514747023582458e+01 -1.051443351805210114e+01 3.168502217158675194e-02
-2.727386817336082458e+01 -1.120242179930210114e+01 2.870955830439925194e-02
-1.555365332961082458e+01 -6.720610275864601135e+00 1.927415407262742519e-01
-2.825201758742332458e+01 -1.212002433836460114e+01 2.898421650752425194e-02
-2.861285743117332458e+01 -1.254238761961460114e+01 3.086104756221175194e-02
-2.940521582961082458e+01 -1.315994133055210114e+01 2.745833760127425194e-02
-1.786871680617332458e+01 -8.329496994614601135e+00 1.780473268590867519e-01
-3.052569922804832458e+01 -1.423867668211460114e+01 2.762618428096175194e-02
-3.096271094679832458e+01 -1.474038566648960114e+01 2.884688740596175194e-02
-2.767169532179832458e+01 -1.135488761961460114e+01 1.567613161168992519e-01
-1.555389747023582458e+01 -6.718290939927101135e+00 2.661210573278367519e-01
-2.871515235304832458e+01 -1.230691398680210114e+01 1.617661989293992519e-01
-2.960785254836082458e+01 -1.295901359617710114e+01 1.618119752965867519e-01
-2.978436622023582458e+01 -1.331936515867710114e+01 1.678544557653367519e-01
-1.786908301711082458e+01 -8.326689377427101135e+00 2.640763795934617519e-01
-3.081463965773582458e+01 -1.436440910398960114e+01 1.755296266637742519e-01
-3.163617286086082458e+01 -1.504714836180210114e+01 1.777268922887742519e-01
-2.863531836867332458e+01 -1.173025383055210114e+01 2.858659303747117519e-01
-1.555426368117332458e+01 -6.715849533677101135e+00 3.394853151403367519e-01
-2.972687110304832458e+01 -1.272048820555210114e+01 2.981034792028367519e-01
-2.990533789992332458e+01 -1.307998527586460114e+01 3.055039918981492519e-01
-3.080035743117332458e+01 -1.375442375242710114e+01 3.111039674840867519e-01
-1.786944922804832458e+01 -8.323881760239601135e+00 3.505479372106492519e-01
-3.177826270461082458e+01 -1.479580558836460114e+01 3.248826540075242519e-01
-3.193988379836082458e+01 -1.518228019773960114e+01 3.332749879918992519e-01
-2.892254981398582458e+01 -1.183877433836460114e+01 4.244309938512742519e-01
-1.555462989211082458e+01 -6.713530197739601135e+00 4.132463014684617519e-01
-3.002411231398582458e+01 -1.283840812742710114e+01 4.425126588903367519e-01
-3.077240332961082458e+01 -1.344192375242710114e+01 4.525376833043992519e-01
-3.109100684523582458e+01 -1.387502922117710114e+01 4.620439088903367519e-01
-1.786981543898582458e+01 -8.321074143052101135e+00 4.365769899450242519e-01
-3.208514747023582458e+01 -1.492935051023960114e+01 4.828721559606492519e-01
-3.288922461867332458e+01 -1.561636222898960114e+01 4.947892702184617519e-01
-2.921417579054832458e+01 -1.194888176023960114e+01 5.651170290075242519e-01
-1.555487403273582458e+01 -6.711210861802101135e+00 4.866258180700242519e-01
-3.063959082961082458e+01 -1.308779777586460114e+01 5.919724977575242519e-01
-3.119549903273582458e+01 -1.361575187742710114e+01 6.050797975622117519e-01
-3.171026954054832458e+01 -1.413784660398960114e+01 6.182786501012742519e-01
-1.787018164992332458e+01 -8.318266525864601135e+00 5.225907838903367519e-01
-3.278400000929832458e+01 -1.524026359617710114e+01 6.462022340856492519e-01
-3.323016700148582458e+01 -1.576858390867710114e+01 6.600266969762742519e-01
-2.993316993117332458e+01 -1.222720207273960114e+01 7.141343629918992519e-01
-1.555524024367332458e+01 -6.708769455552101135e+00 5.603868043981492519e-01
-3.105963477492332458e+01 -1.325625480711460114e+01 7.460557497106492519e-01
-3.161578711867332458e+01 -1.378823722898960114e+01 7.626267946325242519e-01
-3.214044532179832458e+01 -1.431863273680210114e+01 7.791978395543992519e-01
-1.787054786086082458e+01 -8.315458908677101135e+00 6.090776002965867519e-01
-3.322833594679832458e+01 -1.543582023680210114e+01 8.141557252965867519e-01
-3.374530372023582458e+01 -1.600112785398960114e+01 8.319016969762742519e-01
-1.429474219679832458e+01 -6.067412033677101135e+00 6.086350954137742519e-01
-1.478912696242332458e+01 -6.397368088364601135e+00 6.212693727575242519e-01
-1.532489356398582458e+01 -6.754912033677101135e+00 6.349717653356492519e-01
-1.587652930617332458e+01 -7.131010666489601135e+00 6.493455446325242519e-01
-1.644940528273582458e+01 -7.527739182114601135e+00 6.644975221715867519e-01
-1.707403907179832458e+01 -7.960234299302101135e+00 6.810227907262742519e-01
-1.779596289992332458e+01 -8.449736252427101135e+00 6.997453249059617519e-01
-1.850677832961082458e+01 -8.949858322739601135e+00 7.188188112340867519e-01
-1.433026465773582458e+01 -6.079130783677101135e+00 6.766282594762742519e-01
-1.487128028273582458e+01 -6.428129807114601135e+00 6.929704225622117519e-01
-1.545978125929832458e+01 -6.808134689927101135e+00 7.103501833043992519e-01
-1.605450782179832458e+01 -7.203642502427101135e+00 7.287370241247117519e-01
-1.668841895461082458e+01 -7.628325119614601135e+00 7.484361208043992519e-01
-1.732269629836082458e+01 -8.067412033677101135e+00 7.686692751012742519e-01
-1.785101661086082458e+01 -8.471708908677101135e+00 7.874223268590867519e-01
-1.863824805617332458e+01 -9.007475510239601135e+00 8.122178590856492519e-01
-1.431549414992332458e+01 -6.071074143052101135e+00 7.433244264684617519e-01
-1.479400977492332458e+01 -6.394560471177101135e+00 7.609178102575242519e-01
-1.531109961867332458e+01 -6.744169846177101135e+00 7.799455202184617519e-01
-1.584503516554832458e+01 -7.112578049302101135e+00 7.998582399450242519e-01
-1.640118750929832458e+01 -7.501494064927101135e+00 8.208085573278367519e-01
-1.711017188429832458e+01 -7.970610275864601135e+00 8.464890993200242519e-01
-1.788934668898582458e+01 -8.486113205552101135e+00 8.747026002965867519e-01
-1.863348731398582458e+01 -9.002226486802101135e+00 9.025804079137742519e-01
-1.427252539992332458e+01 -6.051909103989601135e+00 8.093644655309617519e-01
-1.484173926711082458e+01 -6.411406174302101135e+00 8.320085084997117519e-01
-1.546710547804832458e+01 -6.806059494614601135e+00 8.572618043981492519e-01
-1.609711036086082458e+01 -7.216337814927101135e+00 8.832322633825242519e-01
-3.356610450148582458e+01 -1.491287101805210114e+01 1.453819421585649252e+00
-3.441168555617332458e+01 -1.561245597898960114e+01 1.494697717484086752e+00
-3.468963965773582458e+01 -1.607351554930210114e+01 1.517509607132524252e+00
-3.568341407179832458e+01 -1.687319816648960114e+01 1.565590051468461752e+00
-3.224371680617332458e+01 -1.311038078367710114e+01 1.517418054398149252e+00
-3.267242774367332458e+01 -1.358596672117710114e+01 1.545723108109086752e+00
-3.341107520461082458e+01 -1.419961418211460114e+01 1.585792688187211752e+00
-3.420978125929832458e+01 -1.485647453367710114e+01 1.628822473343461752e+00
-3.286432227492332458e+01 -1.460427726805210114e+01 1.592537072952836752e+00
-3.266852149367332458e+01 -1.483669914305210114e+01 1.598655847366899252e+00
-3.566510352492332458e+01 -1.650820793211460114e+01 1.726524499710649252e+00
-3.494733008742332458e+01 -1.652737297117710114e+01 1.713661340530961752e+00
-3.266022071242332458e+01 -1.326870597898960114e+01 1.690376428421586752e+00
-3.344073829054832458e+01 -1.388967765867710114e+01 1.735130456741899252e+00
-3.394855079054832458e+01 -1.441555656492710114e+01 1.770164636429399252e+00
-3.452814063429832458e+01 -1.498501457273960114e+01 1.808799890335649252e+00
-3.288446387648582458e+01 -1.460745109617710114e+01 1.753898767288774252e+00
-3.268841895461082458e+01 -1.483999504148960114e+01 1.759620813187211752e+00
-3.567608985304832458e+01 -1.650710929930210114e+01 1.902748254593461752e+00
-3.635174903273582458e+01 -1.716946281492710114e+01 1.948677209671586752e+00
-3.339313086867332458e+01 -1.355105461180210114e+01 1.881019738968461752e+00
-3.404535254836082458e+01 -1.412734855711460114e+01 1.925468591507524252e+00
-3.388360938429832458e+01 -1.438320793211460114e+01 1.932777551468461752e+00
-3.446918067336082458e+01 -1.495437492430210114e+01 1.975151208695024252e+00
-3.307562598586082458e+01 -1.468435539305210114e+01 1.924415735062211752e+00
-3.270856055617332458e+01 -1.484329093992710114e+01 1.921638635452836752e+00
-3.610858497023582458e+01 -1.669631828367710114e+01 2.100349572952836752e+00
-3.638458594679832458e+01 -1.717837394773960114e+01 2.130104211624711752e+00
-3.450018653273582458e+01 -1.397988761961460114e+01 2.098640588577836752e+00
-3.384857520461082458e+01 -1.404250968992710114e+01 2.080955652054399252e+00
-3.582782325148582458e+01 -1.517788566648960114e+01 2.198051599320024252e+00
-3.418793067336082458e+01 -1.483010734617710114e+01 2.128486779984086752e+00
-3.302997168898582458e+01 -1.465920890867710114e+01 2.083595422562211752e+00
-3.574689063429832458e+01 -1.617825187742710114e+01 2.243309167679399252e+00
-3.489166602492332458e+01 -1.614114250242710114e+01 2.214393762405961752e+00
-3.242486914992332458e+01 -1.534622062742710114e+01 2.098106530960649252e+00
-3.552691993117332458e+01 -1.437698234617710114e+01 2.322746423538774252e+00
-3.611969336867332458e+01 -1.494961418211460114e+01 2.371559289749711752e+00
-3.413519629836082458e+01 -1.447549308836460114e+01 2.276680139359086752e+00
-3.432794532179832458e+01 -1.488333000242710114e+01 2.303840783890336752e+00
-3.240729102492332458e+01 -1.438528312742710114e+01 2.210075525101274252e+00
-3.225775489211082458e+01 -1.463357414305210114e+01 2.217018274124711752e+00
-3.199457129836082458e+01 -1.482876457273960114e+01 2.217247155960649252e+00
-3.227289161086082458e+01 -1.527065910398960114e+01 2.250023034866899252e+00
-1.252972754836082458e+01 -6.209379807114601135e+00 -4.949173564091324806e-02
-1.248150977492332458e+01 -6.306181564927101135e+00 -4.584488505497574806e-02
-1.241827735304832458e+01 -6.395659103989601135e+00 -4.195389384403824806e-02
-1.235492286086082458e+01 -6.485136643052101135e+00 -3.804764384403824806e-02
-1.231183204054832458e+01 -6.584257736802101135e+00 -3.490433329716324806e-02
-1.227655372023582458e+01 -6.687773361802101135e+00 -3.203568095341324806e-02
-1.225152930617332458e+01 -6.796660080552101135e+00 -2.954849833622574806e-02
-1.221979102492332458e+01 -6.902495041489601135e+00 -2.712235087528824806e-02
-1.400494727492332458e+01 -6.891996994614601135e+00 -3.702530497685074806e-02
-1.395123633742332458e+01 -7.001127853989601135e+00 -3.328690165653824806e-02
-1.389752539992332458e+01 -7.110136643052101135e+00 -2.954849833622574806e-02
-1.385272559523582458e+01 -7.224150314927101135e+00 -2.573380107060074806e-02
-1.379901465773582458e+01 -7.333281174302101135e+00 -2.199539775028824806e-02
-1.373297461867332458e+01 -7.436674728989601135e+00 -1.821121806278824806e-02
-1.367096289992332458e+01 -7.541411057114601135e+00 -1.421341532841324806e-02
-1.360907325148582458e+01 -7.646147385239601135e+00 -1.023087138310074806e-02
-1.573492774367332458e+01 -7.692289963364601135e+00 -1.650223368778824806e-02
-1.568536719679832458e+01 -7.820830002427101135e+00 -1.258072489872574806e-02
-1.563592872023582458e+01 -7.949614182114601135e+00 -8.659216109663248062e-03
-1.558612403273582458e+01 -8.079130783677101135e+00 -4.707189742475748062e-03
-1.553644141554832458e+01 -8.208281174302101135e+00 -7.551633752882480621e-04
-1.548651465773582458e+01 -8.338163986802101135e+00 3.196862991899251938e-03
-1.543658789992332458e+01 -8.467802658677101135e+00 7.148889359086751938e-03
-1.538666114211082458e+01 -8.597685471177101135e+00 1.111617451533675194e-02
-1.796197852492332458e+01 -8.722563400864601135e+00 1.010909443721175194e-02
-1.795721778273582458e+01 -8.894804611802101135e+00 1.401534443721175194e-02
-1.794061622023582458e+01 -9.062773361802101135e+00 1.773848896846175194e-02
-1.792401465773582458e+01 -9.232329025864601135e+00 2.149215107783675194e-02
-1.794647559523582458e+01 -9.422148361802101135e+00 2.442183857783675194e-02
-1.797052344679832458e+01 -9.615385666489601135e+00 2.736678486689925194e-02
-1.792962989211082458e+01 -9.775908127427101135e+00 3.168502217158675194e-02
-1.786029395461082458e+01 -9.921904221177101135e+00 3.614058857783675194e-02
-2.182806739211082458e+01 -1.051187004148960114e+01 3.180709248408675194e-02
-2.018109473586082458e+01 -9.945219650864601135e+00 6.404891377314925194e-02
-2.107733497023582458e+01 -1.057754386961460114e+01 5.335250264033675194e-02
-2.085846289992332458e+01 -1.067959465086460114e+01 6.137862568721175194e-02
-2.089752539992332458e+01 -1.090823234617710114e+01 6.516280537471175194e-02
-2.089825782179832458e+01 -1.112039054930210114e+01 6.963363057002425194e-02
-2.081549414992332458e+01 -1.128970207273960114e+01 7.543197041377425194e-02
-2.073273047804832458e+01 -1.145901359617710114e+01 8.123031025752425194e-02
-3.096600684523582458e+01 -1.474294914305210114e+01 2.883162861689925194e-02
-2.018146094679832458e+01 -9.942045822739601135e+00 1.632920778356492519e-01
-3.188837012648582458e+01 -1.580361808836460114e+01 3.328719502314925194e-02
-3.233392676711082458e+01 -1.634536613523960114e+01 3.574386006221175194e-02
-2.241229590773582458e+01 -1.166860832273960114e+01 1.526567018590867519e-01
-2.471332129836082458e+01 -1.308108390867710114e+01 1.331407106481492519e-01
-2.484564551711082458e+01 -1.340371574461460114e+01 1.376115358434617519e-01
-2.455475196242332458e+01 -1.350430168211460114e+01 1.458970583043992519e-01
-3.163763770461082458e+01 -1.504885734617710114e+01 1.777421510778367519e-01
-2.018182715773582458e+01 -9.938871994614601135e+00 2.620011842809617519e-01
-3.261774024367332458e+01 -1.615078605711460114e+01 1.873094118200242519e-01
-3.317206153273582458e+01 -1.675369133055210114e+01 1.922074831090867519e-01
-2.241266211867332458e+01 -1.166506828367710114e+01 2.640458620153367519e-01
-3.403583106398582458e+01 -1.787527336180210114e+01 2.044297731481492519e-01
-3.446588477492332458e+01 -1.845242179930210114e+01 2.109910524450242519e-01
-2.455524024367332458e+01 -1.350027336180210114e+01 2.704850709997117519e-01
-3.194134864211082458e+01 -1.518411125242710114e+01 3.332902467809617519e-01
-2.018231543898582458e+01 -9.935576096177101135e+00 3.607102907262742519e-01
-3.310382422804832458e+01 -1.638015617430210114e+01 3.499528444372117519e-01
-3.371612891554832458e+01 -1.701663078367710114e+01 3.584519899450242519e-01
-2.241315039992332458e+01 -1.166140617430210114e+01 3.760301149450242519e-01
-3.463385352492332458e+01 -1.817703117430210114e+01 3.768235719762742519e-01
-3.501837500929832458e+01 -1.873635734617710114e+01 3.855668581090867519e-01
-2.455585059523582458e+01 -1.349624504148960114e+01 3.944016969762742519e-01
-3.289337500929832458e+01 -1.561929191648960114e+01 4.948350465856492519e-01
-3.307831153273582458e+01 -1.603225578367710114e+01 5.050279176793992519e-01
-3.384723243117332458e+01 -1.673367179930210114e+01 5.176316774450242519e-01
-3.402447852492332458e+01 -1.716287101805210114e+01 5.283891237340867519e-01
-2.241351661086082458e+01 -1.165774406492710114e+01 4.874192751012742519e-01
-3.503778418898582458e+01 -1.837869133055210114e+01 5.535356081090867519e-01
-3.557989844679832458e+01 -1.902493156492710114e+01 5.668717897497117519e-01
-2.455633887648582458e+01 -1.349221672117710114e+01 5.189897096715867519e-01
-3.323175391554832458e+01 -1.577029289305210114e+01 6.600724733434617519e-01
-3.382220801711082458e+01 -1.637832511961460114e+01 6.754533327184617519e-01
-3.415655860304832458e+01 -1.687734855711460114e+01 6.890183961950242519e-01
-3.482574805617332458e+01 -1.755227531492710114e+01 7.060014284215867519e-01
-2.241400489211082458e+01 -1.165408195555210114e+01 5.988084352575242519e-01
-3.553265723586082458e+01 -1.862698234617710114e+01 7.352983034215867519e-01
-3.593646582961082458e+01 -1.920583976805210114e+01 7.509233034215867519e-01
-2.455694922804832458e+01 -1.348818840086460114e+01 6.429215944372117519e-01
-3.374896582961082458e+01 -1.600393547117710114e+01 8.319932497106492519e-01
-3.423846778273582458e+01 -1.656924308836460114e+01 8.498460329137742519e-01
-3.474286231398582458e+01 -1.715457023680210114e+01 8.683396852575242519e-01
-2.112286719679832458e+01 -1.078860343992710114e+01 6.847459352575242519e-01
-2.191754493117332458e+01 -1.140029777586460114e+01 7.034837282262742519e-01
-2.269269141554832458e+01 -1.202102531492710114e+01 7.225877321325242519e-01
-2.347735938429832458e+01 -1.266421379148960114e+01 7.424088991247117519e-01
-2.432733497023582458e+01 -1.336099113523960114e+01 7.638780153356492519e-01
-1.851202735304832458e+01 -8.952910080552101135e+00 7.189408815465867519e-01
-1.927667579054832458e+01 -9.494169846177101135e+00 7.396470583043992519e-01
-2.011700782179832458e+01 -1.008901847898960114e+01 7.623979127965867519e-01
-2.089398536086082458e+01 -1.067214836180210114e+01 7.846147096715867519e-01
-2.170990332961082458e+01 -1.129189933836460114e+01 8.082047975622117519e-01
-2.252984961867332458e+01 -1.193337883055210114e+01 8.325730836950242519e-01
-2.334308204054832458e+01 -1.258975090086460114e+01 8.574601686559617519e-01
-2.422687110304832458e+01 -1.330300773680210114e+01 8.844987428747117519e-01
-1.864313086867332458e+01 -9.010405197739601135e+00 8.123551881872117519e-01
-1.934845313429832458e+01 -9.524809494614601135e+00 8.359605348668992519e-01
-2.012030372023582458e+01 -1.008718742430210114e+01 8.612443483434617519e-01
-2.083954200148582458e+01 -1.064175285398960114e+01 8.864213502965867519e-01
-2.159076270461082458e+01 -1.122830070555210114e+01 9.129869020543992519e-01
-2.240985450148582458e+01 -1.186794914305210114e+01 9.419633424840867519e-01
-2.322455176711082458e+01 -1.252358879148960114e+01 9.721452272497117519e-01
-2.413116797804832458e+01 -1.324758781492710114e+01 1.004844812210649252e+00
-1.863910254836082458e+01 -9.005400314927101135e+00 9.027635133825242519e-01
-1.945575293898582458e+01 -9.572172775864601135e+00 9.335252321325242519e-01
-2.034344825148582458e+01 -1.019143547117710114e+01 9.670945680700242519e-01
-3.478473243117332458e+01 -1.750796379148960114e+01 1.403907922562211752e+00
-3.560724219679832458e+01 -1.827468742430210114e+01 1.442649987991899252e+00
-3.583612403273582458e+01 -1.875796379148960114e+01 1.464119104202836752e+00
-3.579291114211082458e+01 -1.910525383055210114e+01 1.477440027054399252e+00
-3.540802344679832458e+01 -1.927200187742710114e+01 1.480125573929399252e+00
-3.568976172804832458e+01 -1.687734855711460114e+01 1.565849450882524252e+00
-3.480755957961082458e+01 -1.681448234617710114e+01 1.549690393265336752e+00
-3.470538672804832458e+01 -1.711257804930210114e+01 1.560646203812211752e+00
-3.473675879836082458e+01 -1.747842277586460114e+01 1.576332238968461752e+00
-3.604742774367332458e+01 -1.848977531492710114e+01 1.637184289749711752e+00
-3.583673438429832458e+01 -1.875198234617710114e+01 1.645088342484086752e+00
-3.587616309523582458e+01 -1.914260734617710114e+01 1.661918786820024252e+00
-3.543561133742332458e+01 -1.928054679930210114e+01 1.662346032913774252e+00
-3.494635352492332458e+01 -1.652798332273960114e+01 1.713676599320024252e+00
-3.552154883742332458e+01 -1.714529289305210114e+01 1.751258996780961752e+00
-3.438495215773582458e+01 -1.695217765867710114e+01 1.721870569046586752e+00
-3.491437110304832458e+01 -1.755984367430210114e+01 1.758186487015336752e+00
-3.535309180617332458e+01 -1.813455070555210114e+01 1.791389612015336752e+00
-3.572406348586082458e+01 -1.868789543211460114e+01 1.822410730179399252e+00
-3.593695411086082458e+01 -1.916799797117710114e+01 1.847313073929399252e+00
-3.549493750929832458e+01 -1.930593742430210114e+01 1.845207361038774252e+00
-3.635260352492332458e+01 -1.717104972898960114e+01 1.948768762405961752e+00
-3.514642676711082458e+01 -1.696230949461460114e+01 1.911079553421586752e+00
-3.479474219679832458e+01 -1.714370597898960114e+01 1.911461023148149252e+00
-3.484381446242332458e+01 -1.751907218992710114e+01 1.929741052445024252e+00
-3.995245704054832458e+01 -2.043936027586460114e+01 2.178444055374711752e+00
-3.571295508742332458e+01 -1.867593254148960114e+01 2.002266076859086752e+00
-4.203119239211082458e+01 -2.235183586180210114e+01 2.312782434280961752e+00
-4.270001563429832458e+01 -2.314773429930210114e+01 2.365425256546586752e+00
-3.638544043898582458e+01 -1.717996086180210114e+01 2.130211023148149252e+00
-3.503802832961082458e+01 -1.690518058836460114e+01 2.081154016312211752e+00
-3.479010352492332458e+01 -1.713540519773960114e+01 2.085548547562211752e+00
-3.482538184523582458e+01 -1.750393547117710114e+01 2.104118493851274252e+00
-4.149811133742332458e+01 -2.120876945555210114e+01 2.459129480179399252e+00
-3.597784766554832458e+01 -1.880544914305210114e+01 2.197075036820024252e+00
-4.286700782179832458e+01 -2.278176750242710114e+01 2.570839074905961752e+00
-3.924823340773582458e+01 -2.129727043211460114e+01 2.403404382523149252e+00
-3.242340430617332458e+01 -1.534658683836460114e+01 2.098076013382524252e+00
-3.554425391554832458e+01 -1.713772453367710114e+01 2.283485559280961752e+00
-3.524579200148582458e+01 -1.734878410398960114e+01 2.284813073929399252e+00
-4.171100196242332458e+01 -2.088394035398960114e+01 2.659050134476274252e+00
-4.254498633742332458e+01 -2.172708000242710114e+01 2.726753381546586752e+00
-3.604278907179832458e+01 -1.883254875242710114e+01 2.383354333695024252e+00
-4.358990821242332458e+01 -2.315237297117710114e+01 2.831154016312211752e+00
-3.903985938429832458e+01 -2.117910636961460114e+01 2.592659143265336752e+00
-3.227337989211082458e+01 -1.527200187742710114e+01 2.250114587601274252e+00
-3.559308204054832458e+01 -1.715469230711460114e+01 2.462837365921586752e+00
-3.493902930617332458e+01 -1.719509758055210114e+01 2.442131189163774252e+00
-3.456402930617332458e+01 -1.736343254148960114e+01 2.437782434280961752e+00
-3.461175879836082458e+01 -1.773782218992710114e+01 2.458885339554399252e+00
-3.612115821242332458e+01 -1.886636222898960114e+01 2.570167688187211752e+00
-4.427069434523582458e+01 -2.350063957273960114e+01 3.095161584671586752e+00
-3.915265235304832458e+01 -2.123232902586460114e+01 2.799858239945024252e+00
-1.221966895461082458e+01 -6.902739182114601135e+00 -2.710709208622574806e-02
-1.219537696242332458e+01 -7.012968674302101135e+00 -2.458939189091324806e-02
-1.216437110304832458e+01 -7.120146408677101135e+00 -2.213272685185074806e-02
-1.213312110304832458e+01 -7.228056564927101135e+00 -1.967606181278824806e-02
-1.210174903273582458e+01 -7.336088791489601135e+00 -1.720413798466324806e-02
-1.207025489211082458e+01 -7.444853439927101135e+00 -1.470169657841324806e-02
-1.203876075148582458e+01 -7.553740158677101135e+00 -1.221451396122574806e-02
-1.199920997023582458e+01 -7.658354416489601135e+00 -9.757848922163248062e-03
-1.360882911086082458e+01 -7.646391525864601135e+00 -1.021561259403824806e-02
-1.356744727492332458e+01 -7.762236252427101135e+00 -7.133337203413248062e-03
-1.350641211867332458e+01 -7.867460861802101135e+00 -3.440710250288248062e-03
-1.346271094679832458e+01 -7.982939377427101135e+00 8.407002314925193787e-05
-1.341156348586082458e+01 -8.094145432114601135e+00 3.471521195024251938e-03
-1.335272559523582458e+01 -8.201445236802101135e+00 6.752160843461751938e-03
-1.330133399367332458e+01 -8.312773361802101135e+00 1.015487080439925194e-02
-1.325006446242332458e+01 -8.424345627427101135e+00 1.355758076533675194e-02
-1.538617286086082458e+01 -8.597929611802101135e+00 1.114669209346175194e-02
-1.532965430617332458e+01 -8.724394455552101135e+00 1.500716572627425194e-02
-1.460467872023582458e+01 -8.478056564927101135e+00 3.597274189814925194e-02
-1.451776465773582458e+01 -8.581205978989601135e+00 4.051986103877425194e-02
-1.515936622023582458e+01 -9.105864182114601135e+00 2.663436299189925194e-02
-1.510223731398582458e+01 -9.233671799302101135e+00 3.054061299189925194e-02
-1.504523047804832458e+01 -9.361235275864601135e+00 3.443160420283675194e-02
-1.498810157179832458e+01 -9.489042893052101135e+00 3.832259541377425194e-02
-1.785992774367332458e+01 -9.922270432114601135e+00 3.615584736689925194e-02
-1.778021582961082458e+01 -1.006265129148960114e+01 4.151168232783675194e-02
-1.452594336867332458e+01 -8.431669846177101135e+00 1.108933961950242519e-01
-1.445001563429832458e+01 -8.540068283677101135e+00 1.150895631872117519e-01
-1.745648536086082458e+01 -1.043545402586460114e+01 5.780806904658675194e-02
-1.736529883742332458e+01 -1.056875480711460114e+01 6.288924580439925194e-02
-1.671014747023582458e+01 -1.036160148680210114e+01 7.898726826533675194e-02
-1.720770606398582458e+01 -1.084878410398960114e+01 7.207503682002425194e-02
-2.073236426711082458e+01 -1.145962394773960114e+01 8.124556904658675194e-02
-2.063812598586082458e+01 -1.162283195555210114e+01 8.695235615596175194e-02
-1.448773536086082458e+01 -8.407866135239601135e+00 1.839829958043992519e-01
-1.442157325148582458e+01 -8.521269455552101135e+00 1.879655397497117519e-01
-2.039239844679832458e+01 -1.213467277586460114e+01 1.035386598668992519e-01
-1.672003516554832458e+01 -1.018435539305210114e+01 1.608659303747117519e-01
-1.661212500929832458e+01 -1.029946769773960114e+01 1.659623659215867519e-01
-2.017523536086082458e+01 -1.266641105711460114e+01 1.197587526403367519e-01
-2.455414161086082458e+01 -1.350478996336460114e+01 1.459275758825242519e-01
-2.488800391554832458e+01 -1.394314445555210114e+01 1.488877809606492519e-01
-1.420917090773582458e+01 -8.250029221177101135e+00 2.594071901403367519e-01
-1.440838965773582458e+01 -8.511381760239601135e+00 2.607804811559617519e-01
-1.449261817336082458e+01 -8.711332932114601135e+00 2.633439577184617519e-01
-1.436236914992332458e+01 -8.788481369614601135e+00 2.679368532262742519e-01
-1.428229102492332458e+01 -8.893828049302101135e+00 2.720414674840867519e-01
-1.415838965773582458e+01 -8.972075119614601135e+00 2.761308229528367519e-01
-2.455462989211082458e+01 -1.350076164305210114e+01 2.705003297887742519e-01
-3.499493750929832458e+01 -1.946353019773960114e+01 2.263719118200242519e-01
-1.406634864211082458e+01 -8.167875900864601135e+00 3.308946168981492519e-01
-1.390130957961082458e+01 -8.220610275864601135e+00 3.351823366247117519e-01
-1.379022559523582458e+01 -8.301787033677101135e+00 3.391801393590867519e-01
-1.369073829054832458e+01 -8.389311447739601135e+00 3.431321657262742519e-01
-1.360516700148582458e+01 -8.483793869614601135e+00 3.469926393590867519e-01
-1.352276954054832458e+01 -8.579741135239601135e+00 3.508378542028367519e-01
-2.455524024367332458e+01 -1.349673332273960114e+01 3.944322145543992519e-01
-3.584625586867332458e+01 -1.992251457273960114e+01 4.056932008825242519e-01
-1.403216895461082458e+01 -8.146391525864601135e+00 4.013444459997117519e-01
-1.387591895461082458e+01 -8.203764572739601135e+00 4.050828493200242519e-01
-1.377337989211082458e+01 -8.289580002427101135e+00 4.088365114293992519e-01
-1.367096289992332458e+01 -8.375151291489601135e+00 4.125749147497117519e-01
-1.358624610304832458e+01 -8.469999924302101135e+00 4.159318483434617519e-01
-1.350348243117332458e+01 -8.565580978989601135e+00 4.196549928747117519e-01
-2.455572852492332458e+01 -1.349270500242710114e+01 5.190202272497117519e-01
-3.638873633742332458e+01 -2.021243156492710114e+01 5.931779420934617519e-01
-1.402093848586082458e+01 -8.137602463364601135e+00 4.711839235387742519e-01
-1.386920508742332458e+01 -8.197416916489601135e+00 4.744645631872117519e-01
-1.375909766554832458e+01 -8.278959885239601135e+00 4.779435670934617519e-01
-1.366083106398582458e+01 -8.366850510239601135e+00 4.814988649450242519e-01
-1.357318457961082458e+01 -8.459746018052101135e+00 4.850846803747117519e-01
-1.348981055617332458e+01 -8.554716721177101135e+00 4.886857545934617519e-01
-2.455633887648582458e+01 -1.348867668211460114e+01 6.429368532262742519e-01
-3.697442969679832458e+01 -2.052578605711460114e+01 7.857896364293992519e-01
-1.400348243117332458e+01 -8.125517502427101135e+00 5.408250368200242519e-01
-1.386529883742332458e+01 -8.192900314927101135e+00 5.438005006872117519e-01
-1.375665625929832458e+01 -8.275053635239601135e+00 5.470506227575242519e-01
-1.366473731398582458e+01 -8.366728439927101135e+00 5.504838502965867519e-01
-1.359149512648582458e+01 -8.468290939927101135e+00 5.541154420934617519e-01
-1.349786719679832458e+01 -8.557280197739601135e+00 5.574723756872117519e-01
-2.433380469679832458e+01 -1.336526359617710114e+01 7.640153444372117519e-01
-2.516852149367332458e+01 -1.407424797117710114e+01 7.859574831090867519e-01
-1.400616797804832458e+01 -8.124663010239601135e+00 6.110002077184617519e-01
-1.386969336867332458e+01 -8.192900314927101135e+00 6.135942018590867519e-01
