-1.297353863716125488e+01 -5.218239173293113708e+00 5.754207060672342777e-01
-1.335427594184875488e+01 -5.472267493605613708e+00 5.850490019656717777e-01
-1.376406598091125488e+01 -5.745582923293113708e+00 5.954097197391092777e-01
-1.420315289497375488e+01 -6.038429602980613708e+00 6.065181181766092777e-01
-1.467654156684875488e+01 -6.354225501418113708e+00 6.184810088016092777e-01
-1.175014996528625488e+01 -4.473854407668113708e+00 5.991786406375467777e-01
-1.210281109809875488e+01 -4.694069251418113708e+00 6.094630644656717777e-01
-1.248074078559875488e+01 -4.930397376418113708e+00 6.201899931766092777e-01
-1.285110211372375488e+01 -5.172096595168113708e+00 6.313594267703592777e-01
-1.329714703559875488e+01 -5.449074134230613708e+00 6.442988798953592777e-01
-1.373806500434875488e+01 -5.733620032668113708e+00 6.574672148562967777e-01
-1.421438336372375488e+01 -6.040626868605613708e+00 6.720393584109842777e-01
-1.472952008247375488e+01 -6.373146399855613708e+00 6.874507353641092777e-01
-1.190810894966125488e+01 -4.524757727980613708e+00 6.548274443484842777e-01
-1.227187848091125488e+01 -4.750221595168113708e+00 6.673091338016092777e-01
-1.266311383247375488e+01 -4.992775306105613708e+00 6.807216093875467777e-01
-1.285134625434875488e+01 -5.170265540480613708e+00 6.894343779422342777e-01
-1.341103863716125488e+01 -5.489235267043113708e+00 7.075770781375467777e-01
-1.380984234809875488e+01 -5.758766517043113708e+00 7.220881865359842777e-01
-1.423647809028625488e+01 -6.047096595168113708e+00 7.376063750125467777e-01
-1.469534039497375488e+01 -6.357277259230613708e+00 7.542842314578592777e-01
-1.184011578559875488e+01 -4.500343665480613708e+00 7.058680937625467777e-01
-1.215688824653625488e+01 -4.709083899855613708e+00 7.185939238406717777e-01
-1.249368023872375488e+01 -4.931251868605613708e+00 7.324489043094217777e-01
-1.285513043403625488e+01 -5.169655188918113708e+00 7.472957060672342777e-01
-1.321572613716125488e+01 -5.414894446730613708e+00 7.624171660281717777e-01
-1.363772320747375488e+01 -5.691261634230613708e+00 7.796901152469217777e-01
-1.413528180122375488e+01 -6.005592688918113708e+00 7.996028349734842777e-01
-1.467873883247375488e+01 -6.348366126418113708e+00 8.216975615359842777e-01
-1.175918316841125488e+01 -4.471657142043113708e+00 7.555201933719217777e-01
-1.213735699653625488e+01 -4.700538977980613708e+00 7.722743437625467777e-01
-1.254556012153625488e+01 -4.947609290480613708e+00 7.903560088016092777e-01
-1.298159527778625488e+01 -5.213356360793113708e+00 8.097499297000467777e-01
-1.342312359809875488e+01 -5.489723548293113708e+00 8.296626494266092777e-01
-1.390310406684875488e+01 -5.790016517043113708e+00 8.513301298953592777e-01
-3.188357281684875488e+01 -1.291379581391811371e+01 1.496075002942234278e+00
-3.224636578559875488e+01 -1.335459171235561371e+01 1.521068899426609278e+00
-1.196206402778625488e+01 -4.537575110793113708e+00 8.155024931766092777e-01
-2.915371441841125488e+01 -1.051999698579311371e+01 1.481731741223484278e+00
-2.992385601997375488e+01 -1.105222354829311371e+01 1.522671072278171778e+00
-3.023586773872375488e+01 -1.143625675141811371e+01 1.546322195325046778e+00
-3.107034039497375488e+01 -1.202024112641811371e+01 1.590984670910984278e+00
-3.158450055122375488e+01 -1.250107608735561371e+01 1.623592703137546778e+00
-3.223476910591125488e+01 -1.304550968110561371e+01 1.662136404309421778e+00
-3.306338238716125488e+01 -1.367527042329311371e+01 1.709423391614109278e+00
-2.913357281684875488e+01 -1.024863468110561371e+01 1.606609670910984278e+00
-2.992422223091125488e+01 -1.077890811860561371e+01 1.652218191418796778e+00
-3.023257184028625488e+01 -1.115598331391811371e+01 1.677440969739109278e+00
-3.106887555122375488e+01 -1.173191104829311371e+01 1.726330129895359278e+00
-3.156142926216125488e+01 -1.219712100923061371e+01 1.760631887707859278e+00
-3.222707867622375488e+01 -1.273996768891811371e+01 1.803234426770359278e+00
-3.294888043403625488e+01 -1.331821475923061371e+01 1.848980276379734278e+00
-3.370400738716125488e+01 -1.392539249360561371e+01 1.896938650403171778e+00
-2.964053082466125488e+01 -1.041269718110561371e+01 1.767406790051609278e+00
-3.023159527778625488e+01 -1.087924991548061371e+01 1.807857839856296778e+00
-3.089407086372375488e+01 -1.138352237641811371e+01 1.852367727551609278e+00
-3.155300641059875488e+01 -1.190158878266811371e+01 1.896587698254734278e+00
-3.227029156684875488e+01 -1.245432315766811371e+01 1.945049612317234278e+00
-3.313845562934875488e+01 -1.308054386079311371e+01 2.002636282239109278e+00
-3.397207379341125488e+01 -1.371079288423061371e+01 2.058437673840671778e+00
-3.388271832466125488e+01 -1.399118839204311371e+01 2.068157522473484278e+00
-3.023049664497375488e+01 -1.060422550141811371e+01 1.937496511731296778e+00
-3.095473980903625488e+01 -1.112168155610561371e+01 1.987804739270359278e+00
-3.176833844184875488e+01 -1.168552432954311371e+01 2.044353811535984278e+00
-3.259682965278625488e+01 -1.227268253266811371e+01 2.102550833020359278e+00
-3.279629254341125488e+01 -1.264365421235561371e+01 2.127285330090671778e+00
-3.423574566841125488e+01 -1.349143253266811371e+01 2.220348684582859278e+00
-3.340371441841125488e+01 -1.348447452485561371e+01 2.189113943371921778e+00
-3.420852398872375488e+01 -1.411557804048061371e+01 2.249355642590671778e+00
-1.296243023872375488e+01 -5.691261634230613708e+00 -6.055036326870322227e-02
-1.294216656684875488e+01 -5.798561438918113708e+00 -5.781904002651572227e-02
-1.291714215278625488e+01 -5.904152259230613708e+00 -5.520978709682822227e-02
-1.289187359809875488e+01 -6.010475501418113708e+00 -5.258527537807822227e-02
-1.286660504341125488e+01 -6.116798743605613708e+00 -4.996076365932822227e-02
-1.284121441841125488e+01 -6.223732337355613708e+00 -4.732099315151572227e-02
-1.281582379341125488e+01 -6.330665931105613708e+00 -4.468122264370322227e-02
-1.278237652778625488e+01 -6.434181556105613708e+00 -4.205671092495322227e-02
-1.465810894966125488e+01 -6.369728431105613708e+00 -5.760541697964072227e-02
-1.451614117622375488e+01 -6.443336829543113708e+00 -5.078473826870322227e-02
-1.445608258247375488e+01 -6.549538001418113708e+00 -4.668012401089072227e-02
-1.446474957466125488e+01 -6.685646399855613708e+00 -4.448285838589072227e-02
-1.443056988716125488e+01 -6.803444251418113708e+00 -4.123273631557822227e-02
-1.435159039497375488e+01 -6.901954993605613708e+00 -3.686872264370322227e-02
-1.428176617622375488e+01 -7.003517493605613708e+00 -3.245893260464072227e-02
-1.421218609809875488e+01 -7.104713782668113708e+00 -2.806440135464072227e-02
-1.521230816841125488e+01 -6.589821204543113708e+00 -5.511911120265722275e-03
-1.633425641059875488e+01 -7.187965735793113708e+00 -3.462568065151572227e-02
-1.625369000434875488e+01 -7.303200110793113708e+00 -2.969709178432822227e-02
-1.616775250434875488e+01 -7.416237220168113708e+00 -2.463117381557822227e-02
-1.608852887153625488e+01 -7.530983313918113708e+00 -1.974836131557822227e-02
-1.604250836372375488e+01 -7.660866126418113708e+00 -1.579633494839072227e-02
-1.599648785591125488e+01 -7.790260657668113708e+00 -1.184430858120322227e-02
-1.595058941841125488e+01 -7.919899329543113708e+00 -7.892282214015722275e-03
-1.521255230903625488e+01 -6.587501868605613708e+00 6.461748341098427773e-02
-2.545754742622375488e+01 -1.093137393891811371e+01 -1.695591523312032223e-01
-2.549538922309875488e+01 -1.118515811860561371e+01 -1.657291962765157223e-01
-1.893667340278625488e+01 -8.604713782668113708e+00 -1.161542674526572227e-02
-1.754543805122375488e+01 -8.169533118605613708e+00 2.329668262973427773e-02
-1.821389508247375488e+01 -8.635353431105613708e+00 1.159319141879677773e-02
-1.823501324653625488e+01 -8.817482337355613708e+00 1.453813770785927773e-02
-1.824368023872375488e+01 -8.995338782668113708e+00 1.731523731723427773e-02
-1.521279644966125488e+01 -6.585304602980613708e+00 1.351283476687967777e-01
-2.692764019966125488e+01 -1.153073917329311371e+01 -7.521405955776572227e-02
-2.747024273872375488e+01 -1.201084171235561371e+01 -7.954755565151572227e-02
-2.799331402778625488e+01 -1.249594913423061371e+01 -8.322492381557822227e-02
-1.754568219184875488e+01 -8.166969642043113708e+00 1.061213896609842777e-01
-2.775784039497375488e+01 -1.292551456391811371e+01 -6.758466502651572227e-02
-2.244082379341125488e+01 -1.074851261079311371e+01 2.933916309848427773e-02
-2.143154644966125488e+01 -1.049045597016811371e+01 5.109819630160927773e-02
-1.521304059028625488e+01 -6.583107337355613708e+00 2.052730009891092777e-01
-2.801736187934875488e+01 -1.197361026704311371e+01 3.944048145785927773e-02
-2.831753277778625488e+01 -1.236240421235561371e+01 4.168352345004677773e-02
-2.914333844184875488e+01 -1.298581729829311371e+01 3.742632130160927773e-02
-1.754604840278625488e+01 -8.164284095168113708e+00 1.893886015750467777e-01
-3.021743512153625488e+01 -1.402707706391811371e+01 3.728899220004677773e-02
-3.065786480903625488e+01 -1.452195011079311371e+01 3.881487110629677773e-02
-3.109682965278625488e+01 -1.502719913423061371e+01 3.980669239535927773e-02
-1.521340680122375488e+01 -6.580910071730613708e+00 2.757838652469217777e-01
-2.841872906684875488e+01 -1.213364444673061371e+01 1.699031279422342777e-01
-2.930434918403625488e+01 -1.277207218110561371e+01 1.695063994266092777e-01
-2.947659039497375488e+01 -1.312424503266811371e+01 1.751979277469217777e-01
-1.754641461372375488e+01 -8.161720618605613708e+00 2.722133086062967777e-01
-3.049819684028625488e+01 -1.414829288423061371e+01 1.820033476687967777e-01
-3.131411480903625488e+01 -1.481845889985561371e+01 1.837275908328592777e-01
-3.146999859809875488e+01 -1.519724307954311371e+01 1.903804228641092777e-01
-1.521365094184875488e+01 -6.578712806105613708e+00 3.459132597781717777e-01
-2.942031598091125488e+01 -1.253977237641811371e+01 3.023188994266092777e-01
-2.959487652778625488e+01 -1.288925968110561371e+01 3.100245879031717777e-01
-3.048586773872375488e+01 -1.355295597016811371e+01 3.151667998172342777e-01
-1.754665875434875488e+01 -8.159035071730613708e+00 3.554805205203592777e-01
-3.145522809028625488e+01 -1.457334171235561371e+01 3.288386748172342777e-01
-3.161086773872375488e+01 -1.494968448579311371e+01 3.359645293094217777e-01
-3.243594098091125488e+01 -1.564548526704311371e+01 3.428920195437967777e-01
-1.521389508247375488e+01 -6.576393470168113708e+00 4.164241240359842777e-01
-2.971218609809875488e+01 -1.265464054048061371e+01 4.442714140750467777e-01
-3.043179059028625488e+01 -1.323569522798061371e+01 4.537318632937967777e-01
-3.076968121528625488e+01 -1.366989932954311371e+01 4.628413603641092777e-01
-1.754702496528625488e+01 -8.156471595168113708e+00 4.383052275516092777e-01
-3.175369000434875488e+01 -1.470224796235561371e+01 4.826472685672342777e-01
-3.249184918403625488e+01 -1.534897647798061371e+01 4.938014433719217777e-01
-3.273794293403625488e+01 -1.578183780610561371e+01 5.038112089969217777e-01
-1.521426129341125488e+01 -6.574196204543113708e+00 4.865687773562967777e-01
-3.030630230903625488e+01 -1.289328800141811371e+01 5.903438017703592777e-01
-3.084267926216125488e+01 -1.340305362641811371e+01 6.027949736453592777e-01
-3.134780621528625488e+01 -1.391306339204311371e+01 6.154445097781717777e-01
-1.754739117622375488e+01 -8.153786048293113708e+00 5.211299345828592777e-01
-3.239114117622375488e+01 -1.498337589204311371e+01 6.420863554812967777e-01
-3.288845562934875488e+01 -1.552573429048061371e+01 6.557734892703592777e-01
-3.341006207466125488e+01 -1.609177432954311371e+01 6.700557158328592777e-01
-1.521450543403625488e+01 -6.571998938918113708e+00 5.570796416141092777e-01
-3.071426129341125488e+01 -1.305551944673061371e+01 7.409327910281717777e-01
-3.125576519966125488e+01 -1.357138858735561371e+01 7.567714140750467777e-01
-3.176601910591125488e+01 -1.408737979829311371e+01 7.726863310672342777e-01
-1.754763531684875488e+01 -8.151222571730613708e+00 6.043971464969217777e-01
-3.282314801216125488e+01 -1.517197452485561371e+01 8.061488554812967777e-01
-3.334035992622375488e+01 -1.572763858735561371e+01 8.233455107547342777e-01
-3.381460309028625488e+01 -1.627597843110561371e+01 8.403590605594217777e-01
-1.468008160591125488e+01 -6.356056556105613708e+00 6.185573027469217777e-01
-1.519216656684875488e+01 -6.697731360793113708e+00 6.315577910281717777e-01
-1.570205426216125488e+01 -7.049293860793113708e+00 6.449092314578592777e-01
-1.625039410591125488e+01 -7.428932532668113708e+00 6.592982695437967777e-01
-1.684353375434875488e+01 -7.839577063918113708e+00 6.748774931766092777e-01
-1.749551129341125488e+01 -8.290016517043113708e+00 6.919673369266092777e-01
-1.816763043403625488e+01 -8.763283118605613708e+00 7.098964140750467777e-01
-1.889028668403625488e+01 -9.275001868605613708e+00 7.292598173953592777e-01
-1.473342633247375488e+01 -6.375099524855613708e+00 6.875422880984842777e-01
-1.521426129341125488e+01 -6.704445227980613708e+00 7.026790068484842777e-01
-1.584292340278625488e+01 -7.105934485793113708e+00 7.210353300906717777e-01
-1.644680523872375488e+01 -7.510597571730613708e+00 7.397120879031717777e-01
-1.709682965278625488e+01 -7.947975501418113708e+00 7.598842070437967777e-01
-1.753115582466125488e+01 -8.303200110793113708e+00 7.756312773562967777e-01
-1.834548687934875488e+01 -8.841896399855613708e+00 8.010371611453592777e-01
-1.901675152778625488e+01 -9.331276282668113708e+00 8.232539580203592777e-01
-1.469875836372375488e+01 -6.358986243605613708e+00 7.543910429812967777e-01
-1.519375348091125488e+01 -6.693703040480613708e+00 7.725184843875467777e-01
-1.568655133247375488e+01 -7.037941321730613708e+00 7.909816191531717777e-01
-1.621535992622375488e+01 -7.408790931105613708e+00 8.108638213016092777e-01
-1.681521344184875488e+01 -7.821754798293113708e+00 8.331111357547342777e-01
-1.755349469184875488e+01 -8.310402259230613708e+00 8.597377226687967777e-01
-1.825906109809875488e+01 -8.799415931105613708e+00 8.860286162234842777e-01
-1.902822613716125488e+01 -9.333595618605613708e+00 9.147303984500467777e-01
-1.468276715278625488e+01 -6.350441321730613708e+00 8.218348906375467777e-01
-1.527468609809875488e+01 -6.724464759230613708e+00 8.453334257937967777e-01
-1.585744976997375488e+01 -7.107033118605613708e+00 8.693965361453592777e-01
-1.649892926216125488e+01 -7.527809485793113708e+00 8.958552763797342777e-01
-3.413625836372375488e+01 -1.540891300141811371e+01 1.476391165051609278e+00
-3.324856305122375488e+01 -1.534116397798061371e+01 1.460308401379734278e+00
-3.517800641059875488e+01 -1.654770694673061371e+01 1.537548391614109278e+00
-3.523501324653625488e+01 -1.691867862641811371e+01 1.554134695325046778e+00
-3.225137066841125488e+01 -1.335764347016811371e+01 1.521297781262546778e+00
-3.303359723091125488e+01 -1.397873722016811371e+01 1.562328665051609278e+00
-3.357815289497375488e+01 -1.451779972016811371e+01 1.595333425793796778e+00
-3.316152691841125488e+01 -1.465940128266811371e+01 1.593197195325046778e+00
-3.425393414497375488e+01 -1.545481143891811371e+01 1.647503225598484278e+00
-3.354324078559875488e+01 -1.546775089204311371e+01 1.634304373059421778e+00
-3.589138531684875488e+01 -1.686862979829311371e+01 1.738125173840671778e+00
-3.501540875434875488e+01 -1.681015811860561371e+01 1.718761770520359278e+00
-3.306557965278625488e+01 -1.367710147798061371e+01 1.709575979504734278e+00
-3.361770367622375488e+01 -1.421201358735561371e+01 1.745006887707859278e+00
-3.430215191841125488e+01 -1.481516300141811371e+01 1.787380544934421778e+00
-3.424758648872375488e+01 -1.511875186860561371e+01 1.799328176770359278e+00
-3.239504742622375488e+01 -1.463535343110561371e+01 1.734676687512546778e+00
-3.535061383247375488e+01 -1.627158389985561371e+01 1.875500051770359278e+00
-3.602590680122375488e+01 -1.692429386079311371e+01 1.919811575207859278e+00
-3.442556500434875488e+01 -1.652841983735561371e+01 1.865825979504734278e+00
-3.370962262153625488e+01 -1.392868839204311371e+01 1.897243826184421778e+00
-3.448684430122375488e+01 -1.456150089204311371e+01 1.947552053723484278e+00
-3.414419293403625488e+01 -1.474362979829311371e+01 1.946300833020359278e+00
-3.281277203559875488e+01 -1.449936710298061371e+01 1.898250906262546778e+00
-3.241457867622375488e+01 -1.463864932954311371e+01 1.893520681653171778e+00
-3.536147809028625488e+01 -1.627072940766811371e+01 2.049419729504734278e+00
-3.232790875434875488e+01 -1.522605167329311371e+01 1.917782156262546778e+00
-3.524819684028625488e+01 -1.690744815766811371e+01 2.075176565442234278e+00
-3.388137555122375488e+01 -1.399167667329311371e+01 2.068142263684421778e+00
-3.371755719184875488e+01 -1.424204288423061371e+01 2.074718801770359278e+00
-3.388430523872375488e+01 -1.462949405610561371e+01 2.098354666028171778e+00
-3.276101422309875488e+01 -1.447202335298061371e+01 2.054134695325046778e+00
-3.552456402778625488e+01 -1.599411807954311371e+01 2.214367239270359278e+00
-3.537234234809875488e+01 -1.626975284516811371e+01 2.223446218762546778e+00
-3.218166851997375488e+01 -1.515390811860561371e+01 2.068661062512546778e+00
-3.525576519966125488e+01 -1.690512882173061371e+01 2.249737112317234278e+00
-3.562734723091125488e+01 -1.468174014985561371e+01 2.328533499035984278e+00
-3.515810894966125488e+01 -1.482431827485561371e+01 2.317638723645359278e+00
-3.402053570747375488e+01 -1.468088565766811371e+01 2.269405691418796778e+00
-3.211843609809875488e+01 -1.419199405610561371e+01 2.176555959973484278e+00
-3.454275250434875488e+01 -1.555893741548061371e+01 2.331386892590671778e+00
-3.176626324653625488e+01 -1.465110050141811371e+01 2.186336843762546778e+00
-3.203762555122375488e+01 -1.508274112641811371e+01 2.217342703137546778e+00
-3.527871441841125488e+01 -1.691013370454311371e+01 2.425258962903171778e+00
-1.278237652778625488e+01 -6.434547767043113708e+00 -4.204145213589072227e-02
-1.274612164497375488e+01 -6.536964759230613708e+00 -3.894391795620322227e-02
-1.269570660591125488e+01 -6.632667884230613708e+00 -3.564801951870322227e-02
-1.264516949653625488e+01 -6.728615149855613708e+00 -3.232160350307822227e-02
-1.259475445747375488e+01 -6.824196204543113708e+00 -2.902570506557822227e-02
-1.255801129341125488e+01 -6.927467688918113708e+00 -2.621808787807822227e-02
-1.253054547309875488e+01 -7.035377845168113708e+00 -2.374616404995322227e-02
-1.249636578559875488e+01 -7.140114173293113708e+00 -2.135053416714072227e-02
-1.421181988716125488e+01 -7.105079993605613708e+00 -2.804914256557822227e-02
-1.414407086372375488e+01 -7.206764563918113708e+00 -2.399030467495322227e-02
-1.407973980903625488e+01 -7.310036048293113708e+00 -2.005353709682822227e-02
-1.402248883247375488e+01 -7.416969642043113708e+00 -1.597944041714072227e-02
-1.397402691841125488e+01 -7.527931556105613708e+00 -1.254621287807822227e-02
-1.393777203559875488e+01 -7.645973548293113708e+00 -9.845407214015722275e-03
-1.390981793403625488e+01 -7.768165931105613708e+00 -7.037790026515722275e-03
-1.388174176216125488e+01 -7.890968665480613708e+00 -4.230172839015722275e-03
-1.595034527778625488e+01 -7.920387610793113708e+00 -7.877023424953222275e-03
-1.589773297309875488e+01 -8.047096595168113708e+00 -4.016549792140722275e-03
-1.584499859809875488e+01 -8.173927649855613708e+00 -1.408173702657222748e-04
-1.579202008247375488e+01 -8.301369056105613708e+00 3.750173840671777725e-03
-1.573904156684875488e+01 -8.428444251418113708e+00 7.625906262546777725e-03
-1.568594098091125488e+01 -8.556251868605613708e+00 1.153215626254677773e-02
-1.563296246528625488e+01 -8.683693274855613708e+00 1.542314747348427773e-02
-1.557986187934875488e+01 -8.811378821730613708e+00 1.931413868442177773e-02
-1.824404644966125488e+01 -8.996193274855613708e+00 1.731523731723427773e-02
-1.827090191841125488e+01 -9.184303626418113708e+00 2.038225391879677773e-02
-1.828506207466125488e+01 -9.368263587355613708e+00 2.329668262973427773e-02
-1.827285504341125488e+01 -9.541481360793113708e+00 2.682146290317177773e-02
-1.822292828559875488e+01 -9.696022376418113708e+00 3.115495899692177773e-02
-1.816860699653625488e+01 -9.849220618605613708e+00 3.559526661410927773e-02
-1.810818219184875488e+01 -9.999000892043113708e+00 4.015764454379677773e-02
-1.803481793403625488e+01 -1.014206729829311371e+01 4.453691700473427773e-02
-2.142471051216125488e+01 -1.048789249360561371e+01 5.122026661410927773e-02
-2.104763531684875488e+01 -1.051450382173061371e+01 6.173357227817177773e-02
-2.108022809028625488e+01 -1.073593936860561371e+01 6.534990528598427773e-02
-2.111330914497375488e+01 -1.096067081391811371e+01 6.902727345004677773e-02
-2.114663434028625488e+01 -1.118735538423061371e+01 7.273515919223427773e-02
-2.118044781684875488e+01 -1.141745792329311371e+01 7.650408009067177773e-02
-2.111050152778625488e+01 -1.159409366548061371e+01 8.193620899692177773e-02
-2.100405621528625488e+01 -1.175132022798061371e+01 8.793291309848427773e-02
-3.110061383247375488e+01 -1.503000675141811371e+01 3.979143360629677773e-02
-3.155801129341125488e+01 -1.555539737641811371e+01 4.212602833285927773e-02
-3.198782086372375488e+01 -1.607920108735561371e+01 4.421648243442177773e-02
-3.242178082466125488e+01 -1.661765323579311371e+01 4.655107716098427773e-02
-3.287380719184875488e+01 -1.717612491548061371e+01 4.893144825473427773e-02
-2.493508648872375488e+01 -1.337204776704311371e+01 1.412318632937967777e-01
-2.428103375434875488e+01 -1.327768741548061371e+01 1.537288115359842777e-01
-2.504165387153625488e+01 -1.393943057954311371e+01 1.508601591922342777e-01
-3.147170758247375488e+01 -1.519907413423061371e+01 1.903956816531717777e-01
-3.228872418403625488e+01 -1.590073429048061371e+01 1.926082060672342777e-01
-3.264553570747375488e+01 -1.639621768891811371e+01 1.981929228641092777e-01
-3.323977398872375488e+01 -1.702158389985561371e+01 2.026179716922342777e-01
-3.364077496528625488e+01 -1.756235538423061371e+01 2.084926054812967777e-01
-3.405886578559875488e+01 -1.812436710298061371e+01 2.145808623172342777e-01
-2.428139996528625488e+01 -1.327378116548061371e+01 2.745479033328592777e-01
-3.466274762153625488e+01 -1.915561710298061371e+01 2.287257597781717777e-01
-3.243752789497375488e+01 -1.564731632173061371e+01 3.429225371219217777e-01
-3.258743023872375488e+01 -1.603867374360561371e+01 3.511622832156717777e-01
-3.337038922309875488e+01 -1.674582706391811371e+01 3.596766875125467777e-01
-3.354153180122375488e+01 -1.716696964204311371e+01 3.684199736453592777e-01
-3.427431988716125488e+01 -1.788010440766811371e+01 3.769496367312967777e-01
-3.454031109809875488e+01 -1.836948429048061371e+01 3.861506865359842777e-01
-2.428188824653625488e+01 -1.326999698579311371e+01 3.953517363406717777e-01
-3.539712262153625488e+01 -1.954807315766811371e+01 4.042933867312967777e-01
-3.273952984809875488e+01 -1.578379093110561371e+01 5.038569853641092777e-01
-3.348635601997375488e+01 -1.646421085298061371e+01 5.157893584109842777e-01
-3.367165875434875488e+01 -1.688779483735561371e+01 5.260127470828592777e-01
-3.439858746528625488e+01 -1.758982120454311371e+01 5.387690947391092777e-01
-3.458974957466125488e+01 -1.803537784516811371e+01 5.495723173953592777e-01
-3.517226910591125488e+01 -1.869297061860561371e+01 5.624965117312967777e-01
-2.428237652778625488e+01 -1.326621280610561371e+01 5.167964384891092777e-01
-3.592471051216125488e+01 -1.982810245454311371e+01 5.873530791141092777e-01
-3.341384625434875488e+01 -1.609470401704311371e+01 6.701167509891092777e-01
-3.380227398872375488e+01 -1.661008487641811371e+01 6.835902617312967777e-01
-3.438625836372375488e+01 -1.723203311860561371e+01 6.991542265750467777e-01
-3.471511578559875488e+01 -1.774228702485561371e+01 7.128413603641092777e-01
-3.524953961372375488e+01 -1.836631046235561371e+01 7.287562773562967777e-01
-3.536062359809875488e+01 -1.878513370454311371e+01 7.409175322391092777e-01
-2.428286480903625488e+01 -1.326230655610561371e+01 6.376002714969217777e-01
-3.644094586372375488e+01 -2.010178409516811371e+01 7.748225615359842777e-01
-3.381850934028625488e+01 -1.627890811860561371e+01 8.404506132937967777e-01
-3.430923199653625488e+01 -1.684738956391811371e+01 8.581355498172342777e-01
-3.481106305122375488e+01 -1.743405948579311371e+01 8.764155791141092777e-01
-3.523537945747375488e+01 -1.799655948579311371e+01 8.940242216922342777e-01
-3.488882184028625488e+01 -1.817624698579311371e+01 9.005397246219217777e-01
-2.296560406684875488e+01 -1.232578311860561371e+01 7.309688017703592777e-01
-2.377309918403625488e+01 -1.298740421235561371e+01 7.511256621219217777e-01
-2.460256695747375488e+01 -1.368027530610561371e+01 7.722590849734842777e-01
-1.889565777778625488e+01 -9.278175696730613708e+00 7.293818877078592777e-01
-1.968899273872375488e+01 -9.839821204543113708e+00 7.507136748172342777e-01
-2.044314312934875488e+01 -1.040024600923061371e+01 7.719081328250467777e-01
-2.121694684028625488e+01 -1.098825870454311371e+01 7.941096709109842777e-01
-2.205923199653625488e+01 -1.162827335298061371e+01 8.182643339969217777e-01
-2.279336285591125488e+01 -1.223227725923061371e+01 8.409388945437967777e-01
-2.362905621528625488e+01 -1.290695987641811371e+01 8.662837431766092777e-01
-2.450942730903625488e+01 -1.362558780610561371e+01 8.932765410281717777e-01
-1.902175641059875488e+01 -9.334205970168113708e+00 8.233912871219217777e-01
-1.975283551216125488e+01 -9.867287024855613708e+00 8.476985380984842777e-01
-2.044717144966125488e+01 -1.039890323579311371e+01 8.711970732547342777e-01
-2.116384625434875488e+01 -1.095822940766811371e+01 8.963588164187967777e-01
-2.193923687934875488e+01 -1.156345401704311371e+01 9.235957548953592777e-01
-2.265066266059875488e+01 -1.215427432954311371e+01 9.498866484500467777e-01
-2.350869488716125488e+01 -1.283908878266811371e+01 9.811976836062967777e-01
-2.442397809028625488e+01 -1.357517276704311371e+01 1.014156667981296778e+00
-1.903408551216125488e+01 -9.336891517043113708e+00 9.149287627078592777e-01
-1.988332867622375488e+01 -9.926491126418113708e+00 9.467738554812967777e-01
-2.065188336372375488e+01 -1.049558292329311371e+01 9.769709990359842777e-01
-3.567446637153625488e+01 -1.819797550141811371e+01 1.434200613293796778e+00
-3.716055035591125488e+01 -1.931626163423061371e+01 1.493297903332859278e+00
-3.549014019966125488e+01 -1.882846866548061371e+01 1.456798879895359278e+00
-3.744558453559875488e+01 -2.023142276704311371e+01 1.531887380871921778e+00
-3.737685894966125488e+01 -2.058347354829311371e+01 1.544872610364109278e+00
-3.523440289497375488e+01 -1.691965518891811371e+01 1.554165212903171778e+00
-3.446584820747375488e+01 -1.689963565766811371e+01 1.541210500989109278e+00
-3.420889019966125488e+01 -1.711667667329311371e+01 1.546352712903171778e+00
-3.461514019966125488e+01 -1.766342960298061371e+01 1.574688284192234278e+00
-3.548733258247375488e+01 -1.845761905610561371e+01 1.619945852551609278e+00
-3.561269879341125488e+01 -1.888620792329311371e+01 1.639339773450046778e+00
-3.952663922309875488e+01 -2.132907901704311371e+01 1.796520559582859278e+00
-3.685940289497375488e+01 -2.029697452485561371e+01 1.716335623059421778e+00
-3.501467633247375488e+01 -1.681101261079311371e+01 1.718792288098484278e+00
-3.413601422309875488e+01 -1.673606143891811371e+01 1.699138967785984278e+00
-3.496011090278625488e+01 -1.747788272798061371e+01 1.746486990246921778e+00
-3.806973004341125488e+01 -1.938083682954311371e+01 1.886577932629734278e+00
-3.533926129341125488e+01 -1.837632022798061371e+01 1.792263357434421778e+00
-3.986367535591125488e+01 -2.108969913423061371e+01 1.993709890637546778e+00
-4.108913922309875488e+01 -2.215110050141811371e+01 2.062328665051609278e+00
-3.655300641059875488e+01 -2.012497745454311371e+01 1.890255300793796778e+00
-3.442446637153625488e+01 -1.652903018891811371e+01 1.865825979504734278e+00
-3.483181500434875488e+01 -1.706308780610561371e+01 1.898311941418796778e+00
-3.438674664497375488e+01 -1.719211612641811371e+01 1.893993704114109278e+00
-3.920437359809875488e+01 -1.994028507173061371e+01 2.127819387707859278e+00
-3.565786480903625488e+01 -1.853257022798061371e+01 1.983455984387546778e+00
-4.141140484809875488e+01 -2.188706241548061371e+01 2.266002981457859278e+00
-3.908120465278625488e+01 -2.107944522798061371e+01 2.176433889660984278e+00
-3.662087750434875488e+01 -2.015537296235561371e+01 2.079647390637546778e+00
-3.524722027778625488e+01 -1.690818057954311371e+01 2.075191824231296778e+00
-3.452810406684875488e+01 -1.691220889985561371e+01 2.056026785168796778e+00
-3.454836773872375488e+01 -1.726523624360561371e+01 2.073238699231296778e+00
-4.062124371528625488e+01 -2.063987003266811371e+01 2.396007864270359278e+00
-3.566885113716125488e+01 -1.853208194673061371e+01 2.163204519543796778e+00
-4.230056500434875488e+01 -2.234189639985561371e+01 2.521557180676609278e+00
-3.875674176216125488e+01 -2.090073429048061371e+01 2.358135549817234278e+00
-4.341213726997375488e+01 -2.382090030610561371e+01 2.621303884778171778e+00
-3.525442242622375488e+01 -1.690573917329311371e+01 2.249721853528171778e+00
-3.458303570747375488e+01 -1.693271671235561371e+01 2.230205862317234278e+00
-3.452810406684875488e+01 -1.724961124360561371e+01 2.244121877942234278e+00
-4.189126324653625488e+01 -2.126596866548061371e+01 2.669475881848484278e+00
-3.571621441841125488e+01 -1.855014835298061371e+01 2.344158499035984278e+00
-4.300515484809875488e+01 -2.270053897798061371e+01 2.775875417981296778e+00
-3.862099957466125488e+01 -2.082224307954311371e+01 2.547252981457859278e+00
-4.414675641059875488e+01 -2.421054874360561371e+01 2.885738699231296778e+00
-3.527883648872375488e+01 -1.691123233735561371e+01 2.425319998059421778e+00
-4.128786969184875488e+01 -2.012888370454311371e+01 2.800747244153171778e+00
-4.211294293403625488e+01 -2.094358097016811371e+01 2.871593801770359278e+00
-3.441018414497375488e+01 -1.753232608735561371e+01 2.425777761731296778e+00
-3.576003766059875488e+01 -1.856650577485561371e+01 2.526317922864109278e+00
-4.365908551216125488e+01 -2.303257022798061371e+01 3.033199636731296778e+00
-3.885806012153625488e+01 -2.094126163423061371e+01 2.757137625012546778e+00
-4.488149762153625488e+01 -2.459983097016811371e+01 3.157879202160984278e+00
-1.249648785591125488e+01 -7.140602454543113708e+00 -2.135053416714072227e-02
-1.246975445747375488e+01 -7.249855384230613708e+00 -1.886335154995322227e-02
-1.243618512153625488e+01 -7.355812415480613708e+00 -1.642194529995322227e-02
-1.240249371528625488e+01 -7.462623938918113708e+00 -1.398053904995322227e-02
-1.235537457466125488e+01 -7.561622962355613708e+00 -1.106611033901572227e-02
-1.230630230903625488e+01 -7.660011634230613708e+00 -8.060128893703222275e-03
-1.225723004341125488e+01 -7.758156165480613708e+00 -5.069406237453222275e-03
-1.220229840278625488e+01 -7.852638587355613708e+00 -2.170236315578222275e-03
-1.388198590278625488e+01 -7.891579017043113708e+00 -4.230172839015722275e-03
-1.384744000434875488e+01 -8.011452063918113708e+00 -1.483590807765722275e-03
-1.380679059028625488e+01 -8.128517493605613708e+00 1.446096692234277725e-03
-1.375149273872375488e+01 -8.237892493605613708e+00 5.215017590671777725e-03
-1.368752789497375488e+01 -8.341896399855613708e+00 8.877126965671777725e-03
-1.361452984809875488e+01 -8.441017493605613708e+00 1.246294239535927773e-02
-1.356484723091125488e+01 -8.553566321730613708e+00 1.568254688754677773e-02
-1.352248883247375488e+01 -8.670875892043113708e+00 1.868852833285927773e-02
-1.558010601997375488e+01 -8.811989173293113708e+00 1.931413868442177773e-02
-1.552041363716125488e+01 -8.936256751418113708e+00 2.309831837192177773e-02
-1.483035016059875488e+01 -8.704445227980613708e+00 4.302629688754677773e-02
-1.474990582466125488e+01 -8.810768470168113708e+00 4.726824024692177773e-02
-1.534072613716125488e+01 -9.310402259230613708e+00 3.452715137973427773e-02
-1.528066754341125488e+01 -9.435768470168113708e+00 3.834184864535927773e-02
-1.523696637153625488e+01 -9.570778235793113708e+00 4.175981739535927773e-02
-1.520132184028625488e+01 -9.711403235793113708e+00 4.497942188754677773e-02
-1.803481793403625488e+01 -1.014279972016811371e+01 4.453691700473427773e-02
-1.797244000434875488e+01 -1.029196964204311371e+01 4.935869434848427773e-02
-1.475185894966125488e+01 -8.657692298293113708e+00 1.177943632937967777e-01
-1.466714215278625488e+01 -8.760597571730613708e+00 1.220210478641092777e-01
-1.766811871528625488e+01 -1.067392764985561371e+01 6.475481251254677773e-02
-1.758254742622375488e+01 -1.081015811860561371e+01 6.957658985629677773e-02
-1.692397809028625488e+01 -1.059653507173061371e+01 8.556780079379677773e-02
-1.739663434028625488e+01 -1.107199893891811371e+01 7.897600391879677773e-02
-2.100393414497375488e+01 -1.175205264985561371e+01 8.794817188754677773e-02
-2.089004254341125488e+01 -1.190476261079311371e+01 9.377702930942177773e-02
-1.471340680122375488e+01 -8.633522376418113708e+00 1.907466338016092777e-01
-1.462820172309875488e+01 -8.735817298293113708e+00 1.948665068484842777e-01
-2.054946637153625488e+01 -1.236167179048061371e+01 1.112025664187967777e-01
-2.045388531684875488e+01 -1.252439151704311371e+01 1.167415068484842777e-01
-1.683059430122375488e+01 -1.053672061860561371e+01 1.723292754031717777e-01
-1.703725934028625488e+01 -1.084592472016811371e+01 1.728633330203592777e-01
-2.504592633247375488e+01 -1.394260440766811371e+01 1.508296416141092777e-01
-2.534914898872375488e+01 -1.436972843110561371e+01 1.539882109500467777e-01
-1.448660016059875488e+01 -8.503029212355613708e+00 2.654994414187967777e-01
-1.460830426216125488e+01 -8.721901282668113708e+00 2.675136015750467777e-01
-1.472536969184875488e+01 -8.941627845168113708e+00 2.696345732547342777e-01
-1.458474469184875488e+01 -9.011940345168113708e+00 2.741816923953592777e-01
-1.450295758247375488e+01 -9.115822181105613708e+00 2.781794951297342777e-01
-1.438076519966125488e+01 -9.194313392043113708e+00 2.821162627078592777e-01
-3.466457867622375488e+01 -1.915793643891811371e+01 2.287562773562967777e-01
-3.479165387153625488e+01 -1.959128604829311371e+01 2.367061064578592777e-01
-1.433681988716125488e+01 -8.416115149855613708e+00 3.371394560672342777e-01
-1.412942242622375488e+01 -8.443947181105613708e+00 3.414882109500467777e-01
-1.401540875434875488e+01 -8.522804602980613708e+00 3.453639433719217777e-01
-1.391335797309875488e+01 -8.608131751418113708e+00 3.491938994266092777e-01
-1.382522320747375488e+01 -8.700661048293113708e+00 3.529475615359842777e-01
-1.374111676216125488e+01 -8.795021399855613708e+00 3.566707060672342777e-01
-3.540066266059875488e+01 -1.955124698579311371e+01 4.043239043094217777e-01
-3.575259137153625488e+01 -2.011692081391811371e+01 4.141047880984842777e-01
-1.432058453559875488e+01 -8.404518470168113708e+00 4.076808379031717777e-01
-1.410525250434875488e+01 -8.427589759230613708e+00 4.112513945437967777e-01
-1.399929547309875488e+01 -8.510963782668113708e+00 4.148677275516092777e-01
-1.389321637153625488e+01 -8.593849524855613708e+00 4.184688017703592777e-01
-1.380727887153625488e+01 -8.687355384230613708e+00 4.217189238406717777e-01
-1.372292828559875488e+01 -8.781349524855613708e+00 4.253199980594217777e-01
-3.592812848091125488e+01 -1.983127628266811371e+01 5.874141142703592777e-01
-3.639199566841125488e+01 -2.046433292329311371e+01 6.006892607547342777e-01
-1.429324078559875488e+01 -8.386818274855613708e+00 4.775966093875467777e-01
-1.409829449653625488e+01 -8.421242102980613708e+00 4.804805205203592777e-01
-1.398586773872375488e+01 -8.500709876418113708e+00 4.838374541141092777e-01
-1.388491559028625488e+01 -8.586403235793113708e+00 4.872401640750467777e-01
-1.379470562934875488e+01 -8.677345618605613708e+00 4.906886504031717777e-01
-1.370974469184875488e+01 -8.770973548293113708e+00 4.941676543094217777e-01
-3.644411969184875488e+01 -2.010483585298061371e+01 7.748988554812967777e-01
-3.702578473091125488e+01 -2.080857120454311371e+01 7.929347441531717777e-01
-1.424612164497375488e+01 -8.357887610793113708e+00 5.470088408328592777e-01
-1.409426617622375488e+01 -8.416603431105613708e+00 5.496943877078592777e-01
-1.398306012153625488e+01 -8.496803626418113708e+00 5.527919218875467777e-01
-1.388210797309875488e+01 -8.582496985793113708e+00 5.559962675906717777e-01
-1.381228375434875488e+01 -8.685646399855613708e+00 5.595515654422342777e-01
-1.371755719184875488e+01 -8.773414954543113708e+00 5.627864287234842777e-01
-2.460830426216125488e+01 -1.368418155610561371e+01 7.723811552859842777e-01
-2.542287945747375488e+01 -1.438889347016811371e+01 7.939723418094217777e-01
-1.424734234809875488e+01 -8.356178626418113708e+00 6.170924589969217777e-01
-1.409878277778625488e+01 -8.416847571730613708e+00 6.193660185672342777e-01
-1.398794293403625488e+01 -8.497291907668113708e+00 6.222041533328592777e-01
-1.388662457466125488e+01 -8.582863196730613708e+00 6.252101347781717777e-01
-1.381887555122375488e+01 -8.687355384230613708e+00 6.287654326297342777e-01
-1.372414898872375488e+01 -8.775123938918113708e+00 6.318171904422342777e-01
-2.451540875434875488e+01 -1.362973819673061371e+01 8.934291289187967777e-01
-2.537673687934875488e+01 -1.435910831391811371e+01 9.208339140750467777e-01
-1.429116559028625488e+01 -8.378517493605613708e+00 6.877406523562967777e-01
-1.413161969184875488e+01 -8.433449134230613708e+00 6.893275664187967777e-01
-1.401943707466125488e+01 -8.513405188918113708e+00 6.919063017703592777e-01
-1.391482281684875488e+01 -8.597267493605613708e+00 6.946376250125467777e-01
-1.382143902778625488e+01 -8.686622962355613708e+00 6.975825713016092777e-01
-1.373464703559875488e+01 -8.779274329543113708e+00 7.006495879031717777e-01
-2.443020367622375488e+01 -1.357944522798061371e+01 1.014355032239109278e+00
-2.531557965278625488e+01 -1.432102237641811371e+01 1.047481863293796778e+00
-1.436465191841125488e+01 -8.417457923293113708e+00 7.596553252078592777e-01
-1.418203473091125488e+01 -8.459938392043113708e+00 7.601436064578592777e-01
-1.407217144966125488e+01 -8.541847571730613708e+00 7.625392363406717777e-01
-1.396999859809875488e+01 -8.627907142043113708e+00 7.651332304812967777e-01
-1.387710309028625488e+01 -8.718117102980613708e+00 7.683223173953592777e-01
-1.379018902778625488e+01 -8.811378821730613708e+00 7.712825224734842777e-01
-3.737649273872375488e+01 -2.058457218110561371e+01 1.544903127942234278e+00
-3.616470074653625488e+01 -2.030747257173061371e+01 1.521725027356296778e+00
-1.445327496528625488e+01 -8.464943274855613708e+00 8.332026884891092777e-01
-1.420461773872375488e+01 -8.470558509230613708e+00 8.309291289187967777e-01
-1.409292340278625488e+01 -8.551735267043113708e+00 8.330348418094217777e-01
-1.398843121528625488e+01 -8.636574134230613708e+00 8.353541777469217777e-01
-1.389492535591125488e+01 -8.726539954543113708e+00 8.379939482547342777e-01
-1.380740094184875488e+01 -8.819679602980613708e+00 8.408168242312967777e-01
-3.686025738716125488e+01 -2.029880557954311371e+01 1.716427175793796778e+00
-3.678591656684875488e+01 -2.064414249360561371e+01 1.728908865246921778e+00
-3.812685894966125488e+01 -2.178818546235561371e+01 1.795788137707859278e+00
-1.421951031684875488e+01 -8.476784095168113708e+00 9.012874052859842777e-01
-1.413125348091125488e+01 -8.571754798293113708e+00 9.040492461062967777e-01
-1.400686383247375488e+01 -8.645119056105613708e+00 9.053920195437967777e-01
-1.391286969184875488e+01 -8.735206946730613708e+00 9.078639433719217777e-01
-1.382571148872375488e+01 -8.828590735793113708e+00 9.109462187625467777e-01
-3.655373883247375488e+01 -2.012668643891811371e+01 1.890346853528171778e+00
-3.682034039497375488e+01 -2.065671573579311371e+01 1.918667166028171778e+00
-3.765932965278625488e+01 -2.151853214204311371e+01 1.971981375012546778e+00
-1.424953961372375488e+01 -8.491554602980613708e+00 9.728511259891092777e-01
-1.412759137153625488e+01 -8.567238196730613708e+00 9.740107939578592777e-01
-1.402248883247375488e+01 -8.652077063918113708e+00 9.758723662234842777e-01
-1.392739605903625488e+01 -8.741554602980613708e+00 9.781306670047342777e-01
-1.383877301216125488e+01 -8.834328040480613708e+00 9.806483672000467777e-01
-3.662160992622375488e+01 -2.015708194673061371e+01 2.079738943371921778e+00
-3.683401226997375488e+01 -2.065793643891811371e+01 2.106777517590671778e+00
-3.727969098091125488e+01 -2.129843936860561371e+01 2.146465627942234278e+00
-3.665090680122375488e+01 -2.133750186860561371e+01 2.134472219739109278e+00
-1.436074566841125488e+01 -8.701149329543113708e+00 1.055202810559421778e+00
-1.402248883247375488e+01 -8.649757727980613708e+00 1.045376150403171778e+00
-1.392519879341125488e+01 -8.737892493605613708e+00 1.047344534192234278e+00
-1.383620953559875488e+01 -8.830421790480613708e+00 1.050091116223484278e+00
-4.341677594184875488e+01 -2.382492862641811371e+01 2.621609060559421778e+00
-3.750552105903625488e+01 -2.102195011079311371e+01 2.330883352551609278e+00
-3.712331891059875488e+01 -2.120395694673061371e+01 2.329876272473484278e+00
-3.683865094184875488e+01 -2.143869815766811371e+01 2.333996145520359278e+00
-1.465615582466125488e+01 -8.871437415480613708e+00 1.142650930676609278e+00
-1.556631207466125488e+01 -9.566994056105613708e+00 1.200359670910984278e+00
-1.593362164497375488e+01 -9.954567298293113708e+00 1.228878347668796778e+00
-1.541067242622375488e+01 -9.801613196730613708e+00 1.207805959973484278e+00
-4.415188336372375488e+01 -2.421482120454311371e+01 2.886120168957859278e+00
-3.856728863716125488e+01 -2.160080753266811371e+01 2.584774343762546778e+00
-3.758535504341125488e+01 -2.145725284516811371e+01 2.548000662121921778e+00
-3.622573590278625488e+01 -2.108103214204311371e+01 2.486980764660984278e+00
-3.663515973091125488e+01 -2.171067081391811371e+01 2.531536428723484278e+00
-3.629348492622375488e+01 -2.190732608735561371e+01 2.532406179700046778e+00
-1.568948101997375488e+01 -9.803688392043113708e+00 1.294460623059421778e+00
-1.583926129341125488e+01 -1.006394229829311371e+01 1.312298147473484278e+00
-4.488747906684875488e+01 -2.460471378266811371e+01 3.158336965832859278e+00
-4.559463238716125488e+01 -2.546714054048061371e+01 3.227321951184421778e+00
-3.793056988716125488e+01 -2.164475284516811371e+01 2.762478201184421778e+00
-3.657302594184875488e+01 -2.127365909516811371e+01 2.696529714856296778e+00
-4.703494000434875488e+01 -2.777866397798061371e+01 3.400081960950046778e+00
-1.488357281684875488e+01 -9.155250892043113708e+00 1.311275808606296778e+00
-1.474416851997375488e+01 -9.227638587355613708e+00 1.310421316418796778e+00
-1.465737652778625488e+01 -9.330788001418113708e+00 1.313412039075046778e+00
-1.220193219184875488e+01 -7.852882727980613708e+00 -2.154977526515722275e-03
-1.215371441841125488e+01 -7.951759681105613708e+00 8.510039187967777252e-04
-1.209939312934875488e+01 -8.047096595168113708e+00 3.765432629734277725e-03
-1.204482769966125488e+01 -8.142799720168113708e+00 6.679861340671777725e-03
-1.199050641059875488e+01 -8.238380774855613708e+00 9.594290051609277725e-03
-1.193581891059875488e+01 -8.334328040480613708e+00 1.252397755160927773e-02
-1.188137555122375488e+01 -8.430031165480613708e+00 1.545366505160927773e-02
-1.182790875434875488e+01 -8.526710852980613708e+00 1.800188282504677773e-02
-1.352224469184875488e+01 -8.671242102980613708e+00 1.870378712192177773e-02
-1.347219586372375488e+01 -8.784279212355613708e+00 2.166399220004677773e-02
-1.342190289497375488e+01 -8.897560462355613708e+00 2.463945606723427773e-02
-1.338125348091125488e+01 -9.018043860793113708e+00 2.770647266879677773e-02
-1.333071637153625488e+01 -9.132057532668113708e+00 3.069719532504677773e-02
-1.327016949653625488e+01 -9.240211829543113708e+00 3.364214161410927773e-02
-1.321938824653625488e+01 -9.354835852980613708e+00 3.664812305942177773e-02
-1.317178082466125488e+01 -9.472023352980613708e+00 3.956255177035927773e-02
-1.520119976997375488e+01 -9.711891517043113708e+00 4.497942188754677773e-02
-1.515054059028625488e+01 -9.843971595168113708e+00 4.830583790317177773e-02
-1.509695172309875488e+01 -9.974586829543113708e+00 5.170854786410927773e-02
-1.504299664497375488e+01 -1.010630069673061371e+01 5.512651661410927773e-02
-1.498916363716125488e+01 -1.023789249360561371e+01 5.855974415317177773e-02
-1.493484234809875488e+01 -1.037033878266811371e+01 6.199297169223427773e-02
-1.487539410591125488e+01 -1.049924503266811371e+01 6.556352833285927773e-02
-1.378091168403625488e+01 -9.899025306105613708e+00 9.368547657504677773e-02
-1.739602398872375488e+01 -1.107236514985561371e+01 7.900652149692177773e-02
-1.731728863716125488e+01 -1.121189151704311371e+01 8.385881641879677773e-02
-1.722305035591125488e+01 -1.134177432954311371e+01 8.854326466098427773e-02
-1.714114117622375488e+01 -1.148007999360561371e+01 9.299883106723427773e-02
-1.706545758247375488e+01 -1.162216983735561371e+01 9.733232716098427773e-02
-1.701357769966125488e+01 -1.178147159516811371e+01 1.012538359500467777e-01
-1.695681500434875488e+01 -1.193759952485561371e+01 1.052516386844217777e-01
-1.371816754341125488e+01 -9.852272376418113708e+00 1.664393828250467777e-01
-1.703860211372375488e+01 -1.084738956391811371e+01 1.728633330203592777e-01
-2.020181012153625488e+01 -1.303293643891811371e+01 1.325953886844217777e-01
-2.011538434028625488e+01 -1.320139347016811371e+01 1.377376005984842777e-01
-2.002847027778625488e+01 -1.337082706391811371e+01 1.429103300906717777e-01
-1.995754742622375488e+01 -1.355051456391811371e+01 1.478694365359842777e-01
-1.991579937934875488e+01 -1.375168643891811371e+01 1.524623320437967777e-01
-1.987405133247375488e+01 -1.395346866548061371e+01 1.570857451297342777e-01
-1.368557476997375488e+01 -9.826881751418113708e+00 2.384913847781717777e-01
-1.438027691841125488e+01 -9.194557532668113708e+00 2.821315214969217777e-01
-1.450320172309875488e+01 -9.426857337355613708e+00 2.846339629031717777e-01
-1.490749859809875488e+01 -9.844704017043113708e+00 2.845576689578592777e-01
-1.412307476997375488e+01 -9.495094642043113708e+00 2.940486357547342777e-01
-1.407302594184875488e+01 -9.618263587355613708e+00 2.975886748172342777e-01
-1.398244976997375488e+01 -9.714943274855613708e+00 3.014644072391092777e-01
-1.393594098091125488e+01 -9.841163977980613708e+00 3.050044463016092777e-01
-1.348183941841125488e+01 -9.681007727980613708e+00 3.109706328250467777e-01
-1.374087262153625488e+01 -8.795387610793113708e+00 3.566859648562967777e-01
-1.365994000434875488e+01 -8.891334876418113708e+00 3.602717802859842777e-01
-1.358144879341125488e+01 -8.988624915480613708e+00 3.638423369266092777e-01
-1.350613141059875488e+01 -9.088234290480613708e+00 3.674128935672342777e-01
-1.343960309028625488e+01 -9.192970618605613708e+00 3.709529326297342777e-01
-1.338235211372375488e+01 -9.304787024855613708e+00 3.744777129031717777e-01
-1.334206891059875488e+01 -9.427955970168113708e+00 3.779872343875467777e-01
-1.337844586372375488e+01 -9.605812415480613708e+00 3.814052031375467777e-01
-1.372256207466125488e+01 -8.781715735793113708e+00 4.253199980594217777e-01
-1.364114117622375488e+01 -8.877174720168113708e+00 4.288447783328592777e-01
-1.356203961372375488e+01 -8.973732337355613708e+00 4.327205107547342777e-01
-1.348476910591125488e+01 -9.071876868605613708e+00 4.362452910281717777e-01
-1.342129254341125488e+01 -9.178566321730613708e+00 4.398005888797342777e-01
-1.335940289497375488e+01 -9.286720618605613708e+00 4.433711455203592777e-01
-1.331728863716125488e+01 -9.408424720168113708e+00 4.466517851687967777e-01
-1.337856793403625488e+01 -9.603493079543113708e+00 4.507563994266092777e-01
-1.370950055122375488e+01 -8.771217688918113708e+00 4.941829130984842777e-01
-1.362734723091125488e+01 -8.866066321730613708e+00 4.976161406375467777e-01
-1.354775738716125488e+01 -8.962257727980613708e+00 5.010646269656717777e-01
-1.347182965278625488e+01 -9.061012610793113708e+00 5.045436308719217777e-01
-1.340444684028625488e+01 -9.164894446730613708e+00 5.080836699344217777e-01
-1.334609723091125488e+01 -9.275368079543113708e+00 5.117152617312967777e-01
-1.330508160591125488e+01 -9.397560462355613708e+00 5.155147002078592777e-01
-1.336794781684875488e+01 -9.593605384230613708e+00 5.203669951297342777e-01
-1.371731305122375488e+01 -8.773659095168113708e+00 5.627864287234842777e-01
