-2.705162608996033669e+00 -6.657940819859504700e+00 -6.180861147819030066e-01
-2.624840343371033669e+00 -6.662091210484504700e+00 -6.162092837272155066e-01
-2.544762218371033669e+00 -6.666363671422004700e+00 -6.143477114615905066e-01
-2.465294444933533669e+00 -6.670636132359504700e+00 -6.125013979850280066e-01
-2.386314952746033669e+00 -6.674786522984504700e+00 -6.106550845084655066e-01
-2.307579601183533669e+00 -6.678936913609504700e+00 -6.088240298209655066e-01
-2.228355968371033669e+00 -6.679303124547004700e+00 -6.070082339225280066e-01
-3.036217296496033669e+00 -7.305401757359504700e+00 -6.141798647819030066e-01
-2.951134288683533669e+00 -7.317974999547004700e+00 -6.125929507194030066e-01
-2.866905773058533669e+00 -7.332135155797004700e+00 -6.110975893912780066e-01
-2.782677257433533669e+00 -7.346295312047004700e+00 -6.096022280631530066e-01
-2.699059093371033669e+00 -7.360333397984504700e+00 -6.081068667350280066e-01
-2.615685069933533669e+00 -7.374371483922004700e+00 -6.066115054069030066e-01
-2.532311046496033669e+00 -7.388409569859504700e+00 -6.051314028678405066e-01
-2.449547374621033669e+00 -7.402325585484504700e+00 -6.036513003287780066e-01
-3.522301280871033669e+00 -8.571759179234504700e+00 -6.270430239615905066e-01
-3.428673351183533669e+00 -8.600201562047004700e+00 -6.256086977897155066e-01
-3.332604015246033669e+00 -8.621685937047004700e+00 -6.241438540397155066e-01
-3.236412608996033669e+00 -8.643170312047004700e+00 -6.226790102897155066e-01
-3.134117687121033669e+00 -8.644757226109504700e+00 -6.204359682975280066e-01
-3.015709483996033669e+00 -8.595318749547004700e+00 -6.161940249381530066e-01
-2.891441905871033669e+00 -8.522564843297004700e+00 -6.110518130240905066e-01
-2.770348155871033669e+00 -8.451641991734504700e+00 -6.062910708365905066e-01
-3.681236827746033669e+00 -8.984967187047004700e+00 -5.966322573600280066e-01
-3.541954601183533669e+00 -8.903424218297004700e+00 -5.914595278678405066e-01
-3.406090343371033669e+00 -8.823834374547004700e+00 -5.863936098990905066e-01
-3.272789562121033669e+00 -8.745831444859504700e+00 -5.814345034537780066e-01
-3.143150890246033669e+00 -8.669903710484504700e+00 -5.766127261100280066e-01
-3.016441905871033669e+00 -8.595684960484504700e+00 -5.718825015006530066e-01
-2.892052257433533669e+00 -8.522931054234504700e+00 -5.672590884147155066e-01
-2.770958507433533669e+00 -8.452008202672004700e+00 -5.627577456412780066e-01
-3.681847179308533669e+00 -8.985333397984504700e+00 -5.496657046256530066e-01
-3.542687023058533669e+00 -8.903790429234504700e+00 -5.450422915397155066e-01
-3.406700694933533669e+00 -8.824200585484504700e+00 -5.402815493522155066e-01
-3.273521983996033669e+00 -8.746197655797004700e+00 -5.358565005240905066e-01
-3.143761241808533669e+00 -8.670269921422004700e+00 -5.315535220084655066e-01
-3.017052257433533669e+00 -8.596051171422004700e+00 -5.273573550162780066e-01
-2.892784679308533669e+00 -8.523297265172004700e+00 -5.234663638053405066e-01
-2.771568858996033669e+00 -8.452374413609504700e+00 -5.194380434928405066e-01
-3.682579601183533669e+00 -8.985699608922004700e+00 -5.024244936881530066e-01
-3.543297374621033669e+00 -8.904156640172004700e+00 -4.983656557975280066e-01
-3.407311046496033669e+00 -8.824566796422004700e+00 -4.944136294303405066e-01
-3.274132335558533669e+00 -8.746563866734504700e+00 -4.905226382194030066e-01
-3.144371593371033669e+00 -8.670636132359504700e+00 -4.867537173209655066e-01
-3.017662608996033669e+00 -8.596417382359504700e+00 -4.830610903678405066e-01
-2.893395030871033669e+00 -8.523663476109504700e+00 -4.794294985709655066e-01
-2.772301280871033669e+00 -8.452740624547004700e+00 -4.759047182975280066e-01
-3.683189952746033669e+00 -8.986065819859504700e+00 -4.554579409537780066e-01
-3.543907726183533669e+00 -8.904522851109504700e+00 -4.519636782584655066e-01
-3.408043468371033669e+00 -8.824933007359504700e+00 -4.485457095084655066e-01
-3.274742687121033669e+00 -8.746930077672004700e+00 -4.452040347037780066e-01
-3.145104015246033669e+00 -8.671002343297004700e+00 -4.419386538444030066e-01
-3.018272960558533669e+00 -8.596783593297004700e+00 -4.387648257194030066e-01
-2.894005382433533669e+00 -8.524029687047004700e+00 -4.356367739615905066e-01
-2.772911632433533669e+00 -8.453106835484504700e+00 -4.326002749381530066e-01
-3.683800304308533669e+00 -8.986432030797004700e+00 -4.082319888053405066e-01
-3.544640148058533669e+00 -8.904889062047004700e+00 -4.053023013053405066e-01
-3.408653819933533669e+00 -8.825299218297004700e+00 -4.024336489615905066e-01
-3.275475108996033669e+00 -8.747296288609504700e+00 -3.996260317740905066e-01
-3.145714366808533669e+00 -8.671368554234504700e+00 -3.968947085319030066e-01
-3.019005382433533669e+00 -8.597271874547004700e+00 -3.942244204459655066e-01
-2.894615733996033669e+00 -8.524395897984504700e+00 -3.916151675162780066e-01
-2.773521983996033669e+00 -8.453473046422004700e+00 -3.890669497428405066e-01
-3.684532726183533669e+00 -8.986798241734504700e+00 -3.612501772819030066e-01
-3.545250499621033669e+00 -8.905377343297004700e+00 -3.588850649772155066e-01
-3.409264171496033669e+00 -8.825787499547004700e+00 -3.565657290397155066e-01
-3.276085460558533669e+00 -8.747784569859504700e+00 -3.543074282584655066e-01
-3.146324718371033669e+00 -8.671734765172004700e+00 -3.520949038444030066e-01
-3.019615733996033669e+00 -8.597638085484504700e+00 -3.499434145865905066e-01
-2.895226085558533669e+00 -8.524762108922004700e+00 -3.478224429069030066e-01
-2.774132335558533669e+00 -8.453839257359504700e+00 -3.457625063834655066e-01
-3.685143077746033669e+00 -8.987286522984504700e+00 -3.140394839225280066e-01
-3.545982921496033669e+00 -8.905743554234504700e+00 -3.122236880240905066e-01
-3.409996593371033669e+00 -8.826153710484504700e+00 -3.107130679069030066e-01
-3.276695812121033669e+00 -8.748150780797004700e+00 -3.089735659537780066e-01
-3.146935069933533669e+00 -8.672223046422004700e+00 -3.072950991569030066e-01
-3.020226085558533669e+00 -8.598004296422004700e+00 -3.056471499381530066e-01
-2.895836437121033669e+00 -8.525128319859504700e+00 -3.038008364615905066e-01
-2.774742687121033669e+00 -8.454205468297004700e+00 -3.022291811881530066e-01
-3.685875499621033669e+00 -8.987652733922004700e+00 -2.670729311881530066e-01
-3.546593273058533669e+00 -8.906109765172004700e+00 -2.658217104850280066e-01
-3.410606944933533669e+00 -8.826519921422004700e+00 -2.646010073600280066e-01
-3.277306163683533669e+00 -8.748516991734504700e+00 -2.634108218131530066e-01
-3.147667491808533669e+00 -8.672589257359504700e+00 -2.622511538444030066e-01
-3.020836437121033669e+00 -8.598370507359504700e+00 -2.611220034537780066e-01
-2.896568858996033669e+00 -8.525494530797004700e+00 -2.600081118522155066e-01
-2.775353038683533669e+00 -8.454571679234504700e+00 -2.589247378287780066e-01
-3.686485851183533669e+00 -8.988018944859504700e+00 -2.198469790397155066e-01
-3.547203624621033669e+00 -8.906475976109504700e+00 -2.194197329459655066e-01
-3.411217296496033669e+00 -8.826886132359504700e+00 -2.187483462272155066e-01
-3.278038585558533669e+00 -8.748883202672004700e+00 -2.180922182975280066e-01
-3.148277843371033669e+00 -8.672955468297004700e+00 -2.174513491569030066e-01
-3.021446788683533669e+00 -8.598736718297004700e+00 -2.168409975944030066e-01
-2.897179210558533669e+00 -8.525860741734504700e+00 -2.162306460319030066e-01
-2.775963390246033669e+00 -8.455059960484504700e+00 -2.153914126334655066e-01
-3.687218273058533669e+00 -8.988385155797004700e+00 -1.728804263053405066e-01
-3.547936046496033669e+00 -8.906842187047004700e+00 -1.727736147819030066e-01
-3.411949718371033669e+00 -8.827252343297004700e+00 -1.726515444694030066e-01
-3.278648937121033669e+00 -8.749249413609504700e+00 -1.725294741569030066e-01
-3.148888194933533669e+00 -8.673321679234504700e+00 -1.724226626334655066e-01
-3.022179210558533669e+00 -8.599102929234504700e+00 -1.723158511100280066e-01
-2.897789562121033669e+00 -8.526349022984504700e+00 -1.722090395865905066e-01
-2.776695812121033669e+00 -8.455426171422004700e+00 -1.721022280631530066e-01
-3.687828624621033669e+00 -8.988751366734504700e+00 -1.256697329459655066e-01
-3.548546398058533669e+00 -8.907208397984504700e+00 -1.263716372428405066e-01
-3.412560069933533669e+00 -8.827618554234504700e+00 -1.267988833365905066e-01
-3.279259288683533669e+00 -8.749615624547004700e+00 -1.272108706412780066e-01
-3.149498546496033669e+00 -8.673687890172004700e+00 -1.276228579459655066e-01
-3.022789562121033669e+00 -8.599469140172004700e+00 -1.280348452506530066e-01
-2.898399913683533669e+00 -8.526715233922004700e+00 -1.284163149772155066e-01
-2.777306163683533669e+00 -8.455792382359504700e+00 -1.285689028678405066e-01
-3.688438976183533669e+00 -8.989117577672004700e+00 -7.871843900065300659e-02
-3.549156749621033669e+00 -8.907696679234504700e+00 -7.972551907877800659e-02
-3.413170421496033669e+00 -8.827984765172004700e+00 -8.070208157877800659e-02
-3.279991710558533669e+00 -8.749981835484504700e+00 -8.166338528971550659e-02
-3.150230968371033669e+00 -8.674054101109504700e+00 -8.259417142252800659e-02
-3.023399913683533669e+00 -8.599835351109504700e+00 -8.350969876627800659e-02
-2.899010265246033669e+00 -8.527081444859504700e+00 -8.440996732096550659e-02
-2.777916515246033669e+00 -8.456158593297004700e+00 -8.527971829752800659e-02
-3.689171398058533669e+00 -8.989605858922004700e+00 -3.150774564127800659e-02
-3.549889171496033669e+00 -8.908062890172004700e+00 -3.307940091471550659e-02
-3.413902843371033669e+00 -8.828350976109504700e+00 -3.484942044596550659e-02
-3.280602062121033669e+00 -8.750348046422004700e+00 -3.634478177409050659e-02
-3.150841319933533669e+00 -8.674420312047004700e+00 -3.780962552409050659e-02
-3.024010265246033669e+00 -8.600201562047004700e+00 -3.922869290690300659e-02
-2.899742687121033669e+00 -8.527447655797004700e+00 -4.040361966471550659e-02
-2.778526866808533669e+00 -8.456524804234504700e+00 -4.176165189127800659e-02
-3.689781749621033669e+00 -8.989972069859504700e+00 1.570294771809699341e-02
-3.550499523058533669e+00 -8.908429101109504700e+00 1.332257662434699341e-02
-3.414513194933533669e+00 -8.828839257359504700e+00 1.124738131184699341e-02
-3.281212413683533669e+00 -8.750714257359504700e+00 9.202703577471993412e-03
-3.151451671496033669e+00 -8.674786522984504700e+00 7.219060999346993412e-03
-3.024742687121033669e+00 -8.600567772984504700e+00 5.281194788409493412e-03
-2.900353038683533669e+00 -8.527813866734504700e+00 3.373846155596993412e-03
-2.779137218371033669e+00 -8.456891015172004700e+00 1.756414514971993412e-03
-1.778038585558533669e+00 -5.207867577672004700e+00 -6.191084536490905066e-01
-1.716637218371033669e+00 -5.213116601109504700e+00 -6.175825747428405066e-01
-1.654991710558533669e+00 -5.216412499547004700e+00 -6.160872134147155066e-01
-1.593346202746033669e+00 -5.219708397984504700e+00 -6.146071108756530066e-01
-1.532188976183533669e+00 -5.222882226109504700e+00 -6.131270083365905066e-01
-1.471275890246033669e+00 -5.226178124547004700e+00 -6.116621645865905066e-01
-1.410484874621033669e+00 -5.229474022984504700e+00 -6.101973208365905066e-01
-1.349693858996033669e+00 -5.230816796422004700e+00 -6.087782534537780066e-01
-1.898277843371033669e+00 -5.601056054234504700e+00 -6.140730532584655066e-01
-1.831993663683533669e+00 -5.604107812047004700e+00 -6.125013979850280066e-01
-1.766686046496033669e+00 -5.609478905797004700e+00 -6.109297427115905066e-01
-1.700768077746033669e+00 -5.612408593297004700e+00 -6.093733462272155066e-01
-1.635338390246033669e+00 -5.615338280797004700e+00 -6.078322085319030066e-01
-1.570152843371033669e+00 -5.618267968297004700e+00 -6.062910708365905066e-01
-1.504601085558533669e+00 -5.618878319859504700e+00 -6.047804507194030066e-01
-1.440025890246033669e+00 -5.621808007359504700e+00 -6.032545718131530066e-01
-2.046349132433533669e+00 -6.085064843297004700e+00 -6.100905093131530066e-01
-1.974571788683533669e+00 -6.087140038609504700e+00 -6.084120425162780066e-01
-1.903038585558533669e+00 -6.089093163609504700e+00 -6.067488345084655066e-01
-1.831749523058533669e+00 -6.091168358922004700e+00 -6.050856265006530066e-01
-1.760948741808533669e+00 -6.093243554234504700e+00 -6.034224184928405066e-01
-1.690514171496033669e+00 -6.095318749547004700e+00 -6.017897280631530066e-01
-1.620079601183533669e+00 -6.097271874547004700e+00 -6.001417788444030066e-01
-1.550377452746033669e+00 -6.099347069859504700e+00 -5.985090884147155066e-01
-2.227989757433533669e+00 -6.679181054234504700e+00 -6.069929751334655066e-01
-2.150597179308533669e+00 -6.683941796422004700e+00 -6.051771792350280066e-01
-2.072350108996033669e+00 -6.684796288609504700e+00 -6.033919009147155066e-01
-1.994225108996033669e+00 -6.685772851109504700e+00 -6.015913638053405066e-01
-1.916832530871033669e+00 -6.686627343297004700e+00 -5.998060854850280066e-01
-1.839806163683533669e+00 -6.687481835484504700e+00 -5.980360659537780066e-01
-1.762901866808533669e+00 -6.688336327672004700e+00 -5.962660464225280066e-01
-1.685753429308533669e+00 -6.685528710484504700e+00 -5.945265444694030066e-01
-2.449181163683533669e+00 -7.402325585484504700e+00 -6.036513003287780066e-01
-2.365807140246033669e+00 -7.413556054234504700e+00 -6.022017153678405066e-01
-2.282555187121033669e+00 -7.424664452672004700e+00 -6.007673891959655066e-01
-2.199303233996033669e+00 -7.435894921422004700e+00 -5.993178042350280066e-01
-2.116539562121033669e+00 -7.447003319859504700e+00 -5.978987368522155066e-01
-2.035484874621033669e+00 -7.463849022984504700e+00 -5.967085513053405066e-01
-1.949425304308533669e+00 -7.460675194859504700e+00 -5.946791323600280066e-01
-1.864586437121033669e+00 -7.459576562047004700e+00 -5.927412661490905066e-01
-2.769859874621033669e+00 -8.451153710484504700e+00 -6.062605532584655066e-01
-2.651329601183533669e+00 -8.381695702672004700e+00 -6.012709292350280066e-01
-2.535240733996033669e+00 -8.313824608922004700e+00 -5.966169985709655066e-01
-2.421227062121033669e+00 -8.246930077672004700e+00 -5.920393618522155066e-01
-2.309776866808533669e+00 -8.181744530797004700e+00 -5.875685366569030066e-01
-2.200523937121033669e+00 -8.117779687047004700e+00 -5.831892641959655066e-01
-2.093102062121033669e+00 -8.054913476109504700e+00 -5.788710268912780066e-01
-1.988121593371033669e+00 -7.993512108922004700e+00 -5.748732241569030066e-01
-2.770470226183533669e+00 -8.451519921422004700e+00 -5.627272280631530066e-01
-2.651939952746033669e+00 -8.382061913609504700e+00 -5.584089907584655066e-01
-2.535851085558533669e+00 -8.314190819859504700e+00 -5.541975649772155066e-01
-2.421837413683533669e+00 -8.247296288609504700e+00 -5.500471743522155066e-01
-2.310387218371033669e+00 -8.182110741734504700e+00 -5.460035952506530066e-01
-2.201134288683533669e+00 -8.118145897984504700e+00 -5.420210513053405066e-01
-2.093712413683533669e+00 -8.055279687047004700e+00 -5.381148013053405066e-01
-1.988731944933533669e+00 -7.993878319859504700e+00 -5.343001040397155066e-01
-2.771080577746033669e+00 -8.451886132359504700e+00 -5.194227847037780066e-01
-2.652550304308533669e+00 -8.382428124547004700e+00 -5.155623110709655066e-01
-2.536461437121033669e+00 -8.314557030797004700e+00 -5.115492495475280066e-01
-2.422447765246033669e+00 -8.247662499547004700e+00 -5.078413638053405066e-01
-2.310997569933533669e+00 -8.182476952672004700e+00 -5.042097720084655066e-01
-2.201744640246033669e+00 -8.118512108922004700e+00 -5.006544741569030066e-01
-2.094322765246033669e+00 -8.055645897984504700e+00 -4.973738345084655066e-01
-1.989342296496033669e+00 -7.994122460484504700e+00 -4.939558657584655066e-01
-2.771690929308533669e+00 -8.452252343297004700e+00 -4.758742007194030066e-01
-2.653160655871033669e+00 -8.382794335484504700e+00 -4.724714907584655066e-01
-2.537193858996033669e+00 -8.314923241734504700e+00 -4.691298159537780066e-01
-2.423058116808533669e+00 -8.248028710484504700e+00 -4.658491763053405066e-01
-2.311607921496033669e+00 -8.182843163609504700e+00 -4.626448306022155066e-01
-2.202354991808533669e+00 -8.118878319859504700e+00 -4.595015200553405066e-01
-2.094933116808533669e+00 -8.056012108922004700e+00 -4.564039858756530066e-01
-1.989952648058533669e+00 -7.994488671422004700e+00 -4.533980044303405066e-01
-2.772301280871033669e+00 -8.452618554234504700e+00 -4.325850161490905066e-01
-2.653893077746033669e+00 -8.383160546422004700e+00 -4.296095522819030066e-01
-2.537804210558533669e+00 -8.315289452672004700e+00 -4.267103823600280066e-01
-2.423668468371033669e+00 -8.248394921422004700e+00 -4.238722475944030066e-01
-2.312218273058533669e+00 -8.183209374547004700e+00 -4.210798891959655066e-01
-2.202965343371033669e+00 -8.119244530797004700e+00 -4.183485659537780066e-01
-2.095543468371033669e+00 -8.056378319859504700e+00 -4.156630190787780066e-01
-1.990562999621033669e+00 -7.994854882359504700e+00 -4.130385073600280066e-01
-2.773033702746033669e+00 -8.452984765172004700e+00 -3.890516909537780066e-01
-2.654503429308533669e+00 -8.383526757359504700e+00 -3.865339907584655066e-01
-2.538414562121033669e+00 -8.315655663609504700e+00 -3.840773257194030066e-01
-2.424278819933533669e+00 -8.248761132359504700e+00 -3.816511782584655066e-01
-2.312828624621033669e+00 -8.183575585484504700e+00 -3.793013247428405066e-01
-2.203575694933533669e+00 -8.119610741734504700e+00 -3.769819888053405066e-01
-2.096153819933533669e+00 -8.056744530797004700e+00 -3.747084292350280066e-01
-1.991051280871033669e+00 -7.995221093297004700e+00 -3.724806460319030066e-01
-2.773644054308533669e+00 -8.453350976109504700e+00 -3.457472475944030066e-01
-2.655113780871033669e+00 -8.383892968297004700e+00 -3.436873110709655066e-01
-2.539024913683533669e+00 -8.316021874547004700e+00 -3.416578921256530066e-01
-2.424889171496033669e+00 -8.249127343297004700e+00 -3.396742495475280066e-01
-2.313438976183533669e+00 -8.183941796422004700e+00 -3.377363833365905066e-01
-2.204186046496033669e+00 -8.119976952672004700e+00 -3.358290347037780066e-01
-2.096764171496033669e+00 -8.056988671422004700e+00 -3.339674624381530066e-01
-1.991661632433533669e+00 -7.995587304234504700e+00 -3.321364077506530066e-01
-2.774254405871033669e+00 -8.453717187047004700e+00 -3.022139223990905066e-01
-2.655724132433533669e+00 -8.384259179234504700e+00 -3.006117495475280066e-01
-2.539635265246033669e+00 -8.316388085484504700e+00 -2.992537173209655066e-01
-2.425499523058533669e+00 -8.249493554234504700e+00 -2.976973208365905066e-01
-2.314049327746033669e+00 -8.184308007359504700e+00 -2.961714419303405066e-01
-2.204796398058533669e+00 -8.120343163609504700e+00 -2.946913393912780066e-01
-2.097374523058533669e+00 -8.057354882359504700e+00 -2.930128725944030066e-01
-1.992271983996033669e+00 -7.995953515172004700e+00 -2.915785464225280066e-01
-2.774864757433533669e+00 -8.454083397984504700e+00 -2.589247378287780066e-01
-2.656334483996033669e+00 -8.384625390172004700e+00 -2.577498110709655066e-01
-2.540245616808533669e+00 -8.316632226109504700e+00 -2.566206606803405066e-01
-2.426109874621033669e+00 -8.249859765172004700e+00 -2.554915102897155066e-01
-2.314659679308533669e+00 -8.184674218297004700e+00 -2.543928774772155066e-01
-2.205406749621033669e+00 -8.120709374547004700e+00 -2.533247622428405066e-01
-2.097862804308533669e+00 -8.057721093297004700e+00 -2.522719057975280066e-01
-1.992882335558533669e+00 -7.996319726109504700e+00 -2.512343081412780066e-01
-2.775475108996033669e+00 -8.454449608922004700e+00 -2.153914126334655066e-01
-2.656944835558533669e+00 -8.384991601109504700e+00 -2.149031313834655066e-01
-2.540855968371033669e+00 -8.316998437047004700e+00 -2.142012270865905066e-01
-2.426720226183533669e+00 -8.250225976109504700e+00 -2.135145815787780066e-01
-2.315270030871033669e+00 -8.184918358922004700e+00 -2.128431948600280066e-01
-2.206017101183533669e+00 -8.121075585484504700e+00 -2.121870669303405066e-01
-2.098473155871033669e+00 -8.058087304234504700e+00 -2.115309390006530066e-01
-1.993492687121033669e+00 -7.996685937047004700e+00 -2.106764468131530066e-01
-2.776085460558533669e+00 -8.454815819859504700e+00 -1.721022280631530066e-01
-2.657555187121033669e+00 -8.385357812047004700e+00 -1.718428286490905066e-01
-2.541466319933533669e+00 -8.317364647984504700e+00 -1.715681704459655066e-01
-2.427330577746033669e+00 -8.250592187047004700e+00 -1.713240298209655066e-01
-2.315880382433533669e+00 -8.185284569859504700e+00 -1.710646304069030066e-01
-2.206627452746033669e+00 -8.121319726109504700e+00 -1.708204897819030066e-01
-2.099083507433533669e+00 -8.058453515172004700e+00 -1.705763491569030066e-01
-1.994103038683533669e+00 -7.996930077672004700e+00 -1.703474673209655066e-01
-2.776817882433533669e+00 -8.455182030797004700e+00 -1.285841616569030066e-01
-2.658165538683533669e+00 -8.385724022984504700e+00 -1.289961489615905066e-01
-2.542076671496033669e+00 -8.317730858922004700e+00 -1.291639956412780066e-01
-2.427940929308533669e+00 -8.250958397984504700e+00 -1.293471011100280066e-01
-2.316490733996033669e+00 -8.185650780797004700e+00 -1.295149477897155066e-01
-2.207237804308533669e+00 -8.121685937047004700e+00 -1.296827944694030066e-01
-2.099693858996033669e+00 -8.058819726109504700e+00 -1.298506411490905066e-01
-1.994713390246033669e+00 -7.997296288609504700e+00 -1.297896059928405066e-01
-2.777428233996033669e+00 -8.455548241734504700e+00 -8.529497708659050659e-02
-2.658775890246033669e+00 -8.386090233922004700e+00 -8.592058743815300659e-02
-2.542687023058533669e+00 -8.318097069859504700e+00 -8.654619778971550659e-02
-2.428551280871033669e+00 -8.251324608922004700e+00 -8.714129056315300659e-02
-2.317101085558533669e+00 -8.186016991734504700e+00 -8.773638333659050659e-02
-2.207848155871033669e+00 -8.122052147984504700e+00 -8.831621732096550659e-02
-2.100304210558533669e+00 -8.059185937047004700e+00 -8.889605130534050659e-02
-1.995323741808533669e+00 -7.997662499547004700e+00 -8.946062650065300659e-02
-2.778038585558533669e+00 -8.455914452672004700e+00 -4.177691068034050659e-02
-2.659508312121033669e+00 -8.386456444859504700e+00 -4.286028470377800659e-02
-2.543297374621033669e+00 -8.318463280797004700e+00 -4.414202298502800659e-02
-2.429161632433533669e+00 -8.251690819859504700e+00 -4.517962064127800659e-02
-2.317711437121033669e+00 -8.186383202672004700e+00 -4.618670071940300659e-02
-2.208458507433533669e+00 -8.122418358922004700e+00 -4.717852200846550659e-02
-2.100914562121033669e+00 -8.059552147984504700e+00 -4.794146146159050659e-02
-1.995934093371033669e+00 -7.998028710484504700e+00 -4.890276517252800659e-02
-2.778648937121033669e+00 -8.456280663609504700e+00 1.741155725909493412e-03
-2.660118663683533669e+00 -8.386822655797004700e+00 -1.360501627800658753e-05
-2.543907726183533669e+00 -8.318829491734504700e+00 -1.508966344403006588e-03
-2.429771983996033669e+00 -8.252057030797004700e+00 -2.989068883465506588e-03
-2.318321788683533669e+00 -8.186749413609504700e+00 -4.423395055340506588e-03
-2.209068858996033669e+00 -8.122784569859504700e+00 -5.827203649090506588e-03
-2.101524913683533669e+00 -8.059918358922004700e+00 -7.215753453778006588e-03
-1.996544444933533669e+00 -7.998394921422004700e+00 -8.360162633465506588e-03
-1.349449718371033669e+00 -5.230816796422004700e+00 -6.087629946647155066e-01
-1.289146983996033669e+00 -5.233624413609504700e+00 -6.073286684928405066e-01
-1.228722179308533669e+00 -5.234478905797004700e+00 -6.059248598990905066e-01
-1.168297374621033669e+00 -5.235455468297004700e+00 -6.045210513053405066e-01
-1.108238780871033669e+00 -5.236309960484504700e+00 -6.031172427115905066e-01
-1.048424327746033669e+00 -5.237164452672004700e+00 -6.017286929069030066e-01
-9.890981558710336685e-01 -5.241558983922004700e+00 -6.005537661490905066e-01
-9.303823355585336685e-01 -5.246319726109504700e+00 -5.995466860709655066e-01
-1.439781749621033669e+00 -5.621808007359504700e+00 -6.032545718131530066e-01
-1.374840343371033669e+00 -5.622052147984504700e+00 -6.017592104850280066e-01
-1.310753429308533669e+00 -5.624737694859504700e+00 -6.002638491569030066e-01
-1.246056163683533669e+00 -5.624981835484504700e+00 -5.987684878287780066e-01
-1.181969249621033669e+00 -5.625348046422004700e+00 -5.973036440787780066e-01
-1.118004405871033669e+00 -5.625592187047004700e+00 -5.958388003287780066e-01
-1.053673351183533669e+00 -5.623516991734504700e+00 -5.943892153678405066e-01
-9.908071402460336685e-01 -5.627667382359504700e+00 -5.931379946647155066e-01
-1.550133312121033669e+00 -6.099224999547004700e+00 -5.985090884147155066e-01
-1.479942882433533669e+00 -6.098614647984504700e+00 -5.969069155631530066e-01
-1.410240733996033669e+00 -6.098004296422004700e+00 -5.953200015006530066e-01
-1.340416515246033669e+00 -6.097271874547004700e+00 -5.937330874381530066e-01
-1.271202648058533669e+00 -6.096661522984504700e+00 -5.921614321647155066e-01
-1.202232921496033669e+00 -6.096051171422004700e+00 -5.905897768912780066e-01
-1.133385265246033669e+00 -6.095318749547004700e+00 -5.890333804069030066e-01
-1.064903819933533669e+00 -6.094708397984504700e+00 -5.874769839225280066e-01
-1.685509288683533669e+00 -6.685528710484504700e+00 -5.945265444694030066e-01
-1.609703624621033669e+00 -6.686871483922004700e+00 -5.927717837272155066e-01
-1.533531749621033669e+00 -6.684674218297004700e+00 -5.910475405631530066e-01
-1.457359874621033669e+00 -6.682476952672004700e+00 -5.893232973990905066e-01
-1.381676280871033669e+00 -6.680157616734504700e+00 -5.875990542350280066e-01
-1.306480968371033669e+00 -6.677960351109504700e+00 -5.859053286490905066e-01
-1.231285655871033669e+00 -6.675763085484504700e+00 -5.841963442740905066e-01
-1.156212413683533669e+00 -6.669903710484504700e+00 -5.825178774772155066e-01
-1.864220226183533669e+00 -7.459454491734504700e+00 -5.927260073600280066e-01
-1.779137218371033669e+00 -7.455059960484504700e+00 -5.908186587272155066e-01
-1.694420421496033669e+00 -7.450665429234504700e+00 -5.889113100944030066e-01
-1.609825694933533669e+00 -7.446270897984504700e+00 -5.870039614615905066e-01
-1.525963390246033669e+00 -7.441876366734504700e+00 -5.851271304069030066e-01
-1.442467296496033669e+00 -7.437481835484504700e+00 -5.832502993522155066e-01
-1.359093273058533669e+00 -7.433209374547004700e+00 -5.813734682975280066e-01
-1.276451671496033669e+00 -7.428936913609504700e+00 -5.795118960319030066e-01
-1.987633312121033669e+00 -7.993023827672004700e+00 -5.748427065787780066e-01
-1.884728038683533669e+00 -7.932721093297004700e+00 -5.706312807975280066e-01
-1.783531749621033669e+00 -7.873394921422004700e+00 -5.666792544303405066e-01
-1.683800304308533669e+00 -7.815045312047004700e+00 -5.628035220084655066e-01
-1.586144054308533669e+00 -7.757916405797004700e+00 -5.590040835319030066e-01
-1.498741710558533669e+00 -7.750225976109504700e+00 -5.570356997428405066e-01
-1.405479991808533669e+00 -7.705914452672004700e+00 -5.537398013053405066e-01
-1.316612804308533669e+00 -7.679913476109504700e+00 -5.513441714225280066e-01
-1.988243663683533669e+00 -7.993390038609504700e+00 -5.342848452506530066e-01
-1.885216319933533669e+00 -7.933087304234504700e+00 -5.306379946647155066e-01
-1.784020030871033669e+00 -7.873761132359504700e+00 -5.270521792350280066e-01
-1.684288585558533669e+00 -7.815411522984504700e+00 -5.235273989615905066e-01
-1.586632335558533669e+00 -7.758282616734504700e+00 -5.200636538444030066e-01
-1.499229991808533669e+00 -7.750103905797004700e+00 -5.181868227897155066e-01
-1.406090343371033669e+00 -7.706036522984504700e+00 -5.151961001334655066e-01
-1.317223155871033669e+00 -7.680157616734504700e+00 -5.127852114615905066e-01
-1.988854015246033669e+00 -7.993634179234504700e+00 -4.939406069694030066e-01
-1.885826671496033669e+00 -7.933331444859504700e+00 -4.906447085319030066e-01
-1.784630382433533669e+00 -7.874127343297004700e+00 -4.872114809928405066e-01
-1.684898937121033669e+00 -7.815777733922004700e+00 -4.840376528678405066e-01
-1.587242687121033669e+00 -7.758526757359504700e+00 -4.809248598990905066e-01
-1.499718273058533669e+00 -7.749981835484504700e+00 -4.791395815787780066e-01
-1.406578624621033669e+00 -7.706280663609504700e+00 -4.766371401725280066e-01
-1.317711437121033669e+00 -7.680279687047004700e+00 -4.744246157584655066e-01
-1.989464366808533669e+00 -7.994000390172004700e+00 -4.533674868522155066e-01
-1.886437023058533669e+00 -7.933697655797004700e+00 -4.504530581412780066e-01
-1.785240733996033669e+00 -7.874493554234504700e+00 -4.475844057975280066e-01
-1.685509288683533669e+00 -7.816143944859504700e+00 -4.447462710319030066e-01
-1.587853038683533669e+00 -7.758892968297004700e+00 -4.419844302115905066e-01
-1.500328624621033669e+00 -7.749859765172004700e+00 -4.403212222037780066e-01
-1.407188976183533669e+00 -7.706402733922004700e+00 -4.378950747428405066e-01
-1.318321788683533669e+00 -7.680401757359504700e+00 -4.358656557975280066e-01
-1.990074718371033669e+00 -7.994366601109504700e+00 -4.130232485709655066e-01
-1.887047374621033669e+00 -7.934063866734504700e+00 -4.104750307975280066e-01
-1.785851085558533669e+00 -7.874859765172004700e+00 -4.079573306022155066e-01
-1.686119640246033669e+00 -7.816388085484504700e+00 -4.054701479850280066e-01
-1.588463390246033669e+00 -7.759259179234504700e+00 -4.030440005240905066e-01
-1.500816905871033669e+00 -7.749615624547004700e+00 -4.014876040397155066e-01
-1.407677257433533669e+00 -7.706524804234504700e+00 -3.993513735709655066e-01
-1.318810069933533669e+00 -7.680645897984504700e+00 -3.975203188834655066e-01
-1.990685069933533669e+00 -7.994732812047004700e+00 -3.724653872428405066e-01
-1.887657726183533669e+00 -7.934430077672004700e+00 -3.702681216178405066e-01
-1.786461437121033669e+00 -7.875225976109504700e+00 -3.681166323600280066e-01
-1.686729991808533669e+00 -7.816754296422004700e+00 -3.659956606803405066e-01
-1.588951671496033669e+00 -7.759625390172004700e+00 -3.639052065787780066e-01
-1.501305187121033669e+00 -7.749493554234504700e+00 -3.624556216178405066e-01
-1.408287608996033669e+00 -7.706768944859504700e+00 -3.605940493522155066e-01
-1.319420421496033669e+00 -7.680767968297004700e+00 -3.589766177115905066e-01
-1.991295421496033669e+00 -7.995099022984504700e+00 -3.321211489615905066e-01
-1.888268077746033669e+00 -7.934796288609504700e+00 -3.302900942740905066e-01
-1.787071788683533669e+00 -7.875470116734504700e+00 -3.284895571647155066e-01
-1.687218273058533669e+00 -7.817120507359504700e+00 -3.267195376334655066e-01
-1.589562023058533669e+00 -7.759991601109504700e+00 -3.249800356803405066e-01
-1.501793468371033669e+00 -7.749371483922004700e+00 -3.236525210319030066e-01
-1.408775890246033669e+00 -7.706891015172004700e+00 -3.220656069694030066e-01
-1.319908702746033669e+00 -7.680890038609504700e+00 -3.206312807975280066e-01
-1.991905773058533669e+00 -7.995465233922004700e+00 -2.915785464225280066e-01
-1.888878429308533669e+00 -7.935162499547004700e+00 -2.900984438834655066e-01
-1.787682140246033669e+00 -7.875836327672004700e+00 -2.888624819694030066e-01
-1.687828624621033669e+00 -7.817486718297004700e+00 -2.874434145865905066e-01
-1.590172374621033669e+00 -7.760235741734504700e+00 -2.860396059928405066e-01
-1.502281749621033669e+00 -7.749249413609504700e+00 -2.848341616569030066e-01
-1.409386241808533669e+00 -7.707013085484504700e+00 -2.833235415397155066e-01
-1.320519054308533669e+00 -7.681012108922004700e+00 -2.820875796256530066e-01
-1.992516124621033669e+00 -7.995831444859504700e+00 -2.512343081412780066e-01
-1.889488780871033669e+00 -7.935528710484504700e+00 -2.501204165397155066e-01
-1.788170421496033669e+00 -7.876202538609504700e+00 -2.490370425162780066e-01
-1.688438976183533669e+00 -7.817852929234504700e+00 -2.479536684928405066e-01
-1.590782726183533669e+00 -7.760601952672004700e+00 -2.469008120475280066e-01
-1.502770030871033669e+00 -7.749127343297004700e+00 -2.458326968131530066e-01
-1.409874523058533669e+00 -7.707135155797004700e+00 -2.447950991569030066e-01
-1.321007335558533669e+00 -7.681256249547004700e+00 -2.437422427115905066e-01
-1.993126476183533669e+00 -7.996197655797004700e+00 -2.106764468131530066e-01
-1.889977062121033669e+00 -7.935772851109504700e+00 -2.101423891959655066e-01
-1.788780773058533669e+00 -7.876568749547004700e+00 -2.094099673209655066e-01
-1.689049327746033669e+00 -7.818219140172004700e+00 -2.086928042350280066e-01
-1.591393077746033669e+00 -7.760968163609504700e+00 -2.079756411490905066e-01
-1.503258312121033669e+00 -7.748883202672004700e+00 -2.070295962272155066e-01
-1.410484874621033669e+00 -7.707379296422004700e+00 -2.062666567740905066e-01
-1.321617687121033669e+00 -7.681378319859504700e+00 -2.052138003287780066e-01
-1.993736827746033669e+00 -7.996563866734504700e+00 -1.703474673209655066e-01
-1.890587413683533669e+00 -7.936139062047004700e+00 -1.699659975944030066e-01
-1.789391124621033669e+00 -7.876934960484504700e+00 -1.695845278678405066e-01
-1.689659679308533669e+00 -7.818463280797004700e+00 -1.692030581412780066e-01
-1.591881358996033669e+00 -7.761334374547004700e+00 -1.688368472037780066e-01
-1.503746593371033669e+00 -7.748761132359504700e+00 -1.680281313834655066e-01
-1.410973155871033669e+00 -7.707501366734504700e+00 -1.675245913444030066e-01
-1.322228038683533669e+00 -7.681500390172004700e+00 -1.668837222037780066e-01
-1.994225108996033669e+00 -7.996808007359504700e+00 -1.297896059928405066e-01
-1.891197765246033669e+00 -7.936505272984504700e+00 -1.299879702506530066e-01
-1.790001476183533669e+00 -7.877301171422004700e+00 -1.299574526725280066e-01
-1.690270030871033669e+00 -7.818829491734504700e+00 -1.299421938834655066e-01
-1.592491710558533669e+00 -7.761700585484504700e+00 -1.299116763053405066e-01
-1.504234874621033669e+00 -7.748639062047004700e+00 -1.292555483756530066e-01
-1.411583507433533669e+00 -7.707623437047004700e+00 -1.290114077506530066e-01
-1.322716319933533669e+00 -7.681744530797004700e+00 -1.283400210319030066e-01
-1.994835460558533669e+00 -7.997174218297004700e+00 -8.946062650065300659e-02
-1.891808116808533669e+00 -7.936871483922004700e+00 -8.979631986002800659e-02
-1.790611827746033669e+00 -7.877667382359504700e+00 -9.013201321940300659e-02
-1.690758312121033669e+00 -7.819195702672004700e+00 -9.046770657877800659e-02
-1.593102062121033669e+00 -7.761944726109504700e+00 -9.078814114909050659e-02
-1.504723155871033669e+00 -7.748516991734504700e+00 -9.026934232096550659e-02
-1.412071788683533669e+00 -7.707745507359504700e+00 -9.028460111002800659e-02
-1.323326671496033669e+00 -7.681866601109504700e+00 -9.002520169596550659e-02
-1.995445812121033669e+00 -7.997540429234504700e+00 -4.891802396159050659e-02
-1.892418468371033669e+00 -7.937237694859504700e+00 -4.961992825846550659e-02
-1.791222179308533669e+00 -7.877911522984504700e+00 -5.052019681315300659e-02
-1.691368663683533669e+00 -7.819561913609504700e+00 -5.119158353190300659e-02
-1.593712413683533669e+00 -7.762310937047004700e+00 -5.186297025065300659e-02
-1.505211437121033669e+00 -7.748394921422004700e+00 -5.149675931315300659e-02
-1.412682140246033669e+00 -7.707989647984504700e+00 -5.155779446940300659e-02
-1.323814952746033669e+00 -7.681988671422004700e+00 -5.149675931315300659e-02
-1.996056163683533669e+00 -7.997906640172004700e+00 -8.375421422528006588e-03
-1.893028819933533669e+00 -7.937603905797004700e+00 -9.641900914715506588e-03
-1.791832530871033669e+00 -7.878277733922004700e+00 -1.069475736002800659e-02
-1.691979015246033669e+00 -7.819928124547004700e+00 -1.171709622721550659e-02
-1.594322765246033669e+00 -7.762677147984504700e+00 -1.273943509440300659e-02
-1.505699718371033669e+00 -7.748150780797004700e+00 -1.251055325846550659e-02
-1.413170421496033669e+00 -7.708111718297004700e+00 -1.304461087565300659e-02
-1.324425304308533669e+00 -7.682110741734504700e+00 -1.296831693034050659e-02
-9.301381949335336685e-01 -5.246319726109504700e+00 -5.995314272819030066e-01
-8.715444449335336685e-01 -5.252423241734504700e+00 -5.984938296256530066e-01
-8.128286246210336685e-01 -5.256695702672004700e+00 -5.975020083365905066e-01
-7.538686636835336685e-01 -5.261090233922004700e+00 -5.965101870475280066e-01
-6.952749136835336685e-01 -5.265362694859504700e+00 -5.955183657584655066e-01
-6.366811636835336685e-01 -5.269635155797004700e+00 -5.945265444694030066e-01
-5.779653433710336685e-01 -5.274029687047004700e+00 -5.935194643912780066e-01
-5.193715933710336685e-01 -5.276471093297004700e+00 -5.925734194694030066e-01
-9.906850699335336685e-01 -5.627667382359504700e+00 -5.931379946647155066e-01
-9.280629996210336685e-01 -5.632550194859504700e+00 -5.921156557975280066e-01
-8.658071402460336685e-01 -5.639752343297004700e+00 -5.910475405631530066e-01
-8.030629996210336685e-01 -5.644635155797004700e+00 -5.900099429069030066e-01
-7.406850699335336685e-01 -5.649640038609504700e+00 -5.889876040397155066e-01
-6.781850699335336685e-01 -5.654522851109504700e+00 -5.879652651725280066e-01
-6.154409293085336685e-01 -5.657086327672004700e+00 -5.869581850944030066e-01
-5.531850699335336685e-01 -5.661969140172004700e+00 -5.859358462272155066e-01
-1.064659679308533669e+00 -6.094708397984504700e+00 -5.874617251334655066e-01
-9.966665152460336685e-01 -6.094830468297004700e+00 -5.861189516959655066e-01
-9.294057730585336685e-01 -6.099835351109504700e+00 -5.850050600944030066e-01
-8.620229605585336685e-01 -6.104962304234504700e+00 -5.839064272819030066e-01
-7.950063589960336685e-01 -6.109967187047004700e+00 -5.828077944694030066e-01
-7.279897574335336685e-01 -6.114972069859504700e+00 -5.817091616569030066e-01
-6.612172964960336685e-01 -6.125470116734504700e+00 -5.808699282584655066e-01
-5.951772574335336685e-01 -6.140362694859504700e+00 -5.802443179069030066e-01
-1.155846202746033669e+00 -6.669781640172004700e+00 -5.825178774772155066e-01
-1.081749523058533669e+00 -6.668194726109504700e+00 -5.808241518912780066e-01
-1.007652843371033669e+00 -6.665509179234504700e+00 -5.792830141959655066e-01
-9.346547964960336685e-01 -6.671490624547004700e+00 -5.781233462272155066e-01
-8.619008902460336685e-01 -6.677472069859504700e+00 -5.769636782584655066e-01
-7.892690543085336685e-01 -6.683453515172004700e+00 -5.758040102897155066e-01
-7.172475699335336685e-01 -6.697735741734504700e+00 -5.750105532584655066e-01
-6.451040152460336685e-01 -6.709332421422004700e+00 -5.742781313834655066e-01
-1.276207530871033669e+00 -7.428814843297004700e+00 -5.794966372428405066e-01
-1.193443858996033669e+00 -7.421368554234504700e+00 -5.776655825553405066e-01
-1.111046398058533669e+00 -7.414044335484504700e+00 -5.758345278678405066e-01
-1.028648937121033669e+00 -7.406598046422004700e+00 -5.740034731803405066e-01
-9.484487418085336685e-01 -7.412091210484504700e+00 -5.727064761100280066e-01
-8.684926871210336685e-01 -7.418438866734504700e+00 -5.714399966178405066e-01
-7.882924918085336685e-01 -7.424664452672004700e+00 -5.701582583365905066e-01
-7.083364371210336685e-01 -7.430890038609504700e+00 -5.688917788444030066e-01
-1.316368663683533669e+00 -7.679791405797004700e+00 -5.513289126334655066e-01
-1.228355968371033669e+00 -7.654034569859504700e+00 -5.486738833365905066e-01
-1.141075694933533669e+00 -7.628521874547004700e+00 -5.462324770865905066e-01
-1.054283702746033669e+00 -7.603131249547004700e+00 -5.438063296256530066e-01
-9.684682730585336685e-01 -7.578106835484504700e+00 -5.414106997428405066e-01
-8.835073355585336685e-01 -7.553204491734504700e+00 -5.390455874381530066e-01
-7.989126089960336685e-01 -7.528546288609504700e+00 -5.366804751334655066e-01
-7.152944449335336685e-01 -7.504132226109504700e+00 -5.345442446647155066e-01
-1.316856944933533669e+00 -7.679913476109504700e+00 -5.127699526725280066e-01
-1.228844249621033669e+00 -7.654156640172004700e+00 -5.104811343131530066e-01
-1.141563976183533669e+00 -7.628643944859504700e+00 -5.082075747428405066e-01
-1.054771983996033669e+00 -7.603253319859504700e+00 -5.059492739615905066e-01
-9.690786246210336685e-01 -7.578228905797004700e+00 -5.037214907584655066e-01
-8.839956168085336685e-01 -7.553448632359504700e+00 -5.015089663444030066e-01
-7.994008902460336685e-01 -7.528668358922004700e+00 -4.992964419303405066e-01
-7.157827261835336685e-01 -7.504254296422004700e+00 -4.971296938834655066e-01
-1.317467296496033669e+00 -7.680035546422004700e+00 -4.744246157584655066e-01
-1.229454601183533669e+00 -7.654278710484504700e+00 -4.722883852897155066e-01
-1.142174327746033669e+00 -7.628888085484504700e+00 -4.699843081412780066e-01
-1.055382335558533669e+00 -7.603497460484504700e+00 -4.678938540397155066e-01
-9.695669058710336685e-01 -7.578350976109504700e+00 -4.658186587272155066e-01
-8.846059683710336685e-01 -7.553570702672004700e+00 -4.637739809928405066e-01
-8.000112418085336685e-01 -7.528790429234504700e+00 -4.619276675162780066e-01
-7.163930777460336685e-01 -7.504376366734504700e+00 -4.599135073600280066e-01
-1.317955577746033669e+00 -7.680157616734504700e+00 -4.358656557975280066e-01
-1.229942882433533669e+00 -7.654522851109504700e+00 -4.338972720084655066e-01
-1.142662608996033669e+00 -7.629010155797004700e+00 -4.319594057975280066e-01
-1.055870616808533669e+00 -7.603619530797004700e+00 -4.300367983756530066e-01
-9.701772574335336685e-01 -7.578595116734504700e+00 -4.281294497428405066e-01
-8.850942496210336685e-01 -7.553692772984504700e+00 -4.262373598990905066e-01
-8.004995230585336685e-01 -7.529034569859504700e+00 -4.243605288444030066e-01
-7.168813589960336685e-01 -7.504620507359504700e+00 -4.224989565787780066e-01
-1.318565929308533669e+00 -7.680401757359504700e+00 -3.975203188834655066e-01
-1.230553233996033669e+00 -7.654644921422004700e+00 -3.957197817740905066e-01
-1.143272960558533669e+00 -7.629132226109504700e+00 -3.939497622428405066e-01
-1.056480968371033669e+00 -7.603741601109504700e+00 -3.921797427115905066e-01
-9.706655386835336685e-01 -7.578717187047004700e+00 -3.904402407584655066e-01
-8.857046011835336685e-01 -7.553814843297004700e+00 -3.887007388053405066e-01
-8.011098746210336685e-01 -7.529156640172004700e+00 -3.869917544303405066e-01
-7.174917105585336685e-01 -7.504742577672004700e+00 -3.852827700553405066e-01
-1.319054210558533669e+00 -7.680523827672004700e+00 -3.589613589225280066e-01
-1.231041515246033669e+00 -7.654766991734504700e+00 -3.573439272819030066e-01
-1.143883312121033669e+00 -7.629254296422004700e+00 -3.557264956412780066e-01
-1.056969249621033669e+00 -7.603985741734504700e+00 -3.541243227897155066e-01
-9.712758902460336685e-01 -7.578839257359504700e+00 -3.525526675162780066e-01
-8.861928824335336685e-01 -7.554058983922004700e+00 -3.509810122428405066e-01
-8.015981558710336685e-01 -7.529278710484504700e+00 -3.494246157584655066e-01
-7.181020621210336685e-01 -7.504864647984504700e+00 -3.478682192740905066e-01
-1.319664562121033669e+00 -7.680645897984504700e+00 -3.206160220084655066e-01
-1.231651866808533669e+00 -7.655011132359504700e+00 -3.191664370475280066e-01
-1.144371593371033669e+00 -7.629498437047004700e+00 -3.177168520865905066e-01
-1.057579601183533669e+00 -7.604107812047004700e+00 -3.162825259147155066e-01
-9.717641714960336685e-01 -7.579083397984504700e+00 -3.148634585319030066e-01
-8.868032339960336685e-01 -7.554181054234504700e+00 -3.134596499381530066e-01
-8.022085074335336685e-01 -7.529522851109504700e+00 -3.120558413444030066e-01
-7.185903433710336685e-01 -7.504986718297004700e+00 -3.106672915397155066e-01
-1.320152843371033669e+00 -7.680890038609504700e+00 -2.820723208365905066e-01
-1.232140148058533669e+00 -7.655133202672004700e+00 -2.807905825553405066e-01
-1.144981944933533669e+00 -7.629620507359504700e+00 -2.797072085319030066e-01
-1.058189952746033669e+00 -7.604229882359504700e+00 -2.784407290397155066e-01
-9.723745230585336685e-01 -7.579205468297004700e+00 -2.771742495475280066e-01
-8.874135855585336685e-01 -7.554303124547004700e+00 -2.759382876334655066e-01
-8.028188589960336685e-01 -7.529644921422004700e+00 -2.744887026725280066e-01
-7.192006949335336685e-01 -7.505230858922004700e+00 -2.732679995475280066e-01
-1.320763194933533669e+00 -7.681012108922004700e+00 -2.437422427115905066e-01
-1.232750499621033669e+00 -7.655255272984504700e+00 -2.426130923209655066e-01
-1.145470226183533669e+00 -7.629742577672004700e+00 -2.414992007194030066e-01
-1.058678233996033669e+00 -7.604474022984504700e+00 -2.404005679069030066e-01
-9.729848746210336685e-01 -7.579327538609504700e+00 -2.393019350944030066e-01
-8.879018668085336685e-01 -7.554547265172004700e+00 -2.382185610709655066e-01
-8.033071402460336685e-01 -7.529766991734504700e+00 -2.371351870475280066e-01
-7.196889761835336685e-01 -7.505352929234504700e+00 -2.360670718131530066e-01
-1.321251476183533669e+00 -7.681134179234504700e+00 -2.052138003287780066e-01
-1.233238780871033669e+00 -7.655377343297004700e+00 -2.044508608756530066e-01
-1.146080577746033669e+00 -7.629986718297004700e+00 -2.035048159537780066e-01
-1.059288585558533669e+00 -7.604596093297004700e+00 -2.025587710319030066e-01
-9.734731558710336685e-01 -7.579571679234504700e+00 -2.016279848990905066e-01
-8.885122183710336685e-01 -7.554669335484504700e+00 -2.006971987662780066e-01
-8.039174918085336685e-01 -7.529889062047004700e+00 -1.997816714225280066e-01
-7.202993277460336685e-01 -7.505474999547004700e+00 -1.986677798209655066e-01
-1.321861827746033669e+00 -7.681256249547004700e+00 -1.668837222037780066e-01
-1.233849132433533669e+00 -7.655621483922004700e+00 -1.660902651725280066e-01
-1.146568858996033669e+00 -7.630108788609504700e+00 -1.652968081412780066e-01
-1.059776866808533669e+00 -7.604718163609504700e+00 -1.645186098990905066e-01
-9.740835074335336685e-01 -7.579693749547004700e+00 -1.637556704459655066e-01
-8.890004996210336685e-01 -7.554791405797004700e+00 -1.629927309928405066e-01
-8.044057730585336685e-01 -7.530133202672004700e+00 -1.622297915397155066e-01
-7.209096793085336685e-01 -7.505719140172004700e+00 -1.614821108756530066e-01
-1.322350108996033669e+00 -7.681500390172004700e+00 -1.283400210319030066e-01
-1.234337413683533669e+00 -7.655743554234504700e+00 -1.279280337272155066e-01
-1.147179210558533669e+00 -7.630230858922004700e+00 -1.273024233756530066e-01
-1.060387218371033669e+00 -7.604840233922004700e+00 -1.266920718131530066e-01
-9.745717886835336685e-01 -7.579815819859504700e+00 -1.260817202506530066e-01
-8.896108511835336685e-01 -7.555035546422004700e+00 -1.254713686881530066e-01
-8.050161246210336685e-01 -7.530255272984504700e+00 -1.248762759147155066e-01
-7.213979605585336685e-01 -7.505841210484504700e+00 -1.240828188834655066e-01
-1.322960460558533669e+00 -7.681622460484504700e+00 -9.002520169596550659e-02
-1.234947765246033669e+00 -7.655865624547004700e+00 -8.956743802409050659e-02
-1.147667491808533669e+00 -7.630352929234504700e+00 -8.910967435221550659e-02
-1.060875499621033669e+00 -7.605084374547004700e+00 -8.866716946940300659e-02
-9.751821402460336685e-01 -7.579937890172004700e+00 -8.820940579752800659e-02
-8.900991324335336685e-01 -7.555157616734504700e+00 -8.776690091471550659e-02
-8.055044058710336685e-01 -7.530377343297004700e+00 -8.732439603190300659e-02
-7.220083121210336685e-01 -7.505963280797004700e+00 -8.689714993815300659e-02
-1.323448741808533669e+00 -7.681744530797004700e+00 -5.149675931315300659e-02
-1.235558116808533669e+00 -7.656109765172004700e+00 -5.120684232096550659e-02
-1.148277843371033669e+00 -7.630597069859504700e+00 -5.111528958659050659e-02
-1.061485851183533669e+00 -7.605206444859504700e+00 -5.084063138346550659e-02
-9.756704214960336685e-01 -7.580182030797004700e+00 -5.055071439127800659e-02
-8.907094839960336685e-01 -7.555279687047004700e+00 -5.026079739909050659e-02
-8.061147574335336685e-01 -7.530621483922004700e+00 -4.978777493815300659e-02
-7.224965933710336685e-01 -7.506207421422004700e+00 -4.951311673502800659e-02
-1.324059093371033669e+00 -7.681988671422004700e+00 -1.296831693034050659e-02
-1.236046398058533669e+00 -7.656231835484504700e+00 -1.305986966471550659e-02
-1.148766124621033669e+00 -7.630719140172004700e+00 -1.293779935221550659e-02
-1.061974132433533669e+00 -7.605328515172004700e+00 -1.281572903971550659e-02
-9.762807730585336685e-01 -7.580304101109504700e+00 -1.269365872721550659e-02
-8.911977652460336685e-01 -7.555401757359504700e+00 -1.257158841471550659e-02
-8.067251089960336685e-01 -7.530743554234504700e+00 -1.244951810221550659e-02
-7.231069449335336685e-01 -7.506329491734504700e+00 -1.212908353190300659e-02
