-2.252708956599235535e+01 -6.782867819070816040e+00 1.490951548330485821e+00
-2.719249483942985535e+01 -8.316681295633316040e+00 1.735916147939860821e+00
-2.775951144099235535e+01 -8.723907858133316040e+00 1.775482187978923321e+00
-2.780333468317985535e+01 -8.982330709695816040e+00 1.788574228994548321e+00
-2.882103487849235535e+01 -9.549347311258316040e+00 1.852310190908610821e+00
-2.932274386286735535e+01 -9.968658834695816040e+00 1.889923105947673321e+00
-2.991246554255485535e+01 -1.042764320969581604e+01 1.933380137197673321e+00
-1.355443331599235535e+01 -5.030670553445816040e+00 -1.131133930757641792e-01
-1.338121554255485535e+01 -5.089996725320816040e+00 -1.040191547945141792e-01
-1.252074190974235535e+01 -4.903595358133316040e+00 -6.849669385701417923e-02
-1.283653780817985535e+01 -5.129547506570816040e+00 -7.891844678670167923e-02
-1.274168917536735535e+01 -5.208771139383316040e+00 -7.334898877888917923e-02
-1.273570773005485535e+01 -5.321075826883316040e+00 -7.121275831013917923e-02
-1.269505831599235535e+01 -5.420074850320816040e+00 -6.774901319295167923e-02
-1.264928194880485535e+01 -5.516998678445816040e+00 -6.439207959920167923e-02
-1.915868136286735535e+01 -6.907379537820816040e+00 -2.437896626070141792e-01
-1.908116671442985535e+01 -7.051666647195816040e+00 -2.380218403413891792e-01
-1.252098605036735535e+01 -4.901764303445816040e+00 -1.097105909138917923e-02
-1.499522921442985535e+01 -5.911651998758316040e+00 -9.262083936482667923e-02
-1.477953097224235535e+01 -5.966095358133316040e+00 -8.288573194295167923e-02
-1.462975069880485535e+01 -6.042877584695816040e+00 -7.577513623982667923e-02
-1.448656222224235535e+01 -6.119781881570816040e+00 -6.857298780232667923e-02
-1.434544894099235535e+01 -6.195587545633316040e+00 -6.146239209920167923e-02
-2.189745089411735535e+01 -7.822174459695816040e+00 -2.351837055757641792e-01
-2.204759737849235535e+01 -8.070099264383316040e+00 -2.357177631929516792e-01
-1.252110812067985535e+01 -4.899933248758316040e+00 4.684449266642332077e-02
-2.288853976130485535e+01 -8.774811178445816040e+00 -2.522735493257641792e-01
-2.299034640192985535e+01 -9.021881490945816040e+00 -2.510681049898266792e-01
-2.151061007380485535e+01 -8.668732076883316040e+00 -2.044219868257641792e-01
-1.617918917536735535e+01 -6.780182272195816040e+00 -4.853819776326417923e-02
-1.489915987849235535e+01 -6.415436178445816040e+00 -9.368886239826679230e-03
-2.319127413630485535e+01 -8.252106100320816040e+00 -1.647949116304516792e-01
-2.334300753474235535e+01 -8.512482076883316040e+00 -1.634979145601391792e-01
-1.252135226130485535e+01 -4.898102194070816040e+00 1.046753032132983208e-01
-2.414842745661735535e+01 -9.228424459695816040e+00 -1.739044087007641792e-01
-2.428441378474235535e+01 -9.500030905008316040e+00 -1.724395649507641792e-01
-2.435863253474235535e+01 -9.752716451883316040e+00 -1.694183247163891792e-01
-2.501707980036735535e+01 -1.023599281907081604e+01 -1.800994770601391792e-01
-1.489952608942985535e+01 -6.413238912820816040e+00 6.077576708048582077e-02
-2.409154269099235535e+01 -8.549957662820816040e+00 -7.345580030232667923e-02
-2.445372530817985535e+01 -8.891022115945816040e+00 -7.562254834920167923e-02
-1.252159640192985535e+01 -4.896271139383316040e+00 1.622009379789233208e-01
-2.512535616755485535e+01 -9.578888326883316040e+00 -7.838438916951417923e-02
-2.541026827692985535e+01 -9.915069967508316040e+00 -7.853697706013917923e-02
-2.570470187067985535e+01 -1.026248207688331604e+01 -7.868956495076417923e-02
-2.600157687067985535e+01 -1.061721840500831604e+01 -7.876585889607667923e-02
-1.489977023005485535e+01 -6.410919576883316040e+00 1.312866313382983208e-01
-2.465990206599235535e+01 -8.736359030008316040e+00 3.102112840861082077e-02
-2.494041964411735535e+01 -9.054474264383316040e+00 3.291321825236082077e-02
-1.252184054255485535e+01 -4.894440084695816040e+00 2.200317485257983208e-01
-2.566466280817985535e+01 -9.770538717508316040e+00 3.361512254923582077e-02
-2.593785616755485535e+01 -1.010733070969581604e+01 3.550721239298582077e-02
-2.635374972224235535e+01 -1.050601235032081604e+01 3.561402391642332077e-02
-2.673058077692985535e+01 -1.089798012375831604e+01 3.645325731486082077e-02
-1.490001437067985535e+01 -6.408722311258316040e+00 2.014312846586108208e-01
-2.501402804255485535e+01 -8.850983053445816040e+00 1.437988383695483208e-01
-2.537206026911735535e+01 -9.199005514383316040e+00 1.460876567289233208e-01
-1.252208468317985535e+01 -4.892731100320816040e+00 2.775573832914233208e-01
-2.601842257380485535e+01 -9.894684225320816040e+00 1.519928080961108208e-01
-2.653087374567985535e+01 -1.032376137375831604e+01 1.534576518461108208e-01
-2.690099093317985535e+01 -1.071048012375831604e+01 1.565399272367358208e-01
-2.707115694880485535e+01 -1.102688637375831604e+01 1.615753276273608208e-01
-1.490025851130485535e+01 -6.406525045633316040e+00 2.719421489164233208e-01
-2.522887179255485535e+01 -8.918976217508316040e+00 2.601318461820483208e-01
-2.595299288630485535e+01 -9.394562155008316040e+00 2.626800639554858208e-01
-1.252232882380485535e+01 -4.890900045633316040e+00 3.353729350492358208e-01
-2.631444308161735535e+01 -9.997711569070816040e+00 2.747497661039233208e-01
-2.698143526911735535e+01 -1.048696938157081604e+01 2.785186870023608208e-01
-2.715306612849235535e+01 -1.080227699875831604e+01 2.847442729398608208e-01
-2.802721163630485535e+01 -1.139614906907081604e+01 2.876587016507983208e-01
-1.490062472224235535e+01 -6.404327780008316040e+00 3.420715434476733208e-01
-2.594420382380485535e+01 -9.153961569070816040e+00 3.788910014554858208e-01
-2.618028780817985535e+01 -9.468536764383316040e+00 3.856659037992358208e-01
-1.252257296442985535e+01 -4.889068990945816040e+00 3.928985698148608208e-01
-2.703062960505485535e+01 -1.025296059250831604e+01 3.998260600492358208e-01
-2.723290011286735535e+01 -1.057608070969581604e+01 4.071960551664233208e-01
-2.797545382380485535e+01 -1.111135903000831604e+01 4.151764018461108208e-01
-2.830760714411735535e+01 -1.150112953782081604e+01 4.231567485257983208e-01
-1.490086886286735535e+01 -6.402008444070816040e+00 4.125824077054858208e-01
-2.622374483942985535e+01 -9.243317037820816040e+00 5.020599467679858208e-01
-2.641039034724235535e+01 -9.543487936258316040e+00 5.101928813382983208e-01
-1.252281710505485535e+01 -4.887237936258316040e+00 4.504242045804858208e-01
-2.731346651911735535e+01 -1.035110512375831604e+01 5.296630961820483208e-01
-2.748924776911735535e+01 -1.066702309250831604e+01 5.383453471586108208e-01
-2.836778780817985535e+01 -1.125637856125831604e+01 5.512237651273608208e-01
-2.859227511286735535e+01 -1.160769692063331604e+01 5.607147319242358208e-01
-1.490111300349235535e+01 -6.399811178445816040e+00 4.827270610257983208e-01
-2.649303194880485535e+01 -9.329132467508316040e+00 6.284942729398608208e-01
-2.682787081599235535e+01 -9.682526022195816040e+00 6.393890483304858208e-01
-1.252293917536735535e+01 -4.885406881570816040e+00 5.082550151273608208e-01
-2.757201144099235535e+01 -1.044021645188331604e+01 6.627044780179858208e-01
-2.821361300349235535e+01 -1.093154945969581604e+01 6.775360209867358208e-01
-2.869603487849235535e+01 -1.137673988938331604e+01 6.911621196195483208e-01
-2.930455538630485535e+01 -1.188113442063331604e+01 7.064819438382983208e-01
-1.490147921442985535e+01 -6.397613912820816040e+00 5.532379252836108208e-01
-1.159496065974235535e+01 -4.354278951883316040e+00 5.453491313382983208e-01
-1.192772433161735535e+01 -4.569244772195816040e+00 5.535278422757983208e-01
-1.228368136286735535e+01 -4.799225240945816040e+00 5.622711284086108208e-01
-1.266014620661735535e+01 -5.044220358133316040e+00 5.715942485257983208e-01
-1.304088351130485535e+01 -5.298248678445816040e+00 5.812225444242358208e-01
-1.345067355036735535e+01 -5.571564108133316040e+00 5.915832621976733208e-01
-1.388976046442985535e+01 -5.864410787820816040e+00 6.026916606351733208e-01
-1.436314913630485535e+01 -6.180206686258316040e+00 6.146545512601733208e-01
-1.143675753474235535e+01 -4.299835592508316040e+00 5.953521830961108208e-01
-1.178941866755485535e+01 -4.520050436258316040e+00 6.056366069242358208e-01
-1.216734835505485535e+01 -4.756378561258316040e+00 6.163635356351733208e-01
-1.253770968317985535e+01 -4.998077780008316040e+00 6.275329692289233208e-01
-1.298375460505485535e+01 -5.275055319070816040e+00 6.404724223539233208e-01
-1.342467257380485535e+01 -5.559601217508316040e+00 6.536407573148608208e-01
-1.390099093317985535e+01 -5.866608053445816040e+00 6.682129008695483208e-01
-1.441612765192985535e+01 -6.199127584695816040e+00 6.836242778226733208e-01
-1.159471651911735535e+01 -4.350738912820816040e+00 6.510009868070483208e-01
-1.195848605036735535e+01 -4.576202780008316040e+00 6.634826762601733208e-01
-1.234972140192985535e+01 -4.818756490945816040e+00 6.768951518461108208e-01
-1.253795382380485535e+01 -4.996246725320816040e+00 6.856079204007983208e-01
-1.309764620661735535e+01 -5.315216451883316040e+00 7.037506205961108208e-01
-1.349644991755485535e+01 -5.584747701883316040e+00 7.182617289945483208e-01
-1.392308565974235535e+01 -5.873077780008316040e+00 7.337799174711108208e-01
-1.438194796442985535e+01 -6.183258444070816040e+00 7.504577739164233208e-01
-1.152672335505485535e+01 -4.326324850320816040e+00 7.020416362211108208e-01
-1.184349581599235535e+01 -4.535065084695816040e+00 7.147674662992358208e-01
-1.218028780817985535e+01 -4.757233053445816040e+00 7.286224467679858208e-01
-1.254173800349235535e+01 -4.995636373758316040e+00 7.434692485257983208e-01
-1.290233370661735535e+01 -5.240875631570816040e+00 7.585907084867358208e-01
-1.332433077692985535e+01 -5.517242819070816040e+00 7.758636577054858208e-01
-1.382188937067985535e+01 -5.831573873758316040e+00 7.957763774320483208e-01
-1.436534640192985535e+01 -6.174347311258316040e+00 8.178711039945483208e-01
-1.144579073786735535e+01 -4.297638326883316040e+00 7.516937358304858208e-01
-1.182396456599235535e+01 -4.526520162820816040e+00 7.684478862211108208e-01
-1.223216769099235535e+01 -4.773590475320816040e+00 7.865295512601733208e-01
-1.266820284724235535e+01 -5.039337545633316040e+00 8.059234721586108208e-01
-1.310973116755485535e+01 -5.315704733133316040e+00 8.258361918851733208e-01
-1.358971163630485535e+01 -5.615997701883316040e+00 8.475036723539233208e-01
-3.157018038630485535e+01 -1.273977699875831604e+01 1.492248545400798321e+00
-3.193297335505485535e+01 -1.318057289719581604e+01 1.517242441885173321e+00
-1.164867159724235535e+01 -4.363556295633316040e+00 8.116760356351733208e-01
-2.884032198786735535e+01 -1.034597817063331604e+01 1.477905283682048321e+00
-2.961046358942985535e+01 -1.087820473313331604e+01 1.518844614736735821e+00
-2.992247530817985535e+01 -1.126223793625831604e+01 1.542495737783610821e+00
-3.075694796442985535e+01 -1.184622231125831604e+01 1.587158213369548321e+00
-3.127110812067985535e+01 -1.232705727219581604e+01 1.619766245596110821e+00
-3.192137667536735535e+01 -1.287149086594581604e+01 1.658309946767985821e+00
-3.274998995661735535e+01 -1.350125160813331604e+01 1.705596934072673321e+00
-2.882018038630485535e+01 -1.007461586594581604e+01 1.602783213369548321e+00
-2.961082980036735535e+01 -1.060488930344581604e+01 1.648391733877360821e+00
-2.991917940974235535e+01 -1.098196449875831604e+01 1.673614512197673321e+00
-3.075548312067985535e+01 -1.155789223313331604e+01 1.722503672353923321e+00
-3.124803683161735535e+01 -1.202310219407081604e+01 1.756805430166423321e+00
-3.191368624567985535e+01 -1.256594887375831604e+01 1.799407969228923321e+00
-3.263548800349235535e+01 -1.314419594407081604e+01 1.845153818838298321e+00
-3.339061495661735535e+01 -1.375137367844581604e+01 1.893112192861735821e+00
-2.932713839411735535e+01 -1.023867836594581604e+01 1.763580332510173321e+00
-2.991820284724235535e+01 -1.070523110032081604e+01 1.804031382314860821e+00
-3.058067843317985535e+01 -1.120950356125831604e+01 1.848541270010173321e+00
-3.123961398005485535e+01 -1.172756996750831604e+01 1.892761240713298321e+00
-3.195689913630485535e+01 -1.228030434250831604e+01 1.941223154775798321e+00
-3.282506319880485535e+01 -1.290652504563331604e+01 1.998809824697673321e+00
-3.365868136286735535e+01 -1.353677406907081604e+01 2.054611216299235821e+00
-3.356932589411735535e+01 -1.381716957688331604e+01 2.064331064932048321e+00
-2.991710421442985535e+01 -1.043020668625831604e+01 1.933670054189860821e+00
-3.064134737849235535e+01 -1.094766274094581604e+01 1.983978281728923321e+00
-3.145494601130485535e+01 -1.151150551438331604e+01 2.040527353994548321e+00
-3.228343722224235535e+01 -1.209866371750831604e+01 2.098724375478923321e+00
-3.248290011286735535e+01 -1.246963539719581604e+01 2.123458872549235821e+00
-3.392235323786735535e+01 -1.331741371750831604e+01 2.216522227041423321e+00
-3.309032198786735535e+01 -1.331045570969581604e+01 2.185287485830485821e+00
-3.389513155817985535e+01 -1.394155922532081604e+01 2.245529185049235821e+00
-1.264903780817985535e+01 -5.517242819070816040e+00 -6.437682081013917923e-02
-1.262877413630485535e+01 -5.624542623758316040e+00 -6.164549756795167923e-02
-1.260374972224235535e+01 -5.730133444070816040e+00 -5.903624463826417923e-02
-1.257848116755485535e+01 -5.836456686258316040e+00 -5.641173291951417923e-02
-1.255321261286735535e+01 -5.942779928445816040e+00 -5.378722120076417923e-02
-1.252782198786735535e+01 -6.049713522195816040e+00 -5.114745069295167923e-02
-1.250243136286735535e+01 -6.156647115945816040e+00 -4.850768018513917923e-02
-1.246898409724235535e+01 -6.260162740945816040e+00 -4.588316846638917923e-02
-1.434471651911735535e+01 -6.195709615945816040e+00 -6.143187452107667923e-02
-1.420274874567985535e+01 -6.269318014383316040e+00 -5.461119581013917923e-02
-1.414269015192985535e+01 -6.375519186258316040e+00 -5.050658155232667923e-02
-1.415135714411735535e+01 -6.511627584695816040e+00 -4.830931592732667923e-02
-1.411717745661735535e+01 -6.629425436258316040e+00 -4.505919385701417923e-02
-1.403819796442985535e+01 -6.727936178445816040e+00 -4.069518018513917923e-02
-1.396837374567985535e+01 -6.829498678445816040e+00 -3.628539014607667923e-02
-1.389879366755485535e+01 -6.930694967508316040e+00 -3.189085889607667923e-02
-1.489891573786735535e+01 -6.415802389383316040e+00 -9.338368661701679230e-03
-1.602086398005485535e+01 -7.013946920633316040e+00 -3.845213819295167923e-02
-1.594029757380485535e+01 -7.129181295633316040e+00 -3.352354932576417923e-02
-1.585436007380485535e+01 -7.242218405008316040e+00 -2.845763135701417923e-02
-1.577513644099235535e+01 -7.356964498758316040e+00 -2.357481885701417923e-02
-1.572911593317985535e+01 -7.486847311258316040e+00 -1.962279248982667923e-02
-1.568309542536735535e+01 -7.616241842508316040e+00 -1.567076612263917923e-02
-1.563719698786735535e+01 -7.745880514383316040e+00 -1.171873975545167923e-02
-1.489915987849235535e+01 -6.413483053445816040e+00 6.079102586954832077e-02
-2.514415499567985535e+01 -1.075735512375831604e+01 -1.733856098726391792e-01
-2.518199679255485535e+01 -1.101113930344581604e+01 -1.695556538179516792e-01
-1.862328097224235535e+01 -8.430694967508316040e+00 -1.544188428670167923e-02
-1.723204562067985535e+01 -7.995514303445816040e+00 1.947022508829832077e-02
-1.790050265192985535e+01 -8.461334615945816040e+00 7.766733877360820770e-03
-1.792162081599235535e+01 -8.643463522195816040e+00 1.071168016642332077e-02
-1.793028780817985535e+01 -8.821319967508316040e+00 1.348877977579832077e-02
-1.489940401911735535e+01 -6.411285787820816040e+00 1.313018901273608208e-01
-2.661424776911735535e+01 -1.135672035813331604e+01 -7.904051709920167923e-02
-2.715685030817985535e+01 -1.183682289719581604e+01 -8.337401319295167923e-02
-2.767992159724235535e+01 -1.232193031907081604e+01 -8.705138135701417923e-02
-1.723228976130485535e+01 -7.992950826883316040e+00 1.022949321195483208e-01
-2.744444796442985535e+01 -1.275149574875831604e+01 -7.141112256795167923e-02
-2.212743136286735535e+01 -1.057449379563331604e+01 2.551270555704832077e-02
-2.111815401911735535e+01 -1.031643715500831604e+01 4.727173876017332077e-02
-1.489964815974235535e+01 -6.409088522195816040e+00 2.014465434476733208e-01
-2.770396944880485535e+01 -1.179959145188331604e+01 3.561402391642332077e-02
-2.800414034724235535e+01 -1.218838539719581604e+01 3.785706590861082077e-02
-2.882994601130485535e+01 -1.281179848313331604e+01 3.359986376017332077e-02
-1.723265597224235535e+01 -7.990265280008316040e+00 1.855621440336108208e-01
-2.990404269099235535e+01 -1.385305824875831604e+01 3.346253465861082077e-02
-3.034447237849235535e+01 -1.434793129563331604e+01 3.498841356486082077e-02
-3.078343722224235535e+01 -1.485318031907081604e+01 3.598023485392332077e-02
-1.490001437067985535e+01 -6.406891256570816040e+00 2.719574077054858208e-01
-2.810533663630485535e+01 -1.195962563157081604e+01 1.660766704007983208e-01
-2.899095675349235535e+01 -1.259805336594581604e+01 1.656799418851733208e-01
-2.916319796442985535e+01 -1.295022621750831604e+01 1.713714702054858208e-01
-1.723302218317985535e+01 -7.987701803445816040e+00 2.683868510648608208e-01
-3.018480440974235535e+01 -1.397427406907081604e+01 1.781768901273608208e-01
-3.100072237849235535e+01 -1.464444008469581604e+01 1.799011332914233208e-01
-3.115660616755485535e+01 -1.502322426438331604e+01 1.865539653226733208e-01
-1.490025851130485535e+01 -6.404693990945816040e+00 3.420868022367358208e-01
-2.910692355036735535e+01 -1.236575356125831604e+01 2.984924418851733208e-01
-2.928148409724235535e+01 -1.271524086594581604e+01 3.061981303617358208e-01
-3.017247530817985535e+01 -1.337893715500831604e+01 3.113403422757983208e-01
-1.723326632380485535e+01 -7.985016256570816040e+00 3.516540629789233208e-01
-3.114183565974235535e+01 -1.439932289719581604e+01 3.250122172757983208e-01
-3.129747530817985535e+01 -1.477566567063331604e+01 3.321380717679858208e-01
-3.212254855036735535e+01 -1.547146645188331604e+01 3.390655620023608208e-01
-1.490050265192985535e+01 -6.402374655008316040e+00 4.125976664945483208e-01
-2.939879366755485535e+01 -1.248062172532081604e+01 4.404449565336108208e-01
-3.011839815974235535e+01 -1.306167641282081604e+01 4.499054057523608208e-01
-3.045628878474235535e+01 -1.349588051438331604e+01 4.590149028226733208e-01
-1.723363253474235535e+01 -7.982452780008316040e+00 4.344787700101733208e-01
-3.144029757380485535e+01 -1.452822914719581604e+01 4.788208110257983208e-01
-3.217845675349235535e+01 -1.517495766282081604e+01 4.899749858304858208e-01
-3.242455050349235535e+01 -1.560781899094581604e+01 4.999847514554858208e-01
-1.490086886286735535e+01 -6.400177389383316040e+00 4.827423198148608208e-01
-2.999290987849235535e+01 -1.271926918625831604e+01 5.865173442289233208e-01
-3.052928683161735535e+01 -1.322903481125831604e+01 5.989685161039233208e-01
-3.103441378474235535e+01 -1.373904457688331604e+01 6.116180522367358208e-01
-1.723399874567985535e+01 -7.979767233133316040e+00 5.173034770414233208e-01
-3.207774874567985535e+01 -1.480935707688331604e+01 6.382598979398608208e-01
-3.257506319880485535e+01 -1.535171547532081604e+01 6.519470317289233208e-01
-3.309666964411735535e+01 -1.591775551438331604e+01 6.662292582914233208e-01
-1.490111300349235535e+01 -6.397980123758316040e+00 5.532531840726733208e-01
-3.040086886286735535e+01 -1.288150063157081604e+01 7.371063334867358208e-01
-3.094237276911735535e+01 -1.339736977219581604e+01 7.529449565336108208e-01
-3.145262667536735535e+01 -1.391336098313331604e+01 7.688598735257983208e-01
-1.723424288630485535e+01 -7.977203756570816040e+00 6.005706889554858208e-01
-3.250975558161735535e+01 -1.499795570969581604e+01 8.023223979398608208e-01
-3.302696749567985535e+01 -1.555361977219581604e+01 8.195190532132983208e-01
-3.350121065974235535e+01 -1.610195961594581604e+01 8.365326030179858208e-01
-1.436668917536735535e+01 -6.182037740945816040e+00 6.147308452054858208e-01
-1.487877413630485535e+01 -6.523712545633316040e+00 6.277313334867358208e-01
-1.538866183161735535e+01 -6.875275045633316040e+00 6.410827739164233208e-01
-1.593700167536735535e+01 -7.254913717508316040e+00 6.554718120023608208e-01
-1.653014132380485535e+01 -7.665558248758316040e+00 6.710510356351733208e-01
-1.718211886286735535e+01 -8.115997701883316040e+00 6.881408793851733208e-01
-1.785423800349235535e+01 -8.589264303445816040e+00 7.060699565336108208e-01
-1.857689425349235535e+01 -9.100983053445816040e+00 7.254333598539233208e-01
-1.442003390192985535e+01 -6.201080709695816040e+00 6.837158305570483208e-01
-1.490086886286735535e+01 -6.530426412820816040e+00 6.988525493070483208e-01
-1.552953097224235535e+01 -6.931915670633316040e+00 7.172088725492358208e-01
-1.613341280817985535e+01 -7.336578756570816040e+00 7.358856303617358208e-01
-1.678343722224235535e+01 -7.773956686258316040e+00 7.560577495023608208e-01
-1.721776339411735535e+01 -8.129181295633316040e+00 7.718048198148608208e-01
-1.803209444880485535e+01 -8.667877584695816040e+00 7.972107036039233208e-01
-1.870335909724235535e+01 -9.157257467508316040e+00 8.194275004789233208e-01
-1.438536593317985535e+01 -6.184967428445816040e+00 7.505645854398608208e-01
-1.488036105036735535e+01 -6.519684225320816040e+00 7.686920268461108208e-01
-1.537315890192985535e+01 -6.863922506570816040e+00 7.871551616117358208e-01
-1.590196749567985535e+01 -7.234772115945816040e+00 8.070373637601733208e-01
-1.650182101130485535e+01 -7.647735983133316040e+00 8.292846782132983208e-01
-1.724010226130485535e+01 -8.136383444070816040e+00 8.559112651273608208e-01
-1.794566866755485535e+01 -8.625397115945816040e+00 8.822021586820483208e-01
-1.871483370661735535e+01 -9.159576803445816040e+00 9.109039409086108208e-01
-1.436937472224235535e+01 -6.176422506570816040e+00 8.180084330961108208e-01
-1.496129366755485535e+01 -6.550445944070816040e+00 8.415069682523608208e-01
-1.554405733942985535e+01 -6.933014303445816040e+00 8.655700786039233208e-01
-1.618553683161735535e+01 -7.353790670633316040e+00 8.920288188382983208e-01
-3.382286593317985535e+01 -1.523489418625831604e+01 1.472564707510173321e+00
-3.293517062067985535e+01 -1.516714516282081604e+01 1.456481943838298321e+00
-3.486461398005485535e+01 -1.637368813157081604e+01 1.533721934072673321e+00
-3.492162081599235535e+01 -1.674465981125831604e+01 1.550308237783610821e+00
-3.193797823786735535e+01 -1.318362465500831604e+01 1.517471323721110821e+00
-3.272020480036735535e+01 -1.380471840500831604e+01 1.558502207510173321e+00
-3.326476046442985535e+01 -1.434378090500831604e+01 1.591506968252360821e+00
-3.284813448786735535e+01 -1.448538246750831604e+01 1.589370737783610821e+00
-3.394054171442985535e+01 -1.528079262375831604e+01 1.643676768057048321e+00
-3.322984835505485535e+01 -1.529373207688331604e+01 1.630477915517985821e+00
-3.557799288630485535e+01 -1.669461098313331604e+01 1.734298716299235821e+00
-3.470201632380485535e+01 -1.663613930344581604e+01 1.714935312978923321e+00
-3.275218722224235535e+01 -1.350308266282081604e+01 1.705749521963298321e+00
-3.330431124567985535e+01 -1.403799477219581604e+01 1.741180430166423321e+00
-3.398875948786735535e+01 -1.464114418625831604e+01 1.783554087392985821e+00
-3.393419405817985535e+01 -1.494473305344581604e+01 1.795501719228923321e+00
-3.208165499567985535e+01 -1.446133461594581604e+01 1.730850229971110821e+00
-3.503722140192985535e+01 -1.609756508469581604e+01 1.871673594228923321e+00
-3.571251437067985535e+01 -1.675027504563331604e+01 1.915985117666423321e+00
-3.411217257380485535e+01 -1.635440102219581604e+01 1.861999521963298321e+00
-3.339623019099235535e+01 -1.375466957688331604e+01 1.893417368642985821e+00
-3.417345187067985535e+01 -1.438748207688331604e+01 1.943725596182048321e+00
-3.383080050349235535e+01 -1.456961098313331604e+01 1.942474375478923321e+00
-3.249937960505485535e+01 -1.432534828782081604e+01 1.894424448721110821e+00
-3.210118624567985535e+01 -1.446463051438331604e+01 1.889694224111735821e+00
-3.504808565974235535e+01 -1.609671059250831604e+01 2.045593271963298321e+00
-3.201451632380485535e+01 -1.505203285813331604e+01 1.913955698721110821e+00
-3.493480440974235535e+01 -1.673342934250831604e+01 2.071350107900798321e+00
-3.356798312067985535e+01 -1.381765785813331604e+01 2.064315806142985821e+00
-3.340416476130485535e+01 -1.406802406907081604e+01 2.070892344228923321e+00
-3.357091280817985535e+01 -1.445547524094581604e+01 2.094528208486735821e+00
-3.244762179255485535e+01 -1.429800453782081604e+01 2.050308237783610821e+00
-3.521117159724235535e+01 -1.582009926438331604e+01 2.210540781728923321e+00
-3.505894991755485535e+01 -1.609573403000831604e+01 2.219619761221110821e+00
-3.186827608942985535e+01 -1.497988930344581604e+01 2.064834604971110821e+00
-3.494237276911735535e+01 -1.673111000657081604e+01 2.245910654775798321e+00
-3.531395480036735535e+01 -1.450772133469581604e+01 2.324707041494548321e+00
-3.484471651911735535e+01 -1.465029945969581604e+01 2.313812266103923321e+00
-3.370714327692985535e+01 -1.450686684250831604e+01 2.265579233877360821e+00
-3.180504366755485535e+01 -1.401797524094581604e+01 2.172729502432048321e+00
-3.422936007380485535e+01 -1.538491860032081604e+01 2.327560435049235821e+00
-3.145287081599235535e+01 -1.447708168625831604e+01 2.182510386221110821e+00
-3.172423312067985535e+01 -1.490872231125831604e+01 2.213516245596110821e+00
-3.496532198786735535e+01 -1.673611488938331604e+01 2.421432505361735821e+00
-1.246898409724235535e+01 -6.260528951883316040e+00 -4.586790967732667923e-02
-1.243272921442985535e+01 -6.362945944070816040e+00 -4.277037549763917923e-02
-1.238231417536735535e+01 -6.458649069070816040e+00 -3.947447706013917923e-02
-1.233177706599235535e+01 -6.554596334695816040e+00 -3.614806104451417923e-02
-1.228136202692985535e+01 -6.650177389383316040e+00 -3.285216260701417923e-02
-1.224461886286735535e+01 -6.753448873758316040e+00 -3.004454541951417923e-02
-1.221715304255485535e+01 -6.861359030008316040e+00 -2.757262159138917923e-02
-1.218297335505485535e+01 -6.966095358133316040e+00 -2.517699170857667923e-02
-1.389842745661735535e+01 -6.931061178445816040e+00 -3.187560010701417923e-02
-1.383067843317985535e+01 -7.032745748758316040e+00 -2.781676221638917923e-02
-1.376634737849235535e+01 -7.136017233133316040e+00 -2.387999463826417923e-02
-1.370909640192985535e+01 -7.242950826883316040e+00 -1.980589795857667923e-02
-1.366063448786735535e+01 -7.353912740945816040e+00 -1.637267041951417923e-02
-1.362437960505485535e+01 -7.471954733133316040e+00 -1.367186475545167923e-02
-1.359642550349235535e+01 -7.594147115945816040e+00 -1.086424756795167923e-02
-1.356834933161735535e+01 -7.716949850320816040e+00 -8.056630380451679230e-03
-1.563695284724235535e+01 -7.746368795633316040e+00 -1.170348096638917923e-02
-1.558434054255485535e+01 -7.873077780008316040e+00 -7.843007333576679230e-03
-1.553160616755485535e+01 -7.999908834695816040e+00 -3.967274911701679230e-03
-1.547862765192985535e+01 -8.127350240945816040e+00 -7.628370076417922974e-05
-1.542564913630485535e+01 -8.254425436258316040e+00 3.799448721110820770e-03
-1.537254855036735535e+01 -8.382233053445816040e+00 7.705698721110820770e-03
-1.531957003474235535e+01 -8.509674459695816040e+00 1.159668993204832077e-02
-1.526646944880485535e+01 -8.637360006570816040e+00 1.548768114298582077e-02
-1.793065401911735535e+01 -8.822174459695816040e+00 1.348877977579832077e-02
-1.795750948786735535e+01 -9.010284811258316040e+00 1.655579637736082077e-02
-1.797166964411735535e+01 -9.194244772195816040e+00 1.947022508829832077e-02
-1.795946261286735535e+01 -9.367462545633316040e+00 2.299500536173582077e-02
-1.790953585505485535e+01 -9.522003561258316040e+00 2.732850145548582077e-02
-1.785521456599235535e+01 -9.675201803445816040e+00 3.176880907267332077e-02
-1.779478976130485535e+01 -9.824982076883316040e+00 3.633118700236082077e-02
-1.772142550349235535e+01 -9.968048483133316040e+00 4.071045946329832077e-02
-2.111131808161735535e+01 -1.031387367844581604e+01 4.739380907267332077e-02
-2.073424288630485535e+01 -1.034048500657081604e+01 5.790711473673582077e-02
-2.076683565974235535e+01 -1.056192055344581604e+01 6.152344774454832077e-02
-2.079991671442985535e+01 -1.078665199875831604e+01 6.520081590861082077e-02
-2.083324190974235535e+01 -1.101333656907081604e+01 6.890870165079832077e-02
-2.086705538630485535e+01 -1.124343910813331604e+01 7.267762254923582077e-02
-2.079710909724235535e+01 -1.142007485032081604e+01 7.810975145548582077e-02
-2.069066378474235535e+01 -1.157730141282081604e+01 8.410645555704832077e-02
-3.078722140192985535e+01 -1.485598793625831604e+01 3.596497606486082077e-02
-3.124461886286735535e+01 -1.538137856125831604e+01 3.829957079142332077e-02
-3.167442843317985535e+01 -1.590518227219581604e+01 4.039002489298582077e-02
-3.210838839411735535e+01 -1.644363442063331604e+01 4.272461961954832077e-02
-3.256041476130485535e+01 -1.700210610032081604e+01 4.510499071329832077e-02
-2.462169405817985535e+01 -1.319802895188331604e+01 1.374054057523608208e-01
-2.396764132380485535e+01 -1.310366860032081604e+01 1.499023539945483208e-01
-2.472826144099235535e+01 -1.376541176438331604e+01 1.470337016507983208e-01
-3.115831515192985535e+01 -1.502505531907081604e+01 1.865692241117358208e-01
-3.197533175349235535e+01 -1.572671547532081604e+01 1.887817485257983208e-01
-3.233214327692985535e+01 -1.622219887375831604e+01 1.943664653226733208e-01
-3.292638155817985535e+01 -1.684756508469581604e+01 1.987915141507983208e-01
-3.332738253474235535e+01 -1.738833656907081604e+01 2.046661479398608208e-01
-3.374547335505485535e+01 -1.795034828782081604e+01 2.107544047757983208e-01
-2.396800753474235535e+01 -1.309976235032081604e+01 2.707214457914233208e-01
-3.434935519099235535e+01 -1.898159828782081604e+01 2.248993022367358208e-01
-3.212413546442985535e+01 -1.547329750657081604e+01 3.390960795804858208e-01
-3.227403780817985535e+01 -1.586465492844581604e+01 3.473358256742358208e-01
-3.305699679255485535e+01 -1.657180824875831604e+01 3.558502299711108208e-01
-3.322813937067985535e+01 -1.699295082688331604e+01 3.645935161039233208e-01
-3.396092745661735535e+01 -1.770608559250831604e+01 3.731231791898608208e-01
-3.422691866755485535e+01 -1.819546547532081604e+01 3.823242289945483208e-01
-2.396849581599235535e+01 -1.309597817063331604e+01 3.915252787992358208e-01
-3.508373019099235535e+01 -1.937405434250831604e+01 4.004669291898608208e-01
-3.242613741755485535e+01 -1.560977211594581604e+01 5.000305278226733208e-01
-3.317296358942985535e+01 -1.629019203782081604e+01 5.119629008695483208e-01
-3.335826632380485535e+01 -1.671377602219581604e+01 5.221862895414233208e-01
-3.408519503474235535e+01 -1.741580238938331604e+01 5.349426371976733208e-01
-3.427635714411735535e+01 -1.786135903000831604e+01 5.457458598539233208e-01
-3.485887667536735535e+01 -1.851895180344581604e+01 5.586700541898608208e-01
-2.396898409724235535e+01 -1.309219399094581604e+01 5.129699809476733208e-01
-3.561131808161735535e+01 -1.965408363938331604e+01 5.835266215726733208e-01
-3.310045382380485535e+01 -1.592068520188331604e+01 6.662902934476733208e-01
-3.348888155817985535e+01 -1.643606606125831604e+01 6.797638041898608208e-01
-3.407286593317985535e+01 -1.705801430344581604e+01 6.953277690336108208e-01
-3.440172335505485535e+01 -1.756826820969581604e+01 7.090149028226733208e-01
-3.493614718317985535e+01 -1.819229164719581604e+01 7.249298198148608208e-01
-3.504723116755485535e+01 -1.861111488938331604e+01 7.370910746976733208e-01
-2.396947237849235535e+01 -1.308828774094581604e+01 6.337738139554858208e-01
-3.612755343317985535e+01 -1.992776528000831604e+01 7.709961039945483208e-01
-3.350511690974235535e+01 -1.610488930344581604e+01 8.366241557523608208e-01
-3.399583956599235535e+01 -1.667337074875831604e+01 8.543090922757983208e-01
-3.449767062067985535e+01 -1.726004067063331604e+01 8.725891215726733208e-01
-3.492198702692985535e+01 -1.782254067063331604e+01 8.901977641507983208e-01
-3.457542940974235535e+01 -1.800222817063331604e+01 8.967132670804858208e-01
-2.265221163630485535e+01 -1.215176430344581604e+01 7.271423442289233208e-01
-2.345970675349235535e+01 -1.281338539719581604e+01 7.472992045804858208e-01
-2.428917452692985535e+01 -1.350625649094581604e+01 7.684326274320483208e-01
-1.858226534724235535e+01 -9.104156881570816040e+00 7.255554301664233208e-01
-1.937560030817985535e+01 -9.665802389383316040e+00 7.468872172757983208e-01
-2.012975069880485535e+01 -1.022622719407081604e+01 7.680816752836108208e-01
-2.090355440974235535e+01 -1.081423988938331604e+01 7.902832133695483208e-01
-2.174583956599235535e+01 -1.145425453782081604e+01 8.144378764554858208e-01
-2.247997042536735535e+01 -1.205825844407081604e+01 8.371124370023608208e-01
-2.331566378474235535e+01 -1.273294106125831604e+01 8.624572856351733208e-01
-2.419603487849235535e+01 -1.345156899094581604e+01 8.894500834867358208e-01
-1.870836398005485535e+01 -9.160187155008316040e+00 8.195648295804858208e-01
-1.943944308161735535e+01 -9.693268209695816040e+00 8.438720805570483208e-01
-2.013377901911735535e+01 -1.022488442063331604e+01 8.673706157132983208e-01
-2.085045382380485535e+01 -1.078421059250831604e+01 8.925323588773608208e-01
-2.162584444880485535e+01 -1.138943520188331604e+01 9.197692973539233208e-01
-2.233727023005485535e+01 -1.198025551438331604e+01 9.460601909086108208e-01
-2.319530245661735535e+01 -1.266506996750831604e+01 9.773712260648608208e-01
-2.411058565974235535e+01 -1.340115395188331604e+01 1.010330210439860821e+00
-1.872069308161735535e+01 -9.162872701883316040e+00 9.111023051664233208e-01
-1.956993624567985535e+01 -9.752472311258316040e+00 9.429473979398608208e-01
-2.033849093317985535e+01 -1.032156410813331604e+01 9.731445414945483208e-01
-3.536107394099235535e+01 -1.802395668625831604e+01 1.430374155752360821e+00
-3.684715792536735535e+01 -1.914224281907081604e+01 1.489471445791423321e+00
-3.517674776911735535e+01 -1.865444985032081604e+01 1.452972422353923321e+00
-3.713219210505485535e+01 -2.005740395188331604e+01 1.528060923330485821e+00
-3.706346651911735535e+01 -2.040945473313331604e+01 1.541046152822673321e+00
-3.492101046442985535e+01 -1.674563637375831604e+01 1.550338755361735821e+00
-3.415245577692985535e+01 -1.672561684250831604e+01 1.537384043447673321e+00
-3.389549776911735535e+01 -1.694265785813331604e+01 1.542526255361735821e+00
-3.430174776911735535e+01 -1.748941078782081604e+01 1.570861826650798321e+00
-3.517394015192985535e+01 -1.828360024094581604e+01 1.616119395010173321e+00
-3.529930636286735535e+01 -1.871218910813331604e+01 1.635513315908610821e+00
-3.921324679255485535e+01 -2.115506020188331604e+01 1.792694102041423321e+00
-3.654601046442985535e+01 -2.012295570969581604e+01 1.712509165517985821e+00
-3.470128390192985535e+01 -1.663699379563331604e+01 1.714965830557048321e+00
-3.382262179255485535e+01 -1.656204262375831604e+01 1.695312510244548321e+00
-3.464671847224235535e+01 -1.730386391282081604e+01 1.742660532705485821e+00
-3.775633761286735535e+01 -1.920681801438331604e+01 1.882751475088298321e+00
-3.502586886286735535e+01 -1.820230141282081604e+01 1.788436899892985821e+00
-3.955028292536735535e+01 -2.091568031907081604e+01 1.989883433096110821e+00
-4.077574679255485535e+01 -2.197708168625831604e+01 2.058502207510173321e+00
-3.623961398005485535e+01 -1.995095863938331604e+01 1.886428843252360821e+00
-3.411107394099235535e+01 -1.635501137375831604e+01 1.861999521963298321e+00
-3.451842257380485535e+01 -1.688906899094581604e+01 1.894485483877360821e+00
-3.407335421442985535e+01 -1.701809731125831604e+01 1.890167246572673321e+00
-3.889098116755485535e+01 -1.976626625657081604e+01 2.123992930166423321e+00
-3.534447237849235535e+01 -1.835855141282081604e+01 1.979629526846110821e+00
-4.109801241755485535e+01 -2.171304360032081604e+01 2.262176523916423321e+00
-3.876781222224235535e+01 -2.090542641282081604e+01 2.172607432119548321e+00
-3.630748507380485535e+01 -1.998135414719581604e+01 2.075820933096110821e+00
-3.493382784724235535e+01 -1.673416176438331604e+01 2.071365366689860821e+00
-3.421471163630485535e+01 -1.673819008469581604e+01 2.052200327627360821e+00
-3.423497530817985535e+01 -1.709121742844581604e+01 2.069412241689860821e+00
-4.030785128474235535e+01 -2.046585121750831604e+01 2.392181406728923321e+00
-3.535545870661735535e+01 -1.835806313157081604e+01 2.159378062002360821e+00
-4.198717257380485535e+01 -2.216787758469581604e+01 2.517730723135173321e+00
-3.844334933161735535e+01 -2.072671547532081604e+01 2.354309092275798321e+00
-4.309874483942985535e+01 -2.364688149094581604e+01 2.617477427236735821e+00
-3.494102999567985535e+01 -1.673172035813331604e+01 2.245895395986735821e+00
-3.426964327692985535e+01 -1.675869789719581604e+01 2.226379404775798321e+00
-3.421471163630485535e+01 -1.707559242844581604e+01 2.240295420400798321e+00
-4.157787081599235535e+01 -2.109194985032081604e+01 2.665649424307048321e+00
-3.540282198786735535e+01 -1.837612953782081604e+01 2.340332041494548321e+00
-4.269176241755485535e+01 -2.252652016282081604e+01 2.772048960439860821e+00
-3.830760714411735535e+01 -2.064822426438331604e+01 2.543426523916423321e+00
-4.383336398005485535e+01 -2.403652992844581604e+01 2.881912241689860821e+00
-3.496544405817985535e+01 -1.673721352219581604e+01 2.421493540517985821e+00
-4.097447726130485535e+01 -1.995486488938331604e+01 2.796920786611735821e+00
-4.179955050349235535e+01 -2.076956215500831604e+01 2.867767344228923321e+00
-3.409679171442985535e+01 -1.735830727219581604e+01 2.421951304189860821e+00
-3.544664523005485535e+01 -1.839248695969581604e+01 2.522491465322673321e+00
-4.334569308161735535e+01 -2.285855141282081604e+01 3.029373179189860821e+00
-3.854466769099235535e+01 -2.076724281907081604e+01 2.753311167471110821e+00
-4.456810519099235535e+01 -2.442581215500831604e+01 3.154052744619548321e+00
-1.218309542536735535e+01 -6.966583639383316040e+00 -2.517699170857667923e-02
-1.215636202692985535e+01 -7.075836569070816040e+00 -2.268980909138917923e-02
-1.212279269099235535e+01 -7.181793600320816040e+00 -2.024840284138917923e-02
-1.208910128474235535e+01 -7.288605123758316040e+00 -1.780699659138917923e-02
-1.204198214411735535e+01 -7.387604147195816040e+00 -1.489256788045167923e-02
-1.199290987849235535e+01 -7.485992819070816040e+00 -1.188658643513917923e-02
-1.194383761286735535e+01 -7.584137350320816040e+00 -8.895863778889179230e-03
-1.188890597224235535e+01 -7.678619772195816040e+00 -5.996693857014179230e-03
-1.356859347224235535e+01 -7.717560201883316040e+00 -8.056630380451679230e-03
-1.353404757380485535e+01 -7.837433248758316040e+00 -5.310048349201679230e-03
-1.349339815974235535e+01 -7.954498678445816040e+00 -2.380360849201679230e-03
-1.343810030817985535e+01 -8.063873678445816040e+00 1.388560049235820770e-03
-1.337413546442985535e+01 -8.167877584695816040e+00 5.050669424235820770e-03
-1.330113741755485535e+01 -8.266998678445816040e+00 8.636484853923320770e-03
-1.325145480036735535e+01 -8.379547506570816040e+00 1.185608934611082077e-02
-1.320909640192985535e+01 -8.496857076883316040e+00 1.486207079142332077e-02
-1.526671358942985535e+01 -8.637970358133316040e+00 1.548768114298582077e-02
-1.520702120661735535e+01 -8.762237936258316040e+00 1.927186083048582077e-02
-1.451695773005485535e+01 -8.530426412820816040e+00 3.919983934611082077e-02
-1.443651339411735535e+01 -8.636749655008316040e+00 4.344178270548582077e-02
-1.502733370661735535e+01 -9.136383444070816040e+00 3.070069383829832077e-02
-1.496727511286735535e+01 -9.261749655008316040e+00 3.451539110392332077e-02
-1.492357394099235535e+01 -9.396759420633316040e+00 3.793335985392332077e-02
-1.488792940974235535e+01 -9.537384420633316040e+00 4.115296434611082077e-02
-1.772142550349235535e+01 -9.968780905008316040e+00 4.071045946329832077e-02
-1.765904757380485535e+01 -1.011795082688331604e+01 4.553223680704832077e-02
-1.443846651911735535e+01 -8.483673483133316040e+00 1.139679057523608208e-01
-1.435374972224235535e+01 -8.586578756570816040e+00 1.181945903226733208e-01
-1.735472628474235535e+01 -1.049990883469581604e+01 6.092835497111082077e-02
-1.726915499567985535e+01 -1.063613930344581604e+01 6.575013231486082077e-02
-1.661058565974235535e+01 -1.042251625657081604e+01 8.174134325236082077e-02
-1.708324190974235535e+01 -1.089798012375831604e+01 7.514954637736082077e-02
-2.069054171442985535e+01 -1.157803383469581604e+01 8.412171434611082077e-02
-2.057665011286735535e+01 -1.173074379563331604e+01 8.995057176798582077e-02
-1.440001437067985535e+01 -8.459503561258316040e+00 1.869201762601733208e-01
-1.431480929255485535e+01 -8.561798483133316040e+00 1.910400493070483208e-01
-2.023607394099235535e+01 -1.218765297532081604e+01 1.073761088773608208e-01
-2.014049288630485535e+01 -1.235037270188331604e+01 1.129150493070483208e-01
-1.651720187067985535e+01 -1.036270180344581604e+01 1.685028178617358208e-01
-1.672386690974235535e+01 -1.067190590500831604e+01 1.690368754789233208e-01
-2.473253390192985535e+01 -1.376858559250831604e+01 1.470031840726733208e-01
-2.503575655817985535e+01 -1.419570961594581604e+01 1.501617534086108208e-01
-1.417320773005485535e+01 -8.329010397195816040e+00 2.616729838773608208e-01
-1.429491183161735535e+01 -8.547882467508316040e+00 2.636871440336108208e-01
-1.441197726130485535e+01 -8.767609030008316040e+00 2.658081157132983208e-01
-1.427135226130485535e+01 -8.837921530008316040e+00 2.703552348539233208e-01
-1.418956515192985535e+01 -8.941803365945816040e+00 2.743530375882983208e-01
-1.406737276911735535e+01 -9.020294576883316040e+00 2.782898051664233208e-01
-3.435118624567985535e+01 -1.898391762375831604e+01 2.249298198148608208e-01
-3.447826144099235535e+01 -1.941726723313331604e+01 2.328796489164233208e-01
-1.402342745661735535e+01 -8.242096334695816040e+00 3.333129985257983208e-01
-1.381602999567985535e+01 -8.269928365945816040e+00 3.376617534086108208e-01
-1.370201632380485535e+01 -8.348785787820816040e+00 3.415374858304858208e-01
-1.359996554255485535e+01 -8.434112936258316040e+00 3.453674418851733208e-01
-1.351183077692985535e+01 -8.526642233133316040e+00 3.491211039945483208e-01
-1.342772433161735535e+01 -8.621002584695816040e+00 3.528442485257983208e-01
-3.508727023005485535e+01 -1.937722817063331604e+01 4.004974467679858208e-01
-3.543919894099235535e+01 -1.994290199875831604e+01 4.102783305570483208e-01
-1.400719210505485535e+01 -8.230499655008316040e+00 4.038543803617358208e-01
-1.379186007380485535e+01 -8.253570944070816040e+00 4.074249370023608208e-01
-1.368590304255485535e+01 -8.336944967508316040e+00 4.110412700101733208e-01
-1.357982394099235535e+01 -8.419830709695816040e+00 4.146423442289233208e-01
-1.349388644099235535e+01 -8.513336569070816040e+00 4.178924662992358208e-01
-1.340953585505485535e+01 -8.607330709695816040e+00 4.214935405179858208e-01
-3.561473605036735535e+01 -1.965725746750831604e+01 5.835876567289233208e-01
-3.607860323786735535e+01 -2.029031410813331604e+01 5.968628032132983208e-01
-1.397984835505485535e+01 -8.212799459695816040e+00 4.737701518461108208e-01
-1.378490206599235535e+01 -8.247223287820816040e+00 4.766540629789233208e-01
-1.367247530817985535e+01 -8.326691061258316040e+00 4.800109965726733208e-01
-1.357152315974235535e+01 -8.412384420633316040e+00 4.834137065336108208e-01
-1.348131319880485535e+01 -8.503326803445816040e+00 4.868621928617358208e-01
-1.339635226130485535e+01 -8.596954733133316040e+00 4.903411967679858208e-01
-3.613072726130485535e+01 -1.993081703782081604e+01 7.710723979398608208e-01
-3.671239230036735535e+01 -2.063455238938331604e+01 7.891082866117358208e-01
-1.393272921442985535e+01 -8.183868795633316040e+00 5.431823832914233208e-01
-1.378087374567985535e+01 -8.242584615945816040e+00 5.458679301664233208e-01
-1.366966769099235535e+01 -8.322784811258316040e+00 5.489654643461108208e-01
-1.356871554255485535e+01 -8.408478170633316040e+00 5.521698100492358208e-01
-1.349889132380485535e+01 -8.511627584695816040e+00 5.557251079007983208e-01
-1.340416476130485535e+01 -8.599396139383316040e+00 5.589599711820483208e-01
-2.429491183161735535e+01 -1.351016274094581604e+01 7.685546977445483208e-01
-2.510948702692985535e+01 -1.421487465500831604e+01 7.901458842679858208e-01
-1.393394991755485535e+01 -8.182159811258316040e+00 6.132660014554858208e-01
-1.378539034724235535e+01 -8.242828756570816040e+00 6.155395610257983208e-01
-1.367455050349235535e+01 -8.323273092508316040e+00 6.183776957914233208e-01
-1.357323214411735535e+01 -8.408844381570816040e+00 6.213836772367358208e-01
-1.350548312067985535e+01 -8.513336569070816040e+00 6.249389750882983208e-01
-1.341075655817985535e+01 -8.601105123758316040e+00 6.279907329007983208e-01
-2.420201632380485535e+01 -1.345571938157081604e+01 8.896026713773608208e-01
-2.506334444880485535e+01 -1.418508949875831604e+01 9.170074565336108208e-01
-1.397777315974235535e+01 -8.204498678445816040e+00 6.839141948148608208e-01
-1.381822726130485535e+01 -8.259430319070816040e+00 6.855011088773608208e-01
-1.370604464411735535e+01 -8.339386373758316040e+00 6.880798442289233208e-01
-1.360143038630485535e+01 -8.423248678445816040e+00 6.908111674711108208e-01
-1.350804659724235535e+01 -8.512604147195816040e+00 6.937561137601733208e-01
-1.342125460505485535e+01 -8.605255514383316040e+00 6.968231303617358208e-01
-2.411681124567985535e+01 -1.340542641282081604e+01 1.010528574697673321e+00
-2.500218722224235535e+01 -1.414700356125831604e+01 1.043655405752360821e+00
-1.405125948786735535e+01 -8.243439108133316040e+00 7.558288676664233208e-01
-1.386864230036735535e+01 -8.285919576883316040e+00 7.563171489164233208e-01
-1.375877901911735535e+01 -8.367828756570816040e+00 7.587127787992358208e-01
-1.365660616755485535e+01 -8.453888326883316040e+00 7.613067729398608208e-01
-1.356371065974235535e+01 -8.544098287820816040e+00 7.644958598539233208e-01
-1.347679659724235535e+01 -8.637360006570816040e+00 7.674560649320483208e-01
-3.706310030817985535e+01 -2.041055336594581604e+01 1.541076670400798321e+00
-3.585130831599235535e+01 -2.013345375657081604e+01 1.517898569814860821e+00
-1.413988253474235535e+01 -8.290924459695816040e+00 8.293762309476733208e-01
-1.389122530817985535e+01 -8.296539694070816040e+00 8.271026713773608208e-01
-1.377953097224235535e+01 -8.377716451883316040e+00 8.292083842679858208e-01
-1.367503878474235535e+01 -8.462555319070816040e+00 8.315277202054858208e-01
-1.358153292536735535e+01 -8.552521139383316040e+00 8.341674907132983208e-01
-1.349400851130485535e+01 -8.645660787820816040e+00 8.369903666898608208e-01
-3.654686495661735535e+01 -2.012478676438331604e+01 1.712600718252360821e+00
-3.647252413630485535e+01 -2.047012367844581604e+01 1.725082407705485821e+00
-3.781346651911735535e+01 -2.161416664719581604e+01 1.791961680166423321e+00
-1.390611788630485535e+01 -8.302765280008316040e+00 8.974609477445483208e-01
-1.381786105036735535e+01 -8.397735983133316040e+00 9.002227885648608208e-01
-1.369347140192985535e+01 -8.471100240945816040e+00 9.015655620023608208e-01
-1.359947726130485535e+01 -8.561188131570816040e+00 9.040374858304858208e-01
-1.351231905817985535e+01 -8.654571920633316040e+00 9.071197612211108208e-01
-3.624034640192985535e+01 -1.995266762375831604e+01 1.886520395986735821e+00
-3.650694796442985535e+01 -2.048269692063331604e+01 1.914840708486735821e+00
-3.734593722224235535e+01 -2.134451332688331604e+01 1.968154917471110821e+00
-1.393614718317985535e+01 -8.317535787820816040e+00 9.690246684476733208e-01
-1.381419894099235535e+01 -8.393219381570816040e+00 9.701843364164233208e-01
-1.370909640192985535e+01 -8.478058248758316040e+00 9.720459086820483208e-01
-1.361400362849235535e+01 -8.567535787820816040e+00 9.743042094632983208e-01
-1.352538058161735535e+01 -8.660309225320816040e+00 9.768219096586108208e-01
-3.630821749567985535e+01 -1.998306313157081604e+01 2.075912485830485821e+00
-3.652061983942985535e+01 -2.048391762375831604e+01 2.102951060049235821e+00
-3.696629855036735535e+01 -2.112442055344581604e+01 2.142639170400798321e+00
-3.633751437067985535e+01 -2.116348305344581604e+01 2.130645762197673321e+00
-1.404735323786735535e+01 -8.527130514383316040e+00 1.051376353017985821e+00
-1.370909640192985535e+01 -8.475738912820816040e+00 1.041549692861735821e+00
-1.361180636286735535e+01 -8.563873678445816040e+00 1.043518076650798321e+00
