-2.929335269331932068e+01 -1.075249926745891571e+01 1.492122514173388481e+00
-2.959474429488182068e+01 -1.112444750964641571e+01 1.515788896009325981e+00
-3.042543277144432068e+01 -1.169891040027141571e+01 1.560726029798388481e+00
-3.093080386519432068e+01 -1.216729418933391571e+01 1.593410355970263481e+00
-3.156312808394432068e+01 -1.269707934558391571e+01 1.631786210462450981e+00
-3.238234195113182068e+01 -1.331365649402141571e+01 1.678356034681200981e+00
-3.288160952925682068e+01 -1.381817309558391571e+01 1.713374955579638481e+00
-2.929188784956932068e+01 -1.048443286120891571e+01 1.617870194837450981e+00
-2.958961734175682068e+01 -1.085064379870891571e+01 1.643062455579638481e+00
-3.042091616988182068e+01 -1.141473071277141571e+01 1.692043168470263481e+00
-3.088807925581932068e+01 -1.186333911120891571e+01 1.725719315931200981e+00
-3.155592593550682068e+01 -1.239727465808391571e+01 1.768825395032763481e+00
-3.223854312300682068e+01 -1.295232836902141571e+01 1.813335282728075981e+00
-3.294459781050682068e+01 -1.353045336902141571e+01 1.859554154798388481e+00
-3.372706851363182068e+01 -1.415496508777141571e+01 1.910045487806200981e+00
-2.958449038863182068e+01 -1.057854907214641571e+01 1.769496781751513481e+00
-3.023012027144432068e+01 -1.106853930652141571e+01 1.813548905774950981e+00
-3.087697085738182068e+01 -1.157244555652141571e+01 1.858302934095263481e+00
-3.151942691206932068e+01 -1.208965747058391571e+01 1.902767045423388481e+00
-3.234218081831932068e+01 -1.268755786120891571e+01 1.957591874524950981e+00
-3.317872866988182068e+01 -1.330938403308391571e+01 2.014858109876513481e+00
-3.305458316206932068e+01 -1.356817309558391571e+01 2.023418290540575981e+00
-3.311232241988182068e+01 -1.390008227527141571e+01 2.041240556165575981e+00
-3.022279605269432068e+01 -1.078973071277141571e+01 1.942241532728075981e+00
-3.100453433394432068e+01 -1.133269946277141571e+01 1.996623856946825981e+00
-3.181825503706932068e+01 -1.190337817370891571e+01 2.054286820814013481e+00
-3.262025699019432068e+01 -1.248785082995891571e+01 2.112224442884325981e+00
-3.343507632613182068e+01 -1.309295336902141571e+01 2.171657426282763481e+00
-3.422157534956932068e+01 -1.370574633777141571e+01 2.230434281751513481e+00
-3.361354312300682068e+01 -1.378326098620891571e+01 2.212459428235888481e+00
-3.317946109175682068e+01 -1.392144457995891571e+01 2.204601151868700981e+00
-1.308302554488182068e+01 -5.828793212771415710e+00 -6.305326707661151886e-02
-1.307350406050682068e+01 -5.942196533083915710e+00 -6.038297899067401886e-02
-1.305580386519432068e+01 -6.052792236208915710e+00 -5.772794969379901886e-02
-1.303065738081932068e+01 -6.160946533083915710e+00 -5.475248582661151886e-02
-1.299318179488182068e+01 -6.263729736208915710e+00 -5.133451707661151886e-02
-1.295558413863182068e+01 -6.366879150271415710e+00 -4.790128953754901886e-02
-1.291810855269432068e+01 -6.469906494021415710e+00 -4.446806199848651886e-02
-1.287318667769432068e+01 -6.569393798708915710e+00 -4.109586961567401886e-02
-1.434303531050682068e+01 -6.340756103396415710e+00 -4.463590867817401886e-02
-1.435145816206932068e+01 -6.473934814333915710e+00 -4.246916063129901886e-02
-1.435988101363182068e+01 -6.608090087771415710e+00 -4.030241258442401886e-02
-1.437501773238182068e+01 -6.746884033083915710e+00 -3.795255906879901886e-02
-1.438356265425682068e+01 -6.883480712771415710e+00 -3.574003465473651886e-02
-1.434987124800682068e+01 -7.002377197146415710e+00 -3.248991258442401886e-02
-1.428810366988182068e+01 -7.108090087771415710e+00 -2.798856981098651886e-02
-1.426600894331932068e+01 -7.232357665896415710e+00 -2.475370652973651886e-02
-1.605690249800682068e+01 -7.037411376833915710e+00 -2.644743211567401886e-02
-1.599611148238182068e+01 -7.158260986208915710e+00 -2.173246629536151886e-02
-1.597023257613182068e+01 -7.293881103396415710e+00 -1.799406297504901886e-02
-1.594423159956932068e+01 -7.430477783083915710e+00 -1.422514207661151886e-02
-1.591810855269432068e+01 -7.567196533083915710e+00 -1.045622117817401886e-02
-1.589186343550682068e+01 -7.704891845583915710e+00 -6.656782701611518860e-03
-1.589406070113182068e+01 -7.856014892458915710e+00 -3.620283678174018860e-03
-1.598073062300682068e+01 -8.048519775271415710e+00 -2.811567857861518860e-03
-2.495387515425682068e+01 -1.066216723620891571e+01 -1.583291459828615189e-01
-2.566932925581932068e+01 -1.119329516589641571e+01 -1.689034868031740189e-01
-1.950685366988182068e+01 -8.801937744021415710e+00 -2.336515672504901886e-02
-1.689345034956932068e+01 -7.842709228396415710e+00 3.959260694682598114e-02
-1.900441226363182068e+01 -8.943905517458915710e+00 -3.910200670361518860e-03
-1.844056949019432068e+01 -8.866879150271415710e+00 1.258455030620098114e-02
-1.830092105269432068e+01 -8.977352783083915710e+00 1.958833448588848114e-02
-1.830934390425682068e+01 -9.156918212771415710e+00 2.288423292338848114e-02
-2.641993960738182068e+01 -1.125530688464641571e+01 -6.590666063129901886e-02
-2.713868960738182068e+01 -1.180193774402141571e+01 -7.283415086567401886e-02
-2.747291812300682068e+01 -1.220013110339641571e+01 -7.254423387348651886e-02
-1.689393863081932068e+01 -7.839901611208915710e+00 1.191061567515134811e-01
-2.878334292769432068e+01 -1.330987231433391571e+01 -8.243192918598651886e-02
-2.925819644331932068e+01 -1.380535571277141571e+01 -8.372892625629901886e-02
-1.923585757613182068e+01 -9.410580322146415710e+00 9.141145460307598114e-02
-2.179884585738182068e+01 -1.081817309558391571e+01 5.353914014995098114e-02
-2.751820620894432068e+01 -1.169805590808391571e+01 4.526887647807598114e-02
-2.809608706831932068e+01 -1.219646899402141571e+01 4.519258253276348114e-02
-2.859291324019432068e+01 -1.267339770495891571e+01 4.580293409526348114e-02
-1.689430484175682068e+01 -7.837216064333915710e+00 1.990622114390134811e-01
-2.961317691206932068e+01 -1.367535082995891571e+01 4.763398878276348114e-02
-3.010731753706932068e+01 -1.418792407214641571e+01 4.923616163432598114e-02
-3.054506167769432068e+01 -1.468511645495891571e+01 5.179963819682598114e-02
-3.098939761519432068e+01 -1.519659106433391571e+01 5.375276319682598114e-02
-2.782472476363182068e+01 -1.181805102527141571e+01 1.746176313608884811e-01
-2.870448550581932068e+01 -1.244512622058391571e+01 1.748312544077634811e-01
-2.887343081831932068e+01 -1.278802172839641571e+01 1.811178755015134811e-01
-1.689479312300682068e+01 -7.834530517458915710e+00 2.785757612437009811e-01
-2.988746890425682068e+01 -1.379253832995891571e+01 1.892813276499509811e-01
-3.070106753706932068e+01 -1.445342700183391571e+01 1.917685102671384811e-01
-3.085499820113182068e+01 -1.482415454089641571e+01 1.991232465952634811e-01
-3.167018374800682068e+01 -1.551543872058391571e+01 2.024344038218259811e-01
-2.881617984175682068e+01 -1.221673266589641571e+01 3.039663862437009811e-01
-2.898622378706932068e+01 -1.255755297839641571e+01 3.115194868296384811e-01
-2.987233218550682068e+01 -1.320892016589641571e+01 3.179892133921384811e-01
-1.689528140425682068e+01 -7.831722900271415710e+00 3.585318159312009811e-01
-3.083680972456932068e+01 -1.421075122058391571e+01 3.329886030405759811e-01
-3.099257144331932068e+01 -1.458099047839641571e+01 3.416403364390134811e-01
-3.181373843550682068e+01 -1.526568286120891571e+01 3.485525678843259811e-01
-3.196217593550682068e+01 -1.564886157214641571e+01 3.577078413218259811e-01
-2.910060366988182068e+01 -1.232745043933391571e+01 4.427603315562009811e-01
-2.983119449019432068e+01 -1.290435473620891571e+01 4.528006147593259811e-01
-3.014955386519432068e+01 -1.332171313464641571e+01 4.624594282358884811e-01
-1.689564761519432068e+01 -7.829037353396415710e+00 4.380606245249509811e-01
-3.112831363081932068e+01 -1.433526293933391571e+01 4.835775922983884811e-01
-3.184279116988182068e+01 -1.496319262683391571e+01 4.954184126108884811e-01
-3.210890445113182068e+01 -1.539751879870891571e+01 5.062063764780759811e-01
-3.281776675581932068e+01 -1.605047290027141571e+01 5.189169477671384811e-01
-2.970643863081932068e+01 -1.256866137683391571e+01 5.857046674937009811e-01
-3.023036441206932068e+01 -1.306524340808391571e+01 5.986746381968259811e-01
-3.072059878706932068e+01 -1.355975024402141571e+01 6.117971967905759811e-01
-1.689613589644432068e+01 -7.826351806521415710e+00 5.175741743296384811e-01
-3.174037417769432068e+01 -1.460259692370891571e+01 6.395834516733884811e-01
-3.225441226363182068e+01 -1.514507739245891571e+01 6.541555952280759811e-01
-3.274440249800682068e+01 -1.568780200183391571e+01 6.689108442515134811e-01
-3.315992984175682068e+01 -1.620745532214641571e+01 6.834066938608884811e-01
-3.010280093550682068e+01 -1.272454516589641571e+01 7.330130171030759811e-01
-3.063026675581932068e+01 -1.322637622058391571e+01 7.492788862437009811e-01
-3.112684878706932068e+01 -1.372735278308391571e+01 7.656057905405759811e-01
-1.689662417769432068e+01 -7.823544189333915710e+00 5.975302290171384811e-01
-3.216017398238182068e+01 -1.478399340808391571e+01 8.000906538218259811e-01
-3.267396792769432068e+01 -1.533038012683391571e+01 8.179892133921384811e-01
-3.313795718550682068e+01 -1.586517016589641571e+01 8.355978559702634811e-01
-3.361867007613182068e+01 -1.641973559558391571e+01 8.538778852671384811e-01
-1.478785952925682068e+01 -6.497250244021415710e+00 6.249197553843259811e-01
-1.527040347456932068e+01 -6.831844970583915710e+00 6.380423139780759811e-01
-1.579188784956932068e+01 -7.193295165896415710e+00 6.522024702280759811e-01
-1.635902652144432068e+01 -7.586483642458915710e+00 6.676138471812009811e-01
-1.697011050581932068e+01 -8.011044189333915710e+00 6.842459272593259811e-01
-1.759645327925682068e+01 -8.456478759646415710e+00 7.016867231577634811e-01
-1.828737124800682068e+01 -8.945126220583915710e+00 7.208212446421384811e-01
-1.904408511519432068e+01 -9.480404540896415710e+00 7.417715620249509811e-01
-1.485353335738182068e+01 -6.521420165896415710e+00 6.949270796030759811e-01
-1.538368472456932068e+01 -6.876278564333915710e+00 7.117575239390134811e-01
-1.595888003706932068e+01 -7.261654540896415710e+00 7.296255659312009811e-01
-1.659059390425682068e+01 -7.684506103396415710e+00 7.496603559702634811e-01
-1.720192202925682068e+01 -8.111385986208915710e+00 7.697409223765134811e-01
-1.779335269331932068e+01 -8.543026611208915710e+00 7.898977827280759811e-01
-1.843031558394432068e+01 -9.008358642458915710e+00 8.120993208140134811e-01
-1.912465152144432068e+01 -9.515316650271415710e+00 8.357809614390134811e-01
-1.480018863081932068e+01 -6.497250244021415710e+00 7.620657514780759811e-01
-1.526735171675682068e+01 -6.825375244021415710e+00 7.800711225718259811e-01
-1.577089175581932068e+01 -7.179012939333915710e+00 7.994650434702634811e-01
-1.631740054488182068e+01 -7.562679931521415710e+00 8.205221723765134811e-01
-1.698475894331932068e+01 -8.011654540896415710e+00 8.454245161265134811e-01
-1.765700015425682068e+01 -8.477841064333915710e+00 8.710897993296384811e-01
-1.839113101363182068e+01 -8.986996337771415710e+00 8.991049360483884811e-01
-1.919911441206932068e+01 -9.547299072146415710e+00 9.299429487437009811e-01
-1.481300601363182068e+01 -6.499935790896415710e+00 8.311117719858884811e-01
-1.537074527144432068e+01 -6.865658447146415710e+00 8.541983198374509811e-01
-1.598182925581932068e+01 -7.265927001833915710e+00 8.798636030405759811e-01
-3.345741519331932068e+01 -1.501653735339641571e+01 1.455333573743700981e+00
-3.269056949019432068e+01 -1.499700610339641571e+01 1.443828446790575981e+00
-3.446913394331932068e+01 -1.612359301745891571e+01 1.516887528821825981e+00
-3.461940249800682068e+01 -1.653008715808391571e+01 1.536418778821825981e+00
-3.387843570113182068e+01 -1.651861254870891571e+01 1.526500565931200981e+00
-3.236500796675682068e+01 -1.361553637683391571e+01 1.536205155774950981e+00
-3.282216128706932068e+01 -1.410955493152141571e+01 1.566600663587450981e+00
-3.351967105269432068e+01 -1.471673266589641571e+01 1.606410844251513481e+00
-3.362550601363182068e+01 -1.508367602527141571e+01 1.624751908704638481e+00
-3.292299136519432068e+01 -1.509454028308391571e+01 1.612514359876513481e+00
-3.416298159956932068e+01 -1.597808520495891571e+01 1.674526078626513481e+00
-3.441066226363182068e+01 -1.642669360339641571e+01 1.699107987806200981e+00
-3.354225406050682068e+01 -1.635271899402141571e+01 1.680049760267138481e+00
-3.288710269331932068e+01 -1.382146899402141571e+01 1.713649613782763481e+00
-3.358095034956932068e+01 -1.441863696277141571e+01 1.756114823743700981e+00
-3.411647281050682068e+01 -1.496429125964641571e+01 1.793514115735888481e+00
-3.176869449019432068e+01 -1.427056567370891571e+01 1.708766801282763481e+00
-3.471095523238182068e+01 -1.588348071277141571e+01 1.849620683118700981e+00
-3.545704898238182068e+01 -1.656036059558391571e+01 1.897823197767138481e+00
-3.383461245894432068e+01 -1.615288989245891571e+01 1.842616898939013481e+00
-3.360011538863182068e+01 -1.637408129870891571e+01 1.848567826673388481e+00
-3.373073062300682068e+01 -1.415765063464641571e+01 1.910259110853075981e+00
-3.355214175581932068e+01 -1.440069262683391571e+01 1.917293412610888481e+00
-3.219801577925682068e+01 -1.414361254870891571e+01 1.868892533704638481e+00
-3.178834781050682068e+01 -1.427337329089641571e+01 1.864299638196825981e+00
-3.472157534956932068e+01 -1.588201586902141571e+01 2.020137650892138481e+00
-3.545753726363182068e+01 -1.655413500964641571e+01 2.072261674329638481e+00
-3.369862613081932068e+01 -1.608355395495891571e+01 2.002757890149950981e+00
-3.388954409956932068e+01 -1.650530688464641571e+01 2.028270585462450981e+00
-3.311378726363182068e+01 -1.390179125964641571e+01 2.041377885267138481e+00
-3.327577456831932068e+01 -1.428020922839641571e+01 2.065395219251513481e+00
-3.214418277144432068e+01 -1.411504809558391571e+01 2.022273881360888481e+00
-3.494117984175682068e+01 -1.563714282214641571e+01 2.184032304212450981e+00
-3.473207339644432068e+01 -1.588042895495891571e+01 2.189845902845263481e+00
-3.517201480269432068e+01 -1.641802661120891571e+01 2.231349809095263481e+00
-3.465687808394432068e+01 -1.652227465808391571e+01 2.220744950696825981e+00
-3.391993960738182068e+01 -1.651360766589641571e+01 2.197643144056200981e+00
-3.318471011519432068e+01 -1.392461840808391571e+01 2.204952104017138481e+00
-3.338734683394432068e+01 -1.432061450183391571e+01 2.231838090345263481e+00
-3.148488101363182068e+01 -1.382964770495891571e+01 2.139690263196825981e+00
-3.122780093550682068e+01 -1.401873461902141571e+01 2.140575272962450981e+00
-3.474269351363182068e+01 -1.587884204089641571e+01 2.360561234876513481e+00
-3.190553531050682068e+01 -1.492852465808391571e+01 2.211757523939013481e+00
-3.467555484175682068e+01 -1.652471606433391571e+01 2.391918046399950981e+00
-3.394679507613182068e+01 -1.652007739245891571e+01 2.367091996595263481e+00
-1.287306460738182068e+01 -6.569760009646415710e+00 -4.108061082661151886e-02
-1.283644351363182068e+01 -6.673397704958915710e+00 -3.763212449848651886e-02
-1.279249820113182068e+01 -6.773739501833915710e+00 -3.424467332661151886e-02
-1.274830874800682068e+01 -6.874447509646415710e+00 -3.082670457661151886e-02
-1.270436343550682068e+01 -6.974911376833915710e+00 -2.742399461567401886e-02
-1.265199527144432068e+01 -7.071468994021415710e+00 -2.371610887348651886e-02
-1.261464175581932068e+01 -7.175717040896415710e+00 -2.055753953754901886e-02
-1.256459292769432068e+01 -7.273251220583915710e+00 -1.726164110004901886e-02
-1.426588687300682068e+01 -7.232845947146415710e+00 -2.473844774067401886e-02
-1.424208316206932068e+01 -7.356869384646415710e+00 -2.171720750629901886e-02
-1.421449527144432068e+01 -7.479794189333915710e+00 -1.857389695942401886e-02
-1.418165835738182068e+01 -7.601132079958915710e+00 -1.486601121723651886e-02
-1.414100894331932068e+01 -7.718319579958915710e+00 -1.129545457661151886e-02
-1.409242495894432068e+01 -7.832211181521415710e+00 -7.816450670361518860e-03
-1.405165347456932068e+01 -7.949886962771415710e+00 -4.230635240674018860e-03
-1.401075991988182068e+01 -8.067928954958915710e+00 -6.295610219240188599e-04
-1.598170718550682068e+01 -8.049496337771415710e+00 -2.826826646924018860e-03
-1.599855288863182068e+01 -8.210995361208915710e+00 -3.854203969240188599e-04
-1.597767886519432068e+01 -8.355282470583915710e+00 3.078324720263481140e-03
-1.595656070113182068e+01 -8.500912353396415710e+00 6.572587415575981140e-03
-1.589393863081932068e+01 -8.625302001833915710e+00 1.115022413432598114e-02
-1.582435855269432068e+01 -8.746639892458915710e+00 1.591096632182598114e-02
-1.575514468550682068e+01 -8.867489501833915710e+00 2.065644972026348114e-02
-1.568593081831932068e+01 -8.988217040896415710e+00 2.540193311870098114e-02
-1.830922183394432068e+01 -9.157528564333915710e+00 2.289949171245098114e-02
-1.828126773238182068e+01 -9.320858642458915710e+00 2.767549268901348114e-02
-1.824244937300682068e+01 -9.479794189333915710e+00 3.222261182963848114e-02
-1.820338687300682068e+01 -9.639828369021415710e+00 3.680024854838848114e-02
-1.816420230269432068e+01 -9.799984619021415710e+00 4.139314405620098114e-02
-1.812477359175682068e+01 -9.961361572146415710e+00 4.601655714213848114e-02
-1.808534488081932068e+01 -1.012286059558391571e+01 5.063997022807598114e-02
-1.806410464644432068e+01 -1.029497973620891571e+01 5.443940870463848114e-02
-2.179762515425682068e+01 -1.081829516589641571e+01 5.356965772807598114e-02
-2.158571109175682068e+01 -1.092767016589641571e+01 6.191621534526348114e-02
-2.139943179488182068e+01 -1.104729907214641571e+01 6.980500929057598114e-02
-2.126503238081932068e+01 -1.119183032214641571e+01 7.682405225932598114e-02
-2.122413882613182068e+01 -1.138323657214641571e+01 8.234773389995098114e-02
-2.118287906050682068e+01 -1.157610766589641571e+01 8.791719190776348114e-02
-2.112831363081932068e+01 -1.176189868152141571e+01 9.370027296245098114e-02
-2.103676089644432068e+01 -1.192815844714641571e+01 1.000479292124509811e-01
-3.099257144331932068e+01 -1.519915454089641571e+01 5.373750440776348114e-02
-3.142164859175682068e+01 -1.571465747058391571e+01 5.746064893901348114e-02
-3.183497866988182068e+01 -1.623394457995891571e+01 6.081758253276348114e-02
-3.230909976363182068e+01 -1.679632250964641571e+01 6.383882276713848114e-02
-3.269752749800682068e+01 -1.732586352527141571e+01 6.805024854838848114e-02
-3.292091616988182068e+01 -1.778020922839641571e+01 7.423005811870098114e-02
-2.563295230269432068e+01 -1.418841235339641571e+01 1.546591352671384811e-01
-2.570814761519432068e+01 -1.449493090808391571e+01 1.599081587046384811e-01
-3.167140445113182068e+01 -1.551714770495891571e+01 2.024496626108884811e-01
-3.185194644331932068e+01 -1.591851489245891571e+01 2.098806928843259811e-01
-3.261415347456932068e+01 -1.661541430652141571e+01 2.141073774546384811e-01
-3.301881656050682068e+01 -1.715057055652141571e+01 2.208517622202634811e-01
-3.342958316206932068e+01 -1.769903247058391571e+01 2.278250288218259811e-01
-3.379115542769432068e+01 -1.823418872058391571e+01 2.353933881968259811e-01
-3.411720523238182068e+01 -1.875970141589641571e+01 2.433889936655759811e-01
-3.426845034956932068e+01 -1.919915454089641571e+01 2.524221967905759811e-01
-3.196339663863182068e+01 -1.565057055652141571e+01 3.577383588999509811e-01
-3.273927554488182068e+01 -1.634454028308391571e+01 3.662375044077634811e-01
-3.290907534956932068e+01 -1.675591723620891571e+01 3.765677046030759811e-01
-3.363771304488182068e+01 -1.745843188464641571e+01 3.860739301890134811e-01
-3.382545718550682068e+01 -1.789776293933391571e+01 3.960836958140134811e-01
-3.434804019331932068e+01 -1.852215258777141571e+01 4.064291547983884811e-01
-3.470057925581932068e+01 -1.906780688464641571e+01 4.161032270640134811e-01
-3.514296206831932068e+01 -1.967351977527141571e+01 4.271048139780759811e-01
-3.282106265425682068e+01 -1.605315844714641571e+01 5.189779829233884811e-01
-3.303517398238182068e+01 -1.648247973620891571e+01 5.300711225718259811e-01
-3.375673159956932068e+01 -1.717107836902141571e+01 5.436361860483884811e-01
-3.394618472456932068e+01 -1.760870043933391571e+01 5.552786421030759811e-01
-3.450160464644432068e+01 -1.824151293933391571e+01 5.689505171030759811e-01
-3.441530093550682068e+01 -1.855120532214641571e+01 5.796469282358884811e-01
-3.523463687300682068e+01 -1.934917895495891571e+01 5.955618452280759811e-01
-3.566444644331932068e+01 -1.995342700183391571e+01 6.097525190562009811e-01
-3.316127261519432068e+01 -1.620916430652141571e+01 6.834677290171384811e-01
-3.369972476363182068e+01 -1.679961840808391571e+01 6.994284223765134811e-01
-3.406617984175682068e+01 -1.731853930652141571e+01 7.142294477671384811e-01
-3.453590640425682068e+01 -1.790142504870891571e+01 7.304342817515134811e-01
-3.391505679488182068e+01 -1.793157641589641571e+01 7.358206342905759811e-01
-3.448610171675682068e+01 -1.858221118152141571e+01 7.535818647593259811e-01
-3.574464663863182068e+01 -1.961724536120891571e+01 7.793539594858884811e-01
-3.631630191206932068e+01 -2.030498950183391571e+01 7.983511518687009811e-01
-3.362221011519432068e+01 -1.642254321277141571e+01 8.539694380015134811e-01
-2.001405581831932068e+01 -1.014031665027141571e+01 6.706808637827634811e-01
-2.072841128706932068e+01 -1.069085375964641571e+01 6.881674360483884811e-01
-2.149525699019432068e+01 -1.128533618152141571e+01 7.070425581187009811e-01
-2.217494449019432068e+01 -1.185174243152141571e+01 7.252005171030759811e-01
-2.294142398238182068e+01 -1.248101489245891571e+01 7.453268598765134811e-01
-2.375709781050682068e+01 -1.315423266589641571e+01 7.668722700327634811e-01
-2.452772769331932068e+01 -1.382232348620891571e+01 7.883719038218259811e-01
-1.904982241988182068e+01 -9.483700439333915710e+00 7.419088911265134811e-01
-1.977333316206932068e+01 -1.001971118152141571e+01 7.629202436655759811e-01
-2.050978335738182068e+01 -1.057867114245891571e+01 7.848013471812009811e-01
-2.131642398238182068e+01 -1.119085375964641571e+01 8.087729047983884811e-01
-2.203200015425682068e+01 -1.177373950183391571e+01 8.315542768687009811e-01
-2.283326968550682068e+01 -1.241973559558391571e+01 8.567923139780759811e-01
-2.360890445113182068e+01 -1.307000415027141571e+01 8.821676801890134811e-01
-2.452272281050682068e+01 -1.381499926745891571e+01 9.112661909312009811e-01
-1.912990054488182068e+01 -9.518368408083915710e+00 8.359335493296384811e-01
-1.978761538863182068e+01 -1.002312915027141571e+01 8.594626020640134811e-01
-2.046718081831932068e+01 -1.055376879870891571e+01 8.835867475718259811e-01
-2.120448550581932068e+01 -1.113030688464641571e+01 9.103659223765134811e-01
-2.187867984175682068e+01 -1.169048754870891571e+01 9.361532758921384811e-01
-2.269398745894432068e+01 -1.234209887683391571e+01 9.663199018687009811e-01
-2.358839663863182068e+01 -1.305462329089641571e+01 9.999502729624509811e-01
-2.444410952925682068e+01 -1.376714770495891571e+01 1.032771928235888481e+00
-1.920521792769432068e+01 -9.550839111208915710e+00 9.301565717905759811e-01
-1.994716128706932068e+01 -1.009710375964641571e+01 9.599417280405759811e-01
-3.439222964644432068e+01 -1.745501391589641571e+01 1.402568681165575981e+00
-3.483668765425682068e+01 -1.802813403308391571e+01 1.430721146985888481e+00
-3.479701480269432068e+01 -1.836199633777141571e+01 1.444331986829638481e+00
-3.778431949019432068e+01 -2.029559008777141571e+01 1.553127152845263481e+00
-3.676503238081932068e+01 -2.013921801745891571e+01 1.537090165540575981e+00
-3.798988589644432068e+01 -2.119561450183391571e+01 1.592738969251513481e+00
-3.387709292769432068e+01 -1.651910082995891571e+01 1.526515824720263481e+00
-3.362465152144432068e+01 -1.673235766589641571e+01 1.531612260267138481e+00
-3.380653628706932068e+01 -1.715838305652141571e+01 1.552791459485888481e+00
-3.478822574019432068e+01 -1.799712817370891571e+01 1.602825028821825981e+00
-3.484193667769432068e+01 -1.837871997058391571e+01 1.620326859876513481e+00
-3.473671206831932068e+01 -1.868194262683391571e+01 1.632259232923388481e+00
-3.445912417769432068e+01 -1.889214770495891571e+01 1.637782914564013481e+00
-3.615895327925682068e+01 -2.018401782214641571e+01 1.718349320814013481e+00
-3.354200991988182068e+01 -1.635381762683391571e+01 1.680095536634325981e+00
-3.438344058394432068e+01 -1.709429614245891571e+01 1.728938920423388481e+00
-3.410231265425682068e+01 -1.729876391589641571e+01 1.733440263196825981e+00
-3.468654116988182068e+01 -1.793914477527141571e+01 1.773174149915575981e+00
-3.898427066206932068e+01 -2.051116625964641571e+01 1.966899735853075981e+00
-4.007167300581932068e+01 -2.148675219714641571e+01 2.030895097181200981e+00
-3.445021304488182068e+01 -1.888079516589641571e+01 1.812450272962450981e+00
-3.619252261519432068e+01 -2.019561450183391571e+01 1.903514726087450981e+00
-3.359889468550682068e+01 -1.637469165027141571e+01 1.848567826673388481e+00
-3.748475894331932068e+01 -1.859209887683391571e+01 2.038387162610888481e+00
-3.415492495894432068e+01 -1.731853930652141571e+01 1.905162675306200981e+00
-3.471522769331932068e+01 -1.794732348620891571e+01 1.947551591321825981e+00
-3.480446109175682068e+01 -1.834637133777141571e+01 1.968700272962450981e+00
-3.851381167769432068e+01 -2.065850512683391571e+01 2.160152299329638481e+00
-3.447340640425682068e+01 -1.888677661120891571e+01 1.987590653821825981e+00
-3.603688296675682068e+01 -2.010345141589641571e+01 2.080928666517138481e+00
-3.388991031050682068e+01 -1.650664965808391571e+01 2.028346879407763481e+00
-3.387428531050682068e+01 -1.683477465808391571e+01 2.044444901868700981e+00
-3.965980777144432068e+01 -2.003765551745891571e+01 2.354122025892138481e+00
-3.516481265425682068e+01 -1.816814868152141571e+01 2.144634110853075981e+00
-4.148671206831932068e+01 -2.178777758777141571e+01 2.489040238782763481e+00
-3.839589175581932068e+01 -2.058916918933391571e+01 2.349376542493700981e+00
-3.446840152144432068e+01 -1.887762133777141571e+01 2.162425858899950981e+00
-4.317470034956932068e+01 -2.400787036120891571e+01 2.644039018079638481e+00
-3.392177066206932068e+01 -1.651556079089641571e+01 2.197795731946825981e+00
-3.392189273238182068e+01 -1.685174243152141571e+01 2.215404374524950981e+00
-3.412098941206932068e+01 -1.728912036120891571e+01 2.244258744642138481e+00
-3.515651187300682068e+01 -1.815740649402141571e+01 2.319652421399950981e+00
-4.218190249800682068e+01 -2.213860766589641571e+01 2.737361771985888481e+00
-3.824122866988182068e+01 -2.050054614245891571e+01 2.535259110853075981e+00
-3.444703921675682068e+01 -1.885955493152141571e+01 2.336253983899950981e+00
-4.394655093550682068e+01 -2.442229907214641571e+01 2.910716874524950981e+00
-4.035988101363182068e+01 -1.956255786120891571e+01 2.750301225110888481e+00
-4.121119937300682068e+01 -2.037664477527141571e+01 2.822429521009325981e+00
-3.388368472456932068e+01 -1.716546313464641571e+01 2.399211747571825981e+00
-3.514576968550682068e+01 -1.814544360339641571e+01 2.495372636243700981e+00
-4.285304507613182068e+01 -2.247674243152141571e+01 2.992488725110888481e+00
-3.840504702925682068e+01 -2.057964770495891571e+01 2.738429887220263481e+00
-3.442579898238182068e+01 -1.884173266589641571e+01 2.508922440931200981e+00
-4.472499331831932068e+01 -2.484014575183391571e+01 3.185909135267138481e+00
-1.256422671675682068e+01 -7.273495361208915710e+00 -1.724638231098651886e-02
-1.252577456831932068e+01 -7.377621337771415710e+00 -1.398100145161151886e-02
-1.248256167769432068e+01 -7.479427978396415710e+00 -1.088346727192401886e-02
-1.243910464644432068e+01 -7.581722900271415710e+00 -7.755415514111518860e-03
-1.239576968550682068e+01 -7.683895751833915710e+00 -4.642622545361518860e-03
-1.235206851363182068e+01 -7.786678954958915710e+00 -1.499311998486518860e-03
-1.230848941206932068e+01 -7.889340087771415710e+00 1.628739759325981140e-03
-1.225880679488182068e+01 -7.988461181521415710e+00 4.649979993700981140e-03
-1.401051577925682068e+01 -8.068295165896415710e+00 -6.143022328615188599e-04
-1.396351870894432068e+01 -8.183285400271415710e+00 2.895219251513481140e-03
-1.391652163863182068e+01 -8.298641845583915710e+00 6.419999524950981140e-03
-1.387684878706932068e+01 -8.419125244021415710e+00 1.009736768901348114e-02
-1.382960757613182068e+01 -8.535092040896415710e+00 1.362214796245098114e-02
-1.377443179488182068e+01 -8.647030517458915710e+00 1.704011671245098114e-02
-1.372694644331932068e+01 -8.763485595583915710e+00 2.059541456401348114e-02
-1.367933902144432068e+01 -8.880306884646415710e+00 2.415071241557598114e-02
-1.568568667769432068e+01 -8.988705322146415710e+00 2.541719190776348114e-02
-1.560634097456932068e+01 -9.103573486208915710e+00 3.013215772807598114e-02
-1.471242007613182068e+01 -8.751888915896415710e+00 5.517183057963848114e-02
-1.462990054488182068e+01 -8.856259033083915710e+00 5.981050245463848114e-02
-1.550819644331932068e+01 -9.531307861208915710e+00 4.084382764995098114e-02
-1.548304995894432068e+01 -9.680599853396415710e+00 4.424653761088848114e-02
-1.545802554488182068e+01 -9.830258056521415710e+00 4.767976514995098114e-02
-1.543263491988182068e+01 -9.981014892458915710e+00 5.112825147807598114e-02
-1.806410464644432068e+01 -1.029559008777141571e+01 5.445466749370098114e-02
-1.806007632613182068e+01 -1.047869555652141571e+01 5.860505811870098114e-02
-1.464540347456932068e+01 -8.710873290896415710e+00 1.293295454233884811e-01
-1.455922183394432068e+01 -8.812313720583915710e+00 1.339529585093259811e-01
-1.484047183394432068e+01 -9.131161376833915710e+00 1.314810346812009811e-01
-1.771168765425682068e+01 -1.102850024402141571e+01 7.998262159526348114e-02
-1.679664859175682068e+01 -1.065398852527141571e+01 1.008566450327634811e-01
-1.673951968550682068e+01 -1.079998461902141571e+01 1.049917768687009811e-01
-2.103663882613182068e+01 -1.192876879870891571e+01 1.000631880015134811e-01
-2.093739566206932068e+01 -1.209075610339641571e+01 1.062429975718259811e-01
-1.460988101363182068e+01 -8.687802001833915710e+00 2.019308637827634811e-01
-1.452260074019432068e+01 -8.788143798708915710e+00 2.064627241343259811e-01
-1.487025699019432068e+01 -9.146176025271415710e+00 2.049063276499509811e-01
-1.503749331831932068e+01 -9.404720947146415710e+00 2.060507368296384811e-01
-1.488917788863182068e+01 -9.473202392458915710e+00 2.115133833140134811e-01
-1.474000796675682068e+01 -9.539486572146415710e+00 2.169455122202634811e-01
-2.570900210738182068e+01 -1.449627368152141571e+01 1.599234174937009811e-01
-2.576075991988182068e+01 -1.479363696277141571e+01 1.665762495249509811e-01
-1.441920718550682068e+01 -8.575985595583915710e+00 2.759512495249509811e-01
-1.450587710738182068e+01 -8.775692626833915710e+00 2.787741255015134811e-01
-1.462794741988182068e+01 -8.999325439333915710e+00 2.813681196421384811e-01
-1.448036441206932068e+01 -9.064388915896415710e+00 2.863119672983884811e-01
-1.439760074019432068e+01 -9.167050048708915710e+00 2.906607221812009811e-01
-1.426893863081932068e+01 -9.240536376833915710e+00 2.949942182749509811e-01
-3.426906070113182068e+01 -1.920061938464641571e+01 2.524527143687009811e-01
-2.576173648238182068e+01 -1.478924243152141571e+01 2.966879438608884811e-01
-1.434779605269432068e+01 -8.532528564333915710e+00 3.471182417124509811e-01
-1.402626284956932068e+01 -8.493343994021415710e+00 3.521536421030759811e-01
-1.391017398238182068e+01 -8.570004150271415710e+00 3.563803266733884811e-01
-1.380555972456932068e+01 -8.653011962771415710e+00 3.605307172983884811e-01
-1.371473941206932068e+01 -8.743099853396415710e+00 3.646200727671384811e-01
-1.362892398238182068e+01 -8.835629150271415710e+00 3.686941694468259811e-01
-3.514674624800682068e+01 -1.967681567370891571e+01 4.271505903452634811e-01
-2.576283511519432068e+01 -1.478496997058391571e+01 4.267996381968259811e-01
-1.433033999800682068e+01 -8.519955322146415710e+00 4.179800581187009811e-01
-1.400709781050682068e+01 -8.479672119021415710e+00 4.216421674937009811e-01
-1.389723452925682068e+01 -8.559750244021415710e+00 4.255789350718259811e-01
-1.379542788863182068e+01 -8.644344970583915710e+00 4.295309614390134811e-01
-1.370106753706932068e+01 -8.731991454958915710e+00 4.330862592905759811e-01
-1.361488589644432068e+01 -8.824276611208915710e+00 4.370230268687009811e-01
-3.566786441206932068e+01 -1.995660082995891571e+01 6.098135542124509811e-01
-2.576381167769432068e+01 -1.478069750964641571e+01 5.576132368296384811e-01
-1.424293765425682068e+01 -8.467343017458915710e+00 4.878042768687009811e-01
-1.400172671675682068e+01 -8.473934814333915710e+00 4.906576704233884811e-01
-1.388661441206932068e+01 -8.550839111208915710e+00 4.943045210093259811e-01
-1.378309878706932068e+01 -8.634335204958915710e+00 4.980276655405759811e-01
-1.369069156050682068e+01 -8.723080322146415710e+00 5.017965864390134811e-01
-1.360414370894432068e+01 -8.814877197146415710e+00 5.055960249155759811e-01
-3.632008609175682068e+01 -2.030840747058391571e+01 7.984427046030759811e-01
-2.576478824019432068e+01 -1.477630297839641571e+01 6.877249311655759811e-01
-1.419679507613182068e+01 -8.438290283083915710e+00 5.572012495249509811e-01
-1.399721011519432068e+01 -8.468685790896415710e+00 5.596121381968259811e-01
-1.388368472456932068e+01 -8.546566650271415710e+00 5.630148481577634811e-01
-1.378029116988182068e+01 -8.630062744021415710e+00 5.665243696421384811e-01
-1.370851382613182068e+01 -8.731503173708915710e+00 5.704001020640134811e-01
-1.361366519331932068e+01 -8.818295165896415710e+00 5.739706587046384811e-01
-2.453358706831932068e+01 -1.382635180652141571e+01 7.884939741343259811e-01
-2.536635074019432068e+01 -1.454827563464641571e+01 8.117636274546384811e-01
-1.418751773238182068e+01 -8.430477783083915710e+00 6.271170210093259811e-01
-1.400355777144432068e+01 -8.469784423708915710e+00 6.290854047983884811e-01
-1.389027652144432068e+01 -8.547909423708915710e+00 6.322134565562009811e-01
-1.378688296675682068e+01 -8.631405517458915710e+00 6.355093549937009811e-01
-1.371608218550682068e+01 -8.733578369021415710e+00 6.393698286265134811e-01
-1.362025699019432068e+01 -8.819882079958915710e+00 6.427420210093259811e-01
-2.452894839644432068e+01 -1.381927172839641571e+01 9.114340376108884811e-01
-2.539320620894432068e+01 -1.455852954089641571e+01 9.403647016733884811e-01
-1.426051577925682068e+01 -8.469418212771415710e+00 6.984213422983884811e-01
-1.404530581831932068e+01 -8.491512939333915710e+00 6.990622114390134811e-01
-1.393055972456932068e+01 -8.569149658083915710e+00 7.019156049937009811e-01
-1.382374820113182068e+01 -8.651180908083915710e+00 7.049368452280759811e-01
-1.372706851363182068e+01 -8.737728759646415710e+00 7.081411909312009811e-01
-1.363783511519432068e+01 -8.828304931521415710e+00 7.114981245249509811e-01
-2.445045718550682068e+01 -1.377154223620891571e+01 1.032985551282763481e+00
-2.537159976363182068e+01 -1.454156176745891571e+01 1.068599564954638481e+00
-1.441957339644432068e+01 -8.557675048708915710e+00 7.728994917124509811e-01
-1.408864077925682068e+01 -8.514095947146415710e+00 7.695272993296384811e-01
-1.397572574019432068e+01 -8.593441650271415710e+00 7.721823286265134811e-01
-1.387147769331932068e+01 -8.677426025271415710e+00 7.750662397593259811e-01
-1.377638491988182068e+01 -8.765560790896415710e+00 7.785299848765134811e-01
-1.368788394331932068e+01 -8.857113525271415710e+00 7.817801069468259811e-01
-3.798561343550682068e+01 -2.119476000964641571e+01 1.592662675306200981e+00
-3.567457827925682068e+01 -2.030254809558391571e+01 1.534099442884325981e+00
-3.883473452925682068e+01 -2.248540942370891571e+01 1.655300004407763481e+00
-1.411671695113182068e+01 -8.527889892458915710e+00 8.403128217905759811e-01
-1.399757632613182068e+01 -8.603695556521415710e+00 8.424948286265134811e-01
-1.389039859175682068e+01 -8.686215087771415710e+00 8.450735639780759811e-01
-1.379457339644432068e+01 -8.774105712771415710e+00 8.479727338999509811e-01
-1.370558413863182068e+01 -8.865536376833915710e+00 8.510855268687009811e-01
-3.615931949019432068e+01 -2.018560473620891571e+01 1.718425614759325981e+00
-3.637843570113182068e+01 -2.068951098620891571e+01 1.742946488782763481e+00
-3.728639468550682068e+01 -2.159466235339641571e+01 1.795345170423388481e+00
-1.416993960738182068e+01 -8.556088134646415710e+00 9.119833540171384811e-01
-1.403468570113182068e+01 -8.623104736208915710e+00 9.132650922983884811e-01
-1.390651187300682068e+01 -8.693295165896415710e+00 9.147909712046384811e-01
-1.381007632613182068e+01 -8.781063720583915710e+00 9.175070356577634811e-01
-1.372120913863182068e+01 -8.872860595583915710e+00 9.208639692515134811e-01
-3.605348452925682068e+01 -2.012066332995891571e+01 1.897640092298388481e+00
-3.658143863081932068e+01 -2.079607836902141571e+01 1.938503129407763481e+00
-3.648475894331932068e+01 -2.113055102527141571e+01 1.952724320814013481e+00
-1.415956363081932068e+01 -8.547421142458915710e+00 9.817923139780759811e-01
-1.403065738081932068e+01 -8.618099853396415710e+00 9.829672407358884811e-01
-1.392152652144432068e+01 -8.699764892458915710e+00 9.850119184702634811e-01
-1.382484683394432068e+01 -8.787533447146415710e+00 9.875448774546384811e-01
-1.373414859175682068e+01 -8.878231689333915710e+00 9.903219770640134811e-01
-3.603773745894432068e+01 -2.010516040027141571e+01 2.081050736829638481e+00
-3.570021304488182068e+01 -2.029644457995891571e+01 2.082561356946825981e+00
-3.617677554488182068e+01 -2.094793383777141571e+01 2.124843461439013481e+00
-3.535951480269432068e+01 -2.086321704089641571e+01 2.103679521009325981e+00
-1.430555972456932068e+01 -8.778378173708915710e+00 1.066249711439013481e+00
-1.392384585738182068e+01 -8.698666259646415710e+00 1.054363114759325981e+00
-1.382362613081932068e+01 -8.784237548708915710e+00 1.056545121595263481e+00
-1.373256167769432068e+01 -8.874691650271415710e+00 1.059520585462450981e+00
-4.317946109175682068e+01 -2.401202075183391571e+01 2.644374711439013481e+00
-3.636317691206932068e+01 -2.066009204089641571e+01 2.301418168470263481e+00
-3.624342593550682068e+01 -2.097893969714641571e+01 2.315044267103075981e+00
-3.579970034956932068e+01 -2.111211840808391571e+01 2.311000688001513481e+00
-1.456434878706932068e+01 -8.928890869021415710e+00 1.151943070814013481e+00
-3.586610659956932068e+01 -2.193413989245891571e+01 2.355434281751513481e+00
-1.579823550581932068e+01 -9.995297119021415710e+00 1.237941605970263481e+00
-1.530507144331932068e+01 -9.856747314333915710e+00 1.218547685071825981e+00
-4.395216616988182068e+01 -2.442705981433391571e+01 2.911128861829638481e+00
-3.645558413863182068e+01 -2.070464770495891571e+01 2.493526322767138481e+00
-3.576198062300682068e+01 -2.069768969714641571e+01 2.473247392103075981e+00
-3.556178531050682068e+01 -2.096697680652141571e+01 2.481166703626513481e+00
-3.537428531050682068e+01 -2.124175707995891571e+01 2.490733964368700981e+00
-1.471669253706932068e+01 -9.171566650271415710e+00 1.242366654798388481e+00
-1.535695132613182068e+01 -9.721127197146415710e+00 1.290630204603075981e+00
-1.568507632613182068e+01 -1.009173266589641571e+01 1.320201737806200981e+00
-4.473073062300682068e+01 -2.484490649402141571e+01 3.186366898939013481e+00
-3.740272769331932068e+01 -2.122674243152141571e+01 2.740611894056200981e+00
-4.158815249800682068e+01 -2.400823657214641571e+01 3.035060746595263481e+00
-3.777528628706932068e+01 -2.224493090808391571e+01 2.810527665540575981e+00
-3.851222476363182068e+01 -2.309124438464641571e+01 2.882594926282763481e+00
-1.484450015425682068e+01 -9.245785400271415710e+00 1.324382646009325981e+00
-1.464491519331932068e+01 -9.280941650271415710e+00 1.319850785657763481e+00
-1.454152163863182068e+01 -9.373104736208915710e+00 1.322109086439013481e+00
-1.225868472456932068e+01 -7.988827392458915710e+00 4.649979993700981140e-03
-1.221571597456932068e+01 -8.092465087771415710e+00 7.823808118700981140e-03
-1.217738589644432068e+01 -8.199520751833915710e+00 1.049409620463848114e-02
-1.214345034956932068e+01 -8.310482665896415710e+00 1.304231397807598114e-02
-1.210939273238182068e+01 -8.421688720583915710e+00 1.559053175151348114e-02
-1.207509097456932068e+01 -8.533749267458915710e+00 1.815400831401348114e-02
-1.204078921675682068e+01 -8.646053954958915710e+00 2.071748487651348114e-02
-1.199965152144432068e+01 -8.754330322146415710e+00 2.318940870463848114e-02
-1.367921695113182068e+01 -8.880673095583915710e+00 2.416597120463848114e-02
-1.362562808394432068e+01 -8.994076415896415710e+00 2.762971632182598114e-02
-1.357203921675682068e+01 -9.107723876833915710e+00 3.109346143901348114e-02
-1.352553042769432068e+01 -9.226986572146415710e+00 3.474031202495098114e-02
-1.347145327925682068e+01 -9.341244384646415710e+00 3.821931593120098114e-02
-1.340968570113182068e+01 -9.450985595583915710e+00 4.157624952495098114e-02
-1.335548648238182068e+01 -9.565853759646415710e+00 4.507051222026348114e-02
-1.330104312300682068e+01 -9.680843994021415710e+00 4.858003370463848114e-02
-1.543263491988182068e+01 -9.981503173708915710e+00 5.114351026713848114e-02
-1.539979800581932068e+01 -1.012847582995891571e+01 5.450044386088848114e-02
-1.534022769331932068e+01 -1.025909106433391571e+01 5.851350538432598114e-02
-1.528090152144432068e+01 -1.039104907214641571e+01 6.254182569682598114e-02
-1.522157534956932068e+01 -1.052276293933391571e+01 6.655488722026348114e-02
-1.516188296675682068e+01 -1.065545336902141571e+01 7.059846632182598114e-02
-1.510231265425682068e+01 -1.078789965808391571e+01 7.464204542338848114e-02
-1.367665347456932068e+01 -9.946224853396415710e+00 1.097067426890134811e-01
-1.674269351363182068e+01 -1.080267016589641571e+01 1.049460005015134811e-01
-1.756178531050682068e+01 -1.151080004870891571e+01 9.366975538432598114e-02
-1.753261050581932068e+01 -1.168670336902141571e+01 9.768281690776348114e-02
-1.750319156050682068e+01 -1.186455981433391571e+01 1.017569135874509811e-01
-1.747365054488182068e+01 -1.204314868152141571e+01 1.058310102671384811e-01
-1.742445620894432068e+01 -1.221038500964641571e+01 1.103018354624509811e-01
-1.735866031050682068e+01 -1.236639086902141571e+01 1.150625776499509811e-01
-1.359681949019432068e+01 -9.886532470583915710e+00 1.824453901499509811e-01
-1.473988589644432068e+01 -9.539974853396415710e+00 2.169607710093259811e-01
-1.469825991988182068e+01 -9.673275634646415710e+00 2.207754682749509811e-01
-2.065651187300682068e+01 -1.372088305652141571e+01 1.486166547983884811e-01
-1.492421206831932068e+01 -1.014812915027141571e+01 2.246206831187009811e-01
-2.051246890425682068e+01 -1.409454028308391571e+01 1.600149702280759811e-01
-2.048219546675682068e+01 -1.431194750964641571e+01 1.652487348765134811e-01
-2.046156558394432068e+01 -1.453716723620891571e+01 1.704062055796384811e-01
-1.356752261519432068e+01 -9.862850829958915710e+00 2.540854047983884811e-01
-1.426845034956932068e+01 -9.240780517458915710e+00 2.950094770640134811e-01
-1.423634585738182068e+01 -9.374569579958915710e+00 2.991903852671384811e-01
-1.418886050581932068e+01 -9.499447509646415710e+00 3.031118940562009811e-01
-1.401027163863182068e+01 -9.538387939333915710e+00 3.079794477671384811e-01
-1.395802554488182068e+01 -9.659603759646415710e+00 3.119314741343259811e-01
-1.386513003706932068e+01 -9.753842040896415710e+00 3.161734174937009811e-01
-1.379005679488182068e+01 -9.859677001833915710e+00 3.202627729624509811e-01
-1.329945620894432068e+01 -9.669125244021415710e+00 3.263968061655759811e-01
-1.362855777144432068e+01 -8.835873290896415710e+00 3.687094282358884811e-01
-1.354603824019432068e+01 -8.930111572146415710e+00 3.726309370249509811e-01
-1.346583804488182068e+01 -9.025448486208915710e+00 3.765524458140134811e-01
-1.338905581831932068e+01 -9.123348876833915710e+00 3.804586958140134811e-01
-1.331984195113182068e+01 -9.225643798708915710e+00 3.843496870249509811e-01
-1.326014956831932068e+01 -9.335018798708915710e+00 3.882559370249509811e-01
-1.321376284956932068e+01 -9.453304931521415710e+00 3.921316694468259811e-01
-1.322694644331932068e+01 -9.614681884646415710e+00 3.960226606577634811e-01
-1.361464175581932068e+01 -8.824520751833915710e+00 4.370382856577634811e-01
-1.353163394331932068e+01 -8.918270751833915710e+00 4.408835005015134811e-01
-1.345106753706932068e+01 -9.013241454958915710e+00 4.450949262827634811e-01
-1.337330874800682068e+01 -9.110287353396415710e+00 4.489553999155759811e-01
-1.330739077925682068e+01 -9.214535400271415710e+00 4.528616499155759811e-01
-1.324550113081932068e+01 -9.322201415896415710e+00 4.567984174937009811e-01
-1.319459781050682068e+01 -9.437313720583915710e+00 4.604147505015134811e-01
-1.322487124800682068e+01 -9.610653564333915710e+00 4.648397993296384811e-01
-1.360377749800682068e+01 -8.815121337771415710e+00 5.056112837046384811e-01
-1.352064761519432068e+01 -8.908627197146415710e+00 5.093802046030759811e-01
-1.344032534956932068e+01 -9.003597900271415710e+00 5.131491255015134811e-01
-1.336354312300682068e+01 -9.101254150271415710e+00 5.169790815562009811e-01
-1.329469546675682068e+01 -9.203427001833915710e+00 5.208548139780759811e-01
-1.323439273238182068e+01 -9.312069579958915710e+00 5.248373579233884811e-01
-1.318422183394432068e+01 -9.427426025271415710e+00 5.289267133921384811e-01
-1.321791324019432068e+01 -9.603085204958915710e+00 5.339468549937009811e-01
-1.361329898238182068e+01 -8.818539306521415710e+00 5.739859174937009811e-01
-1.353053531050682068e+01 -8.912411376833915710e+00 5.776785444468259811e-01
-1.346010074019432068e+01 -9.013973876833915710e+00 5.815390180796384811e-01
-1.337697085738182068e+01 -9.107479736208915710e+00 5.852316450327634811e-01
-1.329274234175682068e+01 -9.199520751833915710e+00 5.888784956187009811e-01
-1.323207339644432068e+01 -9.307919189333915710e+00 5.929068159312009811e-01
-1.318080386519432068e+01 -9.422543212771415710e+00 5.970724653452634811e-01
-1.319435366988182068e+01 -9.583676025271415710e+00 6.023367475718259811e-01
-1.362001284956932068e+01 -8.820126220583915710e+00 6.427572797983884811e-01
-1.353712710738182068e+01 -8.913998290896415710e+00 6.463736128062009811e-01
-1.346705874800682068e+01 -9.015927001833915710e+00 6.502493452280759811e-01
-1.336708316206932068e+01 -9.098446533083915710e+00 6.535147260874509811e-01
-1.329689273238182068e+01 -9.199764892458915710e+00 6.573599409312009811e-01
-1.323536929488182068e+01 -9.307552978396415710e+00 6.614187788218259811e-01
-1.318373355269432068e+01 -9.421932861208915710e+00 6.656759809702634811e-01
-1.318995913863182068e+01 -9.577938720583915710e+00 6.712454389780759811e-01
-1.363746890425682068e+01 -8.828549072146415710e+00 7.115133833140134811e-01
-1.355189761519432068e+01 -8.920834228396415710e+00 7.149923872202634811e-01
-1.346986636519432068e+01 -9.015072509646415710e+00 7.185476850718259811e-01
-1.339137515425682068e+01 -9.111874267458915710e+00 7.222097944468259811e-01
-1.332203921675682068e+01 -9.214169189333915710e+00 7.260855268687009811e-01
-1.325905093550682068e+01 -9.321224853396415710e+00 7.301443647593259811e-01
-1.320485171675682068e+01 -9.434139892458915710e+00 7.344473432749509811e-01
-1.321058902144432068e+01 -9.589901611208915710e+00 7.404287885874509811e-01
-1.368763980269432068e+01 -8.857357665896415710e+00 7.817953657358884811e-01
-1.360292300581932068e+01 -8.950863525271415710e+00 7.852438520640134811e-01
-1.352162417769432068e+01 -9.046200439333915710e+00 7.884024213999509811e-01
-1.344374331831932068e+01 -9.143978759646415710e+00 7.920645307749509811e-01
-1.337330874800682068e+01 -9.246151611208915710e+00 7.959250044077634811e-01
-1.330909976363182068e+01 -9.352963134646415710e+00 8.000143598765134811e-01
-1.325404605269432068e+01 -9.465878173708915710e+00 8.047445844858884811e-01
-1.325282534956932068e+01 -9.617367431521415710e+00 8.109396528452634811e-01
-1.370521792769432068e+01 -8.865780517458915710e+00 8.511007856577634811e-01
-1.362013491988182068e+01 -8.959286376833915710e+00 8.544577192515134811e-01
-1.353895816206932068e+01 -9.054867431521415710e+00 8.579367231577634811e-01
-1.346107730269432068e+01 -9.152889892458915710e+00 8.615530561655759811e-01
-1.339039859175682068e+01 -9.255062744021415710e+00 8.653982710093259811e-01
-1.332838687300682068e+01 -9.363583251833915710e+00 8.696096967905759811e-01
-1.328712710738182068e+01 -9.486385986208915710e+00 8.745993208140134811e-01
