-2.843406289815902710e+00 -8.213662125170230865e+00 -4.968342738225999256e-01
-2.724265664815902710e+00 -8.143959976732730865e+00 -4.923024134710374256e-01
-2.607810586690902710e+00 -8.075722672045230865e+00 -4.876332240179124256e-01
-2.493308633565902710e+00 -8.008706070482730865e+00 -4.832844691350999256e-01
-2.381614297628402710e+00 -7.943398453295230865e+00 -4.790425257757249256e-01
-2.272361367940902710e+00 -7.879433609545230865e+00 -4.748768763616624256e-01
-2.164939492940902710e+00 -7.816445328295230865e+00 -4.710011439397874256e-01
-2.060081094503402710e+00 -7.755043961107730865e+00 -4.670033412054124256e-01
-2.844504922628402710e+00 -8.214272476732730865e+00 -4.541859583929124256e-01
-2.725364297628402710e+00 -8.144570328295230865e+00 -4.501118617132249256e-01
-2.608787149190902710e+00 -8.076333023607730865e+00 -4.461293177679124256e-01
-2.494407266378402710e+00 -8.009316422045230865e+00 -4.422078089788499256e-01
-2.382712930440902710e+00 -7.944008804857730865e+00 -4.383931117132249256e-01
-2.273337930440902710e+00 -7.879921890795230865e+00 -4.346547083929124256e-01
-2.165916055440902710e+00 -7.817055679857730865e+00 -4.309773402288499256e-01
-2.061057657003402710e+00 -7.755654312670230865e+00 -4.273915247991624256e-01
-2.845603555440902710e+00 -8.215004898607730865e+00 -4.117512660100999256e-01
-2.726462930440902710e+00 -8.145180679857730865e+00 -4.081349330022874256e-01
-2.609885782003402710e+00 -8.076943375170230865e+00 -4.046101527288499256e-01
-2.495383828878402710e+00 -8.009926773607730865e+00 -4.011311488225999256e-01
-2.383811563253402710e+00 -7.944619156420230865e+00 -3.977436976507249256e-01
-2.274436563253402710e+00 -7.880532242357730865e+00 -3.944325404241624256e-01
-2.166892617940902710e+00 -7.817666031420230865e+00 -3.911671595647874256e-01
-2.062034219503402710e+00 -7.756264664232730865e+00 -3.879933314397874256e-01
-2.846702188253402710e+00 -8.215615250170230865e+00 -3.690876917913499256e-01
-2.727561563253402710e+00 -8.145913101732730865e+00 -3.659443812444749256e-01
-2.610984414815902710e+00 -8.077553726732730865e+00 -3.628621058538499256e-01
-2.496482461690902710e+00 -8.010537125170230865e+00 -3.598408656194749256e-01
-2.384788125753402710e+00 -7.945229507982730865e+00 -3.568806605413499256e-01
-2.275413125753402710e+00 -7.881142593920230865e+00 -3.539967494085374256e-01
-2.167991250753402710e+00 -7.818276382982730865e+00 -3.511433558538499256e-01
-2.063010782003402710e+00 -7.756875015795230865e+00 -3.483815150335374256e-01
-2.847800821065902710e+00 -8.216225601732730865e+00 -3.266529994085374256e-01
-2.728660196065902710e+00 -8.146523453295230865e+00 -3.239674525335374256e-01
-2.612083047628402710e+00 -8.078286148607730865e+00 -3.213429408147874256e-01
-2.497581094503402710e+00 -8.011269547045230865e+00 -3.187489466741624256e-01
-2.385886758565902710e+00 -7.945839859545230865e+00 -3.162312464788499256e-01
-2.276511758565902710e+00 -7.881752945482730865e+00 -3.137593226507249256e-01
-2.168967813253402710e+00 -7.818886734545230865e+00 -3.113331751897874256e-01
-2.063987344503402710e+00 -7.757363297045230865e+00 -3.089680628850999256e-01
-2.848899453878402710e+00 -8.216835953295230865e+00 -2.839894251897874256e-01
-2.729758828878402710e+00 -8.147133804857730865e+00 -2.817616419866624256e-01
-2.613059610128402710e+00 -8.078896500170230865e+00 -2.798085169866624256e-01
-2.498557657003402710e+00 -8.011879898607730865e+00 -2.776722865179124256e-01
-2.386863321065902710e+00 -7.946450211107730865e+00 -2.755818324163499256e-01
-2.277488321065902710e+00 -7.882363297045230865e+00 -2.735371546819749256e-01
-2.169944375753402710e+00 -7.819497086107730865e+00 -2.713093714788499256e-01
-2.065085977315902710e+00 -7.757973648607730865e+00 -2.693409876897874256e-01
-2.849998086690902710e+00 -8.217568375170230865e+00 -2.415547328069749256e-01
-2.730857461690902710e+00 -8.147744156420230865e+00 -2.397847132757249256e-01
-2.614158242940902710e+00 -8.079506851732730865e+00 -2.380604701116624256e-01
-2.499656289815902710e+00 -8.012490250170230865e+00 -2.363514857366624256e-01
-2.387961953878402710e+00 -7.947060562670230865e+00 -2.347035365179124256e-01
-2.278464883565902710e+00 -7.882973648607730865e+00 -2.330861048772874256e-01
-2.171043008565902710e+00 -7.819985367357730865e+00 -2.314839320257249256e-01
-2.066062539815902710e+00 -7.758584000170230865e+00 -2.299275355413499256e-01
-2.851096719503402710e+00 -8.218178726732730865e+00 -1.988758997991624256e-01
-2.731834024190902710e+00 -8.148354507982730865e+00 -1.978077845647874256e-01
-2.615256875753402710e+00 -8.080117203295230865e+00 -1.965260462835374256e-01
-2.500754922628402710e+00 -8.013100601732730865e+00 -1.952748255804124256e-01
-2.388938516378402710e+00 -7.947670914232730865e+00 -1.940388636663499256e-01
-2.279563516378402710e+00 -7.883584000170230865e+00 -1.928486781194749256e-01
-2.172019571065902710e+00 -7.820595718920230865e+00 -1.916737513616624256e-01
-2.067039102315902710e+00 -7.759194351732730865e+00 -1.903004603460374256e-01
-2.852195352315902710e+00 -8.218789078295230865e+00 -1.564259486272874256e-01
-2.732932657003402710e+00 -8.149086929857730865e+00 -1.555867152288499256e-01
-2.616355508565902710e+00 -8.080727554857730865e+00 -1.547627406194749256e-01
-2.501731485128402710e+00 -8.013710953295230865e+00 -1.539540247991624256e-01
-2.390037149190902710e+00 -7.948281265795230865e+00 -1.531605677679124256e-01
-2.280540078878402710e+00 -7.884194351732730865e+00 -1.523976283147874256e-01
-2.172996133565902710e+00 -7.821206070482730865e+00 -1.516346888616624256e-01
-2.068015664815902710e+00 -7.759804703295230865e+00 -1.508870081975999256e-01
-2.853293985128402710e+00 -8.219521500170230865e+00 -1.137623744085374256e-01
-2.734031289815902710e+00 -8.149697281420230865e+00 -1.135945277288499256e-01
-2.617454141378402710e+00 -8.081337906420230865e+00 -1.132283167913499256e-01
-2.502830117940902710e+00 -8.014321304857730865e+00 -1.128621058538499256e-01
-2.391013711690902710e+00 -7.948891617357730865e+00 -1.124958949163499256e-01
-2.281638711690902710e+00 -7.884804703295230865e+00 -1.121449427679124256e-01
-2.174094766378402710e+00 -7.821816422045230865e+00 -1.118092494085374256e-01
-2.068992227315902710e+00 -7.760415054857730865e+00 -1.112599330022874256e-01
-2.854392617940902710e+00 -8.220131851732730865e+00 -7.129716444759992555e-02
-2.735129922628402710e+00 -8.150307632982730865e+00 -7.138871718197492555e-02
-2.618430703878402710e+00 -8.082070328295230865e+00 -7.146501112728742555e-02
-2.503928750753402710e+00 -8.014931656420230865e+00 -7.154130507259992555e-02
-2.392112344503402710e+00 -7.949501968920230865e+00 -7.161759901791242555e-02
-2.282615274190902710e+00 -7.885415054857730865e+00 -7.169389296322492555e-02
-2.175071328878402710e+00 -7.822426773607730865e+00 -7.177018690853742555e-02
-2.070090860128402710e+00 -7.760903336107730865e+00 -7.183122206478742555e-02
-2.855491250753402710e+00 -8.220742203295230865e+00 -2.861833143978742555e-02
-2.736228555440902710e+00 -8.150917984545230865e+00 -2.916764784603742555e-02
-2.619529336690902710e+00 -8.082680679857730865e+00 -2.991532851009992555e-02
-2.504905313253402710e+00 -8.015542007982730865e+00 -3.043412733822492555e-02
-2.393088907003402710e+00 -7.950112320482730865e+00 -3.095292616634992555e-02
-2.283713907003402710e+00 -7.886025406420230865e+00 -3.144120741634992555e-02
-2.176047891378402710e+00 -7.823037125170230865e+00 -3.171586561947492555e-02
-2.071067422628402710e+00 -7.761513687670230865e+00 -3.220414686947492555e-02
-2.856589883565902710e+00 -8.221474625170230865e+00 1.406050156802507445e-02
-2.737327188253402710e+00 -8.151650406420230865e+00 1.283979844302507445e-02
-2.620627969503402710e+00 -8.083291031420230865e+00 1.184797715396257445e-02
-2.506003946065902710e+00 -8.016152359545230865e+00 1.088667344302507445e-02
-2.394187539815902710e+00 -7.950722672045230865e+00 9.940628521150074448e-03
-2.284690469503402710e+00 -7.886635757982730865e+00 9.025101177400074448e-03
-2.177146524190902710e+00 -7.823647476732730865e+00 8.109573833650074448e-03
-2.072043985128402710e+00 -7.762124039232730865e+00 7.438187114900074448e-03
-1.460349649190902710e+00 -5.420571304857730865e+00 -6.055378871038499256e-01
-1.399680703878402710e+00 -5.432045914232730865e+00 -6.039814906194749256e-01
-1.338523477315902710e+00 -5.441445328295230865e+00 -6.024403529241624256e-01
-1.277244180440902710e+00 -5.450722672045230865e+00 -6.008839564397874256e-01
-1.216331094503402710e+00 -5.460000015795230865e+00 -5.993580775335374256e-01
-1.155418008565902710e+00 -5.469277359545230865e+00 -5.978169398382249256e-01
-1.094382852315902710e+00 -5.478554703295230865e+00 -5.962758021429124256e-01
-1.034202188253402710e+00 -5.491005875170230865e+00 -5.950856165960374256e-01
-1.574607461690902710e+00 -5.867592789232730865e+00 -6.013569789007249256e-01
-1.508811563253402710e+00 -5.877236343920230865e+00 -5.996937708929124256e-01
-1.443626016378402710e+00 -5.889565445482730865e+00 -5.980153040960374256e-01
-1.377830117940902710e+00 -5.899209000170230865e+00 -5.963673548772874256e-01
-1.312156289815902710e+00 -5.908974625170230865e+00 -5.947194056585374256e-01
-1.246726602315902710e+00 -5.918618179857730865e+00 -5.930714564397874256e-01
-1.180564492940902710e+00 -5.925698257982730865e+00 -5.914540247991624256e-01
-1.115378946065902710e+00 -5.935341812670230865e+00 -5.898060755804124256e-01
-1.714377969503402710e+00 -6.414345718920230865e+00 -5.978779749944749256e-01
-1.643210977315902710e+00 -6.426064468920230865e+00 -5.961537318304124256e-01
-1.572166055440902710e+00 -6.437661148607730865e+00 -5.944447474554124256e-01
-1.500999063253402710e+00 -6.449257828295230865e+00 -5.927205042913499256e-01
-1.430076211690902710e+00 -6.460976578295230865e+00 -5.910115199163499256e-01
-1.359275430440902710e+00 -6.472573257982730865e+00 -5.893025355413499256e-01
-1.288230508565902710e+00 -6.484169937670230865e+00 -5.875935511663499256e-01
-1.217551797628402710e+00 -6.495644547045230865e+00 -5.858845667913499256e-01
-1.895286172628402710e+00 -7.122231461107730865e+00 -5.966267542913499256e-01
-1.817893594503402710e+00 -7.138833023607730865e+00 -5.947346644475999256e-01
-1.739524453878402710e+00 -7.151284195482730865e+00 -5.928425746038499256e-01
-1.660911172628402710e+00 -7.163613297045230865e+00 -5.909504847600999256e-01
-1.582786172628402710e+00 -7.176064468920230865e+00 -5.890736537054124256e-01
-1.504661172628402710e+00 -7.188393570482730865e+00 -5.871815638616624256e-01
-1.426414102315902710e+00 -7.200722672045230865e+00 -5.853047328069749256e-01
-1.347678750753402710e+00 -7.208901382982730865e+00 -5.834431605413499256e-01
-2.056541055440902710e+00 -7.752846695482730865e+00 -5.853810267522874256e-01
-1.953757852315902710e+00 -7.692666031420230865e+00 -5.804219203069749256e-01
-1.852927774190902710e+00 -7.633584000170230865e+00 -5.755543665960374256e-01
-1.753562539815902710e+00 -7.575478531420230865e+00 -5.707478480413499256e-01
-1.656394571065902710e+00 -7.518471695482730865e+00 -5.660633997991624256e-01
-1.566184610128402710e+00 -7.489052750170230865e+00 -5.624775843694749256e-01
-1.477561563253402710e+00 -7.463662125170230865e+00 -5.590748744085374256e-01
-1.390159219503402710e+00 -7.438149429857730865e+00 -5.557026820257249256e-01
-2.057639688253402710e+00 -7.753457047045230865e+00 -5.459828333929124256e-01
-1.954734414815902710e+00 -7.693276382982730865e+00 -5.411915736272874256e-01
-1.853904336690902710e+00 -7.634194351732730865e+00 -5.366902308538499256e-01
-1.754539102315902710e+00 -7.575966812670230865e+00 -5.322499232366624256e-01
-1.657249063253402710e+00 -7.519082047045230865e+00 -5.279164271429124256e-01
-1.567039102315902710e+00 -7.489052750170230865e+00 -5.245289759710374256e-01
-1.478538125753402710e+00 -7.463906265795230865e+00 -5.213398890569749256e-01
-1.391013711690902710e+00 -7.438393570482730865e+00 -5.183644251897874256e-01
-2.058616250753402710e+00 -7.753945328295230865e+00 -5.063862757757249256e-01
-1.955710977315902710e+00 -7.693764664232730865e+00 -5.021595912054124256e-01
-1.854880899190902710e+00 -7.634682632982730865e+00 -4.980244593694749256e-01
-1.755515664815902710e+00 -7.576577164232730865e+00 -4.939503626897874256e-01
-1.658225625753402710e+00 -7.519692398607730865e+00 -4.899525599554124256e-01
-1.567893594503402710e+00 -7.489052750170230865e+00 -4.867787318304124256e-01
-1.479392617940902710e+00 -7.464272476732730865e+00 -4.838032679632249256e-01
-1.391868203878402710e+00 -7.438637711107730865e+00 -4.808278040960374256e-01
-2.059592813253402710e+00 -7.754555679857730865e+00 -4.669880824163499256e-01
-1.956809610128402710e+00 -7.694375015795230865e+00 -4.631428675725999256e-01
-1.855857461690902710e+00 -7.635292984545230865e+00 -4.591603236272874256e-01
-1.756492227315902710e+00 -7.577065445482730865e+00 -4.554371790960374256e-01
-1.659202188253402710e+00 -7.520180679857730865e+00 -4.518055872991624256e-01
-1.568748086690902710e+00 -7.489052750170230865e+00 -4.488453822210374256e-01
-1.480247110128402710e+00 -7.464516617357730865e+00 -4.462666468694749256e-01
-1.392722696065902710e+00 -7.438881851732730865e+00 -4.434895472600999256e-01
-2.060569375753402710e+00 -7.755166031420230865e+00 -4.273762660100999256e-01
-1.957786172628402710e+00 -7.694985367357730865e+00 -4.238972621038499256e-01
-1.856834024190902710e+00 -7.635903336107730865e+00 -4.204945521429124256e-01
-1.757346719503402710e+00 -7.577675797045230865e+00 -4.171376185491624256e-01
-1.660178750753402710e+00 -7.520791031420230865e+00 -4.138417201116624256e-01
-1.569602578878402710e+00 -7.489174820482730865e+00 -4.110951380804124256e-01
-1.481101602315902710e+00 -7.464760757982730865e+00 -4.085164027288499256e-01
-1.393577188253402710e+00 -7.439125992357730865e+00 -4.059376673772874256e-01
-2.061545938253402710e+00 -7.755776382982730865e+00 -3.879780726507249256e-01
-1.958762735128402710e+00 -7.695595718920230865e+00 -3.848652796819749256e-01
-1.857810586690902710e+00 -7.636391617357730865e+00 -3.818287806585374256e-01
-1.758323282003402710e+00 -7.578286148607730865e+00 -3.788227992132249256e-01
-1.661155313253402710e+00 -7.521279312670230865e+00 -3.758931117132249256e-01
-1.570457071065902710e+00 -7.489174820482730865e+00 -3.733601527288499256e-01
-1.481956094503402710e+00 -7.465004898607730865e+00 -3.709797816350999256e-01
-1.394431680440902710e+00 -7.439370132982730865e+00 -3.686146693304124256e-01
-2.062644571065902710e+00 -7.756386734545230865e+00 -3.483662562444749256e-01
-1.959739297628402710e+00 -7.696084000170230865e+00 -3.456349330022874256e-01
-1.858787149190902710e+00 -7.637001968920230865e+00 -3.429493861272874256e-01
-1.759299844503402710e+00 -7.578774429857730865e+00 -3.403096156194749256e-01
-1.662009805440902710e+00 -7.521889664232730865e+00 -3.377156214788499256e-01
-1.571189492940902710e+00 -7.489174820482730865e+00 -3.354268031194749256e-01
-1.482932657003402710e+00 -7.465249039232730865e+00 -3.332447962835374256e-01
-1.395408242940902710e+00 -7.439614273607730865e+00 -3.310780482366624256e-01
-2.063621133565902710e+00 -7.756875015795230865e+00 -3.089528040960374256e-01
-1.960715860128402710e+00 -7.696694351732730865e+00 -3.065876917913499256e-01
-1.859763711690902710e+00 -7.637612320482730865e+00 -3.042836146429124256e-01
-1.760276407003402710e+00 -7.579384781420230865e+00 -3.019947962835374256e-01
-1.662986367940902710e+00 -7.522377945482730865e+00 -2.997517542913499256e-01
-1.572043985128402710e+00 -7.489174820482730865e+00 -2.976918177679124256e-01
-1.483787149190902710e+00 -7.465493179857730865e+00 -2.957081751897874256e-01
-1.396262735128402710e+00 -7.439858414232730865e+00 -2.937397914007249256e-01
-2.064597696065902710e+00 -7.757485367357730865e+00 -2.693409876897874256e-01
-1.961692422628402710e+00 -7.697304703295230865e+00 -2.673420863225999256e-01
-1.860740274190902710e+00 -7.638222672045230865e+00 -2.656025843694749256e-01
-1.761252969503402710e+00 -7.579995132982730865e+00 -2.636799769475999256e-01
-1.663962930440902710e+00 -7.522988297045230865e+00 -2.617878871038499256e-01
-1.572898477315902710e+00 -7.489296890795230865e+00 -2.599720912054124256e-01
-1.484641641378402710e+00 -7.465737320482730865e+00 -2.579731898382249256e-01
-1.397117227315902710e+00 -7.440102554857730865e+00 -2.562031703069749256e-01
-2.065574258565902710e+00 -7.758095718920230865e+00 -2.299275355413499256e-01
-1.962668985128402710e+00 -7.697915054857730865e+00 -2.283101039007249256e-01
-1.861716836690902710e+00 -7.638710953295230865e+00 -2.267231898382249256e-01
-1.762229532003402710e+00 -7.580483414232730865e+00 -2.251515345647874256e-01
-1.664939492940902710e+00 -7.523598648607730865e+00 -2.236256556585374256e-01
-1.573752969503402710e+00 -7.489296890795230865e+00 -2.220387415960374256e-01
-1.485496133565902710e+00 -7.465981461107730865e+00 -2.204365687444749256e-01
-1.397971719503402710e+00 -7.440346695482730865e+00 -2.188649134710374256e-01
-2.066550821065902710e+00 -7.758706070482730865e+00 -1.903004603460374256e-01
-1.963645547628402710e+00 -7.698403336107730865e+00 -1.892628626897874256e-01
-1.862693399190902710e+00 -7.639321304857730865e+00 -1.880421595647874256e-01
-1.763206094503402710e+00 -7.581093765795230865e+00 -1.868367152288499256e-01
-1.665793985128402710e+00 -7.524086929857730865e+00 -1.856465296819749256e-01
-1.574607461690902710e+00 -7.489296890795230865e+00 -1.843190150335374256e-01
-1.486350625753402710e+00 -7.466225601732730865e+00 -1.828999476507249256e-01
-1.398826211690902710e+00 -7.440590836107730865e+00 -1.813282923772874256e-01
-2.067649453878402710e+00 -7.759316422045230865e+00 -1.508870081975999256e-01
-1.964622110128402710e+00 -7.699013687670230865e+00 -1.500172572210374256e-01
-1.863669961690902710e+00 -7.639931656420230865e+00 -1.491475062444749256e-01
-1.764182657003402710e+00 -7.581582047045230865e+00 -1.483082728460374256e-01
-1.666770547628402710e+00 -7.524697281420230865e+00 -1.474690394475999256e-01
-1.575461953878402710e+00 -7.489418961107730865e+00 -1.464009242132249256e-01
-1.487205117940902710e+00 -7.466469742357730865e+00 -1.451649622991624256e-01
-1.399680703878402710e+00 -7.440834976732730865e+00 -1.439900355413499256e-01
-2.068626016378402710e+00 -7.759926773607730865e+00 -1.112599330022874256e-01
-1.965598672628402710e+00 -7.699624039232730865e+00 -1.109700160100999256e-01
-1.864646524190902710e+00 -7.640419937670230865e+00 -1.104664759710374256e-01
-1.765159219503402710e+00 -7.582192398607730865e+00 -1.099781947210374256e-01
-1.667747110128402710e+00 -7.525185562670230865e+00 -1.095051722600999256e-01
-1.576316446065902710e+00 -7.489418961107730865e+00 -1.086811976507249256e-01
-1.488181680440902710e+00 -7.466713882982730865e+00 -1.076283412054124256e-01
-1.400657266378402710e+00 -7.441201187670230865e+00 -1.064686732366624256e-01
-2.069602578878402710e+00 -7.760415054857730865e+00 -7.184648085384992555e-02
-1.966575235128402710e+00 -7.700234390795230865e+00 -7.170915175228742555e-02
-1.865623086690902710e+00 -7.641030289232730865e+00 -7.157182265072492555e-02
-1.766013711690902710e+00 -7.582802750170230865e+00 -7.144975233822492555e-02
-1.668723672628402710e+00 -7.525795914232730865e+00 -7.131242323666242555e-02
-1.577170938253402710e+00 -7.489418961107730865e+00 -7.076310683041242555e-02
-1.489036172628402710e+00 -7.466958023607730865e+00 -6.989335585384992555e-02
-1.401511758565902710e+00 -7.441445328295230865e+00 -6.913041640072492555e-02
-2.070579141378402710e+00 -7.761025406420230865e+00 -3.220414686947492555e-02
-1.967673867940902710e+00 -7.700722672045230865e+00 -3.244828749447492555e-02
-1.866599649190902710e+00 -7.641640640795230865e+00 -3.289079237728742555e-02
-1.766990274190902710e+00 -7.583291031420230865e+00 -3.311967421322492555e-02
-1.669700235128402710e+00 -7.526284195482730865e+00 -3.333329726009992555e-02
-1.577903360128402710e+00 -7.489418961107730865e+00 -3.304338026791242555e-02
-1.489890664815902710e+00 -7.467202164232730865e+00 -3.215837050228742555e-02
-1.402366250753402710e+00 -7.441689468920230865e+00 -3.159379530697492555e-02
-2.071555703878402710e+00 -7.761635757982730865e+00 7.422928325837574448e-03
-1.968650430440902710e+00 -7.701333023607730865e+00 6.614212505525074448e-03
-1.867576211690902710e+00 -7.642128922045230865e+00 6.019119732087574448e-03
-1.767966836690902710e+00 -7.583901382982730865e+00 5.424026958650074448e-03
-1.670676797628402710e+00 -7.526894547045230865e+00 4.844192974275074448e-03
-1.578757852315902710e+00 -7.489541031420230865e+00 4.874710552400074448e-03
-1.490745157003402710e+00 -7.467446304857730865e+00 5.362991802400074448e-03
-1.403220742940902710e+00 -7.441933609545230865e+00 5.942825786775074448e-03
-1.034080117940902710e+00 -5.491127945482730865e+00 -5.950856165960374256e-01
-9.743877351284027100e-01 -5.506508804857730865e+00 -5.939412074163499256e-01
-9.142070710659027100e-01 -5.519814468920230865e+00 -5.928120570257249256e-01
-8.537822663784027100e-01 -5.533120132982730865e+00 -5.916829066350999256e-01
-7.933574616909027100e-01 -5.546425797045230865e+00 -5.905690150335374256e-01
-7.329326570034027100e-01 -5.559731461107730865e+00 -5.894398646429124256e-01
-6.722637116909027100e-01 -5.573159195482730865e+00 -5.883107142522874256e-01
-6.113506257534027100e-01 -5.584267593920230865e+00 -5.872120814397874256e-01
-1.115134805440902710e+00 -5.935341812670230865e+00 -5.898060755804124256e-01
-1.050071328878402710e+00 -5.945961929857730865e+00 -5.884022669866624256e-01
-9.859844148159027100e-01 -5.963051773607730865e+00 -5.871663050725999256e-01
-9.212871491909027100e-01 -5.977700211107730865e+00 -5.859456019475999256e-01
-8.569560945034027100e-01 -5.995034195482730865e+00 -5.848774867132249256e-01
-7.934795320034027100e-01 -6.020302750170230865e+00 -5.841908412054124256e-01
-7.292705476284027100e-01 -6.042885757982730865e+00 -5.835347132757249256e-01
-6.651836335659027100e-01 -6.068276382982730865e+00 -5.828480677679124256e-01
-1.217307657003402710e+00 -6.495644547045230865e+00 -5.858693080022874256e-01
-1.146140664815902710e+00 -6.503823257982730865e+00 -5.841755824163499256e-01
-1.075095742940902710e+00 -6.513222672045230865e+00 -5.825428919866624256e-01
-1.005271524190902710e+00 -6.531899429857730865e+00 -5.813374476507249256e-01
-9.355693757534027100e-01 -6.550576187670230865e+00 -5.801320033147874256e-01
-8.656230866909027100e-01 -6.569252945482730865e+00 -5.789265589788499256e-01
-7.953105866909027100e-01 -6.588173843920230865e+00 -5.777058558538499256e-01
-7.251201570034027100e-01 -6.606972672045230865e+00 -5.764851527288499256e-01
-1.347434610128402710e+00 -7.208901382982730865e+00 -5.834279017522874256e-01
-1.269675821065902710e+00 -7.221840836107730865e+00 -5.815510706975999256e-01
-1.191306680440902710e+00 -7.230629898607730865e+00 -5.796894984319749256e-01
-1.112571328878402710e+00 -7.239418961107730865e+00 -5.778279261663499256e-01
-1.035422891378402710e+00 -7.256020523607730865e+00 -5.762867884710374256e-01
-9.586406648159027100e-01 -7.277504898607730865e+00 -5.749592738225999256e-01
-8.802715241909027100e-01 -7.289101578295230865e+00 -5.732045130804124256e-01
-7.983623445034027100e-01 -7.265053726732730865e+00 -5.701985316350999256e-01
-1.389793008565902710e+00 -7.437905289232730865e+00 -5.556874232366624256e-01
-1.303123086690902710e+00 -7.412636734545230865e+00 -5.524830775335374256e-01
-1.217307657003402710e+00 -7.387490250170230865e+00 -5.493092494085374256e-01
-1.131980508565902710e+00 -7.362587906420230865e+00 -5.461506800725999256e-01
-1.047751992940902710e+00 -7.337929703295230865e+00 -5.430378871038499256e-01
-9.642558991909027100e-01 -7.313515640795230865e+00 -5.399403529241624256e-01
-8.811260163784027100e-01 -7.289345718920230865e+00 -5.368733363225999256e-01
-7.992168366909027100e-01 -7.265297867357730865e+00 -5.338368372991624256e-01
-1.390647500753402710e+00 -7.438149429857730865e+00 -5.183491664007249256e-01
-1.303977578878402710e+00 -7.412880875170230865e+00 -5.151143031194749256e-01
-1.218162149190902710e+00 -7.387734390795230865e+00 -5.121083216741624256e-01
-1.132835000753402710e+00 -7.362832047045230865e+00 -5.091328578069749256e-01
-1.048606485128402710e+00 -7.338173843920230865e+00 -5.061726527288499256e-01
-9.651103913784027100e-01 -7.313759781420230865e+00 -5.032582240179124256e-01
-8.819805085659027100e-01 -7.289589859545230865e+00 -5.003590540960374256e-01
-8.000713288784027100e-01 -7.265542007982730865e+00 -4.976735072210374256e-01
-1.391501992940902710e+00 -7.438393570482730865e+00 -4.808125453069749256e-01
-1.304954141378402710e+00 -7.413125015795230865e+00 -4.779438929632249256e-01
-1.219016641378402710e+00 -7.387978531420230865e+00 -4.751210169866624256e-01
-1.133689492940902710e+00 -7.363076187670230865e+00 -4.722981410100999256e-01
-1.049460977315902710e+00 -7.338417984545230865e+00 -4.695210414007249256e-01
-9.659648835659027100e-01 -7.314003922045230865e+00 -4.667744593694749256e-01
-8.828350007534027100e-01 -7.289834000170230865e+00 -4.640278773382249256e-01
-8.009258210659027100e-01 -7.265786148607730865e+00 -4.613270716741624256e-01
-1.392356485128402710e+00 -7.438637711107730865e+00 -4.434742884710374256e-01
-1.305808633565902710e+00 -7.413369156420230865e+00 -4.407887415960374256e-01
-1.219871133565902710e+00 -7.388222672045230865e+00 -4.379200892522874256e-01
-1.134543985128402710e+00 -7.363320328295230865e+00 -4.352803187444749256e-01
-1.050315469503402710e+00 -7.338662125170230865e+00 -4.326710658147874256e-01
-9.668193757534027100e-01 -7.314248062670230865e+00 -4.300770716741624256e-01
-8.836894929409027100e-01 -7.290078140795230865e+00 -4.277119593694749256e-01
-8.016582429409027100e-01 -7.266030289232730865e+00 -4.251637415960374256e-01
-1.393333047628402710e+00 -7.438881851732730865e+00 -4.059376673772874256e-01
-1.306663125753402710e+00 -7.413613297045230865e+00 -4.034199671819749256e-01
-1.220847696065902710e+00 -7.388466812670230865e+00 -4.009327845647874256e-01
-1.135398477315902710e+00 -7.363564468920230865e+00 -3.984608607366624256e-01
-1.051169961690902710e+00 -7.338906265795230865e+00 -3.960194544866624256e-01
-9.676738679409027100e-01 -7.314492203295230865e+00 -3.935933070257249256e-01
-8.845439851284027100e-01 -7.290322281420230865e+00 -3.911824183538499256e-01
-8.025127351284027100e-01 -7.266274429857730865e+00 -3.888020472600999256e-01
-1.394187539815902710e+00 -7.439125992357730865e+00 -3.685994105413499256e-01
-1.307517617940902710e+00 -7.413857437670230865e+00 -3.662648158147874256e-01
-1.221702188253402710e+00 -7.388710953295230865e+00 -3.639454798772874256e-01
-1.136252969503402710e+00 -7.363808609545230865e+00 -3.616414027288499256e-01
-1.052024453878402710e+00 -7.339150406420230865e+00 -3.593525843694749256e-01
-9.685283601284027100e-01 -7.314736343920230865e+00 -3.571095423772874256e-01
-8.853984773159027100e-01 -7.290566422045230865e+00 -3.548665003850999256e-01
-8.033672273159027100e-01 -7.266518570482730865e+00 -3.526539759710374256e-01
-1.395042032003402710e+00 -7.439370132982730865e+00 -3.310627894475999256e-01
-1.308372110128402710e+00 -7.414101578295230865e+00 -3.288960414007249256e-01
-1.222556680440902710e+00 -7.388955093920230865e+00 -3.267445521429124256e-01
-1.137107461690902710e+00 -7.364052750170230865e+00 -3.246235804632249256e-01
-1.052878946065902710e+00 -7.339394547045230865e+00 -3.225026087835374256e-01
-9.693828523159027100e-01 -7.314980484545230865e+00 -3.204274134710374256e-01
-8.862529695034027100e-01 -7.290810562670230865e+00 -3.183522181585374256e-01
-8.042217195034027100e-01 -7.266762711107730865e+00 -3.162922816350999256e-01
-1.395896524190902710e+00 -7.439614273607730865e+00 -2.937245326116624256e-01
-1.309226602315902710e+00 -7.414345718920230865e+00 -2.917408900335374256e-01
-1.223411172628402710e+00 -7.389199234545230865e+00 -2.897572474554124256e-01
-1.138084024190902710e+00 -7.364296890795230865e+00 -2.877888636663499256e-01
-1.053733438253402710e+00 -7.339638687670230865e+00 -2.858509974554124256e-01
-9.702373445034027100e-01 -7.315224625170230865e+00 -2.839283900335374256e-01
-8.871074616909027100e-01 -7.291054703295230865e+00 -2.820210414007249256e-01
-8.050762116909027100e-01 -7.267006851732730865e+00 -2.801289515569749256e-01
-1.396751016378402710e+00 -7.439858414232730865e+00 -2.561879115179124256e-01
-1.310081094503402710e+00 -7.414589859545230865e+00 -2.543721156194749256e-01
-1.224265664815902710e+00 -7.389565445482730865e+00 -2.527699427679124256e-01
-1.138938516378402710e+00 -7.364541031420230865e+00 -2.509694056585374256e-01
-1.054587930440902710e+00 -7.339882828295230865e+00 -2.491993861272874256e-01
-9.710918366909027100e-01 -7.315468765795230865e+00 -2.474446253850999256e-01
-8.879619538784027100e-01 -7.291298843920230865e+00 -2.455067591741624256e-01
-8.059307038784027100e-01 -7.267250992357730865e+00 -2.437825160100999256e-01
-1.397605508565902710e+00 -7.440224625170230865e+00 -2.188649134710374256e-01
-1.310935586690902710e+00 -7.414834000170230865e+00 -2.172169642522874256e-01
-1.225120157003402710e+00 -7.389809586107730865e+00 -2.155842738225999256e-01
-1.139793008565902710e+00 -7.364785172045230865e+00 -2.139515833929124256e-01
-1.055442422628402710e+00 -7.340126968920230865e+00 -2.123494105413499256e-01
-9.719463288784027100e-01 -7.315712906420230865e+00 -2.107624964788499256e-01
-8.888164460659027100e-01 -7.291542984545230865e+00 -2.091908412054124256e-01
-8.067851960659027100e-01 -7.267495132982730865e+00 -2.076191859319749256e-01
-1.398582071065902710e+00 -7.440468765795230865e+00 -1.813282923772874256e-01
-1.311912149190902710e+00 -7.415078140795230865e+00 -1.800465540960374256e-01
-1.225974649190902710e+00 -7.390053726732730865e+00 -1.785817103460374256e-01
-1.140647500753402710e+00 -7.365029312670230865e+00 -1.771321253850999256e-01
-1.056296914815902710e+00 -7.340371109545230865e+00 -1.756977992132249256e-01
-9.728008210659027100e-01 -7.315957047045230865e+00 -1.742787318304124256e-01
-8.896709382534027100e-01 -7.291787125170230865e+00 -1.728596644475999256e-01
-8.076396882534027100e-01 -7.267739273607730865e+00 -1.712727503850999256e-01
-1.399436563253402710e+00 -7.440712906420230865e+00 -1.439900355413499256e-01
-1.312766641378402710e+00 -7.415322281420230865e+00 -1.426930384710374256e-01
-1.226829141378402710e+00 -7.390297867357730865e+00 -1.413960414007249256e-01
-1.141501992940902710e+00 -7.365273453295230865e+00 -1.401143031194749256e-01
-1.057151407003402710e+00 -7.340615250170230865e+00 -1.388478236272874256e-01
-9.736553132534027100e-01 -7.316201187670230865e+00 -1.375966029241624256e-01
-8.905254304409027100e-01 -7.292031265795230865e+00 -1.363453822210374256e-01
-8.084941804409027100e-01 -7.267983414232730865e+00 -1.351094203069749256e-01
-1.400291055440902710e+00 -7.440957047045230865e+00 -1.064534144475999256e-01
-1.313621133565902710e+00 -7.415566422045230865e+00 -1.055378871038499256e-01
-1.227683633565902710e+00 -7.390542007982730865e+00 -1.044087367132249256e-01
-1.142356485128402710e+00 -7.365517593920230865e+00 -1.032948451116624256e-01
-1.058005899190902710e+00 -7.340859390795230865e+00 -1.021962122991624256e-01
-9.745098054409027100e-01 -7.316445328295230865e+00 -1.011128382757249256e-01
-8.913799226284027100e-01 -7.292275406420230865e+00 -1.000294642522874256e-01
-8.093486726284027100e-01 -7.268227554857730865e+00 -9.876298476009992555e-02
-1.401145547628402710e+00 -7.441201187670230865e+00 -6.913041640072492555e-02
-1.314475625753402710e+00 -7.415810562670230865e+00 -6.816911268978742555e-02
-1.228538125753402710e+00 -7.390786148607730865e+00 -6.722306776791242555e-02
-1.143210977315902710e+00 -7.365761734545230865e+00 -6.627702284603742555e-02
-1.058860391378402710e+00 -7.341103531420230865e+00 -6.534623671322492555e-02
-9.753642976284027100e-01 -7.316689468920230865e+00 -6.443070936947492555e-02
-8.922344148159027100e-01 -7.292519547045230865e+00 -6.351518202572492555e-02
-8.102031648159027100e-01 -7.268471695482730865e+00 -6.259965468197492555e-02
-1.402000039815902710e+00 -7.441445328295230865e+00 -3.159379530697492555e-02
-1.315330117940902710e+00 -7.416054703295230865e+00 -3.081559706478742555e-02
-1.229514688253402710e+00 -7.391030289232730865e+00 -3.023576308041242555e-02
-1.144065469503402710e+00 -7.366005875170230865e+00 -2.945756483822492555e-02
-1.059714883565902710e+00 -7.341347672045230865e+00 -2.869462538509992555e-02
-9.762187898159027100e-01 -7.316933609545230865e+00 -2.794694472103742555e-02
-8.930889070034027100e-01 -7.292763687670230865e+00 -2.700089979916242555e-02
-8.110576570034027100e-01 -7.268715836107730865e+00 -2.625321913509992555e-02
-1.402854532003402710e+00 -7.441689468920230865e+00 5.927566997712574448e-03
-1.316184610128402710e+00 -7.416298843920230865e+00 6.339554302400074448e-03
-1.230369180440902710e+00 -7.391274429857730865e+00 6.949905864900074448e-03
-1.144919961690902710e+00 -7.366250015795230865e+00 7.544998638337574448e-03
-1.060569375753402710e+00 -7.341591812670230865e+00 8.140091411775074448e-03
-9.770732820034027100e-01 -7.317177750170230865e+00 8.735184185212574448e-03
-8.939433991909027100e-01 -7.293007828295230865e+00 9.315018169587574448e-03
-8.119121491909027100e-01 -7.268959976732730865e+00 1.009321641177507445e-02
-6.112285554409027100e-01 -5.584389664232730865e+00 -5.872120814397874256e-01
-5.504375398159027100e-01 -5.597207047045230865e+00 -5.860829310491624256e-01
-4.894023835659027100e-01 -5.608315445482730865e+00 -5.850148158147874256e-01
-4.286113679409027100e-01 -5.627968765795230865e+00 -5.843892054632249256e-01
-3.678203523159027100e-01 -5.647744156420230865e+00 -5.837788539007249256e-01
-3.066631257534027100e-01 -5.667641617357730865e+00 -5.831685023382249256e-01
-2.450176179409027100e-01 -5.687661148607730865e+00 -5.825428919866624256e-01
-1.832500398159027100e-01 -5.705239273607730865e+00 -5.819325404241624256e-01
-6.650615632534027100e-01 -6.068520523607730865e+00 -5.828480677679124256e-01
-6.003642976284027100e-01 -6.090859390795230865e+00 -5.821919398382249256e-01
-5.355449616909027100e-01 -6.116250015795230865e+00 -5.815052943304124256e-01
-4.699932038784027100e-01 -6.138955093920230865e+00 -5.808339076116624256e-01
-4.041973054409027100e-01 -6.161782242357730865e+00 -5.801472621038499256e-01
-3.381572663784027100e-01 -6.184609390795230865e+00 -5.794758753850999256e-01
-2.712627351284027100e-01 -6.203896500170230865e+00 -5.787739710882249256e-01
-2.044902741909027100e-01 -6.224160172045230865e+00 -5.779499964788499256e-01
-7.248760163784027100e-01 -6.607094742357730865e+00 -5.764851527288499256e-01
-6.541973054409027100e-01 -6.623208023607730865e+00 -5.753102259710374256e-01
-5.838848054409027100e-01 -6.645791031420230865e+00 -5.744404749944749256e-01
-5.128398835659027100e-01 -6.668618179857730865e+00 -5.735402064397874256e-01
-4.419170320034027100e-01 -6.691445328295230865e+00 -5.726551966741624256e-01
-3.705058991909027100e-01 -6.714394547045230865e+00 -5.717549281194749256e-01
-2.984844148159027100e-01 -6.737587906420230865e+00 -5.708546595647874256e-01
-2.264629304409027100e-01 -6.760781265795230865e+00 -5.699543910100999256e-01
-7.979961335659027100e-01 -7.264931656420230865e+00 -5.701832728460374256e-01
-7.166973054409027100e-01 -7.241127945482730865e+00 -5.669789271429124256e-01
-6.360088288784027100e-01 -7.217568375170230865e+00 -5.640034632757249256e-01
-5.555644929409027100e-01 -7.194008804857730865e+00 -5.610279994085374256e-01
-4.760967195034027100e-01 -7.170815445482730865e+00 -5.580983119085374256e-01
-3.972392976284027100e-01 -7.147744156420230865e+00 -5.551838831975999256e-01
-3.186260163784027100e-01 -7.124794937670230865e+00 -5.522694544866624256e-01
-2.408672273159027100e-01 -7.102089859545230865e+00 -5.495839076116624256e-01
-7.988506257534027100e-01 -7.265175797045230865e+00 -5.338368372991624256e-01
-7.175517976284027100e-01 -7.241372086107730865e+00 -5.309529261663499256e-01
-6.368633210659027100e-01 -7.217812515795230865e+00 -5.281147914007249256e-01
-5.564189851284027100e-01 -7.194252945482730865e+00 -5.252766566350999256e-01
-4.769512116909027100e-01 -7.171059586107730865e+00 -5.224690394475999256e-01
-3.979717195034027100e-01 -7.147988297045230865e+00 -5.196919398382249256e-01
-3.194805085659027100e-01 -7.125039078295230865e+00 -5.169148402288499256e-01
-2.417217195034027100e-01 -7.102334000170230865e+00 -5.141682581975999256e-01
-7.997051179409027100e-01 -7.265419937670230865e+00 -4.976735072210374256e-01
-7.184062898159027100e-01 -7.241616226732730865e+00 -4.947438197210374256e-01
-6.377178132534027100e-01 -7.218056656420230865e+00 -4.920277552679124256e-01
-5.572734773159027100e-01 -7.194497086107730865e+00 -4.893269496038499256e-01
-4.778057038784027100e-01 -7.171303726732730865e+00 -4.866566615179124256e-01
-3.988262116909027100e-01 -7.148232437670230865e+00 -4.840168910100999256e-01
-3.202129304409027100e-01 -7.125283218920230865e+00 -4.813771205022874256e-01
-2.425762116909027100e-01 -7.102578140795230865e+00 -4.789509730413499256e-01
-8.005596101284027100e-01 -7.265664078295230865e+00 -4.613118128850999256e-01
-7.192607820034027100e-01 -7.241860367357730865e+00 -4.587178187444749256e-01
-6.385723054409027100e-01 -7.218300797045230865e+00 -4.561390833929124256e-01
-5.581279695034027100e-01 -7.194741226732730865e+00 -4.535756068304124256e-01
-4.786601960659027100e-01 -7.171547867357730865e+00 -4.510426478460374256e-01
-3.996807038784027100e-01 -7.148476578295230865e+00 -4.485249476507249256e-01
-3.210674226284027100e-01 -7.125527359545230865e+00 -4.460225062444749256e-01
-2.433086335659027100e-01 -7.102822281420230865e+00 -4.435353236272874256e-01
-8.014141023159027100e-01 -7.265908218920230865e+00 -4.251484828069749256e-01
-7.201152741909027100e-01 -7.242104507982730865e+00 -4.226918177679124256e-01
-6.394267976284027100e-01 -7.218544937670230865e+00 -4.200673060491624256e-01
-5.589824616909027100e-01 -7.194985367357730865e+00 -4.176411585882249256e-01
-4.795146882534027100e-01 -7.171792007982730865e+00 -4.152302699163499256e-01
-4.005351960659027100e-01 -7.148720718920230865e+00 -4.128498988225999256e-01
-3.219219148159027100e-01 -7.125771500170230865e+00 -4.106678919866624256e-01
-2.441631257534027100e-01 -7.102944351732730865e+00 -4.083180384710374256e-01
-8.022685945034027100e-01 -7.266152359545230865e+00 -3.888020472600999256e-01
-7.209697663784027100e-01 -7.242348648607730865e+00 -3.864827113225999256e-01
-6.401592195034027100e-01 -7.218789078295230865e+00 -3.841786341741624256e-01
-5.598369538784027100e-01 -7.195229507982730865e+00 -3.818898158147874256e-01
-4.802471101284027100e-01 -7.172036148607730865e+00 -3.796162562444749256e-01
-4.013896882534027100e-01 -7.148964859545230865e+00 -3.773579554632249256e-01
-3.227764070034027100e-01 -7.126015640795230865e+00 -3.751149134710374256e-01
-2.450176179409027100e-01 -7.103188492357730865e+00 -3.729023890569749256e-01
-8.031230866909027100e-01 -7.266396500170230865e+00 -3.526387171819749256e-01
-7.218242585659027100e-01 -7.242592789232730865e+00 -3.504567103460374256e-01
-6.410137116909027100e-01 -7.219033218920230865e+00 -3.482899622991624256e-01
-5.606914460659027100e-01 -7.195473648607730865e+00 -3.461384730413499256e-01
-4.811016023159027100e-01 -7.172280289232730865e+00 -3.440022425725999256e-01
-4.022441804409027100e-01 -7.149209000170230865e+00 -3.418812708929124256e-01
-3.236308991909027100e-01 -7.126259781420230865e+00 -3.397755580022874256e-01
-2.458721101284027100e-01 -7.103432632982730865e+00 -3.376851039007249256e-01
-8.039775788784027100e-01 -7.266640640795230865e+00 -3.162922816350999256e-01
-7.226787507534027100e-01 -7.242836929857730865e+00 -3.142476039007249256e-01
-6.418682038784027100e-01 -7.219277359545230865e+00 -3.122181849554124256e-01
-5.615459382534027100e-01 -7.195717789232730865e+00 -3.101887660100999256e-01
-4.819560945034027100e-01 -7.172524429857730865e+00 -3.081898646429124256e-01
-4.030986726284027100e-01 -7.149453140795230865e+00 -3.062062220647874256e-01
-3.244853913784027100e-01 -7.126503922045230865e+00 -3.042225794866624256e-01
-2.467266023159027100e-01 -7.103676773607730865e+00 -3.022694544866624256e-01
-8.048320710659027100e-01 -7.266884781420230865e+00 -2.801289515569749256e-01
-7.235332429409027100e-01 -7.243081070482730865e+00 -2.782216029241624256e-01
-6.427226960659027100e-01 -7.219521500170230865e+00 -2.763295130804124256e-01
-5.624004304409027100e-01 -7.195961929857730865e+00 -2.744374232366624256e-01
-4.828105866909027100e-01 -7.172768570482730865e+00 -2.725758509710374256e-01
-4.038310945034027100e-01 -7.149697281420230865e+00 -2.707142787054124256e-01
-3.252178132534027100e-01 -7.126625992357730865e+00 -2.688679652288499256e-01
-2.474590241909027100e-01 -7.103920914232730865e+00 -2.670521693304124256e-01
-8.056865632534027100e-01 -7.267128922045230865e+00 -2.437825160100999256e-01
-7.243877351284027100e-01 -7.243325211107730865e+00 -2.420124964788499256e-01
-6.435771882534027100e-01 -7.219765640795230865e+00 -2.404408412054124256e-01
-5.631328523159027100e-01 -7.196206070482730865e+00 -2.386860804632249256e-01
-4.836650788784027100e-01 -7.173012711107730865e+00 -2.369618372991624256e-01
-4.046855866909027100e-01 -7.149941422045230865e+00 -2.352375941350999256e-01
-3.260723054409027100e-01 -7.126870132982730865e+00 -2.333302455022874256e-01
-2.483135163784027100e-01 -7.104165054857730865e+00 -2.316365199163499256e-01
-8.065410554409027100e-01 -7.267373062670230865e+00 -2.076191859319749256e-01
-7.251201570034027100e-01 -7.243569351732730865e+00 -2.059864955022874256e-01
-6.444316804409027100e-01 -7.220009781420230865e+00 -2.043690638616624256e-01
-5.639873445034027100e-01 -7.196450211107730865e+00 -2.027516322210374256e-01
-4.845195710659027100e-01 -7.173256851732730865e+00 -2.011494593694749256e-01
-4.055400788784027100e-01 -7.150185562670230865e+00 -1.995625453069749256e-01
-3.269267976284027100e-01 -7.127114273607730865e+00 -1.979908900335374256e-01
-2.491680085659027100e-01 -7.104409195482730865e+00 -1.964192347600999256e-01
-8.073955476284027100e-01 -7.267617203295230865e+00 -1.712727503850999256e-01
-7.259746491909027100e-01 -7.243813492357730865e+00 -1.699604945257249256e-01
-6.452861726284027100e-01 -7.220253922045230865e+00 -1.684803919866624256e-01
-5.648418366909027100e-01 -7.196694351732730865e+00 -1.670002894475999256e-01
-4.853740632534027100e-01 -7.173500992357730865e+00 -1.655354456975999256e-01
-4.063945710659027100e-01 -7.150429703295230865e+00 -1.640858607366624256e-01
-3.277812898159027100e-01 -7.127358414232730865e+00 -1.626362757757249256e-01
-2.500225007534027100e-01 -7.104653336107730865e+00 -1.610188441350999256e-01
-8.082500398159027100e-01 -7.267861343920230865e+00 -1.351094203069749256e-01
-7.268291413784027100e-01 -7.244057632982730865e+00 -1.337513880804124256e-01
-6.461406648159027100e-01 -7.220375992357730865e+00 -1.324086146429124256e-01
-5.656963288784027100e-01 -7.196938492357730865e+00 -1.310505824163499256e-01
-4.862285554409027100e-01 -7.173745132982730865e+00 -1.297230677679124256e-01
-4.072490632534027100e-01 -7.150673843920230865e+00 -1.284108119085374256e-01
-3.286357820034027100e-01 -7.127602554857730865e+00 -1.270985560491624256e-01
-2.508769929409027100e-01 -7.104897476732730865e+00 -1.257863001897874256e-01
-8.091045320034027100e-01 -7.268105484545230865e+00 -9.876298476009992555e-02
-7.276836335659027100e-01 -7.244301773607730865e+00 -9.772538710384992555e-02
-6.469951570034027100e-01 -7.220620132982730865e+00 -9.651994276791242555e-02
-5.665508210659027100e-01 -7.197182632982730865e+00 -9.531449843197492555e-02
-4.869609773159027100e-01 -7.173989273607730865e+00 -9.410905409603742555e-02
-4.081035554409027100e-01 -7.150917984545230865e+00 -9.291886854916242555e-02
-3.294902741909027100e-01 -7.127846695482730865e+00 -9.174394179134992555e-02
-2.517314851284027100e-01 -7.105141617357730865e+00 -9.038590956478742555e-02
-8.099590241909027100e-01 -7.268349625170230865e+00 -6.261491347103742555e-02
-7.285381257534027100e-01 -7.244545914232730865e+00 -6.151628065853742555e-02
-6.478496491909027100e-01 -7.220864273607730865e+00 -6.044816542416242555e-02
-5.674053132534027100e-01 -7.197426773607730865e+00 -5.936479140072492555e-02
-4.878154695034027100e-01 -7.174111343920230865e+00 -5.831193495541242555e-02
-4.089580476284027100e-01 -7.151040054857730865e+00 -5.725907851009992555e-02
-3.302226960659027100e-01 -7.128090836107730865e+00 -5.620622206478742555e-02
-2.524639070034027100e-01 -7.105385757982730865e+00 -5.516862440853742555e-02
-8.108135163784027100e-01 -7.268593765795230865e+00 -2.625321913509992555e-02
-7.293926179409027100e-01 -7.244790054857730865e+00 -2.530717421322492555e-02
-6.487041413784027100e-01 -7.221108414232730865e+00 -2.455949354916242555e-02
-5.682598054409027100e-01 -7.197670914232730865e+00 -2.362870741634992555e-02
-4.886699616909027100e-01 -7.174355484545230865e+00 -2.269792128353742555e-02
-4.096904695034027100e-01 -7.151284195482730865e+00 -2.176713515072492555e-02
-3.310771882534027100e-01 -7.128334976732730865e+00 -2.066850233822492555e-02
-2.533183991909027100e-01 -7.105629898607730865e+00 -1.975297499447492555e-02
-8.116680085659027100e-01 -7.268837906420230865e+00 1.009321641177507445e-02
-7.302471101284027100e-01 -7.245034195482730865e+00 1.070356797427507445e-02
-6.495586335659027100e-01 -7.221352554857730865e+00 1.151228379458757445e-02
-5.691142976284027100e-01 -7.197915054857730865e+00 1.232099961490007445e-02
-4.895244538784027100e-01 -7.174599625170230865e+00 1.311445664615007445e-02
-4.105449616909027100e-01 -7.151528336107730865e+00 1.389265488833757445e-02
-3.319316804409027100e-01 -7.128579117357730865e+00 1.468611191958757445e-02
-2.541728913784027100e-01 -7.105874039232730865e+00 1.564741563052507445e-02
-1.830058991909027100e-01 -5.705239273607730865e+00 -5.819325404241624256e-01
-1.209941804409027100e-01 -5.724770523607730865e+00 -5.813069300725999256e-01
-5.837211012840270996e-02 -5.738808609545230865e+00 -5.805439906194749256e-01
4.738241434097290039e-03 -5.747963882982730865e+00 -5.795063929632249256e-01
6.772652268409729004e-02 -5.757119156420230865e+00 -5.784840540960374256e-01
1.309589445590972900e-01 -5.766274429857730865e+00 -5.774464564397874256e-01
1.945575773715972900e-01 -5.775551773607730865e+00 -5.764088587835374256e-01
2.580341398715972900e-01 -5.782143570482730865e+00 -5.753865199163499256e-01
-2.042461335659027100e-01 -6.224282242357730865e+00 -5.779499964788499256e-01
-1.369853913784027100e-01 -6.241738297045230865e+00 -5.771717982366624256e-01
-6.935843825340270996e-02 -6.260415054857730865e+00 -5.762715296819749256e-01
-9.990632534027099609e-04 -6.269814468920230865e+00 -5.750813441350999256e-01
6.723824143409729004e-02 -6.279213882982730865e+00 -5.739064173772874256e-01
1.355976164340972900e-01 -6.288613297045230865e+00 -5.727162318304124256e-01
2.044452726840972900e-01 -6.295327164232730865e+00 -5.715718226507249256e-01
2.731708586215972900e-01 -6.304848648607730865e+00 -5.703663783147874256e-01
-2.262187898159027100e-01 -6.760903336107730865e+00 -5.699543910100999256e-01
-1.537090241909027100e-01 -6.781167007982730865e+00 -5.690846400335374256e-01
-8.071097731590270996e-02 -6.801308609545230865e+00 -5.682148890569749256e-01
-6.980508565902709961e-03 -6.812294937670230865e+00 -5.669178919866624256e-01
6.662788987159729004e-02 -6.823159195482730865e+00 -5.656361537054124256e-01
1.404804289340972900e-01 -6.834145523607730865e+00 -5.643391566350999256e-01
2.148212492465972900e-01 -6.845131851732730865e+00 -5.630421595647874256e-01
2.890399992465972900e-01 -6.856118179857730865e+00 -5.617299037054124256e-01
-2.406230866909027100e-01 -7.101845718920230865e+00 -5.495686488225999256e-01
-1.633525788784027100e-01 -7.079262711107730865e+00 -5.466847376897874256e-01
-8.657035231590270996e-02 -7.056923843920230865e+00 -5.440144496038499256e-01
-1.003226637840270996e-02 -7.034462906420230865e+00 -5.413441615179124256e-01
6.577339768409729004e-02 -7.012368179857730865e+00 -5.386891322210374256e-01
1.412128508090972900e-01 -6.990273453295230865e+00 -5.360646205022874256e-01
2.164081633090972900e-01 -6.968300797045230865e+00 -5.334401087835374256e-01
2.909931242465972900e-01 -6.946572281420230865e+00 -5.310139613225999256e-01
