-2.461723610758781433e+01 -7.761656463146209717e+00 5.739307259209454060e-01
-2.485612770915031433e+01 -8.051329314708709717e+00 5.834674690850079060e-01
-2.526530739665031433e+01 -8.398985564708709717e+00 5.945606087334454060e-01
-2.561088845133781433e+01 -8.735655486583709717e+00 6.054553841240704060e-01
-2.588432595133781433e+01 -9.055113494396209717e+00 6.159381722100079060e-01
-1.188066384196281433e+01 -4.524229705333709717e+00 4.957294319756329060e-01
-9.777392357587814331e+00 -3.226988494396209717e+00 4.993152474053204060e-01
-1.000297829508781433e+01 -3.372862517833709717e+00 5.050067757256329060e-01
-1.024125954508781433e+01 -3.527037322521209717e+00 5.110187386162579060e-01
-1.049431130290031433e+01 -3.690611541271209717e+00 5.173969124443829060e-01
-1.076152321696281433e+01 -3.863463103771209717e+00 5.241412972100079060e-01
-1.104606911540031433e+01 -4.047545135021209717e+00 5.313129280693829060e-01
-1.134770485758781433e+01 -4.242613494396209717e+00 5.389270638115704060e-01
-1.166911599040031433e+01 -4.450377166271209717e+00 5.470294808037579060e-01
-9.640307396650314331e+00 -3.187559783458709717e+00 5.405902718193829060e-01
-9.858813256025314331e+00 -3.330259978771209717e+00 5.473041390068829060e-01
-1.009013649821281433e+01 -3.480894744396209717e+00 5.541705940850079060e-01
-1.033476540446281433e+01 -3.640562713146209717e+00 5.616779183037579060e-01
-1.059282204508781433e+01 -3.809019744396209717e+00 5.696124886162579060e-01
-1.086735817790031433e+01 -3.988218963146209717e+00 5.780353401787579060e-01
-1.116276833415031433e+01 -4.179503142833709717e+00 5.873279427178204060e-01
-1.150346657633781433e+01 -4.392149627208709717e+00 5.974292610771954060e-01
-9.626513451337814331e+00 -3.182310760021209717e+00 5.829639290459454060e-01
-9.866259545087814331e+00 -3.330748260021209717e+00 5.912799690850079060e-01
-1.012053200602531433e+01 -3.488218963146209717e+00 6.000995491631329060e-01
-1.039152809977531433e+01 -3.656065642833709717e+00 6.094989632256329060e-01
-1.067912575602531433e+01 -3.834166228771209717e+00 6.194782112725079060e-01
-1.098686501383781433e+01 -4.024840056896209717e+00 6.301593636162579060e-01
-1.131462380290031433e+01 -4.227842986583709717e+00 6.415271614678204060e-01
-1.166582009196281433e+01 -4.445372283458709717e+00 6.537189339287579060e-01
-9.735888451337814331e+00 -3.210875213146209717e+00 6.286182259209454060e-01
-9.981249779462814331e+00 -3.361998260021209717e+00 6.381397102959454060e-01
-1.022966286540031433e+01 -3.518614470958709717e+00 6.481647347100079060e-01
-1.047233864665031433e+01 -3.678892791271209717e+00 6.582660530693829060e-01
-1.072819802165031433e+01 -3.847838103771209717e+00 6.689014290459454060e-01
-1.100017067790031433e+01 -4.027281463146209717e+00 6.802081917412579060e-01
-1.128764626383781433e+01 -4.217100799083709717e+00 6.921558235771954060e-01
-1.159233376383781433e+01 -4.418516814708709717e+00 7.051105354912579060e-01
-9.671801537275314331e+00 -3.191710174083709717e+00 6.697406624443829060e-01
-9.883471459150314331e+00 -3.332457244396209717e+00 6.797199104912579060e-01
-1.010649392008781433e+01 -3.480894744396209717e+00 6.902179573662579060e-01
-1.034257790446281433e+01 -3.637999236583709717e+00 7.013416145928204060e-01
-1.059135720133781433e+01 -3.803404510021209717e+00 7.130451058037579060e-01
-1.085539528727531433e+01 -3.979063689708709717e+00 7.254810188896954060e-01
-1.115263649821281433e+01 -4.170714080333709717e+00 7.392291878350079060e-01
-1.151677224040031433e+01 -4.390928924083709717e+00 7.554492806084454060e-01
-9.564623802900314331e+00 -3.160582244396209717e+00 7.089710091240704060e-01
-9.804247826337814331e+00 -3.308409392833709717e+00 7.207813118584454060e-01
-1.007280251383781433e+01 -3.469298064708709717e+00 7.340869759209454060e-01
-1.036003395915031433e+01 -3.641539275646209717e+00 7.483081673271954060e-01
-1.066594216227531433e+01 -3.824888885021209717e+00 7.634601448662579060e-01
-1.099455544352531433e+01 -4.021910369396209717e+00 7.797412727959454060e-01
-1.134624001383781433e+01 -4.232725799083709717e+00 7.971515511162579060e-01
-1.172587868571281433e+01 -4.459898650646209717e+00 8.162250374443829060e-01
-9.689135521650314331e+00 -3.193419158458709717e+00 7.562732552178204060e-01
-9.949877709150314331e+00 -3.348204314708709717e+00 7.704791878350079060e-01
-1.022746559977531433e+01 -3.513121306896209717e+00 7.856006477959454060e-01
-2.688798806071281433e+01 -8.636290252208709717e+00 1.480257019866257906e+00
-2.710820290446281433e+01 -8.942930877208709717e+00 1.500123963225632906e+00
-2.788859841227531433e+01 -9.435240447521209717e+00 1.543931946624070406e+00
-2.818608376383781433e+01 -9.783140838146209717e+00 1.567811951506882906e+00
-2.896684548258781433e+01 -1.030157345533370972e+01 1.612810120452195406e+00
-2.179228493571281433e+01 -6.521910369396209717e+00 1.344377503264695406e+00
-2.620353981852531433e+01 -7.963926970958709717e+00 1.553529724944382906e+00
-2.689958474040031433e+01 -8.397398650646209717e+00 1.596025452483445406e+00
-2.711894509196281433e+01 -8.701597869396209717e+00 1.616456971038132906e+00
-2.767680642008781433e+01 -9.115294158458709717e+00 1.653551087249070406e+00
-2.818644997477531433e+01 -9.525938689708709717e+00 1.689653382170945406e+00
-2.868400856852531433e+01 -9.942320525646209717e+00 1.724931702483445406e+00
-2.925700661540031433e+01 -1.039483517408370972e+01 1.764299378264695406e+00
-2.180485817790031433e+01 -6.521666228771209717e+00 1.445894226897507906e+00
-2.518034645915031433e+01 -7.669127166271209717e+00 1.623781189788132906e+00
-2.628605934977531433e+01 -8.213194549083709717e+00 1.690202698577195406e+00
-2.721733376383781433e+01 -8.726622283458709717e+00 1.748765930999070406e+00
-2.818425270915031433e+01 -9.268492400646209717e+00 1.809984192717820406e+00
-2.868022438883781433e+01 -9.679259002208709717e+00 1.847688660491257906e+00
-2.925151345133781433e+01 -1.012444943189620972e+01 1.889787659514695406e+00
-2.989506813883781433e+01 -1.060577267408370972e+01 1.937013611663132906e+00
-1.187724587321281433e+01 -4.543272674083709717e+00 -4.867364419624209404e-02
-1.268718239665031433e+01 -4.931822478771209717e+00 -7.809258950874209404e-02
-1.268547341227531433e+01 -5.043516814708709717e+00 -7.586480630561709404e-02
-1.271232888102531433e+01 -5.166929900646209717e+00 -7.472039712592959404e-02
-1.273942849040031433e+01 -5.291197478771209717e+00 -7.356072915717959404e-02
-1.276689431071281433e+01 -5.417174041271209717e+00 -7.240106118842959404e-02
-1.277910134196281433e+01 -5.538023650646209717e+00 -7.063104165717959404e-02
-1.276030251383781433e+01 -5.647154510021209717e+00 -6.799127114936709404e-02
-1.187761208415031433e+01 -4.541319549083709717e+00 5.876526702195405960e-03
-1.529545876383781433e+01 -5.845396697521209717e+00 -1.092052604071795940e-01
-1.476628395915031433e+01 -5.791319549083709717e+00 -8.830071939155459404e-02
-1.444584938883781433e+01 -5.805845916271209717e+00 -7.429315103217959404e-02
-1.418754860758781433e+01 -5.838194549083709717e+00 -6.286431802436709404e-02
-1.404790017008781433e+01 -5.913145720958709717e+00 -5.584527505561709404e-02
-1.400676247477531433e+01 -6.024962127208709717e+00 -5.180169595405459404e-02
-1.402006813883781433e+01 -6.158873260021209717e+00 -4.955865396186709404e-02
-1.187785622477531433e+01 -4.539488494396209717e+00 6.044195638969540596e-02
-2.231035134196281433e+01 -8.304136931896209717e+00 -2.442302848212420940e-01
-2.241130349040031433e+01 -8.542784392833709717e+00 -2.426281119696795940e-01
-2.288261696696281433e+01 -8.922056853771209717e+00 -2.516765738837420940e-01
-2.306206032633781433e+01 -9.200255095958709717e+00 -2.521190787665545940e-01
-1.428911110758781433e+01 -6.004454314708709717e+00 3.404602874070405960e-03
-1.580375954508781433e+01 -6.738096892833709717e+00 -3.661920083686709404e-02
-1.573454567790031433e+01 -6.855772674083709717e+00 -3.140069497749209404e-02
-1.187822243571281433e+01 -4.537657439708709717e+00 1.147022102959454060e-01
-2.342839333415031433e+01 -8.692442595958709717e+00 -1.660289908759295940e-01
-2.370842263102531433e+01 -9.005919158458709717e+00 -1.677227164618670940e-01
-2.378361794352531433e+01 -9.251036345958709717e+00 -1.642894889228045940e-01
-2.431450173258781433e+01 -9.670836150646209717e+00 -1.716900016181170940e-01
-1.428947731852531433e+01 -6.002134978771209717e+00 7.071112142875790596e-02
-1.427202126383781433e+01 -6.125670135021209717e+00 7.426641928032040596e-02
-2.463041970133781433e+01 -1.047979611158370972e+01 -1.632671500556170940e-01
-1.187846657633781433e+01 -4.535704314708709717e+00 1.692676399834454060e-01
-2.435112282633781433e+01 -9.011900603771209717e+00 -7.371331704780459404e-02
-2.465922829508781433e+01 -9.343931853771209717e+00 -7.401849282905459404e-02
-2.496525856852531433e+01 -9.683287322521209717e+00 -7.407952798530459404e-02
-2.525334450602531433e+01 -1.002215451002120972e+01 -7.363702310249209404e-02
-2.557292458415031433e+01 -1.038104122877120972e+01 -7.359124673530459404e-02
-1.426262184977531433e+01 -6.119444549083709717e+00 1.415271614678204060e-01
-2.609660622477531433e+01 -1.107293576002120972e+01 -7.082940591499209404e-02
-1.187883278727531433e+01 -4.533873260021209717e+00 2.235278938896954060e-01
-2.483574196696281433e+01 -9.177427947521209717e+00 3.470037924125790596e-02
-2.515825173258781433e+01 -9.519224822521209717e+00 3.616522299125790596e-02
-2.535026833415031433e+01 -9.821104705333709717e+00 3.972052084282040596e-02
-2.583732888102531433e+01 -1.023882931470870972e+01 3.926275717094540596e-02
-2.620878884196281433e+01 -1.062335079908370972e+01 4.071234213188290596e-02
-1.425310036540031433e+01 -6.113218963146209717e+00 2.090625618584454060e-01
-2.719133278727531433e+01 -1.151421993970870972e+01 4.037664877250790596e-02
-1.187907692790031433e+01 -4.532042205333709717e+00 2.780780647881329060e-01
-2.528483864665031433e+01 -9.330504119396209717e+00 1.475391243584454060e-01
-2.542705056071281433e+01 -9.611509978771209717e+00 1.528034065850079060e-01
-2.600822731852531433e+01 -1.005938595533370972e+01 1.540851448662579060e-01
-2.630632302165031433e+01 -1.041180294752120972e+01 1.582813118584454060e-01
-2.647392556071281433e+01 -1.072161740064620972e+01 1.638812874443829060e-01
-1.424370095133781433e+01 -6.107115447521209717e+00 2.761249397881329060e-01
-2.750017067790031433e+01 -1.163519161939620972e+01 1.696796272881329060e-01
-1.187944313883781433e+01 -4.530211150646209717e+00 3.323535774834454060e-01
-2.550419899821281433e+01 -9.402891814708709717e+00 2.659015511162579060e-01
-2.601994606852531433e+01 -9.820128142833709717e+00 2.711505745537579060e-01
-2.638395974040031433e+01 -1.019341915845870972e+01 2.768115852959454060e-01
-2.655180642008781433e+01 -1.050005978345870972e+01 2.835254524834454060e-01
-2.742338845133781433e+01 -1.108514279127120972e+01 2.876453255303204060e-01
-1.423430153727531433e+01 -6.100889861583709717e+00 3.431110237725079060e-01
-2.849199196696281433e+01 -1.203399533033370972e+01 2.990283821709454060e-01
-1.187980934977531433e+01 -4.528258025646209717e+00 3.869037483818829060e-01
-2.576335427165031433e+01 -9.489195525646209717e+00 3.870410774834454060e-01
-2.645976540446281433e+01 -9.973692595958709717e+00 3.946094368584454060e-01
-2.662883278727531433e+01 -1.027911251783370972e+01 4.024982308037579060e-01
-2.742363259196281433e+01 -1.082501095533370972e+01 4.109210823662579060e-01
-2.769523903727531433e+01 -1.118572872877120972e+01 4.193897102959454060e-01
-1.422490212321281433e+01 -6.094664275646209717e+00 4.103412483818829060e-01
-2.877641579508781433e+01 -1.214459103345870972e+01 4.377918099053204060e-01
-1.188005349040031433e+01 -4.526426970958709717e+00 4.411792610771954060e-01
-2.640007302165031433e+01 -9.707335174083709717e+00 5.117816780693829060e-01
-2.670524880290031433e+01 -1.005718868970870972e+01 5.213947151787579060e-01
-2.727617165446281433e+01 -1.051299923658370972e+01 5.326709602959454060e-01
-2.779155251383781433e+01 -1.095928829908370972e+01 5.440234993584454060e-01
-2.831608864665031433e+01 -1.142132443189620972e+01 5.558490608818829060e-01
-1.422368142008781433e+01 -6.091734588146209717e+00 4.771747444756329060e-01
-2.937968727946281433e+01 -1.238482540845870972e+01 5.807208870537579060e-01
-1.188041970133781433e+01 -4.524595916271209717e+00 4.957294319756329060e-01
-2.670500466227531433e+01 -9.809385955333709717e+00 6.402301643975079060e-01
-2.695683571696281433e+01 -1.014288204908370972e+01 6.512927864678204060e-01
-2.765385720133781433e+01 -1.064727658033370972e+01 6.671314095146954060e-01
-2.807158181071281433e+01 -1.106011837720870972e+01 6.805438851006329060e-01
-2.871318337321281433e+01 -1.157012814283370972e+01 6.967334602959454060e-01
-1.422416970133781433e+01 -6.089537322521209717e+00 5.443591927178204060e-01
-2.977592751383781433e+01 -1.254058712720870972e+01 7.280139778740704060e-01
-1.167155739665031433e+01 -4.451597869396209717e+00 5.470752571709454060e-01
-1.200944802165031433e+01 -4.671690642833709717e+00 5.556964729912579060e-01
-1.235185524821281433e+01 -4.900450408458709717e+00 5.646381233818829060e-01
-1.271916481852531433e+01 -5.145811736583709717e+00 5.742359017021954060e-01
-1.311137673258781433e+01 -5.407774627208709717e+00 5.844898079521954060e-01
-1.353422829508781433e+01 -5.690245330333709717e+00 5.955371712334454060e-01
-1.398808571696281433e+01 -5.993467986583709717e+00 6.073932503350079060e-01
-1.446184059977531433e+01 -6.314146697521209717e+00 6.199359749443829060e-01
-1.150603005290031433e+01 -4.393370330333709717e+00 5.974902962334454060e-01
-1.187199684977531433e+01 -4.621763885021209717e+00 6.084003304131329060e-01
-1.223991677165031433e+01 -4.858214080333709717e+00 6.193408821709454060e-01
-1.263408181071281433e+01 -5.112364470958709717e+00 6.314105843193829060e-01
-1.305717751383781433e+01 -5.385191619396209717e+00 6.443500374443829060e-01
-1.351579567790031433e+01 -5.680845916271209717e+00 6.583881233818829060e-01
-1.401249977946281433e+01 -6.000670135021209717e+00 6.739215706475079060e-01
-1.452714821696281433e+01 -6.338194549083709717e+00 6.899127815850079060e-01
-1.166850563883781433e+01 -4.446715056896209717e+00 6.537799690850079060e-01
-1.189934059977531433e+01 -4.629332244396209717e+00 6.634540413506329060e-01
-1.241582009196281433e+01 -4.919249236583709717e+00 6.802844856865704060e-01
-1.278203102946281433e+01 -5.164610564708709717e+00 6.938342903740704060e-01
-1.316435524821281433e+01 -5.423277556896209717e+00 7.080707405693829060e-01
-1.357573220133781433e+01 -5.701719939708709717e+00 7.233905647881329060e-01
-1.401628395915031433e+01 -5.999815642833709717e+00 7.398090218193829060e-01
-1.447429177165031433e+01 -6.314268767833709717e+00 7.570361946709454060e-01
-1.159465309977531433e+01 -4.419615447521209717e+00 7.051868294365704060e-01
-1.189970681071281433e+01 -4.627501189708709717e+00 7.179736946709454060e-01
-1.224553200602531433e+01 -4.856138885021209717e+00 7.325000618584454060e-01
-1.259269997477531433e+01 -5.092955291271209717e+00 7.473621224053204060e-01
-1.296245095133781433e+01 -5.345030486583709717e+00 7.632160042412579060e-01
-1.341801735758781433e+01 -5.638365447521209717e+00 7.820148323662579060e-01
-1.393803688883781433e+01 -5.966368377208709717e+00 8.031787727959454060e-01
-1.448649880290031433e+01 -6.316710174083709717e+00 8.260516976006329060e-01
-1.151945778727531433e+01 -4.392271697521209717e+00 7.555560921318829060e-01
-1.191289040446281433e+01 -4.630064666271209717e+00 7.732257698662579060e-01
-1.230693337321281433e+01 -4.876036345958709717e+00 7.912616585381329060e-01
-1.273271462321281433e+01 -5.142149627208709717e+00 8.107623909600079060e-01
-1.319206520915031433e+01 -5.429259002208709717e+00 8.318042610771954060e-01
-3.090898415446281433e+01 -1.239324826002120972e+01 1.464937195647507906e+00
-3.124833962321281433e+01 -1.281695431470870972e+01 1.489656433928757906e+00
-3.203959938883781433e+01 -1.343218868970870972e+01 1.531145081389695406e+00
-1.172868630290031433e+01 -4.461241424083709717e+00 8.163471077568829060e-01
-2.897062966227531433e+01 -1.057122677564620972e+01 1.487199768889695406e+00
-2.927202126383781433e+01 -1.094317501783370972e+01 1.510866150725632906e+00
-3.010270974040031433e+01 -1.151763790845870972e+01 1.555803284514695406e+00
-3.060808083415031433e+01 -1.198602169752120972e+01 1.588487610686570406e+00
-3.124040505290031433e+01 -1.251580685377120972e+01 1.626863465178757906e+00
-3.205961892008781433e+01 -1.313238400220870972e+01 1.673433289397507906e+00
-3.255888649821281433e+01 -1.363690060377120972e+01 1.708452210295945406e+00
-2.896916481852531433e+01 -1.030316036939620972e+01 1.612947449553757906e+00
-2.926689431071281433e+01 -1.066937130689620972e+01 1.638139710295945406e+00
-3.009819313883781433e+01 -1.123345822095870972e+01 1.687120423186570406e+00
-3.056535622477531433e+01 -1.168206661939620972e+01 1.720796570647507906e+00
-3.123320290446281433e+01 -1.221600216627120972e+01 1.763902649749070406e+00
-3.191582009196281433e+01 -1.277105587720870972e+01 1.808412537444382906e+00
-3.262187477946281433e+01 -1.334918087720870972e+01 1.854631409514695406e+00
-3.340434548258781433e+01 -1.397369259595870972e+01 1.905122742522507906e+00
-2.926176735758781433e+01 -1.039727658033370972e+01 1.764574036467820406e+00
-2.990739724040031433e+01 -1.088726681470870972e+01 1.808626160491257906e+00
-3.055424782633781433e+01 -1.139117306470870972e+01 1.853380188811570406e+00
-3.119670388102531433e+01 -1.190838497877120972e+01 1.897844300139695406e+00
-3.201945778727531433e+01 -1.250628536939620972e+01 1.952669129241257906e+00
-3.285600563883781433e+01 -1.312811154127120972e+01 2.009935364592820406e+00
-3.273186013102531433e+01 -1.338690060377120972e+01 2.018495545256882906e+00
-3.278959938883781433e+01 -1.371880978345870972e+01 2.036317810881882906e+00
-2.990007302165031433e+01 -1.060845822095870972e+01 1.937318787444382906e+00
-3.068181130290031433e+01 -1.115142697095870972e+01 1.991701111663132906e+00
-3.149553200602531433e+01 -1.172210568189620972e+01 2.049364075530320406e+00
-3.229753395915031433e+01 -1.230657833814620972e+01 2.107301697600632906e+00
-3.311235329508781433e+01 -1.291168087720870972e+01 2.166734680999070406e+00
-3.389885231852531433e+01 -1.352447384595870972e+01 2.225511536467820406e+00
-3.329082009196281433e+01 -1.360198849439620972e+01 2.207536682952195406e+00
-3.285673806071281433e+01 -1.374017208814620972e+01 2.199678406585007906e+00
-1.276030251383781433e+01 -5.647520720958709717e+00 -6.797601236030459404e-02
-1.275078102946281433e+01 -5.760924041271209717e+00 -6.530572427436709404e-02
-1.273308083415031433e+01 -5.871519744396209717e+00 -6.265069497749209404e-02
-1.270793434977531433e+01 -5.979674041271209717e+00 -5.967523111030459404e-02
-1.267045876383781433e+01 -6.082457244396209717e+00 -5.625726236030459404e-02
-1.263286110758781433e+01 -6.185606658458709717e+00 -5.282403482124209404e-02
-1.259538552165031433e+01 -6.288634002208709717e+00 -4.939080728217959404e-02
-1.255046364665031433e+01 -6.388121306896209717e+00 -4.601861489936709404e-02
-1.402031227946281433e+01 -6.159483611583709717e+00 -4.955865396186709404e-02
-1.402873513102531433e+01 -6.292662322521209717e+00 -4.739190591499209404e-02
-1.403715798258781433e+01 -6.426817595958709717e+00 -4.522515786811709404e-02
-1.405229470133781433e+01 -6.565611541271209717e+00 -4.287530435249209404e-02
-1.406083962321281433e+01 -6.702208220958709717e+00 -4.066277993842959404e-02
-1.402714821696281433e+01 -6.821104705333709717e+00 -3.741265786811709404e-02
-1.396538063883781433e+01 -6.926817595958709717e+00 -3.291131509467959404e-02
-1.394328591227531433e+01 -7.051085174083709717e+00 -2.967645181342959404e-02
-1.573417946696281433e+01 -6.856138885021209717e+00 -3.137017739936709404e-02
-1.567338845133781433e+01 -6.976988494396209717e+00 -2.665521157905459404e-02
-1.564750954508781433e+01 -7.112608611583709717e+00 -2.291680825874209404e-02
-1.562150856852531433e+01 -7.249205291271209717e+00 -1.914788736030459404e-02
-1.559538552165031433e+01 -7.385924041271209717e+00 -1.537896646186709404e-02
-1.556914040446281433e+01 -7.523619353771209717e+00 -1.157952798530459404e-02
-1.557133767008781433e+01 -7.674742400646209717e+00 -8.543028961867094040e-03
-1.565800759196281433e+01 -7.867247283458709717e+00 -7.734313141554594040e-03
-2.463115212321281433e+01 -1.048089474439620972e+01 -1.632518912665545940e-01
-2.534660622477531433e+01 -1.101202267408370972e+01 -1.738262320868670940e-01
-1.918413063883781433e+01 -8.620665252208709717e+00 -2.828790200874209404e-02
-1.657072731852531433e+01 -7.661436736583709717e+00 3.466986166313290596e-02
-1.868168923258781433e+01 -8.762633025646209717e+00 -8.832945954054594040e-03
-1.811784645915031433e+01 -8.685606658458709717e+00 7.661805022507905960e-03
-1.797819802165031433e+01 -8.796080291271209717e+00 1.466558920219540596e-02
-1.798662087321281433e+01 -8.975645720958709717e+00 1.796148763969540596e-02
-2.609721657633781433e+01 -1.107403439283370972e+01 -7.082940591499209404e-02
-2.681596657633781433e+01 -1.162066525220870972e+01 -7.775689614936709404e-02
-2.715019509196281433e+01 -1.201885861158370972e+01 -7.746697915717959404e-02
-1.657121559977531433e+01 -7.658629119396209717e+00 1.141834114678204060e-01
-2.846061989665031433e+01 -1.312859982252120972e+01 -8.735467446967959404e-02
-2.893547341227531433e+01 -1.362408322095870972e+01 -8.865167153999209404e-02
-1.891313454508781433e+01 -9.229307830333709717e+00 8.648870931938290596e-02
-2.147612282633781433e+01 -1.063690060377120972e+01 4.861639486625790596e-02
-2.719548317790031433e+01 -1.151678341627120972e+01 4.034613119438290596e-02
-2.777336403727531433e+01 -1.201519650220870972e+01 4.026983724907040596e-02
-2.827019020915031433e+01 -1.249212521314620972e+01 4.088018881157040596e-02
-1.657158181071281433e+01 -7.655943572521209717e+00 1.941394661553204060e-01
-2.929045388102531433e+01 -1.349407833814620972e+01 4.271124349907040596e-02
-2.978459450602531433e+01 -1.400665158033370972e+01 4.431341635063290596e-02
-3.022233864665031433e+01 -1.450384396314620972e+01 4.687689291313290596e-02
-3.066667458415031433e+01 -1.501531857252120972e+01 4.883001791313290596e-02
-2.750200173258781433e+01 -1.163677853345870972e+01 1.696948860771954060e-01
-2.838176247477531433e+01 -1.226385372877120972e+01 1.699085091240704060e-01
-2.855070778727531433e+01 -1.260674923658370972e+01 1.761951302178204060e-01
-1.657207009196281433e+01 -7.653258025646209717e+00 2.736530159600079060e-01
-2.956474587321281433e+01 -1.361126583814620972e+01 1.843585823662579060e-01
-3.037834450602531433e+01 -1.427215451002120972e+01 1.868457649834454060e-01
-3.053227517008781433e+01 -1.464288204908370972e+01 1.942005013115704060e-01
-3.134746071696281433e+01 -1.533416622877120972e+01 1.975116585381329060e-01
-2.849345681071281433e+01 -1.203546017408370972e+01 2.990436409600079060e-01
-2.866350075602531433e+01 -1.237628048658370972e+01 3.065967415459454060e-01
-2.954960915446281433e+01 -1.302764767408370972e+01 3.130664681084454060e-01
-1.657255837321281433e+01 -7.650450408458709717e+00 3.536090706475079060e-01
-3.051408669352531433e+01 -1.402947872877120972e+01 3.280658577568829060e-01
-3.066984841227531433e+01 -1.439971798658370972e+01 3.367175911553204060e-01
-3.149101540446281433e+01 -1.508441036939620972e+01 3.436298226006329060e-01
-3.163945290446281433e+01 -1.546758908033370972e+01 3.527850960381329060e-01
-2.877788063883781433e+01 -1.214617794752120972e+01 4.378375862725079060e-01
-2.950847145915031433e+01 -1.272308224439620972e+01 4.478778694756329060e-01
-2.982683083415031433e+01 -1.314044064283370972e+01 4.575366829521954060e-01
-1.657292458415031433e+01 -7.647764861583709717e+00 4.331378792412579060e-01
-3.080559059977531433e+01 -1.415399044752120972e+01 4.786548470146954060e-01
-3.152006813883781433e+01 -1.478192013502120972e+01 4.904956673271954060e-01
-3.178618142008781433e+01 -1.521624630689620972e+01 5.012836311943829060e-01
-3.249504372477531433e+01 -1.586920040845870972e+01 5.139942024834454060e-01
-2.938371559977531433e+01 -1.238738888502120972e+01 5.807819222100079060e-01
-2.990764138102531433e+01 -1.288397091627120972e+01 5.937518929131329060e-01
-3.039787575602531433e+01 -1.337847775220870972e+01 6.068744515068829060e-01
-1.657341286540031433e+01 -7.645079314708709717e+00 5.126514290459454060e-01
-3.141765114665031433e+01 -1.442132443189620972e+01 6.346607063896954060e-01
-3.193168923258781433e+01 -1.496380490064620972e+01 6.492328499443829060e-01
-3.242167946696281433e+01 -1.550652951002120972e+01 6.639880989678204060e-01
-3.283720681071281433e+01 -1.602618283033370972e+01 6.784839485771954060e-01
-2.978007790446281433e+01 -1.254327267408370972e+01 7.280902718193829060e-01
-3.030754372477531433e+01 -1.304510372877120972e+01 7.443561409600079060e-01
-3.080412575602531433e+01 -1.354608029127120972e+01 7.606830452568829060e-01
-1.657390114665031433e+01 -7.642271697521209717e+00 5.926074837334454060e-01
-3.183745095133781433e+01 -1.460272091627120972e+01 7.951679085381329060e-01
-3.235124489665031433e+01 -1.514910763502120972e+01 8.130664681084454060e-01
-3.281523415446281433e+01 -1.568389767408370972e+01 8.306751106865704060e-01
-3.329594704508781433e+01 -1.623846310377120972e+01 8.489551399834454060e-01
-1.446513649821281433e+01 -6.315977752208709717e+00 6.199970101006329060e-01
-1.494768044352531433e+01 -6.650572478771209717e+00 6.331195686943829060e-01
-1.546916481852531433e+01 -7.012022674083709717e+00 6.472797249443829060e-01
-1.603630349040031433e+01 -7.405211150646209717e+00 6.626911018975079060e-01
-1.664738747477531433e+01 -7.829771697521209717e+00 6.793231819756329060e-01
-1.727373024821281433e+01 -8.275206267833709717e+00 6.967639778740704060e-01
-1.796464821696281433e+01 -8.763853728771209717e+00 7.158984993584454060e-01
-1.872136208415031433e+01 -9.299132049083709717e+00 7.368488167412579060e-01
-1.453081032633781433e+01 -6.340147674083709717e+00 6.900043343193829060e-01
-1.506096169352531433e+01 -6.695006072521209717e+00 7.068347786553204060e-01
-1.563615700602531433e+01 -7.080382049083709717e+00 7.247028206475079060e-01
-1.626787087321281433e+01 -7.503233611583709717e+00 7.447376106865704060e-01
-1.687919899821281433e+01 -7.930113494396209717e+00 7.648181770928204060e-01
-1.747062966227531433e+01 -8.361754119396209717e+00 7.849750374443829060e-01
-1.810759255290031433e+01 -8.827086150646209717e+00 8.071765755303204060e-01
-1.880192849040031433e+01 -9.334044158458709717e+00 8.308582161553204060e-01
-1.447746559977531433e+01 -6.315977752208709717e+00 7.571430061943829060e-01
-1.494462868571281433e+01 -6.644102752208709717e+00 7.751483772881329060e-01
-1.544816872477531433e+01 -6.997740447521209717e+00 7.945422981865704060e-01
-1.599467751383781433e+01 -7.381407439708709717e+00 8.155994270928204060e-01
-1.666203591227531433e+01 -7.830382049083709717e+00 8.405017708428204060e-01
-1.733427712321281433e+01 -8.296568572521209717e+00 8.661670540459454060e-01
-1.806840798258781433e+01 -8.805723845958709717e+00 8.941821907646954060e-01
-1.887639138102531433e+01 -9.366026580333709717e+00 9.250202034600079060e-01
-1.449028298258781433e+01 -6.318663299083709717e+00 8.261890267021954060e-01
-1.504802224040031433e+01 -6.684385955333709717e+00 8.492755745537579060e-01
-1.565910622477531433e+01 -7.084654510021209717e+00 8.749408577568829060e-01
-3.313469216227531433e+01 -1.483526486158370972e+01 1.450410828460007906e+00
-3.236784645915031433e+01 -1.481573361158370972e+01 1.438905701506882906e+00
-3.414641091227531433e+01 -1.594232052564620972e+01 1.511964783538132906e+00
-3.429667946696281433e+01 -1.634881466627120972e+01 1.531496033538132906e+00
-3.355571267008781433e+01 -1.633734005689620972e+01 1.521577820647507906e+00
-3.204228493571281433e+01 -1.343426388502120972e+01 1.531282410491257906e+00
-3.249943825602531433e+01 -1.392828243970870972e+01 1.561677918303757906e+00
-3.319694802165031433e+01 -1.453546017408370972e+01 1.601488098967820406e+00
-3.330278298258781433e+01 -1.490240353345870972e+01 1.619829163420945406e+00
-3.260026833415031433e+01 -1.491326779127120972e+01 1.607591614592820406e+00
-3.384025856852531433e+01 -1.579681271314620972e+01 1.669603333342820406e+00
-3.408793923258781433e+01 -1.624542111158370972e+01 1.694185242522507906e+00
-3.321953102946281433e+01 -1.617144650220870972e+01 1.675127014983445406e+00
-3.256437966227531433e+01 -1.364019650220870972e+01 1.708726868499070406e+00
-3.325822731852531433e+01 -1.423736447095870972e+01 1.751192078460007906e+00
-3.379374977946281433e+01 -1.478301876783370972e+01 1.788591370452195406e+00
-3.144597145915031433e+01 -1.408929318189620972e+01 1.703844055999070406e+00
-3.438823220133781433e+01 -1.570220822095870972e+01 1.844697937835007906e+00
-3.513432595133781433e+01 -1.637908810377120972e+01 1.892900452483445406e+00
-3.351188942790031433e+01 -1.597161740064620972e+01 1.837694153655320406e+00
-3.327739235758781433e+01 -1.619280880689620972e+01 1.843645081389695406e+00
-3.340800759196281433e+01 -1.397637814283370972e+01 1.905336365569382906e+00
-3.322941872477531433e+01 -1.421942013502120972e+01 1.912370667327195406e+00
-3.187529274821281433e+01 -1.396234005689620972e+01 1.863969788420945406e+00
-3.146562477946281433e+01 -1.409210079908370972e+01 1.859376892913132906e+00
-3.439885231852531433e+01 -1.570074337720870972e+01 2.015214905608445406e+00
-3.513481423258781433e+01 -1.637286251783370972e+01 2.067338929045945406e+00
-3.337590309977531433e+01 -1.590228146314620972e+01 1.997835144866257906e+00
-3.356682106852531433e+01 -1.632403439283370972e+01 2.023347840178757906e+00
-3.279106423258781433e+01 -1.372051876783370972e+01 2.036455139983445406e+00
-3.295305153727531433e+01 -1.409893673658370972e+01 2.060472473967820406e+00
-3.182145974040031433e+01 -1.393377560377120972e+01 2.017351136077195406e+00
-3.461845681071281433e+01 -1.545587033033370972e+01 2.179109558928757906e+00
-3.440935036540031433e+01 -1.569915646314620972e+01 2.184923157561570406e+00
-3.484929177165031433e+01 -1.623675411939620972e+01 2.226427063811570406e+00
-3.433415505290031433e+01 -1.634100216627120972e+01 2.215822205413132906e+00
-3.359721657633781433e+01 -1.633233517408370972e+01 2.192720398772507906e+00
-3.286198708415031433e+01 -1.374334591627120972e+01 2.200029358733445406e+00
-3.306462380290031433e+01 -1.413934201002120972e+01 2.226915345061570406e+00
-3.116215798258781433e+01 -1.364837521314620972e+01 2.134767517913132906e+00
-3.090507790446281433e+01 -1.383746212720870972e+01 2.135652527678757906e+00
-3.441997048258781433e+01 -1.569756954908370972e+01 2.355638489592820406e+00
-3.158281227946281433e+01 -1.474725216627120972e+01 2.206834778655320406e+00
-3.435283181071281433e+01 -1.634344357252120972e+01 2.386995301116257906e+00
-3.362407204508781433e+01 -1.633880490064620972e+01 2.362169251311570406e+00
-1.255034157633781433e+01 -6.388487517833709717e+00 -4.600335611030459404e-02
-1.251372048258781433e+01 -6.492125213146209717e+00 -4.255486978217959404e-02
-1.246977517008781433e+01 -6.592467010021209717e+00 -3.916741861030459404e-02
-1.242558571696281433e+01 -6.693175017833709717e+00 -3.574944986030459404e-02
-1.238164040446281433e+01 -6.793638885021209717e+00 -3.234673989936709404e-02
-1.232927224040031433e+01 -6.890196502208709717e+00 -2.863885415717959404e-02
-1.229191872477531433e+01 -6.994444549083709717e+00 -2.548028482124209404e-02
-1.224186989665031433e+01 -7.091978728771209717e+00 -2.218438638374209404e-02
-1.394316384196281433e+01 -7.051573455333709717e+00 -2.966119302436709404e-02
-1.391936013102531433e+01 -7.175596892833709717e+00 -2.663995278999209404e-02
-1.389177224040031433e+01 -7.298521697521209717e+00 -2.349664224311709404e-02
-1.385893532633781433e+01 -7.419859588146209717e+00 -1.978875650092959404e-02
-1.381828591227531433e+01 -7.537047088146209717e+00 -1.621819986030459404e-02
-1.376970192790031433e+01 -7.650938689708709717e+00 -1.273919595405459404e-02
-1.372893044352531433e+01 -7.768614470958709717e+00 -9.153380524367094040e-03
-1.368803688883781433e+01 -7.886656463146209717e+00 -5.552306305617094040e-03
-1.565898415446281433e+01 -7.868223845958709717e+00 -7.749571930617094040e-03
-1.567582985758781433e+01 -8.029722869396209717e+00 -5.308165680617094040e-03
-1.565495583415031433e+01 -8.174009978771209717e+00 -1.844420563429594040e-03
-1.563383767008781433e+01 -8.319639861583709717e+00 1.649842131882905960e-03
-1.557121559977531433e+01 -8.444029510021209717e+00 6.227478850632905960e-03
-1.550163552165031433e+01 -8.565367400646209717e+00 1.098822103813290596e-02
-1.543242165446281433e+01 -8.686217010021209717e+00 1.573370443657040596e-02
-1.536320778727531433e+01 -8.806944549083709717e+00 2.047918783500790596e-02
-1.798649880290031433e+01 -8.976256072521209717e+00 1.797674642875790596e-02
-1.795854470133781433e+01 -9.139586150646209717e+00 2.275274740532040596e-02
-1.791972634196281433e+01 -9.298521697521209717e+00 2.729986654594540596e-02
-1.788066384196281433e+01 -9.458555877208709717e+00 3.187750326469540596e-02
-1.784147927165031433e+01 -9.618712127208709717e+00 3.647039877250790596e-02
-1.780205056071281433e+01 -9.780089080333709717e+00 4.109381185844540596e-02
-1.776262184977531433e+01 -9.941588103771209717e+00 4.571722494438290596e-02
-1.774138161540031433e+01 -1.011370724439620972e+01 4.951666342094540596e-02
-2.147490212321281433e+01 -1.063702267408370972e+01 4.864691244438290596e-02
-2.126298806071281433e+01 -1.074639767408370972e+01 5.699347006157040596e-02
-2.107670876383781433e+01 -1.086602658033370972e+01 6.488226400688290596e-02
-2.094230934977531433e+01 -1.101055783033370972e+01 7.190130697563290596e-02
-2.090141579508781433e+01 -1.120196408033370972e+01 7.742498861625790596e-02
-2.086015602946281433e+01 -1.139483517408370972e+01 8.299444662407040596e-02
-2.080559059977531433e+01 -1.158062618970870972e+01 8.877752767875790596e-02
-2.071403786540031433e+01 -1.174688595533370972e+01 9.512518392875790596e-02
-3.066984841227531433e+01 -1.501788204908370972e+01 4.881475912407040596e-02
-3.109892556071281433e+01 -1.553338497877120972e+01 5.253790365532040596e-02
-3.151225563883781433e+01 -1.605267208814620972e+01 5.589483724907040596e-02
-3.198637673258781433e+01 -1.661505001783370972e+01 5.891607748344540596e-02
-3.237480446696281433e+01 -1.714459103345870972e+01 6.312750326469540596e-02
-3.259819313883781433e+01 -1.759893673658370972e+01 6.930731283500790596e-02
-2.531022927165031433e+01 -1.400713986158370972e+01 1.497363899834454060e-01
-2.538542458415031433e+01 -1.431365841627120972e+01 1.549854134209454060e-01
-3.134868142008781433e+01 -1.533587521314620972e+01 1.975269173271954060e-01
-3.152922341227531433e+01 -1.573724240064620972e+01 2.049579476006329060e-01
-3.229143044352531433e+01 -1.643414181470870972e+01 2.091846321709454060e-01
-3.269609352946281433e+01 -1.696929806470870972e+01 2.159290169365704060e-01
-3.310686013102531433e+01 -1.751775997877120972e+01 2.229022835381329060e-01
-3.346843239665031433e+01 -1.805291622877120972e+01 2.304706429131329060e-01
-3.379448220133781433e+01 -1.857842892408370972e+01 2.384662483818829060e-01
-3.394572731852531433e+01 -1.901788204908370972e+01 2.474994515068829060e-01
-3.164067360758781433e+01 -1.546929806470870972e+01 3.528156136162579060e-01
-3.241655251383781433e+01 -1.616326779127120972e+01 3.613147591240704060e-01
-3.258635231852531433e+01 -1.657464474439620972e+01 3.716449593193829060e-01
-3.331499001383781433e+01 -1.727715939283370972e+01 3.811511849053204060e-01
-3.350273415446281433e+01 -1.771649044752120972e+01 3.911609505303204060e-01
-3.402531716227531433e+01 -1.834088009595870972e+01 4.015064095146954060e-01
-3.437785622477531433e+01 -1.888653439283370972e+01 4.111804817803204060e-01
-3.482023903727531433e+01 -1.949224728345870972e+01 4.221820686943829060e-01
-3.249833962321281433e+01 -1.587188595533370972e+01 5.140552376396954060e-01
-3.271245095133781433e+01 -1.630120724439620972e+01 5.251483772881329060e-01
-3.343400856852531433e+01 -1.698980587720870972e+01 5.387134407646954060e-01
-3.362346169352531433e+01 -1.742742794752120972e+01 5.503558968193829060e-01
-3.417888161540031433e+01 -1.806024044752120972e+01 5.640277718193829060e-01
-3.409257790446281433e+01 -1.836993283033370972e+01 5.747241829521954060e-01
-3.491191384196281433e+01 -1.916790646314620972e+01 5.906390999443829060e-01
-3.534172341227531433e+01 -1.977215451002120972e+01 6.048297737725079060e-01
-3.283854958415031433e+01 -1.602789181470870972e+01 6.785449837334454060e-01
-3.337700173258781433e+01 -1.661834591627120972e+01 6.945056770928204060e-01
-3.374345681071281433e+01 -1.713726681470870972e+01 7.093067024834454060e-01
-3.421318337321281433e+01 -1.772015255689620972e+01 7.255115364678204060e-01
-3.359233376383781433e+01 -1.775030392408370972e+01 7.308978890068829060e-01
-3.416337868571281433e+01 -1.840093868970870972e+01 7.486591194756329060e-01
-3.542192360758781433e+01 -1.943597286939620972e+01 7.744312142021954060e-01
-3.599357888102531433e+01 -2.012371701002120972e+01 7.934284065850079060e-01
-3.329948708415031433e+01 -1.624127072095870972e+01 8.490466927178204060e-01
-1.969133278727531433e+01 -9.959044158458709717e+00 6.657581184990704060e-01
-2.040568825602531433e+01 -1.050958126783370972e+01 6.832446907646954060e-01
-2.117253395915031433e+01 -1.110406368970870972e+01 7.021198128350079060e-01
-2.185222145915031433e+01 -1.167046993970870972e+01 7.202777718193829060e-01
-2.261870095133781433e+01 -1.229974240064620972e+01 7.404041145928204060e-01
-2.343437477946281433e+01 -1.297296017408370972e+01 7.619495247490704060e-01
-2.420500466227531433e+01 -1.364105099439620972e+01 7.834491585381329060e-01
-1.872709938883781433e+01 -9.302427947521209717e+00 7.369861458428204060e-01
-1.945061013102531433e+01 -9.838438689708709717e+00 7.579974983818829060e-01
-2.018706032633781433e+01 -1.039739865064620972e+01 7.798786018975079060e-01
-2.099370095133781433e+01 -1.100958126783370972e+01 8.038501595146954060e-01
-2.170927712321281433e+01 -1.159246701002120972e+01 8.266315315850079060e-01
-2.251054665446281433e+01 -1.223846310377120972e+01 8.518695686943829060e-01
-2.328618142008781433e+01 -1.288873165845870972e+01 8.772449349053204060e-01
-2.419999977946281433e+01 -1.363372677564620972e+01 9.063434456475079060e-01
-1.880717751383781433e+01 -9.337095916271209717e+00 8.310108040459454060e-01
-1.946489235758781433e+01 -9.841856658458709717e+00 8.545398567803204060e-01
-2.014445778727531433e+01 -1.037249630689620972e+01 8.786640022881329060e-01
-2.088176247477531433e+01 -1.094903439283370972e+01 9.054431770928204060e-01
-2.155595681071281433e+01 -1.150921505689620972e+01 9.312305306084454060e-01
-2.237126442790031433e+01 -1.216082638502120972e+01 9.613971565850079060e-01
-2.326567360758781433e+01 -1.287335079908370972e+01 9.950275276787579060e-01
-2.412138649821281433e+01 -1.358587521314620972e+01 1.027849182952195406e+00
-1.888249489665031433e+01 -9.369566619396209717e+00 9.252338265068829060e-01
-1.962443825602531433e+01 -9.915831267833709717e+00 9.550189827568829060e-01
-3.406950661540031433e+01 -1.727374142408370972e+01 1.397645935881882906e+00
-3.451396462321281433e+01 -1.784686154127120972e+01 1.425798401702195406e+00
-3.447429177165031433e+01 -1.818072384595870972e+01 1.439409241545945406e+00
-3.746159645915031433e+01 -2.011431759595870972e+01 1.548204407561570406e+00
-3.644230934977531433e+01 -1.995794552564620972e+01 1.532167420256882906e+00
-3.766716286540031433e+01 -2.101434201002120972e+01 1.587816223967820406e+00
-3.355436989665031433e+01 -1.633782833814620972e+01 1.521593079436570406e+00
-3.330192849040031433e+01 -1.655108517408370972e+01 1.526689514983445406e+00
-3.348381325602531433e+01 -1.697711056470870972e+01 1.547868714202195406e+00
-3.446550270915031433e+01 -1.781585568189620972e+01 1.597902283538132906e+00
-3.451921364665031433e+01 -1.819744747877120972e+01 1.615404114592820406e+00
-3.441398903727531433e+01 -1.850067013502120972e+01 1.627336487639695406e+00
-3.413640114665031433e+01 -1.871087521314620972e+01 1.632860169280320406e+00
-3.583623024821281433e+01 -2.000274533033370972e+01 1.713426575530320406e+00
-3.321928688883781433e+01 -1.617254513502120972e+01 1.675172791350632906e+00
-3.406071755290031433e+01 -1.691302365064620972e+01 1.724016175139695406e+00
-3.377958962321281433e+01 -1.711749142408370972e+01 1.728517517913132906e+00
-3.436381813883781433e+01 -1.775787228345870972e+01 1.768251404631882906e+00
-3.866154763102531433e+01 -2.032989376783370972e+01 1.961976990569382906e+00
-3.974894997477531433e+01 -2.130547970533370972e+01 2.025972351897507906e+00
-3.412749001383781433e+01 -1.869952267408370972e+01 1.807527527678757906e+00
-3.586979958415031433e+01 -2.001434201002120972e+01 1.898591980803757906e+00
-3.327617165446281433e+01 -1.619341915845870972e+01 1.843645081389695406e+00
-3.716203591227531433e+01 -1.841082638502120972e+01 2.033464417327195406e+00
-3.383220192790031433e+01 -1.713726681470870972e+01 1.900239930022507906e+00
-3.439250466227531433e+01 -1.776605099439620972e+01 1.942628846038132906e+00
-3.448173806071281433e+01 -1.816509884595870972e+01 1.963777527678757906e+00
-3.819108864665031433e+01 -2.047723263502120972e+01 2.155229554045945406e+00
-3.415068337321281433e+01 -1.870550411939620972e+01 1.982667908538132906e+00
-3.571415993571281433e+01 -1.992217892408370972e+01 2.076005921233445406e+00
-3.356718727946281433e+01 -1.632537716627120972e+01 2.023424134124070406e+00
-3.355156227946281433e+01 -1.665350216627120972e+01 2.039522156585007906e+00
-3.933708474040031433e+01 -1.985638302564620972e+01 2.349199280608445406e+00
-3.484208962321281433e+01 -1.798687618970870972e+01 2.139711365569382906e+00
-4.116398903727531433e+01 -2.160650509595870972e+01 2.484117493499070406e+00
-3.807316872477531433e+01 -2.040789669752120972e+01 2.344453797210007906e+00
-3.414567849040031433e+01 -1.869634884595870972e+01 2.157503113616257906e+00
-4.285197731852531433e+01 -2.382659786939620972e+01 2.639116272795945406e+00
-3.359904763102531433e+01 -1.633428829908370972e+01 2.192872986663132906e+00
-3.359916970133781433e+01 -1.667046993970870972e+01 2.210481629241257906e+00
-3.379826638102531433e+01 -1.710784786939620972e+01 2.239335999358445406e+00
-3.483378884196281433e+01 -1.797613400220870972e+01 2.314729676116257906e+00
-4.185917946696281433e+01 -2.195733517408370972e+01 2.732439026702195406e+00
-3.791850563883781433e+01 -2.031927365064620972e+01 2.530336365569382906e+00
-3.412431618571281433e+01 -1.867828243970870972e+01 2.331331238616257906e+00
-4.362382790446281433e+01 -2.424102658033370972e+01 2.905794129241257906e+00
-4.003715798258781433e+01 -1.938128536939620972e+01 2.745378479827195406e+00
-4.088847634196281433e+01 -2.019537228345870972e+01 2.817506775725632906e+00
-3.356096169352531433e+01 -1.698419064283370972e+01 2.394289002288132906e+00
-3.482304665446281433e+01 -1.796417111158370972e+01 2.490449890960007906e+00
-4.253032204508781433e+01 -2.229546993970870972e+01 2.987565979827195406e+00
-3.808232399821281433e+01 -2.039837521314620972e+01 2.733507141936570406e+00
-3.410307595133781433e+01 -1.866046017408370972e+01 2.503999695647507906e+00
-4.440227028727531433e+01 -2.465887326002120972e+01 3.180986389983445406e+00
-1.224150368571281433e+01 -7.092222869396209717e+00 -2.216912759467959404e-02
-1.220305153727531433e+01 -7.196348845958709717e+00 -1.890374673530459404e-02
-1.215983864665031433e+01 -7.298155486583709717e+00 -1.580621255561709404e-02
-1.211638161540031433e+01 -7.400450408458709717e+00 -1.267816079780459404e-02
-1.207304665446281433e+01 -7.502623260021209717e+00 -9.565367829054594040e-03
-1.202934548258781433e+01 -7.605406463146209717e+00 -6.422057282179594040e-03
-1.198576638102531433e+01 -7.708067595958709717e+00 -3.294005524367094040e-03
-1.193608376383781433e+01 -7.807188689708709717e+00 -2.727652899920940399e-04
-1.368779274821281433e+01 -7.887022674083709717e+00 -5.537047516554594040e-03
-1.364079567790031433e+01 -8.002012908458709717e+00 -2.027526032179594040e-03
-1.359379860758781433e+01 -8.117369353771209717e+00 1.497254241257905960e-03
-1.355412575602531433e+01 -8.237852752208709717e+00 5.174622405320405960e-03
-1.350688454508781433e+01 -8.353819549083709717e+00 8.699402678757905960e-03
-1.345170876383781433e+01 -8.465758025646209717e+00 1.211737142875790596e-02
-1.340422341227531433e+01 -8.582213103771209717e+00 1.567266928032040596e-02
-1.335661599040031433e+01 -8.699034392833709717e+00 1.922796713188290596e-02
-1.536296364665031433e+01 -8.807432830333709717e+00 2.049444662407040596e-02
-1.528361794352531433e+01 -8.922300994396209717e+00 2.520941244438290596e-02
-1.438969704508781433e+01 -8.570616424083709717e+00 5.024908529594540596e-02
-1.430717751383781433e+01 -8.674986541271209717e+00 5.488775717094540596e-02
-1.518547341227531433e+01 -9.350035369396209717e+00 3.592108236625790596e-02
-1.516032692790031433e+01 -9.499327361583709717e+00 3.932379232719540596e-02
-1.513530251383781433e+01 -9.648985564708709717e+00 4.275701986625790596e-02
-1.510991188883781433e+01 -9.799742400646209717e+00 4.620550619438290596e-02
-1.774138161540031433e+01 -1.011431759595870972e+01 4.953192221000790596e-02
-1.773735329508781433e+01 -1.029742306470870972e+01 5.368231283500790596e-02
-1.432268044352531433e+01 -8.529600799083709717e+00 1.244068001396954060e-01
-1.423649880290031433e+01 -8.631041228771209717e+00 1.290302132256329060e-01
-1.451774880290031433e+01 -8.949888885021209717e+00 1.265582893975079060e-01
-1.738896462321281433e+01 -1.084722775220870972e+01 7.505987631157040596e-02
-1.647392556071281433e+01 -1.047271603345870972e+01 9.593389974907040596e-02
-1.641679665446281433e+01 -1.061871212720870972e+01 1.000690315850079060e-01
-2.071391579508781433e+01 -1.174749630689620972e+01 9.514044271782040596e-02
-2.061467263102531433e+01 -1.190948361158370972e+01 1.013202522881329060e-01
-1.428715798258781433e+01 -8.506529510021209717e+00 1.970081184990704060e-01
-1.419987770915031433e+01 -8.606871306896209717e+00 2.015399788506329060e-01
-1.454753395915031433e+01 -8.964903533458709717e+00 1.999835823662579060e-01
-1.471477028727531433e+01 -9.223448455333709717e+00 2.011279915459454060e-01
-1.456645485758781433e+01 -9.291929900646209717e+00 2.065906380303204060e-01
-1.441728493571281433e+01 -9.358214080333709717e+00 2.120227669365704060e-01
-2.538627907633781433e+01 -1.431500118970870972e+01 1.550006722100079060e-01
-2.543803688883781433e+01 -1.461236447095870972e+01 1.616535042412579060e-01
-1.409648415446281433e+01 -8.394713103771209717e+00 2.710285042412579060e-01
-1.418315407633781433e+01 -8.594420135021209717e+00 2.738513802178204060e-01
-1.430522438883781433e+01 -8.818052947521209717e+00 2.764453743584454060e-01
-1.415764138102531433e+01 -8.883116424083709717e+00 2.813892220146954060e-01
-1.407487770915031433e+01 -8.985777556896209717e+00 2.857379768975079060e-01
-1.394621559977531433e+01 -9.059263885021209717e+00 2.900714729912579060e-01
-3.394633767008781433e+01 -1.901934689283370972e+01 2.475299690850079060e-01
-2.543901345133781433e+01 -1.460796993970870972e+01 2.917651985771954060e-01
-1.402507302165031433e+01 -8.351256072521209717e+00 3.421954964287579060e-01
-1.370353981852531433e+01 -8.312071502208709717e+00 3.472308968193829060e-01
-1.358745095133781433e+01 -8.388731658458709717e+00 3.514575813896954060e-01
-1.348283669352531433e+01 -8.471739470958709717e+00 3.556079720146954060e-01
-1.339201638102531433e+01 -8.561827361583709717e+00 3.596973274834454060e-01
-1.330620095133781433e+01 -8.654356658458709717e+00 3.637714241631329060e-01
-3.482402321696281433e+01 -1.949554318189620972e+01 4.222278450615704060e-01
-2.544011208415031433e+01 -1.460369747877120972e+01 4.218768929131329060e-01
-1.400761696696281433e+01 -8.338682830333709717e+00 4.130573128350079060e-01
-1.368437477946281433e+01 -8.298399627208709717e+00 4.167194222100079060e-01
-1.357451149821281433e+01 -8.378477752208709717e+00 4.206561897881329060e-01
-1.347270485758781433e+01 -8.463072478771209717e+00 4.246082161553204060e-01
-1.337834450602531433e+01 -8.550718963146209717e+00 4.281635140068829060e-01
-1.329216286540031433e+01 -8.643004119396209717e+00 4.321002815850079060e-01
