-1.690272044390439987e+00 -6.212561689317226410e+00 -5.996565249748471160e-01
-1.621912669390439987e+00 -6.228064619004726410e+00 -5.979780581779721160e-01
-1.552576731890439987e+00 -6.240515790879726410e+00 -5.962995913810971160e-01
-1.483607005327939987e+00 -6.252844892442226410e+00 -5.946211245842221160e-01
-1.414637278765439987e+00 -6.265173994004726410e+00 -5.929579165764096160e-01
-1.344935130327939987e+00 -6.274329267442226410e+00 -5.912794497795346160e-01
-1.276209544390439987e+00 -6.286658369004726410e+00 -5.896162417717221160e-01
-1.944910716265439987e+00 -6.859290204942226410e+00 -6.005873111076596160e-01
-1.868738841265439987e+00 -6.872473798692226410e+00 -5.987409976310971160e-01
-1.792811106890439987e+00 -6.885535322129726410e+00 -5.968946841545346160e-01
-1.716639231890439987e+00 -6.898718915879726410e+00 -5.950636294670346160e-01
-1.640955638140439987e+00 -6.911902509629726410e+00 -5.932173159904721160e-01
-1.565272044390439987e+00 -6.924964033067226410e+00 -5.913862613029721160e-01
-1.489466380327939987e+00 -6.938025556504726410e+00 -5.895552066154721160e-01
-1.413904856890439987e+00 -6.951087079942226410e+00 -5.877241519279721160e-01
-2.129969310015439987e+00 -7.517005048692226410e+00 -5.936598208732846160e-01
-2.027064036577939987e+00 -7.456702314317226410e+00 -5.882734683342221160e-01
-1.926233958452939987e+00 -7.397742353379726410e+00 -5.831922915764096160e-01
-1.826868724077939987e+00 -7.339514814317226410e+00 -5.781874087639096160e-01
-1.729822825640439987e+00 -7.282752119004726410e+00 -5.733045962639096160e-01
-1.640223216265439987e+00 -7.251624189317226410e+00 -5.695356753654721160e-01
-1.553065013140439987e+00 -7.227942548692226410e+00 -5.661024478264096160e-01
-1.466639231890439987e+00 -7.202796064317226410e+00 -5.628370669670346160e-01
-2.130945872515439987e+00 -7.517615400254726410e+00 -5.549482730217221160e-01
-2.028040599077939987e+00 -7.457312665879726410e+00 -5.501417544670346160e-01
-1.927088450640439987e+00 -7.398230634629726410e+00 -5.454420474357846160e-01
-1.827845286577939987e+00 -7.340125165879726410e+00 -5.408033755607846160e-01
-1.730799388140439987e+00 -7.283240400254726410e+00 -5.362867739982846160e-01
-1.641077708452939987e+00 -7.251624189317226410e+00 -5.327314761467221160e-01
-1.553919505327939987e+00 -7.228186689317226410e+00 -5.295118716545346160e-01
-1.467493724077939987e+00 -7.202918134629726410e+00 -5.262464907951596160e-01
-2.131922435015439987e+00 -7.518103681504726410e+00 -5.164350894279721160e-01
-2.029017161577939987e+00 -7.457923017442226410e+00 -5.118116763420346160e-01
-1.928065013140439987e+00 -7.398840986192226410e+00 -5.074781802482846160e-01
-1.828821849077939987e+00 -7.340613447129726410e+00 -5.032209780998471160e-01
-1.731653880327939987e+00 -7.283850751817226410e+00 -4.990553286857846160e-01
-1.641810130327939987e+00 -7.251624189317226410e+00 -4.957289126701596160e-01
-1.554651927202939987e+00 -7.228430829942226410e+00 -4.927076724357846160e-01
-1.468348216265439987e+00 -7.203162275254726410e+00 -4.898542788810971160e-01
-2.132898997515439987e+00 -7.518714033067226410e+00 -4.777235415764096160e-01
-2.029993724077939987e+00 -7.458411298692226410e+00 -4.736952212639096160e-01
-1.929041575640439987e+00 -7.399329267442226410e+00 -4.697279361076596160e-01
-1.829676341265439987e+00 -7.341223798692226410e+00 -4.658369448967221160e-01
-1.732630442827939987e+00 -7.284339033067226410e+00 -4.620222476310971160e-01
-1.642664622515439987e+00 -7.251624189317226410e+00 -4.589247134514096160e-01
-1.555506419390439987e+00 -7.228674970567226410e+00 -4.561018374748471160e-01
-1.469202708452939987e+00 -7.203406415879726410e+00 -4.532637027092221160e-01
-2.133875560015439987e+00 -7.519324384629726410e+00 -4.392103579826596160e-01
-2.030970286577939987e+00 -7.459021650254726410e+00 -4.355482486076596160e-01
-1.930018138140439987e+00 -7.399939619004726410e+00 -4.317640689201596160e-01
-1.830652903765439987e+00 -7.341712079942226410e+00 -4.282392886467221160e-01
-1.733607005327939987e+00 -7.284949384629726410e+00 -4.247908023185971160e-01
-1.643397044390439987e+00 -7.251746259629726410e+00 -4.219221499748471160e-01
-1.556360911577939987e+00 -7.228919111192226410e+00 -4.195112613029721160e-01
-1.470057200640439987e+00 -7.203650556504726410e+00 -4.168714907951596160e-01
-2.134852122515439987e+00 -7.519812665879726410e+00 -4.004988101310971160e-01
-2.031946849077939987e+00 -7.459632001817226410e+00 -3.972181704826596160e-01
-1.930872630327939987e+00 -7.400427900254726410e+00 -3.939985659904721160e-01
-1.831629466265439987e+00 -7.342322431504726410e+00 -3.908399966545346160e-01
-1.734461497515439987e+00 -7.285437665879726410e+00 -3.877577212639096160e-01
-1.644251536577939987e+00 -7.251746259629726410e+00 -3.851179507560971160e-01
-1.557215403765439987e+00 -7.229163251817226410e+00 -3.827070620842221160e-01
-1.470789622515439987e+00 -7.203894697129726410e+00 -3.802809146232846160e-01
-2.135828685015439987e+00 -7.520423017442226410e+00 -3.619703677482846160e-01
-2.032923411577939987e+00 -7.460120283067226410e+00 -3.590711978264096160e-01
-1.931849192827939987e+00 -7.401038251817226410e+00 -3.562330630607846160e-01
-1.832483958452939987e+00 -7.342810712754726410e+00 -3.534407046623471160e-01
-1.735438060015439987e+00 -7.286048017442226410e+00 -3.507093814201596160e-01
-1.644983958452939987e+00 -7.251746259629726410e+00 -3.483290103264096160e-01
-1.558069895952939987e+00 -7.229407392442226410e+00 -3.461012271232846160e-01
-1.471644114702939987e+00 -7.204138837754726410e+00 -3.438887027092221160e-01
-2.136805247515439987e+00 -7.521033369004726410e+00 -3.232435611076596160e-01
-2.033777903765439987e+00 -7.460730634629726410e+00 -3.207258609123471160e-01
-1.932825755327939987e+00 -7.401526533067226410e+00 -3.182691958732846160e-01
-1.833460520952939987e+00 -7.343421064317226410e+00 -3.158430484123471160e-01
-1.736292552202939987e+00 -7.286536298692226410e+00 -3.134626773185971160e-01
-1.645838450640439987e+00 -7.251868329942226410e+00 -3.113264468498471160e-01
-1.558924388140439987e+00 -7.229651533067226410e+00 -3.093122866935971160e-01
-1.472498606890439987e+00 -7.204382978379726410e+00 -3.072981265373471160e-01
-2.137781810015439987e+00 -7.521643720567226410e+00 -2.847151187248471160e-01
-2.034754466265439987e+00 -7.461218915879726410e+00 -2.825788882560971160e-01
-1.933802317827939987e+00 -7.402136884629726410e+00 -2.804884341545346160e-01
-1.834437083452939987e+00 -7.343909345567226410e+00 -2.784284976310971160e-01
-1.737269114702939987e+00 -7.287146650254726410e+00 -2.764295962639096160e-01
-1.646692942827939987e+00 -7.251868329942226410e+00 -2.745375064201596160e-01
-1.559778880327939987e+00 -7.229895673692226410e+00 -2.727064517326596160e-01
-1.473353099077939987e+00 -7.204627119004726410e+00 -2.708906558342221160e-01
-2.138758372515439987e+00 -7.522132001817226410e+00 -2.459883120842221160e-01
-2.035731028765439987e+00 -7.461829267442226410e+00 -2.442335513420346160e-01
-1.934778880327939987e+00 -7.402747236192226410e+00 -2.427229312248471160e-01
-1.835291575640439987e+00 -7.344519697129726410e+00 -2.410292056389096160e-01
-1.738123606890439987e+00 -7.287634931504726410e+00 -2.393659976310971160e-01
-1.647425364702939987e+00 -7.251868329942226410e+00 -2.377333072014096160e-01
-1.560633372515439987e+00 -7.230139814317226410e+00 -2.359022525139096160e-01
-1.474207591265439987e+00 -7.204871259629726410e+00 -2.343000796623471160e-01
-2.139734935015439987e+00 -7.522742353379726410e+00 -2.074446109123471160e-01
-2.036707591265439987e+00 -7.462439619004726410e+00 -2.060865786857846160e-01
-1.935633372515439987e+00 -7.403235517442226410e+00 -2.047285464592221160e-01
-1.836268138140439987e+00 -7.345007978379726410e+00 -2.034162905998471160e-01
-1.739100169390439987e+00 -7.288123212754726410e+00 -2.021192935295346160e-01
-1.648279856890439987e+00 -7.251990400254726410e+00 -2.007460025139096160e-01
-1.561487864702939987e+00 -7.230383954942226410e+00 -1.993116763420346160e-01
-1.475062083452939987e+00 -7.205115400254726410e+00 -1.979078677482846160e-01
-2.140711497515439987e+00 -7.523352704942226410e+00 -1.687025454826596160e-01
-2.037684153765439987e+00 -7.462927900254726410e+00 -1.679243472404721160e-01
-1.936609935015439987e+00 -7.403845869004726410e+00 -1.669477847404721160e-01
-1.837244700640439987e+00 -7.345618329942226410e+00 -1.660017398185971160e-01
-1.740076731890439987e+00 -7.288733564317226410e+00 -1.650709536857846160e-01
-1.649012278765439987e+00 -7.251990400254726410e+00 -1.639570620842221160e-01
-1.562342356890439987e+00 -7.230628095567226410e+00 -1.627058413810971160e-01
-1.475916575640439987e+00 -7.205359540879726410e+00 -1.613172915764096160e-01
-2.141688060015439987e+00 -7.523840986192226410e+00 -1.301741030998471160e-01
-2.038660716265439987e+00 -7.463538251817226410e+00 -1.295637515373471160e-01
-1.937586497515439987e+00 -7.404334150254726410e+00 -1.289686587639096160e-01
-1.838099192827939987e+00 -7.346106611192226410e+00 -1.283735659904721160e-01
-1.740931224077939987e+00 -7.289221845567226410e+00 -1.278089907951596160e-01
-1.649866770952939987e+00 -7.251990400254726410e+00 -1.269697573967221160e-01
-1.563196849077939987e+00 -7.230872236192226410e+00 -1.259016421623471160e-01
-1.476648997515439987e+00 -7.205603681504726410e+00 -1.249250796623471160e-01
-2.142664622515439987e+00 -7.524451337754726410e+00 -9.141677888109711603e-02
-2.039637278765439987e+00 -7.464148603379726410e+00 -9.140152009203461603e-02
-1.938563060015439987e+00 -7.404944501817226410e+00 -9.117263825609711603e-02
-1.839075755327939987e+00 -7.346716962754726410e+00 -9.095901520922211603e-02
-1.741907786577939987e+00 -7.289832197129726410e+00 -9.074539216234711603e-02
-1.650599192827939987e+00 -7.251990400254726410e+00 -9.018081696703461603e-02
-1.563929270952939987e+00 -7.231116376817226410e+00 -8.929580720140961603e-02
-1.477503489702939987e+00 -7.205847822129726410e+00 -8.833450349047211603e-02
-2.143763255327939987e+00 -7.525061689317226410e+00 -5.287307770922211603e-02
-2.040613841265439987e+00 -7.464636884629726410e+00 -5.302566559984711603e-02
-1.939539622515439987e+00 -7.405432783067226410e+00 -5.317825349047211603e-02
-1.840052317827939987e+00 -7.347205244004726410e+00 -5.333084138109711603e-02
-1.742762278765439987e+00 -7.290320478379726410e+00 -5.348342927172211603e-02
-1.651453685015439987e+00 -7.252112470567226410e+00 -5.319351227953461603e-02
-1.564783763140439987e+00 -7.231360517442226410e+00 -5.250686677172211603e-02
-1.478357981890439987e+00 -7.206091962754726410e+00 -5.192703278734711603e-02
-2.144739817827939987e+00 -7.525549970567226410e+00 -1.411575349047211603e-02
-2.041590403765439987e+00 -7.465247236192226410e+00 -1.466506989672211603e-02
-1.940394114702939987e+00 -7.406043134629726410e+00 -1.538223298265961603e-02
-1.841028880327939987e+00 -7.347815595567226410e+00 -1.590103181078461603e-02
-1.743738841265439987e+00 -7.290930829942226410e+00 -1.640457184984711603e-02
-1.652186106890439987e+00 -7.252112470567226410e+00 -1.641983063890961603e-02
-1.565638255327939987e+00 -7.231604658067226410e+00 -1.570266755297211603e-02
-1.479212474077939987e+00 -7.206336103379726410e+00 -1.533645661547211603e-02
-2.145716380327939987e+00 -7.526160322129726410e+00 2.464157072827788397e-02
-2.042566966265439987e+00 -7.465857587754726410e+00 2.351242033765288397e-02
-1.941370677202939987e+00 -7.406653486192226410e+00 2.261215178296538397e-02
-1.841883372515439987e+00 -7.348425947129726410e+00 2.172714201734038397e-02
-1.744715403765439987e+00 -7.291419111192226410e+00 2.085739104077788397e-02
-1.653040599077939987e+00 -7.252112470567226410e+00 2.056747404859038397e-02
-1.566492747515439987e+00 -7.231848798692226410e+00 2.090316740796538397e-02
-1.480066966265439987e+00 -7.206580244004726410e+00 2.125411955640288397e-02
-1.166102122515439987e+00 -5.756873212754726410e+00 -5.926832583732846160e-01
-1.103602122515439987e+00 -5.772498212754726410e+00 -5.914015200920346160e-01
-1.040735911577939987e+00 -5.787146650254726410e+00 -5.902113345451596160e-01
-9.779917709529399872e-01 -5.804114423692226410e+00 -5.891432193107846160e-01
-9.165904037654399872e-01 -5.828528486192226410e+00 -5.884870913810971160e-01
-8.549448959529399872e-01 -5.853186689317226410e+00 -5.878309634514096160e-01
-7.928111068904399872e-01 -5.877966962754726410e+00 -5.871748355217221160e-01
-7.303111068904399872e-01 -5.900061689317226410e+00 -5.865187075920346160e-01
-1.275965403765439987e+00 -6.286658369004726410e+00 -5.896162417717221160e-01
-1.206507395952939987e+00 -6.295325361192226410e+00 -5.879530337639096160e-01
-1.138270091265439987e+00 -6.309607587754726410e+00 -5.864118960685971160e-01
-1.070398997515439987e+00 -6.328162275254726410e+00 -5.852369693107846160e-01
-1.002649974077939987e+00 -6.346594892442226410e+00 -5.840620425529721160e-01
-9.347788803279399872e-01 -6.365149579942226410e+00 -5.828871157951596160e-01
-8.661753647029399872e-01 -6.380530439317226410e+00 -5.817121890373471160e-01
-7.980601303279399872e-01 -6.399085126817226410e+00 -5.805372622795346160e-01
-1.413660716265439987e+00 -6.950965009629726410e+00 -5.877088931389096160e-01
-1.337488841265439987e+00 -6.960242353379726410e+00 -5.859083560295346160e-01
-1.261439036577939987e+00 -6.969519697129726410e+00 -5.840925601310971160e-01
-1.185145091265439987e+00 -6.978797040879726410e+00 -5.822767642326596160e-01
-1.110315989702939987e+00 -6.994910322129726410e+00 -5.807814029045346160e-01
-1.036219310015439987e+00 -7.015784345567226410e+00 -5.794844058342221160e-01
-9.617564193904399872e-01 -7.036902509629726410e+00 -5.781874087639096160e-01
-8.838755600154399872e-01 -7.032263837754726410e+00 -5.757765200920346160e-01
-1.466273020952939987e+00 -7.202551923692226410e+00 -5.628218081779721160e-01
-1.380823802202939987e+00 -7.177527509629726410e+00 -5.593580630607846160e-01
-1.296229075640439987e+00 -7.152747236192226410e+00 -5.561231997795346160e-01
-1.212122630327939987e+00 -7.128211103379726410e+00 -5.529188540764096160e-01
-1.129114817827939987e+00 -7.104041181504726410e+00 -5.497450259514096160e-01
-1.046961497515439987e+00 -7.079993329942226410e+00 -5.466169741935971160e-01
-9.652964584529399872e-01 -7.056067548692226410e+00 -5.434889224357846160e-01
-8.846079818904399872e-01 -7.032507978379726410e+00 -5.406050113029721160e-01
-1.467127513140439987e+00 -7.202796064317226410e+00 -5.262312320060971160e-01
-1.381678294390439987e+00 -7.177771650254726410e+00 -5.231489566154721160e-01
-1.297083567827939987e+00 -7.152991376817226410e+00 -5.200971988029721160e-01
-1.212977122515439987e+00 -7.128455244004726410e+00 -5.170606997795346160e-01
-1.129969310015439987e+00 -7.104163251817226410e+00 -5.140547183342221160e-01
-1.047815989702939987e+00 -7.080237470567226410e+00 -5.110945132560971160e-01
-9.661509506404399872e-01 -7.056311689317226410e+00 -5.081495669670346160e-01
-8.854624740779399872e-01 -7.032752119004726410e+00 -5.052351382560971160e-01
-1.467982005327939987e+00 -7.203040204942226410e+00 -4.898390200920346160e-01
-1.382532786577939987e+00 -7.178015790879726410e+00 -4.867414859123471160e-01
-1.297938060015439987e+00 -7.153235517442226410e+00 -4.838575747795346160e-01
-1.213831614702939987e+00 -7.128699384629726410e+00 -4.810041812248471160e-01
-1.130823802202939987e+00 -7.104407392442226410e+00 -4.781813052482846160e-01
-1.048548411577939987e+00 -7.080481611192226410e+00 -4.753889468498471160e-01
-9.668833725154399872e-01 -7.056555829942226410e+00 -4.726118472404721160e-01
-8.863169662654399872e-01 -7.032996259629726410e+00 -4.700636294670346160e-01
-1.468836497515439987e+00 -7.203284345567226410e+00 -4.532484439201596160e-01
-1.383387278765439987e+00 -7.178259931504726410e+00 -4.505171206779721160e-01
-1.298670481890439987e+00 -7.153479658067226410e+00 -4.478315738029721160e-01
-1.214564036577939987e+00 -7.128943525254726410e+00 -4.451460269279721160e-01
-1.131556224077939987e+00 -7.104651533067226410e+00 -4.424909976310971160e-01
-1.049402903765439987e+00 -7.080725751817226410e+00 -4.398664859123471160e-01
-9.677378647029399872e-01 -7.056799970567226410e+00 -4.372724917717221160e-01
-8.870493881404399872e-01 -7.033240400254726410e+00 -4.346937564201596160e-01
-1.469690989702939987e+00 -7.203528486192226410e+00 -4.168562320060971160e-01
-1.384241770952939987e+00 -7.178504072129726410e+00 -4.143080142326596160e-01
-1.299524974077939987e+00 -7.153723798692226410e+00 -4.115919497795346160e-01
-1.215418528765439987e+00 -7.129187665879726410e+00 -4.090895083732846160e-01
-1.132410716265439987e+00 -7.104895673692226410e+00 -4.066175845451596160e-01
-1.050257395952939987e+00 -7.080847822129726410e+00 -4.041609195060971160e-01
-9.684702865779399872e-01 -7.057044111192226410e+00 -4.019178775139096160e-01
-8.879038803279399872e-01 -7.033484540879726410e+00 -3.995222476310971160e-01
-1.470545481890439987e+00 -7.203650556504726410e+00 -3.802656558342221160e-01
-1.384974192827939987e+00 -7.178748212754726410e+00 -3.779005435295346160e-01
-1.300379466265439987e+00 -7.153967939317226410e+00 -3.755506900139096160e-01
-1.216273020952939987e+00 -7.129431806504726410e+00 -3.732313540764096160e-01
-1.133265208452939987e+00 -7.105139814317226410e+00 -3.709272769279721160e-01
-1.050989817827939987e+00 -7.081091962754726410e+00 -3.686537173576596160e-01
-9.693247787654399872e-01 -7.057288251817226410e+00 -3.663954165764096160e-01
-8.887583725154399872e-01 -7.033728681504726410e+00 -3.641523745842221160e-01
-1.471399974077939987e+00 -7.203894697129726410e+00 -3.438734439201596160e-01
-1.385828685015439987e+00 -7.178992353379726410e+00 -3.416914370842221160e-01
-1.301233958452939987e+00 -7.154212079942226410e+00 -3.395246890373471160e-01
-1.217127513140439987e+00 -7.129675947129726410e+00 -3.373579409904721160e-01
-1.134119700640439987e+00 -7.105383954942226410e+00 -3.352369693107846160e-01
-1.051844310015439987e+00 -7.081336103379726410e+00 -3.331312564201596160e-01
-9.701792709529399872e-01 -7.057532392442226410e+00 -3.310408023185971160e-01
-8.894907943904399872e-01 -7.033972822129726410e+00 -3.289808657951596160e-01
-1.472254466265439987e+00 -7.204138837754726410e+00 -3.072828677482846160e-01
-1.386683177202939987e+00 -7.179236494004726410e+00 -3.052687075920346160e-01
-1.302088450640439987e+00 -7.154456220567226410e+00 -3.032850650139096160e-01
-1.217982005327939987e+00 -7.129920087754726410e+00 -3.013166812248471160e-01
-1.134852122515439987e+00 -7.105628095567226410e+00 -2.993635562248471160e-01
-1.052698802202939987e+00 -7.081580244004726410e+00 -2.974256900139096160e-01
-9.710337631404399872e-01 -7.057776533067226410e+00 -2.955030825920346160e-01
-8.903452865779399872e-01 -7.034094892442226410e+00 -2.936109927482846160e-01
-1.472986888140439987e+00 -7.204382978379726410e+00 -2.708906558342221160e-01
-1.387537669390439987e+00 -7.179480634629726410e+00 -2.690596011467221160e-01
-1.302820872515439987e+00 -7.154700361192226410e+00 -2.672438052482846160e-01
-1.218714427202939987e+00 -7.130164228379726410e+00 -2.654432681389096160e-01
-1.135706614702939987e+00 -7.105872236192226410e+00 -2.636732486076596160e-01
-1.053553294390439987e+00 -7.081824384629726410e+00 -2.619184878654721160e-01
-9.717661850154399872e-01 -7.057898603379726410e+00 -2.601637271232846160e-01
-8.910777084529399872e-01 -7.034339033067226410e+00 -2.584394839592221160e-01
-1.473841380327939987e+00 -7.204627119004726410e+00 -2.343000796623471160e-01
-1.388392161577939987e+00 -7.179724775254726410e+00 -2.326521304435971160e-01
-1.303675364702939987e+00 -7.154944501817226410e+00 -2.312025454826596160e-01
-1.219568919390439987e+00 -7.130408369004726410e+00 -2.295851138420346160e-01
-1.136561106890439987e+00 -7.106116376817226410e+00 -2.279829409904721160e-01
-1.054285716265439987e+00 -7.082068525254726410e+00 -2.263960269279721160e-01
-9.726206772029399872e-01 -7.058142744004726410e+00 -2.246260073967221160e-01
-8.919322006404399872e-01 -7.034583173692226410e+00 -2.230696109123471160e-01
-1.474695872515439987e+00 -7.204871259629726410e+00 -1.979078677482846160e-01
-1.389246653765439987e+00 -7.179968915879726410e+00 -1.964277652092221160e-01
-1.304529856890439987e+00 -7.155188642442226410e+00 -1.949781802482846160e-01
-1.220423411577939987e+00 -7.130652509629726410e+00 -1.935285952873471160e-01
-1.137415599077939987e+00 -7.106360517442226410e+00 -1.921095279045346160e-01
-1.055140208452939987e+00 -7.082312665879726410e+00 -1.906904605217221160e-01
-9.733530990779399872e-01 -7.058386884629726410e+00 -1.892866519279721160e-01
-8.927866928279399872e-01 -7.034827314317226410e+00 -1.878981021232846160e-01
-1.475550364702939987e+00 -7.205115400254726410e+00 -1.613172915764096160e-01
-1.389979075640439987e+00 -7.180213056504726410e+00 -1.602186587639096160e-01
-1.305384349077939987e+00 -7.155432783067226410e+00 -1.589369204826596160e-01
-1.221277903765439987e+00 -7.130774579942226410e+00 -1.576704409904721160e-01
-1.138148020952939987e+00 -7.106604658067226410e+00 -1.564192202873471160e-01
-1.055994700640439987e+00 -7.082556806504726410e+00 -1.551679995842221160e-01
-9.742075912654399872e-01 -7.058631025254726410e+00 -1.539320376701596160e-01
-8.935191147029399872e-01 -7.035071454942226410e+00 -1.525282290764096160e-01
-1.476404856890439987e+00 -7.205359540879726410e+00 -1.249250796623471160e-01
-1.390833567827939987e+00 -7.180457197129726410e+00 -1.238111880607846160e-01
-1.306238841265439987e+00 -7.155676923692226410e+00 -1.227125552482846160e-01
-1.222010325640439987e+00 -7.131018720567226410e+00 -1.216139224357846160e-01
-1.139002513140439987e+00 -7.106848798692226410e+00 -1.205305484123471160e-01
-1.056727122515439987e+00 -7.082800947129726410e+00 -1.194624331779721160e-01
-9.750620834529399872e-01 -7.058875165879726410e+00 -1.183943179435971160e-01
-8.943736068904399872e-01 -7.035315595567226410e+00 -1.173567202873471160e-01
-1.477259349077939987e+00 -7.205603681504726410e+00 -8.833450349047211603e-02
-1.391688060015439987e+00 -7.180579267442226410e+00 -8.758682282640961603e-02
-1.306971263140439987e+00 -7.155921064317226410e+00 -8.667129548265961603e-02
-1.222864817827939987e+00 -7.131262861192226410e+00 -8.574050934984711603e-02
-1.139857005327939987e+00 -7.107092939317226410e+00 -8.484024079515961603e-02
-1.057581614702939987e+00 -7.083045087754726410e+00 -8.393997224047211603e-02
-9.757945053279399872e-01 -7.059119306504726410e+00 -8.305496247484711603e-02
-8.952280990779399872e-01 -7.035559736192226410e+00 -8.198684724047211603e-02
-1.478113841265439987e+00 -7.205847822129726410e+00 -5.192703278734711603e-02
-1.392542552202939987e+00 -7.180823408067226410e+00 -5.117935212328461603e-02
-1.307825755327939987e+00 -7.156165204942226410e+00 -5.043167145922211603e-02
-1.223719310015439987e+00 -7.131507001817226410e+00 -4.969924958422211603e-02
-1.140711497515439987e+00 -7.107215009629726410e+00 -4.896682770922211603e-02
-1.058436106890439987e+00 -7.083289228379726410e+00 -4.823440583422211603e-02
-9.766489975154399872e-01 -7.059363447129726410e+00 -4.751724274828461603e-02
-8.959605209529399872e-01 -7.035803876817226410e+00 -4.680007966234711603e-02
-1.478968333452939987e+00 -7.206091962754726410e+00 -1.533645661547211603e-02
-1.393397044390439987e+00 -7.181067548692226410e+00 -1.477188142015961603e-02
-1.308680247515439987e+00 -7.156409345567226410e+00 -1.439041169359711603e-02
-1.224573802202939987e+00 -7.131751142442226410e+00 -1.382583649828461603e-02
-1.141443919390439987e+00 -7.107459150254726410e+00 -1.327652009203461603e-02
-1.059168528765439987e+00 -7.083411298692226410e+00 -1.271194489672211603e-02
-9.775034897029399872e-01 -7.059607587754726410e+00 -1.197952302172211603e-02
-8.968150131404399872e-01 -7.036048017442226410e+00 -1.144546540453461603e-02
-1.479700755327939987e+00 -7.206336103379726410e+00 2.125411955640288397e-02
-1.394251536577939987e+00 -7.181311689317226410e+00 2.145248381421538397e-02
-1.309534739702939987e+00 -7.156653486192226410e+00 2.183395354077788397e-02
-1.225306224077939987e+00 -7.131995283067226410e+00 2.223068205640288397e-02
-1.142298411577939987e+00 -7.107703290879726410e+00 2.261215178296538397e-02
-1.060023020952939987e+00 -7.083655439317226410e+00 2.299362150952788397e-02
-9.782359115779399872e-01 -7.059851728379726410e+00 2.335983244702788397e-02
-8.976695053279399872e-01 -7.036292158067226410e+00 2.392440764234038397e-02
-7.301890365779399872e-01 -5.900305829942226410e+00 -5.865187075920346160e-01
-6.675669662654399872e-01 -5.924597822129726410e+00 -5.858625796623471160e-01
-6.044566147029399872e-01 -5.946326337754726410e+00 -5.852217105217221160e-01
-5.406138412654399872e-01 -5.967444501817226410e+00 -5.845198062248471160e-01
-4.766489975154399872e-01 -5.986731611192226410e+00 -5.837416079826596160e-01
-4.123179428279399872e-01 -6.006262861192226410e+00 -5.829481509514096160e-01
-3.476206772029399872e-01 -6.025794111192226410e+00 -5.821546939201596160e-01
-2.826792709529399872e-01 -6.043006025254726410e+00 -5.814070132560971160e-01
-7.978159897029399872e-01 -6.399207197129726410e+00 -5.805372622795346160e-01
-7.290904037654399872e-01 -6.414221845567226410e+00 -5.793623355217221160e-01
-6.608530990779399872e-01 -6.435340009629726410e+00 -5.783247378654721160e-01
-5.922495834529399872e-01 -6.457190595567226410e+00 -5.774549868889096160e-01
-5.235239975154399872e-01 -6.479163251817226410e+00 -5.766004947014096160e-01
-4.545542709529399872e-01 -6.501135908067226410e+00 -5.757460025139096160e-01
-3.847300522029399872e-01 -6.520423017442226410e+00 -5.749220279045346160e-01
-3.151499740779399872e-01 -6.542517744004726410e+00 -5.740522769279721160e-01
-8.835093490779399872e-01 -7.032141767442226410e+00 -5.757612613029721160e-01
-8.036753647029399872e-01 -7.008704267442226410e+00 -5.727247622795346160e-01
-7.244517318904399872e-01 -6.985632978379726410e+00 -5.697035220451596160e-01
-6.454722397029399872e-01 -6.962561689317226410e+00 -5.667127993889096160e-01
-5.674693100154399872e-01 -6.939734540879726410e+00 -5.637373355217221160e-01
-4.901988022029399872e-01 -6.917151533067226410e+00 -5.608076480217221160e-01
-4.131724350154399872e-01 -6.894690595567226410e+00 -5.578779605217221160e-01
-3.370005600154399872e-01 -6.872351728379726410e+00 -5.549787905998471160e-01
-8.843638412654399872e-01 -7.032385908067226410e+00 -5.405897525139096160e-01
-8.044077865779399872e-01 -7.008948408067226410e+00 -5.375074771232846160e-01
-7.251841537654399872e-01 -6.985877119004726410e+00 -5.346235659904721160e-01
-6.463267318904399872e-01 -6.962805829942226410e+00 -5.317701724357846160e-01
-5.683238022029399872e-01 -6.939978681504726410e+00 -5.289472964592221160e-01
-4.909312240779399872e-01 -6.917395673692226410e+00 -5.261549380607846160e-01
-4.139048568904399872e-01 -6.894812665879726410e+00 -5.233625796623471160e-01
-3.377329818904399872e-01 -6.872595869004726410e+00 -5.207838443107846160e-01
-8.852183334529399872e-01 -7.032630048692226410e+00 -5.052198794670346160e-01
-8.052622787654399872e-01 -7.009192548692226410e+00 -5.024732974357846160e-01
-7.260386459529399872e-01 -6.985999189317226410e+00 -4.997419741935971160e-01
-6.470591537654399872e-01 -6.963049970567226410e+00 -4.970259097404721160e-01
-5.690562240779399872e-01 -6.940222822129726410e+00 -4.943403628654721160e-01
-4.917857162654399872e-01 -6.917639814317226410e+00 -4.916853335685971160e-01
-4.147593490779399872e-01 -6.895056806504726410e+00 -4.890303042717221160e-01
-3.385874740779399872e-01 -6.872840009629726410e+00 -4.864057925529721160e-01
-8.859507553279399872e-01 -7.032752119004726410e+00 -4.700483706779721160e-01
-8.061167709529399872e-01 -7.009436689317226410e+00 -4.672560122795346160e-01
-7.267710678279399872e-01 -6.986243329942226410e+00 -4.646620181389096160e-01
-6.479136459529399872e-01 -6.963172040879726410e+00 -4.620985415764096160e-01
-5.699107162654399872e-01 -6.940466962754726410e+00 -4.595503238029721160e-01
-4.925181381404399872e-01 -6.917761884629726410e+00 -4.570173648185971160e-01
-4.154917709529399872e-01 -6.895300947129726410e+00 -4.545149234123471160e-01
-3.393198959529399872e-01 -6.873084150254726410e+00 -4.522108462639096160e-01
-8.868052475154399872e-01 -7.032996259629726410e+00 -4.346784976310971160e-01
-8.068491928279399872e-01 -7.009680829942226410e+00 -4.322218325920346160e-01
-7.276255600154399872e-01 -6.986487470567226410e+00 -4.297804263420346160e-01
-6.486460678279399872e-01 -6.963416181504726410e+00 -4.273390200920346160e-01
-5.706431381404399872e-01 -6.940711103379726410e+00 -4.249433902092221160e-01
-4.933726303279399872e-01 -6.918006025254726410e+00 -4.225477603264096160e-01
-4.163462631404399872e-01 -6.895545087754726410e+00 -4.201826480217221160e-01
-3.401743881404399872e-01 -6.873328290879726410e+00 -4.178327945060971160e-01
-8.876597397029399872e-01 -7.033240400254726410e+00 -3.995069888420346160e-01
-8.077036850154399872e-01 -7.009924970567226410e+00 -3.971876529045346160e-01
-7.283579818904399872e-01 -6.986731611192226410e+00 -3.947004702873471160e-01
-6.495005600154399872e-01 -6.963660322129726410e+00 -3.924116519279721160e-01
-5.714976303279399872e-01 -6.940833173692226410e+00 -3.901380923576596160e-01
-4.941050522029399872e-01 -6.918250165879726410e+00 -3.878950503654721160e-01
-4.170786850154399872e-01 -6.895789228379726410e+00 -3.858503726310971160e-01
-3.409068100154399872e-01 -6.873450361192226410e+00 -3.836378482170346160e-01
-8.883921615779399872e-01 -7.033484540879726410e+00 -3.641523745842221160e-01
-8.084361068904399872e-01 -7.010169111192226410e+00 -3.619703677482846160e-01
-7.292124740779399872e-01 -6.986975751817226410e+00 -3.598036197014096160e-01
-6.503550522029399872e-01 -6.963904462754726410e+00 -3.576521304435971160e-01
-5.722300522029399872e-01 -6.941077314317226410e+00 -3.555311587639096160e-01
-4.949595443904399872e-01 -6.918494306504726410e+00 -3.534254458732846160e-01
-4.179331772029399872e-01 -6.896033369004726410e+00 -3.513349917717221160e-01
-3.417613022029399872e-01 -6.873694501817226410e+00 -3.492597964592221160e-01
-8.892466537654399872e-01 -7.033728681504726410e+00 -3.289656070060971160e-01
-8.092905990779399872e-01 -7.010413251817226410e+00 -3.269361880607846160e-01
-7.300669662654399872e-01 -6.987219892442226410e+00 -3.249220279045346160e-01
-6.510874740779399872e-01 -6.964148603379726410e+00 -3.229078677482846160e-01
-5.730845443904399872e-01 -6.941321454942226410e+00 -3.209242251701596160e-01
-4.956919662654399872e-01 -6.918738447129726410e+00 -3.189558413810971160e-01
-4.186655990779399872e-01 -6.896155439317226410e+00 -3.169874575920346160e-01
-3.424937240779399872e-01 -6.873938642442226410e+00 -3.150495913810971160e-01
-8.899790756404399872e-01 -7.033972822129726410e+00 -2.936109927482846160e-01
-8.101450912654399872e-01 -7.010657392442226410e+00 -2.917189029045346160e-01
-7.307993881404399872e-01 -6.987464033067226410e+00 -2.898420718498471160e-01
-6.519419662654399872e-01 -6.964392744004726410e+00 -2.879804995842221160e-01
-5.739390365779399872e-01 -6.941565595567226410e+00 -2.861341861076596160e-01
-4.965464584529399872e-01 -6.918982587754726410e+00 -2.843031314201596160e-01
-4.193980209529399872e-01 -6.896399579942226410e+00 -2.824720767326596160e-01
-3.432261459529399872e-01 -6.874182783067226410e+00 -2.806715396232846160e-01
-8.908335678279399872e-01 -7.034216962754726410e+00 -2.584242251701596160e-01
-8.108775131404399872e-01 -7.010779462754726410e+00 -2.566847232170346160e-01
-7.316538803279399872e-01 -6.987708173692226410e+00 -2.549452212639096160e-01
-6.526743881404399872e-01 -6.964636884629726410e+00 -2.532209780998471160e-01
-5.746714584529399872e-01 -6.941809736192226410e+00 -2.515119937248471160e-01
-4.972788803279399872e-01 -6.919226728379726410e+00 -2.498335269279721160e-01
-4.202525131404399872e-01 -6.896643720567226410e+00 -2.481398013420346160e-01
-3.440806381404399872e-01 -6.874426923692226410e+00 -2.464765933342221160e-01
-8.916880600154399872e-01 -7.034461103379726410e+00 -2.230696109123471160e-01
-8.117320053279399872e-01 -7.011023603379726410e+00 -2.214674380607846160e-01
-7.323863022029399872e-01 -6.987830244004726410e+00 -2.200636294670346160e-01
-6.535288803279399872e-01 -6.964758954942226410e+00 -2.184767154045346160e-01
-5.754038803279399872e-01 -6.942053876817226410e+00 -2.169050601310971160e-01
-4.980113022029399872e-01 -6.919348798692226410e+00 -2.153486636467221160e-01
-4.209849350154399872e-01 -6.896887861192226410e+00 -2.136244204826596160e-01
-3.448130600154399872e-01 -6.874671064317226410e+00 -2.120985415764096160e-01
-8.924204818904399872e-01 -7.034705244004726410e+00 -1.878828433342221160e-01
-8.124644272029399872e-01 -7.011267744004726410e+00 -1.864332583732846160e-01
-7.332407943904399872e-01 -6.988074384629726410e+00 -1.849836734123471160e-01
-6.542613022029399872e-01 -6.965003095567226410e+00 -1.835340884514096160e-01
-5.762583725154399872e-01 -6.942298017442226410e+00 -1.821150210685971160e-01
-4.988657943904399872e-01 -6.919592939317226410e+00 -1.806959536857846160e-01
-4.218394272029399872e-01 -6.897132001817226410e+00 -1.792921450920346160e-01
-3.456675522029399872e-01 -6.874793134629726410e+00 -1.779035952873471160e-01
-8.932749740779399872e-01 -7.034827314317226410e+00 -1.525282290764096160e-01
-8.133189193904399872e-01 -7.011511884629726410e+00 -1.513990786857846160e-01
-7.339732162654399872e-01 -6.988318525254726410e+00 -1.500868228264096160e-01
-6.551157943904399872e-01 -6.965247236192226410e+00 -1.487898257560971160e-01
-5.771128647029399872e-01 -6.942420087754726410e+00 -1.475080874748471160e-01
-4.995982162654399872e-01 -6.919837079942226410e+00 -1.462263491935971160e-01
-4.225718490779399872e-01 -6.897376142442226410e+00 -1.449598697014096160e-01
-3.463999740779399872e-01 -6.875037275254726410e+00 -1.435102847404721160e-01
-8.941294662654399872e-01 -7.035071454942226410e+00 -1.173414614982846160e-01
-8.141734115779399872e-01 -7.011756025254726410e+00 -1.161665347404721160e-01
-7.348277084529399872e-01 -6.988562665879726410e+00 -1.150068667717221160e-01
-6.558482162654399872e-01 -6.965491376817226410e+00 -1.138471988029721160e-01
-5.778452865779399872e-01 -6.942664228379726410e+00 -1.127027896232846160e-01
-5.004527084529399872e-01 -6.920081220567226410e+00 -1.115736392326596160e-01
-4.234263412654399872e-01 -6.897620283067226410e+00 -1.104292300529721160e-01
-3.472544662654399872e-01 -6.875281415879726410e+00 -1.093153384514096160e-01
-8.948618881404399872e-01 -7.035315595567226410e+00 -8.198684724047211603e-02
-8.149058334529399872e-01 -7.012000165879726410e+00 -8.113235505297211603e-02
-7.355601303279399872e-01 -6.988806806504726410e+00 -8.011001618578461603e-02
-6.567027084529399872e-01 -6.965735517442226410e+00 -7.910293610765961603e-02
-5.786997787654399872e-01 -6.942908369004726410e+00 -7.809585602953461603e-02
-5.011851303279399872e-01 -6.920325361192226410e+00 -7.708877595140961603e-02
-4.241587631404399872e-01 -6.897742353379726410e+00 -7.609695466234711603e-02
-3.479868881404399872e-01 -6.875525556504726410e+00 -7.493728669359711603e-02
-8.957163803279399872e-01 -7.035559736192226410e+00 -4.680007966234711603e-02
-8.157603256404399872e-01 -7.012244306504726410e+00 -4.591506989672211603e-02
-7.364146225154399872e-01 -6.989050947129726410e+00 -4.504531892015961603e-02
-6.574351303279399872e-01 -6.965979658067226410e+00 -4.416030915453461603e-02
-5.794322006404399872e-01 -6.943152509629726410e+00 -4.329055817797211603e-02
-5.020396225154399872e-01 -6.920569501817226410e+00 -4.243606599047211603e-02
-4.250132553279399872e-01 -6.897986494004726410e+00 -4.158157380297211603e-02
-3.487193100154399872e-01 -6.875769697129726410e+00 -4.074234040453461603e-02
-8.964488022029399872e-01 -7.035803876817226410e+00 -1.144546540453461603e-02
-8.164927475154399872e-01 -7.012488447129726410e+00 -1.069778474047211603e-02
-7.372691147029399872e-01 -6.989295087754726410e+00 -1.014846833422211603e-02
-6.582896225154399872e-01 -6.966223798692226410e+00 -9.416046459222116027e-03
-5.802866928279399872e-01 -6.943396650254726410e+00 -8.683624584222116027e-03
-5.027720443904399872e-01 -6.920813642442226410e+00 -7.966461498284616027e-03
-4.257456772029399872e-01 -6.898230634629726410e+00 -7.066192943597116027e-03
-3.495738022029399872e-01 -6.876013837754726410e+00 -6.349029857659616027e-03
-8.973032943904399872e-01 -7.036048017442226410e+00 2.392440764234038397e-02
-8.173472397029399872e-01 -7.012732587754726410e+00 2.433639494702788397e-02
-7.380015365779399872e-01 -6.989539228379726410e+00 2.493148772046538397e-02
-6.590220443904399872e-01 -6.966467939317226410e+00 2.552658049390288397e-02
-5.810191147029399872e-01 -6.943640790879726410e+00 2.610641447827788397e-02
-5.036265365779399872e-01 -6.920935712754726410e+00 2.670150725171538397e-02
-4.266001693904399872e-01 -6.898474775254726410e+00 2.726608244702788397e-02
-3.503062240779399872e-01 -6.876257978379726410e+00 2.802902190015288397e-02
-2.824351303279399872e-01 -6.043006025254726410e+00 -5.813917544670346160e-01
-2.173716537654399872e-01 -6.062171064317226410e+00 -5.806135562248471160e-01
-1.518198959529399872e-01 -6.078650556504726410e+00 -5.798353579826596160e-01
-8.541364595293998718e-02 -6.087683759629726410e+00 -5.786909488029721160e-01
-1.925153657793998718e-02 -6.096839033067226410e+00 -5.775465396232846160e-01
4.715471342206001282e-02 -6.105872236192226410e+00 -5.763868716545346160e-01
1.139271743595600128e-01 -6.115027509629726410e+00 -5.752272036857846160e-01
1.804554946720600128e-01 -6.121741376817226410e+00 -5.741133120842221160e-01
-3.149058334529399872e-01 -6.542639814317226410e+00 -5.740522769279721160e-01
-2.448374740779399872e-01 -6.561682783067226410e+00 -5.732130435295346160e-01
-1.746470443904399872e-01 -6.583777509629726410e+00 -5.723432925529721160e-01
-1.033579818904399872e-01 -6.596716962754726410e+00 -5.712141421623471160e-01
-3.206891939043998718e-02 -6.607092939317226410e+00 -5.699781802482846160e-01
3.934221342206001282e-02 -6.617468915879726410e+00 -5.687269595451596160e-01
1.112416274845600128e-01 -6.625037275254726410e+00 -5.675215152092221160e-01
1.828969009220600128e-01 -6.635413251817226410e+00 -5.662550357170346160e-01
-3.367564193904399872e-01 -6.872229658067226410e+00 -5.549635318107846160e-01
-2.611948959529399872e-01 -6.850134931504726410e+00 -5.522779849357846160e-01
-1.861216537654399872e-01 -6.828162275254726410e+00 -5.495924380607846160e-01
-1.111704818904399872e-01 -6.806311689317226410e+00 -5.469221499748471160e-01
-3.707380220293998718e-02 -6.784583173692226410e+00 -5.442823794670346160e-01
3.653459623456001282e-02 -6.763098798692226410e+00 -5.416578677482846160e-01
1.100209243595600128e-01 -6.741614423692226410e+00 -5.390486148185971160e-01
1.826527602970600128e-01 -6.720374189317226410e+00 -5.364546206779721160e-01
-3.374888412654399872e-01 -6.872473798692226410e+00 -5.207685855217221160e-01
-2.619273178279399872e-01 -6.850379072129726410e+00 -5.180067447014096160e-01
-1.868540756404399872e-01 -6.828406415879726410e+00 -5.154432681389096160e-01
-1.120249740779399872e-01 -6.806555829942226410e+00 -5.128797915764096160e-01
-3.780622407793998718e-02 -6.784827314317226410e+00 -5.103468325920346160e-01
3.580217435956001282e-02 -6.763342939317226410e+00 -5.078291323967221160e-01
1.092885024845600128e-01 -6.741858564317226410e+00 -5.053266909904721160e-01
1.819203384220600128e-01 -6.720618329942226410e+00 -5.030226138420346160e-01
-3.383433334529399872e-01 -6.872717939317226410e+00 -4.863905337639096160e-01
-2.626597397029399872e-01 -6.850623212754726410e+00 -4.839186099357846160e-01
-1.875864975154399872e-01 -6.828650556504726410e+00 -4.814619448967221160e-01
-1.127573959529399872e-01 -6.806677900254726410e+00 -4.790205386467221160e-01
-3.866071626543998718e-02 -6.785071454942226410e+00 -4.765943911857846160e-01
3.506975248456001282e-02 -6.763587079942226410e+00 -4.741835025139096160e-01
1.084340102970600128e-01 -6.742102704942226410e+00 -4.717878726310971160e-01
1.811879165470600128e-01 -6.720862470567226410e+00 -4.694075015373471160e-01
-3.390757553279399872e-01 -6.872840009629726410e+00 -4.521955874748471160e-01
-2.635142318904399872e-01 -6.850745283067226410e+00 -4.496626284904721160e-01
-1.884409897029399872e-01 -6.828894697129726410e+00 -4.473127749748471160e-01
-1.134898178279399872e-01 -6.806922040879726410e+00 -4.449781802482846160e-01
-3.939313814043998718e-02 -6.785315595567226410e+00 -4.426588443107846160e-01
3.421526029706001282e-02 -6.763709150254726410e+00 -4.403700259514096160e-01
1.077015884220600128e-01 -6.742346845567226410e+00 -4.380812075920346160e-01
1.804554946720600128e-01 -6.721106611192226410e+00 -4.359907534904721160e-01
-3.399302475154399872e-01 -6.873084150254726410e+00 -4.178175357170346160e-01
-2.642466537654399872e-01 -6.850989423692226410e+00 -4.155744937248471160e-01
-1.891734115779399872e-01 -6.829016767442226410e+00 -4.133467105217221160e-01
-1.143443100154399872e-01 -6.807166181504726410e+00 -4.111189273185971160e-01
-4.012556001543998718e-02 -6.785559736192226410e+00 -4.089064029045346160e-01
3.348283842206001282e-02 -6.763953290879726410e+00 -4.067243960685971160e-01
1.069691665470600128e-01 -6.742468915879726410e+00 -4.045423892326596160e-01
1.796010024845600128e-01 -6.721228681504726410e+00 -4.023756411857846160e-01
-3.406626693904399872e-01 -6.873328290879726410e+00 -3.836225894279721160e-01
-2.651011459529399872e-01 -6.851233564317226410e+00 -3.814863589592221160e-01
-1.899058334529399872e-01 -6.829260908067226410e+00 -3.791822818107846160e-01
-1.150767318904399872e-01 -6.807410322129726410e+00 -3.770765689201596160e-01
-4.098005220293998718e-02 -6.785681806504726410e+00 -3.749708560295346160e-01
3.275041654706001282e-02 -6.764197431504726410e+00 -3.728956607170346160e-01
1.061146743595600128e-01 -6.742713056504726410e+00 -3.710035708732846160e-01
1.788685806095600128e-01 -6.721472822129726410e+00 -3.689436343498471160e-01
-3.413950912654399872e-01 -6.873572431504726410e+00 -3.492445376701596160e-01
-2.658335678279399872e-01 -6.851477704942226410e+00 -3.472151187248471160e-01
-1.907603256404399872e-01 -6.829505048692226410e+00 -3.452162173576596160e-01
-1.158091537654399872e-01 -6.807654462754726410e+00 -3.432020572014096160e-01
-4.171247407793998718e-02 -6.785925947129726410e+00 -3.412184146232846160e-01
3.189592435956001282e-02 -6.764441572129726410e+00 -3.392500308342221160e-01
1.053822524845600128e-01 -6.742957197129726410e+00 -3.372816470451596160e-01
1.781361587345600128e-01 -6.721716962754726410e+00 -3.353437808342221160e-01
-3.422495834529399872e-01 -6.873816572129726410e+00 -3.150495913810971160e-01
-2.666880600154399872e-01 -6.851721845567226410e+00 -3.131422427482846160e-01
-1.914927475154399872e-01 -6.829749189317226410e+00 -3.112348941154721160e-01
-1.166636459529399872e-01 -6.807898603379726410e+00 -3.093428042717221160e-01
-4.244489595293998718e-02 -6.786170087754726410e+00 -3.074659732170346160e-01
3.116350248456001282e-02 -6.764685712754726410e+00 -3.056044009514096160e-01
1.046498306095600128e-01 -6.743201337754726410e+00 -3.037428286857846160e-01
1.774037368595600128e-01 -6.721961103379726410e+00 -3.019117739982846160e-01
-3.429820053279399872e-01 -6.874060712754726410e+00 -2.806715396232846160e-01
-2.674204818904399872e-01 -6.851965986192226410e+00 -2.788710025139096160e-01
-1.923472397029399872e-01 -6.829993329942226410e+00 -2.770857241935971160e-01
-1.173960678279399872e-01 -6.808020673692226410e+00 -2.753004458732846160e-01
-4.329938814043998718e-02 -6.786414228379726410e+00 -2.735304263420346160e-01
3.043108060956001282e-02 -6.764807783067226410e+00 -2.717756655998471160e-01
1.037953384220600128e-01 -6.743445478379726410e+00 -2.700361636467221160e-01
1.765492446720600128e-01 -6.722083173692226410e+00 -2.682966616935971160e-01
-3.438364975154399872e-01 -6.874182783067226410e+00 -2.464765933342221160e-01
-2.681529037654399872e-01 -6.852088056504726410e+00 -2.447828677482846160e-01
-1.930796615779399872e-01 -6.830237470567226410e+00 -2.431044009514096160e-01
-1.181284897029399872e-01 -6.808264814317226410e+00 -2.414259341545346160e-01
-4.403181001543998718e-02 -6.786658369004726410e+00 -2.397779849357846160e-01
2.969865873456001282e-02 -6.765051923692226410e+00 -2.381300357170346160e-01
1.030629165470600128e-01 -6.743567548692226410e+00 -2.364973452873471160e-01
1.758168227970600128e-01 -6.722327314317226410e+00 -2.348646548576596160e-01
-3.445689193904399872e-01 -6.874426923692226410e+00 -2.120985415764096160e-01
-2.690073959529399872e-01 -6.852332197129726410e+00 -2.105116275139096160e-01
-1.938120834529399872e-01 -6.830359540879726410e+00 -2.091383364982846160e-01
-1.189829818904399872e-01 -6.808508954942226410e+00 -2.075666812248471160e-01
-4.476423189043998718e-02 -6.786780439317226410e+00 -2.060255435295346160e-01
2.884416654706001282e-02 -6.765296064317226410e+00 -2.044844058342221160e-01
1.023304946720600128e-01 -6.743811689317226410e+00 -2.027754214592221160e-01
1.750844009220600128e-01 -6.722571454942226410e+00 -2.012648013420346160e-01
-3.454234115779399872e-01 -6.874671064317226410e+00 -1.778883364982846160e-01
-2.697398178279399872e-01 -6.852576337754726410e+00 -1.764234927482846160e-01
-1.946665756404399872e-01 -6.830603681504726410e+00 -1.749739077873471160e-01
-1.197154037654399872e-01 -6.808753095567226410e+00 -1.735243228264096160e-01
-4.561872407793998718e-02 -6.787024579942226410e+00 -1.720899966545346160e-01
2.811174467206001282e-02 -6.765540204942226410e+00 -1.706556704826596160e-01
1.015980727970600128e-01 -6.744055829942226410e+00 -1.692366030998471160e-01
1.742299087345600128e-01 -6.722815595567226410e+00 -1.678327945060971160e-01
-3.461558334529399872e-01 -6.874915204942226410e+00 -1.435102847404721160e-01
-2.705943100154399872e-01 -6.852820478379726410e+00 -1.423506167717221160e-01
-1.953989975154399872e-01 -6.830847822129726410e+00 -1.409925845451596160e-01
-1.205698959529399872e-01 -6.808997236192226410e+00 -1.396650698967221160e-01
-4.635114595293998718e-02 -6.787268720567226410e+00 -1.383375552482846160e-01
2.737932279706001282e-02 -6.765784345567226410e+00 -1.370100405998471160e-01
1.007435806095600128e-01 -6.744299970567226410e+00 -1.356977847404721160e-01
1.734974868595600128e-01 -6.723059736192226410e+00 -1.342176822014096160e-01
-3.468882553279399872e-01 -6.875159345567226410e+00 -1.093153384514096160e-01
-2.713267318904399872e-01 -6.853064619004726410e+00 -1.080793765373471160e-01
-1.961314193904399872e-01 -6.831091962754726410e+00 -1.068434146232846160e-01
-1.213023178279399872e-01 -6.809119306504726410e+00 -1.056074527092221160e-01
-4.708356782793998718e-02 -6.787512861192226410e+00 -1.044020083732846160e-01
2.652483060956001282e-02 -6.766028486192226410e+00 -1.031813052482846160e-01
1.000111587345600128e-01 -6.744544111192226410e+00 -1.019758609123471160e-01
1.727650649845600128e-01 -6.723181806504726410e+00 -1.007856753654721160e-01
-3.477427475154399872e-01 -6.875403486192226410e+00 -7.493728669359711603e-02
-2.720591537654399872e-01 -6.853308759629726410e+00 -7.399124177172211603e-02
-1.969859115779399872e-01 -6.831336103379726410e+00 -7.286209138109711603e-02
-1.220347397029399872e-01 -6.809363447129726410e+00 -7.174819977953461603e-02
-4.793806001543998718e-02 -6.787757001817226410e+00 -7.063430817797211603e-02
2.579240873456001282e-02 -6.766150556504726410e+00 -6.953567536547211603e-02
9.927873685956001282e-02 -6.744666181504726410e+00 -6.843704255297211603e-02
1.720326431095600128e-01 -6.723425947129726410e+00 -6.717056306078461603e-02
-3.484751693904399872e-01 -6.875525556504726410e+00 -4.074234040453461603e-02
-2.729136459529399872e-01 -6.853430829942226410e+00 -3.972000153734711603e-02
-1.977183334529399872e-01 -6.831458173692226410e+00 -3.871292145922211603e-02
-1.228892318904399872e-01 -6.809607587754726410e+00 -3.770584138109711603e-02
-4.867048189043998718e-02 -6.788001142442226410e+00 -3.669876130297211603e-02
2.505998685956001282e-02 -6.766394697129726410e+00 -3.570694001390961603e-02
9.842424467206001282e-02 -6.744910322129726410e+00 -3.473037751390961603e-02
1.711781509220600128e-01 -6.723670087754726410e+00 -3.373855622484711603e-02
-3.493296615779399872e-01 -6.875769697129726410e+00 -6.349029857659616027e-03
