-2.001168709993362427e+01 -6.296150863170623779e+00 -2.075853440910577774e-01
-2.017880135774612427e+01 -6.516121566295623779e+00 -2.083330247551202774e-01
-2.078512459993362427e+01 -6.872566878795623779e+00 -2.227068040519952774e-01
-2.098995858430862427e+01 -7.116707503795623779e+00 -2.242937181144952774e-01
-1.159957772493362427e+01 -4.292122542858123779e+00 6.933115981519222260e-02
-1.157333260774612427e+01 -4.381233870983123779e+00 7.271861098706722260e-02
-2.200375252962112427e+01 -8.011482894420623779e+00 -2.404527757316827774e-01
-2.210458260774612427e+01 -8.241463363170623779e+00 -2.383470628410577774e-01
-2.101876717805862427e+01 -6.578499495983123779e+00 -1.440782640129327774e-01
-2.130770760774612427e+01 -6.843147933483123779e+00 -1.462907884269952774e-01
-2.145651131868362427e+01 -7.071541488170623779e+00 -1.451158616691827774e-01
-2.204220467805862427e+01 -7.440193831920623779e+00 -1.552782151848077774e-01
-1.159994393587112427e+01 -4.290291488170623779e+00 1.207380201667547226e-01
-1.156686288118362427e+01 -4.377083480358123779e+00 1.242933180183172226e-01
-2.297177010774612427e+01 -8.335091292858123779e+00 -1.628007981926202774e-01
-2.330197030305862427e+01 -8.653816878795623779e+00 -1.660204026848077774e-01
-2.178304940462112427e+01 -6.791634261608123779e+00 -6.508351303637027740e-02
-2.215048104524612427e+01 -7.085945785045623779e+00 -6.767750717699527740e-02
-2.250692635774612427e+01 -7.384651839733123779e+00 -6.982899643480777740e-02
-2.286447030305862427e+01 -7.691780745983123779e+00 -7.176686264574527740e-02
-1.160031014680862427e+01 -4.288338363170623779e+00 1.718549635261297226e-01
-1.156039315462112427e+01 -4.373055160045623779e+00 1.755323316901922226e-01
-2.384298592805862427e+01 -8.625618636608123779e+00 -7.433033920824527740e-02
-2.414974862337112427e+01 -8.944222152233123779e+00 -7.439137436449527740e-02
-2.235555917024612427e+01 -6.950081527233123779e+00 2.402781508862972260e-02
-2.268429452180862427e+01 -7.238167464733123779e+00 2.480601333081722260e-02
-2.296420174837112427e+01 -7.518440902233123779e+00 2.607249282300472260e-02
-2.335250741243362427e+01 -7.839363753795623779e+00 2.575205825269222260e-02
-1.160067635774612427e+01 -4.286507308483123779e+00 2.232618238776922226e-01
-1.155392342805862427e+01 -4.368904769420623779e+00 2.269849684089422226e-01
-2.431429940462112427e+01 -8.780647933483123779e+00 2.944468520581722260e-02
-2.461739999055862427e+01 -9.102303206920623779e+00 3.074168227612972260e-02
-2.283785897493362427e+01 -7.082771956920623779e+00 1.202649977058172226e-01
-2.303060799837112427e+01 -7.335457503795623779e+00 1.241559889167547226e-01
-2.333724862337112427e+01 -7.626839339733123779e+00 1.268110182136297226e-01
-2.385262948274612427e+01 -7.990364730358123779e+00 1.272382643073797226e-01
-1.160104256868362427e+01 -4.284676253795623779e+00 2.743787672370672226e-01
-1.154952889680862427e+01 -4.365486800670623779e+00 2.780713941901922226e-01
-2.478732186555862427e+01 -8.936165511608123779e+00 1.371564771980047226e-01
-2.500204354524612427e+01 -9.231331527233123779e+00 1.419172193855047226e-01
-2.309713631868362427e+01 -7.152107894420623779e+00 2.223157789558172226e-01
-2.324545174837112427e+01 -7.394051253795623779e+00 2.277936842292547226e-01
-2.396285897493362427e+01 -7.811043441295623779e+00 2.298536207526922226e-01
-2.409432870149612427e+01 -8.061043441295623779e+00 2.359113600105047226e-01
-1.160140877962112427e+01 -4.282723128795623779e+00 3.257856275886297226e-01
-1.154989510774612427e+01 -4.363655745983123779e+00 3.293561842292547226e-01
-2.507528573274612427e+01 -9.028938949108123779e+00 2.505597975105047226e-01
-2.521505624055862427e+01 -9.300667464733123779e+00 2.571821119636297226e-01
-2.331393319368362427e+01 -7.209358870983123779e+00 3.275098707526922226e-01
-2.394027596712112427e+01 -7.592781722545623779e+00 3.327283766120672226e-01
-2.416073495149612427e+01 -7.866341292858123779e+00 3.393659498542547226e-01
-2.429513436555862427e+01 -8.119026839733123779e+00 3.463849928230047226e-01
-1.160177499055862427e+01 -4.280892074108123779e+00 3.769178297370672226e-01
-1.155026131868362427e+01 -4.361824691295623779e+00 3.803815748542547226e-01
-2.529012948274612427e+01 -9.096932113170623779e+00 3.674421217292547226e-01
-2.571664315462112427e+01 -9.470101058483123779e+00 3.748884107917547226e-01
-2.379220467805862427e+01 -7.340584456920623779e+00 4.346418287605047226e-01
-2.417159920930862427e+01 -7.656014144420623779e+00 4.427747633308172226e-01
-2.436215096712112427e+01 -7.922615706920623779e+00 4.507551100105047226e-01
-2.449935799837112427e+01 -8.177986800670623779e+00 4.587964918464422226e-01
-1.160214120149612427e+01 -4.279061019420623779e+00 4.280347730964422226e-01
-1.155062752962112427e+01 -4.359871566295623779e+00 4.313917066901922226e-01
-2.550765877962112427e+01 -9.165779769420623779e+00 4.858045484870672226e-01
-2.615011483430862427e+01 -9.615608870983123779e+00 4.965467359870672226e-01
-2.411862069368362427e+01 -7.428597152233123779e+00 5.459241773933172226e-01
-2.440878182649612427e+01 -7.720833480358123779e+00 5.556745436042547226e-01
-2.456808358430862427e+01 -7.980232894420623779e+00 5.647230055183172226e-01
-2.504720956087112427e+01 -8.343270003795623779e+00 5.763349439948797226e-01
-1.160250741243362427e+01 -4.277229964733123779e+00 4.794416334480047226e-01
-1.155099374055862427e+01 -4.358040511608123779e+00 4.826764967292547226e-01
-2.607418709993362427e+01 -9.352059066295623779e+00 6.098585035651922226e-01
-2.644576913118362427e+01 -9.713265120983123779e+00 6.218366529792547226e-01
-1.014974862337112427e+01 -3.479988753795623779e+00 4.993390943855047226e-01
-1.038143807649612427e+01 -3.629891097545623779e+00 5.052137281745672226e-01
-1.062655526399612427e+01 -3.788338363170623779e+00 5.114240553230047226e-01
-1.088693124055862427e+01 -3.956795394420623779e+00 5.180311109870672226e-01
-1.116232186555862427e+01 -4.134895980358123779e+00 5.250043775886297226e-01
-1.145602303743362427e+01 -4.324959456920623779e+00 5.324506666511297226e-01
-1.175814706087112427e+01 -4.523323714733123779e+00 5.402326490730047226e-01
-1.206857186555862427e+01 -4.730721175670623779e+00 5.483503248542547226e-01
-1.000875741243362427e+01 -3.438484847545623779e+00 5.409955885261297226e-01
-1.023287850618362427e+01 -3.584847152233123779e+00 5.479230787605047226e-01
-1.047054940462112427e+01 -3.739754378795623779e+00 5.550031568855047226e-01
-1.072213631868362427e+01 -3.904061019420623779e+00 5.627698805183172226e-01
-1.098788338899612427e+01 -4.077522933483123779e+00 5.709638502448797226e-01
-1.127096444368362427e+01 -4.262337386608123779e+00 5.797071363776922226e-01
-1.157003670930862427e+01 -4.457894027233123779e+00 5.892286207526922226e-01
-1.187667733430862427e+01 -4.662239730358123779e+00 5.988569166511297226e-01
-9.964445888996124268e+00 -3.424446761608123779e+00 5.830793287605047226e-01
-1.021029549837112427e+01 -3.576668441295623779e+00 5.916242506355047226e-01
-1.047128182649612427e+01 -3.738289535045623779e+00 6.007032301276922226e-01
-1.074984627962112427e+01 -3.910774886608123779e+00 6.103925611823797226e-01
-1.104586678743362427e+01 -4.094124495983123779e+00 6.206769850105047226e-01
-1.136312752962112427e+01 -4.290535628795623779e+00 6.317090895026922226e-01
-1.157382088899612427e+01 -4.457161605358123779e+00 6.405439283698797226e-01
-1.203317147493362427e+01 -4.714241683483123779e+00 6.553754713386297226e-01
-1.007589608430862427e+01 -3.454109847545623779e+00 6.289472486823797226e-01
-1.032748299837112427e+01 -3.609017074108123779e+00 6.387433912605047226e-01
-1.059554940462112427e+01 -3.773689925670623779e+00 6.494092848151922226e-01
-1.085653573274612427e+01 -3.941902816295623779e+00 6.601209547370672226e-01
-1.111971932649612427e+01 -4.115730941295623779e+00 6.711225416511297226e-01
-1.139974862337112427e+01 -4.300667464733123779e+00 6.828107740730047226e-01
-1.157418709993362427e+01 -4.455330550670623779e+00 6.917982008308172226e-01
-1.198556405305862427e+01 -4.695686995983123779e+00 7.079267408698797226e-01
-1.003451424837112427e+01 -3.440804183483123779e+00 6.710157301276922226e-01
-1.025143319368362427e+01 -3.585213363170623779e+00 6.812696363776922226e-01
-1.048019295930862427e+01 -3.737435042858123779e+00 6.921033766120672226e-01
-1.072274667024612427e+01 -3.898811995983123779e+00 7.035627271980047226e-01
-1.097836190462112427e+01 -4.068855941295623779e+00 7.156629469245672226e-01
-1.125021249055862427e+01 -4.249764144420623779e+00 7.285261061042547226e-01
-1.153768807649612427e+01 -4.441048324108123779e+00 7.421216871589422226e-01
-1.188998299837112427e+01 -4.660652816295623779e+00 7.581281568855047226e-01
-9.922819912433624268e+00 -3.407723128795623779e+00 7.104444410651922226e-01
-1.014572030305862427e+01 -3.552742660045623779e+00 7.217969801276922226e-01
-1.042159920930862427e+01 -3.718147933483123779e+00 7.354688551276922226e-01
-1.071713143587112427e+01 -3.895271956920623779e+00 7.501172926276922226e-01
-1.103231698274612427e+01 -4.084114730358123779e+00 7.657575514167547226e-01
-1.137167245149612427e+01 -4.287483870983123779e+00 7.825727369636297226e-01
-1.172701913118362427e+01 -4.502693831920623779e+00 8.002881910651922226e-01
-1.209091073274612427e+01 -4.727913558483123779e+00 8.189496900886297226e-01
-1.002670174837112427e+01 -3.435311019420623779e+00 7.571668531745672226e-01
-1.029427987337112427e+01 -3.594124495983123779e+00 7.717695143073797226e-01
-1.057968026399612427e+01 -3.763680160045623779e+00 7.873334791511297226e-01
-1.088571053743362427e+01 -3.945442855358123779e+00 8.040418531745672226e-01
-2.756649667024612427e+01 -9.330940902233123779e+00 1.501231184229254723e+00
-2.785775643587112427e+01 -9.670540511608123779e+00 1.524958601221442223e+00
-2.862985116243362427e+01 -1.017737644910812378e+01 1.569346418604254723e+00
-2.891146737337112427e+01 -1.053052586317062378e+01 1.593455305323004723e+00
-2.600619393587112427e+01 -7.925057113170623779e+00 1.513483991846442223e+00
-2.658651620149612427e+01 -8.318001449108123779e+00 1.550517072901129723e+00
-2.680099374055862427e+01 -8.613045394420623779e+00 1.571452131494879723e+00
-2.749288827180862427e+01 -9.061165511608123779e+00 1.613932600244879723e+00
-2.785397225618362427e+01 -9.417244613170623779e+00 1.642374983057379723e+00
-2.841134530305862427e+01 -9.846199691295623779e+00 1.681117048487067223e+00
-2.890890389680862427e+01 -1.026575535535812378e+01 1.716868391260504723e+00
-2.950704842805862427e+01 -1.073059910535812378e+01 1.757929792627692223e+00
-2.659042245149612427e+01 -8.084603011608123779e+00 1.662058820948004723e+00
-2.677645760774612427e+01 -8.368294417858123779e+00 1.682108869776129723e+00
-2.717440682649612427e+01 -8.719856917858123779e+00 1.713709821924567223e+00
-2.785275155305862427e+01 -9.167000472545623779e+00 1.759989729151129723e+00
-2.832345467805862427e+01 -9.561043441295623779e+00 1.796275129541754723e+00
-2.890475350618362427e+01 -1.000208348035812378e+01 1.838816633448004723e+00
-2.949618417024612427e+01 -1.045752781629562378e+01 1.882441511377692223e+00
-3.015621834993362427e+01 -1.094898289442062378e+01 1.931025495752692223e+00
-1.285116463899612427e+01 -5.026741683483123779e+00 -7.631398178637027740e-02
-1.288754159212112427e+01 -5.150520980358123779e+00 -7.509327866137027740e-02
-1.347665292024612427e+01 -5.478523910045623779e+00 -9.590626694262027740e-02
-1.335751229524612427e+01 -5.552132308483123779e+00 -8.873463608324527740e-02
-1.324044686555862427e+01 -5.624642074108123779e+00 -8.166981674730777740e-02
-1.312435799837112427e+01 -5.696419417858123779e+00 -7.468129135668277740e-02
-1.302426034212112427e+01 -5.772835433483123779e+00 -6.834889389574527740e-02
-1.302401620149612427e+01 -5.889412581920623779e+00 -6.618214584887027740e-02
-1.914779549837112427e+01 -7.216683089733123779e+00 -2.381486985832452774e-01
-1.490988045930862427e+01 -5.871224105358123779e+00 -8.728505112230777740e-02
-1.483602792024612427e+01 -5.974861800670623779e+00 -8.174611069262027740e-02
-1.476876717805862427e+01 -6.080818831920623779e+00 -7.608509995043277740e-02
-1.392745858430862427e+01 -5.887337386608123779e+00 -4.446888901293277740e-02
-1.461556893587112427e+01 -6.283699691295623779e+00 -6.525135971605777740e-02
-1.454293709993362427e+01 -6.385506331920623779e+00 -5.980397202074527740e-02
-1.447054940462112427e+01 -6.486946761608123779e+00 -5.438710190355777740e-02
-2.210555917024612427e+01 -8.242439925670623779e+00 -2.383470628410577774e-01
-2.220565682649612427e+01 -8.475228011608123779e+00 -2.365160081535577774e-01
-2.281100350618362427e+01 -8.896248519420623779e+00 -2.495470140129327774e-01
-2.293783456087112427e+01 -9.150887191295623779e+00 -2.482042405754327774e-01
-1.392794686555862427e+01 -5.885018050670623779e+00 1.912974379956722260e-02
-1.572384530305862427e+01 -6.719002425670623779e+00 -2.966786362230777740e-02
-1.569186288118362427e+01 -6.848030745983123779e+00 -2.528859116137027740e-02
-1.567660409212112427e+01 -6.984261214733123779e+00 -2.136708237230777740e-02
-2.330489999055862427e+01 -8.655525863170623779e+00 -1.660814378410577774e-01
-2.346981698274612427e+01 -8.922615706920623779e+00 -1.641740892082452774e-01
-2.363778573274612427e+01 -9.195076644420623779e+00 -1.628007981926202774e-01
-2.413632088899612427e+01 -9.597176253795623779e+00 -1.693773362785577774e-01
-1.392843514680862427e+01 -5.882698714733123779e+00 8.307932876050472260e-02
-2.433956795930862427e+01 -1.011963719129562378e+01 -1.626939866691827774e-01
-2.491329842805862427e+01 -1.057654637098312378e+01 -1.703996751457452774e-01
-2.509725838899612427e+01 -1.088452976942062378e+01 -1.693010423332452774e-01
-2.415219002962112427e+01 -8.945809066295623779e+00 -7.442189194262027740e-02
-2.445297127962112427e+01 -9.269173324108123779e+00 -7.446766830980777740e-02
-2.476339608430862427e+01 -9.603035628795623779e+00 -7.449818588793277740e-02
-2.505660897493362427e+01 -9.938484847545623779e+00 -7.396412827074527740e-02
-1.392880135774612427e+01 -5.880379378795623779e+00 1.466932203620672226e-01
-2.569406014680862427e+01 -1.064991062879562378e+01 -7.332325913012027740e-02
-2.610897713899612427e+01 -1.105542820692062378e+01 -7.449818588793277740e-02
-2.663778573274612427e+01 -1.151770848035812378e+01 -7.751942612230777740e-02
-2.462008553743362427e+01 -9.104012191295623779e+00 3.072642348706722260e-02
-2.492989999055862427e+01 -9.434822738170623779e+00 3.312205336987972260e-02
-2.525265389680862427e+01 -9.777596175670623779e+00 3.490733169019222260e-02
-2.560262948274612427e+01 -1.013892430067062378e+01 3.655528090894222260e-02
-1.392928963899612427e+01 -5.878060042858123779e+00 2.106428053230047226e-01
-2.646896249055862427e+01 -1.095093601942062378e+01 3.818797133862972260e-02
-2.693405038118362427e+01 -1.138404148817062378e+01 3.899668715894222260e-02
-2.750570565462112427e+01 -1.187195652723312378e+01 3.797434829175472260e-02
-2.500350838899612427e+01 -9.232674300670623779e+00 1.419172193855047226e-01
-2.514230233430862427e+01 -9.505989730358123779e+00 1.474409010261297226e-01
-2.576498299837112427e+01 -9.960457503795623779e+00 1.482343580573797226e-01
-2.601595956087112427e+01 -1.028943699598312378e+01 1.530713941901922226e-01
-1.392977792024612427e+01 -5.875740706920623779e+00 2.742566969245672226e-01
-2.702609139680862427e+01 -1.116565769910812378e+01 1.586713697761297226e-01
-2.719625741243362427e+01 -1.148499363660812378e+01 1.649427320808172226e-01
-2.806967049837112427e+01 -1.210010594129562378e+01 1.653699781745672226e-01
-2.521652108430862427e+01 -9.302010238170623779e+00 2.571973707526922226e-01
-2.592770272493362427e+01 -9.781258285045623779e+00 2.607068922370672226e-01
-2.608993417024612427e+01 -1.007459324598312378e+01 2.681531812995672226e-01
-2.625460702180862427e+01 -1.037415379285812378e+01 2.751264479011297226e-01
-1.393014413118362427e+01 -5.873421370983123779e+00 3.382062818855047226e-01
-2.729073983430862427e+01 -1.126502293348312378e+01 2.865552809089422226e-01
-2.817684823274612427e+01 -1.187598484754562378e+01 2.906751539558172226e-01
-2.834371834993362427e+01 -1.220813816785812378e+01 2.986707594245672226e-01
-2.572555428743362427e+01 -9.474007308483123779e+00 3.749036695808172226e-01
-2.616317635774612427e+01 -9.860359847545623779e+00 3.825635816901922226e-01
-2.632784920930862427e+01 -1.015674656629562378e+01 3.906202223151922226e-01
-2.717025643587112427e+01 -1.071265476942062378e+01 3.989210035651922226e-01
-1.393063241243362427e+01 -5.871102035045623779e+00 4.018201734870672226e-01
-2.816256600618362427e+01 -1.160352391004562378e+01 4.168043043464422226e-01
-2.845370370149612427e+01 -1.198230808973312378e+01 4.260663893073797226e-01
-2.918575936555862427e+01 -1.255078953504562378e+01 4.362134840339422226e-01
-2.615316659212112427e+01 -9.617561995983123779e+00 4.965772535651922226e-01
-2.640170174837112427e+01 -9.940560042858123779e+00 5.060682203620672226e-01
-2.702377206087112427e+01 -1.040613621473312378e+01 5.175275709480047226e-01
-2.747628670930862427e+01 -1.082227391004562378e+01 5.286359693855047226e-01
-1.393112069368362427e+01 -5.868782699108123779e+00 4.654340650886297226e-01
-2.855013924837112427e+01 -1.175086277723312378e+01 5.528821852058172226e-01
-2.906295663118362427e+01 -1.222278660535812378e+01 5.654859449714422226e-01
-2.957223397493362427e+01 -1.270496433973312378e+01 5.784711744636297226e-01
-2.644882088899612427e+01 -9.715218245983123779e+00 6.218976881355047226e-01
-2.664620858430862427e+01 -1.002271336317062378e+01 6.326093580573797226e-01
-2.738937264680862427e+01 -1.053467625379562378e+01 6.487531568855047226e-01
-2.774838143587112427e+01 -1.091919773817062378e+01 6.616926100105047226e-01
-1.393160897493362427e+01 -5.866463363170623779e+00 5.293836500495672226e-01
-2.894393807649612427e+01 -1.190052098035812378e+01 6.935682203620672226e-01
-2.944686776399612427e+01 -1.237220066785812378e+01 7.091779615730047226e-01
-2.995956307649612427e+01 -1.285938328504562378e+01 7.253370191901922226e-01
-1.207089120149612427e+01 -4.731819808483123779e+00 5.483961012214422226e-01
-1.240157967805862427e+01 -4.952889144420623779e+00 5.570936109870672226e-01
-1.275485116243362427e+01 -5.188851058483123779e+00 5.663862135261297226e-01
-1.313448983430862427e+01 -5.442513167858123779e+00 5.763807203620672226e-01
-1.354061776399612427e+01 -5.713875472545623779e+00 5.870618727058172226e-01
-1.397909432649612427e+01 -6.006844222545623779e+00 5.985975172370672226e-01
-1.440939217805862427e+01 -6.305306136608123779e+00 6.103467848151922226e-01
-1.487252694368362427e+01 -6.626473128795623779e+00 6.229810621589422226e-01
-1.187911874055862427e+01 -4.663460433483123779e+00 5.989179518073797226e-01
-1.223043709993362427e+01 -4.889778792858123779e+00 6.097211744636297226e-01
-1.260653573274612427e+01 -5.132576644420623779e+00 6.209974195808172226e-01
-1.301376229524612427e+01 -5.395027816295623779e+00 6.335096266120672226e-01
-1.345187264680862427e+01 -5.677376449108123779e+00 6.469678785651922226e-01
-1.392782479524612427e+01 -5.984139144420623779e+00 6.615857984870672226e-01
-1.440023690462112427e+01 -6.299080550670623779e+00 6.768751051276922226e-01
-1.490609627962112427e+01 -6.637581527233123779e+00 6.929426100105047226e-01
-1.203573495149612427e+01 -4.715462386608123779e+00 6.554517652839422226e-01
-1.239779549837112427e+01 -4.947151839733123779e+00 6.684369947761297226e-01
-1.278695565462112427e+01 -5.196053206920623779e+00 6.823987867683172226e-01
-1.319039803743362427e+01 -5.458748519420623779e+00 6.970777418464422226e-01
-1.358566170930862427e+01 -5.726326644420623779e+00 7.118787672370672226e-01
-1.393893319368362427e+01 -5.985970199108123779e+00 7.259931471198797226e-01
-1.442745858430862427e+01 -6.307381331920623779e+00 7.438917066901922226e-01
-1.487631112337112427e+01 -6.622566878795623779e+00 7.611951734870672226e-01
-1.198776131868362427e+01 -4.696785628795623779e+00 7.080030348151922226e-01
-1.230221444368362427e+01 -4.911019027233123779e+00 7.212476637214422226e-01
-1.263644295930862427e+01 -5.139046370983123779e+00 7.356367018073797226e-01
-1.299447518587112427e+01 -5.383186995983123779e+00 7.510633375495672226e-01
-1.337631112337112427e+01 -5.643562972545623779e+00 7.675123121589422226e-01
-1.382906991243362427e+01 -5.940437972545623779e+00 7.864942457526922226e-01
-1.433102303743362427e+01 -6.265999495983123779e+00 8.073682691901922226e-01
-1.486434823274612427e+01 -6.614998519420623779e+00 8.300733473151922226e-01
-1.189254647493362427e+01 -4.661873519420623779e+00 7.582197096198797226e-01
-1.226901131868362427e+01 -4.897103011608123779e+00 7.755079176276922226e-01
-1.267501717805862427e+01 -5.150765120983123779e+00 7.941388990730047226e-01
-1.311569100618362427e+01 -5.426155745983123779e+00 8.143567945808172226e-01
-1.359225350618362427e+01 -5.724007308483123779e+00 8.362378980964422226e-01
-1.410189706087112427e+01 -6.045052230358123779e+00 8.597364332526922226e-01
-3.165670663118362427e+01 -1.323352879285812378e+01 1.492671003565192223e+00
-3.201351815462112427e+01 -1.367725437879562378e+01 1.519129743799567223e+00
-1.209347420930862427e+01 -4.729134261608123779e+00 8.190565016120672226e-01
-2.895626717805862427e+01 -1.081263035535812378e+01 1.471461286768317223e+00
-2.974801522493362427e+01 -1.136292332410812378e+01 1.514628401026129723e+00
-3.020907479524612427e+01 -1.180738133192062378e+01 1.545634260401129723e+00
-3.086569100618362427e+01 -1.233606785535812378e+01 1.584849348291754723e+00
-3.157662850618362427e+01 -1.290149754285812378e+01 1.626994123682379723e+00
-3.207052499055862427e+01 -1.339405125379562378e+01 1.660990705713629723e+00
-3.206576424837112427e+01 -1.369263523817062378e+01 1.675837507471442223e+00
-2.891390877962112427e+01 -1.053223484754562378e+01 1.593607893213629723e+00
-2.974325448274612427e+01 -1.108631199598312378e+01 1.642252912744879723e+00
-3.015865975618362427e+01 -1.150684422254562378e+01 1.673624983057379723e+00
-3.085824471712112427e+01 -1.204395359754562378e+01 1.718073835596442223e+00
-3.146322518587112427e+01 -1.255896824598312378e+01 1.758982649073004723e+00
-3.213156014680862427e+01 -1.311316746473312378e+01 1.803462019190192223e+00
-3.234860116243362427e+01 -1.349976414442062378e+01 1.828013410791754723e+00
-3.285018807649612427e+01 -1.400940769910812378e+01 1.865992536768317223e+00
-2.951217538118362427e+01 -1.073328465223312378e+01 1.758234968408942223e+00
-3.014706307649612427e+01 -1.122388523817062378e+01 1.802256574854254723e+00
-3.077072030305862427e+01 -1.172388523817062378e+01 1.846430769190192223e+00
-3.145956307649612427e+01 -1.226258152723312378e+01 1.893733015283942223e+00
-3.228341561555862427e+01 -1.286695164442062378e+01 1.949229231104254723e+00
-3.242758065462112427e+01 -1.322327488660812378e+01 1.972437849268317223e+00
-3.221835213899612427e+01 -1.344129246473312378e+01 1.977137556299567223e+00
-3.287142831087112427e+01 -1.401197117567062378e+01 2.025782575830817223e+00
-3.016207772493362427e+01 -1.095203465223312378e+01 1.931391706690192223e+00
-3.091671639680862427e+01 -1.149085301160812378e+01 1.984843244776129723e+00
-3.147775155305862427e+01 -1.197510594129562378e+01 2.029520979151129723e+00
-3.255026131868362427e+01 -1.266346043348312378e+01 2.102534284815192223e+00
-3.333383065462112427e+01 -1.326245945692062378e+01 2.160899152979254723e+00
-3.220077401399612427e+01 -1.312830418348312378e+01 2.114741316065192223e+00
-3.258639413118362427e+01 -1.358301609754562378e+01 2.151804914698004723e+00
-3.494967538118362427e+01 -1.486023777723312378e+01 2.301066389307379723e+00
-1.302377206087112427e+01 -5.889656722545623779e+00 -6.616688705980777740e-02
-1.298202401399612427e+01 -5.989510238170623779e+00 -6.203175522387027740e-02
-1.293356209993362427e+01 -6.086434066295623779e+00 -5.797291733324527740e-02
-1.288864022493362427e+01 -6.185188949108123779e+00 -5.403614975512027740e-02
-1.284689217805862427e+01 -6.285042464733123779e+00 -5.022145248949527740e-02
-1.280502206087112427e+01 -6.385262191295623779e+00 -4.639149643480777740e-02
-1.276327401399612427e+01 -6.485237777233123779e+00 -4.259205795824527740e-02
-1.271566659212112427e+01 -6.582405745983123779e+00 -3.888417221605777740e-02
-1.447030526399612427e+01 -6.487312972545623779e+00 -5.437184311449527740e-02
-1.439327889680862427e+01 -6.586189925670623779e+00 -4.909230209887027740e-02
-1.431661874055862427e+01 -6.684700667858123779e+00 -4.382801987230777740e-02
-1.425912362337112427e+01 -6.791634261608123779e+00 -3.883839584887027740e-02
-1.423129159212112427e+01 -6.911507308483123779e+00 -3.519154526293277740e-02
-1.419540292024612427e+01 -7.028450667858123779e+00 -3.162098862230777740e-02
-1.416732674837112427e+01 -7.148934066295623779e+00 -2.794362045824527740e-02
-1.413925057649612427e+01 -7.269905745983123779e+00 -2.425099350512027740e-02
-1.567660409212112427e+01 -6.984749495983123779e+00 -2.135182358324527740e-02
-1.575558358430862427e+01 -7.161507308483123779e+00 -2.032948471605777740e-02
-1.584786874055862427e+01 -7.346810042858123779e+00 -1.962758041918277740e-02
-1.593112069368362427e+01 -7.531502425670623779e+00 -1.858998276293277740e-02
-1.598910409212112427e+01 -7.706917464733123779e+00 -1.681996323168277740e-02
-1.600631600618362427e+01 -7.866219222545623779e+00 -1.385975815355777740e-02
-1.600546151399612427e+01 -8.017952620983123779e+00 -1.039601303637027740e-02
-1.600460702180862427e+01 -8.170784652233123779e+00 -6.917009130120277405e-03
-2.509799081087112427e+01 -1.088562840223312378e+01 -1.693010423332452774e-01
-2.513790780305862427e+01 -1.113770359754562378e+01 -1.638231370598077774e-01
-1.627816659212112427e+01 -7.530525863170623779e+00 4.519175551831722260e-02
-1.845016366243362427e+01 -8.646614730358123779e+00 -3.709886223077774048e-04
-1.821713143587112427e+01 -8.714974105358123779e+00 9.119978174567222595e-03
-1.807943612337112427e+01 -8.824837386608123779e+00 1.644419692456722260e-02
-1.812338143587112427e+01 -9.018807113170623779e+00 1.970957778394222260e-02
-1.807076913118362427e+01 -9.168099105358123779e+00 2.468394301831722260e-02
-2.664144784212112427e+01 -1.152014988660812378e+01 -7.756520248949527740e-02
-2.716866952180862427e+01 -1.199378269910812378e+01 -8.055592514574527740e-02
-1.626608163118362427e+01 -7.522347152233123779e+00 1.218366529792547226e-01
-2.818722420930862427e+01 -1.296277683973312378e+01 -8.491993881762027740e-02
-2.864987069368362427e+01 -1.344385594129562378e+01 -8.583546616137027740e-02
-1.858663827180862427e+01 -9.056648910045623779e+00 9.412669204175472260e-02
-2.139120370149612427e+01 -1.056360691785812378e+01 5.147837661206722260e-02
-2.119711190462112427e+01 -1.067774266004562378e+01 6.019114516675472260e-02
-2.750936776399612427e+01 -1.187439793348312378e+01 3.794383071362972260e-02
-2.796371346712112427e+01 -1.232544773817062378e+01 3.995799086987972260e-02
-1.625387459993362427e+01 -7.514046370983123779e+00 1.987714674323797226e-01
-2.897555428743362427e+01 -1.330701512098312378e+01 4.223155044019222260e-02
-2.946957284212112427e+01 -1.380994480848312378e+01 4.400156997144222260e-02
-1.858724862337112427e+01 -9.053353011608123779e+00 1.835431959480047226e-01
-3.034091073274612427e+01 -1.479785984754562378e+01 4.998301528394222260e-02
-3.075363045930862427e+01 -1.529688328504562378e+01 5.288218520581722260e-02
-2.807125741243362427e+01 -1.210169285535812378e+01 1.653852369636297226e-01
-2.823654061555862427e+01 -1.243567723035812378e+01 1.719770338386297226e-01
-1.624178963899612427e+01 -7.505745589733123779e+00 2.751722242683172226e-01
-2.924264413118362427e+01 -1.341980808973312378e+01 1.805066969245672226e-01
-3.005135995149612427e+01 -1.406800144910812378e+01 1.830701734870672226e-01
-1.858785897493362427e+01 -9.050057113170623779e+00 2.724714186042547226e-01
-3.101547127962112427e+01 -1.511133641004562378e+01 1.942701246589422226e-01
-3.116000252962112427e+01 -1.548731297254562378e+01 2.025709059089422226e-01
-2.834530526399612427e+01 -1.220972508192062378e+01 2.987012770026922226e-01
-2.922433358430862427e+01 -1.284851902723312378e+01 3.043775465339422226e-01
-1.623226815462112427e+01 -7.498665511608123779e+00 3.518476393073797226e-01
-3.018307381868362427e+01 -1.383081883192062378e+01 3.204908277839422226e-01
-3.033553963899612427e+01 -1.419092625379562378e+01 3.294629957526922226e-01
-1.858846932649612427e+01 -9.046883285045623779e+00 3.618879225105047226e-01
-3.130026131868362427e+01 -1.523999851942062378e+01 3.460340406745672226e-01
-3.207076913118362427e+01 -1.592139500379562378e+01 3.548993971198797226e-01
-2.918978768587112427e+01 -1.255347508192062378e+01 4.362592604011297226e-01
-2.949557381868362427e+01 -1.295777195692062378e+01 4.461164381355047226e-01
-1.623275643587112427e+01 -7.495857894420623779e+00 4.280347730964422226e-01
-3.046713143587112427e+01 -1.395081394910812378e+01 4.675397779792547226e-01
-3.114633065462112427e+01 -1.455213230848312378e+01 4.793653395026922226e-01
-1.858907967805862427e+01 -9.043587386608123779e+00 4.508161451667547226e-01
-3.210739022493362427e+01 -1.561560887098312378e+01 5.033063795417547226e-01
-3.235934334993362427e+01 -1.605445164442062378e+01 5.150098707526922226e-01
-2.957626229524612427e+01 -1.270764988660812378e+01 5.785322096198797226e-01
-3.005258065462112427e+01 -1.318763035535812378e+01 5.917005445808172226e-01
-1.623336678743362427e+01 -7.493050277233123779e+00 5.042219068855047226e-01
-3.104684334993362427e+01 -1.420166844129562378e+01 6.196088697761297226e-01
-3.155502206087112427e+01 -1.473120945692062378e+01 6.342725660651922226e-01
-3.203439217805862427e+01 -1.526087254285812378e+01 6.491956617683172226e-01
-3.248092538118362427e+01 -1.578601902723312378e+01 6.642255689948797226e-01
-3.296310311555862427e+01 -1.633972996473312378e+01 6.799726393073797226e-01
-2.996310311555862427e+01 -1.286182469129562378e+01 7.254133131355047226e-01
-3.044637948274612427e+01 -1.334839695692062378e+01 7.417096998542547226e-01
-1.623385506868362427e+01 -7.490242660045623779e+00 5.808210279792547226e-01
-3.145345956087112427e+01 -1.437549656629562378e+01 7.761487867683172226e-01
-3.196273690462112427e+01 -1.490943211317062378e+01 7.941236402839422226e-01
-3.241622811555862427e+01 -1.543116062879562378e+01 8.118543531745672226e-01
-3.277596932649612427e+01 -1.591907566785812378e+01 8.287153150886297226e-01
-3.336349374055862427e+01 -1.652661961317062378e+01 8.491315748542547226e-01
-1.487606698274612427e+01 -6.628426253795623779e+00 6.230573561042547226e-01
-1.537570077180862427e+01 -6.974983870983123779e+00 6.367597486823797226e-01
-1.591683846712112427e+01 -7.350228011608123779e+00 6.515760328620672226e-01
-1.648324471712112427e+01 -7.748909652233123779e+00 6.673383619636297226e-01
-1.704623299837112427e+01 -8.157967269420623779e+00 6.834974195808172226e-01
-1.766317635774612427e+01 -8.604988753795623779e+00 7.011670973151922226e-01
-1.838204842805862427e+01 -9.113289535045623779e+00 7.212476637214422226e-01
-1.907504159212112427e+01 -9.625008285045623779e+00 7.414655592292547226e-01
-1.490975838899612427e+01 -6.639656722545623779e+00 6.930341627448797226e-01
-1.545968514680862427e+01 -7.007576644420623779e+00 7.105817701667547226e-01
-1.605782967805862427e+01 -7.408211410045623779e+00 7.292890455573797226e-01
-1.666744881868362427e+01 -7.827278792858123779e+00 7.491865064948797226e-01
-1.727792245149612427e+01 -8.259529769420623779e+00 7.696180250495672226e-01
-1.788986092805862427e+01 -8.706429183483123779e+00 7.906904127448797226e-01
-1.855050545930862427e+01 -9.189339339733123779e+00 8.139142896980047226e-01
-1.916940194368362427e+01 -9.666878402233123779e+00 8.362836744636297226e-01
-1.487972909212112427e+01 -6.624520003795623779e+00 7.613019850105047226e-01
-1.536276131868362427e+01 -6.963753402233123779e+00 7.800397779792547226e-01
-1.588448983430862427e+01 -7.330330550670623779e+00 8.002881910651922226e-01
-1.643490487337112427e+01 -7.721443831920623779e+00 8.218336012214422226e-01
-1.702792245149612427e+01 -8.143318831920623779e+00 8.450574781745672226e-01
-1.772628670930862427e+01 -8.627449691295623779e+00 8.718824293464422226e-01
-1.849154549837112427e+01 -9.157967269420623779e+00 9.012555982917547226e-01
-1.920699959993362427e+01 -9.681282699108123779e+00 9.299116041511297226e-01
-1.486825448274612427e+01 -6.617073714733123779e+00 8.302106764167547226e-01
-1.544760018587112427e+01 -6.996834456920623779e+00 8.542737867683172226e-01
-1.608407479524612427e+01 -7.413582503795623779e+00 8.810987379401922226e-01
-3.204489022493362427e+01 -1.461255711317062378e+01 1.406916609033942223e+00
-3.372689706087112427e+01 -1.568152683973312378e+01 1.476344099268317223e+00
-3.294991952180862427e+01 -1.565235203504562378e+01 1.465266218408942223e+00
-3.461703377962112427e+01 -1.676197117567062378e+01 1.536341657862067223e+00
-3.305135995149612427e+01 -1.634986180067062378e+01 1.498927107080817223e+00
-3.201901131868362427e+01 -1.368055027723312378e+01 1.519373884424567223e+00
-3.129427987337112427e+01 -1.367713230848312378e+01 1.507044782862067223e+00
-3.299154549837112427e+01 -1.470691746473312378e+01 1.583994856104254723e+00
-3.252511483430862427e+01 -1.481836766004562378e+01 1.581416120752692223e+00
-3.428964120149612427e+01 -1.592896336317062378e+01 1.663279524073004723e+00
-3.330660897493362427e+01 -1.581055516004562378e+01 1.641215315088629723e+00
-3.362960702180862427e+01 -1.628955906629562378e+01 1.669169416651129723e+00
-3.284762459993362427e+01 -1.624524754285812378e+01 1.653956403955817223e+00
-3.206442147493362427e+01 -1.369312351942062378e+01 1.675837507471442223e+00
-3.331686288118362427e+01 -1.452381199598312378e+01 1.741923322901129723e+00
-3.387850838899612427e+01 -1.508313816785812378e+01 1.781062116846442223e+00
-3.258212167024612427e+01 -1.483728855848312378e+01 1.741847028955817223e+00
-3.218710213899612427e+01 -1.497364109754562378e+01 1.740244856104254723e+00
-3.525399667024612427e+01 -1.670240086317062378e+01 1.889140119776129723e+00
-3.301534920930862427e+01 -1.599341648817062378e+01 1.807505598291754723e+00
-3.316195565462112427e+01 -1.639014500379562378e+01 1.830866804346442223e+00
-3.285067635774612427e+01 -1.401075047254562378e+01 1.866068830713629723e+00
-3.157296639680862427e+01 -1.378260105848312378e+01 1.822291364893317223e+00
-3.293612557649612427e+01 -1.467041844129562378e+01 1.901743879541754723e+00
-3.407235604524612427e+01 -1.548828953504562378e+01 1.971903791651129723e+00
-3.488241463899612427e+01 -1.618299168348312378e+01 2.027613630518317223e+00
-3.311227303743362427e+01 -1.570801609754562378e+01 1.958903303369879723e+00
-3.322152596712112427e+01 -1.608411473035812378e+01 1.980769148096442223e+00
-3.310336190462112427e+01 -1.635535496473312378e+01 1.991572370752692223e+00
-3.287228280305862427e+01 -1.401343601942062378e+01 2.025874128565192223e+00
-3.152035409212112427e+01 -1.375440281629562378e+01 1.972498884424567223e+00
-3.116891366243362427e+01 -1.390247410535812378e+01 1.969965925440192223e+00
-3.408260995149612427e+01 -1.548621433973312378e+01 2.138194074854254723e+00
-3.101400643587112427e+01 -1.443238133192062378e+01 1.992518415674567223e+00
-3.534359627962112427e+01 -1.672986668348312378e+01 2.241694441065192223e+00
-3.322274667024612427e+01 -1.607813328504562378e+01 2.144999494776129723e+00
-3.330795174837112427e+01 -1.644727391004562378e+01 2.166956892237067223e+00
-3.494698983430862427e+01 -1.486023777723312378e+01 2.300974836573004723e+00
-3.082809334993362427e+01 -1.345703953504562378e+01 2.085154524073004723e+00
-3.432333260774612427e+01 -1.525525730848312378e+01 2.300700178369879723e+00
-3.059286385774612427e+01 -1.394190281629562378e+01 2.103724470362067223e+00
-3.389974862337112427e+01 -1.572669285535812378e+01 2.312205305323004723e+00
-3.406283456087112427e+01 -1.613294285535812378e+01 2.339854231104254723e+00
-3.929781991243362427e+01 -1.893152683973312378e+01 2.668406477198004723e+00
-3.328878670930862427e+01 -1.643152683973312378e+01 2.331034651026129723e+00
-1.271554452180862427e+01 -6.582771956920623779e+00 -3.886891342699527740e-02
-1.267465096712112427e+01 -6.683235824108123779e+00 -3.503895737230777740e-02
-1.263461190462112427e+01 -6.784310042858123779e+00 -3.155995346605777740e-02
-1.261862069368362427e+01 -6.898445785045623779e+00 -2.893544174730777740e-02
-1.260250741243362427e+01 -7.012825667858123779e+00 -2.632618881762027740e-02
-1.258639413118362427e+01 -7.128304183483123779e+00 -2.368641830980777740e-02
-1.257015877962112427e+01 -7.244148910045623779e+00 -2.103138901293277740e-02
-1.254720956087112427e+01 -7.356819808483123779e+00 -1.845265366137027740e-02
-1.413912850618362427e+01 -7.270271956920623779e+00 -2.423573471605777740e-02
-1.410494881868362427e+01 -7.388802230358123779e+00 -2.061940170824527740e-02
-1.407076913118362427e+01 -7.507576644420623779e+00 -1.700306870043277740e-02
-1.404391366243362427e+01 -7.631111800670623779e+00 -1.321888901293277740e-02
-1.400936776399612427e+01 -7.750862777233123779e+00 -9.572038426995277405e-03
-1.396700936555862427e+01 -7.867195785045623779e+00 -6.016740575432777405e-03
-1.393221932649612427e+01 -7.987679183483123779e+00 -2.354631200432777405e-03
-1.389742928743362427e+01 -8.108528792858123779e+00 1.337995752692222595e-03
-1.600485116243362427e+01 -8.171395003795623779e+00 -6.901750341057777405e-03
-1.599777108430862427e+01 -8.322395980358123779e+00 -3.499040380120277405e-03
-1.599069100618362427e+01 -8.474617660045623779e+00 -8.107163012027740479e-05
-1.598361092805862427e+01 -8.628426253795623779e+00 3.397932276129722595e-03
-1.598385506868362427e+01 -8.786873519420623779e+00 6.678571924567222595e-03
-1.591952401399612427e+01 -8.912605941295623779e+00 1.166819594800472260e-02
-1.585958749055862427e+01 -9.040169417858123779e+00 1.653574965894222260e-02
-1.579965096712112427e+01 -9.167854964733123779e+00 2.140330336987972260e-02
-1.807064706087112427e+01 -9.168587386608123779e+00 2.469920180737972260e-02
-1.804073983430862427e+01 -9.329476058483123779e+00 2.984141372144222260e-02
-1.799447518587112427e+01 -9.483040511608123779e+00 3.487681411206722260e-02
-1.794796639680862427e+01 -9.637703597545623779e+00 3.994273208081722260e-02
-1.791268807649612427e+01 -9.798103988170623779e+00 4.477976821362972260e-02
-1.791293221712112427e+01 -9.979012191295623779e+00 4.893015883862972260e-02
-1.791317635774612427e+01 -1.016089695692062378e+01 5.308054946362972260e-02
-1.790170174837112427e+01 -1.033789891004562378e+01 5.704783461987972260e-02
-2.119589120149612427e+01 -1.067786473035812378e+01 6.022166274487972260e-02
-2.103463631868362427e+01 -1.080591648817062378e+01 6.806468032300472260e-02
-2.099874764680862427e+01 -1.099561375379562378e+01 7.386302016675472260e-02
-2.096237069368362427e+01 -1.118702000379562378e+01 7.969187758862972260e-02
-2.092489510774612427e+01 -1.137806004285812378e+01 8.555125258862972260e-02
-2.089535409212112427e+01 -1.157508152723312378e+01 9.134959243237972260e-02
-2.085262948274612427e+01 -1.176538914442062378e+01 9.734629653394222260e-02
-2.086996346712112427e+01 -1.199012058973312378e+01 1.024732496589422226e-01
-3.075717049837112427e+01 -1.529956883192062378e+01 5.288218520581722260e-02
-3.115963631868362427e+01 -1.580432957410812378e+01 5.749033950269222260e-02
-3.162142831087112427e+01 -1.635010594129562378e+01 6.093882583081722260e-02
-3.206783944368362427e+01 -1.690125340223312378e+01 6.490611098706722260e-02
-3.228927499055862427e+01 -1.734534519910812378e+01 7.152842544019222260e-02
-3.250021249055862427e+01 -1.779261082410812378e+01 7.847117446362972260e-02
-2.733590584993362427e+01 -1.530652683973312378e+01 1.382245924323797226e-01
-2.562399178743362427e+01 -1.463721531629562378e+01 1.615247633308172226e-01
-3.116158944368362427e+01 -1.548914402723312378e+01 2.026014234870672226e-01
-3.195162850618362427e+01 -1.618933933973312378e+01 2.068586256355047226e-01
-3.211581307649612427e+01 -1.659302586317062378e+01 2.152967359870672226e-01
-3.272262459993362427e+01 -1.723181980848312378e+01 2.215223219245672226e-01
-3.306124764680862427e+01 -1.774439305067062378e+01 2.295637037605047226e-01
-3.346530038118362427e+01 -1.830323094129562378e+01 2.376203443855047226e-01
-3.364669686555862427e+01 -1.875086277723312378e+01 2.469892408698797226e-01
-3.373568612337112427e+01 -1.915381687879562378e+01 2.569684889167547226e-01
-3.207247811555862427e+01 -1.592334812879562378e+01 3.549451734870672226e-01
-3.223776131868362427e+01 -1.632434910535812378e+01 3.648023512214422226e-01
-3.296114999055862427e+01 -1.701270359754562378e+01 3.753614332526922226e-01
-3.314596444368362427e+01 -1.744312351942062378e+01 3.858442213386297226e-01
-3.361788827180862427e+01 -1.802991551160812378e+01 3.964948561042547226e-01
-3.399178963899612427e+01 -1.857849949598312378e+01 4.075574781745672226e-01
-3.439535409212112427e+01 -1.915308445692062378e+01 4.180250074714422226e-01
-3.469503670930862427e+01 -1.968152683973312378e+01 4.296674635261297226e-01
-3.236105233430862427e+01 -1.605640476942062378e+01 5.150556471198797226e-01
-3.304720956087112427e+01 -1.671729344129562378e+01 5.286970045417547226e-01
-3.326193124055862427e+01 -1.715772312879562378e+01 5.407972242683172226e-01
-3.375240975618362427e+01 -1.774842137098312378e+01 5.545148756355047226e-01
-3.386385995149612427e+01 -1.815235203504562378e+01 5.666761305183172226e-01
-3.448239022493362427e+01 -1.883423680067062378e+01 5.818586256355047226e-01
-3.491061288118362427e+01 -1.942749851942062378e+01 5.964307691901922226e-01
-3.539327889680862427e+01 -2.006336277723312378e+01 6.117505934089422226e-01
-3.296700936555862427e+01 -1.634278172254562378e+01 6.800641920417547226e-01
-3.337826424837112427e+01 -1.687415379285812378e+01 6.955671217292547226e-01
-3.371212655305862427e+01 -1.737781590223312378e+01 7.107343580573797226e-01
-3.389779549837112427e+01 -1.781641453504562378e+01 7.248182203620672226e-01
-3.448165780305862427e+01 -1.846961277723312378e+01 7.432355787605047226e-01
-3.383566170930862427e+01 -1.848108738660812378e+01 7.490339186042547226e-01
-3.552633553743362427e+01 -1.975647801160812378e+01 7.803907301276922226e-01
-3.599227792024612427e+01 -2.038965672254562378e+01 7.990674879401922226e-01
-3.336752206087112427e+01 -1.652954930067062378e+01 8.492231275886297226e-01
-3.368734627962112427e+01 -1.701990574598312378e+01 8.663892652839422226e-01
-2.079415780305862427e+01 -1.086805027723312378e+01 6.888990309089422226e-01
-2.144479256868362427e+01 -1.141016453504562378e+01 7.066144850105047226e-01
-2.217074471712112427e+01 -1.200647801160812378e+01 7.260541822761297226e-01
-2.295980721712112427e+01 -1.265467137098312378e+01 7.471723463386297226e-01
-2.370333749055862427e+01 -1.329627293348312378e+01 7.682447340339422226e-01
-2.449362069368362427e+01 -1.398181980848312378e+01 7.907819654792547226e-01
-1.907992440462112427e+01 -9.627937972545623779e+00 7.415876295417547226e-01
-1.977963143587112427e+01 -1.015869969129562378e+01 7.626294996589422226e-01
-2.054232674837112427e+01 -1.073731297254562378e+01 7.855634596198797226e-01
-2.124423104524612427e+01 -1.130286473035812378e+01 8.079938795417547226e-01
-2.200302010774612427e+01 -1.191419285535812378e+01 8.322400953620672226e-01
-2.283102303743362427e+01 -1.258130711317062378e+01 8.586988355964422226e-01
-2.363973885774612427e+01 -1.325672215223312378e+01 8.854932691901922226e-01
-2.448861581087112427e+01 -1.397412937879562378e+01 9.139509107917547226e-01
-1.917391854524612427e+01 -9.669686019420623779e+00 8.364210035651922226e-01
-1.981930428743362427e+01 -1.017444676160812378e+01 8.601636793464422226e-01
-2.052023202180862427e+01 -1.072217625379562378e+01 8.853711988776922226e-01
-2.117184334993362427e+01 -1.126148289442062378e+01 9.105634596198797226e-01
-2.186105233430862427e+01 -1.183545750379562378e+01 9.373426344245672226e-01
-2.268722420930862427e+01 -1.249988621473312378e+01 9.684705641120672226e-01
-2.353524667024612427e+01 -1.319507664442062378e+01 1.001597395166754723e+00
-2.440804940462112427e+01 -1.392432469129562378e+01 1.035655012354254723e+00
-1.921212655305862427e+01 -9.684334456920623779e+00 9.300947096198797226e-01
-1.995626717805862427e+01 -1.023804539442062378e+01 9.604749586433172226e-01
-3.325045663118362427e+01 -1.711890476942062378e+01 1.370203962549567223e+00
-3.417037850618362427e+01 -1.792908543348312378e+01 1.413310041651129723e+00
-3.689437752962112427e+01 -1.970557469129562378e+01 1.513438215479254723e+00
-3.378280526399612427e+01 -1.842542332410812378e+01 1.432124128565192223e+00
-3.604354745149612427e+01 -2.000940769910812378e+01 1.520060529932379723e+00
-3.588619881868362427e+01 -2.030103367567062378e+01 1.531687727198004723e+00
-3.305013924837112427e+01 -1.635035008192062378e+01 1.498927107080817223e+00
-3.316586190462112427e+01 -1.673658055067062378e+01 1.517313947901129723e+00
-3.441659432649612427e+01 -1.769837254285812378e+01 1.576869001612067223e+00
-3.419088631868362427e+01 -1.793286961317062378e+01 1.585001936182379723e+00
-3.418478280305862427e+01 -1.827942723035812378e+01 1.600962629541754723e+00
-3.380563241243362427e+01 -1.843079441785812378e+01 1.603388777002692223e+00
-3.530062752962112427e+01 -1.959729832410812378e+01 1.675349226221442223e+00
-3.523788338899612427e+01 -1.993335789442062378e+01 1.691111555323004723e+00
-3.284640389680862427e+01 -1.624573582410812378e+01 1.653971662744879723e+00
-3.464218026399612427e+01 -1.745630711317062378e+01 1.741526594385504723e+00
-3.443380624055862427e+01 -1.770008152723312378e+01 1.749964704737067223e+00
-3.423861581087112427e+01 -1.795044773817062378e+01 1.758921613916754723e+00
-3.424325448274612427e+01 -1.830310887098312378e+01 1.776057234033942223e+00
-3.382858163118362427e+01 -1.843616551160812378e+01 1.775797834619879723e+00
-3.555184823274612427e+01 -1.972681492567062378e+01 1.866068830713629723e+00
-3.570834237337112427e+01 -2.018738621473312378e+01 1.890879621729254723e+00
-3.316000252962112427e+01 -1.639026707410812378e+01 1.830836286768317223e+00
-3.355062752962112427e+01 -1.691272801160812378e+01 1.864237776026129723e+00
-3.405013924837112427e+01 -1.750061863660812378e+01 1.904032697901129723e+00
-3.413351327180862427e+01 -1.788977879285812378e+01 1.925364485010504723e+00
-4.030087167024612427e+01 -2.146534031629562378e+01 2.230601301416754723e+00
-3.385153084993362427e+01 -1.844153660535812378e+01 1.947520246729254723e+00
-3.539767342805862427e+01 -1.963562840223312378e+01 2.039088239893317223e+00
-3.558614999055862427e+01 -2.011219090223312378e+01 2.067927351221442223e+00
-3.310165292024612427e+01 -1.635572117567062378e+01 1.991557111963629723e+00
-3.363632088899612427e+01 -1.694812840223312378e+01 2.035731306299567223e+00
-3.970980721712112427e+01 -2.033484715223312378e+01 2.361613264307379723e+00
-4.053805428743362427e+01 -2.116480320692062378e+01 2.425425520166754723e+00
-4.114266854524612427e+01 -2.189746922254562378e+01 2.478678693994879723e+00
-3.385946542024612427e+01 -1.843885105848312378e+01 2.119608869776129723e+00
-4.225875741243362427e+01 -2.336304539442062378e+01 2.582957258448004723e+00
-3.564913827180862427e+01 -2.013990086317062378e+01 2.252634992823004723e+00
-3.330746346712112427e+01 -1.644812840223312378e+01 2.167002668604254723e+00
-3.359457284212112427e+01 -1.692090672254562378e+01 2.201045027002692223e+00
-4.077377206087112427e+01 -2.086072605848312378e+01 2.620707502588629723e+00
-4.127279549837112427e+01 -2.153308933973312378e+01 2.670588484033942223e+00
-3.786630135774612427e+01 -2.017639988660812378e+01 2.499629011377692223e+00
-3.384872323274612427e+01 -1.842627781629562378e+01 2.290690412744879723e+00
-4.298153573274612427e+01 -2.374768894910812378e+01 2.841502180323004723e+00
-3.574374276399612427e+01 -2.018506687879562378e+01 2.440821638330817223e+00
-3.328829842805862427e+01 -1.643238133192062378e+01 2.331065168604254723e+00
-3.329257088899612427e+01 -1.676587742567062378e+01 2.349299421533942223e+00
-4.141842538118362427e+01 -2.117591160535812378e+01 2.864039411768317223e+00
-4.197750741243362427e+01 -2.188550633192062378e+01 2.922556867823004723e+00
-4.248544198274612427e+01 -2.258240574598312378e+01 2.978693952783942223e+00
-3.384066659212112427e+01 -1.841516941785812378e+01 2.460902204737067223e+00
