8.841817595064640045e+00 2.908617723733186722e+00 3.944505552994144182e-01
8.802022673189640045e+00 2.980639208108186722e+00 3.936113219009769182e-01
1.470290157943964005e+01 3.147509325295686722e+00 8.444017271744144182e-01
1.462587521225214005e+01 3.276781786233186722e+00 8.427842955337894182e-01
8.602559782564640045e+00 3.189501512795686722e+00 3.853563170181644182e-01
2.742262814193964005e+01 4.127123583108186722e+00 1.836268792604101918e+00
2.768275997787714005e+01 4.400927294045686722e+00 1.864817986940039418e+00
9.603902556002140045e+00 3.466234911233186722e+00 4.701341490494144182e-01
8.868550993502140045e+00 3.436327684670686722e+00 -2.240949769271480818e-01
8.924825407564640045e+00 3.513476122170686722e+00 -2.225385804427730818e-01
8.879659391939640045e+00 3.582812059670686722e+00 -2.201582093490230818e-01
8.776632048189640045e+00 3.646044481545686722e+00 -2.172742982162105818e-01
9.098043181002140045e+00 3.753222215920686722e+00 -2.181898255599605818e-01
8.581197477877140045e+00 3.767382372170686722e+00 -2.117506165755855818e-01
8.475118376314640045e+00 3.824511278420686722e+00 -2.089887757552730818e-01
9.067037321627140045e+00 3.976610887795686722e+00 -2.120710511458980818e-01
8.002584196627140045e+00 3.375902879983186722e+00 -1.859785218490230818e-01
8.901754118502140045e+00 3.510668504983186722e+00 -1.887861390365230818e-01
8.863546110689640045e+00 3.580492723733186722e+00 -1.864362855208980818e-01
8.769307829439640045e+00 3.644335497170686722e+00 -1.840406556380855818e-01
8.677022673189640045e+00 3.706591356545686722e+00 -1.816908021224605818e-01
9.051046110689640045e+00 3.822314012795686722e+00 -1.812330384505855818e-01
8.472676970064640045e+00 3.823412645608186722e+00 -1.772352357162105818e-01
9.334615446627140045e+00 4.012865770608186722e+00 -1.783033509505855818e-01
8.016866423189640045e+00 3.376024950295686722e+00 -1.564375062240230818e-01
8.280660368502140045e+00 3.460985887795686722e+00 -1.547895570052730818e-01
8.937642790377140045e+00 3.586107958108186722e+00 -1.530500550521480818e-01
8.763326384127140045e+00 3.642870653420686722e+00 -1.510358948958980818e-01
8.669698454439640045e+00 3.704882372170686722e+00 -1.490827698958980818e-01
8.515157438814640045e+00 3.757860887795686722e+00 -1.472211976302730818e-01
9.280660368502140045e+00 3.926562059670686722e+00 -1.445661683333980818e-01
9.615255095064640045e+00 4.050829637795686722e+00 -1.420179505599605818e-01
8.031270720064640045e+00 3.376147020608186722e+00 -1.269270081771480818e-01
8.264547087252140045e+00 3.458788622170686722e+00 -1.239973206771480818e-01
8.936422087252140045e+00 3.585009325295686722e+00 -1.191297669662105818e-01
8.757344938814640045e+00 3.641405809670686722e+00 -1.179090638412105818e-01
8.662374235689640045e+00 3.703173387795686722e+00 -1.163679261458980818e-01
9.089254118502140045e+00 3.824999559670686722e+00 -1.120954652083980818e-01
9.090963102877140045e+00 3.901171434670686722e+00 -1.099592347396480818e-01
9.635152556002140045e+00 4.052660692483186722e+00 -1.048322816146480818e-01
8.045675016939640045e+00 3.376269090920686722e+00 -9.712659313808558181e-02
8.248677946627140045e+00 3.456713426858186722e+00 -9.351026013027308181e-02
8.837178923189640045e+00 3.575243700295686722e+00 -8.627759411464808181e-02
8.747579313814640045e+00 3.639452684670686722e+00 -8.502637341152308181e-02
8.655050016939640045e+00 3.701464403420686722e+00 -8.386670544277308181e-02
8.555562712252140045e+00 3.760912645608186722e+00 -8.282910778652308181e-02
9.197530485689640045e+00 3.913988817483186722e+00 -7.426892712246058181e-02
9.253438688814640045e+00 3.998705614358186722e+00 -7.149182751308558181e-02
8.232564665377140045e+00 3.388231981545686722e+00 -6.506787731777308181e-02
8.852925993502140045e+00 3.502978075295686722e+00 -5.467664196621058181e-02
8.823262907564640045e+00 3.573168504983186722e+00 -5.298291638027308181e-02
9.028096891939640045e+00 3.666064012795686722e+00 -4.800855114589808181e-02
8.634053923189640045e+00 3.698290575295686722e+00 -5.145703747402308181e-02
9.113179899752140045e+00 3.825976122170686722e+00 -4.243909313808558181e-02
9.129781462252140045e+00 3.904345262795686722e+00 -3.998242809902308181e-02
9.217183806002140045e+00 3.992724169045686722e+00 -3.662549450527308181e-02
8.804342009127140045e+00 3.426073778420686722e+00 -2.432691052089808181e-02
8.900167204439640045e+00 3.505663622170686722e+00 -2.048169567714808181e-02
8.809468962252140045e+00 3.570971239358186722e+00 -1.997815563808558181e-02
8.734761931002140045e+00 3.636400926858186722e+00 -1.923047497402308181e-02
8.602925993502140045e+00 3.694018114358186722e+00 -1.959668591152308181e-02
9.078756071627140045e+00 3.820971239358186722e+00 -8.396734739648081813e-03
9.125997282564640045e+00 3.902880419045686722e+00 -5.238165403710581813e-03
9.173848845064640045e+00 3.985766161233186722e+00 -2.049078489648081813e-03
8.149434782564640045e+00 3.380785692483186722e+00 -5.802740599023081813e-03
8.823262907564640045e+00 3.498827684670686722e+00 1.136339709628941819e-02
8.930318571627140045e+00 3.580614794045686722e+00 1.616991565097691819e-02
8.735128141939640045e+00 3.635546434670686722e+00 1.385057971347691819e-02
8.984761931002140045e+00 3.734301317483186722e+00 2.186144397128941819e-02
9.111959196627140045e+00 3.823900926858186722e+00 2.712572619785191819e-02
9.147359587252140045e+00 3.904711473733186722e+00 3.007067248691441819e-02
9.226705290377140045e+00 3.992235887795686722e+00 3.429735705722691819e-02
8.108541227877140045e+00 3.377123583108186722e+00 2.335680529941441819e-02
8.147237516939640045e+00 3.445360887795686722e+00 2.639330432285191819e-02
8.795308806002140045e+00 3.567797411233186722e+00 4.621447131503941819e-02
8.735616423189640045e+00 3.634569872170686722e+00 4.676378772128941819e-02
9.098043181002140045e+00 3.745653856545686722e+00 5.913866565097691819e-02
9.063863493502140045e+00 3.817309129983186722e+00 6.046618029941441819e-02
9.156148649752140045e+00 3.904833544045686722e+00 6.542528674472691819e-02
9.254903532564640045e+00 3.995165575295686722e+00 7.061327502597691819e-02
8.909566618502140045e+00 3.430346239358186722e+00 7.851732776035191819e-02
8.858052946627140045e+00 3.499560106545686722e+00 7.914293811191441819e-02
8.795675016939640045e+00 3.566942919045686722e+00 7.938707873691441819e-02
8.735982634127140045e+00 3.633715379983186722e+00 7.969225451816441819e-02
9.073140837252140045e+00 3.741991747170686722e+00 9.293688342441441819e-02
9.047506071627140045e+00 3.814379442483186722e+00 9.441698596347691819e-02
9.139425016939640045e+00 3.901781786233186722e+00 9.981859729160191819e-02
9.217672087252140045e+00 3.989062059670686722e+00 1.048082213150394182e-01
8.878438688814640045e+00 3.427294481545686722e+00 1.111863951431644182e-01
8.856466032564640045e+00 3.498461473733186722e+00 1.126817564712894182e-01
8.796163298189640045e+00 3.566088426858186722e+00 1.127427916275394182e-01
8.736348845064640045e+00 3.632860887795686722e+00 1.128038267837894182e-01
9.040548063814640045e+00 3.737475145608186722e+00 1.264146666275394182e-01
9.031148649752140045e+00 3.811571825295686722e+00 1.284135679947269182e-01
9.122579313814640045e+00 3.898730028420686722e+00 1.342576842056644182e-01
9.167867399752140045e+00 3.981249559670686722e+00 1.383928160416019182e-01
8.868428923189640045e+00 3.425585497170686722e+00 1.442674498306644182e-01
8.856954313814640045e+00 3.497606981545686722e+00 1.461137633072269182e-01
8.796529509127140045e+00 3.565111864358186722e+00 1.459306578384769182e-01
9.007711149752140045e+00 3.658373583108186722e+00 1.570390562759769182e-01
9.055440641939640045e+00 3.738207567483186722e+00 1.614183287369144182e-01
9.014913298189640045e+00 3.808642137795686722e+00 1.621049742447269182e-01
9.153341032564640045e+00 3.901659715920686722e+00 1.703904967056644182e-01
9.221944548189640045e+00 3.987719286233186722e+00 1.757768492447269182e-01
8.906881071627140045e+00 3.427294481545686722e+00 1.796373228775394182e-01
8.953145720064640045e+00 3.504076708108186722e+00 1.841081480728519182e-01
8.854757048189640045e+00 3.569262254983186722e+00 1.818040709244144182e-01
9.047628141939640045e+00 3.661303270608186722e+00 1.930803160416019182e-01
9.095967985689640045e+00 3.741503465920686722e+00 1.977647642837894182e-01
9.145040251314640045e+00 3.823046434670686722e+00 2.025102476822269182e-01
9.195211149752140045e+00 3.906054247170686722e+00 2.075456480728519182e-01
9.268575407564640045e+00 3.993212450295686722e+00 2.135118345962894182e-01
9.669332243502140045e+00 3.477343309670686722e+00 2.513383726822269182e-01
9.175435759127140045e+00 3.520189989358186722e+00 2.291673521744144182e-01
2.912050411850214005e+01 5.331835497170686722e+00 1.240596185182226918e+00
9.374776579439640045e+00 3.692064989358186722e+00 2.443193297134769182e-01
9.933614470064640045e+00 3.830370653420686722e+00 2.755235533462894182e-01
9.306905485689640045e+00 3.841112840920686722e+00 2.459520201431644182e-01
2.769045040756464005e+01 6.261889208108186722e+00 1.202784905885351918e+00
2.777321407943964005e+01 6.537890184670686722e+00 1.215785394166601918e+00
9.108541227877140045e+00 3.438769090920686722e+00 2.580980162369144182e-01
9.535543181002140045e+00 3.546801317483186722e+00 2.838395933853519182e-01
9.186910368502140045e+00 3.596239794045686722e+00 2.672532896744144182e-01
9.380635954439640045e+00 3.691698778420686722e+00 2.805589537369144182e-01
9.962545134127140045e+00 3.832445848733186722e+00 3.156694273697269182e-01
9.309713102877140045e+00 3.840380419045686722e+00 2.817796568619144182e-01
3.132826779037714005e+01 6.721728075295686722e+00 1.529292474244726918e+00
2.767397091537714005e+01 6.520922411233186722e+00 1.332103143190039418e+00
9.560445524752140045e+00 3.467943895608186722e+00 3.194230894791019182e-01
9.539815641939640045e+00 3.546068895608186722e+00 3.208726744400394182e-01
9.502462126314640045e+00 3.622606981545686722e+00 3.213304381119144182e-01
9.386617399752140045e+00 3.691210497170686722e+00 3.170579771744144182e-01
9.345357634127140045e+00 3.765307176858186722e+00 3.171953062759769182e-01
9.312398649752140045e+00 3.839770067483186722e+00 3.178361754166019182e-01
3.130141232162714005e+01 6.714647997170686722e+00 1.666072259400976918e+00
2.732961056381464005e+01 6.470385301858186722e+00 1.431819329713476918e+00
9.529805876314640045e+00 3.464770067483186722e+00 3.543351988541019182e-01
9.544210173189640045e+00 3.545458544045686722e+00 3.577684263931644182e-01
9.506612516939640045e+00 3.621996629983186722e+00 3.580888609634769182e-01
3.101112911850214005e+01 5.781664598733186722e+00 1.754084954713476918e+00
9.348043181002140045e+00 3.764574754983186722e+00 3.532060484634769182e-01
9.265523649752140045e+00 3.833300340920686722e+00 3.504747252212894182e-01
2.828127072006464005e+01 6.327196825295686722e+00 1.604884515260351918e+00
2.803395626693964005e+01 6.563891161233186722e+00 1.598414788697851918e+00
9.273824431002140045e+00 3.446703661233186722e+00 3.733629088150394182e-01
3.077663204818964005e+01 5.167772997170686722e+00 1.854045281861914418e+00
9.510884977877140045e+00 3.621264208108186722e+00 3.950761656509769182e-01
9.398580290377140045e+00 3.690356004983186722e+00 3.900560240494144182e-01
9.350850798189640045e+00 3.763964403420686722e+00 3.894456724869144182e-01
9.317891813814640045e+00 3.838427294045686722e+00 3.898576597916019182e-01
2.277211544662714005e+01 5.624560106545686722e+00 1.340892205690039418e+00
2.861659786850214005e+01 6.640429247170686722e+00 1.762339959596289418e+00
9.573995329439640045e+00 3.465624559670686722e+00 4.308580260025394182e-01
9.556905485689640045e+00 3.544237840920686722e+00 4.324144224869144182e-01
9.516866423189640045e+00 3.620775926858186722e+00 4.320634703384769182e-01
2.833192989975214005e+01 5.515673387795686722e+00 1.828196893190039418e+00
2.238039181381464005e+01 5.151171434670686722e+00 1.394832025025976918e+00
2.261293575912714005e+01 5.388231981545686722e+00 1.419597039674414418e+00
2.261952755600214005e+01 5.602587450295686722e+00 1.428111443971289418e+00
2.716908810287714005e+01 6.438891161233186722e+00 1.779094109986914418e+00
9.603658415377140045e+00 3.466479051858186722e+00 4.701188902603519182e-01
2.807875607162714005e+01 4.954516161233186722e+00 1.913539300416601918e+00
9.523214079439640045e+00 3.620287645608186722e+00 4.693406920181644182e-01
2.286733029037714005e+01 4.985766161233186722e+00 1.522380242799414418e+00
2.236647579818964005e+01 5.147021044045686722e+00 1.490428338502539418e+00
2.236427853256464005e+01 5.356615770608186722e+00 1.497722039674414418e+00
2.796584103256464005e+01 6.277147997170686722e+00 1.952128777955664418e+00
2.720412228256464005e+01 6.440478075295686722e+00 1.901240716432226918e+00
9.066182829439640045e+00 3.976732958108186722e+00 -2.120557923568355818e-01
8.964864470064640045e+00 4.037401903420686722e+00 -2.092939515365230818e-01
1.010304806381464005e+01 4.294115770608186722e+00 -2.161146302474605818e-01
8.972066618502140045e+00 4.189257372170686722e+00 -2.057996888412105818e-01
9.405416227877140045e+00 4.342943895608186722e+00 -2.070814271224605818e-01
9.399312712252140045e+00 4.422167528420686722e+00 -2.051435609115230818e-01
9.546285368502140045e+00 4.532519090920686722e+00 -2.041975159896480818e-01
1.435255978256464005e+01 5.629442919045686722e+00 -2.330213685287105818e-01
9.334737516939640045e+00 4.013109911233186722e+00 -1.782880921615230818e-01
8.677877165377140045e+00 3.993700731545686722e+00 -1.742902894271480818e-01
1.369276974350214005e+01 4.865282762795686722e+00 -1.868635316146480818e-01
9.511983610689640045e+00 4.279955614358186722e+00 -1.727949280990230818e-01
1.373793575912714005e+01 5.121630419045686722e+00 -1.809278626693355818e-01
9.407125212252140045e+00 4.422777879983186722e+00 -1.686140198958980818e-01
9.497335173189640045e+00 4.521776903420686722e+00 -1.669965882552730818e-01
1.341554806381464005e+01 5.430224169045686722e+00 -1.715131898177730818e-01
9.615133024752140045e+00 4.051195848733186722e+00 -1.420026917708980818e-01
9.319967009127140045e+00 4.088549364358186722e+00 -1.404005189193355818e-01
9.329366423189640045e+00 4.168749559670686722e+00 -1.384016175521480818e-01
1.433083126693964005e+01 5.096117723733186722e+00 -1.263929505599605818e-01
9.463277556002140045e+00 4.351488817483186722e+00 -1.340986390365230818e-01
9.359884001314640045e+00 4.412890184670686722e+00 -1.323286195052730818e-01
1.341066525131464005e+01 5.305468309670686722e+00 -1.190534730208980818e-01
1.338002560287714005e+01 5.421435106545686722e+00 -1.160627503646480818e-01
9.635030485689640045e+00 4.052904833108186722e+00 -1.048322816146480818e-01
9.277852751314640045e+00 4.081347215920686722e+00 -1.047102113021480818e-01
8.553487516939640045e+00 4.044359911233186722e+00 -1.073194642318355818e-01
1.413271114975214005e+01 5.060961473733186722e+00 -6.825696423183558181e-02
9.474019743502140045e+00 4.352465379983186722e+00 -9.723340466152308181e-02
1.340602657943964005e+01 5.180712450295686722e+00 -6.680737927089808181e-02
1.382741329818964005e+01 5.387499559670686722e+00 -6.047498180996058181e-02
1.387270138412714005e+01 5.523974169045686722e+00 -5.714856579433558181e-02
9.253682829439640045e+00 3.999071825295686722e+00 -7.147656872402308181e-02
9.321553923189640045e+00 4.086840379983186722e+00 -6.866895153652308181e-02
9.381368376314640045e+00 4.175219286233186722e+00 -6.590711071621058181e-02
8.650777556002140045e+00 4.131396044045686722e+00 -7.202588513027308181e-02
9.504903532564640045e+00 4.357104051858186722e+00 -6.020032360683558181e-02
9.568258024752140045e+00 4.450609911233186722e+00 -5.727063610683558181e-02
9.633199431002140045e+00 4.546313036233186722e+00 -5.426465466152308181e-02
9.699239470064640045e+00 4.643603075295686722e+00 -5.122815563808558181e-02
9.217672087252140045e+00 3.993090379983186722e+00 -3.661023571621058181e-02
9.275411345064640045e+00 4.079149950295686722e+00 -3.340589001308558181e-02
9.334493376314640045e+00 4.166796434670686722e+00 -3.032361462246058181e-02
9.394918181002140045e+00 4.256396044045686722e+00 -2.716504528652308181e-02
9.456319548189640045e+00 4.347460497170686722e+00 -2.397595837246058181e-02
9.518941618502140045e+00 4.440356004983186722e+00 -2.071057751308558181e-02
9.582906462252140045e+00 4.535326708108186722e+00 -1.736890270839808181e-02
9.648336149752140045e+00 4.631884325295686722e+00 -1.416455700527308181e-02
9.174215056002140045e+00 3.986132372170686722e+00 -2.033819700585581813e-03
9.253194548189640045e+00 4.074877489358186722e+00 1.719842408789418187e-03
9.317891813814640045e+00 4.163134325295686722e+00 5.244622682226918187e-03
9.384053923189640045e+00 4.253588426858186722e+00 8.860955690039418187e-03
9.451314665377140045e+00 4.345629442483186722e+00 1.253832385410191819e-02
9.520040251314640045e+00 4.439623583108186722e+00 1.627672717441441819e-02
9.590474821627140045e+00 4.535937059670686722e+00 2.012194201816441819e-02
9.662130095064640045e+00 4.633959520608186722e+00 2.404345080722691819e-02
9.227193571627140045e+00 3.992480028420686722e+00 3.431261584628941819e-02
9.291158415377140045e+00 4.079516161233186722e+00 3.814257190097691819e-02
9.356710173189640045e+00 4.168383348733186722e+00 4.226244494785191819e-02
9.423604704439640045e+00 4.259447801858186722e+00 4.627550647128941819e-02
9.491719938814640045e+00 4.351977098733186722e+00 5.036486194003941819e-02
9.561300016939640045e+00 4.446459520608186722e+00 5.453051135410191819e-02
9.632222868502140045e+00 4.543261278420686722e+00 5.858934924472691819e-02
9.704854704439640045e+00 4.641894090920686722e+00 6.293810412753941819e-02
9.255269743502140045e+00 3.995409715920686722e+00 7.062853381503941819e-02
9.313009001314640045e+00 4.081835497170686722e+00 7.465685412753941819e-02
9.371846891939640045e+00 4.169848192483186722e+00 7.874620959628941819e-02
9.431905485689640045e+00 4.259814012795686722e+00 8.294237658847691819e-02
9.492940641939640045e+00 4.351244676858186722e+00 8.718431994785191819e-02
9.555196501314640045e+00 4.444384325295686722e+00 9.153307483066441819e-02
9.618795134127140045e+00 4.539721239358186722e+00 9.595812365878941819e-02
9.683492399752140045e+00 4.636522997170686722e+00 1.004747252212894182e-01
9.218160368502140045e+00 3.989428270608186722e+00 1.048387388931644182e-01
9.275167204439640045e+00 4.075243700295686722e+00 1.091569761978519182e-01
9.333394743502140045e+00 4.162890184670686722e+00 1.135515074478519182e-01
9.392842985689640045e+00 4.252367723733186722e+00 1.180528502212894182e-01
9.453145720064640045e+00 4.343188036233186722e+00 1.226152281509769182e-01
9.514669157564640045e+00 4.435839403420686722e+00 1.272691588150394182e-01
9.577657438814640045e+00 4.530565965920686722e+00 1.320299010025394182e-01
9.641622282564640045e+00 4.626757372170686722e+00 1.368669371353519182e-01
9.168233610689640045e+00 3.981493700295686722e+00 1.384080748306644182e-01
9.242208220064640045e+00 4.069506395608186722e+00 1.436876158462894182e-01
9.309224821627140045e+00 4.158129442483186722e+00 1.487535338150394182e-01
9.377950407564640045e+00 4.248827684670686722e+00 1.539415220962894182e-01
9.447896696627140045e+00 4.341356981545686722e+00 1.592363219009769182e-01
9.519307829439640045e+00 4.435717333108186722e+00 1.646379332291019182e-01
9.592672087252140045e+00 4.532641161233186722e+00 1.701768736587894182e-01
9.667257048189640045e+00 4.631273973733186722e+00 1.758226256119144182e-01
9.222432829439640045e+00 3.988085497170686722e+00 1.758073668228519182e-01
9.288961149752140045e+00 4.075487840920686722e+00 1.811937193619144182e-01
9.356954313814640045e+00 4.164721239358186722e+00 1.866868834244144182e-01
9.426534391939640045e+00 4.256151903420686722e+00 1.923173765884769182e-01
9.497457243502140045e+00 4.349291551858186722e+00 1.980546812759769182e-01
9.569967009127140045e+00 4.444384325295686722e+00 2.039140562759769182e-01
9.644307829439640045e+00 4.542040575295686722e+00 2.099260191666019182e-01
9.719991423189640045e+00 4.641405809670686722e+00 2.160600523697269182e-01
9.269063688814640045e+00 3.993578661233186722e+00 2.135576109634769182e-01
1.446169064193964005e+01 4.839525926858186722e+00 4.650987486587894182e-01
1.471291134506464005e+01 5.010424364358186722e+00 4.812425474869144182e-01
1.557912228256464005e+01 5.291064012795686722e+00 5.277818541275394182e-01
1.511501095443964005e+01 5.351732958108186722e+00 5.098222594009769182e-01
1.504726193100214005e+01 5.478319872170686722e+00 5.111039976822269182e-01
1.571779415756464005e+01 5.751513231545686722e+00 5.493425230728519182e-01
1.539723751693964005e+01 5.830858934670686722e+00 5.381578306900394182e-01
2.777467892318964005e+01 6.538988817483186722e+00 1.215892205690039418e+00
1.581740353256464005e+01 5.038256395608186722e+00 5.961107115494144182e-01
1.871449825912714005e+01 5.640917528420686722e+00 7.543596129166019182e-01
1.851772091537714005e+01 5.783739794045686722e+00 7.498430113541019182e-01
1.532851193100214005e+01 5.388231981545686722e+00 5.846971373306644182e-01
1.512209103256464005e+01 5.490893114358186722e+00 5.783494810806644182e-01
1.518959591537714005e+01 5.644701708108186722e+00 5.867723326431644182e-01
1.531068966537714005e+01 5.811205614358186722e+00 5.981706480728519182e-01
2.767543575912714005e+01 6.522143114358186722e+00 1.332209954713476918e+00
2.793459103256464005e+01 6.825487840920686722e+00 1.355586419557226918e+00
1.859132931381464005e+01 5.619433153420686722e+00 8.268998961197269182e-01
1.839247677475214005e+01 5.760668504983186722e+00 8.214219908462894182e-01
1.528261349350214005e+01 5.378466356545686722e+00 6.461137633072269182e-01
1.507558224350214005e+01 5.480517137795686722e+00 6.388658385025394182e-01
1.498439572006464005e+01 5.602221239358186722e+00 6.383317808853519182e-01
1.541518185287714005e+01 5.831469286233186722e+00 6.690782408462894182e-01
2.733241818100214005e+01 6.471728075295686722e+00 1.432017693971289418e+00
2.777980587631464005e+01 6.799486864358186722e+00 1.468989739869726918e+00
1.876234982162714005e+01 5.644335497170686722e+00 9.170335631119144182e-01
1.533656857162714005e+01 5.245287645608186722e+00 7.087663511978519182e-01
1.523708126693964005e+01 5.368700731545686722e+00 7.074998717056644182e-01
1.574330685287714005e+01 5.604784715920686722e+00 7.445482115494144182e-01
1.575063107162714005e+01 5.753222215920686722e+00 7.502244810806644182e-01
2.722206661850214005e+01 8.301684129983186722e+00 1.490641961549414418e+00
2.803236935287714005e+01 6.564623583108186722e+00 1.598338494752539418e+00
2.757521603256464005e+01 6.766039598733186722e+00 1.577006707643164418e+00
2.745107052475214005e+01 7.011645067483186722e+00 1.578303704713476918e+00
1.850331661850214005e+01 5.775194872170686722e+00 9.858964781509769182e-01
1.851588986068964005e+01 5.951220262795686722e+00 9.930375914322269182e-01
1.873024532943964005e+01 6.166064012795686722e+00 1.013957391236914418e+00
2.753798458725214005e+01 8.095385301858186722e+00 1.622920403932226918e+00
1.542799923568964005e+01 5.830981004983186722e+00 8.000596861587894182e-01
2.861952755600214005e+01 6.641894090920686722e+00 1.762568841432226918e+00
2.749599239975214005e+01 6.751269090920686722e+00 1.692744622682226918e+00
2.742604611068964005e+01 7.004564989358186722e+00 1.697520623658789418e+00
1.849843380600214005e+01 5.772387254983186722e+00 1.064814935182226918e+00
1.851503536850214005e+01 5.949022997170686722e+00 1.072459588502539418e+00
1.872511837631464005e+01 6.163134325295686722e+00 1.094188104127539418e+00
2.964064572006464005e+01 8.510180223733186722e+00 1.898921380494726918e+00
2.707680294662714005e+01 8.265429247170686722e+00 1.721263299440039418e+00
2.717946407943964005e+01 6.441210497170686722e+00 1.779902825807226918e+00
2.731288693100214005e+01 6.721117723733186722e+00 1.799876580690039418e+00
1.864150021225214005e+01 5.619066942483186722e+00 1.148005853150976918e+00
1.852480099350214005e+01 5.774706590920686722e+00 1.145686517213476918e+00
1.844423458725214005e+01 5.934374559670686722e+00 1.146052728150976918e+00
1.885963986068964005e+01 6.186449754983186722e+00 1.184794793580664418e+00
2.788771603256464005e+01 8.158861864358186722e+00 1.894694695924414418e+00
2.778627560287714005e+01 8.410692919045686722e+00 1.897090325807226918e+00
2.720497677475214005e+01 6.441576708108186722e+00 1.901332269166601918e+00
2.737563107162714005e+01 6.727221239358186722e+00 1.924510369752539418e+00
1.856337521225214005e+01 5.604784715920686722e+00 1.221492181275976918e+00
1.848866818100214005e+01 5.766649950295686722e+00 1.222163567994726918e+00
1.845473263412714005e+01 5.934252489358186722e+00 1.226100335572851918e+00
1.867958614975214005e+01 6.150439012795686722e+00 1.251277337525976918e+00
2.686562130600214005e+01 7.952929247170686722e+00 1.933680901979101918e+00
2.779091427475214005e+01 8.408617723733186722e+00 2.021205316041601918e+00
1.435207150131464005e+01 5.629809129983186722e+00 -2.330061097396480818e-01
1.336415646225214005e+01 5.543749559670686722e+00 -2.239118714583980818e-01
1.363820431381464005e+01 5.730395067483186722e+00 -2.229963441146480818e-01
1.416005489975214005e+01 5.983935106545686722e+00 -2.233472962630855818e-01
1.463051388412714005e+01 6.235766161233186722e+00 -2.231947083724605818e-01
1.430275509506464005e+01 6.287646044045686722e+00 -2.186170716537105818e-01
1.420522091537714005e+01 6.396898973733186722e+00 -2.153211732162105818e-01
1.439906857162714005e+01 6.587450731545686722e+00 -2.137952943099605818e-01
1.341542599350214005e+01 5.430712450295686722e+00 -1.715131898177730818e-01
1.384743282943964005e+01 5.649340379983186722e+00 -1.694532532943355818e-01
1.368971798568964005e+01 5.741015184670686722e+00 -1.661878724349605818e-01
1.352919552475214005e+01 5.829638231545686722e+00 -1.632581849349605818e-01
1.451173947006464005e+01 6.204272020608186722e+00 -1.612440247787105818e-01
1.423427364975214005e+01 6.268236864358186722e+00 -1.581312318099605818e-01
1.446938107162714005e+01 6.468065965920686722e+00 -1.555830140365230818e-01
1.438576290756464005e+01 6.582323778420686722e+00 -1.525770325912105818e-01
1.337978146225214005e+01 5.421801317483186722e+00 -1.160474915755855818e-01
1.384865353256464005e+01 5.648241747170686722e+00 -1.117139954818355818e-01
1.436586544662714005e+01 5.896288622170686722e+00 -1.069837708724605818e-01
1.358131954818964005e+01 5.840990770608186722e+00 -1.068617005599605818e-01
1.409132931381464005e+01 6.096606004983186722e+00 -1.019331116927730818e-01
1.441151974350214005e+01 6.313524950295686722e+00 -9.755383923183558181e-02
1.417384884506464005e+01 6.385668504983186722e+00 -9.547864391933558181e-02
1.437257931381464005e+01 6.577196825295686722e+00 -9.146558239589808181e-02
1.387306759506464005e+01 5.524462450295686722e+00 -5.713330700527308181e-02
1.454115841537714005e+01 5.800097215920686722e+00 -4.843579723964808181e-02
1.393337032943964005e+01 5.794726122170686722e+00 -5.020581677089808181e-02
1.377724239975214005e+01 5.887011278420686722e+00 -4.842053845058558181e-02
1.399147579818964005e+01 6.069994676858186722e+00 -4.346143200527308181e-02
1.412367794662714005e+01 6.236376512795686722e+00 -3.912793591152308181e-02
1.465041134506464005e+01 6.514940965920686722e+00 -3.104077770839808181e-02
1.026552364975214005e+01 5.406176317483186722e+00 -6.961499645839808181e-02
9.699727751314640045e+00 4.643969286233186722e+00 -5.121289684902308181e-02
9.767232634127140045e+00 4.743334520608186722e+00 -4.823743298183558181e-02
9.836324431002140045e+00 4.844774950295686722e+00 -4.521619274746058181e-02
9.907125212252140045e+00 4.948900926858186722e+00 -4.210339977871058181e-02
9.979268766939640045e+00 5.054980028420686722e+00 -3.892957165371058181e-02
1.005312130600214005e+01 5.163500536233186722e+00 -3.569470837246058181e-02
1.012880489975214005e+01 5.274828661233186722e+00 -3.236829235683558181e-02
1.020607540756464005e+01 5.388354051858186722e+00 -2.898084118496058181e-02
9.648824431002140045e+00 4.632372606545686722e+00 -1.414929821621058181e-02
9.715108610689640045e+00 4.730883348733186722e+00 -1.060925915371058181e-02
9.783223845064640045e+00 4.831591356545686722e+00 -7.176031614648081813e-03
9.852925993502140045e+00 4.934862840920686722e+00 -3.666510130273081813e-03
9.924092985689640045e+00 5.040087450295686722e+00 -9.595348964808181336e-05
9.999898649752140045e+00 5.148485887795686722e+00 3.611932252539418187e-03
1.008156368881464005e+01 5.260912645608186722e+00 7.502923463476918187e-03
1.016469357162714005e+01 5.375658739358186722e+00 1.124132678378941819e-02
9.662740446627140045e+00 4.634325731545686722e+00 2.405870959628941819e-02
9.735982634127140045e+00 4.734545458108186722e+00 2.796495959628941819e-02
9.810811735689640045e+00 4.837084520608186722e+00 3.196276233066441819e-02
9.887838102877140045e+00 4.942431200295686722e+00 3.606737658847691819e-02
9.966329313814640045e+00 5.049853075295686722e+00 4.024828479160191819e-02
1.004677364975214005e+01 5.159960497170686722e+00 4.453600451816441819e-02
1.012953732162714005e+01 5.273119676858186722e+00 4.894579455722691819e-02
1.021400997787714005e+01 5.388720262795686722e+00 5.344713733066441819e-02
9.705342985689640045e+00 4.642382372170686722e+00 6.296862170566441819e-02
9.779439665377140045e+00 4.743212450295686722e+00 6.734789416660191819e-02
9.855611540377140045e+00 4.846483934670686722e+00 7.203234240878941819e-02
9.931539274752140045e+00 4.952074754983186722e+00 7.659472033847691819e-02
1.000282833725214005e+01 5.058153856545686722e+00 8.106554553378941819e-02
1.007582638412714005e+01 5.166674364358186722e+00 8.564318225253941819e-02
1.015089962631464005e+01 5.278124559670686722e+00 9.011400744785191819e-02
1.022719357162714005e+01 5.391649950295686722e+00 9.490526721347691819e-02
9.683980681002140045e+00 4.636889208108186722e+00 1.004899840103519182e-01
9.750020720064640045e+00 4.735766161233186722e+00 1.050523619400394182e-01
9.817525602877140045e+00 4.836718309670686722e+00 1.097062926041019182e-01
9.886739470064640045e+00 4.940356004983186722e+00 1.144975523697269182e-01
9.957174040377140045e+00 5.045702684670686722e+00 1.193498472916019182e-01
1.002919552475214005e+01 5.153490770608186722e+00 1.243242125259769182e-01
1.010317013412714005e+01 5.264086473733186722e+00 1.294359068619144182e-01
1.017848751693964005e+01 5.376879442483186722e+00 1.346391539322269182e-01
9.642110563814640045e+00 4.627245653420686722e+00 1.368821959244144182e-01
9.707418181002140045e+00 4.725512254983186722e+00 1.418107847916019182e-01
9.774068571627140045e+00 4.825854051858186722e+00 1.468461851822269182e-01
9.847188688814640045e+00 4.929857958108186722e+00 1.521715025650394182e-01
9.927999235689640045e+00 5.037523973733186722e+00 1.578477720962894182e-01
1.001100704818964005e+01 5.147875536233186722e+00 1.636613707291019182e-01
1.009633419662714005e+01 5.261400926858186722e+00 1.696428160416019182e-01
1.018349239975214005e+01 5.377367723733186722e+00 1.757463316666019182e-01
9.667867399752140045e+00 4.631640184670686722e+00 1.758531431900394182e-01
9.744283415377140045e+00 4.732714403420686722e+00 1.816362242447269182e-01
9.822530485689640045e+00 4.836107958108186722e+00 1.875718931900394182e-01
9.902974821627140045e+00 4.942431200295686722e+00 1.936601500259769182e-01
9.985128141939640045e+00 5.050951708108186722e+00 1.998857359634769182e-01
1.006935665756464005e+01 5.162279833108186722e+00 2.062791685806644182e-01
1.015602657943964005e+01 5.276781786233186722e+00 2.128404478775394182e-01
1.024464962631464005e+01 5.393847215920686722e+00 2.195543150650394182e-01
9.720601774752140045e+00 4.641894090920686722e+00 2.160905699478519182e-01
9.798116423189640045e+00 4.743578661233186722e+00 2.224077086197269182e-01
1.573927853256464005e+01 6.200365770608186722e+00 4.982713560806644182e-01
1.595570919662714005e+01 6.401903856545686722e+00 5.131791929947269182e-01
1.534132931381464005e+01 6.399096239358186722e+00 4.894975523697269182e-01
1.490187618881464005e+01 6.429857958108186722e+00 4.736284117447269182e-01
1.568056271225214005e+01 6.785204637795686722e+00 5.151780943619144182e-01
1.567824337631464005e+01 6.935839403420686722e+00 5.200151304947269182e-01
1.539601681381464005e+01 5.831225145608186722e+00 5.381120543228519182e-01
1.566664669662714005e+01 6.034594286233186722e+00 5.566057066666019182e-01
1.562355587631464005e+01 6.172045458108186722e+00 5.590623717056644182e-01
1.551161739975214005e+01 6.293261278420686722e+00 5.583757261978519182e-01
1.500331661850214005e+01 6.312426317483186722e+00 5.372270445572269182e-01
6.997890255600214005e+01 2.088005327060818672e+01 3.386943231080664418e+00
1.570168087631464005e+01 6.789477098733186722e+00 5.836747984634769182e-01
1.550954220443964005e+01 6.886400926858186722e+00 5.787156920181644182e-01
1.531276486068964005e+01 5.812182176858186722e+00 5.983079771744144182e-01
2.691078732162714005e+01 8.507128465920686722e+00 1.241710076783789418e+00
2.776039669662714005e+01 8.968188036233186722e+00 1.298060784791601918e+00
1.547902462631464005e+01 6.283861864358186722e+00 6.226610045181644182e-01
8.413612911850214005e+01 2.370830034092068672e+01 4.482936273072851918e+00
7.070717404037714005e+01 2.106364702060818672e+01 3.754588494752539418e+00
8.238405392318964005e+01 2.499235795810818672e+01 4.444880853150976918e+00
3.595766232162714005e+01 1.268681596592068672e+01 1.816249261354101918e+00
1.541396114975214005e+01 5.831835497170686722e+00 6.690172056900394182e-01
2.685182736068964005e+01 8.491259325295686722e+00 1.357264886354101918e+00
2.697047970443964005e+01 8.783251512795686722e+00 1.373942742799414418e+00
3.340224239975214005e+01 1.060112260654568672e+01 1.772776971315039418e+00
8.402980587631464005e+01 2.367253373935818672e+01 4.867579827760351918e+00
8.345485470443964005e+01 2.439824174717068672e+01 4.863963494752539418e+00
8.270766232162714005e+01 2.507206987217068672e+01 4.849559197877539418e+00
3.588344357162714005e+01 1.266215776279568672e+01 1.976573358033789418e+00
2.722292111068964005e+01 8.302782762795686722e+00 1.490718255494726918e+00
2.697377560287714005e+01 8.515185106545686722e+00 1.484599481080664418e+00
2.673756954818964005e+01 8.726732958108186722e+00 1.479167352174414418e+00
3.300929806381464005e+01 1.050285600498318672e+01 1.898341546510351918e+00
8.404677364975214005e+01 2.366765092685818672e+01 5.261500726197851918e+00
8.480141232162714005e+01 2.474223588779568672e+01 5.343959222291601918e+00
8.348549435287714005e+01 2.527556108310818672e+01 5.289683709596289418e+00
3.596608517318964005e+01 1.268205522373318672e+01 2.145839105104101918e+00
1.542665646225214005e+01 5.831225145608186722e+00 7.999833922134769182e-01
2.705519650131464005e+01 8.530199754983186722e+00 1.609660516236914418e+00
3.288783810287714005e+01 1.013957475498318672e+01 2.025752435182226918e+00
3.268703243881464005e+01 1.042180131748318672e+01 2.024363885377539418e+00
8.408742306381464005e+01 2.454619096592068672e+01 5.688884149049414418e+00
3.644643185287714005e+01 1.244011186435818672e+01 2.330104241822851918e+00
3.589150021225214005e+01 1.265727495029568672e+01 2.305568109010351918e+00
2.707741329818964005e+01 8.266405809670686722e+00 1.721339593385351918e+00
2.706984493881464005e+01 8.530565965920686722e+00 1.731257806275976918e+00
3.265248654037714005e+01 1.008183549717068672e+01 2.156733880494726918e+00
3.270912716537714005e+01 1.042363237217068672e+01 2.173884759400976918e+00
8.356996700912714005e+01 2.528105424717068672e+01 6.078730950807226918e+00
3.597463009506464005e+01 1.267717241123318672e+01 2.475810418580664418e+00
2.778517697006464005e+01 8.411425340920686722e+00 1.897044549440039418e+00
2.760597775131464005e+01 8.645312059670686722e+00 1.894023309205664418e+00
3.283839962631464005e+01 1.012114213779568672e+01 2.318034539674414418e+00
3.270985958725214005e+01 1.042045854404568672e+01 2.321193109010351918e+00
3.582301876693964005e+01 1.263054155185818672e+01 2.628703484986914418e+00
2.778981564193964005e+01 8.409350145608186722e+00 2.021159539674414418e+00
2.763820431381464005e+01 8.649462450295686722e+00 2.019236932252539418e+00
2.934938595443964005e+01 9.315722215920686722e+00 2.173991570924414418e+00
3.293007443100214005e+01 1.046989702060818672e+01 2.487834344361914418e+00
3.581117794662714005e+01 1.262358354404568672e+01 2.792216668580664418e+00
1.439870236068964005e+01 6.587816942483186722e+00 -2.137800355208980818e-01
1.391213009506464005e+01 6.581835497170686722e+00 -2.087751527083980818e-01
1.407118771225214005e+01 6.764330614358186722e+00 -2.071119447005855818e-01
1.439418575912714005e+01 7.003710497170686722e+00 -2.060743470443355818e-01
1.446999142318964005e+01 7.169237840920686722e+00 -2.038923402083980818e-01
1.071901486068964005e+01 6.037157762795686722e+00 -1.869550843490230818e-01
1.436403439193964005e+01 7.418383348733186722e+00 -1.984449525130855818e-01
1.417165157943964005e+01 7.491869676858186722e+00 -1.955915589583980818e-01
1.438551876693964005e+01 6.582689989358186722e+00 -1.525617738021480818e-01
1.432362911850214005e+01 6.702318895608186722e+00 -1.499525208724605818e-01
1.400075314193964005e+01 6.741381395608186722e+00 -1.471143861068355818e-01
1.412025997787714005e+01 6.915331590920686722e+00 -1.444440980208980818e-01
1.399623654037714005e+01 7.012255419045686722e+00 -1.419263978255855818e-01
1.071938107162714005e+01 6.036425340920686722e+00 -1.426283021224605818e-01
1.426918575912714005e+01 7.383837450295686722e+00 -1.366468568099605818e-01
1.415212032943964005e+01 7.483568895608186722e+00 -1.341138978255855818e-01
1.437221310287714005e+01 6.577563036233186722e+00 -9.146558239589808181e-02
1.425929806381464005e+01 6.681933153420686722e+00 -8.919202282558558181e-02
1.393153927475214005e+01 6.718920458108186722e+00 -8.807813122402308181e-02
1.410426876693964005e+01 6.908983934670686722e+00 -8.437024548183558181e-02
1.400343868881464005e+01 7.013354051858186722e+00 -8.212720348964808181e-02
1.071986935287714005e+01 6.035692919045686722e+00 -9.851514294277308181e-02
1.423805782943964005e+01 7.371752489358186722e+00 -7.504712536464808181e-02
1.413722775131464005e+01 7.476977098733186722e+00 -7.277356579433558181e-02
1.026613400131464005e+01 5.406664598733186722e+00 -6.959973766933558181e-02
1.034633419662714005e+01 5.523974169045686722e+00 -6.654797985683558181e-02
1.042897579818964005e+01 5.644213426858186722e+00 -6.364880993496058181e-02
1.051405880600214005e+01 5.768114794045686722e+00 -6.065808727871058181e-02
1.060109493881464005e+01 5.894701708108186722e+00 -5.760632946621058181e-02
1.069032833725214005e+01 6.024706590920686722e+00 -5.446301891933558181e-02
1.078236935287714005e+01 6.158617723733186722e+00 -5.122815563808558181e-02
1.093947384506464005e+01 6.318529833108186722e+00 -4.745923473964808181e-02
1.020668575912714005e+01 5.388842333108186722e+00 -2.895032360683558181e-02
1.028603146225214005e+01 5.505175340920686722e+00 -2.563916638027308181e-02
1.036733029037714005e+01 5.624438036233186722e+00 -2.223645641933558181e-02
1.045094845443964005e+01 5.747118700295686722e+00 -1.874219372402308181e-02
1.053651974350214005e+01 5.872606981545686722e+00 -1.515637829433558181e-02
1.062428829818964005e+01 6.001391161233186722e+00 -1.149426891933558181e-02
1.071474239975214005e+01 6.134081590920686722e+00 -7.710089231835581813e-03
1.085378048568964005e+01 6.286669481545686722e+00 -3.086676145898081813e-03
1.016530392318964005e+01 5.376147020608186722e+00 1.125658557285191819e-02
1.025087521225214005e+01 5.493944872170686722e+00 1.542223498691441819e-02
1.033864376693964005e+01 5.614794481545686722e+00 1.946581408847691819e-02
1.042897579818964005e+01 5.739306200295686722e+00 2.363146350253941819e-02
1.052138302475214005e+01 5.866869676858186722e+00 2.788866565097691819e-02
1.061647579818964005e+01 5.997851122170686722e+00 3.228319690097691819e-02
1.071462032943964005e+01 6.133105028420686722e+00 3.679979846347691819e-02
1.086891720443964005e+01 6.291186083108186722e+00 4.232348010410191819e-02
1.021462032943964005e+01 5.389208544045686722e+00 5.347765490878941819e-02
1.030116818100214005e+01 5.507860887795686722e+00 5.799425647128941819e-02
1.039003536850214005e+01 5.629564989358186722e+00 6.263292834628941819e-02
1.048158810287714005e+01 5.755053270608186722e+00 6.740892932285191819e-02
1.057546017318964005e+01 5.883593309670686722e+00 7.230700061191441819e-02
1.067189572006464005e+01 6.015795458108186722e+00 7.734240100253941819e-02
1.071132443100214005e+01 6.131151903420686722e+00 8.100451037753941819e-02
1.093776486068964005e+01 6.315233934670686722e+00 8.953417346347691819e-02
1.022780392318964005e+01 5.392138231545686722e+00 9.492052600253941819e-02
1.030605099350214005e+01 5.508349169045686722e+00 9.975756213535191819e-02
1.038588497787714005e+01 5.627367723733186722e+00 1.049150328384769182e-01
1.046840450912714005e+01 5.750048387795686722e+00 1.100114683853519182e-01
1.055263302475214005e+01 5.875292528420686722e+00 1.152147154556644182e-01
1.063905880600214005e+01 6.003710497170686722e+00 1.205400328384769182e-01
1.071169064193964005e+01 6.130419481545686722e+00 1.253007750259769182e-01
1.086745236068964005e+01 6.288988817483186722e+00 1.328996519791019182e-01
1.017909786850214005e+01 5.377367723733186722e+00 1.346696715103519182e-01
1.025624630600214005e+01 5.492724169045686722e+00 1.399492125259769182e-01
1.033534786850214005e+01 5.611010301858186722e+00 1.453660826431644182e-01
1.041676876693964005e+01 5.732714403420686722e+00 1.509355406509769182e-01
1.049989864975214005e+01 5.857104051858186722e+00 1.566270689712894182e-01
1.058998654037714005e+01 5.986254442483186722e+00 1.626390318619144182e-01
1.069154904037714005e+01 6.122362840920686722e+00 1.691392760025394182e-01
1.084657833725214005e+01 6.280443895608186722e+00 1.776079039322269182e-01
1.018422482162714005e+01 5.377856004983186722e+00 1.757921080337894182e-01
1.027370236068964005e+01 5.496996629983186722e+00 1.820482115494144182e-01
1.036574337631464005e+01 5.619433153420686722e+00 1.884721617447269182e-01
1.046059200912714005e+01 5.745775926858186722e+00 1.951097349869144182e-01
1.055788204818964005e+01 5.875170458108186722e+00 2.019151549087894182e-01
1.065797970443964005e+01 6.008349169045686722e+00 2.089189390884769182e-01
1.076137325912714005e+01 6.145922411233186722e+00 2.161516051041019182e-01
1.093678829818964005e+01 6.312182176858186722e+00 2.263749937759769182e-01
1.024538204818964005e+01 5.394335497170686722e+00 2.196000914322269182e-01
1.033644650131464005e+01 5.514574754983186722e+00 2.264970640884769182e-01
6.572463009506464005e+01 2.254448198154568672e+01 2.645762811158789418e+00
6.584193966537714005e+01 2.328520463779568672e+01 2.673289666627539418e+00
7.645705197006464005e+01 2.747111772373318672e+01 3.166270623658789418e+00
7.589150021225214005e+01 2.810869096592068672e+01 3.167369256471289418e+00
7.503883907943964005e+01 2.864128373935818672e+01 3.155406365846289418e+00
2.105922482162714005e+01 9.967577684670686722e+00 7.316240172134769182e-01
1.568275997787714005e+01 6.937548387795686722e+00 5.202440123306644182e-01
6.740907833725214005e+01 2.233769487217068672e+01 3.011439691041601918e+00
6.685561154037714005e+01 2.288359330967068672e+01 3.008387933229101918e+00
6.619557736068964005e+01 2.339067338779568672e+01 2.999965081666601918e+00
7.767140743881464005e+01 2.786149858310818672e+01 3.587657342408789418e+00
7.602602169662714005e+01 2.814689897373318672e+01 3.534175286744726918e+00
7.480434200912714005e+01 2.855205034092068672e+01 3.500865350221289418e+00
2.066872189193964005e+01 9.824755419045686722e+00 8.069566588150394182e-01
1.550844357162714005e+01 6.886645067483186722e+00 5.786699156509769182e-01
7.345815060287714005e+01 2.411332963779568672e+01 3.647990594361914418e+00
8.021352169662714005e+01 2.695830034092068672e+01 4.032740960572851918e+00
7.987453243881464005e+01 2.771379350498318672e+01 4.044444451783789418e+00
7.749355099350214005e+01 2.779558061435818672e+01 3.945750604127539418e+00
7.574025509506464005e+01 2.804277299717068672e+01 3.879527459596289418e+00
7.596608517318964005e+01 2.895134233310818672e+01 3.922557244752539418e+00
7.538271114975214005e+01 2.957548784092068672e+01 3.919276605104101918e+00
3.595668575912714005e+01 1.268791459873318672e+01 1.816234002565039418e+00
8.374745724350214005e+01 2.713676713779568672e+01 4.585383782838476918e+00
8.011147091537714005e+01 2.691911577060818672e+01 4.406474481080664418e+00
7.926637814193964005e+01 2.751335405185818672e+01 4.388133416627539418e+00
7.943385861068964005e+01 2.842326616123318672e+01 4.428813348268164418e+00
7.811305782943964005e+01 2.883867143467068672e+01 4.381648431275976918e+00
7.588844845443964005e+01 2.891691850498318672e+01 4.279826531861914418e+00
7.541359493881464005e+01 2.957951616123318672e+01 4.281352410768164418e+00
3.587978146225214005e+01 1.266240190342068672e+01 1.976390252565039418e+00
3.603981564193964005e+01 1.307988237217068672e+01 1.999385247682226918e+00
8.037611935287714005e+01 2.699174760654568672e+01 4.800364861940039418e+00
8.001991818100214005e+01 2.774394487217068672e+01 4.810222039674414418e+00
7.738820431381464005e+01 2.774589799717068672e+01 4.674968133424414418e+00
7.758583614975214005e+01 2.865275834873318672e+01 4.719111810182226918e+00
7.766090939193964005e+01 2.952934526279568672e+01 4.755809197877539418e+00
7.543825314193964005e+01 2.958134721592068672e+01 4.645396600221289418e+00
3.596523068100214005e+01 1.268303178623318672e+01 2.145823846315039418e+00
3.604067013412714005e+01 1.307646440342068672e+01 2.165339837525976918e+00
8.070522091537714005e+01 2.708415483310818672e+01 5.203303704713476918e+00
8.106239864975214005e+01 2.806547807529568672e+01 5.261409173463476918e+00
8.025502560287714005e+01 2.867643998935818672e+01 5.240092645143164418e+00
8.007741329818964005e+01 2.948808549717068672e+01 5.261744866822851918e+00
7.760732052475214005e+01 2.950322221592068672e+01 5.124446282838476918e+00
7.701283810287714005e+01 3.014226030185818672e+01 5.116099725221289418e+00
3.588930294662714005e+01 1.265788530185818672e+01 2.305461297486914418e+00
3.601686642318964005e+01 1.306584428623318672e+01 2.328700433229101918e+00
8.086879513412714005e+01 2.712590287998318672e+01 5.595515618775976918e+00
8.034877560287714005e+01 2.783183549717068672e+01 5.592646966432226918e+00
7.992763302475214005e+01 2.856144975498318672e+01 5.596690545533789418e+00
7.737477657943964005e+01 2.941459916904568672e+01 5.477397332643164418e+00
7.783473751693964005e+01 3.043132280185818672e+01 5.548045526002539418e+00
3.597365353256464005e+01 1.267814897373318672e+01 2.475779901002539418e+00
3.617201779037714005e+01 1.310795854404568672e+01 2.506526360963476918e+00
8.045998165756464005e+01 2.785905717685818672e+01 5.983302484010351918e+00
8.027004025131464005e+01 2.866557573154568672e+01 6.004695306275976918e+00
8.007411739975214005e+01 2.947148393467068672e+01 6.025660882447851918e+00
7.808180782943964005e+01 3.051310991123318672e+01 5.940394769166601918e+00
3.582118771225214005e+01 1.263127397373318672e+01 2.628611932252539418e+00
3.570265743881464005e+01 1.333720659092068672e+01 2.650004754518164418e+00
8.002907345443964005e+01 2.944841264560818672e+01 6.403117547486914418e+00
3.580934689193964005e+01 1.262431596592068672e+01 2.792109857057226918e+00
3.636891720443964005e+01 1.315861772373318672e+01 2.856120477174414418e+00
3.574049923568964005e+01 1.334526323154568672e+01 2.818309197877539418e+00
8.065505001693964005e+01 2.928691362217068672e+01 6.515239129518164418e+00
3.585793087631464005e+01 1.247355912998318672e+01 2.823893914674414418e+00
3.597755978256464005e+01 1.287858842685818672e+01 2.850184808229101918e+00
3.562697384506464005e+01 1.314738725498318672e+01 2.836360345338476918e+00
7.997060177475214005e+01 2.975725053623318672e+01 6.493464837525976918e+00
8.014699337631464005e+01 2.970768998935818672e+01 6.231059442018164418e+00
8.067751095443964005e+01 2.804997514560818672e+01 5.630961785768164418e+00
7.960854122787714005e+01 2.857731889560818672e+01 5.589778314088476918e+00
7.981130001693964005e+01 2.951591752842068672e+01 5.639979730104101918e+00
8.352724239975214005e+01 2.536857866123318672e+01 6.089595208619726918e+00
3.596535275131464005e+01 1.269572709873318672e+01 2.478038201783789418e+00
