8.796555478125810623e+00 3.393027927726507187e+00 1.399874713737574439e-01
8.806199032813310623e+00 3.465293552726507187e+00 1.428103473503199439e-01
8.573533017188310623e+00 2.962608005851507187e+00 1.488528278190699439e-01
7.860154110938310623e+00 3.024009373039007187e+00 1.200747516471949439e-01
8.430588681250810623e+00 3.097861912101507187e+00 1.470980670768824439e-01
8.439866025000810623e+00 3.166221287101507187e+00 1.498293903190699439e-01
8.450486142188310623e+00 3.234458591789007187e+00 1.526064899284449439e-01
8.789109189063310623e+00 3.319785740226507187e+00 1.701388385612574439e-01
8.834275204688310623e+00 3.394248630851507187e+00 1.747927692253199439e-01
8.879685360938310623e+00 3.469443943351507187e+00 1.793246295768824439e-01
8.608567196875810623e+00 2.961509373039007187e+00 1.823763873893824439e-01
8.517991025000810623e+00 3.029990818351507187e+00 1.803774860221949439e-01
8.580491025000810623e+00 3.099937107414007187e+00 1.857485797721949439e-01
8.519333798438310623e+00 3.167564060539007187e+00 1.851382282096949439e-01
8.459519345313310623e+00 3.233848240226507187e+00 1.845278766471949439e-01
8.826584775000810623e+00 3.320640232414007187e+00 2.050662067253199439e-01
9.513962704688310623e+00 3.434409763664007187e+00 2.418398883659449439e-01
9.107712704688310623e+00 3.484580662101507187e+00 2.241091754753199439e-01
9.195237118750810623e+00 2.960776951164007187e+00 2.453494098503199439e-01
8.632370907813310623e+00 3.030234958976507187e+00 2.180209186393824439e-01
8.422776181250810623e+00 3.095664646476507187e+00 2.092623737175074439e-01
8.430344540625810623e+00 3.163779880851507187e+00 2.120089557487574439e-01
8.437912900000810623e+00 3.232017185539007187e+00 2.147402789909449439e-01
8.445481259375810623e+00 3.300376560539007187e+00 2.174868610221949439e-01
9.034592587500810623e+00 3.404258396476507187e+00 2.519412067253199439e-01
3.040239043906331062e+01 4.984214451164007187e+00 1.427615645201882444e+00
8.463303525000810623e+00 2.959312107414007187e+00 2.382693317253199439e-01
8.630295712500810623e+00 3.029136326164007187e+00 2.502017047721949439e-01
8.418015439063310623e+00 3.094566013664007187e+00 2.403445270378199439e-01
8.425583798438310623e+00 3.162681248039007187e+00 2.431216266471949439e-01
8.433152157813310623e+00 3.230796482414007187e+00 2.458987262565699439e-01
8.440720517188310623e+00 3.299033787101507187e+00 2.486910846550074439e-01
9.523972470313310623e+00 3.432700779289007187e+00 3.151278522331324439e-01
9.485886532813310623e+00 3.508994724601507187e+00 3.155703571159449439e-01
8.748215634375810623e+00 2.958335544914007187e+00 2.873721149284449439e-01
8.628342587500810623e+00 3.028037693351507187e+00 2.822146442253199439e-01
8.413254696875810623e+00 3.093467380851507187e+00 2.712130573112574439e-01
8.420823056250810623e+00 3.161460544914007187e+00 2.740511920768824439e-01
8.428391415625810623e+00 3.229575779289007187e+00 2.768740680534449439e-01
9.164597470313310623e+00 3.334434177726507187e+00 3.259005573112574439e-01
9.584763485938310623e+00 3.435264255851507187e+00 3.553042438346949439e-01
9.490647275000810623e+00 3.508140232414007187e+00 3.522219684440699439e-01
8.746506650000810623e+00 2.957236912101507187e+00 3.199343707878199439e-01
8.626267392188310623e+00 3.026939060539007187e+00 3.143954303581324439e-01
8.408493954688310623e+00 3.092246677726507187e+00 3.022341754753199439e-01
8.530930478125810623e+00 3.163779880851507187e+00 3.128390338737574439e-01
8.423508603125810623e+00 3.228355076164007187e+00 3.079714801628199439e-01
9.184739071875810623e+00 3.334312107414007187e+00 3.621096637565699439e-01
9.559250790625810623e+00 3.432578708976507187e+00 3.903536823112574439e-01
2.705009551718831062e+01 4.737022068351507187e+00 1.595279219420632444e+00
8.744919735938310623e+00 2.956138279289007187e+00 3.526644733268824439e-01
1.463115020468831062e+01 3.085166599601507187e+00 7.746157672721949439e-01
8.581467587500810623e+00 3.094688083976507187e+00 3.457522418815699439e-01
8.547898251563310623e+00 3.163291599601507187e+00 3.457827594596949439e-01
2.745170684531331062e+01 3.985801365226507187e+00 1.714679243834694944e+00
2.867363067343831062e+01 4.304771091789007187e+00 1.812472822936257444e+00
9.582322079688310623e+00 3.432700779289007187e+00 4.287295368034449439e-01
9.503342587500810623e+00 3.506797458976507187e+00 4.257235553581324439e-01
8.743210751563310623e+00 2.955039646476507187e+00 3.853945758659449439e-01
8.622239071875810623e+00 3.024741794914007187e+00 3.785433795768824439e-01
8.578904110938310623e+00 3.093589451164007187e+00 3.776888873893824439e-01
8.545334775000810623e+00 3.162192966789007187e+00 3.775668170768824439e-01
2.764384551718831062e+01 3.989585544914007187e+00 1.848926070006569944e+00
2.751286407187581062e+01 4.243125583976507187e+00 1.847949507506569944e+00
9.549485165625810623e+00 3.429649021476507187e+00 4.628024127800074439e-01
9.509690243750810623e+00 3.506065037101507187e+00 4.626650836784449439e-01
8.850754696875810623e+00 3.480064060539007187e+00 -2.208218547981175561e-01
8.834519345313310623e+00 3.550986912101507187e+00 -2.184109661262425561e-01
8.732224423438310623e+00 3.613608982414007187e+00 -2.154049846809300561e-01
8.639206845313310623e+00 3.675620701164007187e+00 -2.125363323371800561e-01
8.541794735938310623e+00 3.735068943351507187e+00 -2.096829387824925561e-01
8.436448056250810623e+00 3.791831638664007187e+00 -2.068142864387425561e-01
8.935227353125810623e+00 3.927085544914007187e+00 -2.087216350715550561e-01
8.910080868750810623e+00 3.997520115226507187e+00 -2.065854046028050561e-01
8.477219540625810623e+00 3.451987888664007187e+00 -1.856961223762425561e-01
8.818528134375810623e+00 3.548545505851507187e+00 -1.852993938606175561e-01
8.725022275000810623e+00 3.611899998039007187e+00 -1.825985881965550561e-01
8.633469540625810623e+00 3.674033787101507187e+00 -1.801266643684300561e-01
8.990769345313310623e+00 3.784751560539007187e+00 -1.794095012824925561e-01
8.434128720313310623e+00 3.790610935539007187e+00 -1.752896282356175561e-01
9.677414853125810623e+00 4.024741794914007187e+00 -1.774411174934300561e-01
8.930100400000810623e+00 3.999351169914007187e+00 -1.728634807746800561e-01
8.217698056250810623e+00 3.432334568351507187e+00 -1.540646526496800561e-01
8.812424618750810623e+00 3.547080662101507187e+00 -1.521420452278050561e-01
8.719162900000810623e+00 3.610435154289007187e+00 -1.500210735481175561e-01
8.627732235938310623e+00 3.672446873039007187e+00 -1.479306194465550561e-01
8.452805478125810623e+00 3.723228123039007187e+00 -1.459774944465550561e-01
9.011399228125810623e+00 3.860435154289007187e+00 -1.432919475715550561e-01
9.563889462500810623e+00 4.008506443351507187e+00 -1.402707073371800561e-01
9.247727353125810623e+00 4.043784763664007187e+00 -1.384243938606175561e-01
8.201950985938310623e+00 3.430259373039007187e+00 -1.239285442512425561e-01
8.197678525000810623e+00 3.495566990226507187e+00 -1.217923137824925561e-01
8.713181454688310623e+00 3.608848240226507187e+00 -1.173062297981175561e-01
8.620530087500810623e+00 3.670737888664007187e+00 -1.156125042121800561e-01
8.521286923438310623e+00 3.729941990226507187e+00 -1.140255901496800561e-01
9.030320126563310623e+00 3.861777927726507187e+00 -1.089901897590550561e-01
9.208420712500810623e+00 3.960410740226507187e+00 -1.056332561653050561e-01
9.659592587500810623e+00 4.101524021476507187e+00 -1.006283733528050561e-01
8.186081845313310623e+00 3.428184177726507187e+00 -9.377717706374255613e-02
8.181931454688310623e+00 3.493369724601507187e+00 -9.179353448561755613e-02
8.993210751563310623e+00 3.633628513664007187e+00 -8.211946221999255613e-02
8.613327939063310623e+00 3.669028904289007187e+00 -8.353852960280505613e-02
8.514206845313310623e+00 3.728233005851507187e+00 -8.236360284499255613e-02
9.049363095313310623e+00 3.862998630851507187e+00 -7.467317315749255613e-02
9.179123837500810623e+00 3.955405857414007187e+00 -7.096528741530505613e-02
9.169968564063310623e+00 4.030601169914007187e+00 -6.870698663405505613e-02
8.867966610938310623e+00 3.476157810539007187e+00 -5.456208917311755613e-02
8.777268368750810623e+00 3.541099216789007187e+00 -5.337190362624255613e-02
8.901169735938310623e+00 3.624107029289007187e+00 -4.938935968093005613e-02
8.583298642188310623e+00 3.665000583976507187e+00 -5.166291925124255613e-02
9.026902157813310623e+00 3.784629490226507187e+00 -4.295015069655505613e-02
9.068528134375810623e+00 3.864341404289007187e+00 -3.998994561843005613e-02
9.122727353125810623e+00 3.946983005851507187e+00 -3.680085870436755613e-02
9.191697079688310623e+00 4.032676365226507187e+00 -3.352021905593005613e-02
8.836716610938310623e+00 3.472861912101507187e+00 -2.174043389968005613e-02
8.763718564063310623e+00 3.539024021476507187e+00 -2.079438897780505613e-02
8.684494931250810623e+00 3.603233005851507187e+00 -2.000093194655505613e-02
8.552414853125810623e+00 3.660850193351507187e+00 -2.024507257155505613e-02
9.006760556250810623e+00 3.781333591789007187e+00 -9.258744446555056129e-03
9.053147275000810623e+00 3.861411716789007187e+00 -5.978104798117556129e-03
9.100266415625810623e+00 3.942954685539007187e+00 -2.636429993430056129e-03
9.174241025000810623e+00 4.029136326164007187e+00 1.254561217507443871e-03
8.120652157813310623e+00 3.420615818351507187e+00 -4.864213196555056129e-03
8.750046689063310623e+00 3.536826755851507187e+00 1.166105535813244387e-02
8.684983212500810623e+00 3.602256443351507187e+00 1.263761785813244387e-02
8.993210751563310623e+00 3.704673435539007187e+00 2.220487860031994387e-02
9.039353329688310623e+00 3.784019138664007187e+00 2.569914129563244387e-02
9.085373837500810623e+00 3.864341404289007187e+00 2.923918035813244387e-02
9.133591610938310623e+00 3.946372654289007187e+00 3.268766668625744387e-02
9.211228329688310623e+00 4.033408787101507187e+00 3.706693914719494387e-02
8.080368954688310623e+00 3.416831638664007187e+00 2.399015692063244387e-02
8.744431454688310623e+00 3.535361912101507187e+00 4.440641668625744387e-02
8.979294735938310623e+00 3.628257419914007187e+00 5.330229070969494387e-02
8.627243954688310623e+00 3.666587498039007187e+00 4.579496649094494387e-02
8.977829892188310623e+00 3.776084568351507187e+00 5.810880926438244387e-02
9.091477353125810623e+00 3.864097263664007187e+00 6.383085516281994387e-02
9.174973446875810623e+00 3.950767185539007187e+00 6.874418524094494387e-02
9.231125790625810623e+00 4.035239841789007187e+00 7.290983465500744387e-02
8.040818173438310623e+00 3.413047458976507187e+00 5.234098699875744387e-02
8.744919735938310623e+00 3.534385349601507187e+00 7.712126043625744387e-02
8.685959775000810623e+00 3.600425388664007187e+00 7.757902410813244387e-02
8.627610165625810623e+00 3.665610935539007187e+00 7.803678778000744387e-02
8.961594540625810623e+00 3.773276951164007187e+00 9.146452215500744387e-02
9.050950009375810623e+00 3.858115818351507187e+00 9.691190985031994387e-02
9.126389462500810623e+00 3.943320896476507187e+00 1.019778278190699439e-01
9.194016415625810623e+00 4.029014255851507187e+00 1.068148639518824439e-01
8.825119931250810623e+00 3.467857029289007187e+00 1.105380084831324439e-01
8.745408017188310623e+00 3.533408787101507187e+00 1.100344684440699439e-01
8.686448056250810623e+00 3.599448826164007187e+00 1.102480914909449439e-01
8.968796689063310623e+00 3.699180271476507187e+00 1.232333209831324439e-01
8.945359189063310623e+00 3.770469333976507187e+00 1.248507526237574439e-01
9.034348446875810623e+00 3.855064060539007187e+00 1.307406452018824439e-01
9.093064267188310623e+00 3.937949802726507187e+00 1.355319049675074439e-01
9.160080868750810623e+00 4.023154880851507187e+00 1.406893756706324439e-01
8.805832821875810623e+00 3.465537693351507187e+00 1.427950885612574439e-01
8.745896298438310623e+00 3.532432224601507187e+00 1.427798297721949439e-01
8.933762509375810623e+00 3.620933201164007187e+00 1.530642536003199439e-01
8.981003720313310623e+00 3.699424412101507187e+00 1.575808551628199439e-01
9.028611142188310623e+00 3.778770115226507187e+00 1.621432330925074439e-01
9.077073056250810623e+00 3.859336521476507187e+00 1.667666461784449439e-01
9.126511532813310623e+00 3.941367771476507187e+00 1.714816119987574439e-01
9.205735165625810623e+00 4.028525974601507187e+00 1.775393512565699439e-01
8.880051571875810623e+00 3.469688083976507187e+00 1.793398883659449439e-01
8.772263485938310623e+00 3.533530857414007187e+00 1.768984821159449439e-01
8.972825009375810623e+00 3.623496677726507187e+00 1.885104205925074439e-01
9.020554501563310623e+00 3.702354099601507187e+00 1.933169391471949439e-01
9.068772275000810623e+00 3.782188083976507187e+00 1.981692340690699439e-01
9.117844540625810623e+00 3.863242771476507187e+00 2.031130817253199439e-01
9.186081845313310623e+00 3.948203708976507187e+00 2.092013385612574439e-01
1.455986114218831062e+01 4.784751560539007187e+00 4.704623248893824439e-01
9.107956845313310623e+00 3.484824802726507187e+00 2.241244342643824439e-01
9.145188290625810623e+00 3.562705662101507187e+00 2.286562946159449439e-01
9.333908993750810623e+00 3.655234958976507187e+00 2.409396198112574439e-01
9.218064267188310623e+00 3.721274998039007187e+00 2.377200153190699439e-01
9.253220517188310623e+00 3.801597263664007187e+00 2.422366168815699439e-01
9.893967587500810623e+00 3.956016208976507187e+00 2.782931354362574439e-01
2.748185821250081062e+01 6.346641208976507187e+00 1.202884199889382444e+00
1.456291290000081062e+01 4.783530857414007187e+00 5.305361774284449439e-01
3.040519805625081062e+01 4.985435154289007187e+00 1.427814009459694944e+00
9.119309384375810623e+00 3.559531833976507187e+00 2.618289020378199439e-01
9.339890439063310623e+00 3.654624607414007187e+00 2.767672565300074439e-01
9.288620907813310623e+00 3.727256443351507187e+00 2.766909625846949439e-01
9.256028134375810623e+00 3.800864841789007187e+00 2.776064899284449439e-01
2.261015411093831062e+01 5.491782810539007187e+00 1.037127974303444944e+00
2.743180938437581062e+01 6.336631443351507187e+00 1.319751265319069944e+00
2.770097442343831062e+01 6.636314060539007187e+00 1.345202925475319944e+00
9.485642392188310623e+00 3.509238865226507187e+00 3.155703571159449439e-01
9.093430478125810623e+00 3.556358005851507187e+00 2.949404743034449439e-01
2.718510528281331062e+01 5.267295505851507187e+00 1.387225630553444944e+00
9.291428525000810623e+00 3.726524021476507187e+00 3.123812702018824439e-01
9.217331845313310623e+00 3.795493748039007187e+00 3.106722858268824439e-01
9.226365048438310623e+00 3.873252537101507187e+00 3.139987018425074439e-01
2.792338653281331062e+01 6.397422458976507187e+00 1.470218184264382444e+00
2.832511993125081062e+01 6.720908787101507187e+00 1.504825117858132444e+00
9.490403134375810623e+00 3.508384373039007187e+00 3.522219684440699439e-01
3.090019317343831062e+01 5.305137302726507187e+00 1.735202315123757444e+00
7.911613555625081062e+01 9.952476169914007187e+00 4.872272017272194944e+00
9.294236142188310623e+00 3.725669529289007187e+00 3.479342487175074439e-01
2.256242461875081062e+01 5.268638279289007187e+00 1.220904829772194944e+00
2.260368438437581062e+01 5.485191013664007187e+00 1.231387617858132444e+00
2.809025665000081062e+01 6.415610935539007187e+00 1.603122236998757444e+00
2.748112579062581062e+01 6.598350193351507187e+00 1.573001387389382444e+00
2.705009551718831062e+01 4.737876560539007187e+00 1.595309736998757444e+00
9.457322079688310623e+00 3.583335544914007187e+00 3.890414264518824439e-01
3.104850860312581062e+01 5.608359958976507187e+00 1.892093184264382444e+00
9.297043759375810623e+00 3.724937107414007187e+00 3.837161090690699439e-01
9.264328915625810623e+00 3.798545505851507187e+00 3.842959430534449439e-01
2.260038848593831062e+01 5.481895115226507187e+00 1.328784468444069944e+00
2.834550567343831062e+01 6.445396091789007187e+00 1.744525435240944944e+00
2.710624786093831062e+01 6.542075779289007187e+00 1.666186812194069944e+00
9.503098446875810623e+00 3.507041599601507187e+00 4.257082965690699439e-01
9.463669735938310623e+00 3.582725193351507187e+00 4.257845905143824439e-01
2.799589629843831062e+01 5.329429294914007187e+00 1.801715376647194944e+00
9.299851376563310623e+00 3.724082615226507187e+00 4.193453815300074439e-01
2.225138946250081062e+01 5.228599216789007187e+00 1.391772749694069944e+00
2.259721465781331062e+01 5.478599216789007187e+00 1.425647261412819944e+00
2.799955840781331062e+01 6.396567966789007187e+00 1.842883589537819944e+00
2.782536407187581062e+01 6.639732029289007187e+00 1.839725020201882444e+00
9.509446103125810623e+00 3.506309177726507187e+00 4.626650836784449439e-01
9.469895321875810623e+00 3.582114841789007187e+00 4.623904254753199439e-01
3.173295684531331062e+01 5.661460544914007187e+00 2.218356611998757444e+00
2.274540801718831062e+01 5.067100193351507187e+00 1.518847945006569944e+00
2.256633086875081062e+01 5.260337498039007187e+00 1.512744429381569944e+00
2.259404082968831062e+01 5.475303318351507187e+00 1.523044111998757444e+00
3.100273223593831062e+01 6.784385349601507187e+00 2.206271651061257444e+00
2.719303985312581062e+01 6.547446873039007187e+00 1.910968306334694944e+00
8.909836728125810623e+00 3.997764255851507187e+00 -2.065701458137425561e-01
9.307908017188310623e+00 4.132651951164007187e+00 -2.073788616340550561e-01
9.290574032813310623e+00 4.207969333976507187e+00 -2.052426311653050561e-01
9.321335751563310623e+00 4.291953708976507187e+00 -2.034115764778050561e-01
9.352463681250810623e+00 4.376548435539007187e+00 -2.015652630012425561e-01
9.435959775000810623e+00 4.472373630851507187e+00 -2.000393840949925561e-01
1.340275665000081062e+01 5.365073826164007187e+00 -2.215390178840550561e-01
1.329155059531331062e+01 5.463340427726507187e+00 -2.180294963996800561e-01
8.929978329688310623e+00 3.999595310539007187e+00 -1.728482219856175561e-01
8.927170712500810623e+00 4.073325779289007187e+00 -1.708645794074925561e-01
9.488816220313310623e+00 4.239341404289007187e+00 -1.700253460090550561e-01
9.272263485938310623e+00 4.282432224601507187e+00 -1.674313518684300561e-01
9.302903134375810623e+00 4.366538669914007187e+00 -1.653866741340550561e-01
9.322800595313310623e+00 4.449424412101507187e+00 -1.633114788215550561e-01
1.336235137656331062e+01 5.355308201164007187e+00 -1.665463421028050561e-01
1.378434844687581062e+01 5.567832615226507187e+00 -1.637234661262425561e-01
9.247971493750810623e+00 4.044028904289007187e+00 -1.384091350715550561e-01
8.600388485938310623e+00 4.022300388664007187e+00 -1.375851604621800561e-01
9.552048642188310623e+00 4.248618748039007187e+00 -1.334652874153050561e-01
9.417405087500810623e+00 4.306602146476507187e+00 -1.315731975715550561e-01
9.375168759375810623e+00 4.378745701164007187e+00 -1.294980022590550561e-01
9.333298642188310623e+00 4.450400974601507187e+00 -1.274380657356175561e-01
1.332707305625081062e+01 5.346641208976507187e+00 -1.115994426887425561e-01
1.424028106406331062e+01 5.664146091789007187e+00 -1.048855755012425561e-01
9.659348446875810623e+00 4.101768162101507187e+00 -1.006131145637425561e-01
9.235520321875810623e+00 4.118491794914007187e+00 -1.009335491340550561e-01
9.564988095313310623e+00 4.249717380851507187e+00 -9.646272393874255613e-02
9.428147275000810623e+00 4.307456638664007187e+00 -9.513520929030505613e-02
9.385788876563310623e+00 4.379722263664007187e+00 -9.319734307936755613e-02
9.343796689063310623e+00 4.451499607414007187e+00 -9.125947686843005613e-02
1.379008575156331062e+01 5.439780857414007187e+00 -5.292939874343005613e-02
1.449174590781331062e+01 5.716514255851507187e+00 -4.378938409499255613e-02
9.173264462500810623e+00 4.031333591789007187e+00 -6.866121026686755613e-02
9.185471493750810623e+00 4.109824802726507187e+00 -6.629609796218005613e-02
8.483689267188310623e+00 4.072471287101507187e+00 -7.218599054030505613e-02
9.415329892188310623e+00 4.304160740226507187e+00 -5.907869073561755613e-02
9.476975400000810623e+00 4.395469333976507187e+00 -5.599641534499255613e-02
9.539841610938310623e+00 4.488486912101507187e+00 -5.285310479811755613e-02
9.604172665625810623e+00 4.583701755851507187e+00 -4.964875909499255613e-02
9.669602353125810623e+00 4.680503513664007187e+00 -4.638337823561755613e-02
9.192185360938310623e+00 4.033042576164007187e+00 -3.350496026686755613e-02
9.249314267188310623e+00 4.118613865226507187e+00 -3.011750909499255613e-02
9.307908017188310623e+00 4.205772068351507187e+00 -2.683686944655505613e-02
9.367844540625810623e+00 4.295005466789007187e+00 -2.349519464186755613e-02
9.428635556250810623e+00 4.385581638664007187e+00 -2.009248468093005613e-02
9.490647275000810623e+00 4.477988865226507187e+00 -1.662873956374255613e-02
9.554123837500810623e+00 4.572471287101507187e+00 -1.307344171218005613e-02
9.618821103125810623e+00 4.668540623039007187e+00 -9.670731751242556129e-03
9.174607235938310623e+00 4.029502537101507187e+00 1.285078795632443871e-03
9.237961728125810623e+00 4.115806248039007187e+00 4.931929381569943871e-03
9.302658993750810623e+00 4.203941013664007187e+00 8.670332701882443871e-03
9.368821103125810623e+00 4.294150974601507187e+00 1.248502996750744387e-02
9.436203915625810623e+00 4.385947849601507187e+00 1.637602117844494387e-02
9.505051571875810623e+00 4.479697849601507187e+00 2.035856512375744387e-02
9.575608212500810623e+00 4.575889255851507187e+00 2.443266180344494387e-02
9.647385556250810623e+00 4.673667576164007187e+00 2.858305242844494387e-02
9.211716610938310623e+00 4.033774998039007187e+00 3.709745672531994387e-02
9.275803525000810623e+00 4.120566990226507187e+00 4.112577703781994387e-02
9.341355282813310623e+00 4.209190037101507187e+00 4.545927313156994387e-02
9.408249814063310623e+00 4.299888279289007187e+00 4.968595770188244387e-02
9.476487118750810623e+00 4.392295505851507187e+00 5.398893621750744387e-02
9.546067196875810623e+00 4.486655857414007187e+00 5.838346746750744387e-02
9.617234189063310623e+00 4.583335544914007187e+00 6.268644598313244387e-02
9.689866025000810623e+00 4.681846287101507187e+00 6.727934149094494387e-02
9.231614071875810623e+00 4.035606052726507187e+00 7.294035223313244387e-02
9.288742978125810623e+00 4.121543552726507187e+00 7.713651922531994387e-02
9.347092587500810623e+00 4.209067966789007187e+00 8.142423895188244387e-02
9.406662900000810623e+00 4.298667576164007187e+00 8.580351141281994387e-02
9.467209775000810623e+00 4.389609958976507187e+00 9.025907781906994387e-02
9.528977353125810623e+00 4.482383396476507187e+00 9.479093817063244387e-02
9.592087704688310623e+00 4.577232029289007187e+00 9.944486883469494387e-02
9.656174618750810623e+00 4.673545505851507187e+00 1.041598346550074439e-01
9.194504696875810623e+00 4.029258396476507187e+00 1.068453815300074439e-01
9.251145321875810623e+00 4.114829685539007187e+00 1.113467243034449439e-01
9.308762509375810623e+00 4.201865818351507187e+00 1.159243610221949439e-01
9.367722470313310623e+00 4.290855076164007187e+00 1.206088092643824439e-01
9.427536923438310623e+00 4.381309177726507187e+00 1.253695514518824439e-01
9.488572079688310623e+00 4.473472263664007187e+00 1.302218463737574439e-01
9.551072079688310623e+00 4.567832615226507187e+00 1.351962116081324439e-01
9.614426571875810623e+00 4.663657810539007187e+00 1.402316119987574439e-01
9.160569150000810623e+00 4.023521091789007187e+00 1.407198932487574439e-01
9.226365048438310623e+00 4.109946873039007187e+00 1.458926227409449439e-01
9.293503720313310623e+00 4.198325779289007187e+00 1.511721637565699439e-01
9.362229306250810623e+00 4.289024021476507187e+00 1.565890338737574439e-01
9.432297665625810623e+00 4.381187107414007187e+00 1.621127155143824439e-01
9.503952939063310623e+00 4.475425388664007187e+00 1.677432086784449439e-01
9.577439267188310623e+00 4.572227146476507187e+00 1.735262897331324439e-01
9.652268368750810623e+00 4.670737888664007187e+00 1.794161823112574439e-01
9.206223446875810623e+00 4.028892185539007187e+00 1.775698688346949439e-01
9.272873837500810623e+00 4.116050388664007187e+00 1.831698444206324439e-01
9.340989071875810623e+00 4.205039646476507187e+00 1.888766315300074439e-01
9.410691220313310623e+00 4.296348240226507187e+00 1.947360065300074439e-01
9.481736142188310623e+00 4.389243748039007187e+00 2.007021930534449439e-01
9.554367978125810623e+00 4.484214451164007187e+00 2.068057086784449439e-01
9.628952939063310623e+00 4.581626560539007187e+00 2.130618121940699439e-01
9.704880673438310623e+00 4.680991794914007187e+00 2.194399860221949439e-01
1.456083770468831062e+01 4.785361912101507187e+00 4.705386188346949439e-01
1.439262481406331062e+01 4.891441013664007187e+00 4.670596149284449439e-01
1.472551055625081062e+01 5.075523044914007187e+00 4.876132037956324439e-01
1.535527129843831062e+01 5.318565037101507187e+00 5.233950641471949439e-01
1.557255645468831062e+01 5.499229099601507187e+00 5.391726520378199439e-01
1.499687286093831062e+01 5.532188083976507187e+00 5.155520465690699439e-01
1.466996856406331062e+01 5.604575779289007187e+00 5.043673541862574439e-01
1.524418731406331062e+01 5.862754490226507187e+00 5.383029010612574439e-01
1.456401153281331062e+01 4.784141208976507187e+00 5.306124713737574439e-01
1.558989043906331062e+01 5.071128513664007187e+00 5.899081256706324439e-01
1.472892852500081062e+01 5.074302341789007187e+00 5.490298297721949439e-01
1.530900665000081062e+01 5.308799412101507187e+00 5.851779010612574439e-01
1.521574493125081062e+01 5.432456638664007187e+00 5.852389362175074439e-01
1.498259063437581062e+01 5.527671482414007187e+00 5.775942828971949439e-01
1.500737090781331062e+01 5.671470310539007187e+00 5.840029743034449439e-01
1.538700957968831062e+01 5.891441013664007187e+00 6.100802448112574439e-01
2.770243926718831062e+01 6.637412693351507187e+00 1.345309736998757444e+00
2.780253692343831062e+01 6.917930271476507187e+00 1.360309126647194944e+00
1.852836700156331062e+01 5.686607029289007187e+00 8.309054401237574439e-01
1.561064239218831062e+01 5.358848240226507187e+00 6.665682819206324439e-01
1.507573028281331062e+01 5.405112888664007187e+00 6.403994586784449439e-01
1.496513457968831062e+01 5.522666599601507187e+00 6.390109088737574439e-01
1.545085235312581062e+01 5.759727146476507187e+00 6.731448200065699439e-01
1.529203887656331062e+01 5.869468357414007187e+00 6.692843463737574439e-01
2.832804961875081062e+01 6.722251560539007187e+00 1.505038740905007444e+00
2.982304473593831062e+01 7.220054294914007187e+00 1.608722212584694944e+00
1.532084747031331062e+01 5.166465427726507187e+00 7.084231403190699439e-01
1.522087188437581062e+01 5.290122654289007187e+00 7.074465778190699439e-01
1.500969024375081062e+01 5.391441013664007187e+00 6.993289020378199439e-01
1.491960235312581062e+01 5.512168552726507187e+00 6.988101032096949439e-01
1.558720489218831062e+01 5.785606052726507187e+00 7.470431354362574439e-01
1.522636504843831062e+01 5.853843357414007187e+00 7.291750934440699439e-01
2.748149200156331062e+01 6.599326755851507187e+00 1.573062422545632444e+00
2.776884551718831062e+01 6.905845310539007187e+00 1.601901533873757444e+00
1.853935332968831062e+01 5.683921482414007187e+00 9.893679645378199439e-01
1.517741485312581062e+01 5.280845310539007187e+00 7.678713825065699439e-01
1.866081329062581062e+01 6.053794529289007187e+00 1.011157515319069944e+00
2.584672637656331062e+01 7.610923435539007187e+00 1.511569502623757444e+00
1.560722442343831062e+01 5.787925388664007187e+00 8.138613727409449439e-01
1.526677032187581062e+01 5.860679294914007187e+00 7.961764362175074439e-01
2.710746856406331062e+01 6.543174412101507187e+00 1.666308882506569944e+00
2.744804473593831062e+01 6.853843357414007187e+00 1.701022627623757444e+00
1.848783965781331062e+01 5.673301365226507187e+00 1.064792158873757444e+00
1.838334747031331062e+01 5.828818943351507187e+00 1.064074995787819944e+00
1.838371368125081062e+01 6.001182224601507187e+00 1.070926192076882444e+00
2.562553497031331062e+01 7.565269138664007187e+00 1.609317305358132444e+00
2.772966094687581062e+01 8.240806248039007187e+00 1.774493696959694944e+00
2.688713165000081062e+01 8.332847263664007187e+00 1.722705366881569944e+00
3.108281036093831062e+01 7.098838474601507187e+00 2.087436201842507444e+00
2.730204864218831062e+01 6.828452732414007187e+00 1.810550215514382444e+00
1.855253692343831062e+01 5.681480076164007187e+00 1.148272993834694944e+00
1.843754668906331062e+01 5.835899021476507187e+00 1.146426680358132444e+00
1.846537872031331062e+01 6.013877537101507187e+00 1.155581953795632444e+00
1.875871368125081062e+01 6.243980076164007187e+00 1.185519697936257444e+00
2.776982207968831062e+01 8.245566990226507187e+00 1.900744917662819944e+00
2.687468047812581062e+01 8.326987888664007187e+00 1.841067793639382444e+00
2.719389434531331062e+01 6.548423435539007187e+00 1.911075117858132444e+00
2.730302520468831062e+01 6.825156833976507187e+00 1.930026533873757444e+00
1.855766387656331062e+01 5.680137302726507187e+00 1.227954390319069944e+00
1.843901153281331062e+01 5.833945896476507187e+00 1.225406172545632444e+00
1.865983672812581062e+01 6.046958591789007187e+00 1.250735762389382444e+00
1.875724883750081062e+01 6.241538669914007187e+00 1.266055586608132444e+00
2.912663360312581062e+01 8.516685154289007187e+00 2.136340620787819944e+00
2.765214629843831062e+01 8.489097263664007187e+00 2.025439741881569944e+00
1.329142852500081062e+01 5.463706638664007187e+00 -2.180294963996800561e-01
1.378581329062581062e+01 5.696616794914007187e+00 -2.176480266731175561e-01
1.350676055625081062e+01 5.758140232414007187e+00 -2.132840130012425561e-01
1.334282012656331062e+01 5.843101169914007187e+00 -2.095913860481175561e-01
1.423075957968831062e+01 6.195274021476507187e+00 -2.109494182746800561e-01
1.424650665000081062e+01 6.333457615226507187e+00 -2.079586956184300561e-01
1.410478301718831062e+01 6.429282810539007187e+00 -2.042660686653050561e-01
1.430595489218831062e+01 6.621421482414007187e+00 -2.023282024543675561e-01
1.378447051718831062e+01 5.568198826164007187e+00 -1.637082073371800561e-01
1.379863067343831062e+01 5.698081638664007187e+00 -1.606717083137425561e-01
1.355790801718831062e+01 5.768760349601507187e+00 -1.572079631965550561e-01
1.339396758750081062e+01 5.854331638664007187e+00 -1.541409465949925561e-01
1.457304473593831062e+01 6.281821873039007187e+00 -1.511197063606175561e-01
1.415727325156331062e+01 6.308066990226507187e+00 -1.479306194465550561e-01
1.435441680625081062e+01 6.497275974601507187e+00 -1.449246380012425561e-01
1.451591582968831062e+01 6.680625583976507187e+00 -1.415219280403050561e-01
1.423979278281331062e+01 5.664512302726507187e+00 -1.048703167121800561e-01
1.395146270468831062e+01 5.731040623039007187e+00 -1.027188274543675561e-01
1.374845977500081062e+01 5.812217380851507187e+00 -1.003384563606175561e-01
1.476689239218831062e+01 6.191001560539007187e+00 -9.254121514968005613e-02
1.407841582968831062e+01 6.153159763664007187e+00 -9.232759210280505613e-02
1.429081817343831062e+01 6.342368748039007187e+00 -8.793306085280505613e-02
1.415983672812581062e+01 6.441611912101507187e+00 -8.521699639968005613e-02
1.427983184531331062e+01 6.610923435539007187e+00 -8.117341729811755613e-02
1.449162383750081062e+01 5.717002537101507187e+00 -4.377412530593005613e-02
1.445622344687581062e+01 5.843101169914007187e+00 -4.023408624343005613e-02
1.380131622031331062e+01 5.823203708976507187e+00 -4.258393975905505613e-02
9.930100400000810623e+00 4.998740818351507187e+00 -7.494783136061755613e-02
1.000261016562581062e+01 5.105186130851507187e+00 -7.195710870436755613e-02
1.007695098593831062e+01 5.214072849601507187e+00 -6.889009210280505613e-02
1.015324493125081062e+01 5.325889255851507187e+00 -6.574678155593005613e-02
1.023124786093831062e+01 5.440024998039007187e+00 -6.275605889968005613e-02
9.670090634375810623e+00 4.680869724601507187e+00 -4.636811944655505613e-02
9.736985165625810623e+00 4.779746677726507187e+00 -4.317903253249255613e-02
9.805466610938310623e+00 4.880820896476507187e+00 -3.992891046218005613e-02
9.875657040625810623e+00 4.984336521476507187e+00 -3.658723565749255613e-02
9.947190243750810623e+00 5.090049412101507187e+00 -3.318452569655505613e-02
1.002043243125081062e+01 5.197959568351507187e+00 -2.969026300124255613e-02
1.009550567343831062e+01 5.308799412101507187e+00 -2.611970636061755613e-02
1.017204375937581062e+01 5.421958591789007187e+00 -2.247285577468005613e-02
9.619431454688310623e+00 4.669028904289007187e+00 -9.640214173117556129e-03
9.685105282813310623e+00 4.767051365226507187e+00 -5.886552063742556129e-03
9.752610165625810623e+00 4.867271091789007187e+00 -2.239701477805056129e-03
9.828782040625810623e+00 4.971885349601507187e+00 1.620772155007443871e-03
9.906540829688310623e+00 5.078574802726507187e+00 5.572798522194943871e-03
9.986130673438310623e+00 5.187827732414007187e+00 9.616377623757443871e-03
1.006803985312581062e+01 5.300254490226507187e+00 1.378202703781994387e-02
1.015141387656331062e+01 5.415000583976507187e+00 1.781034735031994387e-02
9.647995907813310623e+00 4.674155857414007187e+00 2.859831121750744387e-02
9.721360165625810623e+00 4.774131443351507187e+00 3.274870184250744387e-02
9.796433407813310623e+00 4.876670505851507187e+00 3.699064520188244387e-02
9.873581845313310623e+00 4.981895115226507187e+00 4.135465887375744387e-02
9.952317196875810623e+00 5.089316990226507187e+00 4.579496649094494387e-02
1.003288360312581062e+01 5.199302341789007187e+00 5.035734442063244387e-02
1.011589141562581062e+01 5.312583591789007187e+00 5.504179266281994387e-02
1.020060821250081062e+01 5.428184177726507187e+00 5.983305242844494387e-02
9.690476376563310623e+00 4.682212498039007187e+00 6.729460028000744387e-02
9.764695126563310623e+00 4.782920505851507187e+00 7.191801336594494387e-02
9.833054501563310623e+00 4.884238865226507187e+00 7.664823797531994387e-02
9.902512509375810623e+00 4.987998630851507187e+00 8.127165106125744387e-02
9.973313290625810623e+00 5.093711521476507187e+00 8.597135809250744387e-02
1.004570098593831062e+01 5.201743748039007187e+00 9.079313543625744387e-02
1.012028594687581062e+01 5.312705662101507187e+00 9.552336004563244387e-02
1.019596954062581062e+01 5.425864841789007187e+00 1.005435016471949439e-01
9.656784970313310623e+00 4.673911716789007187e+00 1.041750934440699439e-01
9.722214657813310623e+00 4.772422458976507187e+00 1.089510944206324439e-01
9.789231259375810623e+00 4.872886326164007187e+00 1.138339069206324439e-01
9.857834775000810623e+00 4.976035740226507187e+00 1.188387897331324439e-01
9.927781064063310623e+00 5.081016208976507187e+00 1.239352252800074439e-01
9.999314267188310623e+00 5.188316013664007187e+00 1.291537311393824439e-01
1.007267852500081062e+01 5.298545505851507187e+00 1.344943073112574439e-01
1.014750762656331062e+01 5.410850193351507187e+00 1.399416950065699439e-01
9.614914853125810623e+00 4.664024021476507187e+00 1.402621295768824439e-01
9.679734189063310623e+00 4.761802341789007187e+00 1.454043414909449439e-01
9.753464657813310623e+00 4.863486912101507187e+00 1.509280231315699439e-01
9.833054501563310623e+00 4.968955662101507187e+00 1.567568805534449439e-01
9.914231259375810623e+00 5.076499607414007187e+00 1.626925494987574439e-01
9.997483212500810623e+00 5.186851169914007187e+00 1.687960651237574439e-01
1.008317657187581062e+01 5.300498630851507187e+00 1.750674274284449439e-01
1.017070098593831062e+01 5.416587498039007187e+00 1.814761188346949439e-01
9.652878720313310623e+00 4.671104099601507187e+00 1.794466998893824439e-01
9.729538876563310623e+00 4.771934177726507187e+00 1.854891803581324439e-01
9.808030087500810623e+00 4.875327732414007187e+00 1.916842487175074439e-01
9.888718564063310623e+00 4.981528904289007187e+00 1.980471637565699439e-01
9.971238095313310623e+00 5.090171482414007187e+00 2.045626666862574439e-01
1.005571075156331062e+01 5.201377537101507187e+00 2.112307575065699439e-01
1.014274688437581062e+01 5.316001560539007187e+00 2.180972125846949439e-01
1.023185821250081062e+01 5.433189060539007187e+00 2.251162555534449439e-01
9.705368954688310623e+00 4.681358005851507187e+00 2.194857623893824439e-01
1.574882598593831062e+01 6.120078708976507187e+00 5.024905231315699439e-01
1.553801055625081062e+01 6.218589451164007187e+00 4.978518512565699439e-01
1.542875762656331062e+01 6.338950779289007187e+00 4.978976276237574439e-01
1.489640899375081062e+01 6.348960544914007187e+00 4.777865436393824439e-01
1.479057403281331062e+01 6.461875583976507187e+00 4.776949909050074439e-01
1.553483672812581062e+01 6.809531833976507187e+00 5.185427692253199439e-01
3.587504668906331062e+01 1.281551327928900719e+01 1.512073042662819944e+00
1.524308868125081062e+01 5.862998630851507187e+00 5.382571246940699439e-01
2.682792754843831062e+01 8.599937107414007187e+00 1.135043623717507444e+00
1.550541778281331062e+01 6.209312107414007187e+00 5.617556598503199439e-01
1.539457793906331062e+01 6.328818943351507187e+00 5.613436725456324439e-01
1.489067168906331062e+01 6.345908787101507187e+00 5.403475787956324439e-01
1.478483672812581062e+01 6.458823826164007187e+00 5.399050739128199439e-01
3.617521758750081062e+01 1.252632870897650719e+01 1.678988936217507444e+00
3.585392852500081062e+01 1.280550351366400719e+01 1.675357344420632444e+00
1.538908477500081062e+01 5.892417576164007187e+00 6.102175739128199439e-01
1.564555450156331062e+01 6.093345310539007187e+00 6.299014118034449439e-01
3.280033965781331062e+01 1.026082577928900719e+01 1.598941328795632444e+00
2.756315704062581062e+01 9.307822849601507187e+00 1.315066817076882444e+00
2.748283477500081062e+01 9.562095310539007187e+00 1.320788862975319944e+00
8.194230743125081062e+01 2.433419003710150719e+01 4.454883101256569944e+00
3.595451446250081062e+01 1.246114316210150719e+01 1.830844404967507444e+00
3.587370391562581062e+01 1.280721249803900719e+01 1.839984419615944944e+00
1.529411407187581062e+01 5.870444919914007187e+00 6.694369342643824439e-01
2.668351836875081062e+01 8.561362888664007187e+00 1.363437178405007444e+00
3.280278106406331062e+01 1.025765195116400719e+01 1.746158125670632444e+00
9.238432403281331062e+01 2.517439999803900719e+01 5.410892012389382444e+00
8.292033477500081062e+01 2.371895566210150719e+01 4.864047529967507444e+00
8.321012969687581062e+01 2.466194882616400719e+01 4.915469649108132444e+00
3.617863555625081062e+01 1.251912656053900719e+01 2.008456709655007444e+00
3.578715606406331062e+01 1.277828183397650719e+01 1.999042036803444944e+00
1.523002715781331062e+01 5.855064060539007187e+00 7.294344928581324439e-01
2.763163848593831062e+01 8.770225193351507187e+00 1.543841841490944944e+00
2.685478301718831062e+01 8.861289646476507187e+00 1.503695967467507444e+00
8.442253204062581062e+01 2.321504941210150719e+01 5.316730025084694944e+00
8.390446563437581062e+01 2.396028866991400719e+01 5.317157271178444944e+00
8.393803497031331062e+01 2.484578671678900719e+01 5.354220869811257444e+00
3.620073028281331062e+01 1.252120175585150719e+01 2.175540449889382444e+00
3.583122344687581062e+01 1.278694882616400719e+01 2.165286543639382444e+00
1.526542754843831062e+01 5.860923435539007187e+00 7.961154010612574439e-01
2.682927032187581062e+01 8.587730076164007187e+00 1.610171797545632444e+00
3.280754180625081062e+01 1.025106015428900719e+01 2.041568281920632444e+00
3.287187286093831062e+01 1.059676327928900719e+01 2.059588911803444944e+00
8.407133575156331062e+01 2.487142148241400719e+01 5.755328657897194944e+00
3.608549590781331062e+01 1.248519101366400719e+01 2.332095625670632444e+00
3.567936797812581062e+01 1.273934140428900719e+01 2.318652632506569944e+00
2.782316680625081062e+01 8.533042576164007187e+00 1.792224409850319944e+00
2.701042266562581062e+01 8.625083591789007187e+00 1.743030073912819944e+00
3.281047149375081062e+01 1.024788632616400719e+01 2.189807417662819944e+00
8.359159942343831062e+01 2.473409238085150719e+01 6.113070967467507444e+00
3.586674590781331062e+01 1.278914609178900719e+01 2.495990278990944944e+00
2.687260528281331062e+01 8.327476169914007187e+00 1.840945723326882444e+00
2.925444122031331062e+01 9.122886326164007187e+00 2.041415694030007444e+00
3.281376739218831062e+01 1.024483456835150719e+01 2.337359907897194944e+00
3.613578887656331062e+01 1.249092831835150719e+01 2.666751387389382444e+00
3.587236114218831062e+01 1.278682675585150719e+01 2.661120894225319944e+00
2.765104766562581062e+01 8.489829685539007187e+00 2.025393965514382444e+00
2.905278106406331062e+01 9.074424412101507187e+00 2.154651167662819944e+00
2.938493438437581062e+01 9.439902927726507187e+00 2.195483687194069944e+00
3.336991973593831062e+01 1.070687070116400719e+01 2.547381880553444944e+00
3.572917266562581062e+01 1.274166074022650719e+01 2.813418867858132444e+00
1.430558868125081062e+01 6.621787693351507187e+00 -2.023129436653050561e-01
1.391594024375081062e+01 6.641807224601507187e+00 -1.977963421028050561e-01
1.412761016562581062e+01 6.841148044914007187e+00 -1.958737346809300561e-01
1.441703887656331062e+01 7.071494724601507187e+00 -1.941037151496800561e-01
1.071171661093831062e+01 5.978721287101507187e+00 -1.797757122199925561e-01
1.430400176718831062e+01 7.315269138664007187e+00 -1.881375286262425561e-01
1.418205352500081062e+01 7.413779880851507187e+00 -1.849789592903050561e-01
1.452934356406331062e+01 7.682090427726507187e+00 -1.833462688606175561e-01
1.451420684531331062e+01 6.680625583976507187e+00 -1.415066692512425561e-01
1.381816192343831062e+01 6.611045505851507187e+00 -1.392331096809300561e-01
1.444792266562581062e+01 6.939292576164007187e+00 -1.352963421028050561e-01
1.401200957968831062e+01 6.939780857414007187e+00 -1.329464885871800561e-01
1.071232696250081062e+01 5.977988865226507187e+00 -1.357693645637425561e-01
1.428032012656331062e+01 7.305625583976507187e+00 -1.265530559699925561e-01
1.432780547812581062e+01 7.464194919914007187e+00 -1.237606975715550561e-01
1.447367950156331062e+01 7.660239841789007187e+00 -1.203579876106175561e-01
1.427958770468831062e+01 6.611289646476507187e+00 -8.115815850905505613e-02
1.421733184531331062e+01 6.729331638664007187e+00 -7.841157647780505613e-02
1.408842559531331062e+01 6.826133396476507187e+00 -7.606172296218005613e-02
1.425114532187581062e+01 7.015342380851507187e+00 -7.191133233718005613e-02
1.071281524375081062e+01 5.977134373039007187e+00 -9.196138116530505613e-02
1.068156524375081062e+01 6.067100193351507187e+00 -8.988618585280505613e-02
1.413176055625081062e+01 7.393272068351507187e+00 -6.316804620436755613e-02
1.449357696250081062e+01 7.666221287101507187e+00 -5.732392999343005613e-02
1.023198028281331062e+01 5.440513279289007187e+00 -6.274080011061755613e-02
1.031157012656331062e+01 5.557334568351507187e+00 -5.942964288405505613e-02
1.039360137656331062e+01 5.677085544914007187e+00 -5.624055596999255613e-02
1.047795196250081062e+01 5.800498630851507187e+00 -5.297517511061755613e-02
1.056425567343831062e+01 5.926719333976507187e+00 -4.961824151686755613e-02
1.065287872031331062e+01 6.056235935539007187e+00 -4.618501397780505613e-02
1.077897735312581062e+01 6.201987888664007187e+00 -4.223298761061755613e-02
1.091398711875081062e+01 6.354209568351507187e+00 -3.832673761061755613e-02
1.017265411093831062e+01 5.422446873039007187e+00 -2.245759698561755613e-02
1.025138946250081062e+01 5.538291599601507187e+00 -1.887178155593005613e-02
1.033207793906331062e+01 5.657066013664007187e+00 -1.520967218093005613e-02
1.041508575156331062e+01 5.779258396476507187e+00 -1.142549249343005613e-02
1.049992461875081062e+01 5.904380466789007187e+00 -7.565018860617556129e-03
1.058708282187581062e+01 6.032554294914007187e+00 -3.597733704367556129e-03
1.067680450156331062e+01 6.164756443351507187e+00 4.763629753199438710e-04
1.082829375937581062e+01 6.321860935539007187e+00 5.679610045632443871e-03
1.015214629843831062e+01 5.415488865226507187e+00 1.782560613938244387e-02
1.023808379843831062e+01 5.533286716789007187e+00 2.228117254563244387e-02
1.032609649375081062e+01 5.654258396476507187e+00 2.661466863938244387e-02
1.041679473593831062e+01 5.778892185539007187e+00 3.108549383469494387e-02
1.050969024375081062e+01 5.906577732414007187e+00 3.567838934250744387e-02
1.060527129843831062e+01 6.037925388664007187e+00 4.039335516281994387e-02
1.073283477500081062e+01 6.183677341789007187e+00 4.588651922531994387e-02
1.088066192343831062e+01 6.340049412101507187e+00 5.166960028000744387e-02
1.020134063437581062e+01 5.428672458976507187e+00 5.986357000656994387e-02
1.028813262656331062e+01 5.547324802726507187e+00 6.467008856125744387e-02
1.037736602500081062e+01 5.669150974601507187e+00 6.961393621750744387e-02
1.046940704062581062e+01 5.794761326164007187e+00 7.471037176438244387e-02
1.056364532187581062e+01 5.923545505851507187e+00 7.994413641281994387e-02
1.065983672812581062e+01 6.055625583976507187e+00 8.528471258469494387e-02
1.078447051718831062e+01 6.201011326164007187e+00 9.147978094406994387e-02
1.091642852500081062e+01 6.352134373039007187e+00 9.796476629563244387e-02
1.019657989218831062e+01 5.426353123039007187e+00 1.005740192253199439e-01
1.027421661093831062e+01 5.542075779289007187e+00 1.056704547721949439e-01
1.035356231406331062e+01 5.660728123039007187e+00 1.110873248893824439e-01
1.043547149375081062e+01 5.782920505851507187e+00 1.164584186393824439e-01
1.051921172812581062e+01 5.907798435539007187e+00 1.219363239128199439e-01
1.060502715781331062e+01 6.035850193351507187e+00 1.275668170768824439e-01
1.071623321250081062e+01 6.175864841789007187e+00 1.338381793815699439e-01
1.084611602500081062e+01 6.325400974601507187e+00 1.410250690300074439e-01
1.014799590781331062e+01 5.411338474601507187e+00 1.399722125846949439e-01
1.022465606406331062e+01 5.526328708976507187e+00 1.455111530143824439e-01
1.030314727500081062e+01 5.644126560539007187e+00 1.512026813346949439e-01
1.038469024375081062e+01 5.765586521476507187e+00 1.570620563346949439e-01
1.048088165000081062e+01 5.894004490226507187e+00 1.635165241081324439e-01
1.057988067343831062e+01 6.026206638664007187e+00 1.701540973503199439e-01
1.068205352500081062e+01 6.162681248039007187e+00 1.770205524284449439e-01
1.086088653281331062e+01 6.329795505851507187e+00 1.867709186393824439e-01
1.017143340781331062e+01 5.417075779289007187e+00 1.815066364128199439e-01
1.026139922812581062e+01 5.536338474601507187e+00 1.880831744987574439e-01
1.035380645468831062e+01 5.658897068351507187e+00 1.948428180534449439e-01
1.044926543906331062e+01 5.785361912101507187e+00 2.018160846550074439e-01
1.054704375937581062e+01 5.915000583976507187e+00 2.089571979362574439e-01
1.064775176718831062e+01 6.048545505851507187e+00 2.163119342643824439e-01
1.079350372031331062e+01 6.201133396476507187e+00 2.256350543815699439e-01
1.095146270468831062e+01 6.362022068351507187e+00 2.355837848503199439e-01
1.023246856406331062e+01 5.433677341789007187e+00 2.251620319206324439e-01
6.613090606406331062e+01 2.223458066210150719e+01 2.698138716490944944e+00
6.533183379843831062e+01 2.268929257616400719e+01 2.686587813170632444e+00
1.491142364218831062e+01 7.215781833976507187e+00 4.450259235221949439e-01
1.484172149375081062e+01 7.339072849601507187e+00 4.468874957878199439e-01
7.504435821250081062e+01 2.813021054491400719e+01 3.202655318053444944e+00
7.520024200156331062e+01 2.900862851366400719e+01 3.238040449889382444e+00
2.054411407187581062e+01 9.865928318351507187e+00 7.270083453971949439e-01
3.587614532187581062e+01 1.281710019335150719e+01 1.512164595397194944e+00
6.765544219687581062e+01 2.268270077928900719e+01 3.081744673522194944e+00
6.694181915000081062e+01 2.318062558397650719e+01 3.072177412780007444e+00
7.946379180625081062e+01 2.791426816210150719e+01 3.720828535826882444e+00
7.744548125937581062e+01 2.810347714647650719e+01 3.650256636412819944e+00
7.584330840781331062e+01 2.839595761522650719e+01 3.599307539733132444e+00
7.510673614218831062e+01 2.896749081835150719e+01 3.591479780944069944e+00
2.052226348593831062e+01 9.855918552726507187e+00 8.182711627800074439e-01
3.584990020468831062e+01 1.280550351366400719e+01 1.675189497740944944e+00
7.400358672812581062e+01 2.457100644335150719e+01 3.741244795592507444e+00
7.973210235312581062e+01 2.713252988085150719e+01 4.078952315123757444e+00
7.910270782187581062e+01 2.778975644335150719e+01 4.076480391295632444e+00
7.599223418906331062e+01 2.761312070116400719e+01 3.937167647155007444e+00
