8.452610954642295837e+00 3.324593160301446915e+00 2.508997589815464835e-01
8.193625353276729584e+01 7.620735738426446915e+00 4.670073953317483983e+00
8.654026970267295837e+00 3.475105855613946915e+00 2.678064972627964835e-01
8.538304314017295837e+00 3.536751363426446915e+00 2.631983429659214835e-01
8.593602165579795837e+00 3.611214254051446915e+00 2.689814240206089835e-01
8.781834587454795837e+00 3.699715230613946915e+00 2.831568390596714835e-01
2.656161974370479584e+01 3.683357808738946915e+00 1.431090799020608983e+00
8.846409782767295837e+00 3.270027730613946915e+00 3.053431183565464835e-01
8.409275993704795837e+00 3.321541402488946915e+00 2.797083527315464835e-01
8.930331896245479584e+01 8.032112691551446915e+00 5.518599954294046483e+00
8.656834587454795837e+00 3.474373433738946915e+00 3.005518585909214835e-01
8.626439079642295837e+00 3.542488668113946915e+00 3.010248810518589835e-01
8.596287712454795837e+00 3.610481832176446915e+00 3.014979035127964835e-01
2.194601915776729584e+01 4.982796285301446915e+00 1.186767068551858983e+00
2.710422228276729584e+01 3.694466207176446915e+00 1.583373513864358983e+00
8.852147087454795837e+00 3.269295308738946915e+00 3.391413361299839835e-01
2.854514025151729584e+01 4.271248433738946915e+00 1.700011697458108983e+00
2.995187853276729584e+01 4.621956441551446915e+00 1.807021585153421483e+00
8.659520134329795837e+00 3.473518941551446915e+00 3.331598908174839835e-01
8.629124626517295837e+00 3.541756246238946915e+00 3.335108429659214835e-01
8.571751579642295837e+00 3.607430074363946915e+00 3.321222931612339835e-01
2.190512560307979584e+01 4.976082418113946915e+00 1.278212991403421483e+00
2.790671251714229584e+01 3.712532613426446915e+00 1.759643045114358983e+00
8.662449821829795837e+00 3.261116597801446915e+00 3.585047394502964835e-01
8.821263298392295837e+00 3.338997457176446915e+00 3.726801544893589835e-01
8.785496696829795837e+00 3.409187886863946915e+00 3.726038605440464835e-01
9.951804064214229584e+01 9.570686910301446915e+00 7.118453469919046483e+00
2.736215685307979584e+01 4.985970113426446915e+00 1.764907327340921483e+00
2.760434435307979584e+01 5.266365621238946915e+00 1.792266336129983983e+00
2.162619493901729584e+01 4.946053121238946915e+00 1.351333108590921483e+00
7.719944939017295837e+00 3.609627339988946915e+00 -2.329564421903285165e-01
7.940037712454795837e+00 3.695076558738946915e+00 -2.338109343778285165e-01
8.248143181204795837e+00 3.795784566551446915e+00 -2.357488005887660165e-01
8.663426384329795837e+00 3.917122457176446915e+00 -2.387395232450160165e-01
8.161351189017295837e+00 3.917976949363946915e+00 -2.311711638700160165e-01
8.681492790579795837e+00 4.062752339988946915e+00 -2.351231902372035165e-01
9.319066032767295837e+00 4.237312886863946915e+00 -2.400212615262660165e-01
8.769627556204795837e+00 4.222054097801446915e+00 -2.323613494168910165e-01
8.333836540579795837e+00 3.670052144676446915e+00 -2.095189421903285165e-01
8.624241814017295837e+00 3.769417379051446915e+00 -2.098546355497035165e-01
8.266575798392295837e+00 3.797127339988946915e+00 -2.051701873075160165e-01
8.641697868704795837e+00 3.913338277488946915e+00 -2.059178679715785165e-01
8.083836540579795837e+00 3.906258199363946915e+00 -2.002721160184535165e-01
8.268650993704795837e+00 3.999764058738946915e+00 -1.996465056668910165e-01
8.667088493704795837e+00 4.131722066551446915e+00 -2.003789275418910165e-01
8.680516228079795837e+00 4.205940816551446915e+00 -1.984868376981410165e-01
8.483006462454795837e+00 3.683968160301446915e+00 -1.789555876981410165e-01
1.266537950932979584e+01 4.211800191551446915e+00 -1.889500945340785165e-01
8.611546501517295837e+00 3.837532613426446915e+00 -1.754308074247035165e-01
8.620213493704795837e+00 3.909554097801446915e+00 -1.734624236356410165e-01
8.899876579642295837e+00 4.019661519676446915e+00 -1.720280974637660165e-01
8.768040642142295837e+00 4.073860738426446915e+00 -1.697392791043910165e-01
8.728856071829795837e+00 4.140633199363946915e+00 -1.676335662137660165e-01
8.686619743704795837e+00 4.206062886863946915e+00 -1.655583709012660165e-01
8.466649040579795837e+00 3.681404683738946915e+00 -1.474309294950160165e-01
8.917698845267295837e+00 3.799690816551446915e+00 -1.444859832059535165e-01
8.577855095267295837e+00 3.832527730613946915e+00 -1.430821746122035165e-01
7.909764274954795837e+00 3.816414449363946915e+00 -1.426396697293910165e-01
8.911961540579795837e+00 4.020393941551446915e+00 -1.381688445340785165e-01
8.781956657767295837e+00 4.074959371238946915e+00 -1.364293425809535165e-01
8.738621696829795837e+00 4.141365621238946915e+00 -1.344762175809535165e-01
8.646092399954795837e+00 4.198250386863946915e+00 -1.328893035184535165e-01
8.523777946829795837e+00 3.686165425926446915e+00 -1.154179900418910165e-01
8.552342399954795837e+00 3.758675191551446915e+00 -1.132054656278285165e-01
8.661717399954795837e+00 3.841683004051446915e+00 -1.104436248075160165e-01
8.569432243704795837e+00 3.901131246238946915e+00 -1.089940398465785165e-01
8.924046501517295837e+00 4.021126363426446915e+00 -1.043553679715785165e-01
8.778416618704795837e+00 4.073494527488946915e+00 -1.032872527372035165e-01
8.748387321829795837e+00 4.141975972801446915e+00 -1.013951628934535165e-01
8.709568962454795837e+00 4.208138082176446915e+00 -9.957936699501601652e-02
8.469090446829795837e+00 3.679695699363946915e+00 -8.424428398720351652e-02
8.525609001517295837e+00 3.754768941551446915e+00 -8.139089043251601652e-02
8.576634392142295837e+00 3.830574605613946915e+00 -7.873586113564101652e-02
8.628758415579795837e+00 3.907845113426446915e+00 -7.603505547157851652e-02
8.681614860892295837e+00 3.986336324363946915e+00 -7.328847344032851652e-02
8.735447868704795837e+00 4.066170308738946915e+00 -7.048085625282851652e-02
8.790501579642295837e+00 4.147713277488946915e+00 -6.762746269814101652e-02
8.846531853079795837e+00 4.230599019676446915e+00 -6.489613945595351652e-02
8.432957634329795837e+00 3.675179097801446915e+00 -5.311635429970351652e-02
8.485936149954795837e+00 3.749519918113946915e+00 -5.020192558876601652e-02
8.536351189017295837e+00 3.824837300926446915e+00 -4.728749687782851652e-02
8.587864860892295837e+00 3.901619527488946915e+00 -4.431203301064101652e-02
8.640110954642295837e+00 3.979622457176446915e+00 -4.129079277626601652e-02
8.693211540579795837e+00 4.058846089988946915e+00 -3.822377617470351652e-02
8.747532829642295837e+00 4.139900777488946915e+00 -3.509572441689101652e-02
8.802708610892295837e+00 4.222176168113946915e+00 -3.190663750282851652e-02
8.420628532767295837e+00 3.673103902488946915e+00 -2.198842461220351652e-02
8.462864860892295837e+00 3.746101949363946915e+00 -1.901296074501601652e-02
8.534031853079795837e+00 3.823616597801446915e+00 -1.524403984657851652e-02
8.591038689017295837e+00 3.901131246238946915e+00 -1.187184746376601652e-02
8.648900017142295837e+00 3.979866597801446915e+00 -8.453878713766016517e-03
8.707859978079795837e+00 4.060188863426446915e+00 -4.959616018453516517e-03
8.768162712454795837e+00 4.142342183738946915e+00 -1.572164846578516517e-03
8.829442009329795837e+00 4.225838277488946915e+00 2.059426950296483483e-03
8.433079704642295837e+00 3.673348043113946915e+00 9.795633004983983483e-03
8.511082634329795837e+00 3.750374410301446915e+00 1.390024726279648348e-02
8.567357048392295837e+00 3.826546285301446915e+00 1.751658027060898348e-02
8.624974235892295837e+00 3.904549214988946915e+00 2.122446601279648348e-02
8.683445915579795837e+00 3.983772847801446915e+00 2.497812812217148348e-02
8.743138298392295837e+00 4.064461324363946915e+00 2.882334296592148348e-02
8.804173454642295837e+00 4.147102925926446915e+00 3.274485175498398348e-02
8.866185173392295837e+00 4.231087300926446915e+00 3.672739570029648348e-02
8.446995720267295837e+00 3.673836324363946915e+00 4.157969062217148348e-02
8.535862907767295837e+00 3.752205464988946915e+00 4.641672675498398348e-02
8.586277946829795837e+00 3.827889058738946915e+00 5.017038886435898348e-02
8.637791618704795837e+00 3.905281636863946915e+00 5.400034491904648348e-02
8.689915642142295837e+00 3.983650777488946915e+00 5.789133612998398348e-02
8.743016228079795837e+00 4.063484761863946915e+00 6.184336249717148348e-02
8.797215446829795837e+00 4.145027730613946915e+00 6.588694159873398348e-02
8.852269157767295837e+00 4.227791402488946915e+00 6.997629706748398348e-02
8.432347282767295837e+00 3.671394918113946915e+00 7.269236152060898348e-02
8.502903923392295837e+00 3.747688863426446915e+00 7.736155097373398348e-02
8.552830681204795837e+00 3.823006246238946915e+00 8.135935370810898348e-02
8.603734001517295837e+00 3.899910543113946915e+00 8.544870917685898348e-02
8.655369743704795837e+00 3.977913472801446915e+00 8.959909980185898348e-02
8.707859978079795837e+00 4.057381246238946915e+00 9.381052558310898348e-02
8.761448845267295837e+00 4.138435933738946915e+00 9.811350409873398348e-02
8.815892204642295837e+00 4.220711324363946915e+00 1.024927765596714835e-01
8.420140251517295837e+00 3.669319722801446915e+00 1.036219269502964835e-01
8.457859978079795837e+00 3.741829488426446915e+00 1.073755890596714835e-01
8.519749626517295837e+00 3.818123433738946915e+00 1.121058136690464835e-01
8.570164665579795837e+00 3.894661519676446915e+00 1.164393097627964835e-01
8.624608024954795837e+00 3.972786519676446915e+00 1.209711701143589835e-01
8.685643181204795837e+00 4.053108785301446915e+00 1.258082062471714835e-01
8.748265251517295837e+00 4.135384175926446915e+00 1.307520539034214835e-01
8.811863884329795837e+00 4.219124410301446915e+00 1.357874542940464835e-01
8.428318962454795837e+00 3.669197652488946915e+00 1.354822785127964835e-01
8.488621696829795837e+00 3.744148824363946915e+00 1.404413849581089835e-01
8.546727165579795837e+00 3.820442769676446915e+00 1.451716095674839835e-01
8.606419548392295837e+00 3.898445699363946915e+00 1.501917511690464835e-01
8.667088493704795837e+00 3.977669332176446915e+00 1.553034455049839835e-01
8.728978142142295837e+00 4.058601949363946915e+00 1.605219513643589835e-01
8.792576774954795837e+00 4.141487691551446915e+00 1.660608917940464835e-01
8.857029899954795837e+00 4.225838277488946915e+00 1.714930207002964835e-01
8.464940056204795837e+00 3.671761129051446915e+00 1.686091095674839835e-01
8.529271110892295837e+00 3.747688863426446915e+00 1.741022736299839835e-01
8.588353142142295837e+00 3.824349019676446915e+00 1.793665558565464835e-01
8.648777946829795837e+00 3.902962300926446915e+00 1.847834259737339835e-01
8.710301384329795837e+00 3.982796285301446915e+00 1.902765900362339835e-01
1.407761095464229584e+01 4.853401754051446915e+00 4.578852326143589835e-01
1.472324083745479584e+01 5.083504293113946915e+00 4.944300324190464835e-01
1.463364122807979584e+01 5.202400777488946915e+00 4.945978790987339835e-01
2.193625353276729584e+01 4.990974996238946915e+00 9.044642121065464835e-01
2.184384630620479584e+01 5.185433004051446915e+00 9.063410431612339835e-01
2.665793322026729584e+01 5.958382222801446915e+00 1.168487039254983983e+00
1.392258165776729584e+01 4.578621480613946915e+00 4.984888703096714835e-01
2.737851427495479584e+01 6.566536519676446915e+00 1.225142923044046483e+00
1.408090685307979584e+01 4.852181050926446915e+00 5.158991486299839835e-01
1.467978380620479584e+01 5.074959371238946915e+00 5.529780060518589835e-01
1.458981798589229584e+01 5.193367574363946915e+00 5.531000763643589835e-01
2.193906114995479584e+01 4.988411519676446915e+00 9.983210236299839835e-01
2.190793322026729584e+01 5.189583394676446915e+00 1.003905740426858983e+00
2.659909532964229584e+01 5.948128316551446915e+00 1.281508889840921483e+00
2.793015001714229584e+01 6.372444722801446915e+00 1.367812600778421483e+00
1.494540880620479584e+01 4.843391988426446915e+00 6.199335724581089835e-01
1.787045763432979584e+01 5.413338277488946915e+00 7.965235382784214835e-01
1.463730333745479584e+01 5.066536519676446915e+00 6.115259796846714835e-01
1.454636095464229584e+01 5.184334371238946915e+00 6.109156281221714835e-01
8.782811149954795837e+00 3.700081441551446915e+00 2.832178742159214835e-01
2.187387560307979584e+01 5.183235738426446915e+00 1.095519509958108983e+00
2.760214708745479584e+01 6.062996480613946915e+00 1.459487405465921483e+00
2.656552599370479584e+01 6.194099996238946915e+00 1.404250589059671483e+00
2.702805040776729584e+01 6.511238668113946915e+00 1.442641702340921483e+00
1.469125841557979584e+01 4.939461324363946915e+00 6.706080109346714835e-01
1.459531114995479584e+01 5.058113668113946915e+00 6.694025665987339835e-01
1.781259630620479584e+01 5.734139058738946915e+00 8.808741242159214835e-01
2.194467638432979584e+01 4.983406636863946915e+00 1.186706033395608983e+00
2.190561388432979584e+01 5.183846089988946915e+00 1.191726174997171483e+00
2.758615587651729584e+01 6.057503316551446915e+00 1.579284158395608983e+00
2.735666368901729584e+01 6.292000386863946915e+00 1.573668924020608983e+00
2.684640978276729584e+01 6.482796285301446915e+00 1.548873391794046483e+00
1.834933947026729584e+01 5.479988668113946915e+00 9.804834992159214835e-01
1.779611681401729584e+01 5.563606832176446915e+00 9.490198761690464835e-01
1.781003282964229584e+01 5.731575582176446915e+00 9.561304718721714835e-01
2.190524767339229584e+01 4.976692769676446915e+00 1.278228250192483983e+00
2.186288927495479584e+01 5.176521871238946915e+00 1.282958474801858983e+00
2.201620958745479584e+01 5.398933980613946915e+00 1.301162210153421483e+00
2.782175157964229584e+01 6.347908589988946915e+00 1.726378884958108983e+00
2.677792833745479584e+01 6.469978902488946915e+00 1.660994973825296483e+00
2.669138048589229584e+01 6.713265035301446915e+00 1.664397683786233983e+00
1.779745958745479584e+01 5.561775777488946915e+00 1.024795022653421483e+00
1.771274279057979584e+01 5.713020894676446915e+00 1.024840799020608983e+00
2.162460802495479584e+01 4.946663472801446915e+00 1.351226297067483983e+00
2.190329454839229584e+01 5.177986714988946915e+00 1.379607644723733983e+00
2.193381212651729584e+01 5.386482808738946915e+00 1.389815774606546483e+00
2.193771837651729584e+01 5.593391988426446915e+00 1.398040261911233983e+00
2.705710314214229584e+01 6.505135152488946915e+00 1.799895730661233983e+00
1.792258165776729584e+01 5.412483785301446915e+00 1.103408303903421483e+00
1.779929064214229584e+01 5.559944722801446915e+00 1.100249734567483983e+00
1.775534532964229584e+01 5.718147847801446915e+00 1.103591409372171483e+00
8.770115837454795837e+00 4.222420308738946915e+00 -2.323613494168910165e-01
8.845799431204795837e+00 4.309456441551446915e+00 -2.312016814481410165e-01
1.278806017339229584e+01 5.138680074363946915e+00 -2.687077849637660165e-01
1.312900255620479584e+01 5.323372457176446915e+00 -2.692571013700160165e-01
1.265439318120479584e+01 5.342049214988946915e+00 -2.619328826200160165e-01
1.288058947026729584e+01 5.507332418113946915e+00 -2.612920134793910165e-01
1.318161486089229584e+01 5.695808980613946915e+00 -2.611852019559535165e-01
1.374985216557979584e+01 5.955696675926446915e+00 -2.635503142606410165e-01
8.680272087454795837e+00 4.206184957176446915e+00 -1.984868376981410165e-01
1.288498400151729584e+01 5.039925191551446915e+00 -2.200475066434535165e-01
1.273093126714229584e+01 5.126350972801446915e+00 -2.160954802762660165e-01
1.313022325932979584e+01 5.322151754051446915e+00 -2.152562468778285165e-01
1.313181017339229584e+01 5.441902730613946915e+00 -2.123113005887660165e-01
1.292929552495479584e+01 5.516853902488946915e+00 -2.084355681668910165e-01
1.277609728276729584e+01 5.599861714988946915e+00 -2.051396697293910165e-01
1.352560900151729584e+01 5.899666402488946915e+00 -2.052464812528285165e-01
8.687230095267295837e+00 4.206429097801446915e+00 -1.655431121122035165e-01
1.271213243901729584e+01 5.007210347801446915e+00 -1.672368376981410165e-01
1.269760607182979584e+01 5.118538472801446915e+00 -1.643071501981410165e-01
1.266843126714229584e+01 5.227547261863946915e+00 -1.613469451200160165e-01
1.313303087651729584e+01 5.440804097801446915e+00 -1.584477751981410165e-01
1.311801622807979584e+01 5.557381246238946915e+00 -1.553807585965785165e-01
1.282577989995479584e+01 5.610115621238946915e+00 -1.524205535184535165e-01
1.341891954839229584e+01 5.872200582176446915e+00 -1.489720671903285165e-01
8.646580681204795837e+00 4.198616597801446915e+00 -1.328893035184535165e-01
1.269321154057979584e+01 5.002327535301446915e+00 -1.154332488309535165e-01
1.312448595464229584e+01 5.198738668113946915e+00 -1.106572478543910165e-01
1.360959337651729584e+01 5.415779683738946915e+00 -1.053777068387660165e-01
1.313559435307979584e+01 5.439827535301446915e+00 -1.042638152372035165e-01
1.316830919682979584e+01 5.567146871238946915e+00 -1.009221404325160165e-01
1.287595079839229584e+01 5.620369527488946915e+00 -9.921315605751601652e-02
1.370859239995479584e+01 5.941292379051446915e+00 -9.184316094032851652e-02
8.709324821829795837e+00 4.208382222801446915e+00 -9.957936699501601652e-02
8.948948845267295837e+00 4.324349019676446915e+00 -9.555104668251601652e-02
9.008030876517295837e+00 4.411141011863946915e+00 -9.295705254189101652e-02
9.068455681204795837e+00 4.499886129051446915e+00 -9.031728203407851652e-02
9.129857048392295837e+00 4.590340230613946915e+00 -8.761647637001601652e-02
9.192601189017295837e+00 4.682503316551446915e+00 -8.485463554970351652e-02
9.256932243704795837e+00 4.776985738426446915e+00 -8.204701836220351652e-02
9.322361931204795837e+00 4.873177144676446915e+00 -7.916310722939101652e-02
8.847020134329795837e+00 4.230965230613946915e+00 -6.488088066689101652e-02
8.903782829642295837e+00 4.315315816551446915e+00 -6.184438164345351652e-02
8.962010368704795837e+00 4.401375386863946915e+00 -5.894521172157851652e-02
9.021580681204795837e+00 4.489510152488946915e+00 -5.595448906532851652e-02
9.082127556204795837e+00 4.579231832176446915e+00 -5.293324883095351652e-02
9.144017204642295837e+00 4.670784566551446915e+00 -4.983571465126601652e-02
9.207371696829795837e+00 4.764534566551446915e+00 -4.666188652626601652e-02
9.272068962454795837e+00 4.860115621238946915e+00 -4.362538750282851652e-02
8.803074821829795837e+00 4.222542379051446915e+00 -3.189137871376601652e-02
8.859349235892295837e+00 4.306282613426446915e+00 -2.873280937782851652e-02
8.918919548392295837e+00 4.392220113426446915e+00 -2.546742851845351652e-02
8.983738884329795837e+00 4.481087300926446915e+00 -2.204945976845351652e-02
9.049778923392295837e+00 4.571419332176446915e+00 -1.858571465126601652e-02
9.117283806204795837e+00 4.663948629051446915e+00 -1.503041679970351652e-02
9.186497673392295837e+00 4.758797261863946915e+00 -1.136830742470351652e-02
9.257176384329795837e+00 4.855476949363946915e+00 -7.660421682516016517e-03
8.829930290579795837e+00 4.226082418113946915e+00 2.074685739358983483e-03
8.892552360892295837e+00 4.311409566551446915e+00 5.721536325296483483e-03
8.956639274954795837e+00 4.398567769676446915e+00 9.627786325296483483e-03
9.022313103079795837e+00 4.487801168113946915e+00 1.344248359092148348e-02
9.089085564017295837e+00 4.578865621238946915e+00 1.733347480185898348e-02
9.157444939017295837e+00 4.671883199363946915e+00 2.131601874717148348e-02
9.227269157767295837e+00 4.767342183738946915e+00 2.520700995810898348e-02
9.298802360892295837e+00 4.864632222801446915e+00 2.935740058310898348e-02
8.866673454642295837e+00 4.231453511863946915e+00 3.675791327842148348e-02
8.929905876517295837e+00 4.317146871238946915e+00 4.078623359092148348e-02
8.994603142142295837e+00 4.404793355613946915e+00 4.492136542685898348e-02
9.061009392142295837e+00 4.494637105613946915e+00 4.914804999717148348e-02
9.123143181204795837e+00 4.585091207176446915e+00 5.329844062217148348e-02
9.184544548392295837e+00 4.677010152488946915e+00 5.749460761435898348e-02
9.247532829642295837e+00 4.771126363426446915e+00 6.178232734092148348e-02
9.311497673392295837e+00 4.866829488426446915e+00 6.614634101279648348e-02
8.852635368704795837e+00 4.228157613426446915e+00 7.000681464560898348e-02
8.908665642142295837e+00 4.312386129051446915e+00 7.417246405967148348e-02
8.965916618704795837e+00 4.398445699363946915e+00 7.841440741904648348e-02
9.024388298392295837e+00 4.486458394676446915e+00 8.276316230185898348e-02
9.083958610892295837e+00 4.575935933738946915e+00 8.718821112998398348e-02
9.144749626517295837e+00 4.667244527488946915e+00 9.170481269248398348e-02
9.206883415579795837e+00 4.760750386863946915e+00 9.632822577842148348e-02
9.270115837454795837e+00 4.855843160301446915e+00 1.010279328096714835e-01
8.816380485892295837e+00 4.221077535301446915e+00 1.025080353487339835e-01
8.871800407767295837e+00 4.304817769676446915e+00 1.069788605440464835e-01
8.928318962454795837e+00 4.390389058738946915e+00 1.115259796846714835e-01
8.986180290579795837e+00 4.477791402488946915e+00 1.161799103487339835e-01
9.045018181204795837e+00 4.566780660301446915e+00 1.209101349581089835e-01
9.105076774954795837e+00 4.657478902488946915e+00 1.257471710909214835e-01
9.175633415579795837e+00 4.752571675926446915e+00 1.310419708956089835e-01
9.249119743704795837e+00 4.849861714988946915e+00 1.365046173799839835e-01
8.812352165579795837e+00 4.219368550926446915e+00 1.358179718721714835e-01
8.877293571829795837e+00 4.304939839988946915e+00 1.410059601534214835e-01
8.943821892142295837e+00 4.392342183738946915e+00 1.463007599581089835e-01
9.012059196829795837e+00 4.482063863426446915e+00 1.517481476534214835e-01
9.081639274954795837e+00 4.573494527488946915e+00 1.572870880831089835e-01
9.152806267142295837e+00 4.667122457176446915e+00 1.629633576143589835e-01
9.225926384329795837e+00 4.763313863426446915e+00 1.687922150362339835e-01
9.300511345267295837e+00 4.861336324363946915e+00 1.747431427706089835e-01
8.857518181204795837e+00 4.226204488426446915e+00 1.715235382784214835e-01
8.923436149954795837e+00 4.312264058738946915e+00 1.771387726534214835e-01
8.990696892142295837e+00 4.400276754051446915e+00 1.826777130831089835e-01
9.059910759329795837e+00 4.490730855613946915e+00 1.885828644502964835e-01
9.130467399954795837e+00 4.582893941551446915e+00 1.945795685518589835e-01
9.202733024954795837e+00 4.677254293113946915e+00 2.007288605440464835e-01
1.523178575932979584e+01 6.153816793113946915e+00 4.908594757784214835e-01
1.464548204839229584e+01 6.154915425926446915e+00 4.677118927706089835e-01
1.463315294682979584e+01 5.202766988426446915e+00 4.945826203096714835e-01
1.434164904057979584e+01 5.284065816551446915e+00 4.846644074190464835e-01
1.432150743901729584e+01 5.411385152488946915e+00 4.883417755831089835e-01
1.474045275151729584e+01 5.627083394676446915e+00 5.145258576143589835e-01
1.496970079839229584e+01 5.811775777488946915e+00 5.312494904268589835e-01
1.490854357182979584e+01 5.937508199363946915e+00 5.330652863252964835e-01
1.480209825932979584e+01 6.052620504051446915e+00 5.325007111299839835e-01
1.429636095464229584e+01 6.068855855613946915e+00 5.108179718721714835e-01
1.458920763432979584e+01 5.193733785301446915e+00 5.530848175752964835e-01
1.432834337651729584e+01 5.280037496238946915e+00 5.432734162081089835e-01
1.428781603276729584e+01 5.403328511863946915e+00 5.458521515596714835e-01
2.614230822026729584e+01 7.906868550926446915e+00 1.213332620309671483e+00
1.491525743901729584e+01 5.798592183738946915e+00 5.908503205049839835e-01
2.591733263432979584e+01 8.367928121238946915e+00 1.219375100778421483e+00
1.477133654057979584e+01 6.043831441551446915e+00 5.928797394502964835e-01
3.682736681401729584e+01 1.151880702748894691e+01 1.865737405465921483e+00
1.768552111089229584e+01 5.715340230613946915e+00 7.975306183565464835e-01
1.434299181401729584e+01 5.281014058738946915e+00 6.037745148409214835e-01
1.446957872807979584e+01 5.436165425926446915e+00 6.163324982393589835e-01
1.456589220464229584e+01 5.588875386863946915e+00 6.272120148409214835e-01
2.619528673589229584e+01 8.169808004051446915e+00 1.341689553903421483e+00
2.627548693120479584e+01 8.443977925926446915e+00 1.356292215036233983e+00
3.214181993901729584e+01 1.006018886342644691e+01 1.728560891794046483e+00
9.253098009526729584e+01 2.498548183217644691e+01 5.496154275583108983e+00
1.781381700932979584e+01 5.734871480613946915e+00 8.809809357393589835e-01
1.504575060307979584e+01 5.405281636863946915e+00 7.084803253877964835e-01
1.500082872807979584e+01 5.535164449363946915e+00 7.109064728487339835e-01
1.467648790776729584e+01 5.609383199363946915e+00 6.951136261690464835e-01
2.642502306401729584e+01 8.214974019676446915e+00 1.472182717965921483e+00
2.591855333745479584e+01 8.362190816551446915e+00 1.448729959176858983e+00
3.208884142339229584e+01 1.004419765248894691e+01 1.868972268747171483e+00
1.781125353276729584e+01 5.732308004051446915e+00 9.562372833956089835e-01
1.788779161870479584e+01 5.912361714988946915e+00 9.681238800752964835e-01
2.682431505620479584e+01 7.771980855613946915e+00 1.596709695504983983e+00
1.468222521245479584e+01 5.608894918113946915e+00 7.570490509737339835e-01
2.608102892339229584e+01 8.139656636863946915e+00 1.565108743356546483e+00
2.610495470464229584e+01 8.400276754051446915e+00 1.576919046090921483e+00
3.215695665776729584e+01 1.005616054311394691e+01 2.018310037301858983e+00
1.771323107182979584e+01 5.713753316551446915e+00 1.024901834176858983e+00
1.801266954839229584e+01 5.932503316551446915e+00 1.053710427926858983e+00
2.712668322026729584e+01 7.825935933738946915e+00 1.737105813669046483e+00
2.710715197026729584e+01 8.087044332176446915e+00 1.746383157419046483e+00
2.714706896245479584e+01 8.360359761863946915e+00 1.760131326364358983e+00
2.708493517339229584e+01 8.613167379051446915e+00 1.766234841989358983e+00
3.206967638432979584e+01 1.003223476186394691e+01 2.156524148629983983e+00
1.775534532964229584e+01 5.718758199363946915e+00 1.103606668161233983e+00
1.780515001714229584e+01 5.893318746238946915e+00 1.113997903512796483e+00
2.507846544682979584e+01 7.435433004051446915e+00 1.695357766794046483e+00
2.731003282964229584e+01 8.124275777488946915e+00 1.882674661325296483e+00
2.615805529057979584e+01 8.149666402488946915e+00 1.801787820504983983e+00
2.868332384526729584e+01 8.962166402488946915e+00 2.015120950387796483e+00
3.216354845464229584e+01 1.005017909780144691e+01 2.307815042184671483e+00
1.374936388432979584e+01 5.956062886863946915e+00 -2.635350554715785165e-01
1.360727404057979584e+01 6.047981832176446915e+00 -2.593541472684535165e-01
1.349557970464229584e+01 6.145760152488946915e+00 -2.557835906278285165e-01
1.367465685307979584e+01 6.322273824363946915e+00 -2.545934050809535165e-01
1.315866564214229584e+01 6.303963277488946915e+00 -2.478490203153285165e-01
1.333066271245479584e+01 6.479622457176446915e+00 -2.465672820340785165e-01
1.344980333745479584e+01 6.643929097801446915e+00 -2.447972625028285165e-01
1.375180529057979584e+01 6.869392964988946915e+00 -2.445836394559535165e-01
1.378464220464229584e+01 5.963142964988946915e+00 -2.062840789090785165e-01
1.364877794682979584e+01 6.057137105613946915e+00 -2.029424041043910165e-01
1.352048204839229584e+01 6.150887105613946915e+00 -1.993718474637660165e-01
1.368686388432979584e+01 6.324226949363946915e+00 -1.970982878934535165e-01
1.362839220464229584e+01 6.437019918113946915e+00 -1.940617888700160165e-01
1.326511095464229584e+01 6.458748433738946915e+00 -1.901860564481410165e-01
1.348227404057979584e+01 6.652596089988946915e+00 -1.882481902372035165e-01
1.376547716557979584e+01 6.872444722801446915e+00 -1.860661834012660165e-01
1.342001818120479584e+01 5.872933004051446915e+00 -1.489568084012660165e-01
1.389963243901729584e+01 6.119392964988946915e+00 -1.455998748075160165e-01
1.348825548589229584e+01 6.140877339988946915e+00 -1.430669158231410165e-01
1.367441271245479584e+01 6.319344136863946915e+00 -1.398320525418910165e-01
1.361606310307979584e+01 6.432137105613946915e+00 -1.369176238309535165e-01
1.418222521245479584e+01 6.729744527488946915e+00 -1.327824919950160165e-01
1.331491564214229584e+01 6.599739644676446915e+00 -1.315312712918910165e-01
1.393137072026729584e+01 6.923958394676446915e+00 -1.270299285184535165e-01
1.371896837651729584e+01 5.944222066551446915e+00 -9.176686699501601652e-02
1.387802599370479584e+01 6.112434957176446915e+00 -8.741811211220351652e-02
1.394406603276729584e+01 6.260017964988946915e+00 -8.383229668251601652e-02
1.366574572026729584e+01 6.315559957176446915e+00 -8.233693535439101652e-02
1.360373400151729584e+01 6.427132222801446915e+00 -7.955983574501601652e-02
1.396176622807979584e+01 6.662849996238946915e+00 -7.395986015907851652e-02
1.340195177495479584e+01 6.625130269676446915e+00 -7.460072929970351652e-02
1.334482286870479584e+01 6.735603902488946915e+00 -7.215932304970351652e-02
9.322850212454795837e+00 4.873543355613946915e+00 -7.916310722939101652e-02
9.389988884329795837e+00 4.972054097801446915e+00 -7.635549004189101652e-02
9.458592399954795837e+00 5.072640035301446915e+00 -7.350209648720351652e-02
9.529149040579795837e+00 5.176155660301446915e+00 -7.055715019814101652e-02
9.601048454642295837e+00 5.281624410301446915e+00 -6.756642754189101652e-02
9.674778923392295837e+00 5.389656636863946915e+00 -6.448415215126601652e-02
9.750462517142295837e+00 5.500740621238946915e+00 -6.132558281532851652e-02
9.827855095267295837e+00 5.614266011863946915e+00 -5.810597832314101652e-02
9.272557243704795837e+00 4.860481832176446915e+00 -4.361012871376601652e-02
9.338353142142295837e+00 4.958016011863946915e+00 -4.023793633095351652e-02
9.405980095267295837e+00 5.057869527488946915e+00 -3.697255547157851652e-02
9.475438103079795837e+00 5.160408589988946915e+00 -3.361562187782851652e-02
9.546238884329795837e+00 5.265022847801446915e+00 -3.021291191689101652e-02
9.618870720267295837e+00 5.372200582176446915e+00 -2.670339043251601652e-02
9.693333610892295837e+00 5.482308004051446915e+00 -2.311757500282851652e-02
9.769749626517295837e+00 5.594856832176446915e+00 -1.963857109657851652e-02
9.257664665579795837e+00 4.855843160301446915e+00 -7.629904104391016517e-03
9.329930290579795837e+00 4.954842183738946915e+00 -3.922018362203516517e-03
9.403904899954795837e+00 5.056404683738946915e+00 -1.073210965785165172e-04
9.479954704642295837e+00 5.160774800926446915e+00 3.814187692483983483e-03
9.557713493704795837e+00 5.267342183738946915e+00 7.811990426858983483e-03
9.637547478079795837e+00 5.376839254051446915e+00 1.191660468467148348e-02
9.719700798392295837e+00 5.489510152488946915e+00 1.615854804404648348e-02
9.803807243704795837e+00 5.604744527488946915e+00 2.047678534873398348e-02
9.299290642142295837e+00 4.865120504051446915e+00 2.938791816123398348e-02
9.372410759329795837e+00 4.964729879051446915e+00 3.358408515342148348e-02
9.447606071829795837e+00 5.067024800926446915e+00 3.808542792685898348e-02
9.524754509329795837e+00 5.172127339988946915e+00 4.251047675498398348e-02
9.603489860892295837e+00 5.279549214988946915e+00 4.702707831748398348e-02
9.684422478079795837e+00 5.389778707176446915e+00 5.168100898154648348e-02
9.767430290579795837e+00 5.503182027488946915e+00 5.624338691123398348e-02
9.852635368704795837e+00 5.619270894676446915e+00 6.112619941123398348e-02
9.311985954642295837e+00 4.867195699363946915e+00 6.616159980185898348e-02
9.377537712454795837e+00 4.965096089988946915e+00 7.058664862998398348e-02
9.444554314017295837e+00 5.065193746238946915e+00 7.511850898154648348e-02
9.513279899954795837e+00 5.167976949363946915e+00 7.975718085654648348e-02
9.583470329642295837e+00 5.272835347801446915e+00 8.450266425498398348e-02
9.655247673392295837e+00 5.380135152488946915e+00 8.935495917685898348e-02
9.729100212454795837e+00 5.490486714988946915e+00 9.432932441123398348e-02
9.804417595267295837e+00 5.603035543113946915e+00 9.942575995810898348e-02
9.270726189017295837e+00 4.856209371238946915e+00 1.010584503877964835e-01
9.335423454642295837e+00 4.953499410301446915e+00 1.058497101534214835e-01
9.401463493704795837e+00 5.052986714988946915e+00 1.107477814424839835e-01
9.469456657767295837e+00 5.155037496238946915e+00 1.157831818331089835e-01
9.538670524954795837e+00 5.259163472801446915e+00 1.209101349581089835e-01
9.609593376517295837e+00 5.365730855613946915e+00 1.261591583956089835e-01
9.682469353079795837e+00 5.475227925926446915e+00 1.315607697237339835e-01
9.760960564017295837e+00 5.588265035301446915e+00 1.372217804659214835e-01
9.249730095267295837e+00 4.850227925926446915e+00 1.365351349581089835e-01
9.325047478079795837e+00 4.949959371238946915e+00 1.421503693331089835e-01
9.402317985892295837e+00 5.052254293113946915e+00 1.479029328096714835e-01
9.481907829642295837e+00 5.157478902488946915e+00 1.538233429659214835e-01
9.563206657767295837e+00 5.265266988426446915e+00 1.598810822237339835e-01
9.646824821829795837e+00 5.375862691551446915e+00 1.661066681612339835e-01
9.732884392142295837e+00 5.489754293113946915e+00 1.725153595674839835e-01
9.821141228079795837e+00 5.606453511863946915e+00 1.790766388643589835e-01
9.301121696829795837e+00 4.861824605613946915e+00 1.747736603487339835e-01
9.377659782767295837e+00 4.962288472801446915e+00 1.809076935518589835e-01
9.456150993704795837e+00 5.065437886863946915e+00 1.872095734346714835e-01
9.536961540579795837e+00 5.171761129051446915e+00 1.936792999971714835e-01
9.619725212454795837e+00 5.280403707176446915e+00 2.003168732393589835e-01
9.704686149954795837e+00 5.391975972801446915e+00 2.071222931612339835e-01
6.476450060307979584e+01 2.236939296498894691e+01 2.713653054879983983e+00
1.425156114995479584e+01 7.012947652488946915e+00 4.216608673799839835e-01
1.464401720464229584e+01 6.155037496238946915e+00 4.676661164034214835e-01
1.419955919682979584e+01 6.180428121238946915e+00 4.510798126924839835e-01
1.500681017339229584e+01 6.526741597801446915e+00 4.948725373018589835e-01
1.479868029057979584e+01 6.613289449363946915e+00 4.897761017549839835e-01
3.521457384526729584e+01 1.257166347280144691e+01 1.505294290231546483e+00
6.675204943120479584e+01 2.226111659780144691e+01 3.091338601754983983e+00
6.669760607182979584e+01 2.295484218373894691e+01 3.115645852731546483e+00
7.839804552495479584e+01 2.738184413686394691e+01 3.734099832223733983e+00
1.429575060307979584e+01 6.069222066551446915e+00 5.108027130831089835e-01
1.449692247807979584e+01 6.254036519676446915e+00 5.264429718721714835e-01
1.502927111089229584e+01 6.531136129051446915e+00 5.599817902315464835e-01
1.484457872807979584e+01 6.624275777488946915e+00 5.553431183565464835e-01
3.520578478276729584e+01 1.256519374623894691e+01 1.666091409372171483e+00
7.320309923589229584e+01 2.416040858998894691e+01 3.757735696481546483e+00
7.979575060307979584e+01 2.696216640248894691e+01 4.149825540231546483e+00
7.769907091557979584e+01 2.715125331655144691e+01 4.065032449411233983e+00
3.204636095464229584e+01 1.036304530873894691e+01 1.591033425973733983e+00
7.033444689214229584e+01 2.035498866811394691e+01 3.817290750192483983e+00
8.253024767339229584e+01 2.429541835561394691e+01 4.555617776559671483e+00
1.486459825932979584e+01 6.628304097801446915e+00 6.195063263643589835e-01
3.521359728276729584e+01 1.256348476186394691e+01 1.826980081247171483e+00
8.020749376714229584e+01 2.622180995717644691e+01 4.517241922067483983e+00
7.945383165776729584e+01 2.684839687123894691e+01 4.504851785348733983e+00
7.702390001714229584e+01 2.692835292592644691e+01 4.392730203317483983e+00
9.254013536870479584e+01 2.499085292592644691e+01 5.496871438669046483e+00
9.404538439214229584e+01 2.633228358998894691e+01 5.629043069528421483e+00
8.167844103276729584e+01 2.406165370717644691e+01 4.888366189645608983e+00
8.230258654057979584e+01 2.509156093373894691e+01 4.961852517770608983e+00
3.512399767339229584e+01 1.253406581655144691e+01 1.982604470895608983e+00
8.023044298589229584e+01 2.621949062123894691e+01 4.897246804879983983e+00
8.024936388432979584e+01 2.708301601186394691e+01 4.932311502145608983e+00
7.967941759526729584e+01 2.776209316030144691e+01 4.929091897653421483e+00
8.315280626714229584e+01 2.357276210561394691e+01 5.333449807809671483e+00
8.384445665776729584e+01 2.462171230092644691e+01 5.415618386911233983e+00
8.272690294682979584e+01 2.519812831655144691e+01 5.375274148629983983e+00
3.520163439214229584e+01 1.255225429311394691e+01 2.148055520700296483e+00
8.217453478276729584e+01 2.678430995717644691e+01 5.408294168161233983e+00
8.108395861089229584e+01 2.732947597280144691e+01 5.368224588083108983e+00
8.039548204839229584e+01 2.798023280873894691e+01 5.357451883004983983e+00
8.385654161870479584e+01 2.461487636342644691e+01 5.809417215036233983e+00
3.543698595464229584e+01 1.225147304311394691e+01 2.311461892770608983e+00
3.515305040776729584e+01 1.253443202748894691e+01 2.305861917184671483e+00
8.198068712651729584e+01 2.671778163686394691e+01 5.782195535348733983e+00
7.970346544682979584e+01 2.775196132436394691e+01 5.685439553903421483e+00
8.271603868901729584e+01 2.517591151967644691e+01 6.149825540231546483e+00
3.521945665776729584e+01 1.254944667592644691e+01 2.471404519723733983e+00
3.495724962651729584e+01 1.283545741811394691e+01 2.466460672067483983e+00
8.017062853276729584e+01 2.789099941030144691e+01 6.101211038278421483e+00
3.549741075932979584e+01 1.226001796498894691e+01 2.639846292184671483e+00
3.522470568120479584e+01 1.254688319936394691e+01 2.633391824411233983e+00
1.375192736089229584e+01 6.869881246238946915e+00 -2.445683806668910165e-01
1.003610704839229584e+01 5.777229879051446915e+00 -2.160191863309535165e-01
1.368381212651729584e+01 7.114266011863946915e+00 -2.390141814481410165e-01
1.355087755620479584e+01 7.202400777488946915e+00 -2.357335417997035165e-01
1.378671739995479584e+01 7.422005269676446915e+00 -2.348332732450160165e-01
1.327353380620479584e+01 7.367317769676446915e+00 -2.292027800809535165e-01
1.369272325932979584e+01 7.662361714988946915e+00 -2.293248503934535165e-01
1.322763536870479584e+01 7.615852925926446915e+00 -2.244725554715785165e-01
1.376706407964229584e+01 6.873421285301446915e+00 -1.860661834012660165e-01
1.003659532964229584e+01 5.776375386863946915e+00 -1.754765837918910165e-01
1.352621935307979584e+01 7.059212300926446915e+00 -1.800847380887660165e-01
1.351230333745479584e+01 7.187508199363946915e+00 -1.774602263700160165e-01
1.383859728276729584e+01 7.439583394676446915e+00 -1.753545134793910165e-01
1.379440782964229584e+01 7.561165425926446915e+00 -1.726079314481410165e-01
1.408029650151729584e+01 7.810677144676446915e+00 -1.705174773465785165e-01
1.350742052495479584e+01 7.725838277488946915e+00 -1.672673552762660165e-01
1.393124864995479584e+01 6.924324605613946915e+00 -1.270146697293910165e-01
1.003708361089229584e+01 5.775642964988946915e+00 -1.347050994168910165e-01
1.360568712651729584e+01 7.084969136863946915e+00 -1.222691863309535165e-01
1.348898790776729584e+01 7.177986714988946915e+00 -1.198277800809535165e-01
1.381003282964229584e+01 7.427864644676446915e+00 -1.159367888700160165e-01
1.430966661870479584e+01 7.752815816551446915e+00 -1.112218230497035165e-01
1.402707384526729584e+01 7.788704488426446915e+00 -1.092839568387660165e-01
1.350754259526729584e+01 7.724617574363946915e+00 -1.084294646512660165e-01
1.334457872807979584e+01 6.735970113426446915e+00 -7.215932304970351652e-02
1.003769396245479584e+01 5.774910543113946915e+00 -9.391835625282851652e-02
1.358627794682979584e+01 7.077034566551446915e+00 -6.413320000282851652e-02
1.347482775151729584e+01 7.171639058738946915e+00 -6.201222832314101652e-02
1.436533068120479584e+01 7.628182027488946915e+00 -5.162099297157851652e-02
1.044211290776729584e+01 6.303352925926446915e+00 -8.195546562782851652e-02
1.057907579839229584e+01 6.457039449363946915e+00 -7.847646172157851652e-02
1.072128771245479584e+01 6.616341207176446915e+00 -7.510426933876601652e-02
9.828465446829795837e+00 5.614754293113946915e+00 -5.809071953407851652e-02
9.908055290579795837e+00 5.731209371238946915e+00 -5.493215019814101652e-02
9.989842399954795837e+00 5.850838277488946915e+00 -5.169728691689101652e-02
1.010641954839229584e+01 5.985481832176446915e+00 -4.792836601845351652e-02
1.023056505620479584e+01 6.125862691551446915e+00 -4.399159844032851652e-02
1.035934923589229584e+01 6.271492574363946915e+00 -3.991750176064101652e-02
1.049338243901729584e+01 6.423103902488946915e+00 -3.567555840126601652e-02
1.063217638432979584e+01 6.580086324363946915e+00 -3.128102715126601652e-02
9.770359978079795837e+00 5.595345113426446915e+00 -1.962331230751601652e-02
9.848362907767295837e+00 5.710579488426446915e+00 -1.577809746376601652e-02
9.928685173392295837e+00 5.829109761863946915e+00 -1.203969414345351652e-02
1.001901720464229584e+01 5.953865621238946915e+00 -8.041891409078516517e-03
1.017734239995479584e+01 6.105599019676446915e+00 -2.762350393453516517e-03
1.031821154057979584e+01 6.255135152488946915e+00 2.303567575296483483e-03
1.046530626714229584e+01 6.411263082176446915e+00 7.598367379983983483e-03
1.061765001714229584e+01 6.573372457176446915e+00 1.284739081748398348e-02
9.804417595267295837e+00 5.605232808738946915e+00 2.050730292685898348e-02
9.890721306204795837e+00 5.723641011863946915e+00 2.485605780967148348e-02
9.979466423392295837e+00 5.845467183738946915e+00 2.932688300498398348e-02
1.010654161870479584e+01 5.983650777488946915e+00 3.474375312217148348e-02
1.024423693120479584e+01 6.128914449363946915e+00 4.049631659873398348e-02
1.038754747807979584e+01 6.280159566551446915e+00 4.647776191123398348e-02
1.053732775151729584e+01 6.438118550926446915e+00 5.273386542685898348e-02
1.069284532964229584e+01 6.602181050926446915e+00 5.923410956748398348e-02
9.853245720267295837e+00 5.619881246238946915e+00 6.115671698935898348e-02
9.931859001517295837e+00 5.736214254051446915e+00 6.587168280967148348e-02
1.001205919682979584e+01 5.855599019676446915e+00 7.090708320029648348e-02
1.013095568120479584e+01 5.991341207176446915e+00 7.687326972373398348e-02
1.025290392339229584e+01 6.131111714988946915e+00 8.302256171592148348e-02
1.037924669682979584e+01 6.276131246238946915e+00 8.938547675498398348e-02
1.051120470464229584e+01 6.427132222801446915e+00 9.579416816123398348e-02
1.064731310307979584e+01 6.583138082176446915e+00 1.026453644502964835e-01
9.805027946829795837e+00 5.603523824363946915e+00 9.945627753623398348e-02
9.882420524954795837e+00 5.719002339988946915e+00 1.046290070284214835e-01
9.961766228079795837e+00 5.837532613426446915e+00 1.099390656221714835e-01
1.006796739995479584e+01 5.968269918113946915e+00 1.162104279268589835e-01
1.018784044682979584e+01 6.106575582176446915e+00 1.230158478487339835e-01
1.031210802495479584e+01 6.250008199363946915e+00 1.300501496065464835e-01
1.044138048589229584e+01 6.399300191551446915e+00 1.373896271456089835e-01
1.058566759526729584e+01 6.557747457176446915e+00 1.453241974581089835e-01
9.761692985892295837e+00 5.588875386863946915e+00 1.372522980440464835e-01
9.850804314017295837e+00 5.707771871238946915e+00 1.433710724581089835e-01
9.942601189017295837e+00 5.830086324363946915e+00 1.496576935518589835e-01
1.006552599370479584e+01 5.966438863426446915e+00 1.571955353487339835e-01
1.020908068120479584e+01 6.113411519676446915e+00 1.656183869112339835e-01
1.035873888432979584e+01 6.266487691551446915e+00 1.743921906221714835e-01
1.051535509526729584e+01 6.426766011863946915e+00 1.835779816377964835e-01
1.067831896245479584e+01 6.593636129051446915e+00 1.931299835909214835e-01
9.821873649954795837e+00 5.607063863426446915e+00 1.791224152315464835e-01
9.912571892142295837e+00 5.727058980613946915e+00 1.858820587862339835e-01
1.000595568120479584e+01 5.850716207176446915e+00 1.928553253877964835e-01
1.014694689214229584e+01 5.994148824363946915e+00 2.019343048799839835e-01
1.029367540776729584e+01 6.143074605613946915e+00 2.113642365206089835e-01
1.930893419682979584e+01 9.609871480613946915e+00 6.013636261690464835e-01
2.020004747807979584e+01 1.015528163686394691e+01 6.466822296846714835e-01
1.350839708745479584e+01 7.714974019676446915e+00 3.616327912081089835e-01
1.425119493901729584e+01 7.013313863426446915e+00 4.216608673799839835e-01
1.418491075932979584e+01 7.130501363426446915e+00 4.234614044893589835e-01
7.500607775151729584e+01 2.793628749623894691e+01 3.263671365426858983e+00
7.474826525151729584e+01 2.866736659780144691e+01 3.280242410348733983e+00
2.005136583745479584e+01 9.676643941551446915e+00 7.162470490206089835e-01
1.966025255620479584e+01 9.739143941551446915e+00 7.048334748018589835e-01
4.062680529057979584e+01 1.801722011342644691e+01 1.722548928903421483e+00
1.350851915776729584e+01 7.713753316551446915e+00 4.203180939424839835e-01
7.840549181401729584e+01 2.738709316030144691e+01 3.734588113473733983e+00
7.684177111089229584e+01 2.771802577748894691e+01 3.685515847848733983e+00
7.491660021245479584e+01 2.789771327748894691e+01 3.614882913278421483e+00
7.395773790776729584e+01 2.838196620717644691e+01 3.595077005075296483e+00
1.989999864995479584e+01 9.619759175926446915e+00 7.983393341768589835e-01
2.010446642339229584e+01 9.903084371238946915e+00 8.166651398409214835e-01
4.063412950932979584e+01 1.801587733998894691e+01 1.915832009958108983e+00
1.350864122807979584e+01 7.712532613426446915e+00 4.793238312471714835e-01
7.770077989995479584e+01 2.715467128530144691e+01 4.065246072458108983e+00
7.682126329839229584e+01 2.770288905873894691e+01 4.047896829294046483e+00
7.633981798589229584e+01 2.837268886342644691e+01 4.052459207223733983e+00
7.539279650151729584e+01 2.887732753530144691e+01 4.030517068551858983e+00
7.465256212651729584e+01 2.943848476186394691e+01 4.019713845895608983e+00
2.010568712651729584e+01 9.901497457176446915e+00 9.078364044893589835e-01
4.058163927495479584e+01 1.799146327748894691e+01 2.104735818551858983e+00
1.350864122807979584e+01 7.711311910301446915e+00 5.380396515596714835e-01
7.702438829839229584e+01 2.693128261342644691e+01 4.392867532419046483e+00
7.673874376714229584e+01 2.766736659780144691e+01 4.406417337106546483e+00
7.749179552495479584e+01 2.875537929311394691e+01 4.485442605661233983e+00
7.697714708745479584e+01 2.942469081655144691e+01 4.487349954294046483e+00
7.636508654057979584e+01 3.005030116811394691e+01 4.482879129098733983e+00
7.460141466557979584e+01 3.023828944936394691e+01 4.406096902536233983e+00
4.067245958745479584e+01 1.802222499623894691e+01 2.302199807809671483e+00
1.350888536870479584e+01 7.710091207176446915e+00 5.970911652315464835e-01
8.007236193120479584e+01 2.788977870717644691e+01 4.954818216012796483e+00
7.804941271245479584e+01 2.808899745717644691e+01 4.857589212106546483e+00
7.664145372807979584e+01 2.845838222280144691e+01 4.799407449411233983e+00
7.515842150151729584e+01 2.877881679311394691e+01 4.735305276559671483e+00
7.463290880620479584e+01 2.941541347280144691e+01 4.734099832223733983e+00
7.460947130620479584e+01 3.023340663686394691e+01 4.766524758981546483e+00
4.068307970464229584e+01 1.802222499623894691e+01 2.496215310739358983e+00
1.350998400151729584e+01 7.709236714988946915e+00 6.559137970674839835e-01
8.039914415776729584e+01 2.798438319936394691e+01 5.357818093942483983e+00
8.066037462651729584e+01 2.893726405873894691e+01 5.411208596872171483e+00
7.705453966557979584e+01 2.859009608998894691e+01 5.192855325387796483e+00
7.679013536870479584e+01 2.934253749623894691e+01 5.210051980661233983e+00
7.616696642339229584e+01 2.996228847280144691e+01 5.201323953317483983e+00
7.455710314214229584e+01 3.020594081655144691e+01 5.120864358590921483e+00
4.063351915776729584e+01 1.799890956655144691e+01 2.684951272653421483e+00
1.351096056401729584e+01 7.708382222801446915e+00 7.150568634737339835e-01
7.970407579839229584e+01 2.775501308217644691e+01 5.685607400583108983e+00
7.950888536870479584e+01 2.855054530873894691e+01 5.708938089059671483e+00
7.939767931401729584e+01 2.937622890248894691e+01 5.738692727731546483e+00
7.699118517339229584e+01 2.940454921498894691e+01 5.593627420114358983e+00
7.714023302495479584e+01 3.030603847280144691e+01 5.642577615426858983e+00
4.055124376714229584e+01 1.796314296498894691e+01 2.871749368356546483e+00
1.351193712651729584e+01 7.707527730613946915e+00 7.739252716768589835e-01
8.016952989995479584e+01 2.789368495717644691e+01 6.101241555856546483e+00
8.010483263432979584e+01 2.960730800405144691e+01 6.173476663278421483e+00
