2.177247982472181320e+01 5.140369275584816933e+00 9.376253554131892543e-01
8.372821621596813202e+00 3.266467908397316933e+00 2.227358290460017543e-01
8.706195645034313202e+00 3.347888806834816933e+00 2.438387343194392543e-01
8.600238613784313202e+00 3.412219861522316933e+00 2.401155897881892543e-01
8.556049160659313202e+00 3.478748181834816933e+00 2.398867079522517543e-01
8.526264004409313202e+00 3.545398572459816933e+00 2.404665419366267543e-01
8.654559902846813202e+00 3.624866345897316933e+00 2.502626845147517543e-01
2.187330990284681320e+01 4.945178845897316933e+00 1.029468006780376754e+00
2.181923275440931320e+01 5.142566541209816933e+00 1.033587879827251754e+00
8.743793301284313202e+00 3.278186658397316933e+00 2.762026259210017543e-01
8.383075527846813202e+00 3.332630017772316933e+00 2.563356825616267543e-01
2.830824642628431320e+01 4.480579236522316933e+00 1.494845814397564254e+00
8.558734707534313202e+00 3.478015759959816933e+00 2.718386122491267543e-01
8.488300137221813202e+00 3.541614392772316933e+00 2.697634169366267543e-01
8.499774746596813202e+00 3.610828259959816933e+00 2.727999159600642543e-01
2.187611752003431320e+01 4.942737439647316933e+00 1.123263783147564254e+00
2.176869564503431320e+01 5.134631970897316933e+00 1.123309559514751754e+00
8.747699551284313202e+00 3.277332166209816933e+00 3.090700575616267543e-01
8.714008145034313202e+00 3.346301892772316933e+00 3.092379042413142543e-01
2.812111263722181320e+01 4.466785291209816933e+00 1.604861683538189254e+00
8.561298184096813202e+00 3.477283338084816933e+00 3.036531874444392543e-01
8.450946621596813202e+00 3.537952283397316933e+00 2.985872694756892543e-01
8.502338223159313202e+00 3.610095838084816933e+00 3.043856093194392543e-01
2.158229427784681320e+01 4.912219861522316933e+00 1.196917957952251754e+00
2.181703548878431320e+01 5.136951306834816933e+00 1.219836659124126754e+00
8.752460293471813202e+00 3.276477674022316933e+00 3.420137831475642543e-01
8.717914395034313202e+00 3.345447400584816933e+00 3.418306776788142543e-01
8.617206387221813202e+00 3.410266736522316933e+00 3.370699354913142543e-01
8.563983730971813202e+00 3.476428845897316933e+00 3.356661268975642543e-01
2.730299740284681320e+01 4.932849744334816933e+00 1.686603016546001754e+00
2.190101986378431320e+01 4.735828259959816933e+00 1.304858631780376754e+00
2.176442318409681320e+01 4.926746228709816933e+00 1.301974720647564254e+00
2.172914486378431320e+01 5.125110486522316933e+00 1.306888050725689254e+00
8.172748379409313202e+00 3.728748181834816933e+00 -2.528195908758732457e-01
8.163226895034313202e+00 3.792957166209816933e+00 -2.508664658758732457e-01
8.048969082534313202e+00 3.843738416209816933e+00 -2.475858262274357457e-01
8.598773770034313202e+00 3.983753064647316933e+00 -2.536588242743107457e-01
8.626849941909313202e+00 4.058093884959816933e+00 -2.522702744696232457e-01
8.655292324721813202e+00 4.133167127147316933e+00 -2.508664658758732457e-01
9.243549160659313202e+00 4.303211072459816933e+00 -2.568479111883732457e-01
1.283156185597181320e+01 5.018909314647316933e+00 -3.017240098211857457e-01
7.876117520034313202e+00 3.696277478709816933e+00 -2.198148301336857457e-01
8.564472012221813202e+00 3.838855603709816933e+00 -2.250333359930607457e-01
9.307025723159313202e+00 4.002429822459816933e+00 -2.302060654852482457e-01
8.036517910659313202e+00 3.905872205272316933e+00 -2.162900498602482457e-01
8.584247402846813202e+00 4.050891736522316933e+00 -2.196164658758732457e-01
8.612323574721813202e+00 4.125476697459816933e+00 -2.180295518133732457e-01
8.585712246596813202e+00 4.192005017772316933e+00 -2.161374619696232457e-01
1.281386166065931320e+01 5.014392713084816933e+00 -2.495389512274357457e-01
8.209857754409313202e+00 3.730945447459816933e+00 -1.930509141180607457e-01
7.966205410659313202e+00 3.768298963084816933e+00 -1.900144150946232457e-01
8.842914395034313202e+00 3.942737439647316933e+00 -1.927304795477482457e-01
8.741229824721813202e+00 4.001453259959816933e+00 -1.903195908758732457e-01
8.143817715346813202e+00 3.985339978709816933e+00 -1.857266953680607457e-01
8.633197598159313202e+00 4.127918103709816933e+00 -1.860471299383732457e-01
8.595233730971813202e+00 4.192737439647316933e+00 -1.840024522039982457e-01
1.267421322315931320e+01 4.988147595897316933e+00 -1.970639756414982457e-01
8.816180996596813202e+00 3.794666150584816933e+00 -1.636167100164982457e-01
7.772968105971813202e+00 3.744861463084816933e+00 -1.608090928289982457e-01
8.530902676284313202e+00 3.902332166209816933e+00 -1.594205430243107457e-01
1.300575619190931320e+01 4.583606580272316933e+00 -1.579862168524357457e-01
8.681049160659313202e+00 4.063342908397316933e+00 -1.556058457586857457e-01
8.642841152846813202e+00 4.128528455272316933e+00 -1.536832383368107457e-01
8.601337246596813202e+00 4.192859509959816933e+00 -1.517606309149357457e-01
1.264699154347181320e+01 4.981922009959816933e+00 -1.460233262274357457e-01
8.834125332534313202e+00 3.795642713084816933e+00 -1.305661729071232457e-01
8.910175137221813202e+00 3.876453259959816933e+00 -1.282620957586857457e-01
7.848895840346813202e+00 3.815173963084816933e+00 -1.307187607977482457e-01
1.338661556690931320e+01 4.634143689647316933e+00 -1.039548447821232457e-01
8.690692715346813202e+00 4.063831189647316933e+00 -1.231961777899357457e-01
8.652362637221813202e+00 4.129138806834816933e+00 -1.213956406805607457e-01
8.614154629409313202e+00 4.194202283397316933e+00 -1.196103623602482457e-01
1.259596615284681320e+01 4.971546033397316933e+00 -9.510474712587324575e-02
8.470233730971813202e+00 3.755969861522316933e+00 -1.006894639227482457e-01
8.536029629409313202e+00 3.832019666209816933e+00 -9.800391704774824575e-02
8.587299160659313202e+00 3.907581189647316933e+00 -9.557776958681074575e-02
8.639667324721813202e+00 3.984851697459816933e+00 -9.309058696962324575e-02
8.692767910659313202e+00 4.063220838084816933e+00 -9.057288677431074575e-02
8.662006191909313202e+00 4.129749158397316933e+00 -8.883338482118574575e-02
8.802142910659313202e+00 4.224719861522316933e+00 -8.538489849306074575e-02
8.858539395034313202e+00 4.307605603709816933e+00 -8.291297466493574575e-02
8.446674160659313202e+00 3.752673963084816933e+00 -6.959205181337324575e-02
8.496478848159313202e+00 3.826526502147316933e+00 -6.695228130556074575e-02
8.547015957534313202e+00 3.901599744334816933e+00 -6.425147564149824575e-02
8.598773770034313202e+00 3.978381970897316933e+00 -6.150489361024824575e-02
8.651141934096813202e+00 4.056262830272316933e+00 -5.872779400087324575e-02
8.704608730971813202e+00 4.135608533397316933e+00 -5.588965923524824575e-02
8.759174160659313202e+00 4.216663220897316933e+00 -5.299048931337324575e-02
8.814594082534313202e+00 4.298816541209816933e+00 -5.004554302431074575e-02
8.408099941909313202e+00 3.747669080272316933e+00 -3.913550884462324575e-02
8.457294277846813202e+00 3.821033338084816933e+00 -3.623633892274824575e-02
8.508685879409313202e+00 3.895862439647316933e+00 -3.310828716493574575e-02
8.564960293471813202e+00 3.972888806834816933e+00 -2.999549419618574575e-02
8.622333340346813202e+00 4.051135877147316933e+00 -2.683692486024824575e-02
8.680682949721813202e+00 4.130969861522316933e+00 -2.361732036806074575e-02
8.740253262221813202e+00 4.212634900584816933e+00 -2.050452739931074575e-02
8.801044277846813202e+00 4.295642713084816933e+00 -1.714759380556074575e-02
8.431293301284313202e+00 3.749255994334816933e+00 -7.504039118060745750e-03
8.485980801284313202e+00 3.823474744334816933e+00 -4.208140680560745750e-03
8.541644863784313202e+00 3.899158338084816933e+00 -8.359482977482457500e-04
8.598651699721813202e+00 3.976550916209816933e+00 2.597279241314254250e-03
8.656513027846813202e+00 4.055286267772316933e+00 6.091541936626754250e-03
8.715595059096813202e+00 4.135486463084816933e+00 9.646839788189254250e-03
8.776019863784313202e+00 4.217639783397316933e+00 1.329369037412675425e-02
8.837421230971813202e+00 4.301135877147316933e+00 1.700157611631425425e-02
8.463519863784313202e+00 3.751697400584816933e+00 2.443260638975175425e-02
8.518695645034313202e+00 3.826404431834816933e+00 2.804893939756425425e-02
8.574970059096813202e+00 3.902454236522316933e+00 3.174156635068925425e-02
8.632587246596813202e+00 3.980335095897316933e+00 3.551048724912675425e-02
8.691058926284313202e+00 4.059436658397316933e+00 3.935570209287675425e-02
8.750751309096813202e+00 4.140125134959816933e+00 4.326195209287675425e-02
8.806659512221813202e+00 4.221912244334816933e+00 4.712242572568925425e-02
8.861957363784313202e+00 4.304553845897316933e+00 5.098289935850175425e-02
8.462543301284313202e+00 3.750720838084816933e+00 5.580467670225175425e-02
8.511737637221813202e+00 3.824695447459816933e+00 5.952782123350175425e-02
8.561664395034313202e+00 3.899890759959816933e+00 6.331200092100175425e-02
8.612689785659313202e+00 3.976672986522316933e+00 6.718773334287675425e-02
8.664447598159313202e+00 4.054675916209816933e+00 7.112450092100175425e-02
8.717181973159313202e+00 4.134021619334816933e+00 7.510704486631425425e-02
8.771014980971813202e+00 4.214954236522316933e+00 7.919640033506425425e-02
8.825580410659313202e+00 4.297229627147316933e+00 8.334679096006425425e-02
8.430682949721813202e+00 3.746448377147316933e+00 8.587974994443925425e-02
8.479266934096813202e+00 3.820056775584816933e+00 8.984703510068925425e-02
8.528705410659313202e+00 3.894885877147316933e+00 9.389061420225175425e-02
8.579242520034313202e+00 3.971301892772316933e+00 9.801048724912675425e-02
8.630389980971813202e+00 4.048816541209816933e+00 1.021913954522517543e-01
8.682514004409313202e+00 4.127673963084816933e+00 1.064485976006892543e-01
8.735736660659313202e+00 4.208240369334816933e+00 1.107973524835017543e-01
8.789813809096813202e+00 4.290027478709816933e+00 1.152071425225642543e-01
8.401630215346813202e+00 3.742542127147316933e+00 1.159700819756892543e-01
8.458026699721813202e+00 3.816638806834816933e+00 1.205172011163142543e-01
8.515399746596813202e+00 3.892322400584816933e+00 1.249727675225642543e-01
8.574359707534313202e+00 3.969714978709816933e+00 1.297182509210017543e-01
8.634296230971813202e+00 4.048450330272316933e+00 1.345552870538142543e-01
8.695453457534313202e+00 4.128772595897316933e+00 1.394838759210017543e-01
8.758319668471813202e+00 4.211170056834816933e+00 1.447176405694392543e-01
8.822162441909313202e+00 4.294910291209816933e+00 1.498445936944392543e-01
8.441058926284313202e+00 3.745715955272316933e+00 1.487154433038142543e-01
8.498309902846813202e+00 3.820422986522316933e+00 1.536135145928767543e-01
8.556659512221813202e+00 3.896594861522316933e+00 1.586183974053767543e-01
8.616351895034313202e+00 3.974475720897316933e+00 1.637300917413142543e-01
8.677142910659313202e+00 4.053821424022316933e+00 1.689333388116267543e-01
8.739032559096813202e+00 4.134754041209816933e+00 1.742586561944392543e-01
8.802631191909313202e+00 4.217517713084816933e+00 1.796907851006892543e-01
8.867206387221813202e+00 4.301868299022316933e+00 1.852297255303767543e-01
8.481220059096813202e+00 3.749133924022316933e+00 1.820406386163142543e-01
8.538959316909313202e+00 3.824207166209816933e+00 1.871218153741267543e-01
1.384572201222181320e+01 4.557483533397316933e+00 4.577364393975642543e-01
1.386903744190931320e+01 4.684314588084816933e+00 4.631838270928767543e-01
1.399476986378431320e+01 4.826404431834816933e+00 4.738802382256892543e-01
1.462831478565931320e+01 5.050403455272316933e+00 5.108675429131892543e-01
1.483436947315931320e+01 5.217395642772316933e+00 5.261263319756892543e-01
1.425490169972181320e+01 5.250110486522316933e+00 5.007814833428767543e-01
2.177125912159681320e+01 5.140857556834816933e+00 9.375795790460017543e-01
1.371498470753431320e+01 4.417835095897316933e+00 5.028261610772517543e-01
2.680946712940931320e+01 6.176135877147316933e+00 1.229876942327251754e+00
1.487245541065931320e+01 4.818225720897316933e+00 5.756716200616267543e-01
1.399806576222181320e+01 4.825305799022316933e+00 5.314821669366267543e-01
1.458571224659681320e+01 5.042102674022316933e+00 5.689272352960017543e-01
1.449623470753431320e+01 5.159656384959816933e+00 5.684999892022517543e-01
1.429469662159681320e+01 5.255481580272316933e+00 5.616182753350642543e-01
2.181996517628431320e+01 5.143298963084816933e+00 1.033648914983501754e+00
2.697865658253431320e+01 5.938220838084816933e+00 1.347155995061626754e+00
2.669203548878431320e+01 6.158191541209816933e+00 1.339129872014751754e+00
2.718751888722181320e+01 6.479480603709816933e+00 1.378024525335064254e+00
1.463905697315931320e+01 4.916736463084816933e+00 6.274294325616267543e-01
1.771803646534681320e+01 5.527210095897316933e+00 8.196901747491267543e-01
1.772194271534681320e+01 5.692371228709816933e+00 8.257936903741267543e-01
1.425123959034681320e+01 5.246326306834816933e+00 6.180147597100642543e-01
2.176820736378431320e+01 5.135242322459816933e+00 1.123294300725689254e+00
2.192079525440931320e+01 5.355213025584816933e+00 1.140429920842876754e+00
2.731227474659681320e+01 6.232288220897316933e+00 1.495501942327251754e+00
2.683046322315931320e+01 6.427966931834816933e+00 1.473727650335064254e+00
1.459682064503431320e+01 4.908923963084816933e+00 6.851229140069392543e-01
1.450246029347181320e+01 5.025989392772316933e+00 6.837191054131892543e-01
1.772121029347181320e+01 5.690173963084816933e+00 9.008058974053767543e-01
1.420827084034681320e+01 5.237171033397316933e+00 6.737551161553767543e-01
2.181764584034681320e+01 5.137683728709816933e+00 1.219897694280376754e+00
2.717238216847181320e+01 5.953723767772316933e+00 1.595599598577251754e+00
2.728432064503431320e+01 6.225452283397316933e+00 1.612231678655376754e+00
2.673585873097181320e+01 6.411975720897316933e+00 1.583743519475689254e+00
3.002077084034681320e+01 7.142810681834816933e+00 1.822650379827251754e+00
1.446132259815931320e+01 5.017932752147316933e+00 7.404207655694392543e-01
1.772035580128431320e+01 5.688098767772316933e+00 9.758181044366267543e-01
1.792006283253431320e+01 5.887561658397316933e+00 9.960817763116267543e-01
2.172902279347181320e+01 5.125842908397316933e+00 1.306888050725689254e+00
2.195094662159681320e+01 5.353259900584816933e+00 1.330279774358501754e+00
2.185426693409681320e+01 5.546253064647316933e+00 1.330859608342876754e+00
2.643031673878431320e+01 6.367542127147316933e+00 1.677890247991314254e+00
1.796986752003431320e+01 5.394031384959816933e+00 1.056765980413189254e+00
1.768080502003431320e+01 5.515369275584816933e+00 1.041354603460064254e+00
1.771962337940931320e+01 5.685901502147316933e+00 1.050448841741314254e+00
2.495094662159681320e+01 7.119617322459816933e+00 1.604541248967876754e+00
1.283302669972181320e+01 5.019519666209816933e+00 -3.017392686102482457e-01
1.273610287159681320e+01 5.115833142772316933e+00 -2.976651719305607457e-01
1.267323666065931320e+01 5.217395642772316933e+00 -2.943387559149357457e-01
1.259877377003431320e+01 5.316028455272316933e+00 -2.908750107977482457e-01
1.278151302784681320e+01 5.469714978709816933e+00 -2.905393174383732457e-01
1.374013119190931320e+01 5.805896619334816933e+00 -2.992826035711857457e-01
1.353407650440931320e+01 5.883289197459816933e+00 -2.940640977118107457e-01
1.355958919972181320e+01 6.014636853709816933e+00 -2.918668320868107457e-01
1.281532650440931320e+01 5.015003064647316933e+00 -2.495389512274357457e-01
1.267604427784681320e+01 5.103137830272316933e+00 -2.457547715399357457e-01
1.353651791065931320e+01 5.387317517772316933e+00 -2.495694688055607457e-01
1.253212337940931320e+01 5.300769666209816933e+00 -2.390866807196232457e-01
1.282960873097181320e+01 5.478870252147316933e+00 -2.386441758368107457e-01
1.267909603565931320e+01 5.560779431834816933e+00 -2.348599961493107457e-01
1.348817806690931320e+01 5.870838025584816933e+00 -2.380185654852482457e-01
1.349562435597181320e+01 5.997180799022316933e+00 -2.351651719305607457e-01
1.267396908253431320e+01 4.988513806834816933e+00 -1.970487168524357457e-01
1.263331966847181320e+01 5.093738416209816933e+00 -1.941800645086857457e-01
1.304933529347181320e+01 5.289172986522316933e+00 -1.927457383368107457e-01
1.305092220753431320e+01 5.407703259959816933e+00 -1.898923447821232457e-01
1.287794857472181320e+01 5.488147595897316933e+00 -1.865659287664982457e-01
1.272780209034681320e+01 5.570667127147316933e+00 -1.833615830633732457e-01
1.372694759815931320e+01 5.926746228709816933e+00 -1.826901963446232457e-01
1.383229427784681320e+01 6.080188611522316933e+00 -1.798215440008732457e-01
1.262965755909681320e+01 4.979236463084816933e+00 -1.460385850164982457e-01
1.260023861378431320e+01 5.086170056834816933e+00 -1.429715684149357457e-01
1.257191830128431320e+01 5.193225720897316933e+00 -1.401792100164982457e-01
1.305214291065931320e+01 5.406604627147316933e+00 -1.364560654852482457e-01
1.353847103565931320e+01 5.631458142772316933e+00 -1.324735215399357457e-01
1.277724056690931320e+01 5.580676892772316933e+00 -1.311154893133732457e-01
1.376100521534681320e+01 5.933582166209816933e+00 -1.256375840399357457e-01
1.381105404347181320e+01 6.073352674022316933e+00 -1.225858262274357457e-01
1.259584408253431320e+01 4.971912244334816933e+00 -9.508948833681074575e-02
1.304579525440931320e+01 5.168445447459816933e+00 -8.948951275087324575e-02
1.323610287159681320e+01 5.323474744334816933e+00 -8.524756939149824575e-02
1.305458431690931320e+01 5.405750134959816933e+00 -8.327918560243574575e-02
1.311720638722181320e+01 5.537708142772316933e+00 -7.976966411806074575e-02
1.297279720753431320e+01 5.624133924022316933e+00 -7.764869243837324575e-02
1.319313412159681320e+01 5.795886853709816933e+00 -7.293372661806074575e-02
1.331288509815931320e+01 5.947254041209816933e+00 -6.884437114931074575e-02
8.858905605971813202e+00 4.307849744334816933e+00 -8.289771587587324575e-02
8.916034512221813202e+00 4.392322400584816933e+00 -8.010535747743574575e-02
8.974628262221813202e+00 4.478504041209816933e+00 -7.745032818056074575e-02
9.034564785659313202e+00 4.566882947459816933e+00 -7.471900493837324575e-02
9.095599941909313202e+00 4.656726697459816933e+00 -7.194190532899824575e-02
9.157855801284313202e+00 4.748401502147316933e+00 -6.911902935243574575e-02
9.221698574721813202e+00 4.842395642772316933e+00 -6.621985943056074575e-02
9.287006191909313202e+00 4.938220838084816933e+00 -6.344275982118574575e-02
8.814960293471813202e+00 4.299182752147316933e+00 -5.003028423524824575e-02
8.871478848159313202e+00 4.383045056834816933e+00 -4.710059673524824575e-02
8.929218105971813202e+00 4.468616345897316933e+00 -4.412513286806074575e-02
8.988422207534313202e+00 4.556384900584816933e+00 -4.107337505556074575e-02
9.048480801284313202e+00 4.645496228709816933e+00 -3.796058208681074575e-02
9.110004238784313202e+00 4.736560681834816933e+00 -3.478675396181074575e-02
9.172870449721813202e+00 4.829822400584816933e+00 -3.153663189149824575e-02
9.236957363784313202e+00 4.924793103709816933e+00 -2.824073345399824575e-02
8.801532559096813202e+00 4.295886853709816933e+00 -1.713233501649824575e-02
8.863422207534313202e+00 4.380725720897316933e+00 -1.377540142274824575e-02
8.927020840346813202e+00 4.467273572459816933e+00 -1.015906841493574575e-02
8.991962246596813202e+00 4.556140759959816933e+00 -6.634288141498245750e-03
9.058246426284313202e+00 4.646716931834816933e+00 -3.048472711810745750e-03
9.125873379409313202e+00 4.739246228709816933e+00 6.288954522517542500e-04
9.195209316909313202e+00 4.834339002147316933e+00 4.199452092876754250e-03
9.266010098159313202e+00 4.931262830272316933e+00 8.044666936626754250e-03
8.837909512221813202e+00 4.301502088084816933e+00 1.703209369443925425e-02
8.900531582534313202e+00 4.386707166209816933e+00 2.077049701475175425e-02
8.964618496596813202e+00 4.473865369334816933e+00 2.460045306943925425e-02
9.030414395034313202e+00 4.563220838084816933e+00 2.853722064756425425e-02
9.097430996596813202e+00 4.654407361522316933e+00 3.255028217100175425e-02
9.165912441909313202e+00 4.747547009959816933e+00 3.663963763975175425e-02
9.236347012221813202e+00 4.843250134959816933e+00 4.085106342100175425e-02
9.308002285659313202e+00 4.940784314647316933e+00 4.513878314756425425e-02
8.862323574721813202e+00 4.304920056834816933e+00 5.101341693662675425e-02
8.918597988784313202e+00 4.389270642772316933e+00 5.495018451475175425e-02
8.976093105971813202e+00 4.475208142772316933e+00 5.896324603818925425e-02
9.034930996596813202e+00 4.563342908397316933e+00 6.306786029600175425e-02
9.094745449721813202e+00 4.652942517772316933e+00 6.724876849912675425e-02
9.155780605971813202e+00 4.744373181834816933e+00 7.150597064756425425e-02
9.218402676284313202e+00 4.838001111522316933e+00 7.588524310850175425e-02
9.282001309096813202e+00 4.933460095897316933e+00 8.032555072568925425e-02
8.826068691909313202e+00 4.297595838084816933e+00 8.336204974912675425e-02
8.881732754409313202e+00 4.381458142772316933e+00 8.760399310850175425e-02
8.938495449721813202e+00 4.466907361522316933e+00 9.192223041318925425e-02
8.996600918471813202e+00 4.554431775584816933e+00 9.634727924131425425e-02
9.055682949721813202e+00 4.643543103709816933e+00 1.008486220147517543e-01
9.116107754409313202e+00 4.734363416209816933e+00 1.054415175225642543e-01
9.177875332534313202e+00 4.827503064647316933e+00 1.101412245538142543e-01
9.240863613784313202e+00 4.922229627147316933e+00 1.149324843194392543e-01
8.790302090346813202e+00 4.290393689647316933e+00 1.152376601006892543e-01
8.845233730971813202e+00 4.373767713084816933e+00 1.197542616631892543e-01
8.907855801284313202e+00 4.459949353709816933e+00 1.246370741631892543e-01
8.975360684096813202e+00 4.549182752147316933e+00 1.297640272881892543e-01
9.044208340346813202e+00 4.640125134959816933e+00 1.349825331475642543e-01
9.114642910659313202e+00 4.733142713084816933e+00 1.403383681085017543e-01
9.187030605971813202e+00 4.828723767772316933e+00 1.458315321710017543e-01
9.260883145034313202e+00 4.926380017772316933e+00 1.514467665460017543e-01
8.822650723159313202e+00 4.295154431834816933e+00 1.498751112725642543e-01
8.887836270034313202e+00 4.380725720897316933e+00 1.551851698663142543e-01
8.954242520034313202e+00 4.468250134959816933e+00 1.604341933038142543e-01
9.022846035659313202e+00 4.558093884959816933e+00 1.660036513116267543e-01
9.092670254409313202e+00 4.649768689647316933e+00 1.716951796319392543e-01
9.164081387221813202e+00 4.743518689647316933e+00 1.775087782647517543e-01
9.237811855971813202e+00 4.839954236522316933e+00 1.836885878350642543e-01
9.312885098159313202e+00 4.938342908397316933e+00 1.897921034600642543e-01
8.867694668471813202e+00 4.302234509959816933e+00 1.852602431085017543e-01
8.933856777846813202e+00 4.388416150584816933e+00 1.910128065850642543e-01
9.001605801284313202e+00 4.476672986522316933e+00 1.968874403741267543e-01
1.431190853565931320e+01 5.653919080272316933e+00 4.582704970147517543e-01
1.494972591847181320e+01 5.924304822459816933e+00 4.941591688897517543e-01
3.206337337940931320e+01 9.968982556834816933e+00 1.345248646428814254e+00
2.669215755909681320e+01 9.006824353709816933e+00 1.088824696233501754e+00
1.412807064503431320e+01 6.138049939647316933e+00 4.675020643975642543e-01
1.425514584034681320e+01 5.250598767772316933e+00 5.007967421319392543e-01
1.423781185597181320e+01 5.376697400584816933e+00 5.041994520928767543e-01
1.458510189503431320e+01 5.574695447459816933e+00 5.272554823663142543e-01
1.485573177784681320e+01 5.765003064647316933e+00 5.465120741631892543e-01
1.482643490284681320e+01 5.895862439647316933e+00 5.498537489678767543e-01
1.472133236378431320e+01 6.009387830272316933e+00 5.490908095147517543e-01
7.071034603565931320e+01 1.950914368964731693e+01 3.607409901311626754e+00
2.614894466847181320e+01 9.132312634959816933e+00 1.187076039006939254e+00
1.429420834034681320e+01 5.255847791209816933e+00 5.616030165460017543e-01
1.425697689503431320e+01 5.378650525584816933e+00 5.642275282647517543e-01
1.452797298878431320e+01 5.561878064647316933e+00 5.846437880303767543e-01
2.621620541065931320e+01 8.116199353709816933e+00 1.268954701116314254e+00
2.592470150440931320e+01 8.308460095897316933e+00 1.261294789006939254e+00
1.469081478565931320e+01 6.000842908397316933e+00 6.090120741631892543e-01
7.048488216847181320e+01 1.944713197089731693e+01 3.921634144475689254e+00
2.675575619190931320e+01 9.280628064647316933e+00 1.339007801702251754e+00
1.425075130909681320e+01 5.246692517772316933e+00 6.179995009210017543e-01
1.492116146534681320e+01 5.500720838084816933e+00 6.641420790460017543e-01
1.460280209034681320e+01 5.574939588084816933e+00 6.494326063897517543e-01
2.620509701222181320e+01 8.110950330272316933e+00 1.383334583928814254e+00
2.595802669972181320e+01 8.312732556834816933e+00 1.377368397405376754e+00
2.614137630909681320e+01 8.608630994334816933e+00 1.398608631780376754e+00
9.514625912159681320e+01 2.531859193183481693e+01 5.824908680608501754e+00
8.334120541065931320e+01 2.336607728339731693e+01 5.103915638616314254e+00
1.420778255909681320e+01 5.237537244334816933e+00 6.737245985772517543e-01
1.493178158253431320e+01 5.501087049022316933e+00 7.270235487725642543e-01
2.612477474659681320e+01 7.836780408397316933e+00 1.483752674749126754e+00
2.606752377003431320e+01 8.079456189647316933e+00 1.489718861272564254e+00
2.604762630909681320e+01 8.329212049022316933e+00 1.498202747991314254e+00
3.205446224659681320e+01 9.952380994334816933e+00 1.918597645452251754e+00
1.792055111378431320e+01 5.888172009959816933e+00 9.961275526788142543e-01
2.681300716847181320e+01 7.709216931834816933e+00 1.637973255803814254e+00
1.461415462940931320e+01 5.573963025584816933e+00 7.715334364678767543e-01
2.615480404347181320e+01 8.094470838084816933e+00 1.610461659124126754e+00
2.614625912159681320e+01 8.347766736522316933e+00 1.619952625921001754e+00
3.207606869190931320e+01 9.953601697459816933e+00 2.063312000921001754e+00
3.206825619190931320e+01 1.027232728339731693e+01 2.076220936467876754e+00
2.495216732472181320e+01 7.120715955272316933e+00 1.604663319280376754e+00
2.711500912159681320e+01 7.762195447459816933e+00 1.778415150335064254e+00
2.704335384815931320e+01 8.010974744334816933e+00 1.783603138616314254e+00
2.712038021534681320e+01 8.291004041209816933e+00 1.800250477483501754e+00
2.632924252003431320e+01 8.384387830272316933e+00 1.749804920842876754e+00
3.207973080128431320e+01 9.950794080272316933e+00 2.207660145452251754e+00
3.199049740284681320e+01 1.025011048652231693e+01 2.213702625921001754e+00
1.355971127003431320e+01 6.015125134959816933e+00 -2.918515732977482457e-01
1.341359310597181320e+01 6.102649549022316933e+00 -2.874875596258732457e-01
1.333620052784681320e+01 6.206531384959816933e+00 -2.842221787664982457e-01
1.355238705128431320e+01 6.392932752147316933e+00 -2.841153672430607457e-01
1.324525814503431320e+01 6.430652478709816933e+00 -2.784085801336857457e-01
1.338112240284681320e+01 6.597278455272316933e+00 -2.773862412664982457e-01
1.330775814503431320e+01 6.702136853709816933e+00 -2.741666367743107457e-01
9.967914395034313202e+00 5.739246228709816933e+00 -2.388883164618107457e-01
1.349562435597181320e+01 5.997669080272316933e+00 -2.351499131414982457e-01
1.343812923878431320e+01 6.107654431834816933e+00 -2.322049668524357457e-01
1.361976986378431320e+01 6.282337049022316933e+00 -2.304502061102482457e-01
1.356178646534681320e+01 6.394275525584816933e+00 -2.274594834539982457e-01
1.319777279347181320e+01 6.415393689647316933e+00 -2.227292588446232457e-01
1.338978939503431320e+01 6.598621228709816933e+00 -2.212033799383732457e-01
1.367616634815931320e+01 6.816882947459816933e+00 -2.203794053289982457e-01
9.968402676284313202e+00 5.738513806834816933e+00 -1.988492539618107457e-01
1.383217220753431320e+01 6.080554822459816933e+00 -1.798062852118107457e-01
1.344984798878431320e+01 6.109363416209816933e+00 -1.763577988836857457e-01
1.360756283253431320e+01 6.277576306834816933e+00 -1.738400986883732457e-01
1.374025326222181320e+01 6.443347791209816933e+00 -1.711850693914982457e-01
1.349037533253431320e+01 6.499866345897316933e+00 -1.681027940008732457e-01
1.371107845753431320e+01 6.695056775584816933e+00 -1.654477647039982457e-01
1.328065853565931320e+01 6.690906384959816933e+00 -1.623654893133732457e-01
9.968890957534313202e+00 5.737781384959816933e+00 -1.587949326727482457e-01
1.381105404347181320e+01 6.073840955272316933e+00 -1.225858262274357457e-01
1.336464291065931320e+01 6.085681775584816933e+00 -1.206784775946232457e-01
1.347694759815931320e+01 6.240711072459816933e+00 -1.174130967352482457e-01
1.353749447315931320e+01 6.384631970897316933e+00 -1.142545273993107457e-01
1.347902279347181320e+01 6.495227674022316933e+00 -1.115232041571232457e-01
1.335182552784681320e+01 6.584339002147316933e+00 -1.090817979071232457e-01
1.351918392628431320e+01 6.764758924022316933e+00 -1.053891709539982457e-01
9.969379238784313202e+00 5.736926892772316933e+00 -1.189237168524357457e-01
1.331386166065931320e+01 5.947864392772316933e+00 -6.882911236024824575e-02
9.405658535659313202e+00 5.050891736522316933e+00 -9.640174419618574575e-02
9.474872402846813202e+00 5.151965955272316933e+00 -9.383826763368574575e-02
9.546039395034313202e+00 5.255847791209816933e+00 -9.119849712587324575e-02
9.618671230971813202e+00 5.361926892772316933e+00 -8.849769146181074575e-02
9.693134121596813202e+00 5.470569470897316933e+00 -8.573585064149824575e-02
9.769794277846813202e+00 5.582263806834816933e+00 -8.288245708681074575e-02
9.848041348159313202e+00 5.696521619334816933e+00 -7.998328716493574575e-02
9.287494473159313202e+00 4.938709119334816933e+00 -6.342750103212324575e-02
9.353900723159313202e+00 5.036487439647316933e+00 -6.032996685243574575e-02
9.422015957534313202e+00 5.136707166209816933e+00 -5.735450298524824575e-02
9.492084316909313202e+00 5.239734509959816933e+00 -5.428748638368574575e-02
9.563617520034313202e+00 5.344837049022316933e+00 -5.117469341493574575e-02
9.636981777846813202e+00 5.452503064647316933e+00 -4.797034771181074575e-02
9.712299160659313202e+00 5.563342908397316933e+00 -4.467444927431074575e-02
9.789569668471813202e+00 5.676502088084816933e+00 -4.151587993837324575e-02
9.237445645034313202e+00 4.925281384959816933e+00 -2.821021587587324575e-02
9.303119473159313202e+00 5.022327283397316933e+00 -2.491431743837324575e-02
9.370258145034313202e+00 5.121814588084816933e+00 -2.154212505556074575e-02
9.445819668471813202e+00 5.225818494334816933e+00 -1.795630962587324575e-02
9.522968105971813202e+00 5.332019666209816933e+00 -1.429420025087324575e-02
9.602191738784313202e+00 5.441150525584816933e+00 -1.054053814149824575e-02
9.683734707534313202e+00 5.553455213084816933e+00 -6.664805719623245750e-03
9.767230801284313202e+00 5.668323377147316933e+00 -2.712779352435745750e-03
9.266620449721813202e+00 4.931629041209816933e+00 8.059925725689254250e-03
9.339130215346813202e+00 5.030872205272316933e+00 1.193565814756425425e-02
9.413715176284313202e+00 5.132678845897316933e+00 1.610130756162675425e-02
9.490253262221813202e+00 5.237415174022316933e+00 2.019066303037675425e-02
9.568500332534313202e+00 5.344470838084816933e+00 2.437157123350175425e-02
9.648700527846813202e+00 5.454334119334816933e+00 2.865929096006425425e-02
9.731220059096813202e+00 5.567493299022316933e+00 3.285545795225175425e-02
9.815814785659313202e+00 5.683215955272316933e+00 3.737205951475175425e-02
9.308612637221813202e+00 4.941272595897316933e+00 4.516930072568925425e-02
9.382098965346813202e+00 5.041126111522316933e+00 4.951805560850175425e-02
9.457416348159313202e+00 5.143665174022316933e+00 5.398888080381425425e-02
9.526752285659313202e+00 5.246814588084816933e+00 5.836815326475175425e-02
9.597430996596813202e+00 5.352039197459816933e+00 6.282371967100175425e-02
9.669940762221813202e+00 5.459827283397316933e+00 6.740135638975175425e-02
9.744403652846813202e+00 5.570667127147316933e+00 7.208580463193925425e-02
9.820331387221813202e+00 5.683826306834816933e+00 7.689232318662675425e-02
9.282489590346813202e+00 4.933826306834816933e+00 8.035606830381425425e-02
9.347675137221813202e+00 5.031360486522316933e+00 8.488792865537675425e-02
9.414325527846813202e+00 5.131091931834816933e+00 8.952660053037675425e-02
9.482684902846813202e+00 5.233508924022316933e+00 9.430260150693925425e-02
9.552509121596813202e+00 5.338001111522316933e+00 9.915489642881425425e-02
9.624042324721813202e+00 5.445056775584816933e+00 1.041445204522517543e-01
9.697528652846813202e+00 5.555042127147316933e+00 1.092562147881892543e-01
9.772479824721813202e+00 5.667346814647316933e+00 1.144899794366267543e-01
9.241351895034313202e+00 4.922595838084816933e+00 1.149477431085017543e-01
9.305560879409313202e+00 5.019397595897316933e+00 1.198610731866267543e-01
9.371356777846813202e+00 5.118518689647316933e+00 1.248812147881892543e-01
9.440448574721813202e+00 5.220691541209816933e+00 1.300844618585017543e-01
9.521137051284313202e+00 5.327869275584816933e+00 1.357912489678767543e-01
9.603900723159313202e+00 5.438098767772316933e+00 1.416353651788142543e-01
9.689349941909313202e+00 5.551624158397316933e+00 1.476625868585017543e-01
9.776752285659313202e+00 5.667835095897316933e+00 1.538423964288142543e-01
9.261493496596813202e+00 4.926746228709816933e+00 1.514772841241267543e-01
9.337299160659313202e+00 5.026843884959816933e+00 1.572603651788142543e-01
9.415057949721813202e+00 5.129505017772316933e+00 1.632112929131892543e-01
9.495136074721813202e+00 5.235217908397316933e+00 1.693300673272517543e-01
9.577045254409313202e+00 5.343372205272316933e+00 1.755861708428767543e-01
9.661273770034313202e+00 5.454578259959816933e+00 1.820253798272517543e-01
9.748065762221813202e+00 5.569080213084816933e+00 1.886629530694392543e-01
9.837055020034313202e+00 5.686511853709816933e+00 1.954531142022517543e-01
9.313495449721813202e+00 4.938831189647316933e+00 1.898378798272517543e-01
9.390399746596813202e+00 5.039783338084816933e+00 1.961702772881892543e-01
9.469135098159313202e+00 5.143176892772316933e+00 2.024568983819392543e-01
3.514320736378431320e+01 1.245494447089731693e+01 1.400241322210064254e+00
6.592177181690931320e+01 2.181297669745981693e+01 2.856692738225689254e+00
6.529750423878431320e+01 2.232078919745981693e+01 2.851321644475689254e+00
7.232497005909681320e+01 2.522484193183481693e+01 3.212253040960064254e+00
7.696876888722181320e+01 2.750999818183481693e+01 3.462359852483501754e+00
1.412746029347181320e+01 6.138416150584816933e+00 4.674868056085017543e-01
2.666542416065931320e+01 9.529895642772316933e+00 1.106219715764751754e+00
1.477687435597181320e+01 6.578845838084816933e+00 5.100740858819392543e-01
3.512807064503431320e+01 1.244676575995981693e+01 1.559878773381939254e+00
7.204127865284681320e+01 2.359373841620981693e+01 3.482104725530376754e+00
7.353749447315931320e+01 2.481065736152231693e+01 3.587497181585064254e+00
7.969472103565931320e+01 2.753111634589731693e+01 3.939059681585064254e+00
7.665517025440931320e+01 2.739976868964731693e+01 3.809024281194439254e+00
2.614601498097181320e+01 9.132556775584816933e+00 1.186953968694439254e+00
7.020082455128431320e+01 2.084007630683481693e+01 3.632617420842876754e+00
1.479677181690931320e+01 6.582630017772316933e+00 5.734590956475642543e-01
3.510585384815931320e+01 1.243663392402231693e+01 1.718173451116314254e+00
8.029201107472181320e+01 2.599559388495981693e+01 4.284945912053814254e+00
8.255568294972181320e+01 2.753453431464731693e+01 4.445498890569439254e+00
7.915834408253431320e+01 2.735399232245981693e+01 4.283709950139751754e+00
7.647706966847181320e+01 2.733348450995981693e+01 4.162494129827251754e+00
2.675465755909681320e+01 9.281360486522316933e+00 1.338977284124126754e+00
8.290883236378431320e+01 2.413280091620981693e+01 4.722903675725689254e+00
3.561732845753431320e+01 1.221129212714731693e+01 1.895587391546001754e+00
3.514870052784681320e+01 1.244481263495981693e+01 1.881106800725689254e+00
8.000416927784681320e+01 2.590257630683481693e+01 4.645480580022564254e+00
7.950758724659681320e+01 2.660228333808481693e+01 4.647525257756939254e+00
7.931703548878431320e+01 2.739500794745981693e+01 4.668475575139751754e+00
7.815492611378431320e+01 2.787010560370981693e+01 4.628543324163189254e+00
8.333803158253431320e+01 2.336839661933481693e+01 5.103824085881939254e+00
8.340919857472181320e+01 2.425316224433481693e+01 5.140796131780376754e+00
3.562794857472181320e+01 1.221019349433481693e+01 2.057773060491314254e+00
3.504225521534681320e+01 1.241112122870981693e+01 2.033832020452251754e+00
8.238380794972181320e+01 2.658812318183481693e+01 5.177676624944439254e+00
8.154896908253431320e+01 2.721141419745981693e+01 5.156939930608501754e+00
8.031630306690931320e+01 2.769969544745981693e+01 5.109164662053814254e+00
8.061464291065931320e+01 2.866002259589731693e+01 5.165622181585064254e+00
8.283778744190931320e+01 2.409532533027231693e+01 5.491015858342876754e+00
8.272084408253431320e+01 2.492967591620981693e+01 5.518359608342876754e+00
3.515858822315931320e+01 1.243980775214731693e+01 2.202121205022564254e+00
8.197157650440931320e+01 2.645848450995981693e+01 5.536883778264751754e+00
8.038393002003431320e+01 2.684971986152231693e+01 5.459338612249126754e+00
8.026356869190931320e+01 2.767430482245981693e+01 5.486056751897564254e+00
7.952394466847181320e+01 2.829735169745981693e+01 5.468020863225689254e+00
8.306923275440931320e+01 2.501427064277231693e+01 5.930255360296001754e+00
3.501967220753431320e+01 1.239696107245981693e+01 2.351504749944439254e+00
7.965809994190931320e+01 2.747569642402231693e+01 5.820178455999126754e+00
8.274696712940931320e+01 2.491783509589731693e+01 6.294299549749126754e+00
3.509340267628431320e+01 1.241380677558481693e+01 2.517474598577251754e+00
9.967426113784313202e+00 5.739368299022316933e+00 -2.388883164618107457e-01
1.348231869190931320e+01 7.017078259959816933e+00 -2.712827256414982457e-01
1.358375912159681320e+01 7.183582166209816933e+00 -2.700772813055607457e-01
1.338490658253431320e+01 7.245715955272316933e+00 -2.660184434149357457e-01
1.324318294972181320e+01 7.325061658397316933e+00 -2.625546982977482457e-01
1.365016537159681320e+01 7.612048963084816933e+00 -2.640348008368107457e-01
1.344313412159681320e+01 7.667957166209816933e+00 -2.599607041571232457e-01
1.394728451222181320e+01 8.007922986522316933e+00 -2.623868516180607457e-01
9.967914395034313202e+00 5.738635877147316933e+00 -1.988339951727482457e-01
1.345033627003431320e+01 7.004993299022316933e+00 -2.141690781805607457e-01
1.348097591847181320e+01 7.146472791209816933e+00 -2.116513779852482457e-01
1.370399837940931320e+01 7.359241345897316933e+00 -2.102475693914982457e-01
1.321498470753431320e+01 7.313342908397316933e+00 -2.057309678289982457e-01
1.363563900440931320e+01 7.605213025584816933e+00 -2.050595811102482457e-01
1.344411068409681320e+01 7.667102674022316933e+00 -2.021604111883732457e-01
1.398732357472181320e+01 8.022815564647316933e+00 -2.017026475164982457e-01
9.968402676284313202e+00 5.737903455272316933e+00 -1.587796738836857457e-01
1.341847591847181320e+01 6.992908338084816933e+00 -1.570706895086857457e-01
1.344288998097181320e+01 7.131946424022316933e+00 -1.544919541571232457e-01
1.334254818409681320e+01 7.227893689647316933e+00 -1.519437363836857457e-01
1.372694759815931320e+01 7.502063611522316933e+00 -1.491208604071232457e-01
1.776332455128431320e+01 9.181995252147316933e+00 -1.429563096258732457e-01
1.344520931690931320e+01 7.666248181834816933e+00 -1.440244248602482457e-01
1.401308041065931320e+01 8.032092908397316933e+00 -1.406217148993107457e-01
9.968890957534313202e+00 5.737171033397316933e+00 -1.189237168524357457e-01
9.947650723159313202e+00 5.821399549022316933e+00 -1.168790391180607457e-01
1.342274837940931320e+01 7.123645642772316933e+00 -9.730201275087324575e-02
1.365187435597181320e+01 7.337879041209816933e+00 -9.328895122743574575e-02
1.384682064503431320e+01 7.545154431834816933e+00 -8.935218364931074575e-02
1.425026302784681320e+01 7.837634900584816933e+00 -8.408790142274824575e-02
1.344911556690931320e+01 7.666492322459816933e+00 -8.585792095399824575e-02
1.401698666065931320e+01 8.032337049022316933e+00 -7.973914653993574575e-02
9.848651699721813202e+00 5.697009900584816933e+00 -7.996802837587324575e-02
9.929218105971813202e+00 5.814197400584816933e+00 -7.714515239931074575e-02
1.004530697315931320e+01 5.946399549022316933e+00 -7.389503032899824575e-02
1.016798763722181320e+01 6.084461072459816933e+00 -7.050757915712324575e-02
1.029481869190931320e+01 6.227161267772316933e+00 -6.701331646181074575e-02
1.042653255909681320e+01 6.375232556834816933e+00 -6.338172466493574575e-02
1.056373959034681320e+01 6.529651502147316933e+00 -5.958228618837324575e-02
1.070595150440931320e+01 6.689685681834816933e+00 -5.566077739931074575e-02
9.790180020034313202e+00 5.676990369334816933e+00 -4.150062114931074575e-02
9.869037441909313202e+00 5.793079236522316933e+00 -3.797584087587324575e-02
9.950336270034313202e+00 5.912341931834816933e+00 -3.455787212587324575e-02
1.009022884815931320e+01 6.055530408397316933e+00 -3.017859966493574575e-02
1.021449642628431320e+01 6.196399549022316933e+00 -2.596717388368574575e-02
1.034340267628431320e+01 6.342639783397316933e+00 -2.158790142274824575e-02
1.047768002003431320e+01 6.494861463084816933e+00 -1.702552349306074575e-02
1.061720638722181320e+01 6.652820447459816933e+00 -1.253943950868574575e-02
9.767963223159313202e+00 5.668933728709816933e+00 -2.697520563373245750e-03
9.853656582534313202e+00 5.786975720897316933e+00 1.285023381939254250e-03
9.941791348159313202e+00 5.908557752147316933e+00 5.374378850689254250e-03
1.009498959034681320e+01 6.056384900584816933e+00 1.083702533506425425e-02
1.023280697315931320e+01 6.202258924022316933e+00 1.608604877256425425e-02
1.037623959034681320e+01 6.354236463084816933e+00 2.154869525693925425e-02
1.052626400440931320e+01 6.513049939647316933e+00 2.725548236631425425e-02
1.068214779347181320e+01 6.678211072459816933e+00 3.319115131162675425e-02
9.816425137221813202e+00 5.683826306834816933e+00 3.740257709287675425e-02
9.903339199721813202e+00 5.802844861522316933e+00 4.196495502256425425e-02
1.002565365284681320e+01 5.936755994334816933e+00 4.770225971006425425e-02
1.016090755909681320e+01 6.079089978709816933e+00 5.363792865537675425e-02
1.030104427784681320e+01 6.226672986522316933e+00 5.978722064756425425e-02
1.043983822315931320e+01 6.377551892772316933e+00 6.601280658506425425e-02
1.057448177784681320e+01 6.531116345897316933e+00 7.202476947568925425e-02
1.071351986378431320e+01 6.689929822459816933e+00 7.846397846006425425e-02
9.821063809096813202e+00 5.684314588084816933e+00 7.690758197568925425e-02
9.899066738784313202e+00 5.800525525584816933e+00 8.179039447568925425e-02
1.000429134815931320e+01 5.928455213084816933e+00 8.754295795225175425e-02
1.012257748097181320e+01 6.064441541209816933e+00 9.378380267881425425e-02
1.024476986378431320e+01 6.204944470897316933e+00 1.002230116631892543e-01
1.037160091847181320e+01 6.350574353709816933e+00 1.069063612725642543e-01
1.050355892628431320e+01 6.502307752147316933e+00 1.138491102960017543e-01
1.064015560597181320e+01 6.659290174022316933e+00 1.210512587335017543e-01
9.773090176284313202e+00 5.667835095897316933e+00 1.145204970147517543e-01
9.850116543471813202e+00 5.783069470897316933e+00 1.198610731866267543e-01
9.929096035659313202e+00 5.901355603709816933e+00 1.253542372491267543e-01
1.005958919972181320e+01 6.040881970897316933e+00 1.327089735772517543e-01
1.018849544972181320e+01 6.183215955272316933e+00 1.401094862725642543e-01
1.033803158253431320e+01 6.336902478709816933e+00 1.483492323663142543e-01
1.049452572315931320e+01 6.497913220897316933e+00 1.569704481866267543e-01
1.065748959034681320e+01 6.665393689647316933e+00 1.659578749444392543e-01
9.777484707534313202e+00 5.668323377147316933e+00 1.538729140069392543e-01
9.867450527846813202e+00 5.788074353709816933e+00 1.602510878350642543e-01
9.960223965346813202e+00 5.911243299022316933e+00 1.668123671319392543e-01
1.012636166065931320e+01 6.063953259959816933e+00 1.763643690850642543e-01
1.027296810597181320e+01 6.213489392772316933e+00 1.852755018975642543e-01
1.042580013722181320e+01 6.369373181834816933e+00 1.945833632256892543e-01
1.058595638722181320e+01 6.532825330272316933e+00 2.043184706475642543e-01
1.075270443409681320e+01 6.702991345897316933e+00 2.144503065850642543e-01
9.837665371596813202e+00 5.687122205272316933e+00 1.954988905694392543e-01
9.929340176284313202e+00 5.807971814647316933e+00 2.025331923272517543e-01
7.423476009815931320e+01 2.824107728339731693e+01 3.033587879827251754e+00
1.993996029347181320e+01 9.582874158397316933e+00 6.528200575616267543e-01
2.013490658253431320e+01 9.861194470897316933e+00 6.685060927178767543e-01
1.929066830128431320e+01 9.749011853709816933e+00 6.375154921319392543e-01
1.965785580128431320e+01 1.009569154120981693e+01 6.610598036553767543e-01
6.710426693409681320e+01 2.948961243964731693e+01 2.846011585881939254e+00
7.696754818409681320e+01 2.751243958808481693e+01 3.462390370061626754e+00
7.645778255909681320e+01 2.817296204902231693e+01 3.467135853460064254e+00
7.507533627003431320e+01 2.852501283027231693e+01 3.427142567327251754e+00
6.875990658253431320e+01 2.708617005683481693e+01 3.145434803655376754e+00
1.958790951222181320e+01 9.656848767772316933e+00 7.316469618585017543e-01
2.008986263722181320e+01 1.005186829902231693e+01 7.639803358819392543e-01
1.941713314503431320e+01 9.999255994334816933e+00 7.379946181085017543e-01
6.696718197315931320e+01 2.942735658027231693e+01 3.164523548772564254e+00
7.666273861378431320e+01 2.740501771308481693e+01 3.809512562444439254e+00
7.638441830128431320e+01 2.814000306464731693e+01 3.825305409124126754e+00
7.585634212940931320e+01 2.878819642402231693e+01 3.827685780217876754e+00
1.986561947315931320e+01 9.552356580272316933e+00 8.273195692803767543e-01
7.515846615284681320e+01 3.020225892402231693e+01 3.851443714788189254e+00
4.062916927784681320e+01 1.787804017402231693e+01 1.984073109319439254e+00
4.032619076222181320e+01 1.820689759589731693e+01 1.983844227483501754e+00
6.674733334034681320e+01 2.933165345527231693e+01 3.475390858342876754e+00
7.672890072315931320e+01 2.741807923652231693e+01 4.177112049749126754e+00
7.725636654347181320e+01 2.842479310370981693e+01 4.237826771428814254e+00
7.502113705128431320e+01 2.849010072089731693e+01 4.139331288030376754e+00
7.466054134815931320e+01 2.918602357245981693e+01 4.149859852483501754e+00
7.423158627003431320e+01 2.985167298652231693e+01 4.156146473577251754e+00
4.061122494190931320e+01 1.786705384589731693e+01 2.174380726506939254e+00
4.046998959034681320e+01 1.825926575995981693e+01 2.183124012639751754e+00
6.714552669972181320e+01 2.948582825995981693e+01 3.823474354436626754e+00
7.815468197315931320e+01 2.787291322089731693e+01 4.628619618108501754e+00
7.699745541065931320e+01 2.832945618964731693e+01 4.589602894475689254e+00
7.565236263722181320e+01 2.870116029120981693e+01 4.537890858342876754e+00
7.447743587940931320e+01 2.911253724433481693e+01 4.496203846624126754e+00
7.452772884815931320e+01 2.995335755683481693e+01 4.532443470647564254e+00
4.083937435597181320e+01 1.794969544745981693e+01 2.381564564397564254e+00
4.052577572315931320e+01 1.827696595527231693e+01 2.379168934514751754e+00
6.730995541065931320e+01 2.954539857245981693e+01 4.158481068303814254e+00
8.061720638722181320e+01 2.866380677558481693e+01 5.165896839788189254e+00
7.655812435597181320e+01 2.817357240058481693e+01 4.924762196233501754e+00
7.684743099659681320e+01 2.910753236152231693e+01 4.979312367131939254e+00
7.463478451222181320e+01 2.916099915839731693e+01 4.862353748967876754e+00
7.446693783253431320e+01 2.992308411933481693e+01 4.885119862249126754e+00
4.056483822315931320e+01 1.784105286933481693e+01 2.554950184514751754e+00
4.049721127003431320e+01 1.826170716620981693e+01 2.568850941350689254e+00
6.726320248097181320e+01 2.951964173652231693e+01 4.482013172796001754e+00
7.952394466847181320e+01 2.830015931464731693e+01 5.468112415960064254e+00
7.927540951222181320e+01 2.907725892402231693e+01 5.487307972600689254e+00
7.702235775440931320e+01 3.000780091620981693e+01 5.396457142522564254e+00
