8.197073608636856079e+00 3.444952620193362236e+00 -2.338757921475860257e-01
7.697928100824356079e+00 3.472662581130862236e+00 -2.264905382413360257e-01
7.600393921136856079e+00 3.525274885818362236e+00 -2.236829210538360257e-01
8.351370483636856079e+00 3.658209456130862236e+00 -2.299695421475860257e-01
7.790457397699356079e+00 3.666144026443362236e+00 -2.223096300382110257e-01
8.033987671136856079e+00 3.240606917068362236e+00 -2.081189562100860257e-01
7.957815796136856079e+00 3.301153792068362236e+00 -2.057080675382110257e-01
7.871512085199356079e+00 3.359625471755862236e+00 -2.032666612882110257e-01
7.784964233636856079e+00 3.416754378005862236e+00 -2.008710314053985257e-01
7.666311889886856079e+00 3.469488753005862236e+00 -1.983075548428985257e-01
7.598318725824356079e+00 3.524298323318362236e+00 -1.961255480069610257e-01
9.266531616449356079e+00 3.745489729568362236e+00 -2.041364122647735257e-01
8.126516968011856079e+00 3.701178206130862236e+00 -1.955762316007110257e-01
7.392752319574356079e+00 3.216436995193362236e+00 -1.767621446866485257e-01
7.952322632074356079e+00 3.299933088943362236e+00 -1.764264513272735257e-01
8.191702514886856079e+00 3.376715315505862236e+00 -1.751447130460235257e-01
7.778250366449356079e+00 3.415411604568362236e+00 -1.723370958585235257e-01
7.625906616449356079e+00 3.465582503005862236e+00 -1.702466417569610257e-01
8.193777710199356079e+00 3.574835432693362236e+00 -1.693463732022735257e-01
8.319632202386856079e+00 3.653326643630862236e+00 -1.675610948819610257e-01
8.732840210199356079e+00 3.764776838943362236e+00 -1.661420274991485257e-01
7.379446655511856079e+00 3.215216292068362236e+00 -1.501202989835235257e-01
7.946829468011856079e+00 3.298834456130862236e+00 -1.473431993741485257e-01
7.860769897699356079e+00 3.357306135818362236e+00 -1.456647325772735257e-01
7.771658569574356079e+00 3.414190901443362236e+00 -1.440167833585235257e-01
8.238211303949356079e+00 3.511358870193362236e+00 -1.409039903897735257e-01
8.210623413324356079e+00 3.575445784255862236e+00 -1.390119005460235257e-01
8.212088257074356079e+00 3.642096174880862236e+00 -1.370282579678985257e-01
8.750784546136856079e+00 3.765753401443362236e+00 -1.330914903897735257e-01
7.366263061761856079e+00 3.213873518630862236e+00 -1.237531114835235257e-01
7.934866577386856079e+00 3.297369612380862236e+00 -1.181989122647735257e-01
7.852957397699356079e+00 3.355963362380862236e+00 -1.168561388272735257e-01
7.765066772699356079e+00 3.412848128005862236e+00 -1.156049181241485257e-01
7.673514038324356079e+00 3.467535628005862236e+00 -1.144299913663360257e-01
8.227591186761856079e+00 3.576056135818362236e+00 -1.083569933194610257e-01
8.339651733636856079e+00 3.653448713943362236e+00 -1.054578233975860257e-01
8.386526733636856079e+00 3.726080549880862236e+00 -1.031995226163360257e-01
8.005911499261856079e+00 3.235968245193362236e+00 -9.032110464758602575e-02
7.922293335199356079e+00 3.295904768630862236e+00 -8.931402456946102575e-02
8.157278686761856079e+00 3.372076643630862236e+00 -8.473638785071102575e-02
7.753714233636856079e+00 3.411261213943362236e+00 -8.745245230383602575e-02
8.211966186761856079e+00 3.507574690505862236e+00 -8.009771597571102575e-02
8.244558960199356079e+00 3.576544417068362236e+00 -7.768682730383602575e-02
8.304373413324356079e+00 3.649176253005862236e+00 -7.490972769446102575e-02
8.362845093011856079e+00 3.722662581130862236e+00 -7.211736929602352575e-02
8.054007202386856079e+00 3.236822737380862236e+00 -6.024603140539852575e-02
7.909720093011856079e+00 3.294561995193362236e+00 -6.053594839758602575e-02
8.123709350824356079e+00 3.369391096755862236e+00 -5.502752554602352575e-02
7.725882202386856079e+00 3.408575667068362236e+00 -5.951360953039852575e-02
8.195608764886856079e+00 3.505377424880862236e+00 -4.983953726477352575e-02
8.232229858636856079e+00 3.574591292068362236e+00 -4.719976675696102575e-02
8.269461303949356079e+00 3.644903792068362236e+00 -4.466680777258602575e-02
8.324392944574356079e+00 3.717779768630862236e+00 -4.166082632727352575e-02
7.980154663324356079e+00 3.233282698318362236e+00 -3.200201285071102575e-02
7.897879272699356079e+00 3.293097151443362236e+00 -3.169683706946102575e-02
7.844412475824356079e+00 3.352911604568362236e+00 -3.085760367102352575e-02
7.698416382074356079e+00 3.406012190505862236e+00 -3.197149527258602575e-02
8.184622436761856079e+00 3.503668440505862236e+00 -1.976446402258602575e-02
8.243826538324356079e+00 3.574713362380862236e+00 -1.645330679602352575e-02
8.284842163324356079e+00 3.645514143630862236e+00 -1.349310171789852575e-02
8.347464233636856079e+00 3.719244612380862236e+00 -1.002935660071102575e-02
7.967337280511856079e+00 3.231939924880862236e+00 -3.086607577273525749e-03
8.058401733636856079e+00 3.299444807693362236e+00 1.170594571163974251e-03
7.844778686761856079e+00 3.352057112380862236e+00 -2.201597811648525749e-03
8.191580444574356079e+00 3.437384260818362236e+00 8.601624844601474251e-03
8.231741577386856079e+00 3.506353987380862236e+00 1.169915902428897425e-02
8.246756225824356079e+00 3.574103010818362236e+00 1.417108285241397425e-02
8.313894897699356079e+00 3.647467268630862236e+00 1.804681527428897425e-02
8.379568725824356079e+00 3.721808088943362236e+00 2.190728890710147425e-02
7.954519897699356079e+00 3.230597151443362236e+00 2.587457406335147425e-02
7.898855835199356079e+00 3.291388167068362236e+00 2.624078500085147425e-02
7.845266968011856079e+00 3.351202620193362236e+00 2.662225472741397425e-02
8.210013061761856079e+00 3.437628401443362236e+00 3.959222543053897425e-02
8.157156616449356079e+00 3.499884260818362236e+00 4.006524789147647425e-02
8.232718139886856079e+00 3.572027815505862236e+00 4.447503793053897425e-02
8.264212280511856079e+00 3.641729963943362236e+00 4.755731332116397425e-02
8.378714233636856079e+00 3.720831526443362236e+00 5.327935921960147425e-02
7.950857788324356079e+00 3.229620588943362236e+00 5.488153207116397425e-02
7.899344116449356079e+00 3.290533674880862236e+00 5.515619027428897425e-02
7.845755249261856079e+00 3.350470198318362236e+00 5.530877816491397425e-02
8.182058960199356079e+00 3.434942854568362236e+00 6.898065316491397425e-02
8.143484741449356079e+00 3.497931135818362236e+00 6.974359261803897425e-02
8.254202514886856079e+00 3.572882307693362236e+00 7.574029671960147425e-02
8.263723999261856079e+00 3.640875471755862236e+00 7.822747933678897425e-02
8.346853882074356079e+00 3.716559065505862236e+00 8.335443246178897425e-02
7.938528686761856079e+00 3.228277815505862236e+00 8.367486703210147425e-02
7.899832397699356079e+00 3.289679182693362236e+00 8.422418343835147425e-02
8.119070678949356079e+00 3.364630354568362236e+00 9.464593636803897425e-02
8.154348999261856079e+00 3.432257307693362236e+00 9.814019906335147425e-02
8.129812866449356079e+00 3.495978010818362236e+00 9.928460824303897425e-02
8.225760132074356079e+00 3.569586409255862236e+00 1.052355359774139743e-01
8.262137085199356079e+00 3.639776838943362236e+00 1.090044568758514743e-01
8.317679077386856079e+00 3.712530745193362236e+00 1.134295057039764743e-01
7.926199585199356079e+00 3.226935042068362236e+00 1.122240613680389743e-01
8.014090210199356079e+00 3.293951643630862236e+00 1.180834363680389743e-01
8.124685913324356079e+00 3.364020003005862236e+00 1.249956678133514743e-01
8.165701538324356079e+00 3.432135237380862236e+00 1.289171766024139743e-01
8.207083374261856079e+00 3.500860823318362236e+00 1.328997205477264743e-01
8.249075561761856079e+00 3.570685042068362236e+00 1.369280408602264743e-01
8.291800171136856079e+00 3.641729963943362236e+00 1.410326551180389743e-01
8.357229858636856079e+00 3.715826643630862236e+00 1.461748670321014743e-01
8.078177124261856079e+00 3.231329573318362236e+00 1.486315320711639743e-01
8.118094116449356079e+00 3.297613753005862236e+00 1.525072644930389743e-01
8.158865600824356079e+00 3.364996565505862236e+00 1.566118787508514743e-01
8.200247436761856079e+00 3.433478010818362236e+00 1.607775281649139743e-01
8.242117553949356079e+00 3.502569807693362236e+00 1.650042127352264743e-01
8.284598022699356079e+00 3.572760237380862236e+00 1.692766736727264743e-01
8.327810913324356079e+00 3.644293440505862236e+00 1.736406873446014743e-01
8.397390991449356079e+00 3.719122542068362236e+00 1.795000623446014743e-01
8.111746460199356079e+00 3.231573713943362236e+00 1.800951551180389743e-01
9.116995483636856079e+00 3.341192854568362236e+00 2.350267957430389743e-01
8.511282593011856079e+00 3.383307112380862236e+00 2.055162976961639743e-01
8.413992553949356079e+00 3.446295393630862236e+00 2.026476453524139743e-01
8.485525757074356079e+00 3.519903792068362236e+00 2.087511609774139743e-01
8.610769897699356079e+00 3.599493635818362236e+00 2.177843641024139743e-01
2.178716149926185608e+01 4.917975081130862236e+00 9.337114881258514743e-01
2.168901696801185608e+01 5.110724104568362236e+00 9.351152967196014743e-01
8.289358764886856079e+00 3.236822737380862236e+00 2.202257703524139743e-01
8.622732788324356079e+00 3.318243635818362236e+00 2.413286756258514743e-01
8.516775757074356079e+00 3.382574690505862236e+00 2.376055310946014743e-01
8.472586303949356079e+00 3.449103010818362236e+00 2.373766492586639743e-01
8.442801147699356079e+00 3.515753401443362236e+00 2.379564832430389743e-01
8.571097046136856079e+00 3.595221174880862236e+00 2.477526258211639743e-01
2.178984704613685608e+01 4.915533674880862236e+00 1.026957948086788974e+00
2.173576989769935608e+01 5.112921370193362236e+00 1.031077821133663974e+00
8.660330444574356079e+00 3.248541487380862236e+00 2.736925672274139743e-01
8.299612671136856079e+00 3.302984846755862236e+00 2.538256238680389743e-01
2.822478356957435608e+01 4.450934065505862236e+00 1.492335755703976474e+00
8.475271850824356079e+00 3.448370588943362236e+00 2.693285535555389743e-01
8.404837280511856079e+00 3.511969221755862236e+00 2.672533582430389743e-01
8.416311889886856079e+00 3.581183088943362236e+00 2.702898572664764743e-01
2.179265466332435608e+01 4.913092268630862236e+00 1.120753724453976474e+00
2.168523278832435608e+01 5.104986799880862236e+00 1.120799500821163974e+00
8.664236694574356079e+00 3.247686995193362236e+00 3.065599988680389743e-01
8.630545288324356079e+00 3.316656721755862236e+00 3.067278455477264743e-01
2.803764978051185608e+01 4.437140120193362236e+00 1.602351624844601474e+00
8.477835327386856079e+00 3.447638167068362236e+00 3.011431287508514743e-01
8.367483764886856079e+00 3.508307112380862236e+00 2.960772107821014743e-01
8.418875366449356079e+00 3.580450667068362236e+00 3.018755506258514743e-01
2.149883142113685608e+01 4.882574690505862236e+00 1.194407899258663974e+00
2.173357263207435608e+01 5.107306135818362236e+00 1.217326600430538974e+00
8.668997436761856079e+00 3.246832503005862236e+00 3.395037244539764743e-01
8.634451538324356079e+00 3.315802229568362236e+00 3.393206189852264743e-01
8.533743530511856079e+00 3.380621565505862236e+00 3.345598767977264743e-01
8.480520874261856079e+00 3.446783674880862236e+00 3.331560682039764743e-01
2.721953454613685608e+01 4.903204573318362236e+00 1.684092957852413974e+00
2.181755700707435608e+01 4.706183088943362236e+00 1.302348573086788974e+00
2.168096032738685608e+01 4.897101057693362236e+00 1.299464661953976474e+00
2.164568200707435608e+01 5.095465315505862236e+00 1.304377992032101474e+00
8.089285522699356079e+00 3.699103010818362236e+00 -2.553296495694610257e-01
8.079764038324356079e+00 3.763311995193362236e+00 -2.533765245694610257e-01
7.965506225824356079e+00 3.814093245193362236e+00 -2.500958849210235257e-01
8.515310913324356079e+00 3.954107893630862236e+00 -2.561688829678985257e-01
8.543387085199356079e+00 4.028448713943362236e+00 -2.547803331632110257e-01
8.571829468011856079e+00 4.103521956130862236e+00 -2.533765245694610257e-01
9.160086303949356079e+00 4.273565901443362236e+00 -2.593579698819610257e-01
1.274809899926185608e+01 4.989264143630862236e+00 -3.042340685147735257e-01
7.792654663324356079e+00 3.666632307693362236e+00 -2.223248888272735257e-01
8.481009155511856079e+00 3.809210432693362236e+00 -2.275433946866485257e-01
9.223562866449356079e+00 3.972784651443362236e+00 -2.327161241788360257e-01
7.953055053949356079e+00 3.876227034255862236e+00 -2.188001085538360257e-01
8.500784546136856079e+00 4.021246565505862236e+00 -2.221265245694610257e-01
8.528860718011856079e+00 4.095831526443362236e+00 -2.205396105069610257e-01
8.502249389886856079e+00 4.162359846755862236e+00 -2.186475206632110257e-01
1.273039880394935608e+01 4.984747542068362236e+00 -2.520490099210235257e-01
8.126394897699356079e+00 3.701300276443362236e+00 -1.955609728116485257e-01
7.882742553949356079e+00 3.738653792068362236e+00 -1.925244737882110257e-01
8.759451538324356079e+00 3.913092268630862236e+00 -1.952405382413360257e-01
8.657766968011856079e+00 3.971808088943362236e+00 -1.928296495694610257e-01
8.060354858636856079e+00 3.955694807693362236e+00 -1.882367540616485257e-01
8.549734741449356079e+00 4.098272932693362236e+00 -1.885571886319610257e-01
8.511770874261856079e+00 4.163092268630862236e+00 -1.865125108975860257e-01
1.259075036644935608e+01 4.958502424880862236e+00 -1.995740343350860257e-01
8.732718139886856079e+00 3.765020979568362236e+00 -1.661267687100860257e-01
7.689505249261856079e+00 3.715216292068362236e+00 -1.633191515225860257e-01
8.447439819574356079e+00 3.872686995193362236e+00 -1.619306017178985257e-01
1.292229333519935608e+01 4.553961409255862236e+00 -1.604962755460235257e-01
8.597586303949356079e+00 4.033697737380862236e+00 -1.581159044522735257e-01
8.559378296136856079e+00 4.098883284255862236e+00 -1.561932970303985257e-01
8.517874389886856079e+00 4.163214338943362236e+00 -1.542706896085235257e-01
1.256352868676185608e+01 4.952276838943362236e+00 -1.485333849210235257e-01
8.750662475824356079e+00 3.765997542068362236e+00 -1.330762316007110257e-01
8.826712280511856079e+00 3.846808088943362236e+00 -1.307721544522735257e-01
7.765432983636856079e+00 3.785528792068362236e+00 -1.332288194913360257e-01
1.330315271019935608e+01 4.604498518630862236e+00 -1.064649034757110257e-01
8.607229858636856079e+00 4.034186018630862236e+00 -1.257062364835235257e-01
8.568899780511856079e+00 4.099493635818362236e+00 -1.239056993741485257e-01
8.530691772699356079e+00 4.164557112380862236e+00 -1.221204210538360257e-01
1.251250329613685608e+01 4.941900862380862236e+00 -9.761480581946102575e-02
8.386770874261856079e+00 3.726324690505862236e+00 -1.031995226163360257e-01
8.452566772699356079e+00 3.802374495193362236e+00 -1.005139757413360257e-01
8.503836303949356079e+00 3.877936018630862236e+00 -9.808782828039852575e-02
8.556204468011856079e+00 3.955206526443362236e+00 -9.560064566321102575e-02
8.609305053949356079e+00 4.033575667068362236e+00 -9.308294546789852575e-02
8.578543335199356079e+00 4.100103987380862236e+00 -9.134344351477352575e-02
8.718680053949356079e+00 4.195074690505862236e+00 -8.789495718664852575e-02
8.775076538324356079e+00 4.277960432693362236e+00 -8.542303335852352575e-02
8.363211303949356079e+00 3.723028792068362236e+00 -7.210211050696102575e-02
8.413015991449356079e+00 3.796881331130862236e+00 -6.946233999914852575e-02
8.463553100824356079e+00 3.871954573318362236e+00 -6.676153433508602575e-02
8.515310913324356079e+00 3.948736799880862236e+00 -6.401495230383602575e-02
8.567679077386856079e+00 4.026617659255862236e+00 -6.123785269446102575e-02
8.621145874261856079e+00 4.105963362380862236e+00 -5.839971792883602575e-02
8.675711303949356079e+00 4.187018049880862236e+00 -5.550054800696102575e-02
8.731131225824356079e+00 4.269171370193362236e+00 -5.255560171789852575e-02
8.324637085199356079e+00 3.718023909255862236e+00 -4.164556753821102575e-02
8.373831421136856079e+00 3.791388167068362236e+00 -3.874639761633602575e-02
8.425223022699356079e+00 3.866217268630862236e+00 -3.561834585852352575e-02
8.481497436761856079e+00 3.943243635818362236e+00 -3.250555288977352575e-02
8.538870483636856079e+00 4.021490706130862236e+00 -2.934698355383602575e-02
8.597220093011856079e+00 4.101324690505862236e+00 -2.612737906164852575e-02
8.656790405511856079e+00 4.182989729568362236e+00 -2.301458609289852575e-02
8.717581421136856079e+00 4.265997542068362236e+00 -1.965765249914852575e-02
8.347830444574356079e+00 3.719610823318362236e+00 -1.001409781164852575e-02
8.402517944574356079e+00 3.793829573318362236e+00 -6.718199374148525749e-03
8.458182007074356079e+00 3.869513167068362236e+00 -3.346006991336025749e-03
8.515188843011856079e+00 3.946905745193362236e+00 8.722054772647425125e-05
8.573050171136856079e+00 4.025641096755862236e+00 3.581483243038974251e-03
8.632132202386856079e+00 4.105841292068362236e+00 7.136781094601474251e-03
8.692557007074356079e+00 4.187994612380862236e+00 1.078363168053897425e-02
8.753958374261856079e+00 4.271490706130862236e+00 1.449151742272647425e-02
8.380057007074356079e+00 3.722052229568362236e+00 2.192254769616397425e-02
8.435232788324356079e+00 3.796759260818362236e+00 2.553888070397647425e-02
8.491507202386856079e+00 3.872809065505862236e+00 2.923150765710147425e-02
8.549124389886856079e+00 3.950689924880862236e+00 3.300042855553897425e-02
8.607596069574356079e+00 4.029791487380862236e+00 3.684564339928897425e-02
8.667288452386856079e+00 4.110479963943362236e+00 4.075189339928897425e-02
8.723196655511856079e+00 4.192267073318362236e+00 4.461236703210147425e-02
8.778494507074356079e+00 4.274908674880862236e+00 4.847284066491397425e-02
8.379080444574356079e+00 3.721075667068362236e+00 5.329461800866397425e-02
8.428274780511856079e+00 3.795050276443362236e+00 5.701776253991397425e-02
8.478201538324356079e+00 3.870245588943362236e+00 6.080194222741397425e-02
8.529226928949356079e+00 3.947027815505862236e+00 6.467767464928897425e-02
8.580984741449356079e+00 4.025030745193362236e+00 6.861444222741397425e-02
8.633719116449356079e+00 4.104376448318362236e+00 7.259698617272647425e-02
8.687552124261856079e+00 4.185309065505862236e+00 7.668634164147647425e-02
8.742117553949356079e+00 4.267584456130862236e+00 8.083673226647647425e-02
8.347220093011856079e+00 3.716803206130862236e+00 8.336969125085147425e-02
8.395804077386856079e+00 3.790411604568362236e+00 8.733697640710147425e-02
8.445242553949356079e+00 3.865240706130862236e+00 9.138055550866397425e-02
8.495779663324356079e+00 3.941656721755862236e+00 9.550042855553897425e-02
8.546927124261856079e+00 4.019171370193362236e+00 9.968133675866397425e-02
8.599051147699356079e+00 4.098028792068362236e+00 1.039385389071014743e-01
8.652273803949356079e+00 4.178595198318362236e+00 1.082872937899139743e-01
8.706350952386856079e+00 4.260382307693362236e+00 1.126970838289764743e-01
8.318167358636856079e+00 3.712896956130862236e+00 1.134600232821014743e-01
8.374563843011856079e+00 3.786993635818362236e+00 1.180071424227264743e-01
8.431936889886856079e+00 3.862677229568362236e+00 1.224627088289764743e-01
8.490896850824356079e+00 3.940069807693362236e+00 1.272081922274139743e-01
8.550833374261856079e+00 4.018805159255862236e+00 1.320452283602264743e-01
8.611990600824356079e+00 4.099127424880862236e+00 1.369738172274139743e-01
8.674856811761856079e+00 4.181524885818362236e+00 1.422075818758514743e-01
8.738699585199356079e+00 4.265265120193362236e+00 1.473345350008514743e-01
8.357596069574356079e+00 3.716070784255862236e+00 1.462053846102264743e-01
8.414847046136856079e+00 3.790777815505862236e+00 1.511034558992889743e-01
8.473196655511856079e+00 3.866949690505862236e+00 1.561083387117889743e-01
8.532889038324356079e+00 3.944830549880862236e+00 1.612200330477264743e-01
8.593680053949356079e+00 4.024176253005862236e+00 1.664232801180389743e-01
8.655569702386856079e+00 4.105108870193362236e+00 1.717485975008514743e-01
8.719168335199356079e+00 4.187872542068362236e+00 1.771807264071014743e-01
8.783743530511856079e+00 4.272223128005862236e+00 1.827196668367889743e-01
8.397757202386856079e+00 3.719488753005862236e+00 1.795305799227264743e-01
8.455496460199356079e+00 3.794561995193362236e+00 1.846117566805389743e-01
1.376225915551185608e+01 4.527838362380862236e+00 4.552263807039764743e-01
1.378557458519935608e+01 4.654669417068362236e+00 4.606737683992889743e-01
1.391130700707435608e+01 4.796759260818362236e+00 4.713701795321014743e-01
1.454485192894935608e+01 5.020758284255862236e+00 5.083574842196014743e-01
1.475090661644935608e+01 5.187750471755862236e+00 5.236162732821014743e-01
1.417143884301185608e+01 5.220465315505862236e+00 4.982714246492889743e-01
2.168779626488685608e+01 5.111212385818362236e+00 9.350695203524139743e-01
1.363152185082435608e+01 4.388189924880862236e+00 5.003161023836639743e-01
2.672600427269935608e+01 6.146490706130862236e+00 1.227366883633663974e+00
1.478899255394935608e+01 4.788580549880862236e+00 5.731615613680389743e-01
1.391460290551185608e+01 4.795660628005862236e+00 5.289721082430389743e-01
1.450224938988685608e+01 5.012457503005862236e+00 5.664171766024139743e-01
1.441277185082435608e+01 5.130011213943362236e+00 5.659899305086639743e-01
1.421123376488685608e+01 5.225836409255862236e+00 5.591082166414764743e-01
2.173650231957435608e+01 5.113653792068362236e+00 1.031138856289913974e+00
2.689519372582435608e+01 5.908575667068362236e+00 1.344645936368038974e+00
2.660857263207435608e+01 6.128546370193362236e+00 1.336619813321163974e+00
2.710405603051185608e+01 6.449835432693362236e+00 1.375514466641476474e+00
1.455559411644935608e+01 4.887091292068362236e+00 6.249193738680389743e-01
1.763457360863685608e+01 5.497564924880862236e+00 8.171801160555389743e-01
1.763847985863685608e+01 5.662726057693362236e+00 8.232836316805389743e-01
1.416777673363685608e+01 5.216681135818362236e+00 6.155047010164764743e-01
2.168474450707435608e+01 5.105597151443362236e+00 1.120784242032101474e+00
2.183733239769935608e+01 5.325567854568362236e+00 1.137919862149288974e+00
2.722881188988685608e+01 6.202643049880862236e+00 1.492991883633663974e+00
2.674700036644935608e+01 6.398321760818362236e+00 1.471217591641476474e+00
1.451335778832435608e+01 4.879278792068362236e+00 6.826128553133514743e-01
1.441899743676185608e+01 4.996344221755862236e+00 6.812090467196014743e-01
1.763774743676185608e+01 5.660528792068362236e+00 8.982958387117889743e-01
1.412480798363685608e+01 5.207525862380862236e+00 6.712450574617889743e-01
2.173418298363685608e+01 5.108038557693362236e+00 1.217387635586788974e+00
2.708891931176185608e+01 5.924078596755862236e+00 1.593089539883663974e+00
2.720085778832435608e+01 6.195807112380862236e+00 1.609721619961788974e+00
2.665239587426185608e+01 6.382330549880862236e+00 1.581233460782101474e+00
2.993730798363685608e+01 7.113165510818362236e+00 1.820140321133663974e+00
1.437785974144935608e+01 4.988287581130862236e+00 7.379107068758514743e-01
1.763689294457435608e+01 5.658453596755862236e+00 9.733080457430389743e-01
1.783659997582435608e+01 5.857916487380862236e+00 9.935717176180389743e-01
2.164555993676185608e+01 5.096197737380862236e+00 1.304377992032101474e+00
2.186748376488685608e+01 5.323614729568362236e+00 1.327769715664913974e+00
2.177080407738685608e+01 5.516607893630862236e+00 1.328349549649288974e+00
2.634685388207435608e+01 6.337896956130862236e+00 1.675380189297726474e+00
1.788640466332435608e+01 5.364386213943362236e+00 1.054255921719601474e+00
1.759734216332435608e+01 5.485724104568362236e+00 1.038844544766476474e+00
1.763616052269935608e+01 5.656256331130862236e+00 1.047938783047726474e+00
2.486748376488685608e+01 7.089972151443362236e+00 1.602031190274288974e+00
1.274956384301185608e+01 4.989874495193362236e+00 -3.042493273038360257e-01
1.265264001488685608e+01 5.086187971755862236e+00 -3.001752306241485257e-01
1.258977380394935608e+01 5.187750471755862236e+00 -2.968488146085235257e-01
1.251531091332435608e+01 5.286383284255862236e+00 -2.933850694913360257e-01
1.269805017113685608e+01 5.440069807693362236e+00 -2.930493761319610257e-01
1.365666833519935608e+01 5.776251448318362236e+00 -3.017926622647735257e-01
1.345061364769935608e+01 5.853644026443362236e+00 -2.965741564053985257e-01
1.347612634301185608e+01 5.984991682693362236e+00 -2.943768907803985257e-01
1.273186364769935608e+01 4.985357893630862236e+00 -2.520490099210235257e-01
1.259258142113685608e+01 5.073492659255862236e+00 -2.482648302335235257e-01
1.345305505394935608e+01 5.357672346755862236e+00 -2.520795274991485257e-01
1.244866052269935608e+01 5.271124495193362236e+00 -2.415967394132110257e-01
1.274614587426185608e+01 5.449225081130862236e+00 -2.411542345303985257e-01
1.259563317894935608e+01 5.531134260818362236e+00 -2.373700548428985257e-01
1.340471521019935608e+01 5.841192854568362236e+00 -2.405286241788360257e-01
1.341216149926185608e+01 5.967535628005862236e+00 -2.376752306241485257e-01
1.259050622582435608e+01 4.958868635818362236e+00 -1.995587755460235257e-01
1.254985681176185608e+01 5.064093245193362236e+00 -1.966901232022735257e-01
1.296587243676185608e+01 5.259527815505862236e+00 -1.952557970303985257e-01
1.296745935082435608e+01 5.378058088943362236e+00 -1.924024034757110257e-01
1.279448571801185608e+01 5.458502424880862236e+00 -1.890759874600860257e-01
1.264433923363685608e+01 5.541021956130862236e+00 -1.858716417569610257e-01
1.364348474144935608e+01 5.897101057693362236e+00 -1.852002550382110257e-01
1.374883142113685608e+01 6.050543440505862236e+00 -1.823316026944610257e-01
1.254619470238685608e+01 4.949591292068362236e+00 -1.485486437100860257e-01
1.251677575707435608e+01 5.056524885818362236e+00 -1.454816271085235257e-01
1.248845544457435608e+01 5.163580549880862236e+00 -1.426892687100860257e-01
1.296868005394935608e+01 5.376959456130862236e+00 -1.389661241788360257e-01
1.345500817894935608e+01 5.601812971755862236e+00 -1.349835802335235257e-01
1.269377771019935608e+01 5.551031721755862236e+00 -1.336255480069610257e-01
1.367754235863685608e+01 5.903936995193362236e+00 -1.281476427335235257e-01
1.372759118676185608e+01 6.043707503005862236e+00 -1.250958849210235257e-01
1.251238122582435608e+01 4.942267073318362236e+00 -9.759954703039852575e-02
1.296233239769935608e+01 5.138800276443362236e+00 -9.199957144446102575e-02
1.315264001488685608e+01 5.293829573318362236e+00 -8.775762808508602575e-02
1.297112146019935608e+01 5.376104963943362236e+00 -8.578924429602352575e-02
1.303374353051185608e+01 5.508062971755862236e+00 -8.227972281164852575e-02
1.288933435082435608e+01 5.594488753005862236e+00 -8.015875113196102575e-02
1.310967126488685608e+01 5.766241682693362236e+00 -7.544378531164852575e-02
1.322942224144935608e+01 5.917608870193362236e+00 -7.135442984289852575e-02
8.775442749261856079e+00 4.278204573318362236e+00 -8.540777456946102575e-02
8.832571655511856079e+00 4.362677229568362236e+00 -8.261541617102352575e-02
8.891165405511856079e+00 4.448858870193362236e+00 -7.996038687414852575e-02
8.951101928949356079e+00 4.537237776443362236e+00 -7.722906363196102575e-02
9.012137085199356079e+00 4.627081526443362236e+00 -7.445196402258602575e-02
9.074392944574356079e+00 4.718756331130862236e+00 -7.162908804602352575e-02
9.138235718011856079e+00 4.812750471755862236e+00 -6.872991812414852575e-02
9.203543335199356079e+00 4.908575667068362236e+00 -6.595281851477352575e-02
8.731497436761856079e+00 4.269537581130862236e+00 -5.254034292883602575e-02
8.788015991449356079e+00 4.353399885818362236e+00 -4.961065542883602575e-02
8.845755249261856079e+00 4.438971174880862236e+00 -4.663519156164852575e-02
8.904959350824356079e+00 4.526739729568362236e+00 -4.358343374914852575e-02
8.965017944574356079e+00 4.615851057693362236e+00 -4.047064078039852575e-02
9.026541382074356079e+00 4.706915510818362236e+00 -3.729681265539852575e-02
9.089407593011856079e+00 4.800177229568362236e+00 -3.404669058508602575e-02
9.153494507074356079e+00 4.895147932693362236e+00 -3.075079214758602575e-02
8.718069702386856079e+00 4.266241682693362236e+00 -1.964239371008602575e-02
8.779959350824356079e+00 4.351080549880862236e+00 -1.628546011633602575e-02
8.843557983636856079e+00 4.437628401443362236e+00 -1.266912710852352575e-02
8.908499389886856079e+00 4.526495588943362236e+00 -9.144346835086025749e-03
8.974783569574356079e+00 4.617071760818362236e+00 -5.558531405398525749e-03
9.042410522699356079e+00 4.709601057693362236e+00 -1.881163241336025749e-03
9.111746460199356079e+00 4.804693831130862236e+00 1.689393399288974251e-03
9.182547241449356079e+00 4.901617659255862236e+00 5.534608243038974251e-03
8.754446655511856079e+00 4.271856917068362236e+00 1.452203500085147425e-02
8.817068725824356079e+00 4.357061995193362236e+00 1.826043832116397425e-02
8.881155639886856079e+00 4.444220198318362236e+00 2.209039437585147425e-02
8.946951538324356079e+00 4.533575667068362236e+00 2.602716195397647425e-02
9.013968139886856079e+00 4.624762190505862236e+00 3.004022347741397425e-02
9.082449585199356079e+00 4.717901838943362236e+00 3.412957894616397425e-02
9.152884155511856079e+00 4.813604963943362236e+00 3.834100472741397425e-02
9.224539428949356079e+00 4.911139143630862236e+00 4.262872445397647425e-02
8.778860718011856079e+00 4.275274885818362236e+00 4.850335824303897425e-02
8.835135132074356079e+00 4.359625471755862236e+00 5.244012582116397425e-02
8.892630249261856079e+00 4.445562971755862236e+00 5.645318734460147425e-02
8.951468139886856079e+00 4.533697737380862236e+00 6.055780160241397425e-02
9.011282593011856079e+00 4.623297346755862236e+00 6.473870980553897425e-02
9.072317749261856079e+00 4.714728010818362236e+00 6.899591195397647425e-02
9.134939819574356079e+00 4.808355940505862236e+00 7.337518441491397425e-02
9.198538452386856079e+00 4.903814924880862236e+00 7.781549203210147425e-02
8.742605835199356079e+00 4.267950667068362236e+00 8.085199105553897425e-02
8.798269897699356079e+00 4.351812971755862236e+00 8.509393441491397425e-02
8.855032593011856079e+00 4.437262190505862236e+00 8.941217171960147425e-02
8.913138061761856079e+00 4.524786604568362236e+00 9.383722054772647425e-02
8.972220093011856079e+00 4.613897932693362236e+00 9.833856332116397425e-02
9.032644897699356079e+00 4.704718245193362236e+00 1.029314588289764743e-01
9.094412475824356079e+00 4.797857893630862236e+00 1.076311658602264743e-01
9.157400757074356079e+00 4.892584456130862236e+00 1.124224256258514743e-01
8.706839233636856079e+00 4.260748518630862236e+00 1.127276014071014743e-01
8.761770874261856079e+00 4.344122542068362236e+00 1.172442029696014743e-01
8.824392944574356079e+00 4.430304182693362236e+00 1.221270154696014743e-01
8.891897827386856079e+00 4.519537581130862236e+00 1.272539685946014743e-01
8.960745483636856079e+00 4.610479963943362236e+00 1.324724744539764743e-01
9.031180053949356079e+00 4.703497542068362236e+00 1.378283094149139743e-01
9.103567749261856079e+00 4.799078596755862236e+00 1.433214734774139743e-01
9.177420288324356079e+00 4.896734846755862236e+00 1.489367078524139743e-01
8.739187866449356079e+00 4.265509260818362236e+00 1.473650525789764743e-01
8.804373413324356079e+00 4.351080549880862236e+00 1.526751111727264743e-01
8.870779663324356079e+00 4.438604963943362236e+00 1.579241346102264743e-01
8.939383178949356079e+00 4.528448713943362236e+00 1.634935926180389743e-01
9.009207397699356079e+00 4.620123518630862236e+00 1.691851209383514743e-01
9.080618530511856079e+00 4.713873518630862236e+00 1.749987195711639743e-01
9.154348999261856079e+00 4.810309065505862236e+00 1.811785291414764743e-01
9.229422241449356079e+00 4.908697737380862236e+00 1.872820447664764743e-01
8.784231811761856079e+00 4.272589338943362236e+00 1.827501844149139743e-01
8.850393921136856079e+00 4.358770979568362236e+00 1.885027478914764743e-01
8.918142944574356079e+00 4.447027815505862236e+00 1.943773816805389743e-01
1.422844567894935608e+01 5.624273909255862236e+00 4.557604383211639743e-01
1.486626306176185608e+01 5.894659651443362236e+00 4.916491101961639743e-01
3.197991052269935608e+01 9.939337385818362236e+00 1.342738587735226474e+00
2.660869470238685608e+01 8.977179182693362236e+00 1.086314637539913974e+00
1.404460778832435608e+01 6.108404768630862236e+00 4.649920057039764743e-01
1.417168298363685608e+01 5.220953596755862236e+00 4.982866834383514743e-01
1.415434899926185608e+01 5.347052229568362236e+00 5.016893933992889743e-01
1.450163903832435608e+01 5.545050276443362236e+00 5.247454236727264743e-01
1.477226892113685608e+01 5.735357893630862236e+00 5.440020154696014743e-01
1.474297204613685608e+01 5.866217268630862236e+00 5.473436902742889743e-01
1.463786950707435608e+01 5.979742659255862236e+00 5.465807508211639743e-01
7.062688317894935608e+01 1.947949851863086224e+01 3.604899842618038974e+00
2.606548181176185608e+01 9.102667463943362236e+00 1.184565980313351474e+00
1.421074548363685608e+01 5.226202620193362236e+00 5.590929578524139743e-01
1.417351403832435608e+01 5.349005354568362236e+00 5.617174695711639743e-01
1.444451013207435608e+01 5.532232893630862236e+00 5.821337293367889743e-01
2.613274255394935608e+01 8.086554182693362236e+00 1.266444642422726474e+00
2.584123864769935608e+01 8.278814924880862236e+00 1.258784730313351474e+00
1.460735192894935608e+01 5.971197737380862236e+00 6.065020154696014743e-01
7.040141931176185608e+01 1.941748679988086224e+01 3.919124085782101474e+00
2.667229333519935608e+01 9.250982893630862236e+00 1.336497743008663974e+00
1.416728845238685608e+01 5.217047346755862236e+00 6.154894422274139743e-01
1.483769860863685608e+01 5.471075667068362236e+00 6.616320203524139743e-01
1.451933923363685608e+01 5.545294417068362236e+00 6.469225476961639743e-01
2.612163415551185608e+01 8.081305159255862236e+00 1.380824525235226474e+00
2.587456384301185608e+01 8.283087385818362236e+00 1.374858338711788974e+00
2.605791345238685608e+01 8.578985823318362236e+00 1.396098573086788974e+00
9.506279626488685608e+01 2.528894676081836224e+01 5.822398621914913974e+00
8.325774255394935608e+01 2.333643211238086224e+01 5.101405579922726474e+00
1.412431970238685608e+01 5.207892073318362236e+00 6.712145398836639743e-01
1.484831872582435608e+01 5.471441878005862236e+00 7.245134900789764743e-01
2.604131188988685608e+01 7.807135237380862236e+00 1.481242616055538974e+00
2.598406091332435608e+01 8.049811018630862236e+00 1.487208802578976474e+00
2.596416345238685608e+01 8.299566878005862236e+00 1.495692689297726474e+00
3.197099938988685608e+01 9.922735823318362236e+00 1.916087586758663974e+00
1.783708825707435608e+01 5.858526838943362236e+00 9.936174939852264743e-01
2.672954431176185608e+01 7.679571760818362236e+00 1.635463197110226474e+00
1.453069177269935608e+01 5.544317854568362236e+00 7.690233777742889743e-01
2.607134118676185608e+01 8.064825667068362236e+00 1.607951600430538974e+00
2.606279626488685608e+01 8.318121565505862236e+00 1.617442567227413974e+00
3.199260583519935608e+01 9.923956526443362236e+00 2.060801942227413974e+00
3.198479333519935608e+01 1.024268211238086224e+01 2.073710877774288974e+00
2.486870446801185608e+01 7.091070784255862236e+00 1.602153260586788974e+00
2.703154626488685608e+01 7.732550276443362236e+00 1.775905091641476474e+00
2.695989099144935608e+01 7.981329573318362236e+00 1.781093079922726474e+00
2.703691735863685608e+01 8.261358870193362236e+00 1.797740418789913974e+00
2.624577966332435608e+01 8.354742659255862236e+00 1.747294862149288974e+00
3.199626794457435608e+01 9.921148909255862236e+00 2.205150086758663974e+00
3.190703454613685608e+01 1.022046531550586224e+01 2.211192567227413974e+00
1.347624841332435608e+01 5.985479963943362236e+00 -2.943616319913360257e-01
1.333013024926185608e+01 6.073004378005862236e+00 -2.899976183194610257e-01
1.325273767113685608e+01 6.176886213943362236e+00 -2.867322374600860257e-01
1.346892419457435608e+01 6.363287581130862236e+00 -2.866254259366485257e-01
1.316179528832435608e+01 6.401007307693362236e+00 -2.809186388272735257e-01
1.329765954613685608e+01 6.567633284255862236e+00 -2.798962999600860257e-01
1.322429528832435608e+01 6.672491682693362236e+00 -2.766766954678985257e-01
9.884451538324356079e+00 5.709601057693362236e+00 -2.413983751553985257e-01
1.341216149926185608e+01 5.968023909255862236e+00 -2.376599718350860257e-01
1.335466638207435608e+01 6.078009260818362236e+00 -2.347150255460235257e-01
1.353630700707435608e+01 6.252691878005862236e+00 -2.329602648038360257e-01
1.347832360863685608e+01 6.364630354568362236e+00 -2.299695421475860257e-01
1.311430993676185608e+01 6.385748518630862236e+00 -2.252393175382110257e-01
1.330632653832435608e+01 6.568976057693362236e+00 -2.237134386319610257e-01
1.359270349144935608e+01 6.787237776443362236e+00 -2.228894640225860257e-01
9.884939819574356079e+00 5.708868635818362236e+00 -2.013593126553985257e-01
1.374870935082435608e+01 6.050909651443362236e+00 -1.823163439053985257e-01
1.336638513207435608e+01 6.079718245193362236e+00 -1.788678575772735257e-01
1.352409997582435608e+01 6.247931135818362236e+00 -1.763501573819610257e-01
1.365679040551185608e+01 6.413702620193362236e+00 -1.736951280850860257e-01
1.340691247582435608e+01 6.470221174880862236e+00 -1.706128526944610257e-01
1.362761560082435608e+01 6.665411604568362236e+00 -1.679578233975860257e-01
1.319719567894935608e+01 6.661261213943362236e+00 -1.648755480069610257e-01
9.885428100824356079e+00 5.708136213943362236e+00 -1.613049913663360257e-01
1.372759118676185608e+01 6.044195784255862236e+00 -1.250958849210235257e-01
1.328118005394935608e+01 6.056036604568362236e+00 -1.231885362882110257e-01
1.339348474144935608e+01 6.211065901443362236e+00 -1.199231554288360257e-01
1.345403161644935608e+01 6.354986799880862236e+00 -1.167645860928985257e-01
1.339555993676185608e+01 6.465582503005862236e+00 -1.140332628507110257e-01
1.326836267113685608e+01 6.554693831130862236e+00 -1.115918566007110257e-01
1.343572106957435608e+01 6.735113753005862236e+00 -1.078992296475860257e-01
9.885916382074356079e+00 5.707281721755862236e+00 -1.214337755460235257e-01
1.323039880394935608e+01 5.918219221755862236e+00 -7.133917105383602575e-02
9.322195678949356079e+00 5.021246565505862236e+00 -9.891180288977352575e-02
9.391409546136856079e+00 5.122320784255862236e+00 -9.634832632727352575e-02
9.462576538324356079e+00 5.226202620193362236e+00 -9.370855581946102575e-02
9.535208374261856079e+00 5.332281721755862236e+00 -9.100775015539852575e-02
9.609671264886856079e+00 5.440924299880862236e+00 -8.824590933508602575e-02
9.686331421136856079e+00 5.552618635818362236e+00 -8.539251578039852575e-02
9.764578491449356079e+00 5.666876448318362236e+00 -8.249334585852352575e-02
9.204031616449356079e+00 4.909063948318362236e+00 -6.593755972571102575e-02
9.270437866449356079e+00 5.006842268630862236e+00 -6.284002554602352575e-02
9.338553100824356079e+00 5.107061995193362236e+00 -5.986456167883602575e-02
9.408621460199356079e+00 5.210089338943362236e+00 -5.679754507727352575e-02
9.480154663324356079e+00 5.315191878005862236e+00 -5.368475210852352575e-02
9.553518921136856079e+00 5.422857893630862236e+00 -5.048040640539852575e-02
9.628836303949356079e+00 5.533697737380862236e+00 -4.718450796789852575e-02
9.706106811761856079e+00 5.646856917068362236e+00 -4.402593863196102575e-02
9.153982788324356079e+00 4.895636213943362236e+00 -3.072027456946102575e-02
9.219656616449356079e+00 4.992682112380862236e+00 -2.742437613196102575e-02
9.286795288324356079e+00 5.092169417068362236e+00 -2.405218374914852575e-02
9.362356811761856079e+00 5.196173323318362236e+00 -2.046636831946102575e-02
9.439505249261856079e+00 5.302374495193362236e+00 -1.680425894446102575e-02
9.518728882074356079e+00 5.411505354568362236e+00 -1.305059683508602575e-02
9.600271850824356079e+00 5.523810042068362236e+00 -9.174864413211025749e-03
9.683767944574356079e+00 5.638678206130862236e+00 -5.222838046023525749e-03
9.183157593011856079e+00 4.901983870193362236e+00 5.549867032101474251e-03
9.255667358636856079e+00 5.001227034255862236e+00 9.425599453976474251e-03
9.330252319574356079e+00 5.103033674880862236e+00 1.359124886803897425e-02
9.406790405511856079e+00 5.207770003005862236e+00 1.768060433678897425e-02
9.485037475824356079e+00 5.314825667068362236e+00 2.186151253991397425e-02
9.565237671136856079e+00 5.424688948318362236e+00 2.614923226647647425e-02
9.647757202386856079e+00 5.537848128005862236e+00 3.034539925866397425e-02
9.732351928949356079e+00 5.653570784255862236e+00 3.486200082116397425e-02
9.225149780511856079e+00 4.911627424880862236e+00 4.265924203210147425e-02
9.298636108636856079e+00 5.011480940505862236e+00 4.700799691491397425e-02
9.373953491449356079e+00 5.114020003005862236e+00 5.147882211022647425e-02
9.443289428949356079e+00 5.217169417068362236e+00 5.585809457116397425e-02
9.513968139886856079e+00 5.322394026443362236e+00 6.031366097741397425e-02
9.586477905511856079e+00 5.430182112380862236e+00 6.489129769616397425e-02
9.660940796136856079e+00 5.541021956130862236e+00 6.957574593835147425e-02
9.736868530511856079e+00 5.654181135818362236e+00 7.438226449303897425e-02
9.199026733636856079e+00 4.904181135818362236e+00 7.784600961022647425e-02
9.264212280511856079e+00 5.001715315505862236e+00 8.237786996178897425e-02
9.330862671136856079e+00 5.101446760818362236e+00 8.701654183678897425e-02
9.399222046136856079e+00 5.203863753005862236e+00 9.179254281335147425e-02
9.469046264886856079e+00 5.308355940505862236e+00 9.664483773522647425e-02
9.540579468011856079e+00 5.415411604568362236e+00 1.016344617586639743e-01
9.614065796136856079e+00 5.525396956130862236e+00 1.067461560946014743e-01
9.689016968011856079e+00 5.637701643630862236e+00 1.119799207430389743e-01
9.157889038324356079e+00 4.892950667068362236e+00 1.124376844149139743e-01
9.222098022699356079e+00 4.989752424880862236e+00 1.173510144930389743e-01
9.287893921136856079e+00 5.088873518630862236e+00 1.223711560946014743e-01
9.356985718011856079e+00 5.191046370193362236e+00 1.275744031649139743e-01
9.437674194574356079e+00 5.298224104568362236e+00 1.332811902742889743e-01
9.520437866449356079e+00 5.408453596755862236e+00 1.391253064852264743e-01
9.605887085199356079e+00 5.521978987380862236e+00 1.451525281649139743e-01
9.693289428949356079e+00 5.638189924880862236e+00 1.513323377352264743e-01
9.178030639886856079e+00 4.897101057693362236e+00 1.489672254305389743e-01
9.253836303949356079e+00 4.997198713943362236e+00 1.547503064852264743e-01
9.331595093011856079e+00 5.099859846755862236e+00 1.607012342196014743e-01
9.411673218011856079e+00 5.205572737380862236e+00 1.668200086336639743e-01
9.493582397699356079e+00 5.313727034255862236e+00 1.730761121492889743e-01
9.577810913324356079e+00 5.424933088943362236e+00 1.795153211336639743e-01
9.664602905511856079e+00 5.539435042068362236e+00 1.861528943758514743e-01
9.753592163324356079e+00 5.656866682693362236e+00 1.929430555086639743e-01
9.230032593011856079e+00 4.909186018630862236e+00 1.873278211336639743e-01
9.306936889886856079e+00 5.010138167068362236e+00 1.936602185946014743e-01
9.385672241449356079e+00 5.113531721755862236e+00 1.999468396883514743e-01
3.505974450707435608e+01 1.242529929988086224e+01 1.397731263516476474e+00
6.583830896019935608e+01 2.178333152644336224e+01 2.854182679532101474e+00
6.521404138207435608e+01 2.229114402644336224e+01 2.848811585782101474e+00
7.224150720238685608e+01 2.519519676081836224e+01 3.209742982266476474e+00
7.688530603051185608e+01 2.748035301081836224e+01 3.459849793789913974e+00
1.404399743676185608e+01 6.108770979568362236e+00 4.649767469149139743e-01
2.658196130394935608e+01 9.500250471755862236e+00 1.103709657071163974e+00
1.469341149926185608e+01 6.549200667068362236e+00 5.075640271883514743e-01
3.504460778832435608e+01 1.241712058894336224e+01 1.557368714688351474e+00
7.195781579613685608e+01 2.356409324519336224e+01 3.479594666836788974e+00
7.345403161644935608e+01 2.478101219050586224e+01 3.584987122891476474e+00
7.961125817894935608e+01 2.750147117488086224e+01 3.936549622891476474e+00
7.657170739769935608e+01 2.737012351863086224e+01 3.806514222500851474e+00
2.606255212426185608e+01 9.102911604568362236e+00 1.184443910000851474e+00
7.011736169457435608e+01 2.081043113581836224e+01 3.630107362149288974e+00
1.471330896019935608e+01 6.552984846755862236e+00 5.709490369539764743e-01
3.502239099144935608e+01 1.240698875300586224e+01 1.715663392422726474e+00
8.020854821801185608e+01 2.596594871394336224e+01 4.282435853360226474e+00
8.247222009301185608e+01 2.750488914363086224e+01 4.442988831875851474e+00
7.907488122582435608e+01 2.732434715144336224e+01 4.281199891446163974e+00
7.639360681176185608e+01 2.730383933894336224e+01 4.159984071133663974e+00
2.667119470238685608e+01 9.251715315505862236e+00 1.336467225430538974e+00
8.282536950707435608e+01 2.410315574519336224e+01 4.720393617032101474e+00
3.553386560082435608e+01 1.218164695613086224e+01 1.893077332852413974e+00
3.506523767113685608e+01 1.241516746394336224e+01 1.878596742032101474e+00
7.992070642113685608e+01 2.587293113581836224e+01 4.642970521328976474e+00
7.942412438988685608e+01 2.657263816706836224e+01 4.645015199063351474e+00
7.923357263207435608e+01 2.736536277644336224e+01 4.665965516446163974e+00
7.807146325707435608e+01 2.784046043269336224e+01 4.626033265469601474e+00
8.325456872582435608e+01 2.333875144831836224e+01 5.101314027188351474e+00
8.332573571801185608e+01 2.422351707331836224e+01 5.138286073086788974e+00
3.554448571801185608e+01 1.218054832331836224e+01 2.055263001797726474e+00
3.495879235863685608e+01 1.238147605769336224e+01 2.031321961758663974e+00
8.230034509301185608e+01 2.655847801081836224e+01 5.175166566250851474e+00
8.146550622582435608e+01 2.718176902644336224e+01 5.154429871914913974e+00
8.023284021019935608e+01 2.767005027644336224e+01 5.106654603360226474e+00
8.053118005394935608e+01 2.863037742488086224e+01 5.163112122891476474e+00
8.275432458519935608e+01 2.406568015925586224e+01 5.488505799649288974e+00
8.263738122582435608e+01 2.490003074519336224e+01 5.515849549649288974e+00
3.507512536644935608e+01 1.241016258113086224e+01 2.199611146328976474e+00
8.188811364769935608e+01 2.642883933894336224e+01 5.534373719571163974e+00
8.030046716332435608e+01 2.682007469050586224e+01 5.456828553555538974e+00
8.018010583519935608e+01 2.764465965144336224e+01 5.483546693203976474e+00
7.944048181176185608e+01 2.826770652644336224e+01 5.465510804532101474e+00
8.298576989769935608e+01 2.498462547175586224e+01 5.927745301602413974e+00
3.493620935082435608e+01 1.236731590144336224e+01 2.348994691250851474e+00
7.957463708519935608e+01 2.744605125300586224e+01 5.817668397305538974e+00
8.266350427269935608e+01 2.488818992488086224e+01 6.291789491055538974e+00
3.500993981957435608e+01 1.238416160456836224e+01 2.514964539883663974e+00
9.883963257074356079e+00 5.709723128005862236e+00 -2.413983751553985257e-01
1.339885583519935608e+01 6.987433088943362236e+00 -2.737927843350860257e-01
1.350029626488685608e+01 7.153936995193362236e+00 -2.725873399991485257e-01
1.330144372582435608e+01 7.216070784255862236e+00 -2.685285021085235257e-01
1.315972009301185608e+01 7.295416487380862236e+00 -2.650647569913360257e-01
1.356670251488685608e+01 7.582403792068362236e+00 -2.665448595303985257e-01
1.335967126488685608e+01 7.638311995193362236e+00 -2.624707628507110257e-01
1.386382165551185608e+01 7.978277815505862236e+00 -2.648969103116485257e-01
9.884451538324356079e+00 5.708990706130862236e+00 -2.013440538663360257e-01
1.336687341332435608e+01 6.975348128005862236e+00 -2.166791368741485257e-01
1.339751306176185608e+01 7.116827620193362236e+00 -2.141614366788360257e-01
1.362053552269935608e+01 7.329596174880862236e+00 -2.127576280850860257e-01
1.313152185082435608e+01 7.283697737380862236e+00 -2.082410265225860257e-01
1.355217614769935608e+01 7.575567854568362236e+00 -2.075696398038360257e-01
1.336064782738685608e+01 7.637457503005862236e+00 -2.046704698819610257e-01
1.390386071801185608e+01 7.993170393630862236e+00 -2.042127062100860257e-01
9.884939819574356079e+00 5.708258284255862236e+00 -1.612897325772735257e-01
1.333501306176185608e+01 6.963263167068362236e+00 -1.595807482022735257e-01
1.335942712426185608e+01 7.102301253005862236e+00 -1.570020128507110257e-01
1.325908532738685608e+01 7.198248518630862236e+00 -1.544537950772735257e-01
1.364348474144935608e+01 7.472418440505862236e+00 -1.516309191007110257e-01
1.767986169457435608e+01 9.152350081130862236e+00 -1.454663683194610257e-01
1.336174646019935608e+01 7.636603010818362236e+00 -1.465344835538360257e-01
