2.189117071032524109e+01 4.680350488051772118e+00 9.210950609762278418e-01
2.172430059313774109e+01 4.868216698989272118e+00 9.198438402731028418e-01
2.163018438220024109e+01 5.060965722426772118e+00 9.224378344137278418e-01
1.355254766345024109e+01 4.364920800551772118e+00 4.892713305074778418e-01
8.470394343137741089e+00 3.322074120864272118e+00 2.251416918356028418e-01
8.266781061887741089e+00 3.379569238051772118e+00 2.160016771871653418e-01
8.976497858762741089e+00 3.488455956801772118e+00 2.591687914449778418e-01
8.344417780637741089e+00 3.517142480239272118e+00 2.255384203512278418e-01
2.192364141345024109e+01 4.679862206801772118e+00 1.016111540468415342e+00
2.172747442126274109e+01 4.865409081801772118e+00 1.012464689882477842e+00
2.164947149157524109e+01 5.059867089614272118e+00 1.015638518007477842e+00
2.677080938220024109e+01 5.829032128676772118e+00 1.327131437929352842e+00
2.880682012438774109e+01 4.144461816176772118e+00 1.499097990663727842e+00
8.404964655637741089e+00 3.385550683364272118e+00 2.549573656637278418e-01
8.290096491575241089e+00 3.445853417739272118e+00 2.504560228902903418e-01
8.346981257200241089e+00 3.516287988051772118e+00 2.565747973043528418e-01
8.519344538450241089e+00 3.597098534926772118e+00 2.699720141012278418e-01
2.173064824938774109e+01 4.862479394301772118e+00 1.105619597109040342e+00
2.163360235095024109e+01 5.055106347426772118e+00 1.107313322694977842e+00
2.675152227282524109e+01 5.823050683364272118e+00 1.441801237734040342e+00
2.828399297595024109e+01 4.118949120864272118e+00 1.590055632265290342e+00
8.407650202512741089e+00 3.384574120864272118e+00 2.862378832418528418e-01
8.378597468137741089e+00 3.450125878676772118e+00 2.867719408590403418e-01
8.349666804075241089e+00 3.515433495864272118e+00 2.874738451559153418e-01
3.010332891345024109e+01 5.330985253676772118e+00 1.753492521913727842e+00
2.173382207751274109e+01 4.859671777114272118e+00 1.198347258241852842e+00
2.164971563220024109e+01 5.053641503676772118e+00 1.201032805116852842e+00
2.173711797595024109e+01 5.264579003676772118e+00 1.214903044374665342e+00
2.840435430407524109e+01 4.119437402114272118e+00 1.721464323671540342e+00
8.410335749387741089e+00 3.383597558364272118e+00 3.173963305074778418e-01
8.381160944700241089e+00 3.449149316176772118e+00 3.179761644918528418e-01
8.318905085325241089e+00 3.512137597426772118e+00 3.161908861715403418e-01
2.216375371813774109e+01 4.689505761489272118e+00 1.314344572694977842e+00
2.161175176501274109e+01 4.845511620864272118e+00 1.282560515077790342e+00
2.159295293688774109e+01 5.044852441176772118e+00 1.289137053163727842e+00
2.180144903063774109e+01 5.268607323989272118e+00 1.312788176210602842e+00
8.419979304075241089e+00 3.810599511489272118e+00 -2.584398511331471582e-01
7.924373835325241089e+00 3.817435448989272118e+00 -2.491014722268971582e-01
8.435848444700241089e+00 3.948905175551772118e+00 -2.544573071878346582e-01
8.462825983762741089e+00 4.021659081801772118e+00 -2.527940991800221582e-01
8.436947077512741089e+00 4.086600488051772118e+00 -2.503984692972096582e-01
8.568660944700241089e+00 4.177176659926772118e+00 -2.500932935159596582e-01
1.266839239001274109e+01 4.962943261489272118e+00 -3.009813550393971582e-01
1.256316778063774109e+01 5.056327050551772118e+00 -2.965715650003346582e-01
8.014583796262741089e+00 3.763724511489272118e+00 -2.231310132425221582e-01
7.847469538450241089e+00 3.807059472426772118e+00 -2.195451978128346582e-01
8.003963679075241089e+00 3.890311425551772118e+00 -2.189958814065846582e-01
8.420833796262741089e+00 4.014579003676772118e+00 -2.208727124612721582e-01
8.446468561887741089e+00 4.087088769301772118e+00 -2.190111401956471582e-01
8.527767390012741089e+00 4.169486230239272118e+00 -2.176073316018971582e-01
1.265057012438774109e+01 4.958182519301772118e+00 -2.497881177347096582e-01
1.285882207751274109e+01 5.109305566176772118e+00 -2.480333569925221582e-01
8.028866022825241089e+00 3.764334863051772118e+00 -1.938799146097096582e-01
8.661312311887741089e+00 3.906302636489272118e+00 -1.951769116800221582e-01
8.544735163450241089e+00 3.961356347426772118e+00 -1.924150708597096582e-01
8.493221491575241089e+00 4.023856347426772118e+00 -1.900041821878346582e-01
8.418148249387741089e+00 4.081717675551772118e+00 -1.875322583597096582e-01
8.419002741575241089e+00 4.150687402114272118e+00 -1.854112866800221582e-01
1.282488653063774109e+01 4.986991113051772118e+00 -1.991747144143971582e-01
1.246307012438774109e+01 5.034720605239272118e+00 -1.944444898050221582e-01
7.732723444700241089e+00 3.729911034926772118e+00 -1.643541577737721582e-01
8.365658015012741089e+00 3.868827050551772118e+00 -1.626299146097096582e-01
1.283245489001274109e+01 4.531180566176772118e+00 -1.615465405862721582e-01
8.502742975950241089e+00 4.024222558364272118e+00 -1.583116773050221582e-01
8.379085749387741089e+00 4.074759667739272118e+00 -1.561601880472096582e-01
8.428402155637741089e+00 4.151175683364272118e+00 -1.539629224222096582e-01
1.241314336657524109e+01 4.913626855239272118e+00 -1.475542310159596582e-01
1.243059942126274109e+01 5.027152245864272118e+00 -1.443041089456471582e-01
7.565731257200241089e+00 3.710135644301772118e+00 -1.369341138284596582e-01
8.345150202512741089e+00 3.865287011489272118e+00 -1.318529370706471582e-01
1.321783086657524109e+01 4.580741113051772118e+00 -1.083238843362721582e-01
8.512386530637741089e+00 4.024588769301772118e+00 -1.266954663675221582e-01
1.276507207751274109e+01 4.746268456801772118e+00 -1.029985669534596582e-01
1.310662481188774109e+01 4.915213769301772118e+00 -9.750540289095965818e-02
1.242657110095024109e+01 4.914481347426772118e+00 -9.758169683627215818e-02
1.287859746813774109e+01 5.107962792739272118e+00 -9.127981695345965818e-02
8.290096491575241089e+00 3.790824120864272118e+00 -1.037767651956471582e-01
8.439998835325241089e+00 3.875907128676772118e+00 -1.000993970315846582e-01
8.490535944700241089e+00 3.951102441176772118e+00 -9.738333257845965818e-02
8.542171686887741089e+00 4.027884667739272118e+00 -9.460623296908465818e-02
8.594661921262741089e+00 4.105765527114272118e+00 -9.178335699252215818e-02
8.648006647825241089e+00 4.185111230239272118e+00 -8.891470464877215818e-02
8.702572077512741089e+00 4.266165917739272118e+00 -8.598501714877215818e-02
8.758236140012741089e+00 4.348563378676772118e+00 -8.317739996127215818e-02
8.351497858762741089e+00 3.796683495864272118e+00 -7.234365972689715818e-02
8.400570124387741089e+00 3.870047753676772118e+00 -6.941397222689715818e-02
8.450496882200241089e+00 3.944754784926772118e+00 -6.643850835970965818e-02
8.501400202512741089e+00 4.020926659926772118e+00 -6.340200933627215818e-02
8.553158015012741089e+00 4.098319238051772118e+00 -6.031973394564715818e-02
8.605892390012741089e+00 4.177176659926772118e+00 -5.717642339877215818e-02
8.659725397825241089e+00 4.257620995864272118e+00 -5.397207769564715818e-02
8.714412897825241089e+00 4.339408105239272118e+00 -5.070669683627215818e-02
8.313167780637741089e+00 3.791434472426772118e+00 -4.225332769564715818e-02
8.361507624387741089e+00 3.864310448989272118e+00 -3.907949957064715818e-02
8.414974421262741089e+00 3.939017480239272118e+00 -3.561575445345965818e-02
8.471370905637741089e+00 4.015677636489272118e+00 -3.219778570345965818e-02
8.528743952512741089e+00 4.093558495864272118e+00 -2.873404058627215818e-02
8.587215632200241089e+00 4.173026269301772118e+00 -2.519400152377215818e-02
8.646908015012741089e+00 4.254447167739272118e+00 -2.174551519564715818e-02
8.707821100950241089e+00 4.337210839614272118e+00 -1.806814703158465818e-02
8.337215632200241089e+00 3.793143456801772118e+00 -1.095755132845965818e-02
8.391903132200241089e+00 3.866995995864272118e+00 -7.371735898772158180e-03
8.447689265012741089e+00 3.942313378676772118e+00 -3.709626523772158180e-03
8.504696100950241089e+00 4.019339745864272118e+00 4.403558560284182022e-05
8.562679499387741089e+00 4.097708886489272118e+00 3.843474062165341820e-03
8.621761530637741089e+00 4.177664941176772118e+00 7.734465273102841820e-03
8.682308405637741089e+00 4.259574120864272118e+00 1.171700921841534182e-02
8.743953913450241089e+00 4.342826073989272118e+00 1.576058831997784182e-02
8.369075983762741089e+00 3.795584863051772118e+00 2.061288324185284182e-02
8.424373835325241089e+00 3.869925683364272118e+00 2.451913324185284182e-02
8.480648249387741089e+00 3.945609277114272118e+00 2.851693597622784182e-02
8.538265436887741089e+00 4.023123925551772118e+00 3.260629144497784182e-02
8.596859186887741089e+00 4.101981347426772118e+00 3.675668206997784182e-02
8.655208796262741089e+00 4.182059472426772118e+00 4.095284906216534182e-02
8.708919733762741089e+00 4.263114159926772118e+00 4.507272210904034182e-02
8.763485163450241089e+00 4.345267480239272118e+00 4.925363031216534182e-02
8.368709772825241089e+00 3.794608300551772118e+00 5.163400140591534182e-02
8.417293757200241089e+00 3.867972558364272118e+00 5.563180414029034182e-02
8.466610163450241089e+00 3.942801659926772118e+00 5.970590081997784182e-02
8.517025202512741089e+00 4.019095605239272118e+00 6.387155023404034182e-02
8.568050593137741089e+00 4.096488183364272118e+00 6.808297601529034182e-02
8.620174616575241089e+00 4.175345605239272118e+00 7.238595453091534182e-02
8.673275202512741089e+00 4.255912011489272118e+00 7.678048578091534182e-02
8.727352350950241089e+00 4.337699120864272118e+00 8.123605218716534182e-02
8.336849421262741089e+00 3.789969628676772118e+00 8.135812249966534182e-02
8.384945124387741089e+00 3.863089745864272118e+00 8.560006585904034182e-02
8.433773249387741089e+00 3.937430566176772118e+00 8.991830316372784182e-02
8.483577936887741089e+00 4.013358300551772118e+00 9.432809320279034182e-02
8.534115046262741089e+00 4.090262597426772118e+00 9.879891839810284182e-02
8.585628718137741089e+00 4.168753808364272118e+00 1.033460375387278418e-01
8.638241022825241089e+00 4.248831933364272118e+00 1.079999682027903418e-01
8.691707819700241089e+00 4.330130761489272118e+00 1.127149340231028418e-01
8.305233210325241089e+00 3.785453027114272118e+00 1.109601732809153418e-01
8.361629694700241089e+00 3.859183495864272118e+00 1.158124682027903418e-01
8.419124811887741089e+00 3.934378808364272118e+00 1.205732103902903418e-01
8.478206843137741089e+00 4.011527245864272118e+00 1.256391283590403418e-01
8.538265436887741089e+00 4.089896386489272118e+00 1.307965990621653418e-01
8.599666804075241089e+00 4.169974511489272118e+00 1.360608812887278418e-01
8.662777155637741089e+00 4.252005761489272118e+00 1.416303392965403418e-01
8.726741999387741089e+00 4.335501855239272118e+00 1.471235033590403418e-01
8.344295710325241089e+00 3.788748925551772118e+00 1.433240648824778418e-01
8.401546686887741089e+00 3.862967675551772118e+00 1.485273119527903418e-01
8.460018366575241089e+00 3.938773339614272118e+00 1.538373705465403418e-01
8.519832819700241089e+00 4.016410058364272118e+00 1.592847582418528418e-01
8.580745905637741089e+00 4.095267480239272118e+00 1.648084398824778418e-01
8.642879694700241089e+00 4.175955956801772118e+00 1.704694506246653418e-01
8.706600397825241089e+00 4.258475488051772118e+00 1.762525316793528418e-01
8.771419733762741089e+00 4.342581933364272118e+00 1.821576830465403418e-01
8.383968561887741089e+00 3.792166894301772118e+00 1.762525316793528418e-01
8.441829890012741089e+00 3.866873925551772118e+00 1.816541430074778418e-01
8.501033991575241089e+00 3.943167870864272118e+00 1.873304125387278418e-01
1.382696172595024109e+01 4.767142480239272118e+00 4.623243090231028418e-01
1.446807500720024109e+01 4.988211816176772118e+00 5.001966234762278418e-01
1.466228887438774109e+01 5.150321191176772118e+00 5.153943773824778418e-01
1.408745977282524109e+01 5.184745019301772118e+00 4.905378099996653418e-01
1.411516973376274109e+01 5.317313378676772118e+00 4.973127123434153418e-01
1.355352422595024109e+01 4.365409081801772118e+00 4.893476244527903418e-01
2.659392949938774109e+01 6.065604394301772118e+00 1.211012053163727842e+00
1.471233770251274109e+01 4.757743066176772118e+00 5.630780932027903418e-01
1.383050176501274109e+01 4.765799706801772118e+00 5.191632982809153418e-01
1.442620489001274109e+01 4.979911034926772118e+00 5.575696703512278418e-01
1.433733770251274109e+01 5.095755761489272118e+00 5.577375170309153418e-01
1.407439824938774109e+01 5.180594628676772118e+00 5.479261156637278418e-01
1.405181524157524109e+01 5.303885644301772118e+00 5.516950365621653418e-01
2.677312871813774109e+01 5.830130761489272118e+00 1.327299284609040342e+00
2.699651739001274109e+01 6.110526269301772118e+00 1.350248503359040342e+00
2.678252813220024109e+01 6.338797753676772118e+00 1.347791838319977842e+00
2.653655645251274109e+01 6.559867089614272118e+00 1.343290495546540342e+00
1.755889531970024109e+01 5.452689355239272118e+00 8.073865648824778418e-01
1.750225469470024109e+01 5.605765527114272118e+00 8.104840990621653418e-01
1.409356328845024109e+01 5.182059472426772118e+00 6.068708178121653418e-01
1.476812383532524109e+01 5.432669823989272118e+00 6.542340990621653418e-01
2.675371953845024109e+01 5.824149316176772118e+00 1.441984343202790342e+00
2.724261114001274109e+01 6.136405175551772118e+00 1.483808684023102842e+00
2.700091192126274109e+01 6.363578027114272118e+00 1.478834318788727842e+00
1.443804571032524109e+01 4.847830956801772118e+00 6.717969652731028418e-01
1.434417364001274109e+01 4.963675683364272118e+00 6.709882494527903418e-01
1.749908086657524109e+01 5.602835839614272118e+00 8.843061205465403418e-01
1.479021856188774109e+01 5.299979394301772118e+00 7.112714525777903418e-01
1.477898809313774109e+01 5.432791894301772118e+00 7.160779711324778418e-01
2.173724004626274109e+01 5.265311425551772118e+00 1.214933561952790342e+00
2.716997930407524109e+01 6.123709863051772118e+00 1.597730803163727842e+00
2.697063848376274109e+01 6.355765527114272118e+00 1.594083952577790342e+00
2.895452520251274109e+01 6.893363183364272118e+00 1.743208098085602842e+00
1.756182500720024109e+01 5.448416894301772118e+00 9.555951830465403418e-01
1.754717656970024109e+01 5.608329003676772118e+00 9.613477465231028418e-01
1.773308965563774109e+01 5.803397363051772118e+00 9.817792650777903418e-01
2.493072149157524109e+01 7.278495019301772118e+00 1.503080534609040342e+00
2.180169317126274109e+01 5.269339745864272118e+00 1.312833952577790342e+00
2.167547246813774109e+01 5.457328027114272118e+00 1.311704802187165342e+00
2.622588750720024109e+01 6.254569238051772118e+00 1.656858610780915342e+00
2.653533574938774109e+01 6.548392480239272118e+00 1.690534758241852842e+00
1.756328985095024109e+01 5.446219628676772118e+00 1.029951262148102842e+00
1.749248906970024109e+01 5.597098534926772118e+00 1.031522917421540342e+00
2.468218633532524109e+01 6.993338769301772118e+00 1.582685637148102842e+00
2.472063848376274109e+01 7.236869042739272118e+00 1.596250700624665342e+00
1.256280156970024109e+01 5.056693261489272118e+00 -2.965563062112721582e-01
1.250054571032524109e+01 5.156668847426772118e+00 -2.925279858987721582e-01
1.242620489001274109e+01 5.253348534926772118e+00 -2.886369946878346582e-01
1.262615606188774109e+01 5.408499902114272118e+00 -2.880113843362721582e-01
1.292071172595024109e+01 5.589408105239272118e+00 -2.883470776956471582e-01
1.335833379626274109e+01 5.810843652114272118e+00 -2.901170972268971582e-01
1.337505742907524109e+01 5.938407128676772118e+00 -2.870043042581471582e-01
1.326250860095024109e+01 6.033133691176772118e+00 -2.827928784768971582e-01
1.285918828845024109e+01 5.109793847426772118e+00 -2.480180982034596582e-01
1.337139531970024109e+01 5.324759667739272118e+00 -2.487657788675221582e-01
1.288286992907524109e+01 5.345511620864272118e+00 -2.415331128518971582e-01
1.267412969470024109e+01 5.417288964614272118e+00 -2.368181470315846582e-01
1.252618047595024109e+01 5.498709863051772118e+00 -2.326372388284596582e-01
1.329327031970024109e+01 5.793875878676772118e+00 -2.344835523050221582e-01
1.341448614001274109e+01 5.946463769301772118e+00 -2.321336987893971582e-01
1.328716680407524109e+01 6.037894433364272118e+00 -2.279375317972096582e-01
1.246294805407524109e+01 5.034964745864272118e+00 -1.944292310159596582e-01
1.336968633532524109e+01 5.322684472426772118e+00 -1.939562085550221582e-01
1.288396856188774109e+01 5.344046777114272118e+00 -1.891802075784596582e-01
1.272234746813774109e+01 5.426078027114272118e+00 -1.854418042581471582e-01
1.257488653063774109e+01 5.508109277114272118e+00 -1.818254712503346582e-01
1.319012090563774109e+01 5.767752831801772118e+00 -1.796587232034596582e-01
1.345428106188774109e+01 5.954642480239272118e+00 -1.765611890237721582e-01
1.325127813220024109e+01 6.026908105239272118e+00 -1.727617505472096582e-01
1.243047735095024109e+01 5.027518456801772118e+00 -1.442888501565846582e-01
1.336785528063774109e+01 5.320609277114272118e+00 -1.391466382425221582e-01
1.288506719470024109e+01 5.342704003676772118e+00 -1.365221265237721582e-01
1.339605352282524109e+01 5.569632714614272118e+00 -1.318834546487721582e-01
1.368499395251274109e+01 5.757132714614272118e+00 -1.275041821878346582e-01
1.309539434313774109e+01 5.743827050551772118e+00 -1.254900220315846582e-01
1.322149297595024109e+01 5.895560448989272118e+00 -1.215074780862721582e-01
1.318975469470024109e+01 6.009574120864272118e+00 -1.182878735940846582e-01
1.287896367907524109e+01 5.108451073989272118e+00 -9.126455816439715818e-02
1.336614629626274109e+01 5.318534081801772118e+00 -8.464224371127215818e-02
1.288616582751274109e+01 5.341239159926772118e+00 -8.412344488314715818e-02
1.296233770251274109e+01 5.474539941176772118e+00 -8.001883062533465818e-02
1.281963750720024109e+01 5.560233300551772118e+00 -7.744009527377215818e-02
9.102474421262741089e+00 4.799369042739272118e+00 -1.022203687112721582e-01
9.166439265012741089e+00 4.893729394301772118e+00 -9.930594000033465818e-02
9.231624811887741089e+00 4.989676659926772118e+00 -9.634573492220965818e-02
8.758602350950241089e+00 4.348807519301772118e+00 -8.317739996127215818e-02
8.814998835325241089e+00 4.432791894301772118e+00 -8.006460699252215818e-02
8.872860163450241089e+00 4.518485253676772118e+00 -7.707388433627215818e-02
8.932064265012741089e+00 4.606253808364272118e+00 -7.400686773470965818e-02
8.992244929075241089e+00 4.695609277114272118e+00 -7.087881597689715818e-02
9.053768366575241089e+00 4.786917870864272118e+00 -6.768972906283465818e-02
9.116878718137741089e+00 4.880423730239272118e+00 -6.442434820345965818e-02
9.181331843137741089e+00 4.975760644301772118e+00 -6.128103765658465818e-02
8.714779108762741089e+00 4.339774316176772118e+00 -5.069143804720965818e-02
8.770687311887741089e+00 4.423148339614272118e+00 -4.745657476595965818e-02
8.827694147825241089e+00 4.508231347426772118e+00 -4.414541753939715818e-02
8.886043757200241089e+00 4.595389550551772118e+00 -4.074270757845965818e-02
8.945369929075241089e+00 4.684012597426772118e+00 -3.729422125033465818e-02
9.006038874387741089e+00 4.774588769301772118e+00 -3.378469976595965818e-02
9.068172663450241089e+00 4.867362206801772118e+00 -3.016836675814715818e-02
9.133602350950241089e+00 4.962332909926772118e+00 -2.646048101595965818e-02
8.708309382200241089e+00 4.337577050551772118e+00 -1.805288824252215818e-02
8.770443171262741089e+00 4.422049706801772118e+00 -1.434500250033465818e-02
8.834163874387741089e+00 4.508475488051772118e+00 -1.037771734408465818e-02
8.899349421262741089e+00 4.597220605239272118e+00 -6.486726133147158180e-03
8.965877741575241089e+00 4.687552636489272118e+00 -2.534699765959658180e-03
9.033870905637741089e+00 4.780081933364272118e+00 1.524138124665341820e-03
9.103450983762741089e+00 4.874930566176772118e+00 5.491423280915341820e-03
9.174740046262741089e+00 4.971854394301772118e+00 9.733366640290341820e-03
8.744442194700241089e+00 4.343070214614272118e+00 1.577584710904034182e-02
8.807308405637741089e+00 4.428153222426772118e+00 1.988046136685284182e-02
8.871517390012741089e+00 4.515067284926772118e+00 2.406136956997784182e-02
8.937557429075241089e+00 4.604300683364272118e+00 2.836434808560284182e-02
9.004818171262741089e+00 4.695243066176772118e+00 3.274362054654034182e-02
9.073665827512741089e+00 4.788382714614272118e+00 3.722970453091534182e-02
9.144344538450241089e+00 4.883963769301772118e+00 4.183785882779034182e-02
9.216488093137741089e+00 4.981497948989272118e+00 4.653756585904034182e-02
8.763973444700241089e+00 4.345633691176772118e+00 4.928414789029034182e-02
8.819637507200241089e+00 4.429495995864272118e+00 5.354135003872784182e-02
8.876400202512741089e+00 4.515067284926772118e+00 5.787484613247784182e-02
8.934505671262741089e+00 4.602591698989272118e+00 6.233041253872784182e-02
8.993709772825241089e+00 4.691703027114272118e+00 6.684701410122784182e-02
9.054134577512741089e+00 4.782767480239272118e+00 7.147042718716534182e-02
9.116024225950241089e+00 4.875907128676772118e+00 7.620065179654034182e-02
9.179012507200241089e+00 4.970877831801772118e+00 8.102242914029034182e-02
8.727718561887741089e+00 4.337943261489272118e+00 8.125131097622784182e-02
8.782772272825241089e+00 4.421317284926772118e+00 8.581368890591534182e-02
8.838924616575241089e+00 4.506400292739272118e+00 9.045236078091534182e-02
8.896297663450241089e+00 4.593436425551772118e+00 9.521310296841534182e-02
8.954769343137741089e+00 4.681937402114272118e+00 1.000501391012278418e-01
9.014461725950241089e+00 4.772391503676772118e+00 1.049939867574778418e-01
9.075618952512741089e+00 4.865042870864272118e+00 1.100599047262278418e-01
9.137874811887741089e+00 4.959281152114272118e+00 1.152021166402903418e-01
8.692074030637741089e+00 4.330374902114272118e+00 1.127454516012278418e-01
8.747249811887741089e+00 4.413382714614272118e+00 1.176282641012278418e-01
8.813411921262741089e+00 4.500052636489272118e+00 1.229840990621653418e-01
8.881160944700241089e+00 4.589163964614272118e+00 1.284925219137278418e-01
8.950374811887741089e+00 4.679862206801772118e+00 1.340924974996653418e-01
9.021175593137741089e+00 4.772879784926772118e+00 1.398450609762278418e-01
9.094051569700241089e+00 4.868460839614272118e+00 1.457654711324778418e-01
9.168392390012741089e+00 4.965995019301772118e+00 1.517926928121653418e-01
8.727230280637741089e+00 4.335745995864272118e+00 1.471540209371653418e-01
8.792659968137741089e+00 4.421195214614272118e+00 1.528302904684153418e-01
8.859432429075241089e+00 4.508475488051772118e+00 1.584455248434153418e-01
8.928280085325241089e+00 4.598197167739272118e+00 1.643964525777903418e-01
8.998470515012741089e+00 4.689627831801772118e+00 1.704847094137278418e-01
9.070369929075241089e+00 4.783377831801772118e+00 1.767102953512278418e-01
9.144588679075241089e+00 4.879813378676772118e+00 1.833020922262278418e-01
9.220028132200241089e+00 4.978202050551772118e+00 1.898481127340403418e-01
8.771908015012741089e+00 4.342948144301772118e+00 1.821882006246653418e-01
8.838436335325241089e+00 4.428885644301772118e+00 1.883069750387278418e-01
1.418780156970024109e+01 5.591483300551772118e+00 4.527112719137278418e-01
1.477764531970024109e+01 5.848197167739272118e+00 4.869519945699778418e-01
2.676470586657524109e+01 8.674124902114272118e+00 1.088194059999665342e+00
1.494366094470024109e+01 6.161551659926772118e+00 5.061322924215403418e-01
1.397430059313774109e+01 6.064017480239272118e+00 4.626905199606028418e-01
1.387591192126274109e+01 6.168997948989272118e+00 4.628278490621653418e-01
1.411321660876274109e+01 5.317435448989272118e+00 4.972211596090403418e-01
1.443011114001274109e+01 5.506766503676772118e+00 5.189496752340403418e-01
1.467046758532524109e+01 5.687796777114272118e+00 5.371839281637278418e-01
1.467229864001274109e+01 5.823783105239272118e+00 5.427839037496653418e-01
1.456780645251274109e+01 5.936209863051772118e+00 5.426007982809153418e-01
2.649663946032524109e+01 8.870902245864272118e+00 1.202238249452790342e+00
1.396929571032524109e+01 6.060965722426772118e+00 5.205518480856028418e-01
6.992632696032524109e+01 2.050737685523927212e+01 3.644087004335602842e+00
1.405132696032524109e+01 5.304251855239272118e+00 5.516950365621653418e-01
1.434527227282524109e+01 5.488578027114272118e+00 5.739881273824778418e-01
1.483257696032524109e+01 5.718802636489272118e+00 6.078473803121653418e-01
2.583819219470024109e+01 8.206839745864272118e+00 1.259672331484040342e+00
2.683929082751274109e+01 8.683646386489272118e+00 1.329374479921540342e+00
3.175396367907524109e+01 1.010039443336427212e+01 1.633161711366852842e+00
8.328789922595024109e+01 2.305034560523927212e+01 4.739362883241852842e+00
9.049102422595024109e+01 2.575627822242677212e+01 5.210767912538727842e+00
1.476690313220024109e+01 5.432913964614272118e+00 6.541883226949778418e-01
1.445061895251274109e+01 5.507010644301772118e+00 6.398298021871653418e-01
2.569964239001274109e+01 7.923026269301772118e+00 1.353712248476227842e+00
2.606084844470024109e+01 8.250907128676772118e+00 1.387281584413727842e+00
3.166753789782524109e+01 9.761038964614272118e+00 1.756117033632477842e+00
3.205767461657524109e+01 1.016728896461427212e+01 1.794584440859040342e+00
9.668719121813774109e+01 2.632121962867677212e+01 5.992826628359040342e+00
8.301897832751274109e+01 2.383415908180177212e+01 5.146558928163727842e+00
1.477788946032524109e+01 5.433036034926772118e+00 7.160169359762278418e-01
2.599749395251274109e+01 7.727957909926772118e+00 1.476118254335602842e+00
2.563213750720024109e+01 7.905814355239272118e+00 1.462370085390290342e+00
2.596953985095024109e+01 8.227835839614272118e+00 1.496244597109040342e+00
2.613055059313774109e+01 8.517874902114272118e+00 1.518339323671540342e+00
3.172954961657524109e+01 1.008611220680177212e+01 1.916074919374665342e+00
8.324346563220024109e+01 2.301628798805177212e+01 5.510236906679352842e+00
2.493120977282524109e+01 7.279471581801772118e+00 1.503141569765290342e+00
1.446392461657524109e+01 5.505789941176772118e+00 7.609540697652903418e-01
2.556548711657524109e+01 7.888846581801772118e+00 1.569868254335602842e+00
2.609588262438774109e+01 8.251273339614272118e+00 1.619611906679352842e+00
2.605169317126274109e+01 8.496634667739272118e+00 1.627744841249665342e+00
2.703277227282524109e+01 7.658255761489272118e+00 1.772382902773102842e+00
2.607915899157524109e+01 7.736624902114272118e+00 1.710600065859040342e+00
2.605083867907524109e+01 7.983695214614272118e+00 1.719923185976227842e+00
2.610332891345024109e+01 8.249320214614272118e+00 1.735593962343415342e+00
2.579156133532524109e+01 8.434989159926772118e+00 1.722898649843415342e+00
3.195684453845024109e+01 1.013066787086427212e+01 2.218443083437165342e+00
1.326202031970024109e+01 6.033377831801772118e+00 -2.827776196878346582e-01
1.317889043688774109e+01 6.134329980239272118e+00 -2.787035230081471582e-01
1.287029668688774109e+01 6.171073144301772118e+00 -2.726457837503346582e-01
1.331304571032524109e+01 6.420340722426772118e+00 -2.741564038675221582e-01
1.322771856188774109e+01 6.520560448989272118e+00 -2.703417066018971582e-01
1.349944707751274109e+01 6.730887597426772118e+00 -2.699144605081471582e-01
9.812557429075241089e+00 5.671195214614272118e+00 -2.331712964456471582e-01
9.769588679075241089e+00 5.746512597426772118e+00 -2.308824780862721582e-01
1.328655645251274109e+01 6.038138573989272118e+00 -2.279222730081471582e-01
1.340215703845024109e+01 6.192557519301772118e+00 -2.254808667581471582e-01
1.340069219470024109e+01 6.317557519301772118e+00 -2.220476392190846582e-01
1.299859258532524109e+01 6.327567284926772118e+00 -2.168138745706471582e-01
1.315850469470024109e+01 6.498099511489272118e+00 -2.145250562112721582e-01
1.345501348376274109e+01 6.715506738051772118e+00 -2.127550366800221582e-01
9.813167780637741089e+00 5.670340722426772118e+00 -1.940630200784596582e-01
9.768490046262741089e+00 5.745047753676772118e+00 -1.916521314065846582e-01
1.325140020251274109e+01 6.027518456801772118e+00 -1.727464917581471582e-01
1.344585821032524109e+01 6.202689355239272118e+00 -1.696794751565846582e-01
1.361321660876274109e+01 6.375174706801772118e+00 -1.664751294534596582e-01
1.290703985095024109e+01 6.299491113051772118e+00 -1.628282788675221582e-01
1.322332403063774109e+01 6.516043847426772118e+00 -1.596544507425221582e-01
1.313726446032524109e+01 6.614920800551772118e+00 -1.563585523050221582e-01
9.813900202512741089e+00 5.669486230239272118e+00 -1.547411206643971582e-01
9.767513483762741089e+00 5.743704980239272118e+00 -1.524217847268971582e-01
1.318975469470024109e+01 6.009940331801772118e+00 -1.182726148050221582e-01
1.327666875720024109e+01 6.155692284926772118e+00 -1.142595532815846582e-01
1.337701055407524109e+01 6.307669823989272118e+00 -1.104143384378346582e-01
1.331902715563774109e+01 6.417166894301772118e+00 -1.071794751565846582e-01
1.320391485095024109e+01 6.508597558364272118e+00 -1.042497876565846582e-01
1.312273809313774109e+01 6.608817284926772118e+00 -1.011827710550221582e-01
9.814632624387741089e+00 5.668631738051772118e+00 -1.153887036722096582e-01
9.766536921262741089e+00 5.742240136489272118e+00 -1.133898023050221582e-01
9.232235163450241089e+00 4.990042870864272118e+00 -9.633047613314715818e-02
9.299007624387741089e+00 5.088431542739272118e+00 -9.343130621127215818e-02
9.367489069700241089e+00 5.189017480239272118e+00 -9.045584234408465818e-02
9.437923640012741089e+00 5.292411034926772118e+00 -8.740408453158465818e-02
9.509823054075241089e+00 5.398001855239272118e+00 -8.429129156283465818e-02
9.583431452512741089e+00 5.506156152114272118e+00 -8.110220464877215818e-02
9.659115046262741089e+00 5.617484277114272118e+00 -7.782156500033465818e-02
9.736507624387741089e+00 5.731131738051772118e+00 -7.446463140658465818e-02
9.181942194700241089e+00 4.976126855239272118e+00 -6.126577886752215818e-02
9.247493952512741089e+00 5.073538964614272118e+00 -5.778677496127215818e-02
9.314876765012741089e+00 5.173270409926772118e+00 -5.441458257845965818e-02
9.384212702512741089e+00 5.275809472426772118e+00 -5.095083746127215818e-02
9.454891413450241089e+00 5.380423730239272118e+00 -4.741079839877215818e-02
9.527279108762741089e+00 5.487601464614272118e+00 -4.379446539095965818e-02
9.601864069700241089e+00 5.597830956801772118e+00 -4.007132085970965818e-02
9.678280085325241089e+00 5.710623925551772118e+00 -3.645498785189715818e-02
9.134212702512741089e+00 4.962821191176772118e+00 -2.642996343783465818e-02
9.206112116575241089e+00 5.061331933364272118e+00 -2.263052496127215818e-02
9.279964655637741089e+00 5.162528222426772118e+00 -1.872427496127215818e-02
9.356014460325241089e+00 5.266532128676772118e+00 -1.471121343783465818e-02
9.433773249387741089e+00 5.372977441176772118e+00 -1.060659918002215818e-02
9.513485163450241089e+00 5.482230370864272118e+00 -6.395173398772158180e-03
9.595760554075241089e+00 5.594901269301772118e+00 -2.046418515959658180e-03
9.679989069700241089e+00 5.710135644301772118e+00 2.409147890290341820e-03
9.175228327512741089e+00 4.972342675551772118e+00 9.763884218415341820e-03
9.248226374387741089e+00 5.071585839614272118e+00 1.405160394497784182e-02
9.323177546262741089e+00 5.173392480239272118e+00 1.864449945279034182e-02
9.400203913450241089e+00 5.278250878676772118e+00 2.316110101529034182e-02
9.478939265012741089e+00 5.385550683364272118e+00 2.779977289029034182e-02
9.559871882200241089e+00 5.495658105239272118e+00 3.256051507779034182e-02
9.643001765012741089e+00 5.608939355239272118e+00 3.724496331997784182e-02
9.728328913450241089e+00 5.725150292739272118e+00 4.224984613247784182e-02
9.216976374387741089e+00 4.981986230239272118e+00 4.656808343716534182e-02
9.286068171262741089e+00 5.080619042739272118e+00 5.120675531216534182e-02
9.352840632200241089e+00 5.180594628676772118e+00 5.586068597622784182e-02
9.421566218137741089e+00 5.283377831801772118e+00 6.063668695279034182e-02
9.491512507200241089e+00 5.388236230239272118e+00 6.550424066372784182e-02
9.563289850950241089e+00 5.495536034926772118e+00 7.049386468716534182e-02
9.637020319700241089e+00 5.606009667739272118e+00 7.563607660122784182e-02
9.712337702512741089e+00 5.718802636489272118e+00 8.086984124966534182e-02
9.179500788450241089e+00 4.971244042739272118e+00 8.103768792935284182e-02
9.243953913450241089e+00 5.068289941176772118e+00 8.595101800747784182e-02
9.309871882200241089e+00 5.167655175551772118e+00 9.098641839810284182e-02
9.377620905637741089e+00 5.269583886489272118e+00 9.614388910122784182e-02
9.446712702512741089e+00 5.373709863051772118e+00 1.014234301168528418e-01
9.517513483762741089e+00 5.480277245864272118e+00 1.068097826559153418e-01
9.590267390012741089e+00 5.589896386489272118e+00 1.123639818746653418e-01
9.664486140012741089e+00 5.701834863051772118e+00 1.180402514059153418e-01
9.138363093137741089e+00 4.959647363051772118e+00 1.152326342184153418e-01
9.201961725950241089e+00 5.056082909926772118e+00 1.205121752340403418e-01
9.270443171262741089e+00 5.155570214614272118e+00 1.260358568746653418e-01
9.349910944700241089e+00 5.260550683364272118e+00 1.320630785543528418e-01
9.431209772825241089e+00 5.367972558364272118e+00 1.382428881246653418e-01
9.514827936887741089e+00 5.478446191176772118e+00 1.445752855856028418e-01
9.601009577512741089e+00 5.592215722426772118e+00 1.511213060934153418e-01
9.689266413450241089e+00 5.708914941176772118e+00 1.578199144918528418e-01
9.169002741575241089e+00 4.966483300551772118e+00 1.518232103902903418e-01
9.245296686887741089e+00 5.066580956801772118e+00 1.580640551168528418e-01
9.323543757200241089e+00 5.169364159926772118e+00 1.644574877340403418e-01
9.404354304075241089e+00 5.275199120864272118e+00 1.710340258199778418e-01
9.486995905637741089e+00 5.383597558364272118e+00 1.777936693746653418e-01
9.571956843137741089e+00 5.495047753676772118e+00 1.847211596090403418e-01
9.659603327512741089e+00 5.610037988051772118e+00 1.918775316793528418e-01
9.749447077512741089e+00 5.727835839614272118e+00 1.992017504293528418e-01
9.220638483762741089e+00 4.978690331801772118e+00 1.898786303121653418e-01
9.298153132200241089e+00 5.079642480239272118e+00 1.966687914449778418e-01
1.429668828845024109e+01 6.548270409926772118e+00 4.347974535543528418e-01
6.562371465563774109e+01 2.148247451148927212e+01 2.876356291444977842e+00
6.557159063220024109e+01 2.215935439430177212e+01 2.901106047304352842e+00
6.558562871813774109e+01 2.285967177711427212e+01 2.929166960390290342e+00
7.845171758532524109e+01 2.769255751930177212e+01 3.586027311952790342e+00
7.506817266345024109e+01 2.741533583961427212e+01 3.452833342226227842e+00
1.387530156970024109e+01 6.169242089614272118e+00 4.628125902731028418e-01
1.464153692126274109e+01 6.503470605239272118e+00 5.074750658590403418e-01
3.477849981188774109e+01 1.222746962867677212e+01 1.556776213319977842e+00
3.483428594470024109e+01 1.260112685523927212e+01 1.574232268007477842e+00
7.261272832751274109e+01 2.425578994117677212e+01 3.580030607851227842e+00
7.876690313220024109e+01 2.693572158180177212e+01 3.938535856874665342e+00
7.669598028063774109e+01 2.711882705055177212e+01 3.862013029726227842e+00
7.483550664782524109e+01 2.732829970680177212e+01 3.795072722109040342e+00
6.992388555407524109e+01 2.050932998023927212e+01 3.644071745546540342e+00
8.352495977282524109e+01 2.486064833961427212e+01 4.436414885194977842e+00
3.504180547595024109e+01 1.229595107398927212e+01 1.729398893984040342e+00
3.513177129626274109e+01 1.268230361305177212e+01 1.749662565859040342e+00
7.978631231188774109e+01 2.639006728492677212e+01 4.332502531679352842e+00
7.857989141345024109e+01 2.686724013648927212e+01 4.298277067812165342e+00
7.665313360095024109e+01 2.709490126930177212e+01 4.221204924257477842e+00
7.818987676501274109e+01 2.843132705055177212e+01 4.348356413515290342e+00
8.250921270251274109e+01 2.371831435523927212e+01 4.728330778749665342e+00
8.101238653063774109e+01 2.417986220680177212e+01 4.674360441835602842e+00
3.504888555407524109e+01 1.229314345680177212e+01 1.889692473085602842e+00
3.489788457751274109e+01 1.261028212867677212e+01 1.895963835390290342e+00
7.972430059313774109e+01 2.636077040992677212e+01 4.705106901796540342e+00
7.939080449938774109e+01 2.710784072242677212e+01 4.720945524843415342e+00
7.770696660876274109e+01 2.742266005836427212e+01 4.651395964296540342e+00
7.635662481188774109e+01 2.781304091773927212e+01 4.601591276796540342e+00
8.302410528063774109e+01 2.383843154273927212e+01 5.147031950624665342e+00
3.534173223376274109e+01 1.200920790992677212e+01 2.052091765077790342e+00
3.505608770251274109e+01 1.229057998023927212e+01 2.049268889101227842e+00
3.504864141345024109e+01 1.264910048805177212e+01 2.064848112734040342e+00
7.972100469470024109e+01 2.634905165992677212e+01 5.079130339296540342e+00
7.989898321032524109e+01 2.725456923805177212e+01 5.129057097109040342e+00
7.944817754626274109e+01 2.797038955055177212e+01 5.136717009218415342e+00
7.784576055407524109e+01 2.829668349586427212e+01 5.066999601991852842e+00
3.521404668688774109e+01 1.197051162086427212e+01 2.204008268984040342e+00
3.506341192126274109e+01 1.228789443336427212e+01 2.209791350038727842e+00
3.506963750720024109e+01 1.265056533180177212e+01 2.226789641054352842e+00
8.202056524157524109e+01 2.702458876930177212e+01 5.620893644960602842e+00
7.941692754626274109e+01 2.794975966773927212e+01 5.511686491640290342e+00
7.919927617907524109e+01 2.873491591773927212e+01 5.535032438905915342e+00
3.523138067126274109e+01 1.197051162086427212e+01 2.365644621523102842e+00
3.504620000720024109e+01 1.227849501930177212e+01 2.367719816835602842e+00
3.508477422595024109e+01 1.265019912086427212e+01 2.387678312929352842e+00
3.492107793688774109e+01 1.296343154273927212e+01 2.392194914491852842e+00
7.974383184313774109e+01 2.718523330055177212e+01 5.871778654726227842e+00
7.918108770251274109e+01 2.786370009742677212e+01 5.870527434023102842e+00
7.978594610095024109e+01 2.891875380836427212e+01 5.958234953554352842e+00
3.508282110095024109e+01 1.228398818336427212e+01 2.530714201601227842e+00
3.508977910876274109e+01 1.264702529273927212e+01 2.548780607851227842e+00
7.929949590563774109e+01 2.874712294898927212e+01 6.297971892030915342e+00
9.770199030637741089e+00 5.747000878676772118e+00 -2.308824780862721582e-01
1.337139531970024109e+01 7.078299706801772118e+00 -2.598894360940846582e-01
1.324273321032524109e+01 7.163138573989272118e+00 -2.560899976175221582e-01
1.310442754626274109e+01 7.242972558364272118e+00 -2.522295239847096582e-01
1.352605840563774109e+01 7.532157128676772118e+00 -2.528856519143971582e-01
1.325457403063774109e+01 7.561576073989272118e+00 -2.479723218362721582e-01
1.383318731188774109e+01 7.927542870864272118e+00 -2.494982007425221582e-01
1.892364141345024109e+01 1.017143935523927212e+01 -2.837236646097096582e-01
9.769222468137741089e+00 5.745536034926772118e+00 -1.916368726175221582e-01
1.339593145251274109e+01 7.085257714614272118e+00 -2.034013989847096582e-01
1.356170293688774109e+01 7.275077050551772118e+00 -2.007311108987721582e-01
1.306646367907524109e+01 7.227469628676772118e+00 -1.961076978128346582e-01
1.382464239001274109e+01 7.643607323989272118e+00 -1.954973462503346582e-01
1.385735723376274109e+01 7.795096581801772118e+00 -1.924608472268971582e-01
1.344659063220024109e+01 7.770804589614272118e+00 -1.886003735940846582e-01
1.404925176501274109e+01 8.156180566176772118e+00 -1.868913892190846582e-01
9.768245905637741089e+00 5.744193261489272118e+00 -1.524065259378346582e-01
1.337932989001274109e+01 7.077933495864272118e+00 -1.463945630472096582e-01
1.319475957751274109e+01 7.142996972426772118e+00 -1.434953931253346582e-01
1.356927129626274109e+01 7.410575097426772118e+00 -1.397569898050221582e-01
1.377300664782524109e+01 7.622367089614272118e+00 -1.361406567972096582e-01
1.395476934313774109e+01 7.831473534926772118e+00 -1.324175122659596582e-01
1.442962285876274109e+01 8.163748925551772118e+00 -1.278551343362721582e-01
1.772954961657524109e+01 9.674002831801772118e+00 -1.153429273050221582e-01
9.767147272825241089e+00 5.742728417739272118e+00 -1.133745435159596582e-01
1.327190801501274109e+01 7.039359277114272118e+00 -9.007437261752215818e-02
1.318120977282524109e+01 7.136649316176772118e+00 -8.731253179720965818e-02
1.407989141345024109e+01 7.596244042739272118e+00 -7.812674078158465818e-02
1.410699102282524109e+01 7.747122948989272118e+00 -7.432730230502215818e-02
1.446526739001274109e+01 8.028739159926772118e+00 -6.814749273470965818e-02
1.387359258532524109e+01 7.939017480239272118e+00 -6.872732671908465818e-02
1.801946660876274109e+01 9.791556542739272118e+00 -3.364737066439715818e-02
9.737240046262741089e+00 5.731620019301772118e+00 -7.444937261752215818e-02
9.840877741575241089e+00 5.856742089614272118e+00 -7.089407476595965818e-02
9.958431452512741089e+00 5.989798730239272118e+00 -6.710989507845965818e-02
1.008074590563774109e+01 6.128104394301772118e+00 -6.315786871127215818e-02
1.020708867907524109e+01 6.271170800551772118e+00 -5.908377203158465818e-02
1.033843633532524109e+01 6.419852441176772118e+00 -5.485708746127215818e-02
1.047539922595024109e+01 6.574759667739272118e+00 -5.043203863314715818e-02
1.061724492907524109e+01 6.735282128676772118e+00 -4.585440191439715818e-02
9.678890436887741089e+00 5.711112206801772118e+00 -3.643972906283465818e-02
9.756893366575241089e+00 5.826712792739272118e+00 -3.245718511752215818e-02
9.882747858762741089e+00 5.961722558364272118e+00 -2.783377203158465818e-02
1.000262090563774109e+01 6.098319238051772118e+00 -2.321035894564715818e-02
1.012640020251274109e+01 6.239554589614272118e+00 -1.841909918002215818e-02
1.026336309313774109e+01 6.389456933364272118e+00 -1.330740484408465818e-02
1.041350957751274109e+01 6.548880761489272118e+00 -7.860017148772158180e-03
1.056939336657524109e+01 6.714408105239272118e+00 -2.412629453459658180e-03
9.680599421262741089e+00 5.710623925551772118e+00 2.424406679352841820e-03
9.739681452512741089e+00 5.819754784926772118e+00 6.345915468415341820e-03
9.911556452512741089e+00 5.970877831801772118e+00 1.266305414029034182e-02
1.004681035876274109e+01 6.113455956801772118e+00 1.836984124966534182e-02
1.018706914782524109e+01 6.261405175551772118e+00 2.427499261685284182e-02
1.033318731188774109e+01 6.415579980239272118e+00 3.043954339810284182e-02
1.048614141345024109e+01 6.576834863051772118e+00 3.687875238247784182e-02
1.064532110095024109e+01 6.744559472426772118e+00 4.359261956997784182e-02
9.729061335325241089e+00 5.725760644301772118e+00 4.228036371060284182e-02
9.738704890012741089e+00 5.818412011489272118e+00 4.539315667935284182e-02
9.975399225950241089e+00 5.992484277114272118e+00 5.457894769497784182e-02
1.010332891345024109e+01 6.133109277114272118e+00 6.092660394497784182e-02
1.022747442126274109e+01 6.275565331801772118e+00 6.727426019497784182e-02
1.035625860095024109e+01 6.423392480239272118e+00 7.386605706997784182e-02
1.049078008532524109e+01 6.577567284926772118e+00 8.050363031216534182e-02
1.062981817126274109e+01 6.737113183364272118e+00 8.761422601529034182e-02
9.712948054075241089e+00 5.719290917739272118e+00 8.090035882779034182e-02
9.737850397825241089e+00 5.816947167739272118e+00 8.465402093716534182e-02
9.920955866575241089e+00 5.972098534926772118e+00 9.329049554654034182e-02
1.003911992907524109e+01 6.108451073989272118e+00 1.000806566793528418e-01
1.016106817126274109e+01 6.249320214614272118e+00 1.070996996481028418e-01
1.028753301501274109e+01 6.395560448989272118e+00 1.143934008199778418e-01
1.041936895251274109e+01 6.547782128676772118e+00 1.219770189840403418e-01
1.055584356188774109e+01 6.705496972426772118e+00 1.298352953512278418e-01
9.665096491575241089e+00 5.702323144301772118e+00 1.180707689840403418e-01
9.741390436887741089e+00 5.817191308364272118e+00 1.238691088277903418e-01
9.859676569700241089e+00 5.949271386489272118e+00 1.312391039449778418e-01
9.998714655637741089e+00 6.092581933364272118e+00 1.394941088277903418e-01
1.014495489001274109e+01 6.242118066176772118e+00 1.481153246481028418e-01
1.029754278063774109e+01 6.398368066176772118e+00 1.571332689840403418e-01
1.045757696032524109e+01 6.561942284926772118e+00 1.665784594137278418e-01
1.062432500720024109e+01 6.732596581801772118e+00 1.764203783590403418e-01
9.689998835325241089e+00 5.709525292739272118e+00 1.578504320699778418e-01
9.780941218137741089e+00 5.829642480239272118e+00 1.647626635152903418e-01
9.936702936887741089e+00 5.975516503676772118e+00 1.743909594137278418e-01
1.008050176501274109e+01 6.121390527114272118e+00 1.836988207418528418e-01
1.023003789782524109e+01 6.273123925551772118e+00 1.933728930074778418e-01
1.038616582751274109e+01 6.431571191176772118e+00 2.034742113668528418e-01
1.958037969470024109e+01 1.021208876930177212e+01 5.935956713277903418e-01
6.648345586657524109e+01 2.973638076148927212e+01 2.592497038515290342e+00
9.750179499387741089e+00 5.728446191176772118e+00 1.992475267965403418e-01
7.418389531970024109e+01 2.793877333961427212e+01 3.088071989687165342e+00
1.971001836657524109e+01 9.438895409926772118e+00 6.564618822652903418e-01
1.959661504626274109e+01 9.601126855239272118e+00 6.591474291402903418e-01
1.992132207751274109e+01 9.926932519301772118e+00 6.819288012106028418e-01
4.024346563220024109e+01 1.803179091773927212e+01 1.635404753359040342e+00
1.950530645251274109e+01 1.017974013648927212e+01 6.785413500387278418e-01
6.694756719470024109e+01 2.991924208961427212e+01 2.935957121523102842e+00
7.506475469470024109e+01 2.741704482398927212e+01 3.452772307069977842e+00
7.385577031970024109e+01 2.781645888648927212e+01 3.425413298280915342e+00
1.977849981188774109e+01 9.460745995864272118e+00 7.477094408590403418e-01
1.957659551501274109e+01 9.591483300551772118e+00 7.457105394918528418e-01
1.994671270251274109e+01 9.934134667739272118e+00 7.727338549215403418e-01
4.032549688220024109e+01 1.805864638648927212e+01 1.829542326601227842e+00
6.647210332751274109e+01 2.896330947242677212e+01 3.206434416444977842e+00
6.639544317126274109e+01 2.968352431617677212e+01 3.232587980898102842e+00
7.485894414782524109e+01 2.733879775367677212e+01 3.796461271913727842e+00
7.576604864001274109e+01 2.846208876930177212e+01 3.879789518984040342e+00
7.472124883532524109e+01 2.892021865211427212e+01 3.856916594179352842e+00
7.373760625720024109e+01 2.938616103492677212e+01 3.836820768984040342e+00
1.992315313220024109e+01 9.922782128676772118e+00 8.615552660543528418e-01
4.032952520251274109e+01 1.805510634742677212e+01 2.021146940859040342e+00
6.657537481188774109e+01 2.899626845680177212e+01 3.532667326601227842e+00
6.648846074938774109e+01 2.971355361305177212e+01 3.559095549257477842e+00
7.854620000720024109e+01 2.855242080055177212e+01 4.369474577577790342e+00
7.458037969470024109e+01 2.804570693336427212e+01 4.169019865663727842e+00
7.675555059313774109e+01 2.963091201148927212e+01 4.334516691835602842e+00
7.395733281970024109e+01 2.945696181617677212e+01 4.202451872499665342e+00
4.115154668688774109e+01 1.791802138648927212e+01 2.242429899843415342e+00
4.032122442126274109e+01 1.804692763648927212e+01 2.211057829530915342e+00
6.628130742907524109e+01 2.887041396461427212e+01 3.835416960390290342e+00
6.655584356188774109e+01 2.973296279273927212e+01 3.886732268007477842e+00
7.635564824938774109e+01 2.781560439430177212e+01 4.601652311952790342e+00
7.754119512438774109e+01 2.905071181617677212e+01 4.715070891054352842e+00
7.450982305407524109e+01 2.882598037086427212e+01 4.556928801210602842e+00
7.477117559313774109e+01 2.974468154273927212e+01 4.610975432069977842e+00
7.697784063220024109e+01 3.140520400367677212e+01 4.793394255312165342e+00
4.031402227282524109e+01 1.803911513648927212e+01 2.402036833437165342e+00
4.009319707751274109e+01 1.839739150367677212e+01 2.407362150819977842e+00
6.678936406970024109e+01 2.982073134742677212e+01 4.224592375429352842e+00
7.784002324938774109e+01 2.829766005836427212e+01 5.066740202577790342e+00
7.689739629626274109e+01 2.882012099586427212e+01 5.038984465273102842e+00
7.681512090563774109e+01 2.963201064430177212e+01 5.072416472109040342e+00
7.489593145251274109e+01 2.978057021461427212e+01 4.977338957460602842e+00
4.056707403063774109e+01 1.768755263648927212e+01 2.589796232851227842e+00
4.034722539782524109e+01 1.804692763648927212e+01 2.594846892030915342e+00
