8.350740186870098114e+00 4.054893750697374344e+00 -2.529225739650371452e-01
8.482454054057598114e+00 4.145469922572374344e+00 -2.526173981837871452e-01
1.258218549937009811e+01 4.931236524134874344e+00 -3.035054597072246452e-01
1.247696088999509811e+01 5.024620313197374344e+00 -2.990956696681621452e-01
7.928376905620098114e+00 3.732017774134874344e+00 -2.256551179103496452e-01
7.761262647807598114e+00 3.775352735072374344e+00 -2.220693024806621452e-01
7.917756788432598114e+00 3.858604688197374344e+00 -2.215199860744121452e-01
8.334626905620098114e+00 3.982872266322374344e+00 -2.233968171290996452e-01
8.360261671245098114e+00 4.055382031947374344e+00 -2.215352448634746452e-01
8.441560499370098114e+00 4.137779492884874344e+00 -2.201314362697246452e-01
1.256436323374509811e+01 4.926475781947374344e+00 -2.523122224025371452e-01
1.277261518687009811e+01 5.077598828822374344e+00 -2.505574616603496452e-01
7.942659132182598114e+00 3.732628125697374344e+00 -1.964040192775371452e-01
8.575105421245098114e+00 3.874595899134874344e+00 -1.977010163478496452e-01
8.458528272807598114e+00 3.929649610072374344e+00 -1.949391755275371452e-01
8.407014600932598114e+00 3.992149610072374344e+00 -1.925282868556621452e-01
8.331941358745098114e+00 4.050010938197374344e+00 -1.900563630275371452e-01
8.332795850932598114e+00 4.118980664759874344e+00 -1.879353913478496452e-01
1.273867963999509811e+01 4.955284375697374344e+00 -2.016988190822246452e-01
1.237686323374509811e+01 5.003013867884874344e+00 -1.969685944728496452e-01
7.646516554057598114e+00 3.698204297572374344e+00 -1.668782624415996452e-01
8.279451124370098114e+00 3.837120313197374344e+00 -1.651540192775371452e-01
1.274624799937009811e+01 4.499473828822374344e+00 -1.640706452540996452e-01
8.416536085307598114e+00 3.992515821009874344e+00 -1.608357819728496452e-01
8.292878858745098114e+00 4.043052930384874344e+00 -1.586842927150371452e-01
8.342195264995098114e+00 4.119468946009874344e+00 -1.564870270900371452e-01
1.232693647593259811e+01 4.881920117884874344e+00 -1.500783356837871452e-01
1.234439253062009811e+01 4.995445508509874344e+00 -1.468282136134746452e-01
7.479524366557598114e+00 3.678428906947374344e+00 -1.394582184962871452e-01
8.258943311870098114e+00 3.833580274134874344e+00 -1.343770417384746452e-01
1.313162397593259811e+01 4.549034375697374344e+00 -1.108479890040996452e-01
8.426179639995098114e+00 3.992882031947374344e+00 -1.292195710353496452e-01
1.267886518687009811e+01 4.714561719447374344e+00 -1.055226716212871452e-01
1.302041792124509811e+01 4.883507031947374344e+00 -1.000295075587871452e-01
1.234036421030759811e+01 4.882774610072374344e+00 -1.001058015040996452e-01
1.279239057749509811e+01 5.076256055384874344e+00 -9.380392162128714517e-02
8.203889600932598114e+00 3.759117383509874344e+00 -1.063008698634746452e-01
8.353791944682598114e+00 3.844200391322374344e+00 -1.026235016994121452e-01
8.404329054057598114e+00 3.919395703822374344e+00 -9.990743724628714517e-02
8.455964796245098114e+00 3.996177930384874344e+00 -9.713033763691214517e-02
8.508455030620098114e+00 4.074058789759874344e+00 -9.430746166034964517e-02
8.561799757182598114e+00 4.153404492884874344e+00 -9.143880931659964517e-02
8.616365186870098114e+00 4.234459180384874344e+00 -8.850912181659964517e-02
8.672029249370098114e+00 4.316856641322374344e+00 -8.570150462909964517e-02
8.265290968120098114e+00 3.764976758509874344e+00 -7.486776439472464517e-02
8.314363233745098114e+00 3.838341016322374344e+00 -7.193807689472464517e-02
8.364289991557598114e+00 3.913048047572374344e+00 -6.896261302753714517e-02
8.415193311870098114e+00 3.989219922572374344e+00 -6.592611400409964517e-02
8.466951124370098114e+00 4.066612500697374344e+00 -6.284383861347464517e-02
8.519685499370098114e+00 4.145469922572374344e+00 -5.970052806659964517e-02
8.573518507182598114e+00 4.225914258509874344e+00 -5.649618236347464517e-02
8.628206007182598114e+00 4.307701367884874344e+00 -5.323080150409964517e-02
8.226960889995098114e+00 3.759727735072374344e+00 -4.477743236347464517e-02
8.275300733745098114e+00 3.832603711634874344e+00 -4.160360423847464517e-02
8.328767530620098114e+00 3.907310742884874344e+00 -3.813985912128714517e-02
8.385164014995098114e+00 3.983970899134874344e+00 -3.472189037128714517e-02
8.442537061870098114e+00 4.061851758509874344e+00 -3.125814525409964517e-02
8.501008741557598114e+00 4.141319531947374344e+00 -2.771810619159964517e-02
8.560701124370098114e+00 4.222740430384874344e+00 -2.426961986347464517e-02
8.621614210307598114e+00 4.305504102259874344e+00 -2.059225169941214517e-02
8.251008741557598114e+00 3.761436719447374344e+00 -1.348165599628714517e-02
8.305696241557598114e+00 3.835289258509874344e+00 -9.895840566599645172e-03
8.361482374370098114e+00 3.910606641322374344e+00 -6.233731191599645172e-03
8.418489210307598114e+00 3.987633008509874344e+00 -2.480069082224645172e-03
8.476472608745098114e+00 4.066002149134874344e+00 1.319369394337854828e-03
8.535554639995098114e+00 4.145958203822374344e+00 5.210360605275354828e-03
8.596101514995098114e+00 4.227867383509874344e+00 9.192904550587854828e-03
8.657747022807598114e+00 4.311119336634874344e+00 1.323648365215035483e-02
8.282869093120098114e+00 3.763878125697374344e+00 1.808877857402535483e-02
8.338166944682598114e+00 3.838218946009874344e+00 2.199502857402535483e-02
8.394441358745098114e+00 3.913902539759874344e+00 2.599283130840035483e-02
8.452058546245098114e+00 3.991417188197374344e+00 3.008218677715035483e-02
8.510652296245098114e+00 4.070274610072374344e+00 3.423257740215035483e-02
8.569001905620098114e+00 4.150352735072374344e+00 3.842874439433785483e-02
8.622712843120098114e+00 4.231407422572374344e+00 4.254861744121285483e-02
8.677278272807598114e+00 4.313560742884874344e+00 4.672952564433785483e-02
8.282502882182598114e+00 3.762901563197374344e+00 4.910989673808785483e-02
8.331086866557598114e+00 3.836265821009874344e+00 5.310769947246285483e-02
8.380403272807598114e+00 3.911094922572374344e+00 5.718179615215035483e-02
8.430818311870098114e+00 3.987388867884874344e+00 6.134744556621285483e-02
8.481843702495098114e+00 4.064781446009874344e+00 6.555887134746285483e-02
8.533967725932598114e+00 4.143638867884874344e+00 6.986184986308785483e-02
8.587068311870098114e+00 4.224205274134874344e+00 7.425638111308785483e-02
8.641145460307598114e+00 4.305992383509874344e+00 7.871194751933785483e-02
8.250642530620098114e+00 3.758262891322374344e+00 7.883401783183785483e-02
8.298738233745098114e+00 3.831383008509874344e+00 8.307596119121285483e-02
8.347566358745098114e+00 3.905723828822374344e+00 8.739419849590035483e-02
8.397371046245098114e+00 3.981651563197374344e+00 9.180398853496285483e-02
8.447908155620098114e+00 4.058555860072374344e+00 9.627481373027535483e-02
8.499421827495098114e+00 4.137047071009874344e+00 1.008219328709003548e-01
8.552034132182598114e+00 4.217125196009874344e+00 1.054758635349628548e-01
8.605500929057598114e+00 4.298424024134874344e+00 1.101908293552753548e-01
8.219026319682598114e+00 3.753746289759874344e+00 1.084360686130878548e-01
8.275422804057598114e+00 3.827476758509874344e+00 1.132883635349628548e-01
8.332917921245098114e+00 3.902672071009874344e+00 1.180491057224628548e-01
8.391999952495098114e+00 3.979820508509874344e+00 1.231150236912128548e-01
8.452058546245098114e+00 4.058189649134874344e+00 1.282724943943378548e-01
8.513459913432598114e+00 4.138267774134874344e+00 1.335367766209003548e-01
8.576570264995098114e+00 4.220299024134874344e+00 1.391062346287128548e-01
8.640535108745098114e+00 4.303795117884874344e+00 1.445993986912128548e-01
8.258088819682598114e+00 3.757042188197374344e+00 1.407999602146503548e-01
8.315339796245098114e+00 3.831260938197374344e+00 1.460032072849628548e-01
8.373811475932598114e+00 3.907066602259874344e+00 1.513132658787128548e-01
8.433625929057598114e+00 3.984703321009874344e+00 1.567606535740253548e-01
8.494539014995098114e+00 4.063560742884874344e+00 1.622843352146503548e-01
8.556672804057598114e+00 4.144249219447374344e+00 1.679453459568378548e-01
8.620393507182598114e+00 4.226768750697374344e+00 1.737284270115253548e-01
8.685212843120098114e+00 4.310875196009874344e+00 1.796335783787128548e-01
8.297761671245098114e+00 3.760460156947374344e+00 1.737284270115253548e-01
8.355622999370098114e+00 3.835167188197374344e+00 1.791300383396503548e-01
8.414827100932598114e+00 3.911461133509874344e+00 1.848063078709003548e-01
1.374075483530759811e+01 4.735435742884874344e+00 4.598002043552753548e-01
1.438186811655759811e+01 4.956505078822374344e+00 4.976725188084003548e-01
1.457608198374509811e+01 5.118614453822374344e+00 5.128702727146503548e-01
1.400125288218259811e+01 5.153038281947374344e+00 4.880137053318378548e-01
1.402896284312009811e+01 5.285606641322374344e+00 4.947886076755878548e-01
1.346731733530759811e+01 4.333702344447374344e+00 4.868235197849628548e-01
2.650772260874509811e+01 6.033897656947374344e+00 1.208487948495900355e+00
1.462613081187009811e+01 4.726036328822374344e+00 5.605539885349628548e-01
1.374429487437009811e+01 4.734092969447374344e+00 5.166391936130878548e-01
1.433999799937009811e+01 4.948204297572374344e+00 5.550455656834003548e-01
1.425113081187009811e+01 5.064049024134874344e+00 5.552134123630878548e-01
1.398819135874509811e+01 5.148887891322374344e+00 5.454020109959003548e-01
1.396560835093259811e+01 5.272178906947374344e+00 5.491709318943378548e-01
2.668692182749509811e+01 5.798424024134874344e+00 1.324775179941212855e+00
2.691031049937009811e+01 6.078819531947374344e+00 1.347724398691212855e+00
2.669632124155759811e+01 6.307091016322374344e+00 1.345267733652150355e+00
2.645034956187009811e+01 6.528160352259874344e+00 1.340766390878712855e+00
1.747268842905759811e+01 5.420982617884874344e+00 8.048624602146503548e-01
1.741604780405759811e+01 5.574058789759874344e+00 8.079599943943378548e-01
1.400735639780759811e+01 5.150352735072374344e+00 6.043467131443378548e-01
1.468191694468259811e+01 5.400963086634874344e+00 6.517099943943378548e-01
2.666751264780759811e+01 5.792442578822374344e+00 1.439460238534962855e+00
2.715640424937009811e+01 6.104698438197374344e+00 1.481284579355275355e+00
2.691470503062009811e+01 6.331871289759874344e+00 1.476310214120900355e+00
1.435183881968259811e+01 4.816124219447374344e+00 6.692728606052753548e-01
1.425796674937009811e+01 4.931968946009874344e+00 6.684641447849628548e-01
1.741287397593259811e+01 5.571129102259874344e+00 8.817820158787128548e-01
1.470401167124509811e+01 5.268272656947374344e+00 7.087473479099628548e-01
1.469278120249509811e+01 5.401085156947374344e+00 7.135538664646503548e-01
2.165103315562009811e+01 5.233604688197374344e+00 1.212409457284962855e+00
2.708377241343259811e+01 6.092003125697374344e+00 1.595206698495900355e+00
2.688443159312009811e+01 6.324058789759874344e+00 1.591559847909962855e+00
2.886831831187009811e+01 6.861656446009874344e+00 1.740683993417775355e+00
1.747561811655759811e+01 5.416710156947374344e+00 9.530710783787128548e-01
1.746096967905759811e+01 5.576622266322374344e+00 9.588236418552753548e-01
1.764688276499509811e+01 5.771690625697374344e+00 9.792551604099628548e-01
2.484451460093259811e+01 7.246788281947374344e+00 1.500556429941212855e+00
2.171548628062009811e+01 5.237633008509874344e+00 1.310309847909962855e+00
2.158926557749509811e+01 5.425621289759874344e+00 1.309180697519337855e+00
2.613968061655759811e+01 6.222862500697374344e+00 1.654334506113087855e+00
2.644912885874509811e+01 6.516685742884874344e+00 1.688010653574025355e+00
1.747708296030759811e+01 5.414512891322374344e+00 1.027427157480275355e+00
1.740628217905759811e+01 5.565391797572374344e+00 1.028998812753712855e+00
2.459597944468259811e+01 6.961632031947374344e+00 1.580161532480275355e+00
2.463443159312009811e+01 7.205162305384874344e+00 1.593726595956837855e+00
1.247659467905759811e+01 5.024986524134874344e+00 -2.990804108790996452e-01
1.241433881968259811e+01 5.124962110072374344e+00 -2.950520905665996452e-01
1.233999799937009811e+01 5.221641797572374344e+00 -2.911610993556621452e-01
1.253994917124509811e+01 5.376793164759874344e+00 -2.905354890040996452e-01
1.283450483530759811e+01 5.557701367884874344e+00 -2.908711823634746452e-01
1.327212690562009811e+01 5.779136914759874344e+00 -2.926412018947246452e-01
1.328885053843259811e+01 5.906700391322374344e+00 -2.895284089259746452e-01
1.317630171030759811e+01 6.001426953822374344e+00 -2.853169831447246452e-01
1.277298139780759811e+01 5.078087110072374344e+00 -2.505422028712871452e-01
1.328518842905759811e+01 5.293052930384874344e+00 -2.512898835353496452e-01
1.279666303843259811e+01 5.313804883509874344e+00 -2.440572175197246452e-01
1.258792280405759811e+01 5.385582227259874344e+00 -2.393422516994121452e-01
1.243997358530759811e+01 5.467003125697374344e+00 -2.351613434962871452e-01
1.320706342905759811e+01 5.762169141322374344e+00 -2.370076569728496452e-01
1.332827924937009811e+01 5.914757031947374344e+00 -2.346578034572246452e-01
1.320095991343259811e+01 6.006187696009874344e+00 -2.304616364650371452e-01
1.237674116343259811e+01 5.003258008509874344e+00 -1.969533356837871452e-01
1.328347944468259811e+01 5.290977735072374344e+00 -1.964803132228496452e-01
1.279776167124509811e+01 5.312340039759874344e+00 -1.917043122462871452e-01
1.263614057749509811e+01 5.394371289759874344e+00 -1.879659089259746452e-01
1.248867963999509811e+01 5.476402539759874344e+00 -1.843495759181621452e-01
1.310391401499509811e+01 5.736046094447374344e+00 -1.821828278712871452e-01
1.336807417124509811e+01 5.922935742884874344e+00 -1.790852936915996452e-01
1.316507124155759811e+01 5.995201367884874344e+00 -1.752858552150371452e-01
1.234427046030759811e+01 4.995811719447374344e+00 -1.468129548244121452e-01
1.328164838999509811e+01 5.288902539759874344e+00 -1.416707429103496452e-01
1.279886030405759811e+01 5.310997266322374344e+00 -1.390462311915996452e-01
1.330984663218259811e+01 5.537925977259874344e+00 -1.344075593165996452e-01
1.359878706187009811e+01 5.725425977259874344e+00 -1.300282868556621452e-01
1.300918745249509811e+01 5.712120313197374344e+00 -1.280141266994121452e-01
1.313528608530759811e+01 5.863853711634874344e+00 -1.240315827540996452e-01
1.310354780405759811e+01 5.977867383509874344e+00 -1.208119782619121452e-01
1.279275678843259811e+01 5.076744336634874344e+00 -9.378866283222464517e-02
1.327993940562009811e+01 5.286827344447374344e+00 -8.716634837909964517e-02
1.279995893687009811e+01 5.309532422572374344e+00 -8.664754955097464517e-02
1.287613081187009811e+01 5.442833203822374344e+00 -8.254293529316214517e-02
1.273343061655759811e+01 5.528526563197374344e+00 -7.996419994159964517e-02
9.016267530620098114e+00 4.767662305384874344e+00 -1.047444733790996452e-01
9.080232374370098114e+00 4.862022656947374344e+00 -1.018300446681621452e-01
9.145417921245098114e+00 4.957969922572374344e+00 -9.886983959003714517e-02
8.672395460307598114e+00 4.317100781947374344e+00 -8.570150462909964517e-02
8.728791944682598114e+00 4.401085156947374344e+00 -8.258871166034964517e-02
8.786653272807598114e+00 4.486778516322374344e+00 -7.959798900409964517e-02
8.845857374370098114e+00 4.574547071009874344e+00 -7.653097240253714517e-02
8.906038038432598114e+00 4.663902539759874344e+00 -7.340292064472464517e-02
8.967561475932598114e+00 4.755211133509874344e+00 -7.021383373066214517e-02
9.030671827495098114e+00 4.848716992884874344e+00 -6.694845287128714517e-02
9.095124952495098114e+00 4.944053906947374344e+00 -6.380514232441214517e-02
8.628572218120098114e+00 4.308067578822374344e+00 -5.321554271503714517e-02
8.684480421245098114e+00 4.391441602259874344e+00 -4.998067943378714517e-02
8.741487257182598114e+00 4.476524610072374344e+00 -4.666952220722464517e-02
8.799836866557598114e+00 4.563682813197374344e+00 -4.326681224628714517e-02
8.859163038432598114e+00 4.652305860072374344e+00 -3.981832591816214517e-02
8.919831983745098114e+00 4.742882031947374344e+00 -3.630880443378714517e-02
8.981965772807598114e+00 4.835655469447374344e+00 -3.269247142597464517e-02
9.047395460307598114e+00 4.930626172572374344e+00 -2.898458568378714517e-02
8.622102491557598114e+00 4.305870313197374344e+00 -2.057699291034964517e-02
8.684236280620098114e+00 4.390342969447374344e+00 -1.686910716816214517e-02
8.747956983745098114e+00 4.476768750697374344e+00 -1.290182201191214517e-02
8.813142530620098114e+00 4.565513867884874344e+00 -9.010830800974645172e-03
8.879670850932598114e+00 4.655845899134874344e+00 -5.058804433787145172e-03
8.947664014995098114e+00 4.748375196009874344e+00 -9.999665431621451717e-04
9.017244093120098114e+00 4.843223828822374344e+00 2.967318613087854828e-03
9.088533155620098114e+00 4.940147656947374344e+00 7.209261972462854828e-03
8.658235304057598114e+00 4.311363477259874344e+00 1.325174244121285483e-02
8.721101514995098114e+00 4.396446485072374344e+00 1.735635669902535483e-02
8.785310499370098114e+00 4.483360547572374344e+00 2.153726490215035483e-02
8.851350538432598114e+00 4.572593946009874344e+00 2.584024341777535483e-02
8.918611280620098114e+00 4.663536328822374344e+00 3.021951587871285483e-02
8.987458936870098114e+00 4.756675977259874344e+00 3.470559986308785483e-02
9.058137647807598114e+00 4.852257031947374344e+00 3.931375415996285483e-02
9.130281202495098114e+00 4.949791211634874344e+00 4.401346119121285483e-02
8.677766554057598114e+00 4.313926953822374344e+00 4.676004322246285483e-02
8.733430616557598114e+00 4.397789258509874344e+00 5.101724537090035483e-02
8.790193311870098114e+00 4.483360547572374344e+00 5.535074146465035483e-02
8.848298780620098114e+00 4.570884961634874344e+00 5.980630787090035483e-02
8.907502882182598114e+00 4.659996289759874344e+00 6.432290943340035483e-02
8.967927686870098114e+00 4.751060742884874344e+00 6.894632251933785483e-02
9.029817335307598114e+00 4.844200391322374344e+00 7.367654712871285483e-02
9.092805616557598114e+00 4.939171094447374344e+00 7.849832447246285483e-02
8.641511671245098114e+00 4.306236524134874344e+00 7.872720630840035483e-02
8.696565382182598114e+00 4.389610547572374344e+00 8.328958423808785483e-02
8.752717725932598114e+00 4.474693555384874344e+00 8.792825611308785483e-02
8.810090772807598114e+00 4.561729688197374344e+00 9.268899830058785483e-02
8.868562452495098114e+00 4.650230664759874344e+00 9.752603443340035483e-02
8.928254835307598114e+00 4.740684766322374344e+00 1.024698820896503548e-01
8.989412061870098114e+00 4.833336133509874344e+00 1.075358000584003548e-01
9.051667921245098114e+00 4.927574414759874344e+00 1.126780119724628548e-01
8.605867139995098114e+00 4.298668164759874344e+00 1.102213469334003548e-01
8.661042921245098114e+00 4.381675977259874344e+00 1.151041594334003548e-01
8.727205030620098114e+00 4.468345899134874344e+00 1.204599943943378548e-01
8.794954054057598114e+00 4.557457227259874344e+00 1.259684172459003548e-01
8.864167921245098114e+00 4.648155469447374344e+00 1.315683928318378548e-01
8.934968702495098114e+00 4.741173047572374344e+00 1.373209563084003548e-01
9.007844679057598114e+00 4.836754102259874344e+00 1.432413664646503548e-01
9.082185499370098114e+00 4.934288281947374344e+00 1.492685881443378548e-01
8.641023389995098114e+00 4.304039258509874344e+00 1.446299162693378548e-01
8.706453077495098114e+00 4.389488477259874344e+00 1.503061858005878548e-01
8.773225538432598114e+00 4.476768750697374344e+00 1.559214201755878548e-01
8.842073194682598114e+00 4.566490430384874344e+00 1.618723479099628548e-01
8.912263624370098114e+00 4.657921094447374344e+00 1.679606047459003548e-01
8.984163038432598114e+00 4.751671094447374344e+00 1.741861906834003548e-01
9.058381788432598114e+00 4.848106641322374344e+00 1.807779875584003548e-01
9.133821241557598114e+00 4.946495313197374344e+00 1.873240080662128548e-01
8.685701124370098114e+00 4.311241406947374344e+00 1.796640959568378548e-01
8.752229444682598114e+00 4.397178906947374344e+00 1.857828703709003548e-01
1.410159467905759811e+01 5.559776563197374344e+00 4.501871672459003548e-01
1.469143842905759811e+01 5.816490430384874344e+00 4.844278899021503548e-01
2.667849897593259811e+01 8.642418164759874344e+00 1.085669955331837855e+00
1.485745405405759811e+01 6.129844922572374344e+00 5.036081877537128548e-01
1.388809370249509811e+01 6.032310742884874344e+00 4.601664152927753548e-01
1.378970503062009811e+01 6.137291211634874344e+00 4.603037443943378548e-01
1.402700971812009811e+01 5.285728711634874344e+00 4.946970549412128548e-01
1.434390424937009811e+01 5.475059766322374344e+00 5.164255705662128548e-01
1.458426069468259811e+01 5.656090039759874344e+00 5.346598234959003548e-01
1.458609174937009811e+01 5.792076367884874344e+00 5.402597990818378548e-01
1.448159956187009811e+01 5.904503125697374344e+00 5.400766936130878548e-01
2.641043256968259811e+01 8.839195508509874344e+00 1.199714144784962855e+00
1.388308881968259811e+01 6.029258985072374344e+00 5.180277434177753548e-01
6.984012006968259811e+01 2.047567011788487434e+01 3.641562899667775355e+00
1.396512006968259811e+01 5.272545117884874344e+00 5.491709318943378548e-01
1.425906538218259811e+01 5.456871289759874344e+00 5.714640227146503548e-01
1.474637006968259811e+01 5.687095899134874344e+00 6.053232756443378548e-01
2.575198530405759811e+01 8.175133008509874344e+00 1.257148226816212855e+00
2.675308393687009811e+01 8.651939649134874344e+00 1.326850375253712855e+00
3.166775678843259811e+01 1.006868769600987434e+01 1.630637606699025355e+00
8.320169233530759811e+01 2.301863886788487434e+01 4.736838778574025355e+00
9.040481733530759811e+01 2.572457148507237434e+01 5.208243807870900355e+00
1.468069624155759811e+01 5.401207227259874344e+00 6.516642180271503548e-01
1.436441206187009811e+01 5.475303906947374344e+00 6.373056975193378548e-01
2.561343549937009811e+01 7.891319531947374344e+00 1.351188143808400355e+00
2.597464155405759811e+01 8.219200391322374344e+00 1.384757479745900355e+00
3.158133100718259811e+01 9.729332227259874344e+00 1.753592928964650355e+00
3.197146772593259811e+01 1.013558222725987434e+01 1.792060336191212855e+00
9.660098432749509811e+01 2.628951289132237434e+01 5.990302523691212855e+00
8.293277143687009811e+01 2.380245234444737434e+01 5.144034823495900355e+00
1.469168256968259811e+01 5.401329297572374344e+00 7.134928313084003548e-01
2.591128706187009811e+01 7.696251172572374344e+00 1.473594149667775355e+00
2.554593061655759811e+01 7.874107617884874344e+00 1.459845980722462855e+00
2.588333296030759811e+01 8.196129102259874344e+00 1.493720492441212855e+00
2.604434370249509811e+01 8.486168164759874344e+00 1.515815219003712855e+00
3.164334272593259811e+01 1.005440546944737434e+01 1.913550814706837855e+00
8.315725874155759811e+01 2.298458125069737434e+01 5.507712802011525355e+00
2.484500288218259811e+01 7.247764844447374344e+00 1.500617465097462855e+00
1.437771772593259811e+01 5.474083203822374344e+00 7.584299650974628548e-01
2.547928022593259811e+01 7.857139844447374344e+00 1.567344149667775355e+00
2.600967573374509811e+01 8.219566602259874344e+00 1.617087802011525355e+00
2.596548628062009811e+01 8.464927930384874344e+00 1.625220736581837855e+00
2.694656538218259811e+01 7.626549024134874344e+00 1.769858798105275355e+00
2.599295210093259811e+01 7.704918164759874344e+00 1.708075961191212855e+00
2.596463178843259811e+01 7.951988477259874344e+00 1.717399081308400355e+00
2.601712202280759811e+01 8.217613477259874344e+00 1.733069857675587855e+00
2.570535444468259811e+01 8.403282422572374344e+00 1.720374545175587855e+00
3.187063764780759811e+01 1.009896113350987434e+01 2.215918978769337855e+00
1.317581342905759811e+01 6.001671094447374344e+00 -2.853017243556621452e-01
1.309268354624509811e+01 6.102623242884874344e+00 -2.812276276759746452e-01
1.278408979624509811e+01 6.139366406947374344e+00 -2.751698884181621452e-01
1.322683881968259811e+01 6.388633985072374344e+00 -2.766805085353496452e-01
1.314151167124509811e+01 6.488853711634874344e+00 -2.728658112697246452e-01
1.341324018687009811e+01 6.699180860072374344e+00 -2.724385651759746452e-01
9.726350538432598114e+00 5.639488477259874344e+00 -2.356954011134746452e-01
9.683381788432598114e+00 5.714805860072374344e+00 -2.334065827540996452e-01
1.320034956187009811e+01 6.006431836634874344e+00 -2.304463776759746452e-01
1.331595014780759811e+01 6.160850781947374344e+00 -2.280049714259746452e-01
1.331448530405759811e+01 6.285850781947374344e+00 -2.245717438869121452e-01
1.291238569468259811e+01 6.295860547572374344e+00 -2.193379792384746452e-01
1.307229780405759811e+01 6.466392774134874344e+00 -2.170491608790996452e-01
1.336880659312009811e+01 6.683800000697374344e+00 -2.152791413478496452e-01
9.726960889995098114e+00 5.638633985072374344e+00 -1.965871247462871452e-01
9.682283155620098114e+00 5.713341016322374344e+00 -1.941762360744121452e-01
1.316519331187009811e+01 5.995811719447374344e+00 -1.752705964259746452e-01
1.335965131968259811e+01 6.170982617884874344e+00 -1.722035798244121452e-01
1.352700971812009811e+01 6.343467969447374344e+00 -1.689992341212871452e-01
1.282083296030759811e+01 6.267784375697374344e+00 -1.653523835353496452e-01
1.313711713999509811e+01 6.484337110072374344e+00 -1.621785554103496452e-01
1.305105756968259811e+01 6.583214063197374344e+00 -1.588826569728496452e-01
9.727693311870098114e+00 5.637779492884874344e+00 -1.572652253322246452e-01
9.681306593120098114e+00 5.711998242884874344e+00 -1.549458893947246452e-01
1.310354780405759811e+01 5.978233594447374344e+00 -1.207967194728496452e-01
1.319046186655759811e+01 6.123985547572374344e+00 -1.167836579494121452e-01
1.329080366343259811e+01 6.275963086634874344e+00 -1.129384431056621452e-01
1.323282026499509811e+01 6.385460156947374344e+00 -1.097035798244121452e-01
1.311770796030759811e+01 6.476890821009874344e+00 -1.067738923244121452e-01
1.303653120249509811e+01 6.577110547572374344e+00 -1.037068757228496452e-01
9.728425733745098114e+00 5.636925000697374344e+00 -1.179128083400371452e-01
9.680330030620098114e+00 5.710533399134874344e+00 -1.159139069728496452e-01
9.146028272807598114e+00 4.958336133509874344e+00 -9.885458080097464517e-02
9.212800733745098114e+00 5.056724805384874344e+00 -9.595541087909964517e-02
9.281282179057598114e+00 5.157310742884874344e+00 -9.297994701191214517e-02
9.351716749370098114e+00 5.260704297572374344e+00 -8.992818919941214517e-02
9.423616163432598114e+00 5.366295117884874344e+00 -8.681539623066214517e-02
9.497224561870098114e+00 5.474449414759874344e+00 -8.362630931659964517e-02
9.572908155620098114e+00 5.585777539759874344e+00 -8.034566966816214517e-02
9.650300733745098114e+00 5.699425000697374344e+00 -7.698873607441214517e-02
9.095735304057598114e+00 4.944420117884874344e+00 -6.378988353534964517e-02
9.161287061870098114e+00 5.041832227259874344e+00 -6.031087962909964517e-02
9.228669874370098114e+00 5.141563672572374344e+00 -5.693868724628714517e-02
9.298005811870098114e+00 5.244102735072374344e+00 -5.347494212909964517e-02
9.368684522807598114e+00 5.348716992884874344e+00 -4.993490306659964517e-02
9.441072218120098114e+00 5.455894727259874344e+00 -4.631857005878714517e-02
9.515657179057598114e+00 5.566124219447374344e+00 -4.259542552753714517e-02
9.592073194682598114e+00 5.678917188197374344e+00 -3.897909251972464517e-02
9.048005811870098114e+00 4.931114453822374344e+00 -2.895406810566214517e-02
9.119905225932598114e+00 5.029625196009874344e+00 -2.515462962909964517e-02
9.193757764995098114e+00 5.130821485072374344e+00 -2.124837962909964517e-02
9.269807569682598114e+00 5.234825391322374344e+00 -1.723531810566214517e-02
9.347566358745098114e+00 5.341270703822374344e+00 -1.313070384784964517e-02
9.427278272807598114e+00 5.450523633509874344e+00 -8.919278066599645172e-03
9.509553663432598114e+00 5.563194531947374344e+00 -4.570523183787145172e-03
9.593782179057598114e+00 5.678428906947374344e+00 -1.149567775371451717e-04
9.089021436870098114e+00 4.940635938197374344e+00 7.239779550587854828e-03
9.162019483745098114e+00 5.039879102259874344e+00 1.152749927715035483e-02
9.236970655620098114e+00 5.141685742884874344e+00 1.612039478496285483e-02
9.313997022807598114e+00 5.246544141322374344e+00 2.063699634746285483e-02
9.392732374370098114e+00 5.353843946009874344e+00 2.527566822246285483e-02
9.473664991557598114e+00 5.463951367884874344e+00 3.003641040996285483e-02
9.556794874370098114e+00 5.577232617884874344e+00 3.472085865215035483e-02
9.642122022807598114e+00 5.693443555384874344e+00 3.972574146465035483e-02
9.130769483745098114e+00 4.950279492884874344e+00 4.404397876933785483e-02
9.199861280620098114e+00 5.048912305384874344e+00 4.868265064433785483e-02
9.266633741557598114e+00 5.148887891322374344e+00 5.333658130840035483e-02
9.335359327495098114e+00 5.251671094447374344e+00 5.811258228496285483e-02
9.405305616557598114e+00 5.356529492884874344e+00 6.298013599590035483e-02
9.477082960307598114e+00 5.463829297572374344e+00 6.796976001933785483e-02
9.550813429057598114e+00 5.574302930384874344e+00 7.311197193340035483e-02
9.626130811870098114e+00 5.687095899134874344e+00 7.834573658183785483e-02
9.093293897807598114e+00 4.939537305384874344e+00 7.851358326152535483e-02
9.157747022807598114e+00 5.036583203822374344e+00 8.342691333965035483e-02
9.223664991557598114e+00 5.135948438197374344e+00 8.846231373027535483e-02
9.291414014995098114e+00 5.237877149134874344e+00 9.361978443340035483e-02
9.360505811870098114e+00 5.342003125697374344e+00 9.889932544902535483e-02
9.431306593120098114e+00 5.448570508509874344e+00 1.042856779880878548e-01
9.504060499370098114e+00 5.558189649134874344e+00 1.098398772068378548e-01
9.578279249370098114e+00 5.670128125697374344e+00 1.155161467380878548e-01
9.052156202495098114e+00 4.927940625697374344e+00 1.127085295505878548e-01
9.115754835307598114e+00 5.024376172572374344e+00 1.179880705662128548e-01
9.184236280620098114e+00 5.123863477259874344e+00 1.235117522068378548e-01
9.263704054057598114e+00 5.228843946009874344e+00 1.295389738865253548e-01
9.345002882182598114e+00 5.336265821009874344e+00 1.357187834568378548e-01
9.428621046245098114e+00 5.446739453822374344e+00 1.420511809177753548e-01
9.514802686870098114e+00 5.560508985072374344e+00 1.485972014255878548e-01
9.603059522807598114e+00 5.677208203822374344e+00 1.552958098240253548e-01
9.082795850932598114e+00 4.934776563197374344e+00 1.492991057224628548e-01
9.159089796245098114e+00 5.034874219447374344e+00 1.555399504490253548e-01
9.237336866557598114e+00 5.137657422572374344e+00 1.619333830662128548e-01
9.318147413432598114e+00 5.243492383509874344e+00 1.685099211521503548e-01
9.400789014995098114e+00 5.351890821009874344e+00 1.752695647068378548e-01
9.485749952495098114e+00 5.463341016322374344e+00 1.821970549412128548e-01
9.573396436870098114e+00 5.578331250697374344e+00 1.893534270115253548e-01
9.663240186870098114e+00 5.696129102259874344e+00 1.966776457615253548e-01
9.134431593120098114e+00 4.946983594447374344e+00 1.873545256443378548e-01
9.211946241557598114e+00 5.047935742884874344e+00 1.941446867771503548e-01
1.421048139780759811e+01 6.516563672572374344e+00 4.322733488865253548e-01
6.553750776499509811e+01 2.145076777413487434e+01 2.873832186777150355e+00
6.548538374155759811e+01 2.212764765694737434e+01 2.898581942636525355e+00
6.549942182749509811e+01 2.282796503975987434e+01 2.926642855722462855e+00
7.836551069468259811e+01 2.766085078194737434e+01 3.583503207284962855e+00
7.498196577280759811e+01 2.738362910225987434e+01 3.450309237558400355e+00
1.378909467905759811e+01 6.137535352259874344e+00 4.602884856052753548e-01
1.455533003062009811e+01 6.471763867884874344e+00 5.049509611912128548e-01
3.469229292124509811e+01 1.219576289132237434e+01 1.554252108652150355e+00
3.474807905405759811e+01 1.256942011788487434e+01 1.571708163339650355e+00
7.252652143687009811e+01 2.422408320382237434e+01 3.577506503183400355e+00
7.868069624155759811e+01 2.690401484444737434e+01 3.936011752206837855e+00
7.660977338999509811e+01 2.708712031319737434e+01 3.859488925058400355e+00
7.474929975718259811e+01 2.729659296944737434e+01 3.792548617441212855e+00
6.983767866343259811e+01 2.047762324288487434e+01 3.641547640878712855e+00
8.343875288218259811e+01 2.482894160225987434e+01 4.433890780527150355e+00
3.495559858530759811e+01 1.226424433663487434e+01 1.726874789316212855e+00
3.504556440562009811e+01 1.265059687569737434e+01 1.747138461191212855e+00
7.970010542124509811e+01 2.635836054757237434e+01 4.329978427011525355e+00
7.849368452280759811e+01 2.683553339913487434e+01 4.295752963144337855e+00
7.656692671030759811e+01 2.706319453194737434e+01 4.218680819589650355e+00
7.810366987437009811e+01 2.839962031319737434e+01 4.345832308847462855e+00
8.242300581187009811e+01 2.368660761788487434e+01 4.725806674081837855e+00
8.092617963999509811e+01 2.414815546944737434e+01 4.671836337167775355e+00
3.496267866343259811e+01 1.226143671944737434e+01 1.887168368417775355e+00
3.481167768687009811e+01 1.257857539132237434e+01 1.893439730722462855e+00
7.963809370249509811e+01 2.632906367257237434e+01 4.702582797128712855e+00
7.930459760874509811e+01 2.707613398507237434e+01 4.718421420175587855e+00
7.762075971812009811e+01 2.739095332100987434e+01 4.648871859628712855e+00
7.627041792124509811e+01 2.778133418038487434e+01 4.599067172128712855e+00
8.293789838999509811e+01 2.380672480538487434e+01 5.144507845956837855e+00
3.525552534312009811e+01 1.197750117257237434e+01 2.049567660409962855e+00
3.496988081187009811e+01 1.225887324288487434e+01 2.046744784433400355e+00
3.496243452280759811e+01 1.261739375069737434e+01 2.062324008066212855e+00
7.963479780405759811e+01 2.631734492257237434e+01 5.076606234628712855e+00
7.981277631968259811e+01 2.722286250069737434e+01 5.126532992441212855e+00
7.936197065562009811e+01 2.793868281319737434e+01 5.134192904550587855e+00
7.775955366343259811e+01 2.826497675850987434e+01 5.064475497324025355e+00
3.512783979624509811e+01 1.193880488350987434e+01 2.201484164316212855e+00
3.497720503062009811e+01 1.225618769600987434e+01 2.207267245370900355e+00
3.498343061655759811e+01 1.261885859444737434e+01 2.224265536386525355e+00
8.193435835093259811e+01 2.699288203194737434e+01 5.618369540292775355e+00
7.933072065562009811e+01 2.791805293038487434e+01 5.509162386972462855e+00
7.911306928843259811e+01 2.870320918038487434e+01 5.532508334238087855e+00
3.514517378062009811e+01 1.193880488350987434e+01 2.363120516855275355e+00
3.495999311655759811e+01 1.224678828194737434e+01 2.365195712167775355e+00
3.499856733530759811e+01 1.261849238350987434e+01 2.385154208261525355e+00
3.483487104624509811e+01 1.293172480538487434e+01 2.389670809824025355e+00
7.965762495249509811e+01 2.715352656319737434e+01 5.869254550058400355e+00
7.909488081187009811e+01 2.783199336007237434e+01 5.868003329355275355e+00
7.969973921030759811e+01 2.888704707100987434e+01 5.955710848886525355e+00
3.499661421030759811e+01 1.225228144600987434e+01 2.528190096933400355e+00
3.500357221812009811e+01 1.261531855538487434e+01 2.546256503183400355e+00
7.921328901499509811e+01 2.871541621163487434e+01 6.295447787363087855e+00
9.683992139995098114e+00 5.715294141322374344e+00 -2.334065827540996452e-01
1.328518842905759811e+01 7.046592969447374344e+00 -2.624135407619121452e-01
1.315652631968259811e+01 7.131431836634874344e+00 -2.586141022853496452e-01
1.301822065562009811e+01 7.211265821009874344e+00 -2.547536286525371452e-01
1.343985151499509811e+01 7.500450391322374344e+00 -2.554097565822246452e-01
1.316836713999509811e+01 7.529869336634874344e+00 -2.504964265040996452e-01
1.374698042124509811e+01 7.895836133509874344e+00 -2.520223054103496452e-01
1.883743452280759811e+01 1.013973261788487434e+01 -2.862477692775371452e-01
9.683015577495098114e+00 5.713829297572374344e+00 -1.941609772853496452e-01
1.330972456187009811e+01 7.053550977259874344e+00 -2.059255036525371452e-01
1.347549604624509811e+01 7.243370313197374344e+00 -2.032552155665996452e-01
1.298025678843259811e+01 7.195762891322374344e+00 -1.986318024806621452e-01
1.373843549937009811e+01 7.611900586634874344e+00 -1.980214509181621452e-01
1.377115034312009811e+01 7.763389844447374344e+00 -1.949849518947246452e-01
1.336038374155759811e+01 7.739097852259874344e+00 -1.911244782619121452e-01
1.396304487437009811e+01 8.124473828822374344e+00 -1.894154938869121452e-01
9.682039014995098114e+00 5.712486524134874344e+00 -1.549306306056621452e-01
1.329312299937009811e+01 7.046226758509874344e+00 -1.489186677150371452e-01
1.310855268687009811e+01 7.111290235072374344e+00 -1.460194977931621452e-01
1.348306440562009811e+01 7.378868360072374344e+00 -1.422810944728496452e-01
1.368679975718259811e+01 7.590660352259874344e+00 -1.386647614650371452e-01
1.386856245249509811e+01 7.799766797572374344e+00 -1.349416169337871452e-01
1.434341596812009811e+01 8.132042188197374344e+00 -1.303792390040996452e-01
1.764334272593259811e+01 9.642296094447374344e+00 -1.178670319728496452e-01
9.680940382182598114e+00 5.711021680384874344e+00 -1.158986481837871452e-01
1.318570112437009811e+01 7.007652539759874344e+00 -9.259847728534964517e-02
1.309500288218259811e+01 7.104942578822374344e+00 -8.983663646503714517e-02
1.399368452280759811e+01 7.564537305384874344e+00 -8.065084544941214517e-02
1.402078413218259811e+01 7.715416211634874344e+00 -7.685140697284964517e-02
1.437906049937009811e+01 7.997032422572374344e+00 -7.067159740253714517e-02
1.378738569468259811e+01 7.907310742884874344e+00 -7.125143138691214517e-02
1.793325971812009811e+01 9.759849805384874344e+00 -3.617147533222464517e-02
9.651033155620098114e+00 5.699913281947374344e+00 -7.697347728534964517e-02
9.754670850932598114e+00 5.825035352259874344e+00 -7.341817943378714517e-02
9.872224561870098114e+00 5.958091992884874344e+00 -6.963399974628714517e-02
9.994539014995098114e+00 6.096397656947374344e+00 -6.568197337909964517e-02
1.012088178843259811e+01 6.239464063197374344e+00 -6.160787669941214517e-02
1.025222944468259811e+01 6.388145703822374344e+00 -5.738119212909964517e-02
1.038919233530759811e+01 6.543052930384874344e+00 -5.295614330097464517e-02
1.053103803843259811e+01 6.703575391322374344e+00 -4.837850658222464517e-02
9.592683546245098114e+00 5.679405469447374344e+00 -3.896383373066214517e-02
9.670686475932598114e+00 5.795006055384874344e+00 -3.498128978534964517e-02
9.796540968120098114e+00 5.930015821009874344e+00 -3.035787669941214517e-02
9.916414014995098114e+00 6.066612500697374344e+00 -2.573446361347464517e-02
1.004019331187009811e+01 6.207847852259874344e+00 -2.094320384784964517e-02
1.017715620249509811e+01 6.357750196009874344e+00 -1.583150951191214517e-02
1.032730268687009811e+01 6.517174024134874344e+00 -1.038412181659964517e-02
1.048318647593259811e+01 6.682701367884874344e+00 -4.936734121287145172e-03
9.594392530620098114e+00 5.678917188197374344e+00 -9.969798847464517166e-05
9.653474561870098114e+00 5.788048047572374344e+00 3.821810800587854828e-03
9.825349561870098114e+00 5.939171094447374344e+00 1.013894947246285483e-02
9.960603468120098114e+00 6.081749219447374344e+00 1.584573658183785483e-02
1.010086225718259811e+01 6.229698438197374344e+00 2.175088794902535483e-02
1.024698042124509811e+01 6.383873242884874344e+00 2.791543873027535483e-02
1.039993452280759811e+01 6.545128125697374344e+00 3.435464771465035483e-02
1.055911421030759811e+01 6.712852735072374344e+00 4.106851490215035483e-02
9.642854444682598114e+00 5.694053906947374344e+00 3.975625904277535483e-02
9.652497999370098114e+00 5.786705274134874344e+00 4.286905201152535483e-02
9.889192335307598114e+00 5.960777539759874344e+00 5.205484302715035483e-02
1.001712202280759811e+01 6.101402539759874344e+00 5.840249927715035483e-02
1.014126753062009811e+01 6.243858594447374344e+00 6.475015552715035483e-02
1.027005171030759811e+01 6.391685742884874344e+00 7.134195240215035483e-02
1.040457319468259811e+01 6.545860547572374344e+00 7.797952564433785483e-02
1.054361128062009811e+01 6.705406446009874344e+00 8.509012134746285483e-02
9.626741163432598114e+00 5.687584180384874344e+00 7.837625415996285483e-02
9.651643507182598114e+00 5.785240430384874344e+00 8.212991626933785483e-02
9.834748975932598114e+00 5.940391797572374344e+00 9.076639087871285483e-02
9.952913038432598114e+00 6.076744336634874344e+00 9.755655201152535483e-02
1.007486128062009811e+01 6.217613477259874344e+00 1.045755949802753548e-01
1.020132612437009811e+01 6.363853711634874344e+00 1.118692961521503548e-01
1.033316206187009811e+01 6.516075391322374344e+00 1.194529143162128548e-01
1.046963667124509811e+01 6.673790235072374344e+00 1.273111906834003548e-01
9.578889600932598114e+00 5.670616406947374344e+00 1.155466643162128548e-01
9.655183546245098114e+00 5.785484571009874344e+00 1.213450041599628548e-01
9.773469679057598114e+00 5.917564649134874344e+00 1.287149992771503548e-01
9.912507764995098114e+00 6.060875196009874344e+00 1.369700041599628548e-01
1.005874799937009811e+01 6.210411328822374344e+00 1.455912199802753548e-01
1.021133588999509811e+01 6.366661328822374344e+00 1.546091643162128548e-01
1.037137006968259811e+01 6.530235547572374344e+00 1.640543547459003548e-01
1.053811811655759811e+01 6.700889844447374344e+00 1.738962736912128548e-01
9.603791944682598114e+00 5.677818555384874344e+00 1.553263274021503548e-01
9.694734327495098114e+00 5.797935742884874344e+00 1.622385588474628548e-01
9.850496046245098114e+00 5.943809766322374344e+00 1.718668547459003548e-01
9.994294874370098114e+00 6.089683789759874344e+00 1.811747160740253548e-01
1.014383100718259811e+01 6.241417188197374344e+00 1.908487883396503548e-01
1.029995893687009811e+01 6.399864453822374344e+00 2.009501066990253548e-01
1.949417280405759811e+01 1.018038203194737434e+01 5.910715666599628548e-01
6.639724897593259811e+01 2.970467402413487434e+01 2.589972933847462855e+00
9.663972608745098114e+00 5.696739453822374344e+00 1.967234221287128548e-01
7.409768842905759811e+01 2.790706660225987434e+01 3.085547885019337855e+00
1.962381147593259811e+01 9.407188672572374344e+00 6.539377775974628548e-01
1.951040815562009811e+01 9.569420117884874344e+00 6.566233244724628548e-01
1.983511518687009811e+01 9.895225781947374344e+00 6.794046965427753548e-01
4.015725874155759811e+01 1.800008418038487434e+01 1.632880648691212855e+00
1.941909956187009811e+01 1.014803339913487434e+01 6.760172453709003548e-01
6.686136030405759811e+01 2.988753535225987434e+01 2.933433016855275355e+00
7.497854780405759811e+01 2.738533808663487434e+01 3.450248202402150355e+00
7.376956342905759811e+01 2.778475214913487434e+01 3.422889193613087855e+00
1.969229292124509811e+01 9.429039258509874344e+00 7.451853361912128548e-01
1.949038862437009811e+01 9.559776563197374344e+00 7.431864348240253548e-01
1.986050581187009811e+01 9.902427930384874344e+00 7.702097502537128548e-01
4.023928999155759811e+01 1.802693964913487434e+01 1.827018221933400355e+00
6.638589643687009811e+01 2.893160273507237434e+01 3.203910311777150355e+00
6.630923628062009811e+01 2.965181757882237434e+01 3.230063876230275355e+00
7.477273725718259811e+01 2.730709101632237434e+01 3.793937167245900355e+00
7.567984174937009811e+01 2.843038203194737434e+01 3.877265414316212855e+00
7.463504194468259811e+01 2.888851191475987434e+01 3.854392489511525355e+00
7.365139936655759811e+01 2.935445429757237434e+01 3.834296664316212855e+00
1.983694624155759811e+01 9.891075391322374344e+00 8.590311613865253548e-01
4.024331831187009811e+01 1.802339961007237434e+01 2.018622836191212855e+00
6.648916792124509811e+01 2.896456171944737434e+01 3.530143221933400355e+00
6.640225385874509811e+01 2.968184687569737434e+01 3.556571444589650355e+00
7.845999311655759811e+01 2.852071406319737434e+01 4.366950472909962855e+00
7.449417280405759811e+01 2.801400019600987434e+01 4.166495760995900355e+00
7.666934370249509811e+01 2.959920527413487434e+01 4.331992587167775355e+00
7.387112592905759811e+01 2.942525507882237434e+01 4.199927767831837855e+00
4.106533979624509811e+01 1.788631464913487434e+01 2.239905795175587855e+00
4.023501753062009811e+01 1.801522089913487434e+01 2.208533724863087855e+00
6.619510053843259811e+01 2.883870722725987434e+01 3.832892855722462855e+00
6.646963667124509811e+01 2.970125605538487434e+01 3.884208163339650355e+00
7.626944135874509811e+01 2.778389765694737434e+01 4.599128207284962855e+00
7.745498823374509811e+01 2.901900507882237434e+01 4.712546786386525355e+00
7.442361616343259811e+01 2.879427363350987434e+01 4.554404696542775355e+00
7.468496870249509811e+01 2.971297480538487434e+01 4.608451327402150355e+00
7.689163374155759811e+01 3.137349726632237434e+01 4.790870150644337855e+00
4.022781538218259811e+01 1.800740839913487434e+01 2.399512728769337855e+00
4.000699018687009811e+01 1.836568476632237434e+01 2.404838046152150355e+00
6.670315717905759811e+01 2.978902461007237434e+01 4.222068270761525355e+00
7.775381635874509811e+01 2.826595332100987434e+01 5.064216097909962855e+00
7.681118940562009811e+01 2.878841425850987434e+01 5.036460360605275355e+00
7.672891401499509811e+01 2.960030390694737434e+01 5.069892367441212855e+00
7.480972456187009811e+01 2.974886347725987434e+01 4.974814852792775355e+00
4.048086713999509811e+01 1.765584589913487434e+01 2.587272128183400355e+00
4.026101850718259811e+01 1.801522089913487434e+01 2.592322787363087855e+00
3.998025678843259811e+01 1.835005976632237434e+01 2.592994174081837855e+00
7.911209272593259811e+01 2.870589472725987434e+01 5.532569369394337855e+00
7.699746870249509811e+01 2.884212519600987434e+01 5.417579135019337855e+00
7.853360151499509811e+01 3.022859980538487434e+01 5.572669467050587855e+00
7.706936811655759811e+01 3.056392695382237434e+01 5.504661044199025355e+00
4.054361128062009811e+01 1.767440058663487434e+01 2.784079989511525355e+00
4.017349409312009811e+01 1.797628046944737434e+01 2.777350863534962855e+00
6.898379682749509811e+01 2.992733027413487434e+01 5.009192904550587855e+00
7.969253706187009811e+01 2.888765742257237434e+01 5.955283602792775355e+00
7.909048628062009811e+01 2.954854609444737434e+01 5.950965365488087855e+00
7.727920698374509811e+01 2.977498652413487434e+01 5.848288973886525355e+00
4.105935835093259811e+01 1.786324336007237434e+01 3.016990145761525355e+00
4.022049116343259811e+01 1.798946406319737434e+01 2.971427401620900355e+00
7.984439253062009811e+01 2.892745234444737434e+01 6.348090609628712855e+00
7.897378706187009811e+01 2.949825312569737434e+01 6.317832430917775355e+00
4.062552046030759811e+01 1.769503046944737434e+01 3.174918612558400355e+00
4.024246381968259811e+01 1.799288203194737434e+01 3.164893588144337855e+00
4.003799604624509811e+01 1.835823847725987434e+01 3.170142611581837855e+00
4.106338667124509811e+01 1.786446406319737434e+01 3.396781405527150355e+00
4.028054975718259811e+01 1.801705195382237434e+01 3.349921664316212855e+00
3.492740034312009811e+01 1.252120234444737434e+01 2.816581210214650355e+00
3.457681440562009811e+01 1.279000117257237434e+01 2.802756747324025355e+00
7.892044233530759811e+01 2.939986445382237434e+01 6.459861239511525355e+00
7.909683393687009811e+01 2.935030390694737434e+01 6.197455844003712855e+00
7.962735151499509811e+01 2.769258906319737434e+01 5.597358187753712855e+00
7.855838178843259811e+01 2.821993281319737434e+01 5.556174716074025355e+00
7.876114057749509811e+01 2.915853144600987434e+01 5.606376132089650355e+00
8.247708296030759811e+01 2.501119257882237434e+01 6.055991610605275355e+00
3.491519331187009811e+01 1.233834101632237434e+01 2.444434603769337855e+00
3.515310835093259811e+01 1.278670527413487434e+01 2.478583773691212855e+00
7.984854292124509811e+01 2.775447871163487434e+01 6.000266512949025355e+00
7.913565229624509811e+01 2.840169550850987434e+01 5.981101473886525355e+00
7.913723921030759811e+01 2.927816035225987434e+01 6.019874056894337855e+00
7.878628706187009811e+01 2.970980097725987434e+01 6.207862338144337855e+00
7.699539350718259811e+01 3.042598750069737434e+01 5.711417635995900355e+00
4.014444135874509811e+01 1.790438105538487434e+01 2.886802157480275355e+00
4.025760053843259811e+01 1.803389765694737434e+01 2.681296786386525355e+00
6.884915327280759811e+01 2.991597773507237434e+01 4.825492343027150355e+00
6.670474409312009811e+01 2.990975214913487434e+01 4.347785433847462855e+00
4.027017378062009811e+01 1.818148066475987434e+01 2.372687777597462855e+00
