8.125473149120807648e+00 3.411933140829205513e+00 -1.054258184973093648e-01
8.730697758495807648e+00 3.523017125204205513e+00 -9.895609193480936483e-02
8.068588383495807648e+00 3.024726109579205513e+00 -8.870218568480936483e-02
8.325302250683307648e+00 3.092597203329205513e+00 -8.394144349730936483e-02
8.668197758495807648e+00 3.168036656454205513e+00 -7.828043275512186483e-02
8.052719242870807648e+00 3.215155797079205513e+00 -8.261392884887186483e-02
7.999130375683307648e+00 3.276190953329205513e+00 -8.117960267699686483e-02
8.389999516308307648e+00 3.361518101766705513e+00 -7.475565248168436483e-02
8.109970219433307648e+00 3.409980015829205513e+00 -7.586954408324686483e-02
8.717147953808307648e+00 3.521064000204205513e+00 -6.674478822387186483e-02
8.030502445995807648e+00 3.023505406454205513e+00 -5.983255677855936483e-02
8.348617680370807648e+00 3.091986851766705513e+00 -5.316446595824686483e-02
8.033432133495807648e+00 3.149970250204205513e+00 -5.574320130980936483e-02
8.020614750683307648e+00 3.213080601766705513e+00 -5.389688783324686483e-02
8.019271977245807648e+00 3.276190953329205513e+00 -5.189798646605936483e-02
8.378646977245807648e+00 3.359931187704205513e+00 -4.414652162230936483e-02
8.784896977245807648e+00 3.454169468954205513e+00 -3.541849427855936483e-02
8.703476078808307648e+00 3.518988804891705513e+00 -3.448770814574686483e-02
7.993026860058307648e+00 3.022284703329205513e+00 -3.146646791137186483e-02
8.374496586620807648e+00 3.091498570516705513e+00 -2.211283021605936483e-02
8.310531742870807648e+00 3.156439976766705513e+00 -2.104471498168436483e-02
8.410141117870807648e+00 3.226386265829205513e+00 -1.694010072387186483e-02
7.999618656933307648e+00 3.274359898641705513e+00 -2.305887513793436483e-02
8.367294438183307648e+00 3.358344273641705513e+00 -1.347635560668436483e-02
8.686142094433307648e+00 3.446601109579205513e+00 -4.855139786371864830e-03
8.690048344433307648e+00 3.516913609579205513e+00 -2.505286270746864830e-03
7.955795414745807648e+00 3.021064000204205513e+00 -3.268225723871864830e-03
7.993271000683307648e+00 3.084174351766705513e+00 -3.385382238718648296e-04
8.336166508495807648e+00 3.156195836141705513e+00 9.961144393315635170e-03
8.272689945995807648e+00 3.220404820516705513e+00 1.057149595581563517e-02
7.961166508495807648e+00 3.271674351766705513e+00 5.002037948003135170e-03
7.997055180370807648e+00 3.336493687704205513e+00 7.931725448003135170e-03
8.033554203808307648e+00 3.402167515829205513e+00 1.090718931519063517e-02
8.678817875683307648e+00 3.515082554891705513e+00 2.958394712769063517e-02
7.919662602245807648e+00 3.019965367391705513e+00 2.448751158081563517e-02
7.956283695995807648e+00 3.082587437704205513e+00 2.753926939331563517e-02
8.362045414745807648e+00 3.155829625204205513e+00 4.124166197144063517e-02
8.297958500683307648e+00 3.220404820516705513e+00 4.156209654175313517e-02
8.130844242870807648e+00 3.278632359579205513e+00 3.880025572144063517e-02
7.958725102245807648e+00 3.333319859579205513e+00 3.579427427612813517e-02
7.994735844433307648e+00 3.398749547079205513e+00 3.893758482300313517e-02
8.679306156933307648e+00 3.514228062704205513e+00 6.176473326050313517e-02
8.520614750683307648e+00 3.022772984579205513e+00 7.285787290894063517e-02
7.919540531933307648e+00 3.081122593954205513e+00 5.526448911987813517e-02
8.385604985058307648e+00 3.155463414266705513e+00 7.284261411987813517e-02
8.323715336620807648e+00 3.220282750204205513e+00 7.294942564331563517e-02
8.720932133495807648e+00 3.304999547079205513e+00 8.862020201050313517e-02
8.758773930370807648e+00 3.377387242391705513e+00 9.223653501831563517e-02
8.738876469433307648e+00 3.447089390829205513e+00 9.386922544800313517e-02
8.679672367870807648e+00 3.513251500204205513e+00 9.412862486206563517e-02
7.851669438183307648e+00 3.017646031454205513e+00 7.931234068237813517e-02
7.885360844433307648e+00 3.079657750204205513e+00 8.260823911987813517e-02
8.381942875683307648e+00 3.154364781454205513e+00 1.034670037683156352e-01
8.654403813183307648e+00 3.231269078329205513e+00 1.161012811120656352e-01
8.691513188183307648e+00 3.302558140829205513e+00 1.198244256433156352e-01
8.728988774120807648e+00 3.374701695516705513e+00 1.235933465417531352e-01
8.739364750683307648e+00 3.446112828329205513e+00 1.263399285730031352e-01
8.727157719433307648e+00 3.515814976766705513e+00 1.281862420495656352e-01
8.357650883495807648e+00 3.019721226766705513e+00 1.289339227136281352e-01
7.851547367870807648e+00 3.078192906454205513e+00 1.097994012292531352e-01
8.377304203808307648e+00 3.153266148641705513e+00 1.340303582605031352e-01
8.375351078808307648e+00 3.220282750204205513e+00 1.361665887292531352e-01
8.708725102245807648e+00 3.302436070516705513e+00 1.527834100183156352e-01
8.752426274120807648e+00 3.375067906454205513e+00 1.570100945886281352e-01
8.797104008495807648e+00 3.448920445516705513e+00 1.615114373620656352e-01
8.680648930370807648e+00 3.511298375204205513e+00 1.587190789636281352e-01
8.353988774120807648e+00 3.018744664266705513e+00 1.594057244714406352e-01
8.526107914745807648e+00 3.087958531454205513e+00 1.696748895105031352e-01
8.372543461620807648e+00 3.152167515829205513e+00 1.647157830651906352e-01
8.384994633495807648e+00 3.219672398641705513e+00 1.675386590417531352e-01
8.745468266308307648e+00 3.303046422079205513e+00 1.870088738855031352e-01
8.789657719433307648e+00 3.376166539266705513e+00 1.914949578698781352e-01
8.834579594433307648e+00 3.450385289266705513e+00 1.960573357995656352e-01
8.880111820995807648e+00 3.525458531454205513e+00 2.006654900964406352e-01
8.438461430370807648e+00 3.018256383016705513e+00 1.945009393151906352e-01
8.512680180370807648e+00 3.086737828329205513e+00 2.004060906823781352e-01
8.452865727245807648e+00 3.153266148641705513e+00 1.995973748620656352e-01
8.375473149120807648e+00 3.218329625204205513e+00 1.978578729089406352e-01
8.781234867870807648e+00 3.303656773641705513e+00 2.213564080651906352e-01
8.983749516308307648e+00 3.385932164266705513e+00 2.344179315026906352e-01
9.013168461620807648e+00 3.461127476766705513e+00 2.384462518151906352e-01
9.066513188183307648e+00 3.538520054891705513e+00 2.439394158776906352e-01
8.346786625683307648e+00 3.016669468954205513e+00 2.204103631433156352e-01
8.355697758495807648e+00 3.083197789266705513e+00 2.231569451745656352e-01
8.363266117870807648e+00 3.149970250204205513e+00 2.258272332605031352e-01
8.402694828808307648e+00 3.218329625204205513e+00 2.303285760339406352e-01
8.378280766308307648e+00 3.284369664266705513e+00 2.312135857995656352e-01
8.953964360058307648e+00 3.383246617391705513e+00 2.664766473230031352e-01
9.419174320995807648e+00 3.486762242391705513e+00 2.957887811120656352e-01
2.891050732880830765e+01 5.036322789266705513e+00 1.429150597518315635e+00
8.552230961620807648e+00 3.016791539266705513e+00 2.635622186120656352e-01
8.351059086620807648e+00 3.082221226766705513e+00 2.535371941980031352e-01
8.358505375683307648e+00 3.148871617391705513e+00 2.562532586511281352e-01
8.366073735058307648e+00 3.216010289266705513e+00 2.589845818933156352e-01
9.088974125683307648e+00 3.315619664266705513e+00 3.057832879480031352e-01
9.462265141308307648e+00 3.410346226766705513e+00 3.314333123620656352e-01
9.423446781933307648e+00 3.485907750204205513e+00 3.316621941980031352e-01
9.387069828808307648e+00 3.560614781454205513e+00 3.322115106042531352e-01
8.549911625683307648e+00 3.015814976766705513e+00 2.949800652917531352e-01
8.346420414745807648e+00 3.081122593954205513e+00 2.840547723230031352e-01
8.483261235058307648e+00 3.151068883016705513e+00 2.952852410730031352e-01
8.361312992870807648e+00 3.214911656454205513e+00 2.895937127526906352e-01
2.854222119599580765e+01 4.193671422079205513e+00 1.628277794783940635e+00
9.503646977245807648e+00 3.411444859579205513e+00 3.701906365808156352e-01
9.429306156933307648e+00 3.485175328329205513e+00 3.679018182214406352e-01
9.391220219433307648e+00 3.559882359579205513e+00 3.679933709558156352e-01
8.547958500683307648e+00 3.014716343954205513e+00 3.265657586511281352e-01
8.341781742870807648e+00 3.080023961141705513e+00 3.145265740808156352e-01
8.463363774120807648e+00 3.149604039266705513e+00 3.251772088464406352e-01
8.594467289745807648e+00 3.222113804891705513e+00 3.367433709558156352e-01
1.452854932099580765e+01 3.558539586141705513e+00 7.593965691980031352e-01
9.167953617870807648e+00 3.391913609579205513e+00 3.823213738855031352e-01
3.022508252412080765e+01 4.837714390829205513e+00 1.891461388533940635e+00
9.396713383495807648e+00 3.559272008016705513e+00 4.041109246667531352e-01
8.545883305370807648e+00 3.013739781454205513e+00 3.581361932214406352e-01
8.511581547558307648e+00 3.081610875204205513e+00 3.577699822839406352e-01
8.478378422558307648e+00 3.148871617391705513e+00 3.576631707605031352e-01
2.761460889130830765e+01 3.885199742391705513e+00 1.797253624862065635e+00
2.738597119599580765e+01 4.133979039266705513e+00 1.788968102401128135e+00
9.481063969433307648e+00 3.408026890829205513e+00 4.407167596276906352e-01
9.441757328808307648e+00 3.483832554891705513e+00 4.404268426355031352e-01
9.402816899120807648e+00 3.558661656454205513e+00 4.403352899011281352e-01
8.774276860058307648e+00 3.530585484579205513e+00 -2.293271856848093648e-01
8.672836430370807648e+00 3.592719273641705513e+00 -2.260923224035593648e-01
8.577743656933307648e+00 3.653632359579205513e+00 -2.231321173254343648e-01
8.480697758495807648e+00 3.712714390829205513e+00 -2.202024298254343648e-01
8.376327641308307648e+00 3.768866734579205513e+00 -2.172574835363718648e-01
8.866195805370807648e+00 3.899237828329205513e+00 -2.201108770910593648e-01
8.841171391308307648e+00 3.968695836141705513e+00 -2.178373175207468648e-01
9.247421391308307648e+00 4.101630406454205513e+00 -2.197141485754343648e-01
8.756820805370807648e+00 3.528266148641705513e+00 -1.965055304113718648e-01
8.662338383495807648e+00 3.590888218954205513e+00 -1.939115362707468648e-01
8.572006352245807648e+00 3.652045445516705513e+00 -1.912259893957468648e-01
8.919662602245807648e+00 3.758979039266705513e+00 -1.912107306066843648e-01
8.354721195995807648e+00 3.765448765829205513e+00 -1.861295538488718648e-01
9.101547367870807648e+00 3.928290562704205513e+00 -1.879758673254343648e-01
8.860702641308307648e+00 3.970526890829205513e+00 -1.848783331457468648e-01
8.855697758495807648e+00 4.042548375204205513e+00 -1.827878790441843648e-01
8.748886235058307648e+00 3.526679234579205513e+00 -1.638669806066843648e-01
8.656479008495807648e+00 3.589301304891705513e+00 -1.616697149816843648e-01
8.566269047558307648e+00 3.650580601766705513e+00 -1.595334845129343648e-01
8.938217289745807648e+00 3.760077672079205513e+00 -1.579007940832468648e-01
8.371688969433307648e+00 3.766547398641705513e+00 -1.553830938879343648e-01
9.083603031933307648e+00 3.925116734579205513e+00 -1.537351446691843648e-01
8.880478031933307648e+00 3.972235875204205513e+00 -1.515378790441843648e-01
8.573349125683307648e+00 3.999823765829205513e+00 -1.494779425207468648e-01
8.136947758495807648e+00 3.478461461141705513e+00 -1.330900030676218648e-01
8.954818852245807648e+00 3.614447789266705513e+00 -1.285581427160593648e-01
8.559921391308307648e+00 3.648993687704205513e+00 -1.277189093176218648e-01
8.461288578808307648e+00 3.707831578329205513e+00 -1.260404425207468648e-01
8.958725102245807648e+00 3.834662633016705513e+00 -1.220731573644968648e-01
9.148544438183307648e+00 3.932318883016705513e+00 -1.191129522863718648e-01
9.120346195995807648e+00 4.004340367391705513e+00 -1.170072393957468648e-01
8.360214360058307648e+00 3.967475133016705513e+00 -1.186094122473093648e-01
8.730087406933307648e+00 3.523261265829205513e+00 -9.895609193480936483e-02
8.642196781933307648e+00 3.586127476766705513e+00 -9.750650697387186483e-02
8.552841313183307648e+00 3.647406773641705513e+00 -9.613321595824686483e-02
8.975570805370807648e+00 3.762030797079205513e+00 -9.057901673949686483e-02
8.977401860058307648e+00 3.835761265829205513e+00 -8.836649232543436483e-02
9.119369633495807648e+00 3.927680211141705513e+00 -8.490274720824686483e-02
9.135360844433307648e+00 4.005439000204205513e+00 -8.249185853637186483e-02
9.129989750683307648e+00 4.080268101766705513e+00 -8.027933412230936483e-02
8.716537602245807648e+00 3.521186070516705513e+00 -6.674478822387186483e-02
8.628769047558307648e+00 3.584052281454205513e+00 -6.550882630980936483e-02
8.864730961620807648e+00 3.676703648641705513e+00 -6.042764955199686483e-02
8.447372563183307648e+00 3.704535679891705513e+00 -6.358621888793436483e-02
8.996322758495807648e+00 3.837104039266705513e+00 -5.427835755980936483e-02
9.067001469433307648e+00 3.919989781454205513e+00 -5.107401185668436483e-02
9.135116703808307648e+00 4.004340367391705513e+00 -4.785440736449686483e-02
9.191757328808307648e+00 4.088446812704205513e+00 -4.493997865355936483e-02
8.702865727245807648e+00 3.519232945516705513e+00 -3.448770814574686483e-02
8.619369633495807648e+00 3.582221226766705513e+00 -3.372476869262186483e-02
8.850204594433307648e+00 3.674262242391705513e+00 -2.760599427855936483e-02
8.435897953808307648e+00 3.702338414266705513e+00 -3.259561830199686483e-02
8.985946781933307648e+00 3.834784703329205513e+00 -2.070902162230936483e-02
9.027694828808307648e+00 3.914008336141705513e+00 -1.767252259887186483e-02
9.091415531933307648e+00 3.997382359579205513e+00 -1.419351869262186483e-02
9.149154789745807648e+00 4.081122593954205513e+00 -1.079080873168436483e-02
8.689437992870807648e+00 3.517157750204205513e+00 -2.520545059809364830e-03
8.619735844433307648e+00 3.581366734579205513e+00 -1.803381973871864830e-03
8.469711430370807648e+00 3.636542515829205513e+00 -2.703650528559364830e-03
8.958236820995807648e+00 3.757270054891705513e+00 1.025106138550313517e-02
9.003891117870807648e+00 3.836005406454205513e+00 1.357747740112813517e-02
9.050277836620807648e+00 3.915839390829205513e+00 1.696492857300313517e-02
9.123642094433307648e+00 4.000800328329205513e+00 2.082540220581563517e-02
9.186020024120807648e+00 4.085639195516705513e+00 2.465535826050313517e-02
8.678451664745807648e+00 3.515326695516705513e+00 2.958394712769063517e-02
8.620224125683307648e+00 3.580390172079205513e+00 3.030111021362813517e-02
8.944564945995807648e+00 3.681464390829205513e+00 4.108907408081563517e-02
8.914169438183307648e+00 3.751532750204205513e+00 4.263021177612813517e-02
9.001693852245807648e+00 3.834662633016705513e+00 4.731466001831563517e-02
9.083114750683307648e+00 3.919013218954205513e+00 5.190755552612813517e-02
9.160385258495807648e+00 4.004950718954205513e+00 5.645467466675313517e-02
9.223495610058307648e+00 4.090155797079205513e+00 6.065084165894063517e-02
8.678817875683307648e+00 3.514350133016705513e+00 6.176473326050313517e-02
8.620590336620807648e+00 3.579535679891705513e+00 6.225301451050313517e-02
8.563217289745807648e+00 3.643622593954205513e+00 6.274129576050313517e-02
8.898544438183307648e+00 3.748847203329205513e+00 7.549764341675313517e-02
8.985580570995807648e+00 3.831855015829205513e+00 8.060933775269063517e-02
9.070175297558307648e+00 3.916449742391705513e+00 8.572103208862813517e-02
9.137191899120807648e+00 4.000678258016705513e+00 9.032918638550313517e-02
9.192978031933307648e+00 4.084662633016705513e+00 9.460164732300313517e-02
8.679306156933307648e+00 3.513495640829205513e+00 9.412862486206563517e-02
8.621078617870807648e+00 3.578559117391705513e+00 9.438802427612813517e-02
8.915023930370807648e+00 3.676581578329205513e+00 1.071443719323781352e-01
8.882797367870807648e+00 3.746161656454205513e+00 1.084108514245656352e-01
8.996078617870807648e+00 3.832099156454205513e+00 1.149110955651906352e-01
9.037460453808307648e+00 3.911322789266705513e+00 1.188631219323781352e-01
9.100937016308307648e+00 3.994818883016705513e+00 1.236848992761281352e-01
9.155990727245807648e+00 4.078192906454205513e+00 1.282320184167531352e-01
8.727890141308307648e+00 3.516181187704205513e+00 1.282320184167531352e-01
8.849716313183307648e+00 3.597235875204205513e+00 1.354646844323781352e-01
8.895614750683307648e+00 3.673651890829205513e+00 1.397218865808156352e-01
8.942245610058307648e+00 3.751532750204205513e+00 1.440553826745656352e-01
8.989486820995807648e+00 3.830268101766705513e+00 1.484346551355031352e-01
9.037338383495807648e+00 3.910346226766705513e+00 1.528902215417531352e-01
9.111801274120807648e+00 3.995307164266705513e+00 1.584901971276906352e-01
9.176498539745807648e+00 4.080268101766705513e+00 1.637392205651906352e-01
8.680282719433307648e+00 3.511542515829205513e+00 1.587190789636281352e-01
8.815536625683307648e+00 3.593329625204205513e+00 1.671266717370656352e-01
8.934188969433307648e+00 3.676459508016705513e+00 1.747102899011281352e-01
8.981430180370807648e+00 3.754706578329205513e+00 1.793337029870656352e-01
9.029159672558307648e+00 3.833930211141705513e+00 1.840181512292531352e-01
9.077743656933307648e+00 3.914374547079205513e+00 1.887788934167531352e-01
9.157089360058307648e+00 4.000434117391705513e+00 1.951875848230031352e-01
9.222763188183307648e+00 4.086005406454205513e+00 2.008333367761281352e-01
8.880355961620807648e+00 3.525702672079205513e+00 2.006960076745656352e-01
8.926620610058307648e+00 3.601874547079205513e+00 2.054567498620656352e-01
9.173935063183307648e+00 3.698432164266705513e+00 2.201967400964406352e-01
9.800399906933307648e+00 3.840522008016705513e+00 2.540407342370656352e-01
2.239952100068330765e+01 5.385443883016705513e+00 8.890199822839406352e-01
2.732286084443330765e+01 6.216498570516705513e+00 1.145001427596440635e+00
1.445603955537080765e+01 4.722235875204205513e+00 4.994173211511281352e-01
1.562461865693330765e+01 5.023383336141705513e+00 5.637636346276906352e-01
9.066757328808307648e+00 3.538886265829205513e+00 2.439546746667531352e-01
9.275375492870807648e+00 3.630805211141705513e+00 2.575807732995656352e-01
9.123153813183307648e+00 3.692572789266705513e+00 2.520265740808156352e-01
9.191391117870807648e+00 3.774970250204205513e+00 2.583742303308156352e-01
2.249852002412080765e+01 5.394110875204205513e+00 9.902315301355031352e-01
2.763230908662080765e+01 6.252021031454205513e+00 1.280758873885503135e+00
1.445909131318330765e+01 4.721015172079205513e+00 5.587892693933156352e-01
2.827476514130830765e+01 6.873847203329205513e+00 1.335812584823003135e+00
2.891172803193330765e+01 5.037421422079205513e+00 1.429257409041753135e+00
2.989048779755830765e+01 5.394232945516705513e+00 1.496106163924565635e+00
9.226669438183307648e+00 3.701361851766705513e+00 2.926302117761281352e-01
9.167099125683307648e+00 3.771308140829205513e+00 2.918214959558156352e-01
9.316635258495807648e+00 3.864325718954205513e+00 3.034029168542531352e-01
3.119541943818330765e+01 6.697333531454205513e+00 1.614666954940190635e+00
2.807347119599580765e+01 6.572699742391705513e+00 1.437497155135503135e+00
2.770994580537080765e+01 6.787665562704205513e+00 1.425030724471440635e+00
9.386825688183307648e+00 3.560858922079205513e+00 3.322115106042531352e-01
3.083970654755830765e+01 5.471381383016705513e+00 1.685940758651128135e+00
9.229354985058307648e+00 3.700629429891705513e+00 3.276338738855031352e-01
9.123886235058307648e+00 3.765814976766705513e+00 3.236665887292531352e-01
9.164779789745807648e+00 3.845648961141705513e+00 3.289919061120656352e-01
2.814659131318330765e+01 6.309760289266705513e+00 1.554898278182378135e+00
3.118223584443330765e+01 6.992011265829205513e+00 1.761334435408940635e+00
2.758311475068330765e+01 6.765814976766705513e+00 1.538235680526128135e+00
9.390976078808307648e+00 3.560126500204205513e+00 3.679933709558156352e-01
3.092271436005830765e+01 5.474433140829205513e+00 1.826748864119878135e+00
9.232162602245807648e+00 3.699897008016705513e+00 3.628664178308156352e-01
2.250804150849580765e+01 5.176459508016705513e+00 1.273144738143315635e+00
2.249497998505830765e+01 5.385199742391705513e+00 1.279934899276128135e+00
2.808836377412080765e+01 6.298896031454205513e+00 1.674130455916753135e+00
2.839952100068330765e+01 6.609931187704205513e+00 1.705594078963628135e+00
2.739768994599580765e+01 6.735297398641705513e+00 1.645566002791753135e+00
9.396469242870807648e+00 3.559516148641705513e+00 4.040956658776906352e-01
9.905381787568330765e+01 1.127326126582920551e+01 6.885220543807378135e+00
9.234970219433307648e+00 3.699042515829205513e+00 3.979463738855031352e-01
2.221739209443330765e+01 5.143012242391705513e+00 1.348217980330815635e+00
2.249375928193330765e+01 5.382270054891705513e+00 1.376202599471440635e+00
2.256102002412080765e+01 5.601386265829205513e+00 1.388974205916753135e+00
2.766270459443330765e+01 6.506415562704205513e+00 1.775586144393315635e+00
2.762889111787080765e+01 6.765570836141705513e+00 1.782864586776128135e+00
9.402572758495807648e+00 3.558905797079205513e+00 4.403200311120656352e-01
2.792515576630830765e+01 5.211371617391705513e+00 1.866879479354253135e+00
2.789109814912080765e+01 5.471991734579205513e+00 1.874173180526128135e+00
2.245542920380830765e+01 5.165229039266705513e+00 1.462185875838628135e+00
2.222349561005830765e+01 5.348334508016705513e+00 1.451993004744878135e+00
2.784654248505830765e+01 6.261542515829205513e+00 1.900601403182378135e+00
2.708421338349580765e+01 6.424506383016705513e+00 1.850583092635503135e+00
2.719480908662080765e+01 6.698920445516705513e+00 1.869702355330815635e+00
9.247543461620807648e+00 4.101874547079205513e+00 -2.196988897863718648e-01
8.713485844433307648e+00 4.094184117391705513e+00 -2.128629522863718648e-01
9.265731938183307648e+00 4.259223179891705513e+00 -2.158384161535593648e-01
9.910019047558307648e+00 4.452582554891705513e+00 -2.192869024816843648e-01
9.367050297558307648e+00 4.434394078329205513e+00 -2.127866583410593648e-01
1.337852490693330765e+01 5.314398961141705513e+00 -2.422666388098093648e-01
1.420884717255830765e+01 5.610419468954205513e+00 -2.455320196691843648e-01
1.324290478974580765e+01 5.527899937704205513e+00 -2.355069952551218648e-01
8.855819828808307648e+00 4.042792515829205513e+00 -1.827726202551218648e-01
9.432602055370807648e+00 4.207221226766705513e+00 -1.833371954504343648e-01
9.345199711620807648e+00 4.271674351766705513e+00 -1.807737188879343648e-01
9.248275883495807648e+00 4.333197789266705513e+00 -1.783933477941843648e-01
9.262313969433307648e+00 4.413642125204205513e+00 -1.764402227941843648e-01
1.369297803193330765e+01 5.375678258016705513e+00 -1.883878546301218648e-01
1.420677197724580765e+01 5.608466343954205513e+00 -1.869687872473093648e-01
1.371958936005830765e+01 5.631415562704205513e+00 -1.823453741613718648e-01
8.576278813183307648e+00 4.000556187704205513e+00 -1.494626837316843648e-01
9.490341313183307648e+00 4.215277867391705513e+00 -1.472196417394968648e-01
9.355575688183307648e+00 4.272406773641705513e+00 -1.451902227941843648e-01
9.313827641308307648e+00 4.343939976766705513e+00 -1.431455450598093648e-01
9.272567875683307648e+00 4.414618687704205513e+00 -1.411161261144968648e-01
1.328318799287080765e+01 5.292548375204205513e+00 -1.329526739660593648e-01
1.325230420380830765e+01 5.406684117391705513e+00 -1.298093634191843648e-01
1.372081006318330765e+01 5.630194859579205513e+00 -1.256437140051218648e-01
8.362289555370807648e+00 3.967963414266705513e+00 -1.185941534582468648e-01
9.183822758495807648e+00 4.165839390829205513e+00 -1.123990850988718648e-01
9.371933110058307648e+00 4.274115758016705513e+00 -1.092862921301218648e-01
9.324203617870807648e+00 4.344794468954205513e+00 -1.073942022863718648e-01
9.282821781933307648e+00 4.415595250204205513e+00 -1.054868536535593648e-01
1.370738232880830765e+01 5.375556187704205513e+00 -7.586954408324686483e-02
1.390794385224580765e+01 5.542670445516705513e+00 -7.115457826293436483e-02
1.372203076630830765e+01 5.628974156454205513e+00 -6.923197084105936483e-02
9.130233891308307648e+00 4.080634312704205513e+00 -8.027933412230936483e-02
9.295517094433307648e+00 4.182563023641705513e+00 -7.652567201293436483e-02
9.355087406933307648e+00 4.270331578329205513e+00 -7.374857240355936483e-02
9.334579594433307648e+00 4.345648961141705513e+00 -7.173441224730936483e-02
9.477890141308307648e+00 4.451483922079205513e+00 -6.799600892699686483e-02
9.541000492870807648e+00 4.544623570516705513e+00 -6.503580384887186483e-02
9.605697758495807648e+00 4.639960484579205513e+00 -6.201456361449686483e-02
9.671371586620807648e+00 4.736762242391705513e+00 -5.893228822387186483e-02
9.192245610058307648e+00 4.088690953329205513e+00 -4.492471986449686483e-02
9.249618656933307648e+00 4.174262242391705513e+00 -4.170511537230936483e-02
9.308334477245807648e+00 4.261542515829205513e+00 -3.859232240355936483e-02
9.368515141308307648e+00 4.350653843954205513e+00 -3.541849427855936483e-02
9.429550297558307648e+00 4.441352086141705513e+00 -3.218363099730936483e-02
9.491806156933307648e+00 4.533759312704205513e+00 -2.890299134887186483e-02
9.555526860058307648e+00 4.628363804891705513e+00 -2.553079896605936483e-02
9.620590336620807648e+00 4.724677281454205513e+00 -2.229593568480936483e-02
9.149643070995807648e+00 4.081488804891705513e+00 -1.076029115355936483e-02
9.212509281933307648e+00 4.167426304891705513e+00 -7.296546036371864830e-03
9.276840336620807648e+00 4.255194859579205513e+00 -3.771765762934364830e-03
9.342636235058307648e+00 4.345160679891705513e+00 -1.401739660593648296e-04
9.409530766308307648e+00 4.436591343954205513e+00 3.552452987065635170e-03
9.478012211620807648e+00 4.530097203329205513e+00 7.321373885503135170e-03
9.548080570995807648e+00 4.625922398641705513e+00 1.118184751831563517e-02
9.619491703808307648e+00 4.723456578329205513e+00 1.510335630737813517e-02
9.186508305370807648e+00 4.085883336141705513e+00 2.467061704956563517e-02
9.250106938183307648e+00 4.172431187704205513e+00 2.853109068237813517e-02
9.315292485058307648e+00 4.260688023641705513e+00 3.265096372925313517e-02
9.381820805370807648e+00 4.351142125204205513e+00 3.667928404175313517e-02
9.449569828808307648e+00 4.443183140829205513e+00 4.078389829956563517e-02
9.518783695995807648e+00 4.537177281454205513e+00 4.496480650269063517e-02
9.589462406933307648e+00 4.633612828329205513e+00 4.905416197144063517e-02
9.661728031933307648e+00 4.731757359579205513e+00 5.341817564331563517e-02
9.223983891308307648e+00 4.090399937704205513e+00 6.068135923706563517e-02
9.287704594433307648e+00 4.177314000204205513e+00 6.490804380737813517e-02
9.346176274120807648e+00 4.264838414266705513e+00 6.902791685425313517e-02
9.405990727245807648e+00 4.354438023641705513e+00 7.323934263550313517e-02
9.466659672558307648e+00 4.445380406454205513e+00 7.752706236206563517e-02
9.528549320995807648e+00 4.538153843954205513e+00 8.189107603394063517e-02
9.591903813183307648e+00 4.633124547079205513e+00 8.636190122925313517e-02
9.656356938183307648e+00 4.729560093954205513e+00 9.090902036987813517e-02
9.193344242870807648e+00 4.085028843954205513e+00 9.463216490112813517e-02
9.250106938183307648e+00 4.170478062704205513e+00 9.896566099487813517e-02
9.307846195995807648e+00 4.257514195516705513e+00 1.033907098230031352e-01
9.366928227245807648e+00 4.346503453329205513e+00 1.079225701745656352e-01
9.426986820995807648e+00 4.436957554891705513e+00 1.125154656823781352e-01
9.488144047558307648e+00 4.529242711141705513e+00 1.171999139245656352e-01
9.550888188183307648e+00 4.623603062704205513e+00 1.220064324792531352e-01
9.614486820995807648e+00 4.719428258016705513e+00 1.268739861901906352e-01
9.156479008495807648e+00 4.078559117391705513e+00 1.282472772058156352e-01
9.212509281933307648e+00 4.163520054891705513e+00 1.328859490808156352e-01
9.269760258495807648e+00 4.250067906454205513e+00 1.376161736901906352e-01
9.331894047558307648e+00 4.339301304891705513e+00 1.425905389245656352e-01
9.401474125683307648e+00 4.431220250204205513e+00 1.478853387292531352e-01
9.472641117870807648e+00 4.525092320516705513e+00 1.533022088464406352e-01
9.545517094433307648e+00 4.621405797079205513e+00 1.588716668542531352e-01
9.619857914745807648e+00 4.719672398641705513e+00 1.645326775964406352e-01
9.176986820995807648e+00 4.080634312704205513e+00 1.637697381433156352e-01
9.243148930370807648e+00 4.167304234579205513e+00 1.691560906823781352e-01
9.310775883495807648e+00 4.256049351766705513e+00 1.746645135339406352e-01
9.379989750683307648e+00 4.346869664266705513e+00 1.803102654870656352e-01
9.450546391308307648e+00 4.439398961141705513e+00 1.860628289636281352e-01
9.522689945995807648e+00 4.534125523641705513e+00 1.919527215417531352e-01
9.596664555370807648e+00 4.631171422079205513e+00 1.979799432214406352e-01
9.672104008495807648e+00 4.730170445516705513e+00 2.041292352136281352e-01
9.223251469433307648e+00 4.086371617391705513e+00 2.008638543542531352e-01
9.290268070995807648e+00 4.173773961141705513e+00 2.066927117761281352e-01
9.358505375683307648e+00 4.263007359579205513e+00 2.124300164636281352e-01
1.524546826630830765e+01 5.386664586141705513e+00 4.956026238855031352e-01
1.492930615693330765e+01 5.467108922079205513e+00 4.853029412683156352e-01
1.495225537568330765e+01 5.608588414266705513e+00 4.911775750573781352e-01
1.523948682099580765e+01 5.806708531454205513e+00 5.103273553308156352e-01
1.561631787568330765e+01 6.030463414266705513e+00 5.337495965417531352e-01
1.562266553193330765e+01 5.023505406454205513e+00 5.636720818933156352e-01
1.863548291474580765e+01 5.638007359579205513e+00 7.241792840417531352e-01
1.529405225068330765e+01 5.253363804891705513e+00 5.567598504480031352e-01
1.519956982880830765e+01 5.376776890829205513e+00 5.568056268151906352e-01
1.491514600068330765e+01 5.462714390829205513e+00 5.467806024011281352e-01
1.489939893037080765e+01 5.596503453329205513e+00 5.508394402917531352e-01
2.688414014130830765e+01 8.231391148641705513e+00 1.196087853377690635e+00
1.552769482880830765e+01 6.009345250204205513e+00 5.944490594323781352e-01
2.827745068818330765e+01 6.875189976766705513e+00 1.335995690291753135e+00
1.851817334443330765e+01 5.617377476766705513e+00 7.963838738855031352e-01
1.524998486787080765e+01 5.244208531454205513e+00 6.176424188073781352e-01
1.515415967255830765e+01 5.367011265829205513e+00 6.172914666589406352e-01
1.494920361787080765e+01 5.467475133016705513e+00 6.105928582605031352e-01
1.493211377412080765e+01 5.601264195516705513e+00 6.146059197839406352e-01
1.517002881318330765e+01 5.788886265829205513e+00 6.334810418542531352e-01
2.725975049287080765e+01 8.572943883016705513e+00 1.346508995955815635e+00
2.771482861787080765e+01 6.789374547079205513e+00 1.425366417830815635e+00
1.892405713349580765e+01 5.678656773641705513e+00 8.998079461511281352e-01
1.520591748505830765e+01 5.235053258016705513e+00 6.784792107995656352e-01
1.510887158662080765e+01 5.357245640829205513e+00 6.777010125573781352e-01
1.562266553193330765e+01 5.591864781454205513e+00 7.147493524011281352e-01
1.558921826630830765e+01 5.729560093954205513e+00 7.180452508386281352e-01
1.526194775849580765e+01 5.806342320516705513e+00 7.028932732995656352e-01
2.668284619599580765e+01 8.443793492391705513e+00 1.430279747908940635e+00
2.758616650849580765e+01 6.767035679891705513e+00 1.538479821151128135e+00
1.833335889130830765e+01 5.584052281454205513e+00 9.412660760339406352e-01
1.838194287568330765e+01 5.762519078329205513e+00 9.509706658776906352e-01
1.829637158662080765e+01 5.919501500204205513e+00 9.518556756433156352e-01
1.852708447724580765e+01 6.133979039266705513e+00 9.737825555261281352e-01
1.560008252412080765e+01 5.729926304891705513e+00 7.839327020105031352e-01
1.526780713349580765e+01 5.805854039266705513e+00 7.670259637292531352e-01
2.664878857880830765e+01 8.433295445516705513e+00 1.546170250838628135e+00
2.739817822724580765e+01 6.736151890829205513e+00 1.645627037948003135e+00
1.876097119599580765e+01 5.648749547079205513e+00 1.049176232283940635e+00
1.838243115693330765e+01 5.760443883016705513e+00 1.029248253768315635e+00
1.830223096162080765e+01 5.918402867391705513e+00 1.030270592635503135e+00
2.561705029755830765e+01 7.458441929891705513e+00 1.559536950057378135e+00
2.700633252412080765e+01 7.980414586141705513e+00 1.669018761580815635e+00
2.693540967255830765e+01 8.229560093954205513e+00 1.674176232283940635e+00
2.693638623505830765e+01 8.492987828329205513e+00 1.684506432479253135e+00
2.762815869599580765e+01 6.766425328329205513e+00 1.782849327987065635e+00
2.728977978974580765e+01 6.978095250204205513e+00 1.768048302596440635e+00
1.838499463349580765e+01 5.758734898641705513e+00 1.107296959823003135e+00
1.830809033662080765e+01 5.917304234579205513e+00 1.108334557479253135e+00
2.562364209443330765e+01 7.456610875204205513e+00 1.672040001815190635e+00
2.974143994599580765e+01 8.516913609579205513e+00 1.997052208846440635e+00
2.765037549287080765e+01 8.374945836141705513e+00 1.848446862166753135e+00
2.926866162568330765e+01 8.998725133016705513e+00 1.984463707869878135e+00
2.719566357880830765e+01 6.699897008016705513e+00 1.869809166854253135e+00
1.856126416474580765e+01 5.613105015829205513e+00 1.192685143416753135e+00
1.838755811005830765e+01 5.757025914266705513e+00 1.185818688338628135e+00
1.839073193818330765e+01 5.929755406454205513e+00 1.193081871932378135e+00
1.859568799287080765e+01 6.140326695516705513e+00 1.216656701033940635e+00
2.774900830537080765e+01 8.120551304891705513e+00 1.967450158065190635e+00
2.765806592255830765e+01 8.373236851766705513e+00 1.971066491073003135e+00
2.748033154755830765e+01 8.605292515829205513e+00 1.968136803573003135e+00
1.324241650849580765e+01 5.528144078329205513e+00 -2.354917364660593648e-01
1.347825635224580765e+01 5.703437047079205513e+00 -2.342405157629343648e-01
1.377427686005830765e+01 5.898749547079205513e+00 -2.335691290441843648e-01
1.418943799287080765e+01 6.131415562704205513e+00 -2.335080938879343648e-01
1.418406689912080765e+01 6.262763218954205513e+00 -2.305784063879343648e-01
1.406553662568330765e+01 6.363593297079205513e+00 -2.269315558019968648e-01
1.426939404755830765e+01 6.554755406454205513e+00 -2.252225714269968648e-01
1.418992627412080765e+01 6.666938023641705513e+00 -2.221250372473093648e-01
1.371971143037080765e+01 5.631903843954205513e+00 -1.823301153723093648e-01
1.372947705537080765e+01 5.759955601766705513e+00 -1.794614630285593648e-01
1.337022412568330765e+01 5.799872593954205513e+00 -1.754789190832468648e-01
1.436912549287080765e+01 6.175116734579205513e+00 -1.745176153723093648e-01
1.411656201630830765e+01 6.243598179891705513e+00 -1.710080938879343648e-01
1.433177197724580765e+01 6.434882359579205513e+00 -1.682462530676218648e-01
1.425645459443330765e+01 6.549628453329205513e+00 -1.653470831457468648e-01
1.372581494599580765e+01 6.528754429891705513e+00 -1.617460089269968648e-01
1.372093213349580765e+01 5.630683140829205513e+00 -1.256437140051218648e-01
1.371897900849580765e+01 5.756049351766705513e+00 -1.226072149816843648e-01
1.342161572724580765e+01 5.810858922079205513e+00 -1.203183966223093648e-01
1.399681103974580765e+01 6.080023961141705513e+00 -1.156797247473093648e-01
1.426243603974580765e+01 6.280341343954205513e+00 -1.117124395910593648e-01
1.407688916474580765e+01 6.363837437704205513e+00 -1.090879278723093648e-01
1.424351514130830765e+01 6.544501500204205513e+00 -1.052579718176218648e-01
1.413291943818330765e+01 6.647284703329205513e+00 -1.024198370519968648e-01
1.372203076630830765e+01 5.629462437704205513e+00 -6.921671205199686483e-02
1.377171338349580765e+01 5.766791539266705513e+00 -6.538675599730936483e-02
1.347373975068330765e+01 5.821967320516705513e+00 -6.434915834105936483e-02
1.389732373505830765e+01 6.053412633016705513e+00 -5.797098451293436483e-02
1.446434033662080765e+01 6.331855015829205513e+00 -5.025003724730936483e-02
1.434788525849580765e+01 6.436347203329205513e+00 -4.774759584105936483e-02
1.423045361787080765e+01 6.539374547079205513e+00 -4.527567201293436483e-02
1.391490186005830765e+01 6.581732945516705513e+00 -4.489420228637186483e-02
9.671859867870807648e+00 4.737250523641705513e+00 -5.891702943480936483e-02
9.739242680370807648e+00 4.836249547079205513e+00 -5.592630677855936483e-02
9.807968266308307648e+00 4.937445836141705513e+00 -5.285929017699686483e-02
9.878646977245807648e+00 5.041327672079205513e+00 -4.971597963012186483e-02
9.950546391308307648e+00 5.147284703329205513e+00 -4.651163392699686483e-02
1.002415478974580765e+01 5.255561070516705513e+00 -4.323099427855936483e-02
1.009983838349580765e+01 5.366767125204205513e+00 -3.985880189574686483e-02
1.017686475068330765e+01 5.480170445516705513e+00 -3.642557435668436483e-02
9.621078617870807648e+00 4.725043492391705513e+00 -2.228067689574686483e-02
9.687118656933307648e+00 4.823310093954205513e+00 -1.871012025512186483e-02
9.754989750683307648e+00 4.923773961141705513e+00 -1.524637513793436483e-02
9.824569828808307648e+00 5.026801304891705513e+00 -1.170633607543436483e-02
9.895370610058307648e+00 5.131781773641705513e+00 -8.090003067621864830e-03
9.967880375683307648e+00 5.239203648641705513e+00 -4.382117325434364830e-03
1.004234326630830765e+01 5.349555211141705513e+00 -5.979376379343648296e-04
1.012107861787080765e+01 5.462836461141705513e+00 3.109948104253135170e-03
9.620102055370807648e+00 4.723822789266705513e+00 1.513387388550313517e-02
9.692978031933307648e+00 4.823676304891705513e+00 1.905538267456563517e-02
9.767685063183307648e+00 4.925849156454205513e+00 2.308370298706563517e-02
9.844467289745807648e+00 5.030829625204205513e+00 2.721883482300313517e-02
9.922836430370807648e+00 5.138007359579205513e+00 3.143026060425313517e-02
1.000303662568330765e+01 5.247870640829205513e+00 3.576375669800313517e-02
1.008567822724580765e+01 5.360785679891705513e+00 4.020406431519063517e-02
1.017002881318330765e+01 5.476264195516705513e+00 4.475118345581563517e-02
9.662338383495807648e+00 4.732245640829205513e+00 5.344869322144063517e-02
9.736190922558307648e+00 4.832587437704205513e+00 5.785848326050313517e-02
9.811996586620807648e+00 4.935492711141705513e+00 6.257344908081563517e-02
9.889755375683307648e+00 5.041205601766705513e+00 6.721212095581563517e-02
9.969101078808307648e+00 5.149115758016705513e+00 7.194234556519063517e-02
1.004747021943330765e+01 5.258979039266705513e+00 7.671834654175313517e-02
1.012242139130830765e+01 5.370185093954205513e+00 8.125020689331563517e-02
1.019859326630830765e+01 5.483710484579205513e+00 8.608724302612813517e-02
9.656845219433307648e+00 4.730048375204205513e+00 9.092427915894063517e-02
9.722641117870807648e+00 4.828559117391705513e+00 9.553243345581563517e-02
9.789779789745807648e+00 4.929267125204205513e+00 1.002321404870656352e-01
9.858749516308307648e+00 5.032538609579205513e+00 1.050539178308156352e-01
9.929062016308307648e+00 5.137763218954205513e+00 1.099672479089406352e-01
1.000096143037080765e+01 5.245307164266705513e+00 1.149873895105031352e-01
1.007469189912080765e+01 5.355780797079205513e+00 1.201448602136281352e-01
1.014988721162080765e+01 5.468329625204205513e+00 1.254091424401906352e-01
9.614975102245807648e+00 4.719794468954205513e+00 1.269045037683156352e-01
9.680038578808307648e+00 4.817816929891705513e+00 1.318636102136281352e-01
9.746444828808307648e+00 4.917792515829205513e+00 1.369447869714406352e-01
9.814560063183307648e+00 5.020453648641705513e+00 1.421327752526906352e-01
9.883896000683307648e+00 5.124945836141705513e+00 1.474428338464406352e-01
9.962997563183307648e+00 5.234076695516705513e+00 1.531496209558156352e-01
1.004820264130830765e+01 5.347357945516705513e+00 1.591768426355031352e-01
1.013536084443330765e+01 5.463080601766705513e+00 1.653413934167531352e-01
9.620468266308307648e+00 4.720038609579205513e+00 1.645631951745656352e-01
9.696640141308307648e+00 4.820624547079205513e+00 1.703767938073781352e-01
9.774643070995807648e+00 4.923651890829205513e+00 1.763429803308156352e-01
9.854843266308307648e+00 5.029608922079205513e+00 1.824617547448781352e-01
9.936874516308307648e+00 5.137763218954205513e+00 1.887331170495656352e-01
1.002098096162080765e+01 5.248847203329205513e+00 1.951570672448781352e-01
1.010752881318330765e+01 5.363105015829205513e+00 2.017641229089406352e-01
1.019602978974580765e+01 5.480048375204205513e+00 2.085237664636281352e-01
9.672714360058307648e+00 4.730536656454205513e+00 2.041750115808156352e-01
9.750106938183307648e+00 4.831855015829205513e+00 2.105074090417531352e-01
9.829330570995807648e+00 4.935736851766705513e+00 2.170076531823781352e-01
1.521275342255830765e+01 6.371527867391705513e+00 4.647798699792531352e-01
1.476817334443330765e+01 6.399115758016705513e+00 4.493532342370656352e-01
6.598851025849580765e+01 2.046808548457920551e+01 2.820782677596440635e+00
1.514646924287080765e+01 6.786689000204205513e+00 4.766359490808156352e-01
6.659056103974580765e+01 2.203107376582920551e+01 2.896832482283940635e+00
2.663597119599580765e+01 8.443671422079205513e+00 1.074887291854253135e+00
2.690464795380830765e+01 8.766303258016705513e+00 1.097470299666753135e+00
1.538401807099580765e+01 6.267523961141705513e+00 5.322542352136281352e-01
1.486790478974580765e+01 6.283515172079205513e+00 5.115175408776906352e-01
1.476255811005830765e+01 6.396064000204205513e+00 5.111665887292531352e-01
1.555845654755830765e+01 6.752143101766705513e+00 5.567140740808156352e-01
1.536851514130830765e+01 6.847968297079205513e+00 5.526247186120656352e-01
6.709568799287080765e+01 2.217182083614170551e+01 3.235058800643315635e+00
1.552915967255830765e+01 6.010077672079205513e+00 5.945558709558156352e-01
1.546189893037080765e+01 6.139594273641705513e+00 5.962343377526906352e-01
1.535191357880830765e+01 6.258124547079205513e+00 5.955476922448781352e-01
2.695249951630830765e+01 9.308051304891705513e+00 1.238507286971440635e+00
7.086570752412080765e+01 2.103949661739170551e+01 3.679165856307378135e+00
1.557957471162080765e+01 6.756293492391705513e+00 6.242799920495656352e-01
3.583897412568330765e+01 1.262897415645420551e+01 1.767209069198003135e+00
8.404026807099580765e+01 2.713373489864170551e+01 4.506039635604253135e+00
2.689720166474580765e+01 8.494574742391705513e+00 1.325329796737065635e+00
2.767906201630830765e+01 8.937689976766705513e+00 1.380749718612065635e+00
3.258836377412080765e+01 1.038776321895420551e+01 1.682217614119878135e+00
9.030003369599580765e+01 2.516034622676670551e+01 5.140042321151128135e+00
8.278196728974580765e+01 2.414044876582920551e+01 4.723874108260503135e+00
8.293650830537080765e+01 2.504865189082920551e+01 4.766049401229253135e+00
3.582762158662080765e+01 1.262177200801670551e+01 1.929562584823003135e+00
8.068980420380830765e+01 2.614215775020420551e+01 4.696713463729253135e+00
2.668186963349580765e+01 8.444403843954205513e+00 1.430264489119878135e+00
3.250364697724580765e+01 1.003961868770420551e+01 1.810971276229253135e+00
3.257579053193330765e+01 1.038104935176670551e+01 1.828244225448003135e+00
8.398289502412080765e+01 2.356940384395420551e+01 5.154889122908940635e+00
8.405857861787080765e+01 2.446381302364170551e+01 5.193951622908940635e+00
8.337852490693330765e+01 2.515912552364170551e+01 5.183911339705815635e+00
3.584764111787080765e+01 1.262348099239170551e+01 2.094769494002690635e+00
3.593223584443330765e+01 1.301703567989170551e+01 2.114758507674565635e+00
2.664854443818330765e+01 8.434149937704205513e+00 1.546185509627690635e+00
2.691746533662080765e+01 8.757025914266705513e+00 1.574444786971440635e+00
3.256321728974580765e+01 1.037433548457920551e+01 1.973401085799565635e+00
8.347459424287080765e+01 2.430182571895420551e+01 5.544659630721440635e+00
3.631480420380830765e+01 1.237824173457920551e+01 2.275876061385503135e+00
3.585203564912080765e+01 1.262079544551670551e+01 2.258236901229253135e+00
8.260264600068330765e+01 2.668427200801670551e+01 5.590939537948003135e+00
2.693626416474580765e+01 8.493842320516705513e+00 1.684536950057378135e+00
3.278514111787080765e+01 1.009638138301670551e+01 2.122982994979253135e+00
3.631114209443330765e+01 1.237311478145420551e+01 2.441494957869878135e+00
3.585289014130830765e+01 1.261701126582920551e+01 2.422421471541753135e+00
3.596885693818330765e+01 1.301984329707920551e+01 2.446454064315190635e+00
2.926927197724580765e+01 8.999823765829205513e+00 1.984555260604253135e+00
3.252867139130830765e+01 1.003400345332920551e+01 2.250515953963628135e+00
3.277439893037080765e+01 1.041742630489170551e+01 2.282773034041753135e+00
8.339842236787080765e+01 2.513581009395420551e+01 6.355359093612065635e+00
3.586082471162080765e+01 1.261530228145420551e+01 2.587216393416753135e+00
3.594200146943330765e+01 1.300812454707920551e+01 2.609448449080815635e+00
2.747923291474580765e+01 8.606024937704205513e+00 1.968091027205815635e+00
3.280625928193330765e+01 1.009369583614170551e+01 2.419003502791753135e+00
3.276841748505830765e+01 1.041217728145420551e+01 2.430157677596440635e+00
3.586521924287080765e+01 1.261261673457920551e+01 2.750958458846440635e+00
3.605039990693330765e+01 1.303595657832920551e+01 2.783764855330815635e+00
1.418943799287080765e+01 6.667304234579205513e+00 -2.221097784582468648e-01
1.409654248505830765e+01 6.774481968954205513e+00 -2.187223272863718648e-01
1.427427686005830765e+01 6.966132359579205513e+00 -2.170896368566843648e-01
1.433946240693330765e+01 7.126288609579205513e+00 -2.147855597082468648e-01
1.059104932099580765e+01 5.997016148641705513e+00 -1.938962774816843648e-01
1.419371045380830765e+01 7.356147008016705513e+00 -2.087888556066843648e-01
1.405638135224580765e+01 7.447211461141705513e+00 -2.055234747473093648e-01
1.391197217255830765e+01 7.533026890829205513e+00 -2.025785284582468648e-01
1.372764600068330765e+01 6.529730992391705513e+00 -1.617307501379343648e-01
1.388609326630830765e+01 6.708808140829205513e+00 -1.591825323644968648e-01
1.399449170380830765e+01 6.876166539266705513e+00 -1.562070684973093648e-01
1.386936963349580765e+01 6.971015172079205513e+00 -1.533994513098093648e-01
1.059153760224580765e+01 5.996161656454205513e+00 -1.506223517004343648e-01
1.422337353974580765e+01 7.365180211141705513e+00 -1.478147345129343648e-01
1.403245557099580765e+01 7.437323765829205513e+00 -1.453428106848093648e-01
1.439158643037080765e+01 7.710272984579205513e+00 -1.422605352941843648e-01
1.412693799287080765e+01 6.646064000204205513e+00 -1.024350958410593648e-01
1.381736768037080765e+01 6.686347203329205513e+00 -1.007566290441843648e-01
1.397886670380830765e+01 6.869940953329205513e+00 -9.715555482543436483e-02
1.387644971162080765e+01 6.971991734579205513e+00 -9.466837220824686483e-02
1.059214795380830765e+01 5.995429234579205513e+00 -1.075620489660593648e-01
1.411729443818330765e+01 7.326728062704205513e+00 -8.752725892699686483e-02
1.401792920380830765e+01 7.430731968954205513e+00 -8.500955873168436483e-02
1.441539014130830765e+01 7.717719273641705513e+00 -7.976053529418436483e-02
1.391258252412080765e+01 6.581488804891705513e+00 -4.490946107543436483e-02
1.453428662568330765e+01 6.903876500204205513e+00 -3.596781068480936483e-02
1.384776318818330765e+01 6.827094273641705513e+00 -3.898905091918436483e-02
1.048484814912080765e+01 5.860785679891705513e+00 -6.756876283324686483e-02
1.057188428193330765e+01 5.987616734579205513e+00 -6.445596986449686483e-02
1.066123975068330765e+01 6.117743687704205513e+00 -6.125162416137186483e-02
1.081602490693330765e+01 6.274604039266705513e+00 -5.733011537230936483e-02
1.095323193818330765e+01 6.428656773641705513e+00 -5.372904115355936483e-02
1.017747510224580765e+01 5.480658726766705513e+00 -3.641031556762186483e-02
1.025682080537080765e+01 5.596991734579205513e+00 -3.303812318480936483e-02
1.033799756318330765e+01 5.716254429891705513e+00 -2.958963685668436483e-02
1.042173779755830765e+01 5.839179234579205513e+00 -2.603433900512186483e-02
1.050730908662080765e+01 5.964789586141705513e+00 -2.240274720824686483e-02
1.059519971162080765e+01 6.093695836141705513e+00 -1.866434388793436483e-02
1.073252881318330765e+01 6.243476109579205513e+00 -1.411722474730936483e-02
1.086643994599580765e+01 6.395453648641705513e+00 -9.524329239496864830e-03
1.012168896943330765e+01 5.463324742391705513e+00 3.140465682378135170e-03
1.020726025849580765e+01 5.581000523641705513e+00 7.336632674565635170e-03
1.029502881318330765e+01 5.701728062704205513e+00 1.142598814331563517e-02
