8.665958650410175323e+00 3.497621158137917519e+00 1.231981586664971928e-01
8.780582673847675323e+00 3.576356509700417519e+00 1.300951313227471928e-01
7.797184236347675323e+00 3.071473697200417519e+00 1.046587299555596928e-01
8.311954744160175323e+00 3.142518619075417519e+00 1.284776996821221928e-01
8.297428376972675323e+00 3.207704165950417519e+00 1.299272846430596928e-01
8.640934236347675323e+00 3.287416080012917519e+00 1.469103168696221928e-01
8.683780916035175323e+00 3.358583072200417519e+00 1.511217426508721928e-01
8.669376619160175323e+00 3.427186587825417519e+00 1.528612446039971928e-01
8.610782869160175323e+00 3.492738345637917519e+00 1.528307270258721928e-01
8.752140291035175323e+00 3.572938540950417519e+00 1.614366840571221928e-01
7.764469392597675323e+00 3.070252994075417519e+00 1.309496235102471928e-01
8.307316072285175323e+00 3.141419986262917519e+00 1.584459614008721928e-01
8.309757478535175323e+00 3.207093814387917519e+00 1.608110737055596928e-01
8.676822908222675323e+00 3.287904361262917519e+00 1.805254291743096928e-01
8.720279939472675323e+00 3.359437564387917519e+00 1.849809955805596928e-01
8.764225251972675323e+00 3.431947330012917519e+00 1.894975971430596928e-01
8.808902986347675323e+00 3.505677798762917519e+00 1.941057514399346928e-01
8.854191072285175323e+00 3.580262759700417519e+00 1.987444233149346928e-01
8.433902986347675323e+00 3.076356509700417519e+00 1.930071186274346928e-01
8.375553376972675323e+00 3.141908267512917519e+00 1.921526264399346928e-01
8.318180330097675323e+00 3.206361392512917519e+00 1.914659809321221928e-01
8.725162751972675323e+00 3.288758853450417519e+00 2.149492572993096928e-01
9.383610017597675323e+00 3.391786197200417519e+00 2.519213031977471928e-01
9.801822908222675323e+00 3.493592837825417519e+00 2.766558002680596928e-01
9.004825837910175323e+00 3.518495181575417519e+00 2.370745014399346928e-01
9.209659822285175323e+00 3.607850650325417519e+00 2.507463764399346928e-01
8.290714509785175323e+00 3.073793033137917519e+00 2.157884906977471928e-01
8.298160798847675323e+00 3.139344790950417519e+00 2.184740375727471928e-01
8.305485017597675323e+00 3.205018619075417519e+00 2.211595844477471928e-01
8.313053376972675323e+00 3.271180728450417519e+00 2.238756489008721928e-01
8.896671541035175323e+00 3.366273501887917519e+00 2.594896625727471928e-01
9.351627595722675323e+00 3.465272525325417519e+00 2.881304096430596928e-01
8.980167634785175323e+00 3.515687564387917519e+00 2.693010639399346928e-01
2.994525552541017532e+01 5.273011783137917519e+00 1.491011269018059693e+00
8.286197908222675323e+00 3.072816470637917519e+00 2.457872699946221928e-01
8.293522126972675323e+00 3.138246158137917519e+00 2.483507465571221928e-01
8.300968416035175323e+00 3.203919986262917519e+00 2.510973285883721928e-01
9.017399080097675323e+00 3.298402408137917519e+00 2.973467182368096928e-01
9.393619783222675323e+00 3.390077212825417519e+00 3.231188129633721928e-01
9.355900056660175323e+00 3.464418033137917519e+00 3.234545063227471928e-01
8.946842439472675323e+00 3.512269595637917519e+00 3.005968403071221928e-01
2.979193521291017532e+01 5.256654361262917519e+00 1.612043983861809693e+00
8.281559236347675323e+00 3.071717837825417519e+00 2.755876850336846928e-01
8.411930330097675323e+00 3.139588931575417519e+00 2.863756489008721928e-01
1.451776529103517532e+01 3.389344790950417519e+00 6.894670795649346928e-01
9.036686189472675323e+00 3.298158267512917519e+00 3.323046039789971928e-01
9.441349275410175323e+00 3.391297915950417519e+00 3.617235492914971928e-01
9.361271150410175323e+00 3.463685611262917519e+00 3.590837787836846928e-01
9.324039705097675323e+00 3.537660220637917519e+00 3.592821430414971928e-01
3.084418130666017532e+01 5.336854556575417519e+00 1.812254555150872193e+00
8.277042634785175323e+00 3.070619205012917519e+00 3.055101703852471928e-01
8.409610994160175323e+00 3.138490298762917519e+00 3.170763324946221928e-01
2.763202310353517532e+01 3.778749087825417519e+00 1.669233925268059693e+00
2.740692544728517532e+01 4.029237369075417519e+00 1.662535316869622193e+00
9.103824861347675323e+00 3.373353580012917519e+00 3.732591938227471928e-01
2.695282388478517532e+01 4.515443423762917519e+00 1.648344643041497193e+00
9.329044587910175323e+00 3.536927798762917519e+00 3.948046039789971928e-01
9.844220376759767532e+01 1.073553619720041752e+01 6.815977699682122193e+00
8.440128572285175323e+00 3.071229556575417519e+00 3.478380512446221928e-01
8.389103181660175323e+00 3.137147525325417519e+00 3.462511371821221928e-01
1.456891275197267532e+01 3.387025455012917519e+00 8.112016987055596928e-01
1.445013833791017532e+01 3.510926822200417519e+00 8.068376850336846928e-01
2.750653482228517532e+01 4.286927798762917519e+00 1.797987587377434693e+00
9.373722322285175323e+00 3.462098697200417519e+00 4.304796528071221928e-01
9.335148103535175323e+00 3.536195376887917519e+00 4.302812885493096928e-01
2.787274575978517532e+01 5.091371158137917519e+00 1.854307777807122193e+00
8.600895173847675323e+00 3.572816470637917519e+00 -2.251142192631903072e-01
8.508121736347675323e+00 3.632997134700417519e+00 -2.219861675053778072e-01
8.412662751972675323e+00 3.691224673762917519e+00 -2.190564800053778072e-01
8.309147126972675323e+00 3.747010806575417519e+00 -2.160962749272528072e-01
8.802067048847675323e+00 3.873841861262917519e+00 -2.190564800053778072e-01
8.777652986347675323e+00 3.942079165950417519e+00 -2.167829204350653072e-01
9.177677400410175323e+00 4.070985415950417519e+00 -2.184461284428778072e-01
8.638981111347675323e+00 4.064027408137917519e+00 -2.116407085210028072e-01
8.591739900410175323e+00 3.571107486262917519e+00 -1.933759380131903072e-01
8.502628572285175323e+00 3.631532290950417519e+00 -1.908429790288153072e-01
8.853946931660175323e+00 3.735536197200417519e+00 -1.907361675053778072e-01
8.306949861347675323e+00 3.745912173762917519e+00 -1.856397319585028072e-01
9.031070955097675323e+00 3.900941470637917519e+00 -1.874860454350653072e-01
8.796940095722675323e+00 3.943666080012917519e+00 -1.841901469975653072e-01
8.789005525410175323e+00 4.014466861262917519e+00 -1.822522807866278072e-01
9.940616853535175323e+00 4.262391665950417519e+00 -1.851514507085028072e-01
8.586124666035175323e+00 3.569642642512917519e+00 -1.617139507085028072e-01
8.497013337910175323e+00 3.630067447200417519e+00 -1.595624614506903072e-01
8.872257478535175323e+00 3.736390689387917519e+00 -1.579908061772528072e-01
8.303287751972675323e+00 3.744569400325417519e+00 -1.553662944585028072e-01
9.013492830097675323e+00 3.897767642512917519e+00 -1.538251567631903072e-01
8.816227205097675323e+00 3.945252994075417519e+00 -1.515973735600653072e-01
8.471622712910175323e+00 3.968080142512917519e+00 -1.494764018803778072e-01
9.431217439472675323e+00 4.183412173762917519e+00 -1.471418071538153072e-01
8.580387361347675323e+00 3.568177798762917519e+00 -1.302808452397528072e-01
8.490421541035175323e+00 3.628480533137917519e+00 -1.283277202397528072e-01
8.393375642597675323e+00 3.686463931575417519e+00 -1.266187358647528072e-01
8.892765291035175323e+00 3.809754947200417519e+00 -1.227277446538153072e-01
8.894840486347675323e+00 3.882264712825417519e+00 -1.205457378178778072e-01
9.013004548847675323e+00 3.970399478450417519e+00 -1.178449321538153072e-01
9.107853181660175323e+00 4.058045962825417519e+00 -1.151746440678778072e-01
9.116398103535175323e+00 4.134217837825417519e+00 -1.130689311772528072e-01
8.571842439472675323e+00 3.566468814387917519e+00 -9.872566945850280717e-02
8.483463533222675323e+00 3.626893619075417519e+00 -9.732186086475280717e-02
8.905582673847675323e+00 3.737733462825417519e+00 -9.184395559131530717e-02
8.911319978535175323e+00 3.810853580012917519e+00 -8.958565481006530717e-02
9.048038728535175323e+00 3.900086978450417519e+00 -8.618294484912780717e-02
9.078312166035175323e+00 3.978089908137917519e+00 -8.363472707569030717e-02
9.057926423847675323e+00 4.049867251887917519e+00 -8.154427297412780717e-02
8.355045564472675323e+00 4.017030337825417519e+00 -8.601509816944030717e-02
8.834537751972675323e+00 3.586976626887917519e+00 -6.416451223194030717e-02
8.797672517597675323e+00 3.654847720637917519e+00 -6.222664602100280717e-02
8.379703767597675323e+00 3.683168033137917519e+00 -6.532418020069030717e-02
8.929996736347675323e+00 3.811952212825417519e+00 -5.607735402881530717e-02
8.996525056660175323e+00 3.892762759700417519e+00 -5.293404348194030717e-02
9.062198884785175323e+00 3.974916080012917519e+00 -4.974495656787780717e-02
9.117618806660175323e+00 4.057313540950417519e+00 -4.664742238819030717e-02
9.173893220722675323e+00 4.141053775325417519e+00 -4.368721731006530717e-02
8.550235994160175323e+00 3.562806705012917519e+00 -3.610359914600280717e-02
8.783634431660175323e+00 3.652528384700417519e+00 -2.996956594287780717e-02
8.368473298847675323e+00 3.681092837825417519e+00 -3.489815481006530717e-02
8.917057283222675323e+00 3.809510806575417519e+00 -2.311836965381530717e-02
8.957950837910175323e+00 3.887025455012917519e+00 -2.009712941944030717e-02
9.019474275410175323e+00 3.968202212825417519e+00 -1.664864309131530717e-02
9.075016267597675323e+00 4.050355533137917519e+00 -1.327645070850280717e-02
9.136661775410175323e+00 4.134339908137917519e+00 -9.736411646002807174e-03
8.550724275410175323e+00 3.561830142512917519e+00 -4.762046411627807174e-03
8.402530916035175323e+00 3.616639712825417519e+00 -5.753867700690307174e-03
8.861271150410175323e+00 3.730287173762917519e+00 6.621010228997192826e-03
8.933536775410175323e+00 3.810365298762917519e+00 1.055777780712219283e-02
8.978946931660175323e+00 3.888612369075417519e+00 1.391471140087219283e-02
9.049991853535175323e+00 3.971253970637917519e+00 1.791251413524719283e-02
9.111149080097675323e+00 4.054505923762917519e+00 2.154410593212219283e-02
9.173404939472675323e+00 4.138978580012917519e+00 2.541983835399719283e-02
8.551090486347675323e+00 3.560853580012917519e+00 2.676261179149719283e-02
8.875309236347675323e+00 3.658876040950417519e+00 3.748954050243469283e-02
8.846012361347675323e+00 3.727723697200417519e+00 3.906119577587219283e-02
8.931095369160175323e+00 3.809022525325417519e+00 4.369986765087219283e-02
9.011173494160175323e+00 3.891542056575417519e+00 4.826224558055969283e-02
9.085636384785175323e+00 3.975038150325417519e+00 5.271781198680969283e-02
9.147648103535175323e+00 4.058656314387917519e+00 5.689872018993469283e-02
9.210636384785175323e+00 4.143617251887917519e+00 6.114066354930969283e-02
8.551578767597675323e+00 3.559999087825417519e+00 5.811942331493469283e-02
8.494938142597675323e+00 3.623109439387917519e+00 5.865348093212219283e-02
8.830753572285175323e+00 3.725160220637917519e+00 7.136405222118469283e-02
8.915470369160175323e+00 3.806336978450417519e+00 7.642997018993469283e-02
9.001896150410175323e+00 3.889344790950417519e+00 8.158744089305969283e-02
9.066715486347675323e+00 3.971498111262917519e+00 8.611930124462219283e-02
9.121402986347675323e+00 4.053895572200417519e+00 9.037650339305969283e-02
9.176822908222675323e+00 4.137513736262917519e+00 9.469474069774719283e-02
8.552067048847675323e+00 3.559022525325417519e+00 8.965934030712219283e-02
8.495426423847675323e+00 3.622254947200417519e+00 8.996451608837219283e-02
8.815494783222675323e+00 3.722596744075417519e+00 1.037126850336846928e-01
8.929264314472675323e+00 3.806825259700417519e+00 1.102587055414971928e-01
8.969791658222675323e+00 3.884461978450417519e+00 1.141802143305596928e-01
9.031193025410175323e+00 3.965760806575417519e+00 1.189256977289971928e-01
9.085270173847675323e+00 4.047792056575417519e+00 1.234422992914971928e-01
9.140079744160175323e+00 4.130921939387917519e+00 1.280351947993096928e-01
8.780948884785175323e+00 3.576600650325417519e+00 1.301256489008721928e-01
8.824161775410175323e+00 3.651185611262917519e+00 1.342760395258721928e-01
8.869694001972675323e+00 3.727113345637917519e+00 1.385637592524346928e-01
8.916080720722675323e+00 3.804383853450417519e+00 1.429430317133721928e-01
8.963077791035175323e+00 3.882630923762917519e+00 1.473680805414971928e-01
9.034610994160175323e+00 3.965272525325417519e+00 1.528307270258721928e-01
9.098087556660175323e+00 4.048646548762917519e+00 1.580492328852471928e-01
9.162784822285175323e+00 4.133363345637917519e+00 1.633440326899346928e-01
8.752872712910175323e+00 3.573304751887917519e+00 1.614824604243096928e-01
8.862125642597675323e+00 3.653627017512917519e+00 1.688219379633721928e-01
8.908024080097675323e+00 3.729920962825417519e+00 1.732164692133721928e-01
8.955021150410175323e+00 3.807679751887917519e+00 1.778703998774346928e-01
9.002628572285175323e+00 3.886415103450417519e+00 1.825853656977471928e-01
9.078556306660175323e+00 3.970033267512917519e+00 1.886583637446221928e-01
9.143253572285175323e+00 4.054017642512917519e+00 1.944567035883721928e-01
9.208683259785175323e+00 4.139344790950417519e+00 2.001482319086846928e-01
8.854435212910175323e+00 3.580506900325417519e+00 1.987596821039971928e-01
8.900455720722675323e+00 3.656068423762917519e+00 2.035662006586846928e-01
8.947086580097675323e+00 3.732850650325417519e+00 2.084337543696221928e-01
9.742374666035175323e+00 3.893983462825417519e+00 2.507768940180596928e-01
2.257721353322267532e+01 5.527772525325417519e+00 8.998400043696221928e-01
2.755279947072267532e+01 6.391175845637917519e+00 1.159620888158684693e+00
1.565069986134767532e+01 4.972474673762917519e+00 5.611254047602471928e-01
1.450934243947267532e+01 4.941224673762917519e+00 5.074449848383721928e-01
9.209049470722675323e+00 3.607972720637917519e+00 2.507158588618096928e-01
9.062931306660175323e+00 3.669740298762917519e+00 2.453600239008721928e-01
9.144596345722675323e+00 3.751771548762917519e+00 2.524401020258721928e-01
9.291691072285175323e+00 3.842958072200417519e+00 2.631670307368096928e-01
2.243780923634767532e+01 5.507997134700417519e+00 9.886003803461846928e-01
2.738849283009767532e+01 6.366151431575417519e+00 1.270109779760247193e+00
1.563275552541017532e+01 4.968080142512917519e+00 6.246630024164971928e-01
2.765497232228517532e+01 6.928895572200417519e+00 1.304487831518059693e+00
2.994330240041017532e+01 5.273744205012917519e+00 1.490919716283684693e+00
9.160465486347675323e+00 3.677552798762917519e+00 2.850481342524346928e-01
9.102115876972675323e+00 3.746400455012917519e+00 2.843309711664971928e-01
9.096622712910175323e+00 3.820375064387917519e+00 2.867266010493096928e-01
2.236139322072267532e+01 5.495912173762917519e+00 1.080366737768059693e+00
2.718878579884767532e+01 6.336488345637917519e+00 1.377623207494622193e+00
2.755768228322267532e+01 6.647889712825417519e+00 1.409361488744622193e+00
2.729291177541017532e+01 6.870668033137917519e+00 1.402876503393059693e+00
2.978998208791017532e+01 5.257386783137917519e+00 1.611952431127434693e+00
9.163151033222675323e+00 3.676698306575417519e+00 3.194719623774346928e-01
9.060367830097675323e+00 3.741151431575417519e+00 3.157183002680596928e-01
9.099308259785175323e+00 3.819642642512917519e+00 3.209520649164971928e-01
2.251727700978517532e+01 5.511903384700417519e+00 1.185866005346184693e+00
2.792523599416017532e+01 6.429261783137917519e+00 1.543181068822747193e+00
2.773077798634767532e+01 6.668763736262917519e+00 1.540434486791497193e+00
2.762164712697267532e+01 6.916810611262917519e+00 1.543745644018059693e+00
3.084430337697267532e+01 5.337831119075417519e+00 1.812300331518059693e+00
9.166080720722675323e+00 3.675965884700417519e+00 3.541246723383721928e-01
2.249615884572267532e+01 5.086488345637917519e+00 1.265364296361809693e+00
2.241913247853517532e+01 5.288026431575417519e+00 1.267988808080559693e+00
2.249725747853517532e+01 5.506532290950417519e+00 1.281233436986809693e+00
2.787555337697267532e+01 6.419129947200417519e+00 1.661802894994622193e+00
2.731903482228517532e+01 6.607240298762917519e+00 1.633040077611809693e+00
2.971405435353517532e+01 7.229188540950417519e+00 1.810606605932122193e+00
9.844806314259767532e+01 1.073932037688791752e+01 6.816527016088372193e+00
9.168888337910175323e+00 3.675111392512917519e+00 3.888231586664971928e-01
2.245550943166017532e+01 5.079408267512917519e+00 1.358336098119622193e+00
2.228497720509767532e+01 5.270326236262917519e+00 1.353865272924309693e+00
2.249652505666017532e+01 5.503602603450417519e+00 1.377348549291497193e+00
3.099933267384767532e+01 6.822938540950417519e+00 2.013945228978997193e+00
2.761664224416017532e+01 6.645570376887917519e+00 1.774580604955559693e+00
2.718964029103517532e+01 6.844667056575417519e+00 1.752714760228997193e+00
2.787262368947267532e+01 5.092347720637917519e+00 1.854323036596184693e+00
9.171695955097675323e+00 3.674378970637917519e+00 4.233537983149346928e-01
2.253119302541017532e+01 5.084046939387917519e+00 1.460478432103997193e+00
2.241937661916017532e+01 5.282289126887917519e+00 1.459929115697747193e+00
2.256183267384767532e+01 5.508607486262917519e+00 1.479155189916497193e+00
3.091217447072267532e+01 6.807557681575417519e+00 2.143568642064934693e+00
2.730633950978517532e+01 6.598451236262917519e+00 1.870253212377434693e+00
1.854840493947267532e+01 5.539369205012917519e+00 1.185560829564934693e+00
8.639225251972675323e+00 4.064393619075417519e+00 -2.116254497319403072e-01
9.190983064472675323e+00 4.224916080012917519e+00 -2.144635844975653072e-01
9.843082673847675323e+00 4.414491275325417519e+00 -2.180341411381903072e-01
9.282413728535175323e+00 4.394837955012917519e+00 -2.113202739506903072e-01
9.365909822285175323e+00 4.488832095637917519e+00 -2.099927593022528072e-01
1.364886880666017532e+01 5.444276431575417519e+00 -2.407544780522528072e-01
1.318402505666017532e+01 5.468446353450417519e+00 -2.341626811772528072e-01
1.391193033009767532e+01 5.751893619075417519e+00 -2.366040874272528072e-01
9.940860994160175323e+00 4.262757876887917519e+00 -1.851514507085028072e-01
8.651798494160175323e+00 4.135804751887917519e+00 -1.777204204350653072e-01
9.174503572285175323e+00 4.297303775325417519e+00 -1.776441264897528072e-01
9.203068025410175323e+00 4.379212955012917519e+00 -1.757367778569403072e-01
1.326202798634767532e+01 5.244325259700417519e+00 -1.867993999272528072e-01
1.322736001759767532e+01 5.356507876887917519e+00 -1.835645366460028072e-01
1.365179849416017532e+01 5.567445376887917519e+00 -1.818555522710028072e-01
1.365582681447267532e+01 5.692689517512917519e+00 -1.785901714116278072e-01
9.430851228535175323e+00 4.183656314387917519e+00 -1.471265483647528072e-01
9.298771150410175323e+00 4.240541080012917519e+00 -1.450818706303778072e-01
9.254093416035175323e+00 4.310121158137917519e+00 -1.430219341069403072e-01
9.191959626972675323e+00 4.376283267512917519e+00 -1.409925151616278072e-01
1.322345376759767532e+01 5.235292056575417519e+00 -1.331037212163153072e-01
1.319269204884767532e+01 5.347962955012917519e+00 -1.299298930913153072e-01
1.365289712697267532e+01 5.566224673762917519e+00 -1.257642436772528072e-01
1.428461099416017532e+01 5.832704165950417519e+00 -1.209577251225653072e-01
9.116520173847675323e+00 4.134461978450417519e+00 -1.130536723881903072e-01
1.394366861134767532e+01 4.996766665950417519e+00 -8.537422902881530717e-02
9.264225251972675323e+00 4.310975650325417519e+00 -1.078351665288153072e-01
9.223331697285175323e+00 4.381044009700417519e+00 -1.058973003178778072e-01
1.318866372853517532e+01 5.227113345637917519e+00 -7.945381887256530717e-02
1.381427408009767532e+01 5.473451236262917519e+00 -7.211434133350280717e-02
1.365411783009767532e+01 5.565003970637917519e+00 -6.965767629444030717e-02
1.376031900197267532e+01 5.713197330012917519e+00 -6.573616750537780717e-02
8.357242830097675323e+00 4.017518619075417519e+00 -8.598458059131530717e-02
9.277164705097675323e+00 4.234925845637917519e+00 -7.493721731006530717e-02
9.274479158222675323e+00 4.311708072200417519e+00 -7.272469289600280717e-02
9.397037751972675323e+00 4.411927798762917519e+00 -6.919991262256530717e-02
9.458561189472675323e+00 4.502870181575417519e+00 -6.625496633350280717e-02
9.521427400410175323e+00 4.595643619075417519e+00 -6.324898488819030717e-02
9.585758455097675323e+00 4.690614322200417519e+00 -6.018196828662780717e-02
9.651188142597675323e+00 4.787294009700417519e+00 -5.705391652881530717e-02
9.174381501972675323e+00 4.141297915950417519e+00 -4.367195852100280717e-02
9.231510408222675323e+00 4.226502994075417519e+00 -4.040657766162780717e-02
9.284733064472675323e+00 4.312440494075417519e+00 -3.733956106006530717e-02
9.349674470722675323e+00 4.402284244075417519e+00 -3.404366262256530717e-02
9.410465486347675323e+00 4.492494205012917519e+00 -3.076302297412780717e-02
9.472477205097675323e+00 4.584657290950417519e+00 -2.742134816944030717e-02
9.535831697285175323e+00 4.678895572200417519e+00 -2.400337941944030717e-02
9.600651033222675323e+00 4.774842837825417519e+00 -2.072273977100280717e-02
9.137150056660175323e+00 4.134706119075417519e+00 -9.721152856940307174e-03
9.200016267597675323e+00 4.220399478450417519e+00 -6.211631372565307174e-03
9.264103181660175323e+00 4.307923892512917519e+00 -2.625815942877807174e-03
9.329777009785175323e+00 4.397523501887917519e+00 1.051552221184692826e-03
9.396671541035175323e+00 4.488832095637917519e+00 4.789955541497192826e-03
9.464908845722675323e+00 4.582093814387917519e+00 8.619911596184692826e-03
9.534977205097675323e+00 4.677796939387917519e+00 1.254142038524719283e-02
9.606388337910175323e+00 4.775209048762917519e+00 1.652396433055969283e-02
9.173893220722675323e+00 4.139222720637917519e+00 2.545035593212219283e-02
9.237369783222675323e+00 4.225526431575417519e+00 2.934134714305969283e-02
9.302433259785175323e+00 4.313539126887917519e+00 3.352225534618469283e-02
9.368839509785175323e+00 4.403749087825417519e+00 3.759635202587219283e-02
9.436466462910175323e+00 4.495545962825417519e+00 4.174674265087219283e-02
9.505558259785175323e+00 4.589418033137917519e+00 4.600394479930969283e-02
9.576236970722675323e+00 4.685609439387917519e+00 5.015433542430969283e-02
9.648502595722675323e+00 4.783631900325417519e+00 5.457938425243469283e-02
9.211124666035175323e+00 4.143983462825417519e+00 6.117118112743469283e-02
9.271183259785175323e+00 4.229920962825417519e+00 6.533683054149719283e-02
9.329288728535175323e+00 4.317201236262917519e+00 6.950247995555969283e-02
9.388736970722675323e+00 4.406434634700417519e+00 7.377494089305969283e-02
9.449161775410175323e+00 4.497010806575417519e+00 7.810843698680969283e-02
9.510807283222675323e+00 4.589418033137917519e+00 8.251822702587219283e-02
9.573917634785175323e+00 4.684144595637917519e+00 8.703482858837219283e-02
9.638004548847675323e+00 4.780336001887917519e+00 9.164298288524719283e-02
9.177189119160175323e+00 4.137757876887917519e+00 9.472525827587219283e-02
9.233585603535175323e+00 4.222840884700417519e+00 9.910453073680969283e-02
9.291080720722675323e+00 4.309632876887917519e+00 1.035753559321221928e-01
9.349918611347675323e+00 4.398255923762917519e+00 1.081529926508721928e-01
9.409733064472675323e+00 4.488465884700417519e+00 1.127916645258721928e-01
9.470646150410175323e+00 4.580262759700417519e+00 1.175371479243096928e-01
9.533024080097675323e+00 4.674378970637917519e+00 1.223741840571221928e-01
9.596378572285175323e+00 4.769960025325417519e+00 1.273027729243096928e-01
9.140445955097675323e+00 4.131166080012917519e+00 1.280504535883721928e-01
9.196232087910175323e+00 4.215760806575417519e+00 1.327349018305596928e-01
9.253116853535175323e+00 4.302064517512917519e+00 1.374956440180596928e-01
9.317936189472675323e+00 4.391419986262917519e+00 1.426378559321221928e-01
9.387516267597675323e+00 4.483094790950417519e+00 1.479936908930596928e-01
9.458561189472675323e+00 4.576844790950417519e+00 1.534715961664971928e-01
9.531437166035175323e+00 4.673036197200417519e+00 1.591020893305596928e-01
9.605777986347675323e+00 4.771058658137917519e+00 1.648393940180596928e-01
9.163273103535175323e+00 4.133607486262917519e+00 1.633745502680596928e-01
9.229313142597675323e+00 4.220155337825417519e+00 1.688219379633721928e-01
9.296695955097675323e+00 4.308534244075417519e+00 1.743761371821221928e-01
9.365909822285175323e+00 4.399232486262917519e+00 1.800829242914971928e-01
9.436344392597675323e+00 4.491517642512917519e+00 1.858965229243096928e-01
9.508487947285175323e+00 4.586000064387917519e+00 1.918474506586846928e-01
9.582462556660175323e+00 4.682923892512917519e+00 1.979509662836846928e-01
9.657902009785175323e+00 4.781678775325417519e+00 2.041612934321221928e-01
9.209171541035175323e+00 4.139588931575417519e+00 2.001787494868096928e-01
9.276188142597675323e+00 4.226747134700417519e+00 2.060686420649346928e-01
9.344303376972675323e+00 4.315736392512917519e+00 2.118669819086846928e-01
1.485504556447267532e+01 5.399476626887917519e+00 4.784227680414971928e-01
1.487933755666017532e+01 5.539613345637917519e+00 4.844194721430596928e-01
1.488702798634767532e+01 5.677308658137917519e+00 4.896532367914971928e-01
1.502667642384767532e+01 5.844300845637917519e+00 5.017229389399346928e-01
1.555133462697267532e+01 6.100648501887917519e+00 5.325762104243096928e-01
1.451056314259767532e+01 4.941835025325417519e+00 5.075365375727471928e-01
1.454864908009767532e+01 5.078309634700417519e+00 5.142656635493096928e-01
1.543085122853517532e+01 5.361390689387917519e+00 5.650926899164971928e-01
1.484100747853517532e+01 5.395204165950417519e+00 5.392595600336846928e-01
1.486529947072267532e+01 5.535096744075417519e+00 5.454851459711846928e-01
1.510052896291017532e+01 5.718934634700417519e+00 5.630022358149346928e-01
1.498090005666017532e+01 5.832826236262917519e+00 5.616747211664971928e-01
2.642889810353517532e+01 8.533631900325417519e+00 1.185743935033684693e+00
2.765436197072267532e+01 6.929627994075417519e+00 1.304487831518059693e+00
1.830279947072267532e+01 5.683290103450417519e+00 7.858110737055596928e-01
1.511969400197267532e+01 5.306092837825417519e+00 6.112505268305596928e-01
1.491424966603517532e+01 5.406800845637917519e+00 6.046587299555596928e-01
1.482587075978517532e+01 5.525819400325417519e+00 6.046434711664971928e-01
1.525482583791017532e+01 5.748475650325417519e+00 6.345964740961846928e-01
1.533429361134767532e+01 5.906556705012917519e+00 6.445146869868096928e-01
2.646014810353517532e+01 8.537416080012917519e+00 1.304396278783684693e+00
2.729303384572267532e+01 6.871522525325417519e+00 1.402907020971184693e+00
1.517303872853517532e+01 5.175721744075417519e+00 6.719805072993096928e-01
1.507477212697267532e+01 5.296571353450417519e+00 6.712023090571221928e-01
1.486908365041017532e+01 5.396791080012917519e+00 6.637407612055596928e-01
1.478119302541017532e+01 5.515565494075417519e+00 6.634508442133721928e-01
2.675751138478517532e+01 8.078309634700417519e+00 1.419645912572747193e+00
1.527655435353517532e+01 5.892518619075417519e+00 7.050920795649346928e-01
2.646100259572267532e+01 8.534486392512917519e+00 1.420805580541497193e+00
2.762103677541017532e+01 6.917665103450417519e+00 1.543730385228997193e+00
1.834759927541017532e+01 5.686097720637917519e+00 9.433733295649346928e-01
1.503180337697267532e+01 5.287416080012917519e+00 7.305742572993096928e-01
1.842718911916017532e+01 6.042298892512917519e+00 9.620348285883721928e-01
1.559662271291017532e+01 5.670594790950417519e+00 7.791582416743096928e-01
1.527191568166017532e+01 5.748475650325417519e+00 7.628923725336846928e-01
1.507233072072267532e+01 5.847352603450417519e+00 7.548815082758721928e-01
2.745904947072267532e+01 8.754335025325417519e+00 1.605940468236809693e+00
2.971405435353517532e+01 7.230165103450417519e+00 1.810652382299309693e+00
1.835040689259767532e+01 5.684266665950417519e+00 1.021330482885247193e+00
1.829352212697267532e+01 5.844789126887917519e+00 1.024107582494622193e+00
1.852228189259767532e+01 6.057313540950417519e+00 1.047255165502434693e+00
2.955499673634767532e+01 8.349794009700417519e+00 1.845213539525872193e+00
1.527777505666017532e+01 5.747865298762917519e+00 8.271623920649346928e-01
2.688531900197267532e+01 8.360292056575417519e+00 1.674727089330559693e+00
2.672125650197267532e+01 8.586366275325417519e+00 1.673262245580559693e+00
2.719025064259767532e+01 6.845643619075417519e+00 1.752791054174309693e+00
1.835345865041017532e+01 5.682557681575417519e+00 1.099363930150872193e+00
1.821954751759767532e+01 5.829896548762917519e+00 1.095778114721184693e+00
1.831146646291017532e+01 6.016786197200417519e+00 1.109709389135247193e+00
2.782782388478517532e+01 8.014711001887917519e+00 1.843580849096184693e+00
2.714093423634767532e+01 8.146180728450417519e+00 1.801878578588372193e+00
2.748541665822267532e+01 8.484803775325417519e+00 1.839964516088372193e+00
2.922381997853517532e+01 9.141786197200417519e+00 1.985991127416497193e+00
1.854828286916017532e+01 5.539857486262917519e+00 1.185576088353997193e+00
1.835785318166017532e+01 5.680970767512917519e+00 1.177122719213372193e+00
1.830829263478517532e+01 5.842958072200417519e+00 1.180250770971184693e+00
2.553937173634767532e+01 7.326356509700417519e+00 1.770659096166497193e+00
2.814386392384767532e+01 8.071839908137917519e+00 1.992109901830559693e+00
2.823590493947267532e+01 8.364320376887917519e+00 2.011015541478997193e+00
2.668622232228517532e+01 8.311586001887917519e+00 1.895552284643059693e+00
2.910614419728517532e+01 9.112001040950417519e+00 2.106505043432122193e+00
1.391217447072267532e+01 5.752381900325417519e+00 -2.365888286381903072e-01
1.368243814259767532e+01 5.825624087825417519e+00 -2.318433452397528072e-01
1.408905435353517532e+01 6.051698306575417519e+00 -2.317212749272528072e-01
1.411346841603517532e+01 6.189149478450417519e+00 -2.289289165288153072e-01
1.404254556447267532e+01 6.301820376887917519e+00 -2.255262065678778072e-01
1.395624185353517532e+01 6.409364322200417519e+00 -2.220624614506903072e-01
1.362799478322267532e+01 6.446229556575417519e+00 -2.172254253178778072e-01
1.380121255666017532e+01 6.626771548762917519e+00 -2.155927348881903072e-01
1.365485025197267532e+01 5.692811587825417519e+00 -1.785749126225653072e-01
1.367865396291017532e+01 5.823304751887917519e+00 -1.756757427006903072e-01
1.433539224416017532e+01 6.110780337825417519e+00 -1.736615825444403072e-01
1.444086099416017532e+01 6.271669009700417519e+00 -1.706708598881903072e-01
1.405939126759767532e+01 6.304872134700417519e+00 -1.669324565678778072e-01
1.421307779103517532e+01 6.479432681575417519e+00 -1.640027690678778072e-01
1.433221841603517532e+01 6.648500064387917519e+00 -1.612409282475653072e-01
1.408380533009767532e+01 6.710023501887917519e+00 -1.578534770756903072e-01
1.428119302541017532e+01 5.832460025325417519e+00 -1.209424663335028072e-01
1.341583658009767532e+01 5.759828189387917519e+00 -1.198896098881903072e-01
1.437079263478517532e+01 6.117982486262917519e+00 -1.141523052006903072e-01
1.401361490041017532e+01 6.160462955012917519e+00 -1.119245219975653072e-01
1.413422036916017532e+01 6.323304751887917519e+00 -1.082776714116278072e-01
1.408978677541017532e+01 6.443666080012917519e+00 -1.051496196538153072e-01
1.413971353322267532e+01 6.591249087825417519e+00 -1.016553569585028072e-01
1.407855630666017532e+01 6.707093814387917519e+00 -9.858834035694030717e-02
1.375934243947267532e+01 5.713319400325417519e+00 -6.573616750537780717e-02
1.360846353322267532e+01 5.803773501887917519e+00 -6.326424367725280717e-02
1.438922525197267532e+01 6.120912173762917519e+00 -5.412422902881530717e-02
1.390533853322267532e+01 6.131166080012917519e+00 -5.441414602100280717e-02
1.443671060353517532e+01 6.402772525325417519e+00 -4.675423391162780717e-02
1.420782876759767532e+01 6.474916080012917519e+00 -4.513680227100280717e-02
1.418548990041017532e+01 6.603089908137917519e+00 -4.184090383350280717e-02
1.447662759572267532e+01 6.824891665950417519e+00 -3.605782277881530717e-02
9.651676423847675323e+00 4.787660220637917519e+00 -5.703865773975280717e-02
9.718815095722675323e+00 4.886415103450417519e+00 -5.398689992725280717e-02
9.787296541035175323e+00 4.987367251887917519e+00 -5.085884816944030717e-02
9.857609041035175323e+00 5.090882876887917519e+00 -4.765450246631530717e-02
9.929386384785175323e+00 5.196473697200417519e+00 -4.438912160694030717e-02
1.000275064259767532e+01 5.304627994075417519e+00 -4.104744680225280717e-02
1.007806802541017532e+01 5.415589908137917519e+00 -3.761421926319030717e-02
1.015497232228517532e+01 5.528749087825417519e+00 -3.410469777881530717e-02
9.601139314472675323e+00 4.775209048762917519e+00 -2.070748098194030717e-02
9.666935212910175323e+00 4.873109439387917519e+00 -1.707588918506530717e-02
9.734440095722675323e+00 4.973329165950417519e+00 -1.356636770069030717e-02
9.803776033222675323e+00 5.076112369075417519e+00 -9.950034692877807174e-03
9.874332673847675323e+00 5.180848697200417519e+00 -6.287925317877807174e-03
9.946598298847675323e+00 5.288026431575417519e+00 -2.519004419440307174e-03
1.002508950978517532e+01 5.399232486262917519e+00 1.417763158684692826e-03
1.010809732228517532e+01 5.513734439387917519e+00 5.278236791497192826e-03
9.606876619160175323e+00 4.775575259700417519e+00 1.655448190868469283e-02
9.679874666035175323e+00 4.875184634700417519e+00 2.053702585399719283e-02
9.754459626972675323e+00 4.977235415950417519e+00 2.462638132274719283e-02
9.831241853535175323e+00 5.082093814387917519e+00 2.883780710399719283e-02
9.909610994160175323e+00 5.189271548762917519e+00 3.312552683055969283e-02
9.989933259785175323e+00 5.299012759700417519e+00 3.752005808055969283e-02
1.007257486134767532e+01 5.412049869075417519e+00 4.205191843212219283e-02
1.015704751759767532e+01 5.527406314387917519e+00 4.667533151805969283e-02
9.648990876972675323e+00 4.783998111262917519e+00 5.460990183055969283e-02
9.722843416035175323e+00 4.884339908137917519e+00 5.908072702587219283e-02
9.798649080097675323e+00 4.987123111262917519e+00 6.385672800243469283e-02
9.876407869160175323e+00 5.092713931575417519e+00 6.857169382274719283e-02
9.955265291035175323e+00 5.200502017512917519e+00 7.336295358837219283e-02
1.002789712697267532e+01 5.308534244075417519e+00 7.804740183055969283e-02
1.010260415822267532e+01 5.419618228450417519e+00 8.265555612743469283e-02
1.017853189259767532e+01 5.532899478450417519e+00 8.756888620555969283e-02
9.638614900410175323e+00 4.780702212825417519e+00 9.165824167430969283e-02
9.704044587910175323e+00 4.878968814387917519e+00 9.632743112743469283e-02
9.771061189472675323e+00 4.979310611262917519e+00 1.010881733149346928e-01
9.839786775410175323e+00 5.082337955012917519e+00 1.059709858149346928e-01
9.909855134785175323e+00 5.187318423762917519e+00 1.109453510493096928e-01
9.981510408222675323e+00 5.294740298762917519e+00 1.160265278071221928e-01
1.005499673634767532e+01 5.404969790950417519e+00 1.212602924555596928e-01
1.012994790822267532e+01 5.517396548762917519e+00 1.265856098383721928e-01
9.596866853535175323e+00 4.770326236262917519e+00 1.273332905024346928e-01
9.661686189472675323e+00 4.867982486262917519e+00 1.323534321039971928e-01
9.727848298847675323e+00 4.967713931575417519e+00 1.374803852289971928e-01
9.795719392597675323e+00 5.070130923762917519e+00 1.427446674555596928e-01
9.866276033222675323e+00 5.174745181575417519e+00 1.481615375727471928e-01
9.949161775410175323e+00 5.284730533137917519e+00 1.540972065180596928e-01
1.003436685353517532e+01 5.398011783137917519e+00 1.602007221430596928e-01
1.012164712697267532e+01 5.513856509700417519e+00 1.664568256586846928e-01
9.606388337910175323e+00 4.771424869075417519e+00 1.648699115961846928e-01
9.682438142597675323e+00 4.871888736262917519e+00 1.707598041743096928e-01
9.760563142597675323e+00 4.974794009700417519e+00 1.767870258539971928e-01
9.840763337910175323e+00 5.080628970637917519e+00 1.829973530024346928e-01
9.922794587910175323e+00 5.188783267512917519e+00 1.893297504633721928e-01
1.000702310353517532e+01 5.299867251887917519e+00 1.958452533930596928e-01
1.009369302541017532e+01 5.414125064387917519e+00 2.025438617914971928e-01
1.018231607228517532e+01 5.531068423762917519e+00 2.093950580805596928e-01
9.658390291035175323e+00 4.782167056575417519e+00 2.042070697993096928e-01
9.735782869160175323e+00 4.883363345637917519e+00 2.106157612055596928e-01
9.815006501972675323e+00 4.987123111262917519e+00 2.171922992914971928e-01
1.508160806447267532e+01 6.420106509700417519e+00 4.612261127680596928e-01
1.463873697072267532e+01 6.444276431575417519e+00 4.458147358149346928e-01
1.535931802541017532e+01 6.782044986262917519e+00 4.842058490961846928e-01
2.719391275197267532e+01 1.033661041595041752e+01 1.044386513158684693e+00
6.648859048634767532e+01 2.235077057220041752e+01 2.911863930150872193e+00
1.555170083791017532e+01 6.101136783137917519e+00 5.326219867914971928e-01
1.535980630666017532e+01 6.201112369075417519e+00 5.283647846430596928e-01
1.572052408009767532e+01 6.433045962825417519e+00 5.513292621821221928e-01
1.473700357228517532e+01 6.330384830012917519e+00 5.070787739008721928e-01
2.720868325978517532e+01 9.789979556575417519e+00 1.146788246557122193e+00
3.622089029103517532e+01 1.255902252532541752e+01 1.618864662572747193e+00
3.574847818166017532e+01 1.279547272063791752e+01 1.608915932103997193e+00
7.319611001759767532e+01 2.434600983001291752e+01 3.573073036596184693e+00
2.642670083791017532e+01 8.533998111262917519e+00 1.185667641088372193e+00
1.532794595509767532e+01 6.191957095637917519e+00 5.908800434321221928e-01
3.729254556447267532e+01 1.171405182220041752e+01 1.801359779760247193e+00
1.473151040822267532e+01 6.327333072200417519e+00 5.687547992914971928e-01
8.290179849416017532e+01 2.461078033782541752e+01 4.368742592260247193e+00
1.540045572072267532e+01 6.790101626887917519e+00 6.167131733149346928e-01
3.574725747853517532e+01 1.279107818938791752e+01 1.771361000463372193e+00
8.069134927541017532e+01 2.657501373626291752e+01 4.341780311986809693e+00
2.645599771291017532e+01 8.537416080012917519e+00 1.304182655736809693e+00
3.267401529103517532e+01 1.025311432220041752e+01 1.681639320775872193e+00
7.103326822072267532e+01 1.996832428313791752e+01 3.980299599096184693e+00
8.283331704884767532e+01 2.371881256438791752e+01 4.716978676244622193e+00
8.170611978322267532e+01 2.428289947845041752e+01 4.682402260228997193e+00
3.596869302541017532e+01 1.248101959563791752e+01 1.933149940893059693e+00
3.573175454884767532e+01 1.278265533782541752e+01 1.932982094213372193e+00
8.063483072072267532e+01 2.654876861907541752e+01 4.718687660619622193e+00
2.645685220509767532e+01 8.534486392512917519e+00 1.420576698705559693e+00
2.672650552541017532e+01 8.856874087825417519e+00 1.448195106908684693e+00
3.323700357228517532e+01 1.071307525970041752e+01 1.877684242650872193e+00
8.305316568166017532e+01 2.463141022063791752e+01 5.152586586400872193e+00
3.568573404103517532e+01 1.239862213470041752e+01 2.078688270971184693e+00
3.563812661916017532e+01 1.275164947845041752e+01 2.090208656713372193e+00
8.112164712697267532e+01 2.668475494720041752e+01 5.129271156713372193e+00
2.745868325978517532e+01 8.755189517512917519e+00 1.605955727025872193e+00
3.267840982228517532e+01 1.024640045501291752e+01 1.974730141088372193e+00
8.395892740041017532e+01 2.486224518157541752e+01 5.602766640111809693e+00
3.566888833791017532e+01 1.238983307220041752e+01 2.239439613744622193e+00
3.575189615041017532e+01 1.278033600188791752e+01 2.260405189916497193e+00
8.272711587697267532e+01 2.715399322845041752e+01 5.626463539525872193e+00
2.671808267384767532e+01 8.586610415950417519e+00 1.673063881322747193e+00
3.268158365041017532e+01 1.024322662688791752e+01 2.121855385228997193e+00
8.343768716603517532e+01 2.471368561126291752e+01 5.957167274877434693e+00
3.568072915822267532e+01 1.238897858001291752e+01 2.403105385228997193e+00
3.575348306447267532e+01 1.277667389251291752e+01 2.424131996557122193e+00
8.260406900197267532e+01 2.710772858001291752e+01 6.005552894994622193e+00
2.922308755666017532e+01 9.142640689387917519e+00 1.985975868627434693e+00
3.268487954884767532e+01 1.024005279876291752e+01 2.269041664525872193e+00
3.321124673634767532e+01 1.069513092376291752e+01 2.323805458471184693e+00
3.588116861134767532e+01 1.244024811126291752e+01 2.581129677221184693e+00
3.568243814259767532e+01 1.275225983001291752e+01 2.582075722143059693e+00
2.910797525197267532e+01 9.113465884700417519e+00 2.106688148900872193e+00
3.266009927541017532e+01 1.023040924407541752e+01 2.413191444799309693e+00
3.595477700978517532e+01 1.245648346282541752e+01 2.751249916478997193e+00
3.552704263478517532e+01 1.270355377532541752e+01 2.731306679174309693e+00
1.382330728322267532e+01 6.633851626887917519e+00 -2.156995464116278072e-01
1.397809243947267532e+01 6.813417056575417519e+00 -2.136396098881903072e-01
1.427753091603517532e+01 7.043763736262917519e+00 -2.125104594975653072e-01
1.056476236134767532e+01 5.946351626887917519e+00 -1.919873882085028072e-01
1.418695474416017532e+01 7.290345767512917519e+00 -2.066663432866278072e-01
1.405048013478517532e+01 7.380921939387917519e+00 -2.033551860600653072e-01
1.431061197072267532e+01 7.615296939387917519e+00 -2.017072368413153072e-01
1.460675454884767532e+01 7.869569400325417519e+00 -2.004254985600653072e-01
1.408319497853517532e+01 6.710389712825417519e+00 -1.578534770756903072e-01
1.395624185353517532e+01 6.805116275325417519e+00 -1.549695659428778072e-01
1.386127115041017532e+01 6.908387759700417519e+00 -1.518262553960028072e-01
1.056537271291017532e+01 5.945497134700417519e+00 -1.491712260991278072e-01
1.404034829884767532e+01 7.238587955012917519e+00 -1.461194682866278072e-01
1.401117349416017532e+01 7.365663150325417519e+00 -1.432508159428778072e-01
1.383417154103517532e+01 7.439271548762917519e+00 -1.407788921147528072e-01
1.455023599416017532e+01 7.846742251887917519e+00 -1.372083354741278072e-01
1.407831216603517532e+01 6.707460025325417519e+00 -9.857308156787780717e-02
1.394122720509767532e+01 6.799134830012917519e+00 -9.614693410694030717e-02
1.432379556447267532e+01 7.055726626887917519e+00 -9.137093313037780717e-02
1.056586099416017532e+01 5.944642642512917519e+00 -1.065534282475653072e-01
1.410651040822267532e+01 7.259950259700417519e+00 -8.621346242725280717e-02
1.399676919728517532e+01 7.359193423762917519e+00 -8.369576223194030717e-02
1.486529947072267532e+01 7.815614322200417519e+00 -7.568489797412780717e-02
1.471454263478517532e+01 7.907411197200417519e+00 -7.322823293506530717e-02
1.447662759572267532e+01 6.825379947200417519e+00 -3.604256398975280717e-02
1.029486490041017532e+01 5.665101626887917519e+00 -7.086312063037780717e-02
1.037738443166017532e+01 5.785340884700417519e+00 -6.784188039600280717e-02
1.046222329884767532e+01 5.909242251887917519e+00 -6.471382863819030717e-02
1.054913736134767532e+01 6.035829165950417519e+00 -6.152474172412780717e-02
1.068097329884767532e+01 6.181092837825417519e+00 -5.781685598194030717e-02
1.081366372853517532e+01 6.330751040950417519e+00 -5.400215871631530717e-02
1.095135904103517532e+01 6.485536197200417519e+00 -5.027901418506530717e-02
1.015558267384767532e+01 5.529359439387917519e+00 -3.408943898975280717e-02
1.023468423634767532e+01 5.645448306575417519e+00 -3.065621145069030717e-02
1.031573892384767532e+01 5.764588931575417519e+00 -2.713143117725280717e-02
1.039923501759767532e+01 5.887269595637917519e+00 -2.349983938037780717e-02
1.048456216603517532e+01 6.012757876887917519e+00 -1.979195363819030717e-02
1.059991861134767532e+01 6.151429751887917519e+00 -1.556526906787780717e-02
1.072992349416017532e+01 6.299134830012917519e+00 -1.100289113819030717e-02
1.086432290822267532e+01 6.451722720637917519e+00 -6.303184106940307174e-03
1.010882974416017532e+01 5.514344790950417519e+00 5.293495580559692826e-03
1.019452310353517532e+01 5.632020572200417519e+00 9.581215307122192826e-03
1.028229165822267532e+01 5.752870181575417519e+00 1.374686472118469283e-02
1.037286783009767532e+01 5.877503970637917519e+00 1.804984323680969283e-02
1.046564126759767532e+01 6.005189517512917519e+00 2.245963327587219283e-02
1.058954263478517532e+01 6.146669009700417519e+00 2.757132761180969283e-02
1.073395181447267532e+01 6.299501040950417519e+00 3.318656198680969283e-02
1.088324380666017532e+01 6.457826236262917519e+00 3.877127878368469283e-02
1.015765786916017532e+01 5.527894595637917519e+00 4.669059030712219283e-02
1.024432779103517532e+01 5.646424869075417519e+00 5.134452097118469283e-02
1.033331704884767532e+01 5.768251040950417519e+00 5.612052194774719283e-02
1.042511392384767532e+01 5.893861392512917519e+00 6.104911081493469283e-02
1.051923013478517532e+01 6.022645572200417519e+00 6.609976999462219283e-02
1.065790200978517532e+01 6.169984439387917519e+00 7.232535593212219283e-02
1.080475259572267532e+01 6.324525455012917519e+00 7.888663522899719283e-02
1.095148111134767532e+01 6.482606509700417519e+00 8.555472604930969283e-02
1.017914224416017532e+01 5.533387759700417519e+00 8.758414499462219283e-02
1.025714517384767532e+01 5.649476626887917519e+00 9.254325143993469283e-02
1.033673501759767532e+01 5.768373111262917519e+00 9.785331003368469283e-02
1.041901040822267532e+01 5.890809634700417519e+00 1.030870746821221928e-01
1.050311685353517532e+01 6.016175845637917519e+00 1.084429096430596928e-01
1.061993814259767532e+01 6.155580142512917519e+00 1.148363422602471928e-01
1.074811197072267532e+01 6.302796939387917519e+00 1.214586567133721928e-01
1.088019204884767532e+01 6.454652408137917519e+00 1.285234760493096928e-01
1.013055825978517532e+01 5.517884830012917519e+00 1.266161274164971928e-01
1.020746255666017532e+01 5.632997134700417519e+00 1.320329975336846928e-01
1.028631997853517532e+01 5.751161197200417519e+00 1.375871967524346928e-01
1.036749673634767532e+01 5.872743228450417519e+00 1.433092426508721928e-01
1.045038247853517532e+01 5.997010806575417519e+00 1.491533588618096928e-01
1.053558755666017532e+01 6.124696353450417519e+00 1.551500629633721928e-01
1.070160318166017532e+01 6.284730533137917519e+00 1.640764545649346928e-01
1.085785318166017532e+01 6.445252994075417519e+00 1.727892231196221928e-01
1.012237954884767532e+01 5.514466861262917519e+00 1.664873432368096928e-01
1.021197915822267532e+01 5.633485415950417519e+00 1.728960346430596928e-01
1.030414224416017532e+01 5.755921939387917519e+00 1.794725727289971928e-01
1.039935708791017532e+01 5.882386783137917519e+00 1.862779926508721928e-01
1.049701333791017532e+01 6.012025455012917519e+00 1.932512592524346928e-01
1.063568521291017532e+01 6.159120181575417519e+00 2.019487690180596928e-01
1.078937173634767532e+01 6.315858462825417519e+00 2.113787006586846928e-01
1.094903970509767532e+01 6.478578189387917519e+00 2.211595844477471928e-01
1.018304849416017532e+01 5.531556705012917519e+00 2.094408344477471928e-01
1.027423501759767532e+01 5.651795962825417519e+00 2.164903949946221928e-01
1.036798501759767532e+01 5.775331119075417519e+00 2.237535785883721928e-01
1.470355630666017532e+01 7.309388736262917519e+00 4.161516498774346928e-01
7.657843423634767532e+01 2.867010650970041752e+01 3.143583900853997193e+00
2.047259927541017532e+01 9.641175845637917519e+00 6.821123432368096928e-01
2.042023111134767532e+01 9.833680728450417519e+00 6.870256733149346928e-01
1.983734536916017532e+01 9.825746158137917519e+00 6.679674457758721928e-01
6.647967935353517532e+01 2.235040436126291752e+01 2.911528236791497193e+00
6.639972329884767532e+01 2.303033600188791752e+01 2.932921059057122193e+00
6.568085122853517532e+01 2.350824127532541752e+01 2.923720009252434693e+00
7.591254068166017532e+01 2.760968170501291752e+01 3.444807655736809693e+00
7.463055825978517532e+01 2.799395904876291752e+01 3.411650307103997193e+00
7.479632974416017532e+01 2.886761627532541752e+01 3.448958046361809693e+00
2.039313150197267532e+01 9.821595767512917519e+00 7.769914936274346928e-01
2.072882486134767532e+01 1.015948639251291752e+01 8.013597797602471928e-01
7.318805337697267532e+01 2.434625397063791752e+01 3.572752602025872193e+00
7.972833658009767532e+01 2.714837799407541752e+01 3.945082313939934693e+00
7.750934243947267532e+01 2.729193268157541752e+01 3.857557899877434693e+00
7.759820962697267532e+01 2.816009674407541752e+01 3.893522865697747193e+00
7.718841958791017532e+01 2.886224518157541752e+01 3.902891762182122193e+00
7.496942544728517532e+01 2.892071686126291752e+01 3.814207680150872193e+00
7.512884927541017532e+01 2.980609283782541752e+01 3.855635292455559693e+00
