8.936346605420112610e+00 3.496365308761596680e+00 2.347197794355508904e-01
9.141180589795112610e+00 3.585720777511596680e+00 2.483916544355508904e-01
8.222235277295112610e+00 3.051663160324096680e+00 2.134337686933633904e-01
8.229681566357612610e+00 3.117214918136596680e+00 2.161193155683633904e-01
8.237005785107612610e+00 3.182888746261596680e+00 2.188048624433633904e-01
8.244574144482612610e+00 3.249050855636596680e+00 2.215209268964883904e-01
8.828192308545112610e+00 3.344143629074096680e+00 2.571349405683633904e-01
9.283148363232612610e+00 3.443142652511596680e+00 2.857756876386758904e-01
8.911688402295112610e+00 3.493557691574096680e+00 2.669463419355508904e-01
2.987677629292011261e+01 5.250881910324096680e+00 1.488656547013675890e+00
8.217718675732612610e+00 3.050686597824096680e+00 2.434325479902383904e-01
8.225042894482612610e+00 3.116116285324096680e+00 2.459960245527383904e-01
8.232489183545112610e+00 3.181790113449096680e+00 2.487426065839883904e-01
8.948919847607612610e+00 3.276272535324096680e+00 2.949919962324258904e-01
9.325140550732612610e+00 3.367947340011596680e+00 3.207640909589883904e-01
9.287420824170112610e+00 3.442288160324096680e+00 3.210997843183633904e-01
8.878363206982612610e+00 3.490139722824096680e+00 2.982421183027383904e-01
2.972345598042011261e+01 5.234524488449096680e+00 1.609689261857425890e+00
8.213080003857612610e+00 3.049587965011596680e+00 2.732329630293008904e-01
8.343451097607612610e+00 3.117459058761596680e+00 2.840209268964883904e-01
1.444928605854511261e+01 3.367214918136596680e+00 6.871123575605508904e-01
8.968206956982612610e+00 3.276028394699096680e+00 3.299498819746133904e-01
9.372870042920112610e+00 3.369168043136596680e+00 3.593688272871133904e-01
9.292791917920112610e+00 3.441555738449096680e+00 3.567290567793008904e-01
9.255560472607612610e+00 3.515530347824096680e+00 3.569274210371133904e-01
3.077570207417011261e+01 5.314724683761596680e+00 1.809899833146488390e+00
8.208563402295112610e+00 3.048489332199096680e+00 3.031554483808633904e-01
8.341131761670112610e+00 3.116360425949096680e+00 3.147216104902383904e-01
2.756354387104511261e+01 3.756619215011596680e+00 1.666879203263675890e+00
2.733844621479511261e+01 4.007107496261596680e+00 1.660180594865238390e+00
9.035345628857612610e+00 3.351223707199096680e+00 3.709044718183633904e-01
2.688434465229511261e+01 4.493313550949096680e+00 1.645989921037113390e+00
9.260565355420112610e+00 3.514797925949096680e+00 3.924498819746133904e-01
9.837372453510761261e+01 1.071340632438659668e+01 6.813622977677738390e+00
8.371649339795112610e+00 3.049099683761596680e+00 3.454833292402383904e-01
8.320623949170112610e+00 3.115017652511596680e+00 3.438964151777383904e-01
1.450043351948261261e+01 3.364895582199096680e+00 8.088469767011758904e-01
1.438165910542011261e+01 3.488796949386596680e+00 8.044829630293008904e-01
2.743805558979511261e+01 4.264797925949096680e+00 1.795632865373050890e+00
9.305243089795112610e+00 3.439968824386596680e+00 4.281249308027383904e-01
9.266668871045112610e+00 3.514065504074096680e+00 4.279265665449258904e-01
2.780426652729511261e+01 5.069241285324096680e+00 1.851953055802738390e+00
8.532415941357612610e+00 3.550686597824096680e+00 -2.274689412675741096e-01
8.439642503857612610e+00 3.610867261886596680e+00 -2.243408895097616096e-01
8.344183519482612610e+00 3.669094800949096680e+00 -2.214112020097616096e-01
8.240667894482612610e+00 3.724880933761596680e+00 -2.184509969316366096e-01
8.733587816357612610e+00 3.851711988449096680e+00 -2.214112020097616096e-01
8.709173753857612610e+00 3.919949293136596680e+00 -2.191376424394491096e-01
9.109198167920112610e+00 4.048855543136596680e+00 -2.208008504472616096e-01
8.570501878857612610e+00 4.041897535324096680e+00 -2.139954305253866096e-01
8.523260667920112610e+00 3.548977613449096680e+00 -1.957306600175741096e-01
8.434149339795112610e+00 3.609402418136596680e+00 -1.931977010331991096e-01
8.785467699170112610e+00 3.713406324386596680e+00 -1.930908895097616096e-01
8.238470628857612610e+00 3.723782300949096680e+00 -1.879944539628866096e-01
8.962591722607612610e+00 3.878811597824096680e+00 -1.898407674394491096e-01
8.728460863232612610e+00 3.921536207199096680e+00 -1.865448690019491096e-01
8.720526292920112610e+00 3.992336988449096680e+00 -1.846070027910116096e-01
9.872137621045112610e+00 4.240261793136596680e+00 -1.875061727128866096e-01
8.517645433545112610e+00 3.547512769699096680e+00 -1.640686727128866096e-01
8.428534105420112610e+00 3.607937574386596680e+00 -1.619171834550741096e-01
8.803778246045112610e+00 3.714260816574096680e+00 -1.603455281816366096e-01
8.234808519482612610e+00 3.722439527511596680e+00 -1.577210164628866096e-01
8.945013597607612610e+00 3.875637769699096680e+00 -1.561798787675741096e-01
8.747747972607612610e+00 3.923123121261596680e+00 -1.539520955644491096e-01
8.403143480420112610e+00 3.945950269699096680e+00 -1.518311238847616096e-01
9.362738206982612610e+00 4.161282300949096680e+00 -1.494965291581991096e-01
8.511908128857612610e+00 3.546047925949096680e+00 -1.326355672441366096e-01
8.421942308545112610e+00 3.606350660324096680e+00 -1.306824422441366096e-01
8.324896410107612610e+00 3.664334058761596680e+00 -1.289734578691366096e-01
8.824286058545112610e+00 3.787625074386596680e+00 -1.250824666581991096e-01
8.826361253857612610e+00 3.860134840011596680e+00 -1.229004598222616096e-01
8.944525316357612610e+00 3.948269605636596680e+00 -1.201996541581991096e-01
9.039373949170112610e+00 4.035916090011596680e+00 -1.175293660722616096e-01
9.047918871045112610e+00 4.112087965011596680e+00 -1.154236531816366096e-01
8.503363206982612610e+00 3.544338941574096680e+00 -1.010803914628866096e-01
8.414984300732612610e+00 3.604763746261596680e+00 -9.967658286913660959e-02
8.837103441357612610e+00 3.715603590011596680e+00 -9.419867759569910959e-02
8.842840746045112610e+00 3.788723707199096680e+00 -9.194037681444910959e-02
8.979559496045112610e+00 3.877957105636596680e+00 -8.853766685351160959e-02
9.009832933545112610e+00 3.955960035324096680e+00 -8.598944908007410959e-02
8.989447191357612610e+00 4.027737379074096680e+00 -8.389899497851160959e-02
8.286566331982612610e+00 3.994900465011596680e+00 -8.836982017382410959e-02
8.766058519482612610e+00 3.564846754074096680e+00 -6.651923423632410959e-02
8.729193285107612610e+00 3.632717847824096680e+00 -6.458136802538660959e-02
8.311224535107612610e+00 3.661038160324096680e+00 -6.767890220507410959e-02
8.861517503857612610e+00 3.789822340011596680e+00 -5.843207603319910959e-02
8.928045824170112610e+00 3.870632886886596680e+00 -5.528876548632410959e-02
8.993719652295112610e+00 3.952786207199096680e+00 -5.209967857226160959e-02
9.049139574170112610e+00 4.035183668136596680e+00 -4.900214439257410959e-02
9.105413988232612610e+00 4.118923902511596680e+00 -4.604193931444910959e-02
8.481756761670112610e+00 3.540676832199096680e+00 -3.845832115038660959e-02
8.715155199170112610e+00 3.630398511886596680e+00 -3.232428794726160959e-02
8.299994066357612610e+00 3.658962965011596680e+00 -3.725287681444910959e-02
8.848578050732612610e+00 3.787380933761596680e+00 -2.547309165819910959e-02
8.889471605420112610e+00 3.864895582199096680e+00 -2.245185142382410959e-02
8.950995042920112610e+00 3.946072340011596680e+00 -1.900336509569910959e-02
9.006537035107612610e+00 4.028225660324096680e+00 -1.563117271288660959e-02
9.068182542920112610e+00 4.112210035324096680e+00 -1.209113365038660959e-02
8.482245042920112610e+00 3.539700269699096680e+00 -7.116768416011609588e-03
8.334051683545112610e+00 3.594509840011596680e+00 -8.108589705074109588e-03
8.792791917920112610e+00 3.708157300949096680e+00 4.266288224613390412e-03
8.865057542920112610e+00 3.788235425949096680e+00 8.203055802738390412e-03
8.910467699170112610e+00 3.866482496261596680e+00 1.155998939648839041e-02
8.981512621045112610e+00 3.949124097824096680e+00 1.555779213086339041e-02
9.042669847607612610e+00 4.032376050949096680e+00 1.918938392773839041e-02
9.104925706982612610e+00 4.116848707199096680e+00 2.306511634961339041e-02
8.482611253857612610e+00 3.538723707199096680e+00 2.440788978711339041e-02
8.806830003857612610e+00 3.636746168136596680e+00 3.513481849805089041e-02
8.777533128857612610e+00 3.705593824386596680e+00 3.670647377148839041e-02
8.862616136670112610e+00 3.786892652511596680e+00 4.134514564648839041e-02
8.942694261670112610e+00 3.869412183761596680e+00 4.590752357617589041e-02
9.017157152295112610e+00 3.952908277511596680e+00 5.036308998242589041e-02
9.079168871045112610e+00 4.036526441574096680e+00 5.454399818555089041e-02
9.142157152295112610e+00 4.121487379074096680e+00 5.878594154492589041e-02
8.483099535107612610e+00 3.537869215011596680e+00 5.576470131055089041e-02
8.426458910107612610e+00 3.600979566574096680e+00 5.629875892773839041e-02
8.762274339795112610e+00 3.703030347824096680e+00 6.900933021680089041e-02
8.846991136670112610e+00 3.784207105636596680e+00 7.407524818555089041e-02
8.933416917920112610e+00 3.867214918136596680e+00 7.923271888867589041e-02
8.998236253857612610e+00 3.949368238449096680e+00 8.376457924023839041e-02
9.052923753857612610e+00 4.031765699386596680e+00 8.802178138867589041e-02
9.108343675732612610e+00 4.115383863449096680e+00 9.234001869336339041e-02
8.483587816357612610e+00 3.536892652511596680e+00 8.730461830273839041e-02
8.426947191357612610e+00 3.600125074386596680e+00 8.760979408398839041e-02
8.747015550732612610e+00 3.700466871261596680e+00 1.013579630293008904e-01
8.860785081982612610e+00 3.784695386886596680e+00 1.079039835371133904e-01
8.901312425732612610e+00 3.862332105636596680e+00 1.118254923261758904e-01
8.962713792920112610e+00 3.943630933761596680e+00 1.165709757246133904e-01
9.016790941357612610e+00 4.025662183761596680e+00 1.210875772871133904e-01
9.071600511670112610e+00 4.108792066574096680e+00 1.256804727949258904e-01
8.712469652295112610e+00 3.554470777511596680e+00 1.277709268964883904e-01
8.755682542920112610e+00 3.629055738449096680e+00 1.319213175214883904e-01
8.801214769482612610e+00 3.704983472824096680e+00 1.362090372480508904e-01
8.847601488232612610e+00 3.782253980636596680e+00 1.405883097089883904e-01
8.894598558545112610e+00 3.860501050949096680e+00 1.450133585371133904e-01
8.966131761670112610e+00 3.943142652511596680e+00 1.504760050214883904e-01
9.029608324170112610e+00 4.026516675949096680e+00 1.556945108808633904e-01
9.094305589795112610e+00 4.111233472824096680e+00 1.609893106855508904e-01
8.684393480420112610e+00 3.551174879074096680e+00 1.591277384199258904e-01
8.793646410107612610e+00 3.631497144699096680e+00 1.664672159589883904e-01
8.839544847607612610e+00 3.707791090011596680e+00 1.708617472089883904e-01
8.886541917920112610e+00 3.785549879074096680e+00 1.755156778730508904e-01
8.934149339795112610e+00 3.864285230636596680e+00 1.802306436933633904e-01
9.010077074170112610e+00 3.947903394699096680e+00 1.863036417402383904e-01
9.074774339795112610e+00 4.031887769699096680e+00 1.921019815839883904e-01
9.140204027295112610e+00 4.117214918136596680e+00 1.977935099043008904e-01
8.785955980420112610e+00 3.558377027511596680e+00 1.964049600996133904e-01
8.831976488232612610e+00 3.633938550949096680e+00 2.012114786543008904e-01
8.878607347607612610e+00 3.710720777511596680e+00 2.060790323652383904e-01
9.673895433545112610e+00 3.871853590011596680e+00 2.484221720136758904e-01
2.250873430073261261e+01 5.505642652511596680e+00 8.974852823652383904e-01
2.748432023823261261e+01 6.369045972824096680e+00 1.157266166154300890e+00
1.558222062885761261e+01 4.950344800949096680e+00 5.587706827558633904e-01
1.444086320698261261e+01 4.919094800949096680e+00 5.050902628339883904e-01
9.140570238232612610e+00 3.585842847824096680e+00 2.483611368574258904e-01
8.994452074170112610e+00 3.647610425949096680e+00 2.430053018964883904e-01
9.076117113232612610e+00 3.729641675949096680e+00 2.500853800214883904e-01
9.223211839795112610e+00 3.820828199386596680e+00 2.608123087324258904e-01
2.236933000385761261e+01 5.485867261886596680e+00 9.862456583418008904e-01
2.732001359760761261e+01 6.344021558761596680e+00 1.267755057755863390e+00
1.556427629292011261e+01 4.945950269699096680e+00 6.223082804121133904e-01
2.758649308979511261e+01 6.906765699386596680e+00 1.302133109513675890e+00
2.987482316792011261e+01 5.251614332199096680e+00 1.488564994279300890e+00
9.091986253857612610e+00 3.655422925949096680e+00 2.826934122480508904e-01
9.033636644482612610e+00 3.724270582199096680e+00 2.819762491621133904e-01
9.028143480420112610e+00 3.798245191574096680e+00 2.843718790449258904e-01
2.229291398823261261e+01 5.473782300949096680e+00 1.078012015763675890e+00
2.712030656635761261e+01 6.314358472824096680e+00 1.375268485490238390e+00
2.748920305073261261e+01 6.625759840011596680e+00 1.407006766740238390e+00
2.722443254292011261e+01 6.848538160324096680e+00 1.400521781388675890e+00
2.972150285542011261e+01 5.235256910324096680e+00 1.609597709123050890e+00
9.094671800732612610e+00 3.654568433761596680e+00 3.171172403730508904e-01
8.991888597607612610e+00 3.719021558761596680e+00 3.133635782636758904e-01
9.030829027295112610e+00 3.797512769699096680e+00 3.185973429121133904e-01
2.244879777729511261e+01 5.489773511886596680e+00 1.183511283341800890e+00
2.785675676167011261e+01 6.407131910324096680e+00 1.540826346818363390e+00
2.766229875385761261e+01 6.646633863449096680e+00 1.538079764787113390e+00
2.755316789448261261e+01 6.894680738449096680e+00 1.541390922013675890e+00
3.077582414448261261e+01 5.315701246261596680e+00 1.809945609513675890e+00
9.097601488232612610e+00 3.653836011886596680e+00 3.517699503339883904e-01
2.242767961323261261e+01 5.064358472824096680e+00 1.263009574357425890e+00
2.235065324604511261e+01 5.265896558761596680e+00 1.265634086076175890e+00
2.242877824604511261e+01 5.484402418136596680e+00 1.278878714982425890e+00
2.780707414448261261e+01 6.397000074386596680e+00 1.659448172990238390e+00
2.725055558979511261e+01 6.585110425949096680e+00 1.630685355607425890e+00
2.964557512104511261e+01 7.207058668136596680e+00 1.808251883927738390e+00
9.837958391010761261e+01 1.071719050407409668e+01 6.814172294083988390e+00
9.100409105420112610e+00 3.652981519699096680e+00 3.864684366621133904e-01
2.238703019917011261e+01 5.057278394699096680e+00 1.355981376115238390e+00
2.221649797260761261e+01 5.248196363449096680e+00 1.351510550919925890e+00
2.242804582417011261e+01 5.481472730636596680e+00 1.374993827287113390e+00
3.093085344135761261e+01 6.800808668136596680e+00 2.011590506974613390e+00
2.754816301167011261e+01 6.623440504074096680e+00 1.772225882951175890e+00
2.712116105854511261e+01 6.822537183761596680e+00 1.750360038224613390e+00
2.780414445698261261e+01 5.070217847824096680e+00 1.851968314591800890e+00
9.103216722607612610e+00 3.652249097824096680e+00 4.209990763105508904e-01
2.246271379292011261e+01 5.061917066574096680e+00 1.458123710099613390e+00
2.235089738667011261e+01 5.260159254074096680e+00 1.457574393693363390e+00
2.249335344135761261e+01 5.486477613449096680e+00 1.476800467912113390e+00
3.084369523823261261e+01 6.785427808761596680e+00 2.141213920060550890e+00
2.723786027729511261e+01 6.576321363449096680e+00 1.867898490373050890e+00
1.847992570698261261e+01 5.517239332199096680e+00 1.183206107560550890e+00
8.570746019482612610e+00 4.042263746261596680e+00 -2.139801717363241096e-01
9.122503831982612610e+00 4.202786207199096680e+00 -2.168183065019491096e-01
9.774603441357612610e+00 4.392361402511596680e+00 -2.203888631425741096e-01
9.213934496045112610e+00 4.372708082199096680e+00 -2.136749959550741096e-01
9.297430589795112610e+00 4.466702222824096680e+00 -2.123474813066366096e-01
1.358038957417011261e+01 5.422146558761596680e+00 -2.431092000566366096e-01
1.311554582417011261e+01 5.446316480636596680e+00 -2.365174031816366096e-01
1.384345109760761261e+01 5.729763746261596680e+00 -2.389588094316366096e-01
9.872381761670112610e+00 4.240628004074096680e+00 -1.875061727128866096e-01
8.583319261670112610e+00 4.113674879074096680e+00 -1.800751424394491096e-01
9.106024339795112610e+00 4.275173902511596680e+00 -1.799988484941366096e-01
9.134588792920112610e+00 4.357083082199096680e+00 -1.780914998613241096e-01
1.319354875385761261e+01 5.222195386886596680e+00 -1.891541219316366096e-01
1.315888078510761261e+01 5.334378004074096680e+00 -1.859192586503866096e-01
1.358331926167011261e+01 5.545315504074096680e+00 -1.842102742753866096e-01
1.358734758198261261e+01 5.670559644699096680e+00 -1.809448934160116096e-01
9.362371996045112610e+00 4.161526441574096680e+00 -1.494812703691366096e-01
9.230291917920112610e+00 4.218411207199096680e+00 -1.474365926347616096e-01
9.185614183545112610e+00 4.287991285324096680e+00 -1.453766561113241096e-01
9.123480394482612610e+00 4.354153394699096680e+00 -1.433472371660116096e-01
1.315497453510761261e+01 5.213162183761596680e+00 -1.354584432206991096e-01
1.312421281635761261e+01 5.325833082199096680e+00 -1.322846150956991096e-01
1.358441789448261261e+01 5.544094800949096680e+00 -1.281189656816366096e-01
1.421613176167011261e+01 5.810574293136596680e+00 -1.233124471269491096e-01
9.048040941357612610e+00 4.112332105636596680e+00 -1.154083943925741096e-01
1.387518937885761261e+01 4.974636793136596680e+00 -8.772895103319910959e-02
9.195746019482612610e+00 4.288845777511596680e+00 -1.101898885331991096e-01
9.154852464795112610e+00 4.358914136886596680e+00 -1.082520223222616096e-01
1.312018449604511261e+01 5.204983472824096680e+00 -8.180854087694910959e-02
1.374579484760761261e+01 5.451321363449096680e+00 -7.446906333788660959e-02
1.358563859760761261e+01 5.542874097824096680e+00 -7.201239829882410959e-02
1.369183976948261261e+01 5.691067457199096680e+00 -6.809088950976160959e-02
8.288763597607612610e+00 3.995388746261596680e+00 -8.833930259569910959e-02
9.208685472607612610e+00 4.212795972824096680e+00 -7.729193931444910959e-02
9.205999925732612610e+00 4.289578199386596680e+00 -7.507941490038660959e-02
9.328558519482612610e+00 4.389797925949096680e+00 -7.155463462694910959e-02
9.390081956982612610e+00 4.480740308761596680e+00 -6.860968833788660959e-02
9.452948167920112610e+00 4.573513746261596680e+00 -6.560370689257410959e-02
9.517279222607612610e+00 4.668484449386596680e+00 -6.253669029101160959e-02
9.582708910107612610e+00 4.765164136886596680e+00 -5.940863853319910959e-02
9.105902269482612610e+00 4.119168043136596680e+00 -4.602668052538660959e-02
9.163031175732612610e+00 4.204373121261596680e+00 -4.276129966601160959e-02
9.216253831982612610e+00 4.290310621261596680e+00 -3.969428306444910959e-02
9.281195238232612610e+00 4.380154371261596680e+00 -3.639838462694910959e-02
9.341986253857612610e+00 4.470364332199096680e+00 -3.311774497851160959e-02
9.403997972607612610e+00 4.562527418136596680e+00 -2.977607017382410959e-02
9.467352464795112610e+00 4.656765699386596680e+00 -2.635810142382410959e-02
9.532171800732612610e+00 4.752712965011596680e+00 -2.307746177538660959e-02
9.068670824170112610e+00 4.112576246261596680e+00 -1.207587486132410959e-02
9.131537035107612610e+00 4.198269605636596680e+00 -8.566353376949109588e-03
9.195623949170112610e+00 4.285794019699096680e+00 -4.980537947261609588e-03
9.261297777295112610e+00 4.375393629074096680e+00 -1.303169783199109588e-03
9.328192308545112610e+00 4.466702222824096680e+00 2.435233537113390412e-03
9.396429613232612610e+00 4.559963941574096680e+00 6.265189591800890412e-03
9.466497972607612610e+00 4.655667066574096680e+00 1.018669838086339041e-02
9.537909105420112610e+00 4.753079175949096680e+00 1.416924232617589041e-02
9.105413988232612610e+00 4.117092847824096680e+00 2.309563392773839041e-02
9.168890550732612610e+00 4.203396558761596680e+00 2.698662513867589041e-02
9.233954027295112610e+00 4.291409254074096680e+00 3.116753334180089041e-02
9.300360277295112610e+00 4.381619215011596680e+00 3.524163002148839041e-02
9.367987230420112610e+00 4.473416090011596680e+00 3.939202064648839041e-02
9.437079027295112610e+00 4.567288160324096680e+00 4.364922279492589041e-02
9.507757738232612610e+00 4.663479566574096680e+00 4.779961341992589041e-02
9.580023363232612610e+00 4.761502027511596680e+00 5.222466224805089041e-02
9.142645433545112610e+00 4.121853590011596680e+00 5.881645912305089041e-02
9.202704027295112610e+00 4.207791090011596680e+00 6.298210853711339041e-02
9.260809496045112610e+00 4.295071363449096680e+00 6.714775795117589041e-02
9.320257738232612610e+00 4.384304761886596680e+00 7.142021888867589041e-02
9.380682542920112610e+00 4.474880933761596680e+00 7.575371498242589041e-02
9.442328050732612610e+00 4.567288160324096680e+00 8.016350502148839041e-02
9.505438402295112610e+00 4.662014722824096680e+00 8.468010658398839041e-02
9.569525316357612610e+00 4.758206129074096680e+00 8.928826088086339041e-02
9.108709886670112610e+00 4.115628004074096680e+00 9.237053627148839041e-02
9.165106371045112610e+00 4.200711011886596680e+00 9.674980873242589041e-02
9.222601488232612610e+00 4.287503004074096680e+00 1.012206339277383904e-01
9.281439378857612610e+00 4.376126050949096680e+00 1.057982706464883904e-01
9.341253831982612610e+00 4.466336011886596680e+00 1.104369425214883904e-01
9.402166917920112610e+00 4.558132886886596680e+00 1.151824259199258904e-01
9.464544847607612610e+00 4.652249097824096680e+00 1.200194620527383904e-01
9.527899339795112610e+00 4.747830152511596680e+00 1.249480509199258904e-01
9.071966722607612610e+00 4.109036207199096680e+00 1.256957315839883904e-01
9.127752855420112610e+00 4.193630933761596680e+00 1.303801798261758904e-01
9.184637621045112610e+00 4.279934644699096680e+00 1.351409220136758904e-01
9.249456956982612610e+00 4.369290113449096680e+00 1.402831339277383904e-01
9.319037035107612610e+00 4.460964918136596680e+00 1.456389688886758904e-01
9.390081956982612610e+00 4.554714918136596680e+00 1.511168741621133904e-01
9.462957933545112610e+00 4.650906324386596680e+00 1.567473673261758904e-01
9.537298753857612610e+00 4.748928785324096680e+00 1.624846720136758904e-01
9.094793871045112610e+00 4.111477613449096680e+00 1.610198282636758904e-01
9.160833910107612610e+00 4.198025465011596680e+00 1.664672159589883904e-01
9.228216722607612610e+00 4.286404371261596680e+00 1.720214151777383904e-01
9.297430589795112610e+00 4.377102613449096680e+00 1.777282022871133904e-01
9.367865160107612610e+00 4.469387769699096680e+00 1.835418009199258904e-01
9.440008714795112610e+00 4.563870191574096680e+00 1.894927286543008904e-01
9.513983324170112610e+00 4.660794019699096680e+00 1.955962442793008904e-01
9.589422777295112610e+00 4.759548902511596680e+00 2.018065714277383904e-01
9.140692308545112610e+00 4.117459058761596680e+00 1.978240274824258904e-01
9.207708910107612610e+00 4.204617261886596680e+00 2.037139200605508904e-01
9.275824144482612610e+00 4.293606519699096680e+00 2.095122599043008904e-01
1.478656633198261261e+01 5.377346754074096680e+00 4.760680460371133904e-01
1.481085832417011261e+01 5.517483472824096680e+00 4.820647501386758904e-01
1.481854875385761261e+01 5.655178785324096680e+00 4.872985147871133904e-01
1.495819719135761261e+01 5.822170972824096680e+00 4.993682169355508904e-01
1.548285539448261261e+01 6.078518629074096680e+00 5.302214884199258904e-01
1.444208391010761261e+01 4.919705152511596680e+00 5.051818155683633904e-01
1.448016984760761261e+01 5.056179761886596680e+00 5.119109415449258904e-01
1.536237199604511261e+01 5.339260816574096680e+00 5.627379679121133904e-01
1.477252824604511261e+01 5.373074293136596680e+00 5.369048380293008904e-01
1.479682023823261261e+01 5.512966871261596680e+00 5.431304239668008904e-01
1.503204973042011261e+01 5.696804761886596680e+00 5.606475138105508904e-01
1.491242082417011261e+01 5.810696363449096680e+00 5.593199991621133904e-01
2.636041887104511261e+01 8.511502027511596680e+00 1.183389213029300890e+00
2.758588273823261261e+01 6.907498121261596680e+00 1.302133109513675890e+00
1.823432023823261261e+01 5.661160230636596680e+00 7.834563517011758904e-01
1.505121476948261261e+01 5.283962965011596680e+00 6.088958048261758904e-01
1.484577043354511261e+01 5.384670972824096680e+00 6.023040079511758904e-01
1.475739152729511261e+01 5.503689527511596680e+00 6.022887491621133904e-01
1.518634660542011261e+01 5.726345777511596680e+00 6.322417520918008904e-01
1.526581437885761261e+01 5.884426832199096680e+00 6.421599649824258904e-01
2.639166887104511261e+01 8.515286207199096680e+00 1.302041556779300890e+00
2.722455461323261261e+01 6.849392652511596680e+00 1.400552298966800890e+00
1.510455949604511261e+01 5.153591871261596680e+00 6.696257852949258904e-01
1.500629289448261261e+01 5.274441480636596680e+00 6.688475870527383904e-01
1.480060441792011261e+01 5.374661207199096680e+00 6.613860392011758904e-01
1.471271379292011261e+01 5.493435621261596680e+00 6.610961222089883904e-01
2.668903215229511261e+01 8.056179761886596680e+00 1.417291190568363390e+00
1.520807512104511261e+01 5.870388746261596680e+00 7.027373575605508904e-01
2.639252336323261261e+01 8.512356519699096680e+00 1.418450858537113390e+00
2.755255754292011261e+01 6.895535230636596680e+00 1.541375663224613390e+00
1.827912004292011261e+01 5.663967847824096680e+00 9.410186075605508904e-01
1.496332414448261261e+01 5.265286207199096680e+00 7.282195352949258904e-01
1.835870988667011261e+01 6.020169019699096680e+00 9.596801065839883904e-01
1.552814348042011261e+01 5.648464918136596680e+00 7.768035196699258904e-01
1.520343644917011261e+01 5.726345777511596680e+00 7.605376505293008904e-01
1.500385148823261261e+01 5.825222730636596680e+00 7.525267862714883904e-01
2.739057023823261261e+01 8.732205152511596680e+00 1.603585746232425890e+00
2.964557512104511261e+01 7.208035230636596680e+00 1.808297660294925890e+00
1.828192766010761261e+01 5.662136793136596680e+00 1.018975760880863390e+00
1.822504289448261261e+01 5.822659254074096680e+00 1.021752860490238390e+00
1.845380266010761261e+01 6.035183668136596680e+00 1.044900443498050890e+00
2.948651750385761261e+01 8.327664136886596680e+00 1.842858817521488390e+00
1.520929582417011261e+01 5.725735425949096680e+00 8.248076700605508904e-01
2.681683976948261261e+01 8.338162183761596680e+00 1.672372367326175890e+00
2.665277726948261261e+01 8.564236402511596680e+00 1.670907523576175890e+00
2.712177141010761261e+01 6.823513746261596680e+00 1.750436332169925890e+00
1.828497941792011261e+01 5.660427808761596680e+00 1.097009208146488390e+00
1.815106828510761261e+01 5.807766675949096680e+00 1.093423392716800890e+00
1.824298723042011261e+01 5.994656324386596680e+00 1.107354667130863390e+00
2.775934465229511261e+01 7.992581129074096680e+00 1.841226127091800890e+00
2.707245500385761261e+01 8.124050855636596680e+00 1.799523856583988390e+00
2.741693742573261261e+01 8.462673902511596680e+00 1.837609794083988390e+00
2.915534074604511261e+01 9.119656324386596680e+00 1.983636405412113390e+00
1.847980363667011261e+01 5.517727613449096680e+00 1.183221366349613390e+00
1.828937394917011261e+01 5.658840894699096680e+00 1.174767997208988390e+00
1.823981340229511261e+01 5.820828199386596680e+00 1.177896048966800890e+00
2.547089250385761261e+01 7.304226636886596680e+00 1.768304374162113390e+00
2.807538469135761261e+01 8.049710035324096680e+00 1.989755179826175890e+00
2.816742570698261261e+01 8.342190504074096680e+00 2.008660819474613390e+00
2.661774308979511261e+01 8.289456129074096680e+00 1.893197562638675890e+00
2.903766496479511261e+01 9.089871168136596680e+00 2.104150321427738390e+00
1.384369523823261261e+01 5.730252027511596680e+00 -2.389435506425741096e-01
1.361395891010761261e+01 5.803494215011596680e+00 -2.341980672441366096e-01
1.402057512104511261e+01 6.029568433761596680e+00 -2.340759969316366096e-01
1.404498918354511261e+01 6.167019605636596680e+00 -2.312836385331991096e-01
1.397406633198261261e+01 6.279690504074096680e+00 -2.278809285722616096e-01
1.388776262104511261e+01 6.387234449386596680e+00 -2.244171834550741096e-01
1.355951555073261261e+01 6.424099683761596680e+00 -2.195801473222616096e-01
1.373273332417011261e+01 6.604641675949096680e+00 -2.179474568925741096e-01
1.358637101948261261e+01 5.670681715011596680e+00 -1.809296346269491096e-01
1.361017473042011261e+01 5.801174879074096680e+00 -1.780304647050741096e-01
1.426691301167011261e+01 6.088650465011596680e+00 -1.760163045488241096e-01
1.437238176167011261e+01 6.249539136886596680e+00 -1.730255818925741096e-01
1.399091203510761261e+01 6.282742261886596680e+00 -1.692871785722616096e-01
1.414459855854511261e+01 6.457302808761596680e+00 -1.663574910722616096e-01
1.426373918354511261e+01 6.626370191574096680e+00 -1.635956502519491096e-01
1.401532609760761261e+01 6.687893629074096680e+00 -1.602081990800741096e-01
1.421271379292011261e+01 5.810330152511596680e+00 -1.232971883378866096e-01
1.334735734760761261e+01 5.737698316574096680e+00 -1.222443318925741096e-01
1.430231340229511261e+01 6.095852613449096680e+00 -1.165070272050741096e-01
1.394513566792011261e+01 6.138333082199096680e+00 -1.142792440019491096e-01
1.406574113667011261e+01 6.301174879074096680e+00 -1.106323934160116096e-01
1.402130754292011261e+01 6.421536207199096680e+00 -1.075043416581991096e-01
1.407123430073261261e+01 6.569119215011596680e+00 -1.040100789628866096e-01
1.401007707417011261e+01 6.684963941574096680e+00 -1.009430623613241096e-01
1.369086320698261261e+01 5.691189527511596680e+00 -6.809088950976160959e-02
1.353998430073261261e+01 5.781643629074096680e+00 -6.561896568163660959e-02
1.432074601948261261e+01 6.098782300949096680e+00 -5.647895103319910959e-02
1.383685930073261261e+01 6.109036207199096680e+00 -5.676886802538660959e-02
1.436823137104511261e+01 6.380642652511596680e+00 -4.910895591601160959e-02
1.413934953510761261e+01 6.452786207199096680e+00 -4.749152427538660959e-02
1.411701066792011261e+01 6.580960035324096680e+00 -4.419562583788660959e-02
1.440814836323261261e+01 6.802761793136596680e+00 -3.841254478319910959e-02
9.583197191357612610e+00 4.765530347824096680e+00 -5.939337974413660959e-02
9.650335863232612610e+00 4.864285230636596680e+00 -5.634162193163660959e-02
9.718817308545112610e+00 4.965237379074096680e+00 -5.321357017382410959e-02
9.789129808545112610e+00 5.068753004074096680e+00 -5.000922447069910959e-02
9.860907152295112610e+00 5.174343824386596680e+00 -4.674384361132410959e-02
9.934271410107612610e+00 5.282498121261596680e+00 -4.340216880663660959e-02
1.000958879292011261e+01 5.393460035324096680e+00 -3.996894126757410959e-02
1.008649308979511261e+01 5.506619215011596680e+00 -3.645941978319910959e-02
9.532660081982612610e+00 4.753079175949096680e+00 -2.306220298632410959e-02
9.598455980420112610e+00 4.850979566574096680e+00 -1.943061118944910959e-02
9.665960863232612610e+00 4.951199293136596680e+00 -1.592108970507410959e-02
9.735296800732612610e+00 5.053982496261596680e+00 -1.230475669726160959e-02
9.805853441357612610e+00 5.158718824386596680e+00 -8.642647322261609588e-03
9.878119066357612610e+00 5.265896558761596680e+00 -4.873726423824109588e-03
9.956610277295112610e+00 5.377102613449096680e+00 -9.369588456991095882e-04
1.003961808979511261e+01 5.491604566574096680e+00 2.923514787113390412e-03
9.538397386670112610e+00 4.753445386886596680e+00 1.419975990430089041e-02
9.611395433545112610e+00 4.853054761886596680e+00 1.818230384961339041e-02
9.685980394482612610e+00 4.955105543136596680e+00 2.227165931836339041e-02
9.762762621045112610e+00 5.059963941574096680e+00 2.648308509961339041e-02
9.841131761670112610e+00 5.167141675949096680e+00 3.077080482617589041e-02
9.921454027295112610e+00 5.276882886886596680e+00 3.516533607617589041e-02
1.000409562885761261e+01 5.389919996261596680e+00 3.969719642773839041e-02
1.008856828510761261e+01 5.505276441574096680e+00 4.432060951367589041e-02
9.580511644482612610e+00 4.761868238449096680e+00 5.225517982617589041e-02
9.654364183545112610e+00 4.862210035324096680e+00 5.672600502148839041e-02
9.730169847607612610e+00 4.964993238449096680e+00 6.150200599805089041e-02
9.807928636670112610e+00 5.070584058761596680e+00 6.621697181836339041e-02
9.886786058545112610e+00 5.178372144699096680e+00 7.100823158398839041e-02
9.959417894482612610e+00 5.286404371261596680e+00 7.569267982617589041e-02
1.003412492573261261e+01 5.397488355636596680e+00 8.030083412305089041e-02
1.011005266010761261e+01 5.510769605636596680e+00 8.521416420117589041e-02
9.570135667920112610e+00 4.758572340011596680e+00 8.930351966992589041e-02
9.635565355420112610e+00 4.856838941574096680e+00 9.397270912305089041e-02
9.702581956982612610e+00 4.957180738449096680e+00 9.873345131055089041e-02
9.771307542920112610e+00 5.060208082199096680e+00 1.036162638105508904e-01
9.841375902295112610e+00 5.165188550949096680e+00 1.085906290449258904e-01
9.913031175732612610e+00 5.272610425949096680e+00 1.136718058027383904e-01
9.986517503857612610e+00 5.382839918136596680e+00 1.189055704511758904e-01
1.006146867573261261e+01 5.495266675949096680e+00 1.242308878339883904e-01
9.528387621045112610e+00 4.748196363449096680e+00 1.249785684980508904e-01
9.593206956982612610e+00 4.845852613449096680e+00 1.299987100996133904e-01
9.659369066357612610e+00 4.945584058761596680e+00 1.351256632246133904e-01
9.727240160107612610e+00 5.048001050949096680e+00 1.403899454511758904e-01
9.797796800732612610e+00 5.152615308761596680e+00 1.458068155683633904e-01
9.880682542920112610e+00 5.262600660324096680e+00 1.517424845136758904e-01
9.965887621045112610e+00 5.375881910324096680e+00 1.578460001386758904e-01
1.005316789448261261e+01 5.491726636886596680e+00 1.641021036543008904e-01
9.537909105420112610e+00 4.749294996261596680e+00 1.625151895918008904e-01
9.613958910107612610e+00 4.849758863449096680e+00 1.684050821699258904e-01
9.692083910107612610e+00 4.952664136886596680e+00 1.744323038496133904e-01
9.772284105420112610e+00 5.058499097824096680e+00 1.806426309980508904e-01
9.854315355420112610e+00 5.166653394699096680e+00 1.869750284589883904e-01
9.938543871045112610e+00 5.277737379074096680e+00 1.934905313886758904e-01
1.002521379292011261e+01 5.391995191574096680e+00 2.001891397871133904e-01
1.011383683979511261e+01 5.508938550949096680e+00 2.070403360761758904e-01
9.589911058545112610e+00 4.760037183761596680e+00 2.018523477949258904e-01
9.667303636670112610e+00 4.861233472824096680e+00 2.082610392011758904e-01
9.746527269482612610e+00 4.964993238449096680e+00 2.148375772871133904e-01
1.501312883198261261e+01 6.397976636886596680e+00 4.588713907636758904e-01
1.457025773823261261e+01 6.422146558761596680e+00 4.434600138105508904e-01
1.529083879292011261e+01 6.759915113449096680e+00 4.818511270918008904e-01
2.712543351948261261e+01 1.031448054313659668e+01 1.042031791154300890e+00
6.642011125385761261e+01 2.232864069938659668e+01 2.909509208146488390e+00
1.548322160542011261e+01 6.079006910324096680e+00 5.302672647871133904e-01
1.529132707417011261e+01 6.178982496261596680e+00 5.260100626386758904e-01
1.565204484760761261e+01 6.410916090011596680e+00 5.489745401777383904e-01
1.466852433979511261e+01 6.308254957199096680e+00 5.047240518964883904e-01
2.714020402729511261e+01 9.767849683761596680e+00 1.144433524552738390e+00
3.615241105854511261e+01 1.253689265251159668e+01 1.616509940568363390e+00
3.567999894917011261e+01 1.277334284782409668e+01 1.606561210099613390e+00
7.312763078510761261e+01 2.432387995719909668e+01 3.570718314591800890e+00
2.635822160542011261e+01 8.511868238449096680e+00 1.183312919083988390e+00
1.525946672260761261e+01 6.169827222824096680e+00 5.885253214277383904e-01
3.722406633198261261e+01 1.169192194938659668e+01 1.799005057755863390e+00
1.466303117573261261e+01 6.305203199386596680e+00 5.664000772871133904e-01
8.283331926167011261e+01 2.458865046501159668e+01 4.366387870255863390e+00
1.533197648823261261e+01 6.767971754074096680e+00 6.143584513105508904e-01
3.567877824604511261e+01 1.276894831657409668e+01 1.769006278458988390e+00
8.062287004292011261e+01 2.655288386344909668e+01 4.339425589982425890e+00
2.638751848042011261e+01 8.515286207199096680e+00 1.301827933732425890e+00
3.260553605854511261e+01 1.023098444938659668e+01 1.679284598771488390e+00
7.096478898823261261e+01 1.994619441032409668e+01 3.977944877091800890e+00
8.276483781635761261e+01 2.369668269157409668e+01 4.714623954240238390e+00
8.163764055073261261e+01 2.426076960563659668e+01 4.680047538224613390e+00
3.590021379292011261e+01 1.245888972282409668e+01 1.930795218888675890e+00
3.566327531635761261e+01 1.276052546501159668e+01 1.930627372208988390e+00
8.056635148823261261e+01 2.652663874626159668e+01 4.716332938615238390e+00
2.638837297260761261e+01 8.512356519699096680e+00 1.418221976701175890e+00
2.665802629292011261e+01 8.834744215011596680e+00 1.445840384904300890e+00
3.316852433979511261e+01 1.069094538688659668e+01 1.875329520646488390e+00
8.298468644917011261e+01 2.460928034782409668e+01 5.150231864396488390e+00
3.561725480854511261e+01 1.237649226188659668e+01 2.076333548966800890e+00
3.556964738667011261e+01 1.272951960563659668e+01 2.087853934708988390e+00
8.105316789448261261e+01 2.666262507438659668e+01 5.126916434708988390e+00
2.739020402729511261e+01 8.733059644699096680e+00 1.603601005021488390e+00
3.260993058979511261e+01 1.022427058219909668e+01 1.972375419083988390e+00
8.389044816792011261e+01 2.484011530876159668e+01 5.600411918107425890e+00
3.560040910542011261e+01 1.236770319938659668e+01 2.237084891740238390e+00
3.568341691792011261e+01 1.275820612907409668e+01 2.258050467912113390e+00
8.265863664448261261e+01 2.713186335563659668e+01 5.624108817521488390e+00
2.664960344135761261e+01 8.564480543136596680e+00 1.670709159318363390e+00
3.261310441792011261e+01 1.022109675407409668e+01 2.119500663224613390e+00
8.336920793354511261e+01 2.469155573844909668e+01 5.954812552873050890e+00
3.561224992573261261e+01 1.236684870719909668e+01 2.400750663224613390e+00
3.568500383198261261e+01 1.275454401969909668e+01 2.421777274552738390e+00
8.253558976948261261e+01 2.708559870719909668e+01 6.003198172990238390e+00
2.915460832417011261e+01 9.120510816574096680e+00 1.983621146623050890e+00
3.261640031635761261e+01 1.021792292594909668e+01 2.266686942521488390e+00
3.314276750385761261e+01 1.067300105094909668e+01 2.321450736466800890e+00
3.581268937885761261e+01 1.241811823844909668e+01 2.578774955216800890e+00
3.561395891010761261e+01 1.273012995719909668e+01 2.579721000138675890e+00
2.903949601948261261e+01 9.091336011886596680e+00 2.104333426896488390e+00
3.259162004292011261e+01 1.020827937126159668e+01 2.410836722794925890e+00
3.588629777729511261e+01 1.243435359001159668e+01 2.748895194474613390e+00
3.545856340229511261e+01 1.268142390251159668e+01 2.728951957169925890e+00
1.375482805073261261e+01 6.611721754074096680e+00 -2.180542684160116096e-01
1.390961320698261261e+01 6.791287183761596680e+00 -2.159943318925741096e-01
1.420905168354511261e+01 7.021633863449096680e+00 -2.148651815019491096e-01
1.049628312885761261e+01 5.924221754074096680e+00 -1.943421102128866096e-01
1.411847551167011261e+01 7.268215894699096680e+00 -2.090210652910116096e-01
1.398200090229511261e+01 7.358792066574096680e+00 -2.057099080644491096e-01
1.424213273823261261e+01 7.593167066574096680e+00 -2.040619588456991096e-01
1.453827531635761261e+01 7.847439527511596680e+00 -2.027802205644491096e-01
1.401471574604511261e+01 6.688259840011596680e+00 -1.602081990800741096e-01
1.388776262104511261e+01 6.782986402511596680e+00 -1.573242879472616096e-01
1.379279191792011261e+01 6.886257886886596680e+00 -1.541809774003866096e-01
1.049689348042011261e+01 5.923367261886596680e+00 -1.515259481035116096e-01
1.397186906635761261e+01 7.216458082199096680e+00 -1.484741902910116096e-01
1.394269426167011261e+01 7.343533277511596680e+00 -1.456055379472616096e-01
1.376569230854511261e+01 7.417141675949096680e+00 -1.431336141191366096e-01
1.448175676167011261e+01 7.824612379074096680e+00 -1.395630574785116096e-01
1.400983293354511261e+01 6.685330152511596680e+00 -1.009278035722616096e-01
1.387274797260761261e+01 6.777004957199096680e+00 -9.850165611132410959e-02
1.425531633198261261e+01 7.033596754074096680e+00 -9.372565513476160959e-02
1.049738176167011261e+01 5.922512769699096680e+00 -1.089081502519491096e-01
1.403803117573261261e+01 7.237820386886596680e+00 -8.856818443163660959e-02
1.392828996479511261e+01 7.337063550949096680e+00 -8.605048423632410959e-02
1.479682023823261261e+01 7.793484449386596680e+00 -7.803961997851160959e-02
1.464606340229511261e+01 7.885281324386596680e+00 -7.558295493944910959e-02
1.440814836323261261e+01 6.803250074386596680e+00 -3.839728599413660959e-02
1.022638566792011261e+01 5.642971754074096680e+00 -7.321784263476160959e-02
1.030890519917011261e+01 5.763211011886596680e+00 -7.019660240038660959e-02
1.039374406635761261e+01 5.887112379074096680e+00 -6.706855064257410959e-02
1.048065812885761261e+01 6.013699293136596680e+00 -6.387946372851160959e-02
1.061249406635761261e+01 6.158962965011596680e+00 -6.017157798632410959e-02
1.074518449604511261e+01 6.308621168136596680e+00 -5.635688072069910959e-02
1.088287980854511261e+01 6.463406324386596680e+00 -5.263373618944910959e-02
1.008710344135761261e+01 5.507229566574096680e+00 -3.644416099413660959e-02
1.016620500385761261e+01 5.623318433761596680e+00 -3.301093345507410959e-02
1.024725969135761261e+01 5.742459058761596680e+00 -2.948615318163660959e-02
1.033075578510761261e+01 5.865139722824096680e+00 -2.585456138476160959e-02
1.041608293354511261e+01 5.990628004074096680e+00 -2.214667564257410959e-02
1.053143937885761261e+01 6.129299879074096680e+00 -1.791999107226160959e-02
1.066144426167011261e+01 6.277004957199096680e+00 -1.335761314257410959e-02
1.079584367573261261e+01 6.429592847824096680e+00 -8.657906111324109588e-03
1.004035051167011261e+01 5.492214918136596680e+00 2.938773576175890412e-03
1.012604387104511261e+01 5.609890699386596680e+00 7.226493302738390412e-03
1.021381242573261261e+01 5.730740308761596680e+00 1.139214271680089041e-02
1.030438859760761261e+01 5.855374097824096680e+00 1.569512123242589041e-02
1.039716203510761261e+01 5.983059644699096680e+00 2.010491127148839041e-02
1.052106340229511261e+01 6.124539136886596680e+00 2.521660560742589041e-02
1.066547258198261261e+01 6.277371168136596680e+00 3.083183998242589041e-02
1.081476457417011261e+01 6.435696363449096680e+00 3.641655677930089041e-02
1.008917863667011261e+01 5.505764722824096680e+00 4.433586830273839041e-02
1.017584855854511261e+01 5.624294996261596680e+00 4.898979896680089041e-02
1.026483781635761261e+01 5.746121168136596680e+00 5.376579994336339041e-02
1.035663469135761261e+01 5.871731519699096680e+00 5.869438881055089041e-02
1.045075090229511261e+01 6.000515699386596680e+00 6.374504799023839041e-02
1.058942277729511261e+01 6.147854566574096680e+00 6.997063392773839041e-02
1.073627336323261261e+01 6.302395582199096680e+00 7.653191322461339041e-02
1.088300187885761261e+01 6.460476636886596680e+00 8.320000404492589041e-02
1.011066301167011261e+01 5.511257886886596680e+00 8.522942299023839041e-02
1.018866594135761261e+01 5.627346754074096680e+00 9.018852943555089041e-02
1.026825578510761261e+01 5.746243238449096680e+00 9.549858802930089041e-02
1.035053117573261261e+01 5.868679761886596680e+00 1.007323526777383904e-01
1.043463762104511261e+01 5.994045972824096680e+00 1.060881876386758904e-01
1.055145891010761261e+01 6.133450269699096680e+00 1.124816202558633904e-01
1.067963273823261261e+01 6.280667066574096680e+00 1.191039347089883904e-01
1.081171281635761261e+01 6.432522535324096680e+00 1.261687540449258904e-01
1.006207902729511261e+01 5.495754957199096680e+00 1.242614054121133904e-01
1.013898332417011261e+01 5.610867261886596680e+00 1.296782755293008904e-01
1.021784074604511261e+01 5.729031324386596680e+00 1.352324747480508904e-01
1.029901750385761261e+01 5.850613355636596680e+00 1.409545206464883904e-01
1.038190324604511261e+01 5.974880933761596680e+00 1.467986368574258904e-01
1.046710832417011261e+01 6.102566480636596680e+00 1.527953409589883904e-01
1.063312394917011261e+01 6.262600660324096680e+00 1.617217325605508904e-01
1.078937394917011261e+01 6.423123121261596680e+00 1.704345011152383904e-01
1.005390031635761261e+01 5.492336988449096680e+00 1.641326212324258904e-01
1.014349992573261261e+01 5.611355543136596680e+00 1.705413126386758904e-01
1.023566301167011261e+01 5.733792066574096680e+00 1.771178507246133904e-01
1.033087785542011261e+01 5.860256910324096680e+00 1.839232706464883904e-01
1.042853410542011261e+01 5.989895582199096680e+00 1.908965372480508904e-01
1.056720598042011261e+01 6.136990308761596680e+00 1.995940470136758904e-01
1.072089250385761261e+01 6.293728590011596680e+00 2.090239786543008904e-01
1.088056047260761261e+01 6.456448316574096680e+00 2.188048624433633904e-01
1.011456926167011261e+01 5.509426832199096680e+00 2.070861124433633904e-01
1.020575578510761261e+01 5.629666090011596680e+00 2.141356729902383904e-01
1.029950578510761261e+01 5.753201246261596680e+00 2.213988565839883904e-01
1.463507707417011261e+01 7.287258863449096680e+00 4.137969278730508904e-01
7.650995500385761261e+01 2.864797663688659668e+01 3.141229178849613390e+00
2.040412004292011261e+01 9.619045972824096680e+00 6.797576212324258904e-01
2.035175187885761261e+01 9.811550855636596680e+00 6.846709513105508904e-01
1.976886613667011261e+01 9.803616285324096680e+00 6.656127237714883904e-01
6.641120012104511261e+01 2.232827448844909668e+01 2.909173514787113390e+00
6.633124406635761261e+01 2.300820612907409668e+01 2.930566337052738390e+00
6.561237199604511261e+01 2.348611140251159668e+01 2.921365287248050890e+00
7.584406144917011261e+01 2.758755183219909668e+01 3.442452933732425890e+00
7.456207902729511261e+01 2.797182917594909668e+01 3.409295585099613390e+00
7.472785051167011261e+01 2.884548640251159668e+01 3.446603324357425890e+00
2.032465226948261261e+01 9.799465894699096680e+00 7.746367716230508904e-01
2.066034562885761261e+01 1.013735651969909668e+01 7.990050577558633904e-01
7.311957414448261261e+01 2.432412409782409668e+01 3.570397880021488390e+00
7.965985734760761261e+01 2.712624812126159668e+01 3.942727591935550890e+00
7.744086320698261261e+01 2.726980280876159668e+01 3.855203177873050890e+00
7.752973039448261261e+01 2.813796687126159668e+01 3.891168143693363390e+00
7.711994035542011261e+01 2.884011530876159668e+01 3.900537040177738390e+00
7.490094621479511261e+01 2.889858698844909668e+01 3.811852958146488390e+00
7.506037004292011261e+01 2.978396296501159668e+01 3.853280570451175890e+00
6.722699601948261261e+01 2.766677546501159668e+01 3.453485038224613390e+00
8.061713273823261261e+01 2.655398249626159668e+01 4.339211966935550890e+00
8.027240617573261261e+01 2.730679011344909668e+01 4.352731254044925890e+00
7.810004289448261261e+01 2.747219538688659668e+01 4.260674979630863390e+00
7.689179094135761261e+01 2.791787409782409668e+01 4.223168876115238390e+00
7.531915910542011261e+01 2.821462702751159668e+01 4.163384940568363390e+00
7.557648332417011261e+01 2.912929987907409668e+01 4.210458304826175890e+00
7.477435930073261261e+01 2.967153620719909668e+01 4.195107963029300890e+00
6.947809465229511261e+01 2.850686335563659668e+01 3.909951713029300890e+00
8.056268937885761261e+01 2.652846980094909668e+01 4.716226127091800890e+00
7.919306047260761261e+01 2.696377253532409668e+01 4.663659598771488390e+00
7.734735734760761261e+01 2.722231745719909668e+01 4.582345511857425890e+00
7.843891008198261261e+01 2.842190241813659668e+01 4.684793021623050890e+00
7.784369523823261261e+01 2.907095026969909668e+01 4.681314017716800890e+00
7.557318742573261261e+01 2.911990046501159668e+01 4.570474173966800890e+00
7.671552141010761261e+01 3.037185359001159668e+01 4.677560355607425890e+00
7.501593644917011261e+01 3.058315730094909668e+01 4.603539969865238390e+00
8.107050187885761261e+01 2.667055964469909668e+01 5.128182914201175890e+00
8.075800187885761261e+01 2.743850398063659668e+01 5.143304374162113390e+00
8.009137590229511261e+01 2.809206843376159668e+01 5.134500052873050890e+00
7.865717180073261261e+01 2.848537898063659668e+01 5.073358085099613390e+00
7.766412980854511261e+01 2.900075984001159668e+01 5.041146781388675890e+00
7.727985246479511261e+01 2.971499323844909668e+01 5.050134208146488390e+00
7.742706926167011261e+01 3.062307429313659668e+01 5.095941092912113390e+00
