7.700041078031063080e+00 3.230451649054884911e+00 4.967182115652235552e-02
8.567594788968563080e+00 3.330549305304884911e+00 8.113544420339735552e-02
8.461759828031063080e+00 3.392927234992384911e+00 7.988422350027235552e-02
8.460417054593563080e+00 3.460310047492384911e+00 8.218830064870985552e-02
8.403654359281063080e+00 3.523542469367384911e+00 8.255451158620985552e-02
8.717008851468563080e+00 3.617658680304884911e+00 9.592121080495985552e-02
8.179777406156063080e+00 3.118146961554884911e+00 9.088581041433485552e-02
8.467375062406063080e+00 3.190046375617384911e+00 1.040083690080848555e-01
8.502897523343563080e+00 3.258649891242384911e+00 1.077009959612098555e-01
8.539030335843563080e+00 3.328229969367384911e+00 1.114699168596473555e-01
8.518278382718563080e+00 3.395124500617384911e+00 1.130568309221473555e-01
8.460783265531063080e+00 3.459333484992384911e+00 1.131789012346473555e-01
8.649381898343563080e+00 3.541364734992384911e+00 1.229903026018348555e-01
8.687101624906063080e+00 3.613996570929884911e+00 1.269270701799598555e-01
8.198942445218563080e+00 3.117536609992384911e+00 1.214796824846473555e-01
8.136442445218563080e+00 3.180402820929884911e+00 1.210982127580848555e-01
8.505827210843563080e+00 3.257673328742384911e+00 1.389662547502723555e-01
8.548063538968563080e+00 3.327497547492384911e+00 1.431776805315223555e-01
8.518766663968563080e+00 3.394147938117384911e+00 1.443068309221473555e-01
8.461271546781063080e+00 3.458356922492384911e+00 1.441847606096473555e-01
8.678068421781063080e+00 3.542463367804884911e+00 1.563154979143348555e-01
8.722502015531063080e+00 3.616071766242384911e+00 1.607405467424598555e-01
8.224088929593563080e+00 3.116926258429884911e+00 1.523634715471473555e-01
8.498991273343563080e+00 3.188825672492384911e+00 1.675612254533973555e-01
8.540983460843563080e+00 3.257917469367384911e+00 1.719557567033973555e-01
8.583708070218563080e+00 3.328107899054884911e+00 1.764113231096473555e-01
8.626798890531063080e+00 3.399152820929884911e+00 1.809126658830848555e-01
8.670500062406063080e+00 3.471052234992384911e+00 1.854750438127723555e-01
8.714933656156063080e+00 3.544294422492384911e+00 1.901137156877723555e-01
8.759977601468563080e+00 3.618269031867384911e+00 1.948134227190223555e-01
8.166227601468563080e+00 3.114973133429884911e+00 1.793867869768348555e-01
8.653410218656063080e+00 3.191755359992384911e+00 2.066389842424598555e-01
8.606901429593563080e+00 3.259138172492384911e+00 2.067000193987098555e-01
9.566129945218563080e+00 3.372053211554884911e+00 2.592970652971473555e-01
8.839079163968563080e+00 3.409895008429884911e+00 2.238356395158973555e-01
8.874723695218563080e+00 3.483503406867384911e+00 2.282759471330848555e-01
9.060636781156063080e+00 3.569440906867384911e+00 2.407423777971473555e-01
8.938566468656063080e+00 3.632551258429884911e+00 2.370039744768348555e-01
8.161710999906063080e+00 3.113874500617384911e+00 2.087141795549598555e-01
8.169035218656063080e+00 3.178205555304884911e+00 2.114302440080848555e-01
8.540251038968563080e+00 3.255720203742384911e+00 2.347304149065223555e-01
8.774870179593563080e+00 3.334821766242384911e+00 2.505385203752723555e-01
9.207365296781063080e+00 3.429304188117384911e+00 2.778364940080848555e-01
8.850675843656063080e+00 3.480817859992384911e+00 2.599837108049598555e-01
2.990499713271856308e+01 5.146345203742384911e+00 1.483067206898709856e+00
9.018400453031063080e+00 3.638288563117384911e+00 2.749068065080848555e-01
8.157072328031063080e+00 3.112775867804884911e+00 2.381636424455848555e-01
8.164396546781063080e+00 3.177106922492384911e+00 2.407728953752723555e-01
8.874235413968563080e+00 3.266584461554884911e+00 2.864882274065223555e-01
9.248014710843563080e+00 3.355207508429884911e+00 3.120619578752723555e-01
9.211515687406063080e+00 3.428449695929884911e+00 3.125349803362098555e-01
9.176115296781063080e+00 3.501081531867384911e+00 3.130385203752723555e-01
7.854940631240606308e+01 8.817487781867384911e+00 4.656849555531522356e+00
9.021208070218563080e+00 3.637434070929884911e+00 3.088881297502723555e-01
8.264005921781063080e+00 3.113386219367384911e+00 2.746626658830848555e-01
8.159879945218563080e+00 3.176008289679884911e+00 2.702376170549598555e-01
8.892912171781063080e+00 3.266096180304884911e+00 3.207747264299598555e-01
9.224943421781063080e+00 3.353010242804884911e+00 3.453413768205848555e-01
9.216154359281063080e+00 3.427595203742384911e+00 3.474928660783973555e-01
9.180265687406063080e+00 3.500227039679884911e+00 3.478285594377723555e-01
9.077970765531063080e+00 3.567487781867384911e+00 3.436934276018348555e-01
9.024015687406063080e+00 3.636701649054884911e+00 3.427321238908973555e-01
8.261808656156063080e+00 3.112409656867384911e+00 3.047377391252723555e-01
8.454801820218563080e+00 3.182355945929884911e+00 3.206373973283973555e-01
2.650778033584356308e+01 3.884504383429884911e+00 1.592899970570584856e+00
8.946867249906063080e+00 3.339338367804884911e+00 3.602034373674598555e-01
2.754720904678106308e+01 4.438093250617384911e+00 1.684986762562772356e+00
9.184538148343563080e+00 3.499372547492384911e+00 3.824965281877723555e-01
9.784506060928106308e+01 1.024656493030488491e+01 6.754948310414334856e+00
9.026823304593563080e+00 3.635847156867384911e+00 3.767897410783973555e-01
8.259611390531063080e+00 3.111311024054884911e+00 3.347822947893348555e-01
1.441488482803106308e+01 3.330549305304884911e+00 7.962385936174598555e-01
2.710409381240606308e+01 3.901594227179884911e+00 1.752232245961209856e+00
9.269621156156063080e+00 3.352766102179884911e+00 4.179579539690223555e-01
9.228483460843563080e+00 3.426008289679884911e+00 4.176222606096473555e-01
9.190641663968563080e+00 3.498640125617384911e+00 4.175154490862098555e-01
2.774557330459356308e+01 4.967390125617384911e+00 1.838856391469022356e+00
9.029630921781063080e+00 3.634992664679884911e+00 4.108778758440223555e-01
8.354826234281063080e+00 3.596296375617384911e+00 -2.226212696637901445e-01
8.258634828031063080e+00 3.653425281867384911e+00 -2.194932179059776445e-01
8.157194398343563080e+00 3.708112781867384911e+00 -2.165330128278526445e-01
8.663175843656063080e+00 3.832990711554884911e+00 -2.196458057966026445e-01
8.639250062406063080e+00 3.900007313117384911e+00 -2.173722462262901445e-01
9.036222718656063080e+00 4.025007313117384911e+00 -2.190201954450401445e-01
9.771452210843563080e+00 4.208723133429884911e+00 -2.234910206403526445e-01
9.046354554593563080e+00 4.175520008429884911e+00 -2.149308399762901445e-01
8.349333070218563080e+00 3.594953602179884911e+00 -1.919816212262901445e-01
8.716032288968563080e+00 3.697248524054884911e+00 -1.921647266950401445e-01
8.148405335843563080e+00 3.706281727179884911e+00 -1.867173389997276445e-01
8.891447328031063080e+00 3.858991688117384911e+00 -1.887162403669151445e-01
8.658293031156063080e+00 3.901472156867384911e+00 -1.853898243512901445e-01
8.651212953031063080e+00 3.970686024054884911e+00 -1.832535938825401445e-01
9.281095765531063080e+00 4.134870594367384911e+00 -1.841080860700401445e-01
9.001188538968563080e+00 4.167341297492384911e+00 -1.806595997419151445e-01
8.342741273343563080e+00 3.593366688117384911e+00 -1.613724903669151445e-01
8.185880921781063080e+00 3.644392078742384911e+00 -1.591599659528526445e-01
8.153044007718563080e+00 3.705793445929884911e+00 -1.571458057966026445e-01
8.874235413968563080e+00 3.855939930304884911e+00 -1.556657032575401445e-01
8.677458070218563080e+00 3.902937000617384911e+00 -1.533921436872276445e-01
8.327116273343563080e+00 3.925031727179884911e+00 -1.512253956403526445e-01
8.999601624906063080e+00 4.092023914679884911e+00 -1.490281300153526445e-01
9.165373109281063080e+00 4.192365711554884911e+00 -1.466782764997276445e-01
8.336027406156063080e+00 3.591779774054884911e+00 -1.309922413434776445e-01
8.240446351468563080e+00 3.648786609992384911e+00 -1.291001514997276445e-01
8.753874085843563080e+00 3.769636219367384911e+00 -1.252091602887901445e-01
8.938200257718563080e+00 3.862409656867384911e+00 -1.222794727887901445e-01
8.884733460843563080e+00 3.928449695929884911e+00 -1.202347950544151445e-01
8.968229554593563080e+00 4.012556141242384911e+00 -1.176102833356651445e-01
8.977018617093563080e+00 4.087629383429884911e+00 -1.152756886091026445e-01
1.381161334365606308e+01 4.926984852179884911e+00 -8.817607923410264448e-02
8.329191468656063080e+00 3.590192859992384911e+00 -1.005051807966026445e-01
8.233854554593563080e+00 3.647199695929884911e+00 -9.916240735910264448e-02
8.772062562406063080e+00 3.770490711554884911e+00 -9.267742200754014448e-02
8.910124085843563080e+00 3.858015125617384911e+00 -8.924419446847764448e-02
8.837126038968563080e+00 3.921369617804884911e+00 -8.759624524972764448e-02
8.918791078031063080e+00 4.004743641242384911e+00 -8.457500501535264448e-02
8.207487367093563080e+00 3.972761219367384911e+00 -8.903057142160264448e-02
9.132536195218563080e+00 4.185041492804884911e+00 -7.784587903879014448e-02
8.312467835843563080e+00 3.587751453742384911e+00 -7.035381360910264448e-02
8.227262757718563080e+00 3.645612781867384911e+00 -6.913311048410264448e-02
8.790373109281063080e+00 3.771467274054884911e+00 -5.979473157785264448e-02
8.858244203031063080e+00 3.850935047492384911e+00 -5.660564466379014448e-02
8.923063538968563080e+00 3.931257313117384911e+00 -5.340129896066514448e-02
8.977018617093563080e+00 4.011701649054884911e+00 -5.031902357004014448e-02
9.031950257718563080e+00 4.093732899054884911e+00 -4.717571302316514448e-02
9.088102601468563080e+00 4.176984852179884911e+00 -4.415447278879014448e-02
8.655607484281063080e+00 3.616682117804884911e+00 -3.412944837472764448e-02
8.741056703031063080e+00 3.694562977179884911e+00 -3.039104505441514448e-02
8.780363343656063080e+00 3.769392078742384911e+00 -2.740032239816514448e-02
8.820402406156063080e+00 3.845441883429884911e+00 -2.434856458566514448e-02
8.881193421781063080e+00 3.924909656867384911e+00 -2.090007825754014448e-02
8.935514710843563080e+00 4.004987781867384911e+00 -1.754314466379014448e-02
8.996061585843563080e+00 4.087385242804884911e+00 -1.400310560129014448e-02
9.057585023343563080e+00 4.171247547492384911e+00 -1.040203138254014448e-02
8.254362367093563080e+00 3.580793445929884911e+00 -1.084453626535264448e-02
8.730436585843563080e+00 3.692487781867384911e+00 1.682929554959855523e-03
8.796110413968563080e+00 3.770002430304884911e+00 5.650214711209855523e-03
8.840788148343563080e+00 3.846784656867384911e+00 9.037665883084855523e-03
8.910978578031063080e+00 3.927717274054884911e+00 1.302020982839735552e-02
8.970915101468563080e+00 4.008771961554884911e+00 1.683490709402235552e-02
9.031950257718563080e+00 4.091657703742384911e+00 2.052753404714735552e-02
9.094084046781063080e+00 4.175886219367384911e+00 2.447956041433485552e-02
8.739103578031063080e+00 3.621931141242384911e+00 3.197162584402235552e-02
8.715421937406063080e+00 3.690046375617384911e+00 3.372638658620985552e-02
8.797697328031063080e+00 3.769147938117384911e+00 3.830402330495985552e-02
8.872160218656063080e+00 3.849470203742384911e+00 4.274433092214735552e-02
8.946012757718563080e+00 3.931135242804884911e+00 4.719989732839735552e-02
9.006437562406063080e+00 4.012678211554884911e+00 5.135028795339735552e-02
9.068327210843563080e+00 4.096052234992384911e+00 5.560749010183485552e-02
9.129484437406063080e+00 4.180524891242384911e+00 5.986469225027235552e-02
8.347135804593563080e+00 3.586896961554884911e+00 5.225055650808485552e-02
8.700529359281063080e+00 3.687604969367384911e+00 6.547992662527235552e-02
8.782438538968563080e+00 3.766462391242384911e+00 7.045429185964735552e-02
8.865934632718563080e+00 3.847761219367384911e+00 7.555072740652235552e-02
8.930265687406063080e+00 3.928083484992384911e+00 8.009784654714735552e-02
8.983366273343563080e+00 4.008527820929884911e+00 8.432453111745985552e-02
9.037687562406063080e+00 4.090559070929884911e+00 8.864276842214735552e-02
9.092741273343563080e+00 4.173688953742384911e+00 9.302204088308485552e-02
8.717252992093563080e+00 3.617902820929884911e+00 9.595172838308485552e-02
8.685514710843563080e+00 3.685041492804884911e+00 9.726398424245985552e-02
8.767179749906063080e+00 3.763898914679884911e+00 1.026503367815223555e-01
8.834440492093563080e+00 3.843000477179884911e+00 1.075789256487098555e-01
8.895353578031063080e+00 3.922712391242384911e+00 1.123244090471473555e-01
8.947965882718563080e+00 4.002546375617384911e+00 1.168104930315223555e-01
9.001798890531063080e+00 4.084211414679884911e+00 1.213881297502723555e-01
9.056242249906063080e+00 4.166853016242384911e+00 1.260420604143348555e-01
8.687345765531063080e+00 3.614362781867384911e+00 1.269423289690223555e-01
8.670744203031063080e+00 3.682600086554884911e+00 1.287581248674598555e-01
8.775724671781063080e+00 3.763776844367384911e+00 1.355025096330848555e-01
8.821867249906063080e+00 3.840559070929884911e+00 1.399122996721473555e-01
8.892301820218563080e+00 3.921247547492384911e+00 1.453749461565223555e-01
8.954313538968563080e+00 4.002424305304884911e+00 1.505324168596473555e-01
9.017790101468563080e+00 4.085554188117384911e+00 1.558119578752723555e-01
9.082365296781063080e+00 4.170026844367384911e+00 1.611830516252723555e-01
8.722868226468563080e+00 3.616315906867384911e+00 1.607710643205848555e-01
8.768034242093563080e+00 3.691022938117384911e+00 1.653181834612098555e-01
8.813688538968563080e+00 3.766706531867384911e+00 1.697737498674598555e-01
8.860441468656063080e+00 3.843977039679884911e+00 1.744887156877723555e-01
8.935270570218563080e+00 3.925642078742384911e+00 1.805159373674598555e-01
8.998136781156063080e+00 4.007429188117384911e+00 1.860701365862098555e-01
9.062711976468563080e+00 4.091047352179884911e+00 1.919295115862098555e-01
9.128019593656063080e+00 4.176130359992384911e+00 1.976973338518348555e-01
8.760221742093563080e+00 3.618513172492384911e+00 1.948439402971473555e-01
8.805998109281063080e+00 3.693586414679884911e+00 1.996809764299598555e-01
8.852384828031063080e+00 3.769880359992384911e+00 2.046095652971473555e-01
2.234506060928106308e+01 5.411115711554884911e+00 8.845717235002723555e-01
1.418490435928106308e+01 4.588239734992384911e+00 4.795576854143348555e-01
2.756088092178106308e+01 6.541120594367384911e+00 1.165562324086209856e+00
1.454684283584356308e+01 4.894880359992384911e+00 5.074049754533973555e-01
1.451229693740606308e+01 5.020124500617384911e+00 5.103956981096473555e-01
8.939176820218563080e+00 3.632795399054884911e+00 2.370344920549598555e-01
8.983976624906063080e+00 3.709577625617384911e+00 2.419783397112098555e-01
9.164518617093563080e+00 3.801862781867384911e+00 2.545210643205848555e-01
2.232992389053106308e+01 5.406477039679884911e+00 9.790846629533973555e-01
2.715402057021856308e+01 6.224103992804884911e+00 1.253117255726834856e+00
2.745248248428106308e+01 6.522687977179884911e+00 1.279286078969022356e+00
2.788119342178106308e+01 6.848005359992384911e+00 1.313023261586209856e+00
1.820175006240606308e+01 5.596906727179884911e+00 7.780806346330848555e-01
9.018156312406063080e+00 3.638532703742384911e+00 2.749068065080848555e-01
8.981046937406063080e+00 3.708234852179884911e+00 2.754866404924598555e-01
9.121549867093563080e+00 3.796247547492384911e+00 2.865492625627723555e-01
2.221383502334356308e+01 5.389997547492384911e+00 1.067997626820584856e+00
2.757284381240606308e+01 6.273298328742384911e+00 1.396580390492459856e+00
2.735482623428106308e+01 6.505720203742384911e+00 1.393330268422147356e+00
2.770565631240606308e+01 6.818708484992384911e+00 1.424473456898709856e+00
1.506063678115606308e+01 5.102521961554884911e+00 6.630446238908973555e-01
9.020963929593563080e+00 3.637678211554884911e+00 3.088881297502723555e-01
8.940275453031063080e+00 3.703352039679884911e+00 3.064009471330848555e-01
8.958219788968563080e+00 3.777937000617384911e+00 3.103377147112098555e-01
2.233517291396856308e+01 5.401105945929884911e+00 1.170567206898709856e+00
2.789559771865606308e+01 6.310163563117384911e+00 1.537113837758084856e+00
2.961483599990606308e+01 6.809797352179884911e+00 1.658817939320584856e+00
2.745687701553106308e+01 6.778547352179884911e+00 1.528874091664334856e+00
1.816549517959356308e+01 5.586652820929884911e+00 9.293104930315223555e-01
9.023771546781063080e+00 3.636945789679884911e+00 3.427321238908973555e-01
2.248104693740606308e+01 4.995588367804884911e+00 1.260197333851834856e+00
2.228866412490606308e+01 5.184431141242384911e+00 1.255161933461209856e+00
2.233199908584356308e+01 5.397687977179884911e+00 1.266239814320584856e+00
2.782113482803106308e+01 6.297102039679884911e+00 1.653889350453397356e+00
2.717037799209356308e+01 6.473371570929884911e+00 1.618916205922147356e+00
2.722689654678106308e+01 6.741315906867384911e+00 1.632954291859647356e+00
1.826107623428106308e+01 5.599226063117384911e+00 1.012501411000272356e+00
9.026701234281063080e+00 3.636091297492384911e+00 3.767744822893348555e-01
2.657028033584356308e+01 5.382551258429884911e+00 1.653462104359647356e+00
2.197286822646856308e+01 5.148054188117384911e+00 1.327198676625272356e+00
2.232870318740606308e+01 5.394392078742384911e+00 1.361393622914334856e+00
2.780404498428106308e+01 6.291242664679884911e+00 1.773564033070584856e+00
3.153292682021856308e+01 7.062360828742384911e+00 2.060581855336209856e+00
2.701156451553106308e+01 6.706281727179884911e+00 1.736012153187772356e+00
1.826730182021856308e+01 5.597883289679884911e+00 1.090305976429959856e+00
9.029508851468563080e+00 3.635236805304884911e+00 4.108778758440223555e-01
2.253146197646856308e+01 4.994367664679884911e+00 1.456318549672147356e+00
2.197994830459356308e+01 5.145856922492384911e+00 1.421879462758084856e+00
2.232540728896856308e+01 5.391096180304884911e+00 1.457050971547147356e+00
2.248861529678106308e+01 5.620100086554884911e+00 1.478184394398709856e+00
2.690609576553106308e+01 6.430280750617384911e+00 1.834889106312772356e+00
2.701620318740606308e+01 6.703474109992384911e+00 1.853901557484647356e+00
1.827572467178106308e+01 5.596906727179884911e+00 1.168369941273709856e+00
9.046598695218563080e+00 4.175764149054884911e+00 -2.149308399762901445e-01
9.706877015531063080e+00 4.362165516242384911e+00 -2.183793263044151445e-01
9.057585023343563080e+00 4.327619617804884911e+00 -2.109025196637901445e-01
1.319503619521856308e+01 5.187604969367384911e+00 -2.417405323591026445e-01
1.349923541396856308e+01 5.366926258429884911e+00 -2.409623341169151445e-01
1.351046588271856308e+01 5.491315906867384911e+00 -2.378342823591026445e-01
1.391940142959356308e+01 5.704694813117384911e+00 -2.374985889997276445e-01
1.322237994521856308e+01 5.671003406867384911e+00 -2.296708302106651445e-01
9.001432679593563080e+00 4.167707508429884911e+00 -1.806443409528526445e-01
9.030851624906063080e+00 4.246931141242384911e+00 -1.787369923200401445e-01
9.067594788968563080e+00 4.328352039679884911e+00 -1.766617970075401445e-01
1.313143756240606308e+01 5.174055164679884911e+00 -1.878159718122276445e-01
1.309225299209356308e+01 5.284040516242384911e+00 -1.845048145856651445e-01
1.421725299209356308e+01 5.638288563117384911e+00 -1.843369679059776445e-01
1.423690631240606308e+01 5.773176258429884911e+00 -1.811478809919151445e-01
1.353109576553106308e+01 5.740827625617384911e+00 -1.760819630231651445e-01
9.164640687406063080e+00 4.192487781867384911e+00 -1.466782764997276445e-01
9.117643617093563080e+00 4.260603016242384911e+00 -1.445725636091026445e-01
9.045500062406063080e+00 4.323469227179884911e+00 -1.425278858747276445e-01
1.308834674209356308e+01 5.164289539679884911e+00 -1.347459034528526445e-01
1.305807330459356308e+01 5.275617664679884911e+00 -1.314957813825401445e-01
1.457613971084356308e+01 5.712019031867384911e+00 -1.251939014997276445e-01
1.361166217178106308e+01 5.633649891242384911e+00 -1.236222462262901445e-01
1.346261432021856308e+01 5.723493641242384911e+00 -1.205247120466026445e-01
1.381149127334356308e+01 4.927351063117384911e+00 -8.816082044504014448e-02
9.127775453031063080e+00 4.261213367804884911e+00 -1.100114063825401445e-01
9.087492249906063080e+00 4.329938953742384911e+00 -1.080582813825401445e-01
1.305404498428106308e+01 5.156354969367384911e+00 -8.170635267160264448e-02
1.352047564834356308e+01 5.366437977179884911e+00 -7.534343763254014448e-02
1.422299029678106308e+01 5.636213367804884911e+00 -6.710369153879014448e-02
1.353976275771856308e+01 5.616193836554884911e+00 -6.811077161691514448e-02
1.351363971084356308e+01 5.733747547492384911e+00 -6.501323743722764448e-02
9.132902406156063080e+00 4.185407703742384911e+00 -7.784587903879014448e-02
9.137785218656063080e+00 4.261945789679884911e+00 -7.554180189035264448e-02
9.249601624906063080e+00 4.357893055304884911e+00 -7.210857435129014448e-02
9.309904359281063080e+00 4.447004383429884911e+00 -6.913311048410264448e-02
9.371183656156063080e+00 4.537702625617384911e+00 -6.612712903879014448e-02
9.433683656156063080e+00 4.630109852179884911e+00 -6.304485364816514448e-02
9.497770570218563080e+00 4.724714344367384911e+00 -5.990154310129014448e-02
9.562834046781063080e+00 4.821027820929884911e+00 -5.669719739816514448e-02
9.088468812406063080e+00 4.177351063117384911e+00 -4.413921399972764448e-02
9.145231507718563080e+00 4.262189930304884911e+00 -4.079753919504014448e-02
9.203336976468563080e+00 4.348615711554884911e+00 -3.759319349191514448e-02
9.262785218656063080e+00 4.437116688117384911e+00 -3.429729505441514448e-02
9.323210023343563080e+00 4.527082508429884911e+00 -3.095562024972764448e-02
9.384855531156063080e+00 4.618879383429884911e+00 -2.755291028879014448e-02
9.447965882718563080e+00 4.712751453742384911e+00 -2.405864759347764448e-02
9.512419007718563080e+00 4.808454578742384911e+00 -2.070171399972764448e-02
9.058073304593563080e+00 4.171491688117384911e+00 -1.038677259347764448e-02
9.120695374906063080e+00 4.256940906867384911e+00 -6.800957163790144477e-03
9.184782288968563080e+00 4.344343250617384911e+00 -3.138847788790144477e-03
9.250334046781063080e+00 4.433698719367384911e+00 6.148143205848555226e-04
9.317228578031063080e+00 4.524885242804884911e+00 4.429511586209855523e-03
9.385465882718563080e+00 4.617902820929884911e+00 8.335761586209855523e-03
9.455534242093563080e+00 4.713483875617384911e+00 1.233356432058485552e-02
9.526823304593563080e+00 4.810773914679884911e+00 1.640766100027235552e-02
9.094572328031063080e+00 4.176252430304884911e+00 2.451007799245985552e-02
9.157926820218563080e+00 4.262189930304884911e+00 2.847736314870985552e-02
9.222868226468563080e+00 4.350080555304884911e+00 3.271930650808485552e-02
9.289274476468563080e+00 4.440046375617384911e+00 3.688495592214735552e-02
9.356901429593563080e+00 4.531721180304884911e+00 4.111164049245985552e-02
9.425993226468563080e+00 4.625349109992384911e+00 4.544513658620985552e-02
9.496671937406063080e+00 4.721418445929884911e+00 4.968707994558485552e-02
9.568815492093563080e+00 4.819318836554884911e+00 5.420368150808485552e-02
9.129972718656063080e+00 4.180769031867384911e+00 5.989520982839735552e-02
9.186735413968563080e+00 4.266096180304884911e+00 6.404560045339735552e-02
9.244474671781063080e+00 4.352888172492384911e+00 6.827228502370985552e-02
9.303678773343563080e+00 4.441755359992384911e+00 7.260578111745985552e-02
9.363859437406063080e+00 4.532087391242384911e+00 7.701557115652235552e-02
9.425138734281063080e+00 4.624250477179884911e+00 8.150165514089735552e-02
9.487882874906063080e+00 4.718488758429884911e+00 8.609455064870985552e-02
9.551725648343563080e+00 4.814436024054884911e+00 9.077899889089735552e-02
9.093229554593563080e+00 4.174055164679884911e+00 9.305255846120985552e-02
9.149381898343563080e+00 4.258771961554884911e+00 9.749286607839735552e-02
9.206510804593563080e+00 4.345075672492384911e+00 1.020247264299598555e-01
9.264982484281063080e+00 4.433454578742384911e+00 1.066786570940223555e-01
9.324430726468563080e+00 4.523298328742384911e+00 1.113936229143348555e-01
9.385099671781063080e+00 4.614851063117384911e+00 1.162001414690223555e-01
9.447111390531063080e+00 4.708601063117384911e+00 1.211134715471473555e-01
9.510221742093563080e+00 4.803815906867384911e+00 1.261183543596473555e-01
9.056608460843563080e+00 4.167219227179884911e+00 1.260573192033973555e-01
9.112150453031063080e+00 4.251447742804884911e+00 1.308028026018348555e-01
9.169401429593563080e+00 4.337507313117384911e+00 1.356550975237098555e-01
9.237516663968563080e+00 4.427228992804884911e+00 1.410109324846473555e-01
9.306974671781063080e+00 4.518781727179884911e+00 1.464583201799598555e-01
9.378019593656063080e+00 4.612287586554884911e+00 1.520277781877723555e-01
9.451017640531063080e+00 4.708356922492384911e+00 1.577345652971473555e-01
9.525358460843563080e+00 4.806257313117384911e+00 1.635634227190223555e-01
9.082853578031063080e+00 4.170270984992384911e+00 1.612135692033973555e-01
9.148771546781063080e+00 4.256574695929884911e+00 1.667372508440223555e-01
9.216154359281063080e+00 4.344831531867384911e+00 1.723830027971473555e-01
9.285246156156063080e+00 4.435285633429884911e+00 1.781813426408973555e-01
9.355802796781063080e+00 4.527448719367384911e+00 1.840864940080848555e-01
9.427824281156063080e+00 4.621687000617384911e+00 1.901137156877723555e-01
9.501798890531063080e+00 4.718488758429884911e+00 1.963087840471473555e-01
9.577238343656063080e+00 4.817243641242384911e+00 2.026259227190223555e-01
9.128507874906063080e+00 4.176496570929884911e+00 1.977431102190223555e-01
9.195402406156063080e+00 4.263410633429884911e+00 2.036940379533973555e-01
9.263517640531063080e+00 4.352155750617384911e+00 2.095839305315223555e-01
1.473458697646856308e+01 5.458356922492384911e+00 4.759108348283973555e-01
1.437728717178106308e+01 5.522077625617384911e+00 4.635206981096473555e-01
1.496688678115606308e+01 5.776472156867384911e+00 4.971968455705848555e-01
1.544930865615606308e+01 6.020612781867384911e+00 5.264326854143348555e-01
1.525546099990606308e+01 6.119733875617384911e+00 5.220839305315223555e-01
1.451363971084356308e+01 5.020734852179884911e+00 5.104872508440223555e-01
1.505062701553106308e+01 5.241315906867384911e+00 5.433852000627723555e-01
1.469674517959356308e+01 5.315290516242384911e+00 5.299727244768348555e-01
1.472079303115606308e+01 5.453962391242384911e+00 5.362898631487098555e-01
1.436776568740606308e+01 5.518415516242384911e+00 5.225722117815223555e-01
1.497225787490606308e+01 5.775739734992384911e+00 5.599409861955848555e-01
2.656136920303106308e+01 8.452131336554884911e+00 1.191288642445584856e+00
1.522396685928106308e+01 6.110700672492384911e+00 5.840956492815223555e-01
1.820211627334356308e+01 5.597517078742384911e+00 7.781111522112098555e-01
1.500570514053106308e+01 5.232038563117384911e+00 6.028792186174598555e-01
1.809591510146856308e+01 5.916242664679884911e+00 7.846724315080848555e-01
1.542538287490606308e+01 5.584455555304884911e+00 6.375777049455848555e-01
1.516696002334356308e+01 5.675031727179884911e+00 6.280714793596473555e-01
1.507723834365606308e+01 5.795881336554884911e+00 6.282240672502723555e-01
2.707418658584356308e+01 8.561140125617384911e+00 1.338169745961209856e+00
3.248373248428106308e+01 1.006687743030488491e+01 1.669056586781522356e+00
1.506002642959356308e+01 5.102888172492384911e+00 6.630141063127723555e-01
1.496237017959356308e+01 5.222883289679884911e+00 6.624037547502723555e-01
1.536288287490606308e+01 5.429792469367384911e+00 6.925246043596473555e-01
1.466757037490606308e+01 5.440412586554884911e+00 6.548201365862098555e-01
1.517635943740606308e+01 5.675031727179884911e+00 6.919752879533973555e-01
1.499679400771856308e+01 5.777326649054884911e+00 6.861769481096473555e-01
2.646224810928106308e+01 8.423933094367384911e+00 1.419193915883084856e+00
3.250704791396856308e+01 1.006822020374238491e+01 1.815479926625272356e+00
1.816598346084356308e+01 5.587263172492384911e+00 9.293562693987098555e-01
1.491964557021856308e+01 5.213972156867384911e+00 7.212569041643348555e-01
1.826278521865606308e+01 5.941389149054884911e+00 9.489790721330848555e-01
1.546529986709356308e+01 5.588117664679884911e+00 7.687269969377723555e-01
1.518575885146856308e+01 5.675153797492384911e+00 7.556502147112098555e-01
1.494198443740606308e+01 5.764143055304884911e+00 7.447859568987098555e-01
2.660885455459356308e+01 8.452741688117384911e+00 1.545551948109647356e+00
2.674618365615606308e+01 8.744611805304884911e+00 1.566120795765897356e+00
1.825887896865606308e+01 5.599470203742384911e+00 1.012364081898709856e+00
1.816488482803106308e+01 5.752912586554884911e+00 1.012684516469022356e+00
1.828036334365606308e+01 5.942243641242384911e+00 1.027867011586209856e+00
1.850643756240606308e+01 6.155744617804884911e+00 1.051106147328397356e+00
2.667696978896856308e+01 7.943952625617384911e+00 1.646794013539334856e+00
1.499459674209356308e+01 5.773420399054884911e+00 8.110091014299598555e-01
2.672103717178106308e+01 8.473859852179884911e+00 1.671452216664334856e+00
3.254379107803106308e+01 1.006858641467988491e+01 2.109165839711209856e+00
1.826498248428106308e+01 5.598127430304884911e+00 1.090153388539334856e+00
1.816549517959356308e+01 5.750837391242384911e+00 1.089771918812772356e+00
1.829232623428106308e+01 5.941999500617384911e+00 1.106083564320584856e+00
1.850265338271856308e+01 6.152814930304884911e+00 1.129353217640897356e+00
2.753195025771856308e+01 8.109479969367384911e+00 1.829365424672147356e+00
2.667721392959356308e+01 8.199934070929884911e+00 1.774708442250272356e+00
2.907613971084356308e+01 8.984724109992384911e+00 1.972538642445584856e+00
2.645101764053106308e+01 8.670515125617384911e+00 1.779667548695584856e+00
1.817404010146856308e+01 5.581647938117384911e+00 1.160298041859647356e+00
1.815377642959356308e+01 5.746564930304884911e+00 1.165486030140897356e+00
1.829598834365606308e+01 5.940412586554884911e+00 1.184193305531522356e+00
1.849716021865606308e+01 6.149519031867384911e+00 1.207859687367459856e+00
2.752499224990606308e+01 8.104597156867384911e+00 1.950474433461209856e+00
2.741683795303106308e+01 8.350202625617384911e+00 1.953144721547147356e+00
2.725045611709356308e+01 8.582868641242384911e+00 1.951008491078397356e+00
3.256918170303106308e+01 1.006626707874238491e+01 2.403553657094022356e+00
1.322128131240606308e+01 5.671247547492384911e+00 -2.296555714216026445e-01
1.306332232803106308e+01 5.753767078742384911e+00 -2.255051807966026445e-01
1.396896197646856308e+01 6.101789539679884911e+00 -2.284653858747276445e-01
1.397811724990606308e+01 6.234602039679884911e+00 -2.254899220075401445e-01
1.383468463271856308e+01 6.326154774054884911e+00 -2.215989307966026445e-01
1.404501178115606308e+01 6.515729969367384911e+00 -2.197526173200401445e-01
1.396407916396856308e+01 6.625227039679884911e+00 -2.161973194684776445e-01
1.378866412490606308e+01 6.704206531867384911e+00 -2.125199513044151445e-01
1.353133990615606308e+01 5.741315906867384911e+00 -1.760667042341026445e-01
1.311300494521856308e+01 5.764265125617384911e+00 -1.722367481794151445e-01
1.430795123428106308e+01 6.185773914679884911e+00 -1.709244923200401445e-01
1.389730670303106308e+01 6.211774891242384911e+00 -1.670792774762901445e-01
1.400558307021856308e+01 6.371320789679884911e+00 -1.640122608747276445e-01
1.428390338271856308e+01 6.582136219367384911e+00 -1.610215382184776445e-01
1.383932330459356308e+01 6.586896961554884911e+00 -1.577561573591026445e-01
1.387081744521856308e+01 6.727888172492384911e+00 -1.545365528669151445e-01
1.332186724990606308e+01 5.691389149054884911e+00 -1.208756641950401445e-01
1.450362994521856308e+01 6.098493641242384911e+00 -1.143906788434776445e-01
1.382076861709356308e+01 6.061384266242384911e+00 -1.130479054059776445e-01
1.401840045303106308e+01 6.242048328742384911e+00 -1.090653614606651445e-01
1.389303424209356308e+01 6.338972156867384911e+00 -1.061509327497276445e-01
1.401974322646856308e+01 6.505476063117384911e+00 -1.022904591169151445e-01
1.365548541396856308e+01 6.531110828742384911e+00 -1.004136280622276445e-01
1.385030963271856308e+01 6.720075672492384911e+00 -9.621746107004014448e-02
1.351266314834356308e+01 5.733991688117384911e+00 -6.501323743722764448e-02
1.429366900771856308e+01 6.046247547492384911e+00 -5.547649427316514448e-02
1.372030474990606308e+01 6.034528797492384911e+00 -5.640728040597764448e-02
1.427157428115606308e+01 6.306989734992384911e+00 -4.848796888254014448e-02
1.410897662490606308e+01 6.396467274054884911e+00 -4.626018567941514448e-02
9.969328187406063080e+00 5.354108875617384911e+00 -7.877666517160264448e-02
1.004562213271856308e+01 5.465803211554884911e+00 -7.569438978097764448e-02
1.012374713271856308e+01 5.579938953742384911e+00 -7.274944349191514448e-02
9.563322328031063080e+00 4.821516102179884911e+00 -5.668193860910264448e-02
9.630094788968563080e+00 4.919904774054884911e+00 -5.355388685129014448e-02
9.698332093656063080e+00 5.020612781867384911e+00 -5.034954114816514448e-02
9.768400453031063080e+00 5.123884266242384911e+00 -4.706890149972764448e-02
9.839811585843563080e+00 5.229230945929884911e+00 -4.371196790597764448e-02
9.912931703031063080e+00 5.337141102179884911e+00 -4.027874036691514448e-02
9.988004945218563080e+00 5.447858875617384911e+00 -3.675396009347764448e-02
1.006466510146856308e+01 5.560895984992384911e+00 -3.315288587472764448e-02
9.512907288968563080e+00 4.808820789679884911e+00 -2.068645521066514448e-02
9.578459046781063080e+00 4.906477039679884911e+00 -1.697856946847764448e-02
9.645719788968563080e+00 5.006330555304884911e+00 -1.339275403879014448e-02
9.714689515531063080e+00 5.108747547492384911e+00 -9.700127085665144477e-03
9.785002015531063080e+00 5.213239734992384911e+00 -5.931206187227644477e-03
9.864347718656063080e+00 5.322248524054884911e+00 -1.963921030977644477e-03
9.946012757718563080e+00 5.434431141242384911e+00 2.140693226834855523e-03
1.002938678115606308e+01 5.549055164679884911e+00 6.107978383084855523e-03
9.527433656156063080e+00 4.811140125617384911e+00 1.643817857839735552e-02
9.600309632718563080e+00 4.910627430304884911e+00 2.051227525808485552e-02
9.675016663968563080e+00 5.012678211554884911e+00 2.469318346120985552e-02
9.751798890531063080e+00 5.117536609992384911e+00 2.899616197683485552e-02
9.830290101468563080e+00 5.224592274054884911e+00 3.339069322683485552e-02
9.910734437406063080e+00 5.334455555304884911e+00 3.789203600027235552e-02
9.993498109281063080e+00 5.447370594367384911e+00 4.253070787527235552e-02
1.007821490615606308e+01 5.562971180304884911e+00 4.726093248464735552e-02
9.569425843656063080e+00 4.819807117804884911e+00 5.421894029714735552e-02
9.643278382718563080e+00 4.920026844367384911e+00 5.878131822683485552e-02
9.719084046781063080e+00 5.022687977179884911e+00 6.366413072683485552e-02
9.796964906156063080e+00 5.128278797492384911e+00 6.847064928152235552e-02
9.867887757718563080e+00 5.233869617804884911e+00 7.315509752370985552e-02
9.940153382718563080e+00 5.341779774054884911e+00 7.793109850027235552e-02
1.001461627334356308e+01 5.452619617804884911e+00 8.263080553152235552e-02
1.009042193740606308e+01 5.565656727179884911e+00 8.763568834402235552e-02
9.552335999906063080e+00 4.814802234992384911e+00 9.079425767995985552e-02
9.617521546781063080e+00 4.912824695929884911e+00 9.553974107839735552e-02
9.684294007718563080e+00 5.012922352179884911e+00 1.003767772112098555e-01
9.752775453031063080e+00 5.115705555304884911e+00 1.053511424455848555e-01
9.822477601468563080e+00 5.220441883429884911e+00 1.104018016252723555e-01
9.893888734281063080e+00 5.327619617804884911e+00 1.155897899065223555e-01
9.967130921781063080e+00 5.437604969367384911e+00 1.209151072893348555e-01
1.004196002334356308e+01 5.549909656867384911e+00 1.263319774065223555e-01
9.510710023343563080e+00 4.804304188117384911e+00 1.261488719377723555e-01
9.575285218656063080e+00 4.901594227179884911e+00 1.312453074846473555e-01
9.641081117093563080e+00 5.001081531867384911e+00 1.364638133440223555e-01
9.708708070218563080e+00 5.103132313117384911e+00 1.418043895158973555e-01
9.786344788968563080e+00 5.209577625617384911e+00 1.475874705705848555e-01
9.869352601468563080e+00 5.319685047492384911e+00 1.536299510393348555e-01
9.954801820218563080e+00 5.432966297492384911e+00 1.598555369768348555e-01
1.004232623428106308e+01 5.548933094367384911e+00 1.662337108049598555e-01
9.525968812406063080e+00 4.806745594367384911e+00 1.636091990862098555e-01
9.602140687406063080e+00 4.907087391242384911e+00 1.695906443987098555e-01
9.680265687406063080e+00 5.009870594367384911e+00 1.757246776018348555e-01
9.760587953031063080e+00 5.115705555304884911e+00 1.820418162737098555e-01
9.842741273343563080e+00 5.223981922492384911e+00 1.884962840471473555e-01
9.927091859281063080e+00 5.334943836554884911e+00 1.951185985002723555e-01
1.001400592178106308e+01 5.449323719367384911e+00 2.019392772112098555e-01
1.010287310928106308e+01 5.566389149054884911e+00 2.089278026018348555e-01
9.577848695218563080e+00 4.817609852179884911e+00 2.026716990862098555e-01
9.655241273343563080e+00 4.918806141242384911e+00 2.091872020158973555e-01
9.734586976468563080e+00 5.022443836554884911e+00 2.158705516252723555e-01
1.453341510146856308e+01 6.362653797492384911e+00 4.403731151018348555e-01
6.576132037490606308e+01 2.044138914905488491e+01 2.828724555531522356e+00
1.493417193740606308e+01 6.750349109992384911e+00 4.691664500627723555e-01
6.703573443740606308e+01 2.219688231311738491e+01 2.939304999867459856e+00
6.575509478896856308e+01 2.251560789905488491e+01 2.904026679554959856e+00
1.525485064834356308e+01 6.120100086554884911e+00 5.220686717424598555e-01
1.514718463271856308e+01 6.236433094367384911e+00 5.220228953752723555e-01
1.463155963271856308e+01 6.249128406867384911e+00 5.009962840471473555e-01
1.452804400771856308e+01 6.359602039679884911e+00 5.009047313127723555e-01
1.530489947646856308e+01 6.707746570929884911e+00 5.458723826799598555e-01
3.561300494521856308e+01 1.259605223499238491e+01 1.601032905140897356e+00
7.390756060928106308e+01 2.420628172717988491e+01 3.611591987172147356e+00
8.363583209365606308e+01 2.795152098499238491e+01 4.152073554554959856e+00
1.522323443740606308e+01 6.111066883429884911e+00 5.840803904924598555e-01
7.086483599990606308e+01 1.960655028186738491e+01 3.640400580922147356e+00
1.462618853896856308e+01 6.246076649054884911e+00 5.621382518205848555e-01
7.066158892959356308e+01 2.102122313342988491e+01 3.686039619008084856e+00
8.257089068740606308e+01 2.499571043811738491e+01 4.382343940297147356e+00
3.561471392959356308e+01 1.259226805530488491e+01 1.763737372914334856e+00
8.078158404678106308e+01 2.621470457874238491e+01 4.348194770375272356e+00
7.977999713271856308e+01 2.676804930530488491e+01 4.324085883656522356e+00
3.248324420303106308e+01 1.006785399280488491e+01 1.669071845570584856e+00
7.147897174209356308e+01 1.974497801624238491e+01 4.003529243031522356e+00
8.372884967178106308e+01 2.354990965686738491e+01 4.767704658070584856e+00
8.254318072646856308e+01 2.411472899280488491e+01 4.731053046742459856e+00
8.272030474990606308e+01 2.502622801624238491e+01 4.776356391469022356e+00
3.561910846084356308e+01 1.258921629749238491e+01 1.925800971547147356e+00
8.051156451553106308e+01 2.612571532092988491e+01 4.709980659047147356e+00
8.000973346084356308e+01 2.682835203967988491e+01 4.715016059437772356e+00
3.250704791396856308e+01 1.006931883655488491e+01 1.815525702992459856e+00
3.236947467178106308e+01 1.035996825061738491e+01 1.820011786976834856e+00
8.381014849990606308e+01 2.355967528186738491e+01 5.163502387562772356e+00
8.300033404678106308e+01 2.422373778186738491e+01 5.146763495961209856e+00
3.562374713271856308e+01 1.258628660999238491e+01 2.088825873890897356e+00
3.572237994521856308e+01 1.298252684436738491e+01 2.110523871937772356e+00
8.037142779678106308e+01 2.692869383655488491e+01 5.115101508656522356e+00
2.674764849990606308e+01 8.745832508429884911e+00 1.566242866078397356e+00
3.237704303115606308e+01 1.035789305530488491e+01 1.965351752797147356e+00
8.373348834365606308e+01 2.440464598499238491e+01 5.584187202015897356e+00
8.336654498428106308e+01 2.518125731311738491e+01 5.595493964711209856e+00
3.562655474990606308e+01 1.258286864124238491e+01 2.250965766469022356e+00
8.239535357803106308e+01 2.665830809436738491e+01 5.600910834828397356e+00
8.030306842178106308e+01 2.689829832874238491e+01 5.489933661976834856e+00
3.254183795303106308e+01 1.006919676624238491e+01 2.109074286976834856e+00
3.272933795303106308e+01 1.043821532092988491e+01 2.137028388539334856e+00
8.356771685928106308e+01 2.435093504749238491e+01 5.963627509633084856e+00
8.351766803115606308e+01 2.521189696155488491e+01 5.997975043812772356e+00
3.563265826553106308e+01 1.258030516467988491e+01 2.414280585804959856e+00
3.577059771865606308e+01 1.298826414905488491e+01 2.440800361195584856e+00
2.644784381240606308e+01 8.670759266242384911e+00 1.779469184437772356e+00
8.315353228896856308e+01 2.510276610217988491e+01 6.358738593617459856e+00
3.563717486709356308e+01 1.257737547717988491e+01 2.576710395375272356e+00
3.602828814834356308e+01 1.305955321155488491e+01 2.625691108265897356e+00
3.535616900771856308e+01 1.322801024280488491e+01 2.587666205922147356e+00
3.256832721084356308e+01 1.006724364124238491e+01 2.403523139515897356e+00
3.247604205459356308e+01 1.036961180530488491e+01 2.409977607289334856e+00
3.546359088271856308e+01 1.252415282092988491e+01 2.724919013539334856e+00
3.584322955459356308e+01 1.300108153186738491e+01 2.774281196156522356e+00
3.539437701553106308e+01 1.323545653186738491e+01 2.753483466664334856e+00
1.379171588271856308e+01 6.705549305304884911e+00 -2.125199513044151445e-01
1.409786822646856308e+01 6.934187000617384911e+00 -2.110245899762901445e-01
1.045870807021856308e+01 5.877058094367384911e+00 -1.913254932966026445e-01
1.038851764053106308e+01 5.950178211554884911e+00 -1.890366749372276445e-01
1.396114947646856308e+01 7.297346180304884911e+00 -2.020676807966026445e-01
1.414864947646856308e+01 7.502180164679884911e+00 -2.000077442731651445e-01
1.368514849990606308e+01 7.470197742804884911e+00 -1.953995899762901445e-01
1.409530474990606308e+01 7.763654774054884911e+00 -1.943925098981651445e-01
1.386996295303106308e+01 6.728010242804884911e+00 -1.545212940778526445e-01
1.377059771865606308e+01 6.829084461554884911e+00 -1.516221241559776445e-01
1.045931842178106308e+01 5.876203602179884911e+00 -1.490433888044151445e-01
1.038766314834356308e+01 5.948835438117384911e+00 -1.469376759137901445e-01
1.392172076553106308e+01 7.282087391242384911e+00 -1.424363331403526445e-01
1.381258990615606308e+01 7.379377430304884911e+00 -1.395524220075401445e-01
1.418795611709356308e+01 7.656110828742384911e+00 -1.364243702497276445e-01
1.442880084365606308e+01 7.890241688117384911e+00 -1.329911427106651445e-01
1.384945514053106308e+01 6.720319813117384911e+00 -9.620220228097764448e-02
1.375790240615606308e+01 6.823591297492384911e+00 -9.354717298410264448e-02
1.045992877334356308e+01 5.875349109992384911e+00 -1.069596485700401445e-01
1.038668658584356308e+01 5.947492664679884911e+00 -1.050675587262901445e-01
1.389571978896856308e+01 7.271589344367384911e+00 -8.343059583566514448e-02
1.379830767959356308e+01 7.372907703742384911e+00 -8.079082532785264448e-02
1.430612017959356308e+01 7.698713367804884911e+00 -7.451946302316514448e-02
1.471114947646856308e+01 7.997175281867384911e+00 -6.861431165597764448e-02
1.012435748428106308e+01 5.580427234992384911e+00 -7.273418470285264448e-02
1.020419146865606308e+01 5.697370594367384911e+00 -6.946880384347764448e-02
1.028646685928106308e+01 5.817487781867384911e+00 -6.634075208566514448e-02
1.037106158584356308e+01 5.941145008429884911e+00 -6.312114759347764448e-02
1.048397662490606308e+01 6.077009266242384911e+00 -5.955059095285264448e-02
1.061202838271856308e+01 6.221418445929884911e+00 -5.573589368722764448e-02
1.074520709365606308e+01 6.371687000617384911e+00 -5.176860853097764448e-02
1.088351275771856308e+01 6.527326649054884911e+00 -4.789287610910264448e-02
1.006527545303106308e+01 5.561384266242384911e+00 -3.313762708566514448e-02
1.014401080459356308e+01 5.677351063117384911e+00 -2.961284681222764448e-02
1.022494342178106308e+01 5.796369617804884911e+00 -2.598125501535264448e-02
1.030819537490606308e+01 5.918806141242384911e+00 -2.224285169504014448e-02
1.039340045303106308e+01 6.044294422492384911e+00 -1.841289564035264448e-02
1.053072955459356308e+01 6.191022938117384911e+00 -1.371318860910264448e-02
1.066122271865606308e+01 6.339460438117384911e+00 -9.013481577852644477e-03
1.079611041396856308e+01 6.492780750617384911e+00 -4.161186655977644477e-03
1.002999713271856308e+01 5.549543445929884911e+00 6.138495961209855523e-03
1.011593463271856308e+01 5.667463367804884911e+00 1.053302721120985552e-02
1.020394732803106308e+01 5.788435047492384911e+00 1.482074693777235552e-02
1.029476764053106308e+01 5.913312977179884911e+00 1.924579576589735552e-02
1.036544635146856308e+01 6.033552234992384911e+00 2.333515123464735552e-02
1.054000689834356308e+01 6.193342274054884911e+00 2.960651353933485552e-02
1.068575885146856308e+01 6.347517078742384911e+00 3.542011217214735552e-02
1.083675982803106308e+01 6.507307117804884911e+00 4.120319322683485552e-02
1.007882525771856308e+01 5.563459461554884911e+00 4.729145006277235552e-02
1.016561724990606308e+01 5.682111805304884911e+00 5.205219225027235552e-02
1.025497271865606308e+01 5.804060047492384911e+00 5.695026353933485552e-02
1.034701373428106308e+01 5.929914539679884911e+00 6.200092271902235552e-02
1.036459185928106308e+01 6.032209461554884911e+00 6.526630357839735552e-02
1.060873248428106308e+01 6.217145984992384911e+00 7.429950670339735552e-02
1.075143267959356308e+01 6.370832508429884911e+00 8.092182115652235552e-02
1.088619830459356308e+01 6.525251453742384911e+00 8.743732408620985552e-02
1.009103228896856308e+01 5.566145008429884911e+00 8.766620592214735552e-02
1.016879107803106308e+01 5.682111805304884911e+00 9.273212389089735552e-02
1.024825885146856308e+01 5.800886219367384911e+00 9.813373521902235552e-02
1.033029010146856308e+01 5.923322742804884911e+00 1.034743113908973555e-01
1.036495807021856308e+01 6.031232899054884911e+00 1.074721141252723555e-01
1.055343463271856308e+01 6.196149891242384911e+00 1.161696238908973555e-01
1.068209674209356308e+01 6.344099109992384911e+00 1.229597850237098555e-01
1.081466510146856308e+01 6.496809070929884911e+00 1.301924510393348555e-01
1.004257037490606308e+01 5.550397938117384911e+00 1.263624949846473555e-01
1.011923053115606308e+01 5.665388172492384911e+00 1.318861766252723555e-01
1.019784381240606308e+01 5.783430164679884911e+00 1.375471873674598555e-01
1.027889849990606308e+01 5.904890125617384911e+00 1.433760447893348555e-01
1.036166217178106308e+01 6.029157703742384911e+00 1.493422313127723555e-01
1.050240924209356308e+01 6.176740711554884911e+00 1.574293895158973555e-01
1.065450885146856308e+01 6.332746570929884911e+00 1.660353465471473555e-01
1.081246783584356308e+01 6.494855945929884911e+00 1.749922557268348555e-01
1.004293658584356308e+01 5.549543445929884911e+00 1.662642283830848555e-01
1.013290240615606308e+01 5.668684070929884911e+00 1.727949901018348555e-01
1.022530963271856308e+01 5.791364734992384911e+00 1.795241160783973555e-01
1.032089068740606308e+01 5.918073719367384911e+00 1.864668651018348555e-01
1.041891314834356308e+01 6.048078602179884911e+00 1.935927195940223555e-01
1.058749224990606308e+01 6.206403797492384911e+00 2.036330027971473555e-01
1.074288775771856308e+01 6.364606922492384911e+00 2.133070750627723555e-01
1.090438678115606308e+01 6.529035633429884911e+00 2.233626170549598555e-01
1.010360553115606308e+01 5.566999500617384911e+00 2.089735789690223555e-01
1.019503619521856308e+01 5.687360828742384911e+00 2.161757274065223555e-01
1.028915240615606308e+01 5.811140125617384911e+00 2.235762401018348555e-01
7.535311724990606308e+01 2.788145262561738491e+01 3.094914130726834856e+00
7.469784381240606308e+01 2.847337157092988491e+01 3.094792060414334856e+00
2.038937213271856308e+01 9.735090320929884911e+00 6.869246287737098555e-01
2.043014361709356308e+01 9.961896961554884911e+00 6.962477488908973555e-01
1.975228717178106308e+01 9.915266102179884911e+00 6.728255076799598555e-01
6.575594928115606308e+01 2.251817137561738491e+01 2.904164008656522356e+00
