9.196590580046176910e+00 3.328369157388806343e+00 4.151007208041903596e-01
9.155452884733676910e+00 3.401611344888806343e+00 4.147650274448153596e-01
9.117611087858676910e+00 3.474243180826306343e+00 4.146582159213778596e-01
2.767254272848367691e+01 4.942993180826306343e+00 1.835999158304190360e+00
8.956600345671176910e+00 3.610595719888806343e+00 4.080206426791903596e-01
8.281795658171176910e+00 3.571899430826306343e+00 -2.254785028286221404e-01
8.185604251921176910e+00 3.629028337076306343e+00 -2.223504510708096404e-01
8.084163822233676910e+00 3.683715837076306343e+00 -2.193902459926846404e-01
8.590145267546176910e+00 3.808593766763806343e+00 -2.225030389614346404e-01
8.566219486296176910e+00 3.875610368326306343e+00 -2.202294793911221404e-01
8.963192142546176910e+00 4.000610368326306343e+00 -2.218774286098721404e-01
9.698421634733676910e+00 4.184326188638806343e+00 -2.263482538051846404e-01
8.973323978483676910e+00 4.151123063638806343e+00 -2.177880731411221404e-01
8.276302494108676910e+00 3.570556657388806343e+00 -1.948388543911221404e-01
8.643001712858676910e+00 3.672851579263806343e+00 -1.950219598598721404e-01
8.075374759733676910e+00 3.681884782388806343e+00 -1.895745721645596404e-01
8.818416751921176910e+00 3.834594743326306343e+00 -1.915734735317471404e-01
8.585262455046176910e+00 3.877075212076306343e+00 -1.882470575161221404e-01
8.578182376921176910e+00 3.946289079263806343e+00 -1.861108270473721404e-01
9.208065189421176910e+00 4.110473649576306343e+00 -1.869653192348721404e-01
8.928157962858676910e+00 4.142944352701306343e+00 -1.835168329067471404e-01
8.269710697233676910e+00 3.568969743326306343e+00 -1.642297235317471404e-01
8.112850345671176910e+00 3.619995133951306343e+00 -1.620171991176846404e-01
8.080013431608676910e+00 3.681396501138806343e+00 -1.600030389614346404e-01
8.801204837858676910e+00 3.831542985513806343e+00 -1.585229364223721404e-01
8.604427494108676910e+00 3.878540055826306343e+00 -1.562493768520596404e-01
8.254085697233676910e+00 3.900634782388806343e+00 -1.540826288051846404e-01
8.926571048796176910e+00 4.067626969888806343e+00 -1.518853631801846404e-01
9.092342533171176910e+00 4.167968766763806343e+00 -1.495355096645596404e-01
8.262996830046176910e+00 3.567382829263806343e+00 -1.338494745083096404e-01
8.167415775358676910e+00 3.624389665201306343e+00 -1.319573846645596404e-01
8.680843509733676910e+00 3.745239274576306343e+00 -1.280663934536221404e-01
8.865169681608676910e+00 3.838012712076306343e+00 -1.251367059536221404e-01
8.811702884733676910e+00 3.904052751138806343e+00 -1.230920282192471404e-01
8.895198978483676910e+00 3.988159196451306343e+00 -1.204675165004971404e-01
8.903988040983676910e+00 4.063232438638806343e+00 -1.181329217739346404e-01
1.373858276754617691e+01 4.902587907388806343e+00 -9.103331239893464044e-02
8.256160892546176910e+00 3.565795915201306343e+00 -1.033624139614346404e-01
8.160823978483676910e+00 3.622802751138806343e+00 -1.020196405239346404e-01
8.699031986296176910e+00 3.746093766763806343e+00 -9.553465517237214044e-02
8.837093509733676910e+00 3.833618180826306343e+00 -9.210142763330964044e-02
8.764095462858676910e+00 3.896972673013806343e+00 -9.045347841455964044e-02
8.845760501921176910e+00 3.980346696451306343e+00 -8.743223818018464044e-02
8.134456790983676910e+00 3.948364274576306343e+00 -9.188780458643464044e-02
9.059505619108676910e+00 4.160644548013806343e+00 -8.070311220362214044e-02
8.239437259733676910e+00 3.563354508951306343e+00 -7.321104677393464044e-02
8.154232181608676910e+00 3.621215837076306343e+00 -7.199034364893464044e-02
8.717342533171176910e+00 3.747070329263806343e+00 -6.265196474268464044e-02
8.785213626921176910e+00 3.826538102701306343e+00 -5.946287782862214044e-02
8.850032962858676910e+00 3.906860368326306343e+00 -5.625853212549714044e-02
8.903988040983676910e+00 3.987304704263806343e+00 -5.317625673487214044e-02
8.958919681608676910e+00 4.069335954263806343e+00 -5.003294618799714044e-02
9.015072025358676910e+00 4.152587907388806343e+00 -4.701170595362214044e-02
8.582576908171176910e+00 3.592285173013806343e+00 -3.698668153955964044e-02
8.668026126921176910e+00 3.670166032388806343e+00 -3.324827821924714044e-02
8.707332767546176910e+00 3.744995133951306343e+00 -3.025755556299714044e-02
8.747371830046176910e+00 3.821044938638806343e+00 -2.720579775049714044e-02
8.808162845671176910e+00 3.900512712076306343e+00 -2.375731142237214044e-02
8.862484134733676910e+00 3.980590837076306343e+00 -2.040037782862214044e-02
8.923031009733676910e+00 4.062988298013806343e+00 -1.686033876612214044e-02
8.984554447233676910e+00 4.146850602701306343e+00 -1.325926454737214044e-02
8.181331790983676910e+00 3.556396501138806343e+00 -1.370176943018464044e-02
8.657406009733676910e+00 3.668090837076306343e+00 -1.174303609872140441e-03
8.723079837858676910e+00 3.745605485513806343e+00 2.792981546377859559e-03
8.767757572233676910e+00 3.822387712076306343e+00 6.180432718252859559e-03
8.837948001921176910e+00 3.903320329263806343e+00 1.016297666356535956e-02
8.897884525358676910e+00 3.984375016763806343e+00 1.397767392919035956e-02
8.958919681608676910e+00 4.067260758951306343e+00 1.767030088231535956e-02
9.021053470671176910e+00 4.151489274576306343e+00 2.162232724950285956e-02
8.666073001921176910e+00 3.597534196451306343e+00 2.911439267919035956e-02
8.642391361296176910e+00 3.665649430826306343e+00 3.086915342137785956e-02
8.724666751921176910e+00 3.744750993326306343e+00 3.544679014012785956e-02
8.799129642546176910e+00 3.825073258951306343e+00 3.988709775731535956e-02
8.872982181608676910e+00 3.906738298013806343e+00 4.434266416356535956e-02
8.933406986296176910e+00 3.988281266763806343e+00 4.849305478856535956e-02
8.995296634733676910e+00 4.071655290201306343e+00 5.275025693700285956e-02
9.056453861296176910e+00 4.156127946451306343e+00 5.700745908544035956e-02
8.274105228483676910e+00 3.562500016763806343e+00 4.939332334325285956e-02
8.627498783171176910e+00 3.663208024576306343e+00 6.262269346044035956e-02
8.709407962858676910e+00 3.742065446451306343e+00 6.759705869481535956e-02
8.792904056608676910e+00 3.823364274576306343e+00 7.269349424169035956e-02
8.857235111296176910e+00 3.903686540201306343e+00 7.724061338231535956e-02
8.910335697233676910e+00 3.984130876138806343e+00 8.146729795262785956e-02
8.964656986296176910e+00 4.066162126138806343e+00 8.578553525731535956e-02
9.019710697233676910e+00 4.149292008951306343e+00 9.016480771825285956e-02
8.644222415983676910e+00 3.593505876138806343e+00 9.309449521825285956e-02
8.612484134733676910e+00 3.660644548013806343e+00 9.440675107762785956e-02
8.694149173796176910e+00 3.739501969888806343e+00 9.979310361669035956e-02
8.761409915983676910e+00 3.818603532388806343e+00 1.047216924838778596e-01
8.822323001921176910e+00 3.898315446451306343e+00 1.094671758823153596e-01
8.874935306608676910e+00 3.978149430826306343e+00 1.139532598666903596e-01
8.928768314421176910e+00 4.059814469888806343e+00 1.185308965854403596e-01
8.983211673796176910e+00 4.142456071451306343e+00 1.231848272495028596e-01
8.614315189421176910e+00 3.589965837076306343e+00 1.240850958041903596e-01
8.597713626921176910e+00 3.658203141763806343e+00 1.259008917026278596e-01
8.702694095671176910e+00 3.739379899576306343e+00 1.326452764682528596e-01
8.748836673796176910e+00 3.816162126138806343e+00 1.370550665073153596e-01
8.819271244108676910e+00 3.896850602701306343e+00 1.425177129916903596e-01
8.881282962858676910e+00 3.978027360513806343e+00 1.476751836948153596e-01
8.944759525358676910e+00 4.061157243326306343e+00 1.529547247104403596e-01
9.009334720671176910e+00 4.145629899576306343e+00 1.583258184604403596e-01
8.649837650358676910e+00 3.591918962076306343e+00 1.579138311557528596e-01
8.695003665983676910e+00 3.666625993326306343e+00 1.624609502963778596e-01
8.740657962858676910e+00 3.742309587076306343e+00 1.669165167026278596e-01
8.787410892546176910e+00 3.819580094888806343e+00 1.716314825229403596e-01
8.862239994108676910e+00 3.901245133951306343e+00 1.776587042026278596e-01
8.925106205046176910e+00 3.983032243326306343e+00 1.832129034213778596e-01
8.989681400358676910e+00 4.066650407388806343e+00 1.890722784213778596e-01
9.054989017546176910e+00 4.151733415201306343e+00 1.948401006870028596e-01
8.687191165983676910e+00 3.594116227701306343e+00 1.919867071323153596e-01
8.732967533171176910e+00 3.669189469888806343e+00 1.968237432651278596e-01
8.779354251921176910e+00 3.745483415201306343e+00 2.017523321323153596e-01
2.227203003317117691e+01 5.386718766763806343e+00 8.817144903354403596e-01
1.411187378317117691e+01 4.563842790201306343e+00 4.767004522495028596e-01
2.748785034567117691e+01 6.516723649576306343e+00 1.162705090921377860e+00
1.447381225973367691e+01 4.870483415201306343e+00 5.045477422885653596e-01
1.443926636129617691e+01 4.995727555826306343e+00 5.075384649448153596e-01
8.866146244108676910e+00 3.608398454263806343e+00 2.341772588901278596e-01
8.910946048796176910e+00 3.685180680826306343e+00 2.391211065463778596e-01
9.091488040983676910e+00 3.777465837076306343e+00 2.516638311557528596e-01
2.225689331442117691e+01 5.382080094888806343e+00 9.762274297885653596e-01
2.708098999410867691e+01 6.199707048013806343e+00 1.250260022562002860e+00
2.737945190817117691e+01 6.498291032388806343e+00 1.276428845804190360e+00
2.780816284567117691e+01 6.823608415201306343e+00 1.310166028421377860e+00
1.812871948629617691e+01 5.572509782388806343e+00 7.752234014682528596e-01
8.945125736296176910e+00 3.614135758951306343e+00 2.720495733432528596e-01
8.908016361296176910e+00 3.683837907388806343e+00 2.726294073276278596e-01
9.048519290983676910e+00 3.771850602701306343e+00 2.836920293979403596e-01
2.214080444723367691e+01 5.365600602701306343e+00 1.065140393655752860e+00
2.749981323629617691e+01 6.248901383951306343e+00 1.393723157327627860e+00
2.728179565817117691e+01 6.481323258951306343e+00 1.390473035257315360e+00
2.763262573629617691e+01 6.794311540201306343e+00 1.421616223733877860e+00
1.498760620504617691e+01 5.078125016763806343e+00 6.601873907260653596e-01
8.947933353483676910e+00 3.613281266763806343e+00 3.060308965854403596e-01
8.867244876921176910e+00 3.678955094888806343e+00 3.035437139682528596e-01
8.885189212858676910e+00 3.753540055826306343e+00 3.074804815463778596e-01
2.226214233785867691e+01 5.376709001138806343e+00 1.167709973733877860e+00
2.782256714254617691e+01 6.285766618326306343e+00 1.534256604593252860e+00
2.954180542379617691e+01 6.785400407388806343e+00 1.655960706155752860e+00
2.738384643942117691e+01 6.754150407388806343e+00 1.526016858499502860e+00
1.809246460348367691e+01 5.562255876138806343e+00 9.264532598666903596e-01
8.950740970671176910e+00 3.612548844888806343e+00 3.398748907260653596e-01
2.240801636129617691e+01 4.971191423013806343e+00 1.257340100687002860e+00
2.221563354879617691e+01 5.160034196451306343e+00 1.252304700296377860e+00
2.225896850973367691e+01 5.373291032388806343e+00 1.263382581155752860e+00
2.774810425192117691e+01 6.272705094888806343e+00 1.651032117288565360e+00
2.709734741598367691e+01 6.448974626138806343e+00 1.616058972757315360e+00
2.715386597067117691e+01 6.716918962076306343e+00 1.630097058694815360e+00
1.818804565817117691e+01 5.574829118326306343e+00 1.009644177835440360e+00
8.953670658171176910e+00 3.611694352701306343e+00 3.739172491245028596e-01
2.649724975973367691e+01 5.358154313638806343e+00 1.650604871194815360e+00
2.189983765035867691e+01 5.123657243326306343e+00 1.324341443460440360e+00
2.225567261129617691e+01 5.369995133951306343e+00 1.358536389749502860e+00
2.773101440817117691e+01 6.266845719888806343e+00 1.770706799905752860e+00
3.145989624410867691e+01 7.037963883951306343e+00 2.057724622171377860e+00
2.693853393942117691e+01 6.681884782388806343e+00 1.733154920022940360e+00
1.819427124410867691e+01 5.573486344888806343e+00 1.087448743265127860e+00
8.956478275358676910e+00 3.610839860513806343e+00 4.080206426791903596e-01
2.245843140035867691e+01 4.969970719888806343e+00 1.453461316507315360e+00
2.190691772848367691e+01 5.121459977701306343e+00 1.419022229593252860e+00
2.225237671285867691e+01 5.366699235513806343e+00 1.454193738382315360e+00
2.241558472067117691e+01 5.595703141763806343e+00 1.475327161233877860e+00
2.683306518942117691e+01 6.405883805826306343e+00 1.832031873147940360e+00
2.694317261129617691e+01 6.679077165201306343e+00 1.851044324319815360e+00
1.820269409567117691e+01 5.572509782388806343e+00 1.165512708108877860e+00
8.973568119108676910e+00 4.151367204263806343e+00 -2.177880731411221404e-01
9.633846439421176910e+00 4.337768571451306343e+00 -2.212365594692471404e-01
8.984554447233676910e+00 4.303222673013806343e+00 -2.137597528286221404e-01
1.312200561910867691e+01 5.163208024576306343e+00 -2.445977655239346404e-01
1.342620483785867691e+01 5.342529313638806343e+00 -2.438195672817471404e-01
1.343743530660867691e+01 5.466918962076306343e+00 -2.406915155239346404e-01
1.384637085348367691e+01 5.680297868326306343e+00 -2.403558221645596404e-01
1.314934936910867691e+01 5.646606462076306343e+00 -2.325280633754971404e-01
8.928402103483676910e+00 4.143310563638806343e+00 -1.835015741176846404e-01
8.957821048796176910e+00 4.222534196451306343e+00 -1.815942254848721404e-01
8.994564212858676910e+00 4.303955094888806343e+00 -1.795190301723721404e-01
1.305840698629617691e+01 5.149658219888806343e+00 -1.906732049770596404e-01
1.301922241598367691e+01 5.259643571451306343e+00 -1.873620477504971404e-01
1.414422241598367691e+01 5.613891618326306343e+00 -1.871942010708096404e-01
1.416387573629617691e+01 5.748779313638806343e+00 -1.840051141567471404e-01
1.345806518942117691e+01 5.716430680826306343e+00 -1.789391961879971404e-01
9.091610111296176910e+00 4.168090837076306343e+00 -1.495355096645596404e-01
9.044613040983676910e+00 4.236206071451306343e+00 -1.474297967739346404e-01
8.972469486296176910e+00 4.299072282388806343e+00 -1.453851190395596404e-01
1.301531616598367691e+01 5.139892594888806343e+00 -1.376031366176846404e-01
1.298504272848367691e+01 5.251220719888806343e+00 -1.343530145473721404e-01
1.450310913473367691e+01 5.687622087076306343e+00 -1.280511346645596404e-01
1.353863159567117691e+01 5.609252946451306343e+00 -1.264794793911221404e-01
1.338958374410867691e+01 5.699096696451306343e+00 -1.233819452114346404e-01
1.373846069723367691e+01 4.902954118326306343e+00 -9.101805360987214044e-02
9.054744876921176910e+00 4.236816423013806343e+00 -1.128686395473721404e-01
9.014461673796176910e+00 4.305542008951306343e+00 -1.109155145473721404e-01
1.298101440817117691e+01 5.131958024576306343e+00 -8.456358583643464044e-02
1.344744507223367691e+01 5.342041032388806343e+00 -7.820067079737214044e-02
1.414995972067117691e+01 5.611816423013806343e+00 -6.996092470362214044e-02
1.346673218160867691e+01 5.591796891763806343e+00 -7.096800478174714044e-02
1.344060913473367691e+01 5.709350602701306343e+00 -6.787047060205964044e-02
9.059871830046176910e+00 4.161010758951306343e+00 -8.070311220362214044e-02
9.064754642546176910e+00 4.237548844888806343e+00 -7.839903505518464044e-02
9.176571048796176910e+00 4.333496110513806343e+00 -7.496580751612214044e-02
9.236873783171176910e+00 4.422607438638806343e+00 -7.199034364893464044e-02
9.298153080046176910e+00 4.513305680826306343e+00 -6.898436220362214044e-02
9.360653080046176910e+00 4.605712907388806343e+00 -6.590208681299714044e-02
9.424739994108676910e+00 4.700317399576306343e+00 -6.275877626612214044e-02
9.489803470671176910e+00 4.796630876138806343e+00 -5.955443056299714044e-02
9.015438236296176910e+00 4.152954118326306343e+00 -4.699644716455964044e-02
9.072200931608676910e+00 4.237792985513806343e+00 -4.365477235987214044e-02
9.130306400358676910e+00 4.324218766763806343e+00 -4.045042665674714044e-02
9.189754642546176910e+00 4.412719743326306343e+00 -3.715452821924714044e-02
9.250179447233676910e+00 4.502685563638806343e+00 -3.381285341455964044e-02
9.311824955046176910e+00 4.594482438638806343e+00 -3.041014345362214044e-02
9.374935306608676910e+00 4.688354508951306343e+00 -2.691588075830964044e-02
9.439388431608676910e+00 4.784057633951306343e+00 -2.355894716455964044e-02
8.985042728483676910e+00 4.147094743326306343e+00 -1.324400575830964044e-02
9.047664798796176910e+00 4.232543962076306343e+00 -9.658190328622140441e-03
9.111751712858676910e+00 4.319946305826306343e+00 -5.996080953622140441e-03
9.177303470671176910e+00 4.409301774576306343e+00 -2.242418844247140441e-03
9.244198001921176910e+00 4.500488298013806343e+00 1.572278421377859559e-03
9.312435306608676910e+00 4.593505876138806343e+00 5.478528421377859559e-03
9.382503665983676910e+00 4.689086930826306343e+00 9.476331155752859559e-03
9.453792728483676910e+00 4.786376969888806343e+00 1.355042783544035956e-02
9.021541751921176910e+00 4.151855485513806343e+00 2.165284482762785956e-02
9.084896244108676910e+00 4.237792985513806343e+00 2.562012998387785956e-02
9.149837650358676910e+00 4.325683610513806343e+00 2.986207334325285956e-02
9.216243900358676910e+00 4.415649430826306343e+00 3.402772275731535956e-02
9.283870853483676910e+00 4.507324235513806343e+00 3.825440732762785956e-02
9.352962650358676910e+00 4.600952165201306343e+00 4.258790342137785956e-02
9.423641361296176910e+00 4.697021501138806343e+00 4.682984678075285956e-02
9.495784915983676910e+00 4.794921891763806343e+00 5.134644834325285956e-02
9.056942142546176910e+00 4.156372087076306343e+00 5.703797666356535956e-02
9.113704837858676910e+00 4.241699235513806343e+00 6.118836728856535956e-02
9.171444095671176910e+00 4.328491227701306343e+00 6.541505185887785956e-02
9.230648197233676910e+00 4.417358415201306343e+00 6.974854795262785956e-02
9.290828861296176910e+00 4.507690446451306343e+00 7.415833799169035956e-02
9.352108158171176910e+00 4.599853532388806343e+00 7.864442197606535956e-02
9.414852298796176910e+00 4.694091813638806343e+00 8.323731748387785956e-02
9.478695072233676910e+00 4.790039079263806343e+00 8.792176572606535956e-02
9.020198978483676910e+00 4.149658219888806343e+00 9.019532529637785956e-02
9.076351322233676910e+00 4.234375016763806343e+00 9.463563291356535956e-02
9.133480228483676910e+00 4.320678727701306343e+00 9.916749326512785956e-02
9.191951908171176910e+00 4.409057633951306343e+00 1.038214239291903596e-01
9.251400150358676910e+00 4.498901383951306343e+00 1.085363897495028596e-01
9.312069095671176910e+00 4.590454118326306343e+00 1.133429083041903596e-01
9.374080814421176910e+00 4.684204118326306343e+00 1.182562383823153596e-01
9.437191165983676910e+00 4.779418962076306343e+00 1.232611211948153596e-01
8.983577884733676910e+00 4.142822282388806343e+00 1.232000860385653596e-01
9.039119876921176910e+00 4.227050798013806343e+00 1.279455694370028596e-01
9.096370853483676910e+00 4.313110368326306343e+00 1.327978643588778596e-01
9.164486087858676910e+00 4.402832048013806343e+00 1.381536993198153596e-01
9.233944095671176910e+00 4.494384782388806343e+00 1.436010870151278596e-01
9.304989017546176910e+00 4.587890641763806343e+00 1.491705450229403596e-01
9.377987064421176910e+00 4.683959977701306343e+00 1.548773321323153596e-01
9.452327884733676910e+00 4.781860368326306343e+00 1.607061895541903596e-01
9.009823001921176910e+00 4.145874040201306343e+00 1.583563360385653596e-01
9.075740970671176910e+00 4.232177751138806343e+00 1.638800176791903596e-01
9.143123783171176910e+00 4.320434587076306343e+00 1.695257696323153596e-01
9.212215580046176910e+00 4.410888688638806343e+00 1.753241094760653596e-01
9.282772220671176910e+00 4.503051774576306343e+00 1.812292608432528596e-01
9.354793705046176910e+00 4.597290055826306343e+00 1.872564825229403596e-01
9.428768314421176910e+00 4.694091813638806343e+00 1.934515508823153596e-01
9.504207767546176910e+00 4.792846696451306343e+00 1.997686895541903596e-01
9.055477298796176910e+00 4.152099626138806343e+00 1.948858770541903596e-01
9.122371830046176910e+00 4.239013688638806343e+00 2.008368047885653596e-01
9.190487064421176910e+00 4.327758805826306343e+00 2.067266973666903596e-01
1.466155640035867691e+01 5.433959977701306343e+00 4.730536016635653596e-01
1.430425659567117691e+01 5.497680680826306343e+00 4.606634649448153596e-01
1.489385620504617691e+01 5.752075212076306343e+00 4.943396124057528596e-01
1.537627808004617691e+01 5.996215837076306343e+00 5.235754522495028596e-01
1.518243042379617691e+01 6.095336930826306343e+00 5.192266973666903596e-01
1.444060913473367691e+01 4.996337907388806343e+00 5.076300176791903596e-01
1.497759643942117691e+01 5.216918962076306343e+00 5.405279668979403596e-01
1.462371460348367691e+01 5.290893571451306343e+00 5.271154913120028596e-01
1.464776245504617691e+01 5.429565446451306343e+00 5.334326299838778596e-01
1.429473511129617691e+01 5.494018571451306343e+00 5.197149786166903596e-01
1.489922729879617691e+01 5.751342790201306343e+00 5.570837530307528596e-01
2.648833862692117691e+01 8.427734391763806343e+00 1.188431409280752860e+00
1.515093628317117691e+01 6.086303727701306343e+00 5.812384161166903596e-01
1.812908569723367691e+01 5.573120133951306343e+00 7.752539190463778596e-01
1.493267456442117691e+01 5.207641618326306343e+00 6.000219854526278596e-01
1.802288452535867691e+01 5.891845719888806343e+00 7.818151983432528596e-01
1.535235229879617691e+01 5.560058610513806343e+00 6.347204717807528596e-01
1.509392944723367691e+01 5.650634782388806343e+00 6.252142461948153596e-01
1.500420776754617691e+01 5.771484391763806343e+00 6.253668340854403596e-01
2.700115600973367691e+01 8.536743180826306343e+00 1.335312512796377860e+00
3.241070190817117691e+01 1.004248048551380634e+01 1.666199353616690360e+00
1.498699585348367691e+01 5.078491227701306343e+00 6.601568731479403596e-01
1.488933960348367691e+01 5.198486344888806343e+00 6.595465215854403596e-01
1.528985229879617691e+01 5.405395524576306343e+00 6.896673711948153596e-01
1.459453979879617691e+01 5.416015641763806343e+00 6.519629034213778596e-01
1.510332886129617691e+01 5.650634782388806343e+00 6.891180547885653596e-01
1.492376343160867691e+01 5.752929704263806343e+00 6.833197149448153596e-01
2.638921753317117691e+01 8.399536149576306343e+00 1.416336682718252860e+00
3.243401733785867691e+01 1.004382325895130634e+01 1.812622693460440360e+00
1.809295288473367691e+01 5.562866227701306343e+00 9.264990362338778596e-01
1.484661499410867691e+01 5.189575212076306343e+00 7.183996709995028596e-01
1.818975464254617691e+01 5.916992204263806343e+00 9.461218389682528596e-01
1.539226929098367691e+01 5.563720719888806343e+00 7.658697637729403596e-01
1.511272827535867691e+01 5.650756852701306343e+00 7.527929815463778596e-01
1.486895386129617691e+01 5.739746110513806343e+00 7.419287237338778596e-01
2.653582397848367691e+01 8.428344743326306343e+00 1.542694714944815360e+00
2.667315308004617691e+01 8.720214860513806343e+00 1.563263562601065360e+00
1.818584839254617691e+01 5.575073258951306343e+00 1.009506848733877860e+00
1.809185425192117691e+01 5.728515641763806343e+00 1.009827283304190360e+00
1.820733276754617691e+01 5.917846696451306343e+00 1.025009778421377860e+00
1.843340698629617691e+01 6.131347673013806343e+00 1.048248914163565360e+00
2.660393921285867691e+01 7.919555680826306343e+00 1.643936780374502860e+00
1.492156616598367691e+01 5.749023454263806343e+00 8.081518682651278596e-01
2.664800659567117691e+01 8.449462907388806343e+00 1.668594983499502860e+00
3.247076050192117691e+01 1.004418946988880634e+01 2.106308606546377860e+00
1.819195190817117691e+01 5.573730485513806343e+00 1.087296155374502860e+00
1.809246460348367691e+01 5.726440446451306343e+00 1.086914685647940360e+00
1.821929565817117691e+01 5.917602555826306343e+00 1.103226331155752860e+00
1.842962280660867691e+01 6.128417985513806343e+00 1.126495984476065360e+00
2.745891968160867691e+01 8.085083024576306343e+00 1.826508191507315360e+00
2.660418335348367691e+01 8.175537126138806343e+00 1.771851209085440360e+00
2.900310913473367691e+01 8.960327165201306343e+00 1.969681409280752860e+00
2.637798706442117691e+01 8.646118180826306343e+00 1.776810315530752860e+00
1.810100952535867691e+01 5.557250993326306343e+00 1.157440808694815360e+00
1.808074585348367691e+01 5.722167985513806343e+00 1.162628796976065360e+00
1.822295776754617691e+01 5.916015641763806343e+00 1.181336072366690360e+00
1.842412964254617691e+01 6.125122087076306343e+00 1.205002454202627860e+00
2.745196167379617691e+01 8.080200212076306343e+00 1.947617200296377860e+00
2.734380737692117691e+01 8.325805680826306343e+00 1.950287488382315360e+00
2.717742554098367691e+01 8.558471696451306343e+00 1.948151257913565360e+00
3.249615112692117691e+01 1.004187013395130634e+01 2.400696423929190360e+00
1.314825073629617691e+01 5.646850602701306343e+00 -2.325128045864346404e-01
1.299029175192117691e+01 5.729370133951306343e+00 -2.283624139614346404e-01
1.389593140035867691e+01 6.077392594888806343e+00 -2.313226190395596404e-01
1.390508667379617691e+01 6.210205094888806343e+00 -2.283471551723721404e-01
1.376165405660867691e+01 6.301757829263806343e+00 -2.244561639614346404e-01
1.397198120504617691e+01 6.491333024576306343e+00 -2.226098504848721404e-01
1.389104858785867691e+01 6.600830094888806343e+00 -2.190545526333096404e-01
1.371563354879617691e+01 6.679809587076306343e+00 -2.153771844692471404e-01
1.345830933004617691e+01 5.716918962076306343e+00 -1.789239373989346404e-01
1.303997436910867691e+01 5.739868180826306343e+00 -1.750939813442471404e-01
1.423492065817117691e+01 6.161376969888806343e+00 -1.737817254848721404e-01
1.382427612692117691e+01 6.187377946451306343e+00 -1.699365106411221404e-01
1.393255249410867691e+01 6.346923844888806343e+00 -1.668694940395596404e-01
1.421087280660867691e+01 6.557739274576306343e+00 -1.638787713833096404e-01
1.376629272848367691e+01 6.562500016763806343e+00 -1.606133905239346404e-01
1.379778686910867691e+01 6.703491227701306343e+00 -1.573937860317471404e-01
1.324883667379617691e+01 5.666992204263806343e+00 -1.237328973598721404e-01
1.443059936910867691e+01 6.074096696451306343e+00 -1.172479120083096404e-01
1.374773804098367691e+01 6.036987321451306343e+00 -1.159051385708096404e-01
1.394536987692117691e+01 6.217651383951306343e+00 -1.119225946254971404e-01
1.382000366598367691e+01 6.314575212076306343e+00 -1.090081659145596404e-01
1.394671265035867691e+01 6.481079118326306343e+00 -1.051476922817471404e-01
1.358245483785867691e+01 6.506713883951306343e+00 -1.032708612270596404e-01
1.377727905660867691e+01 6.695678727701306343e+00 -9.907469423487214044e-02
1.343963257223367691e+01 5.709594743326306343e+00 -6.787047060205964044e-02
1.422063843160867691e+01 6.021850602701306343e+00 -5.833372743799714044e-02
1.364727417379617691e+01 6.010131852701306343e+00 -5.926451357080964044e-02
1.419854370504617691e+01 6.282592790201306343e+00 -5.134520204737214044e-02
1.403594604879617691e+01 6.372070329263806343e+00 -4.911741884424714044e-02
9.896297611296176910e+00 5.329711930826306343e+00 -8.163389833643464044e-02
9.972591556608676910e+00 5.441406266763806343e+00 -7.855162294580964044e-02
1.005071655660867691e+01 5.555542008951306343e+00 -7.560667665674714044e-02
9.490291751921176910e+00 4.797119157388806343e+00 -5.953917177393464044e-02
9.557064212858676910e+00 4.895507829263806343e+00 -5.641112001612214044e-02
9.625301517546176910e+00 4.996215837076306343e+00 -5.320677431299714044e-02
9.695369876921176910e+00 5.099487321451306343e+00 -4.992613466455964044e-02
9.766781009733676910e+00 5.204834001138806343e+00 -4.656920107080964044e-02
9.839901126921176910e+00 5.312744157388806343e+00 -4.313597353174714044e-02
9.914974369108676910e+00 5.423461930826306343e+00 -3.961119325830964044e-02
9.991634525358676910e+00 5.536499040201306343e+00 -3.601011903955964044e-02
9.439876712858676910e+00 4.784423844888806343e+00 -2.354368837549714044e-02
9.505428470671176910e+00 4.882080094888806343e+00 -1.983580263330964044e-02
9.572689212858676910e+00 4.981933610513806343e+00 -1.624998720362214044e-02
9.641658939421176910e+00 5.084350602701306343e+00 -1.255736025049714044e-02
9.711971439421176910e+00 5.188842790201306343e+00 -8.788439352059640441e-03
9.791317142546176910e+00 5.297851579263806343e+00 -4.821154195809640441e-03
9.872982181608676910e+00 5.410034196451306343e+00 -7.165399379971404414e-04
9.956356205046176910e+00 5.524658219888806343e+00 3.250745218252859559e-03
9.454403080046176910e+00 4.786743180826306343e+00 1.358094541356535956e-02
9.527279056608676910e+00 4.886230485513806343e+00 1.765504209325285956e-02
9.601986087858676910e+00 4.988281266763806343e+00 2.183595029637785956e-02
9.678768314421176910e+00 5.093139665201306343e+00 2.613892881200285956e-02
9.757259525358676910e+00 5.200195329263806343e+00 3.053346006200285956e-02
9.837703861296176910e+00 5.310058610513806343e+00 3.503480283544035956e-02
9.920467533171176910e+00 5.422973649576306343e+00 3.967347471044035956e-02
1.000518433004617691e+01 5.538574235513806343e+00 4.440369931981535956e-02
9.496395267546176910e+00 4.795410173013806343e+00 5.136170713231535956e-02
9.570247806608676910e+00 4.895629899576306343e+00 5.592408506200285956e-02
9.646053470671176910e+00 4.998291032388806343e+00 6.080689756200285956e-02
9.723934330046176910e+00 5.103881852701306343e+00 6.561341611669035956e-02
9.794857181608676910e+00 5.209472673013806343e+00 7.029786435887785956e-02
9.867122806608676910e+00 5.317382829263806343e+00 7.507386533544035956e-02
9.941585697233676910e+00 5.428222673013806343e+00 7.977357236669035956e-02
1.001739136129617691e+01 5.541259782388806343e+00 8.477845517919035956e-02
9.479305423796176910e+00 4.790405290201306343e+00 8.793702451512785956e-02
9.544490970671176910e+00 4.888427751138806343e+00 9.268250791356535956e-02
9.611263431608676910e+00 4.988525407388806343e+00 9.751954404637785956e-02
9.679744876921176910e+00 5.091308610513806343e+00 1.024939092807528596e-01
9.749447025358676910e+00 5.196044938638806343e+00 1.075445684604403596e-01
9.820858158171176910e+00 5.303222673013806343e+00 1.127325567416903596e-01
9.894100345671176910e+00 5.413208024576306343e+00 1.180578741245028596e-01
9.968929447233676910e+00 5.525512712076306343e+00 1.234747442416903596e-01
9.437679447233676910e+00 4.779907243326306343e+00 1.232916387729403596e-01
9.502254642546176910e+00 4.877197282388806343e+00 1.283880743198153596e-01
9.568050540983676910e+00 4.976684587076306343e+00 1.336065801791903596e-01
9.635677494108676910e+00 5.078735368326306343e+00 1.389471563510653596e-01
9.713314212858676910e+00 5.185180680826306343e+00 1.447302374057528596e-01
9.796322025358676910e+00 5.295288102701306343e+00 1.507727178745028596e-01
9.881771244108676910e+00 5.408569352701306343e+00 1.569983038120028596e-01
9.969295658171176910e+00 5.524536149576306343e+00 1.633764776401278596e-01
9.452938236296176910e+00 4.782348649576306343e+00 1.607519659213778596e-01
9.529110111296176910e+00 4.882690446451306343e+00 1.667334112338778596e-01
9.607235111296176910e+00 4.985473649576306343e+00 1.728674444370028596e-01
9.687557376921176910e+00 5.091308610513806343e+00 1.791845831088778596e-01
9.769710697233676910e+00 5.199584977701306343e+00 1.856390508823153596e-01
9.854061283171176910e+00 5.310546891763806343e+00 1.922613653354403596e-01
9.940975345671176910e+00 5.424926774576306343e+00 1.990820440463778596e-01
1.002984253317117691e+01 5.541992204263806343e+00 2.060705694370028596e-01
9.504818119108676910e+00 4.793212907388806343e+00 1.998144659213778596e-01
9.582210697233676910e+00 4.894409196451306343e+00 2.063299688510653596e-01
9.661556400358676910e+00 4.998046891763806343e+00 2.130133184604403596e-01
1.446038452535867691e+01 6.338256852701306343e+00 4.375158819370028596e-01
6.568828979879617691e+01 2.041699220426380634e+01 2.825867322366690360e+00
1.486114136129617691e+01 6.725952165201306343e+00 4.663092168979403596e-01
6.696270386129617691e+01 2.217248536832630634e+01 2.936447766702627860e+00
6.568206421285867691e+01 2.249121095426380634e+01 2.901169446390127860e+00
1.518182007223367691e+01 6.095703141763806343e+00 5.192114385776278596e-01
1.507415405660867691e+01 6.212036149576306343e+00 5.191656622104403596e-01
1.455852905660867691e+01 6.224731462076306343e+00 4.981390508823153596e-01
1.445501343160867691e+01 6.335205094888806343e+00 4.980474981479403596e-01
1.523186890035867691e+01 6.683349626138806343e+00 5.430151495151278596e-01
3.553997436910867691e+01 1.257165529020130634e+01 1.598175671976065360e+00
7.383453003317117691e+01 2.418188478238880634e+01 3.608734754007315360e+00
8.356280151754617691e+01 2.792712404020130634e+01 4.149216321390127860e+00
1.515020386129617691e+01 6.086669938638806343e+00 5.812231573276278596e-01
7.079180542379617691e+01 1.958215333707630634e+01 3.637543347757315360e+00
1.455315796285867691e+01 6.221679704263806343e+00 5.592810186557528596e-01
7.058855835348367691e+01 2.099682618863880634e+01 3.683182385843252860e+00
8.249786011129617691e+01 2.497131349332630634e+01 4.379486707132315360e+00
3.554168335348367691e+01 1.256787111051380634e+01 1.760880139749502860e+00
8.070855347067117691e+01 2.619030763395130634e+01 4.345337537210440360e+00
7.970696655660867691e+01 2.674365236051380634e+01 4.321228650491690360e+00
3.241021362692117691e+01 1.004345704801380634e+01 1.666214612405752860e+00
7.140594116598367691e+01 1.972058107145130634e+01 4.000672009866690360e+00
8.365581909567117691e+01 2.352551271207630634e+01 4.764847424905752860e+00
8.247015015035867691e+01 2.409033204801380634e+01 4.728195813577627860e+00
8.264727417379617691e+01 2.500183107145130634e+01 4.773499158304190360e+00
3.554607788473367691e+01 1.256481935270130634e+01 1.922943738382315360e+00
8.043853393942117691e+01 2.610131837613880634e+01 4.707123425882315360e+00
7.993670288473367691e+01 2.680395509488880634e+01 4.712158826272940360e+00
3.243401733785867691e+01 1.004492189176380634e+01 1.812668469827627860e+00
3.229644409567117691e+01 1.033557130582630634e+01 1.817154553812002860e+00
8.373711792379617691e+01 2.353527833707630634e+01 5.160645154397940360e+00
8.292730347067117691e+01 2.419934083707630634e+01 5.143906262796377860e+00
3.555071655660867691e+01 1.256188966520130634e+01 2.085968640726065360e+00
3.564934936910867691e+01 1.295812989957630634e+01 2.107666638772940360e+00
8.029839722067117691e+01 2.690429689176380634e+01 5.112244275491690360e+00
2.667461792379617691e+01 8.721435563638806343e+00 1.563385632913565360e+00
3.230401245504617691e+01 1.033349611051380634e+01 1.962494519632315360e+00
8.366045776754617691e+01 2.438024904020130634e+01 5.581329968851065360e+00
8.329351440817117691e+01 2.515686036832630634e+01 5.592636731546377860e+00
3.555352417379617691e+01 1.255847169645130634e+01 2.248108533304190360e+00
8.232232300192117691e+01 2.663391114957630634e+01 5.598053601663565360e+00
8.023003784567117691e+01 2.687390138395130634e+01 5.487076428812002860e+00
3.246880737692117691e+01 1.004479982145130634e+01 2.106217053812002860e+00
3.265630737692117691e+01 1.041381837613880634e+01 2.134171155374502860e+00
8.349468628317117691e+01 2.432653810270130634e+01 5.960770276468252860e+00
8.344463745504617691e+01 2.518750001676380634e+01 5.995117810647940360e+00
3.555962768942117691e+01 1.255590821988880634e+01 2.411423352640127860e+00
3.569756714254617691e+01 1.296386720426380634e+01 2.437943128030752860e+00
2.637481323629617691e+01 8.646362321451306343e+00 1.776611951272940360e+00
8.308050171285867691e+01 2.507836915738880634e+01 6.355881360452627860e+00
3.556414429098367691e+01 1.255297853238880634e+01 2.573853162210440360e+00
3.595525757223367691e+01 1.303515626676380634e+01 2.622833875101065360e+00
3.528313843160867691e+01 1.320361329801380634e+01 2.584808972757315360e+00
3.249529663473367691e+01 1.004284669645130634e+01 2.400665906351065360e+00
3.240301147848367691e+01 1.034521486051380634e+01 2.407120374124502860e+00
3.539056030660867691e+01 1.249975587613880634e+01 2.722061780374502860e+00
3.577019897848367691e+01 1.297668458707630634e+01 2.771423962991690360e+00
3.532134643942117691e+01 1.321105958707630634e+01 2.750626233499502860e+00
1.371868530660867691e+01 6.681152360513806343e+00 -2.153771844692471404e-01
1.402483765035867691e+01 6.909790055826306343e+00 -2.138818231411221404e-01
1.038567749410867691e+01 5.852661149576306343e+00 -1.941827264614346404e-01
1.031548706442117691e+01 5.925781266763806343e+00 -1.918939081020596404e-01
1.388811890035867691e+01 7.272949235513806343e+00 -2.049249139614346404e-01
1.407561890035867691e+01 7.477783219888806343e+00 -2.028649774379971404e-01
1.361211792379617691e+01 7.445800798013806343e+00 -1.982568231411221404e-01
1.402227417379617691e+01 7.739257829263806343e+00 -1.972497430629971404e-01
1.379693237692117691e+01 6.703613298013806343e+00 -1.573785272426846404e-01
1.369756714254617691e+01 6.804687516763806343e+00 -1.544793573208096404e-01
1.038628784567117691e+01 5.851806657388806343e+00 -1.519006219692471404e-01
1.031463257223367691e+01 5.924438493326306343e+00 -1.497949090786221404e-01
1.384869018942117691e+01 7.257690446451306343e+00 -1.452935663051846404e-01
1.373955933004617691e+01 7.354980485513806343e+00 -1.424096551723721404e-01
1.411492554098367691e+01 7.631713883951306343e+00 -1.392816034145596404e-01
1.435577026754617691e+01 7.865844743326306343e+00 -1.358483758754971404e-01
1.377642456442117691e+01 6.695922868326306343e+00 -9.905943544580964044e-02
1.368487183004617691e+01 6.799194352701306343e+00 -9.640440614893464044e-02
1.038689819723367691e+01 5.850952165201306343e+00 -1.098168817348721404e-01
1.031365600973367691e+01 5.923095719888806343e+00 -1.079247918911221404e-01
1.382268921285867691e+01 7.247192399576306343e+00 -8.628782900049714044e-02
1.372527710348367691e+01 7.348510758951306343e+00 -8.364805849268464044e-02
1.423308960348367691e+01 7.674316423013806343e+00 -7.737669618799714044e-02
1.463811890035867691e+01 7.972778337076306343e+00 -7.147154482080964044e-02
1.005132690817117691e+01 5.556030290201306343e+00 -7.559141786768464044e-02
1.013116089254617691e+01 5.672973649576306343e+00 -7.232603700830964044e-02
1.021343628317117691e+01 5.793090837076306343e+00 -6.919798525049714044e-02
1.029803100973367691e+01 5.916748063638806343e+00 -6.597838075830964044e-02
1.041094604879617691e+01 6.052612321451306343e+00 -6.240782411768464044e-02
1.053899780660867691e+01 6.197021501138806343e+00 -5.859312685205964044e-02
1.067217651754617691e+01 6.347290055826306343e+00 -5.462584169580964044e-02
1.081048218160867691e+01 6.502929704263806343e+00 -5.075010927393464044e-02
9.992244876921176910e+00 5.536987321451306343e+00 -3.599486025049714044e-02
1.007098022848367691e+01 5.652954118326306343e+00 -3.247007997705964044e-02
1.015191284567117691e+01 5.771972673013806343e+00 -2.883848818018464044e-02
1.023516479879617691e+01 5.894409196451306343e+00 -2.510008485987214044e-02
1.032036987692117691e+01 6.019897477701306343e+00 -2.127012880518464044e-02
1.045769897848367691e+01 6.166625993326306343e+00 -1.657042177393464044e-02
1.058819214254617691e+01 6.315063493326306343e+00 -1.187071474268464044e-02
1.072307983785867691e+01 6.468383805826306343e+00 -7.018419820809640441e-03
9.956966556608676910e+00 5.525146501138806343e+00 3.281262796377859559e-03
1.004290405660867691e+01 5.643066423013806343e+00 7.675794046377859559e-03
1.013091675192117691e+01 5.764038102701306343e+00 1.196351377294035956e-02
1.022173706442117691e+01 5.888916032388806343e+00 1.638856260106535956e-02
1.029241577535867691e+01 6.009155290201306343e+00 2.047791806981535956e-02
1.046697632223367691e+01 6.168945329263806343e+00 2.674928037450285956e-02
1.061272827535867691e+01 6.323120133951306343e+00 3.256287900731535956e-02
1.076372925192117691e+01 6.482910173013806343e+00 3.834596006200285956e-02
1.000579468160867691e+01 5.539062516763806343e+00 4.443421689794035956e-02
1.009258667379617691e+01 5.657714860513806343e+00 4.919495908544035956e-02
1.018194214254617691e+01 5.779663102701306343e+00 5.409303037450285956e-02
1.027398315817117691e+01 5.905517594888806343e+00 5.914368955419035956e-02
1.029156128317117691e+01 6.007812516763806343e+00 6.240907041356535956e-02
1.053570190817117691e+01 6.192749040201306343e+00 7.144227353856535956e-02
1.067840210348367691e+01 6.346435563638806343e+00 7.806458799169035956e-02
1.081316772848367691e+01 6.500854508951306343e+00 8.458009092137785956e-02
1.001800171285867691e+01 5.541748063638806343e+00 8.480897275731535956e-02
1.009576050192117691e+01 5.657714860513806343e+00 8.987489072606535956e-02
1.017522827535867691e+01 5.776489274576306343e+00 9.527650205419035956e-02
1.025725952535867691e+01 5.898925798013806343e+00 1.006170782260653596e-01
1.029192749410867691e+01 6.006835954263806343e+00 1.046148809604403596e-01
1.048040405660867691e+01 6.171752946451306343e+00 1.133123907260653596e-01
1.060906616598367691e+01 6.319702165201306343e+00 1.201025518588778596e-01
1.074163452535867691e+01 6.472412126138806343e+00 1.273352178745028596e-01
9.969539798796176910e+00 5.526000993326306343e+00 1.235052618198153596e-01
1.004619995504617691e+01 5.640991227701306343e+00 1.290289434604403596e-01
1.012481323629617691e+01 5.759033219888806343e+00 1.346899542026278596e-01
1.020586792379617691e+01 5.880493180826306343e+00 1.405188116245028596e-01
1.028863159567117691e+01 6.004760758951306343e+00 1.464849981479403596e-01
1.042937866598367691e+01 6.152343766763806343e+00 1.545721563510653596e-01
1.058147827535867691e+01 6.308349626138806343e+00 1.631781133823153596e-01
1.073943725973367691e+01 6.470459001138806343e+00 1.721350225620028596e-01
9.969906009733676910e+00 5.525146501138806343e+00 1.634069952182528596e-01
1.005987183004617691e+01 5.644287126138806343e+00 1.699377569370028596e-01
1.015227905660867691e+01 5.766967790201306343e+00 1.766668829135653596e-01
1.024786011129617691e+01 5.893676774576306343e+00 1.836096319370028596e-01
1.034588257223367691e+01 6.023681657388806343e+00 1.907354864291903596e-01
1.051446167379617691e+01 6.182006852701306343e+00 2.007757696323153596e-01
1.066985718160867691e+01 6.340209977701306343e+00 2.104498418979403596e-01
1.083135620504617691e+01 6.504638688638806343e+00 2.205053838901278596e-01
1.003057495504617691e+01 5.542602555826306343e+00 2.061163458041903596e-01
1.012200561910867691e+01 5.662963883951306343e+00 2.133184942416903596e-01
1.021612183004617691e+01 5.786743180826306343e+00 2.207190069370028596e-01
7.528008667379617691e+01 2.785705568082630634e+01 3.092056897562002860e+00
7.462481323629617691e+01 2.844897462613880634e+01 3.091934827249502860e+00
2.031634155660867691e+01 9.710693376138806343e+00 6.840673956088778596e-01
2.035711304098367691e+01 9.937500016763806343e+00 6.933905157260653596e-01
1.967925659567117691e+01 9.890869157388806343e+00 6.699682745151278596e-01
6.568291870504617691e+01 2.249377443082630634e+01 2.901306775491690360e+00
6.562163940817117691e+01 2.317358400113880634e+01 2.924133923929190360e+00
7.731267944723367691e+01 2.769421388395130634e+01 3.517258313577627860e+00
7.678228393942117691e+01 2.835546876676380634e+01 3.522308972757315360e+00
7.506878296285867691e+01 2.859521486051380634e+01 3.468643811624502860e+00
2.027166382223367691e+01 9.692504899576306343e+00 7.729193243198153596e-01
2.054717651754617691e+01 1.000585939176380634e+01 7.945257696323153596e-01
2.047906128317117691e+01 1.019482423551380634e+01 7.990118536166903596e-01
8.004265991598367691e+01 2.685827638395130634e+01 3.964432385843252860e+00
7.990362183004617691e+01 2.767041017301380634e+01 3.989914563577627860e+00
7.853704468160867691e+01 2.808483888395130634e+01 3.948029187601065360e+00
7.537884155660867691e+01 2.787292482145130634e+01 3.810974744241690360e+00
7.555901733785867691e+01 2.875756837613880634e+01 3.852280286233877860e+00
7.498431030660867691e+01 2.938012696988880634e+01 3.852707532327627860e+00
7.439080444723367691e+01 2.999133302457630634e+01 3.853851941507315360e+00
4.094952026754617691e+01 1.802465821988880634e+01 2.028702405374502860e+00
7.966057983785867691e+01 2.673242189176380634e+01 4.318680432718252860e+00
7.939690796285867691e+01 2.750122071988880634e+01 4.337433484476065360e+00
7.907000366598367691e+01 2.824938966520130634e+01 4.352493909280752860e+00
7.663055054098367691e+01 2.828637696988880634e+01 4.243729260843252860e+00
7.498614136129617691e+01 2.854907228238880634e+01 4.179901746194815360e+00
7.501263061910867691e+01 2.938171388395130634e+01 4.214295056741690360e+00
7.415252319723367691e+01 2.989453126676380634e+01 4.195877698343252860e+00
4.099749390035867691e+01 1.803845216520130634e+01 2.224793103616690360e+00
7.993706909567117691e+01 2.680688478238880634e+01 4.712311414163565360e+00
7.965557495504617691e+01 2.757336427457630634e+01 4.728073743265127860e+00
7.701494995504617691e+01 2.756982423551380634e+01 4.597107556741690360e+00
7.734380737692117691e+01 2.851806642301380634e+01 4.652634290140127860e+00
7.526971069723367691e+01 2.863928224332630634e+01 4.554901746194815360e+00
7.460747925192117691e+01 2.922753907926380634e+01 4.546433118265127860e+00
7.765581909567117691e+01 3.118591310270130634e+01 4.778473523538565360e+00
4.093401733785867691e+01 1.800976564176380634e+01 2.415161755960440360e+00
8.029705444723367691e+01 2.690686036832630634e+01 5.112290051858877860e+00
8.070122925192117691e+01 2.789318849332630634e+01 5.176376965921377860e+00
7.985039917379617691e+01 2.848522950895130634e+01 5.155899670999502860e+00
7.924065796285867691e+01 2.914855958707630634e+01 5.151474622171377860e+00
7.728179565817117691e+01 2.933142091520130634e+01 5.053711560647940360e+00
7.743365112692117691e+01 3.023510743863880634e+01 5.100647595804190360e+00
7.502080933004617691e+01 3.019982911832630634e+01 4.969055798929190360e+00
4.098760620504617691e+01 1.802575685270130634e+01 2.612167981546377860e+00
8.021587768942117691e+01 2.687243654020130634e+01 5.486191419046377860e+00
8.080071655660867691e+01 2.791503907926380634e+01 5.564514783304190360e+00
7.848894897848367691e+01 2.888598634488880634e+01 5.472916272562002860e+00
7.739190308004617691e+01 2.936083986051380634e+01 5.430069592874502860e+00
7.800579468160867691e+01 3.043188478238880634e+01 5.513382581155752860e+00
4.091936890035867691e+01 1.799523927457630634e+01 2.801605847757315360e+00
8.003557983785867691e+01 2.766455079801380634e+01 5.889115003030752860e+00
7.991082397848367691e+01 2.848608400113880634e+01 5.919006970804190360e+00
7.968926636129617691e+01 2.928125001676380634e+01 5.941605237405752860e+00
4.163311401754617691e+01 1.780810548551380634e+01 3.031204846780752860e+00
4.091509643942117691e+01 1.798913575895130634e+01 2.994537976663565360e+00
7.963531128317117691e+01 2.925378419645130634e+01 6.316025403421377860e+00
4.091009155660867691e+01 1.798266603238880634e+01 3.188446668069815360e+00
3.531817261129617691e+01 1.321130372770130634e+01 2.750412610452627860e+00
7.987737671285867691e+01 2.932592775113880634e+01 6.718048718851065360e+00
4.090508667379617691e+01 1.797631837613880634e+01 3.382370618265127860e+00
4.158819214254617691e+01 1.777233888395130634e+01 3.218598035257315360e+00
3.577068725973367691e+01 1.294567872770130634e+01 2.774750379007315360e+00
7.991375366598367691e+01 2.931091310270130634e+01 6.702118543069815360e+00
3.533257690817117691e+01 1.321337892301380634e+01 2.805435803812002860e+00
8.024712768942117691e+01 2.915502931363880634e+01 6.502365735452627860e+00
3.545000854879617691e+01 1.234167482145130634e+01 2.811020520608877860e+00
3.556963745504617691e+01 1.274670411832630634e+01 2.837311414163565360e+00
3.521905151754617691e+01 1.301550294645130634e+01 2.823486951272940360e+00
7.956267944723367691e+01 2.962536622770130634e+01 6.480591443460440360e+00
7.973907104879617691e+01 2.957580568082630634e+01 6.218186047952627860e+00
8.026958862692117691e+01 2.791809083707630634e+01 5.618088391702627860e+00
7.920061890035867691e+01 2.844543458707630634e+01 5.576904920022940360e+00
7.940337768942117691e+01 2.938403321988880634e+01 5.627106336038565360e+00
8.311932007223367691e+01 2.523669435270130634e+01 6.076721814554190360e+00
3.555743042379617691e+01 1.256384279020130634e+01 2.465164807718252860e+00
3.579534546285867691e+01 1.301220704801380634e+01 2.499313977640127860e+00
8.049078003317117691e+01 2.797998048551380634e+01 6.020996716897940360e+00
7.977788940817117691e+01 2.862719728238880634e+01 6.001831677835440360e+00
