8.529972344636917114e+00 3.515983520075678825e+00 -4.470708933658329443e-02
8.123966485261917114e+00 3.550895629450678825e+00 -4.894903269595829443e-02
8.605533868074417114e+00 3.659904418513178825e+00 -3.881719675845829443e-02
7.648136407136917114e+00 3.154533324763178825e+00 -4.150274363345829443e-02
8.022403985261917114e+00 3.225822387263178825e+00 -3.234747019595829443e-02
7.718570977449417114e+00 3.275871215388178825e+00 -3.594854441470829443e-02
8.382023125886917114e+00 3.370841918513178825e+00 -2.078130808658329443e-02
8.296818047761917114e+00 3.432243285700678825e+00 -2.021673289127079443e-02
8.241031914949417114e+00 3.494010863825678825e+00 -1.911810007877079443e-02
8.095768243074417114e+00 3.547599731013178825e+00 -2.004888621158329443e-02
8.600528985261917114e+00 3.658439574763178825e+00 -7.200985820958294426e-03
7.611393243074417114e+00 3.152824340388178825e+00 -1.501348582095829443e-02
7.645939141511917114e+00 3.212638793513178825e+00 -1.217535105533329443e-02
7.680973321199417114e+00 3.273307738825678825e+00 -9.291439922520794426e-03
8.368961602449417114e+00 3.369132934138178825e+00 9.522646991541705574e-03
8.458195000886917114e+00 3.441276488825678825e+00 1.400873097591670557e-02
8.241520196199417114e+00 3.493034301325678825e+00 1.091119679622920557e-02
8.596134454011917114e+00 3.588005004450678825e+00 2.217218312435420557e-02
8.638736993074417114e+00 3.661003051325678825e+00 2.565118703060420557e-02
7.776066094636917114e+00 3.155509887263178825e+00 1.663324269466670557e-02
7.609318047761917114e+00 3.210563598200678825e+00 1.400873097591670557e-02
7.643863946199417114e+00 3.270866332575678825e+00 1.704522999935420557e-02
7.679020196199417114e+00 3.332145629450678825e+00 2.012750538997920557e-02
8.297428399324417114e+00 3.430290160700678825e+00 4.029962453060420557e-02
8.241886407136917114e+00 3.492179809138178825e+00 4.094049367122920557e-02
8.613834649324417114e+00 3.588371215388178825e+00 5.436822804622920557e-02
8.571110039949417114e+00 3.653678832575678825e+00 5.548211964779170557e-02
8.366886407136917114e+00 3.167716918513178825e+00 6.379815968685420557e-02
8.402042657136917114e+00 3.235099731013178825e+00 6.726190480404170557e-02
7.607120782136917114e+00 3.268302856013178825e+00 4.319879445247920557e-02
8.345279961824417114e+00 3.365837035700678825e+00 7.003900441341670557e-02
8.297916680574417114e+00 3.429313598200678825e+00 7.075616749935420557e-02
8.242374688386917114e+00 3.491203246638178825e+00 7.115289601497920557e-02
8.584171563386917114e+00 3.584953246638178825e+00 8.526727589779170557e-02
8.556461602449417114e+00 3.651359496638178825e+00 8.671686085872920557e-02
8.339420586824417114e+00 3.166007934138178825e+00 9.330865773372920557e-02
8.374210625886917114e+00 3.233146606013178825e+00 9.692499074154170557e-02
8.409488946199417114e+00 3.301139770075678825e+00 1.006023589056042056e-01
8.331974297761917114e+00 3.364128051325678825e+00 1.000072661321667056e-01
8.298404961824417114e+00 3.428337035700678825e+00 1.010448637884167056e-01
8.517765313386917114e+00 3.510002074763178825e+00 1.118938628118542056e-01
8.554752618074417114e+00 3.581535277888178825e+00 1.157543364446667056e-01
8.541935235261917114e+00 3.648918090388178825e+00 1.176616850774792056e-01
8.323795586824417114e+00 3.164665160700678825e+00 1.232158842962292056e-01
8.364445000886917114e+00 3.231803832575678825e+00 1.272594633977917056e-01
8.405338555574417114e+00 3.299919066950678825e+00 1.311962309759167056e-01
8.318668633699417114e+00 3.362541137263178825e+00 1.298687163274792056e-01
8.413028985261917114e+00 3.434440551325678825e+00 1.362774077337292056e-01
8.532291680574417114e+00 3.510002074763178825e+00 1.438457671087292056e-01
8.576114922761917114e+00 3.582267699763178825e+00 1.483623686712292056e-01
8.527408868074417114e+00 3.646598754450678825e+00 1.486522856634167056e-01
8.357609063386917114e+00 3.164298949763178825e+00 1.551220122259167056e-01
8.398624688386917114e+00 3.231803832575678825e+00 1.594097319524792056e-01
8.440128594636917114e+00 3.300285277888178825e+00 1.637432280462292056e-01
8.482486993074417114e+00 3.369987426325678825e+00 1.681682768743542056e-01
8.525211602449417114e+00 3.440299926325678825e+00 1.726238432806042056e-01
8.568546563386917114e+00 3.511588988825678825e+00 1.771404448431042056e-01
8.612613946199417114e+00 3.584220824763178825e+00 1.817485991399792056e-01
8.657169610261917114e+00 3.657463012263178825e+00 1.864025298040417056e-01
7.989078789949417114e+00 3.155387816950678825e+00 1.670391264837292056e-01
8.433170586824417114e+00 3.231925902888178825e+00 1.918956938665417056e-01
9.403629571199417114e+00 3.339225707575678825e+00 2.443859282415417056e-01
8.708317071199417114e+00 3.380485473200678825e+00 2.110302153509167056e-01
2.982306316494941711e+01 4.749015746638178825e+00 1.318436831561854206e+00
8.895695000886917114e+00 3.533927856013178825e+00 2.259533110540417056e-01
8.819767266511917114e+00 3.600089965388178825e+00 2.245189848821667056e-01
8.831974297761917114e+00 3.672477660700678825e+00 2.279216948431042056e-01
7.997013360261917114e+00 3.154533324763178825e+00 1.963054839056042056e-01
8.593815118074417114e+00 3.235832152888178825e+00 2.319194975774792056e-01
8.655216485261917114e+00 3.307121215388178825e+00 2.378551665227917056e-01
8.685001641511917114e+00 3.378288207575678825e+00 2.420665923040417056e-01
8.719669610261917114e+00 3.450187621638178825e+00 2.465679350774792056e-01
8.901432305574417114e+00 3.533317504450678825e+00 2.595379057806042056e-01
9.472843438386917114e+00 3.652091918513178825e+00 2.951214018743542056e-01
8.834781914949417114e+00 3.671745238825678825e+00 2.609111967962292056e-01
8.022159844636917114e+00 3.154045043513178825e+00 2.268230620306042056e-01
8.722721368074417114e+00 3.238883910700678825e+00 2.713329497259167056e-01
8.993107110261917114e+00 3.319938598200678825e+00 2.903301421087292056e-01
8.632023125886917114e+00 3.374504027888178825e+00 2.709057036321667056e-01
9.021061211824417114e+00 3.467521606013178825e+00 2.973797026556042056e-01
8.907169610261917114e+00 3.532585082575678825e+00 2.930156889837292056e-01
8.868229180574417114e+00 3.601798949763178825e+00 2.932293120306042056e-01
8.827335625886917114e+00 3.669914184138178825e+00 2.934734526556042056e-01
8.017643243074417114e+00 3.152946410700678825e+00 2.555248442571667056e-01
2.738495281338691711e+01 3.816886840388178825e+00 1.518265933124354206e+00
8.816349297761917114e+00 3.311515746638178825e+00 3.124401274602917056e-01
9.060001641511917114e+00 3.395255981013178825e+00 3.311016264837292056e-01
9.025211602449417114e+00 3.466667113825678825e+00 3.314983549993542056e-01
8.913028985261917114e+00 3.531974731013178825e+00 3.267223540227917056e-01
8.871158868074417114e+00 3.601066527888178825e+00 3.266002837102917056e-01
8.787784844636917114e+00 3.665275512263178825e+00 3.236248198431042056e-01
8.756412774324417114e+00 3.167472777888178825e+00 3.358776274602917056e-01
2.648810222744941711e+01 3.785148559138178825e+00 1.574403018085291706e+00
8.768741875886917114e+00 3.308586059138178825e+00 3.417827788274792056e-01
3.026190593838691711e+01 4.473014770075678825e+00 1.857941836444666706e+00
9.029239922761917114e+00 3.465812621638178825e+00 3.654644194524792056e-01
8.918766289949417114e+00 3.531242309138178825e+00 3.603222075384167056e-01
8.873966485261917114e+00 3.600212035700678825e+00 3.599865141790417056e-01
8.843082696199417114e+00 3.669303832575678825e+00 3.604290190618542056e-01
1.422809246182441711e+01 3.279899535700678825e+00 7.730724516790417056e-01
2.728912761807441711e+01 3.805900512263178825e+00 1.747849673358729206e+00
9.036197930574417114e+00 3.318351684138178825e+00 3.944103423040417056e-01
9.071476250886917114e+00 3.393546996638178825e+00 3.997966948431042056e-01
9.034244805574417114e+00 3.464958129450678825e+00 3.997356596868542056e-01
2.761261394619941711e+01 4.852897582575678825e+00 1.810624331561854206e+00
2.806073406338691711e+01 5.149772582575678825e+00 1.854508608905604206e+00
2.213898113369941711e+01 4.876335082575678825e+00 1.411606997577479206e+00
8.087345391511917114e+00 3.617668090388178825e+00 -2.238147553522082944e-01
7.987858086824417114e+00 3.671379027888178825e+00 -2.207019623834582944e-01
8.513248711824417114e+00 3.794303832575678825e+00 -2.243945893365832944e-01
8.489811211824417114e+00 3.860343871638178825e+00 -2.221515473443957944e-01
8.890690118074417114e+00 3.982658324763178825e+00 -2.241351899225207944e-01
8.872745782136917114e+00 4.052848754450678825e+00 -2.218311127740832944e-01
8.901554375886917114e+00 4.130363402888178825e+00 -2.199695405084582944e-01
9.559025079011917114e+00 4.311881957575678825e+00 -2.239826020318957944e-01
8.569034844636917114e+00 3.661857543513178825e+00 -1.975238617975207944e-01
7.985904961824417114e+00 3.670280395075678825e+00 -1.918323334772082944e-01
9.261417657136917114e+00 3.878410277888178825e+00 -1.973407563287707944e-01
8.135441094636917114e+00 3.815421996638178825e+00 -1.887347992975207944e-01
8.505070000886917114e+00 3.929923949763178825e+00 -1.887653168756457944e-01
9.131534844636917114e+00 4.089103637263178825e+00 -1.898486908990832944e-01
8.857853204011917114e+00 4.122550902888178825e+00 -1.864764985162707944e-01
8.886417657136917114e+00 4.200187621638178825e+00 -1.844318207818957944e-01
8.033390313386917114e+00 3.610832152888178825e+00 -1.648242768365832944e-01
8.588199883699417114e+00 3.731681762263178825e+00 -1.637866791803332944e-01
1.367255046963691711e+01 4.378044066950678825e+00 -1.683795746881457944e-01
8.527530938386917114e+00 3.863029418513178825e+00 -1.594989594537707944e-01
8.226993829011917114e+00 3.891838012263178825e+00 -1.571948823053332944e-01
9.143741875886917114e+00 4.089836059138178825e+00 -1.555469330865832944e-01
9.013736993074417114e+00 4.145622191950678825e+00 -1.532275971490832944e-01
8.969791680574417114e+00 4.212882934138178825e+00 -1.509692963678332944e-01
8.604191094636917114e+00 3.663078246638178825e+00 -1.342456635553332944e-01
8.605900079011917114e+00 3.732536254450678825e+00 -1.319263276178332944e-01
8.797794610261917114e+00 3.823600707575678825e+00 -1.291339692193957944e-01
8.788273125886917114e+00 3.894279418513178825e+00 -1.269519623834582944e-01
8.023136407136917114e+00 3.863639770075678825e+00 -1.277454194147082944e-01
8.833317071199417114e+00 4.044181762263178825e+00 -1.223132905084582944e-01
1.367242839932441711e+01 4.861930785700678825e+00 -9.792974558658329443e-02
8.979801446199417114e+00 4.213493285700678825e+00 -1.172626313287707944e-01
8.621891289949417114e+00 3.663688598200678825e+00 -1.022632416803332944e-01
8.623600274324417114e+00 3.733268676325678825e+00 -1.000507172662707944e-01
8.770695000886917114e+00 3.819572387263178825e+00 -9.669378367252079443e-02
8.742496758699417114e+00 3.887565551325678825e+00 -9.466436472720829443e-02
8.780948907136917114e+00 3.963859496638178825e+00 -9.208562937564579443e-02
8.935734063386917114e+00 4.057853637263178825e+00 -8.845403757877079443e-02
8.991276055574417114e+00 4.140129027888178825e+00 -8.561590281314579443e-02
8.989811211824417114e+00 4.214103637263178825e+00 -8.328130808658329443e-02
8.630680352449417114e+00 3.663566527888178825e+00 -7.038763132877079443e-02
8.641544610261917114e+00 3.734123168513178825e+00 -6.785467234439579443e-02
8.720402032136917114e+00 3.812858520075678825e+00 -6.460455027408329443e-02
8.786320000886917114e+00 3.891960082575678825e+00 -6.147649851627079443e-02
8.839054375886917114e+00 3.970573363825678825e+00 -5.847051707095829443e-02
8.892643243074417114e+00 4.050651488825678825e+00 -5.541875925845829443e-02
8.947452813386917114e+00 4.132316527888178825e+00 -5.230596628970829443e-02
8.999820977449417114e+00 4.214713988825678825e+00 -4.937627878970829443e-02
8.605778008699417114e+00 3.660148559138178825e+00 -3.880193796939579443e-02
8.644352227449417114e+00 3.733390746638178825e+00 -3.588750925845829443e-02
8.683414727449417114e+00 3.807609496638178825e+00 -3.292730418033329443e-02
8.745182305574417114e+00 3.885856566950678825e+00 -2.953985300845829443e-02
8.797306329011917114e+00 3.963981566950678825e+00 -2.627447214908329443e-02
8.850284844636917114e+00 4.043571410700678825e+00 -2.294805613345829443e-02
8.909122735261917114e+00 4.125480590388178825e+00 -1.948431101627079443e-02
8.970402032136917114e+00 4.208976684138178825e+00 -1.591375437564579443e-02
8.601139336824417114e+00 3.658683715388178825e+00 -7.185727031895794426e-03
8.651920586824417114e+00 3.733146606013178825e+00 -3.783017070958294426e-03
8.695621758699417114e+00 3.807975707575678825e+00 -3.345307428332944255e-04
8.766056329011917114e+00 3.887443481013178825e+00 3.586978046229205574e-03
8.824528008699417114e+00 3.966667113825678825e+00 7.279604999354205574e-03
8.884098321199417114e+00 4.047355590388178825e+00 1.104852589779170557e-02
8.944767266511917114e+00 4.129875121638178825e+00 1.471063527279170557e-02
9.006778985261917114e+00 4.213859496638178825e+00 1.863214406185420557e-02
8.639103204011917114e+00 3.661247191950678825e+00 2.566644581966670557e-02
8.666324883699417114e+00 3.733634887263178825e+00 2.873346242122920557e-02
8.726383477449417114e+00 3.810417113825678825e+00 3.270074757747920557e-02
8.800113946199417114e+00 3.890617309138178825e+00 3.708002003841670557e-02
8.859195977449417114e+00 3.970207152888178825e+00 4.112359913997920557e-02
8.919376641511917114e+00 4.051383910700678825e+00 4.524347218685420557e-02
8.981022149324417114e+00 4.134513793513178825e+00 4.943963917904170557e-02
9.043644219636917114e+00 4.218864379450678825e+00 5.372735890560420557e-02
8.571720391511917114e+00 3.653922973200678825e+00 5.549737843685420557e-02
8.651310235261917114e+00 3.731071410700678825e+00 6.033441456966670557e-02
8.729801446199417114e+00 3.809806762263178825e+00 6.517145070247920557e-02
8.795231133699417114e+00 3.889030395075678825e+00 6.968805226497920557e-02
8.847355157136917114e+00 3.967643676325678825e+00 7.380792531185420557e-02
8.900333672761917114e+00 4.047599731013178825e+00 7.801935109310420557e-02
8.954410821199417114e+00 4.129386840388178825e+00 8.230707081966670557e-02
9.009220391511917114e+00 4.212272582575678825e+00 8.665582570247920557e-02
8.557071954011917114e+00 3.651603637263178825e+00 8.674737843685420557e-02
8.636295586824417114e+00 3.728507934138178825e+00 9.196588429622920557e-02
8.698917657136917114e+00 3.805290160700678825e+00 9.665033253841670557e-02
8.761051446199417114e+00 3.883781371638178825e+00 1.013652983587292056e-01
8.812565118074417114e+00 3.962028441950678825e+00 1.057445708196667056e-01
8.865055352449417114e+00 4.041618285700678825e+00 1.102153960149792056e-01
8.918522149324417114e+00 4.122795043513178825e+00 1.147625151556042056e-01
8.972843438386917114e+00 4.205314574763178825e+00 1.193706694524792056e-01
8.542545586824417114e+00 3.649284301325678825e+00 1.176922026556042056e-01
8.621525079011917114e+00 3.725944457575678825e+00 1.233074370306042056e-01
8.672916680574417114e+00 3.801383910700678825e+00 1.278545561712292056e-01
8.743229180574417114e+00 3.880607543513178825e+00 1.332256499212292056e-01
8.803653985261917114e+00 3.959831176325678825e+00 1.382610503118542056e-01
8.865421563386917114e+00 4.040641723200678825e+00 1.433880034368542056e-01
8.928653985261917114e+00 4.123405395075678825e+00 1.486217680852917056e-01
8.992862969636917114e+00 4.207511840388178825e+00 1.539623442571667056e-01
8.528019219636917114e+00 3.646964965388178825e+00 1.486980620306042056e-01
8.665348321199417114e+00 3.729484496638178825e+00 1.573040190618542056e-01
8.710636407136917114e+00 3.804557738825678825e+00 1.616985503118542056e-01
8.785099297761917114e+00 3.884635863825678825e+00 1.676494780462292056e-01
8.846500664949417114e+00 3.964469848200678825e+00 1.730510893743542056e-01
8.909000664949417114e+00 4.045768676325678825e+00 1.785595122259167056e-01
8.973209649324417114e+00 4.129142699763178825e+00 1.843883696477917056e-01
9.038395196199417114e+00 4.213859496638178825e+00 1.901256743352917056e-01
8.657535821199417114e+00 3.657829223200678825e+00 1.864177885931042056e-01
8.702823907136917114e+00 3.732292113825678825e+00 1.912243071477917056e-01
8.766788750886917114e+00 3.809806762263178825e+00 1.969921294134167056e-01
1.402191570401191711e+01 4.522819457575678825e+00 4.619762602727917056e-01
1.416009929776191711e+01 4.665763793513178825e+00 4.735271635931042056e-01
1.418414714932441711e+01 4.795646606013178825e+00 4.794017973821667056e-01
1.430450847744941711e+01 4.941520629450678825e+00 4.902355376165417056e-01
1.492975261807441711e+01 5.171867309138178825e+00 5.271312895696667056e-01
8.831730157136917114e+00 3.672721801325678825e+00 2.279216948431042056e-01
9.472721368074417114e+00 3.809562621638178825e+00 2.648937407415417056e-01
2.215521648526191711e+01 5.305290160700678825e+00 9.548046294134167056e-01
1.402472332119941711e+01 4.521354613825678825e+00 5.190746489446667056e-01
2.759222820401191711e+01 6.437614379450678825e+00 1.268967837421229206e+00
1.516632488369941711e+01 4.933586059138178825e+00 5.915844145696667056e-01
1.817157390713691711e+01 5.529167113825678825e+00 7.640850249212292056e-01
1.488580730557441711e+01 5.162834106013178825e+00 5.864727202337292056e-01
8.834537774324417114e+00 3.671989379450678825e+00 2.609111967962292056e-01
2.215851238369941711e+01 5.096549926325678825e+00 1.042145938007166706e+00
2.215399578213691711e+01 5.302116332575678825e+00 1.049729556171229206e+00
2.675787761807441711e+01 6.070060668513178825e+00 1.330170840350916706e+00
3.068402507901191711e+01 6.841667113825678825e+00 1.573762148944666706e+00
2.739630535244941711e+01 6.669059691950678825e+00 1.387788027850916706e+00
1.494012859463691711e+01 5.034660277888178825e+00 6.459209624212292056e-01
1.484320476651191711e+01 5.154045043513178825e+00 6.451732817571667056e-01
8.828312188386917114e+00 3.670280395075678825e+00 2.935344878118542056e-01
8.806705743074417114e+00 3.739738402888178825e+00 2.947704497259167056e-01
2.215265300869941711e+01 5.299064574763178825e+00 1.144150942889979206e+00
2.779791668057441711e+01 6.192985473200678825e+00 1.512482852069666706e+00
2.758441570401191711e+01 6.429191527888178825e+00 1.508988589374354206e+00
2.726703289151191711e+01 6.646964965388178825e+00 1.498643130389979206e+00
1.489728191494941711e+01 5.026359496638178825e+00 7.046062651556042056e-01
1.480084636807441711e+01 5.145378051325678825e+00 7.038280669134167056e-01
8.788639336824417114e+00 3.665641723200678825e+00 3.237011137884167056e-01
2.216119793057441711e+01 5.090812621638178825e+00 1.231675356952479206e+00
2.215143230557441711e+01 5.295890746638178825e+00 1.239106387225916706e+00
2.775653484463691711e+01 6.184196410700678825e+00 1.631089419452479206e+00
2.796844890713691711e+01 6.476066527888178825e+00 1.656037539569666706e+00
2.821661785244941711e+01 6.777946410700678825e+00 1.683701724139979206e+00
1.829901531338691711e+01 5.541496215388178825e+00 1.003266543475916706e+00
1.796234539151191711e+01 5.656364379450678825e+00 9.863140288274792056e-01
8.842960625886917114e+00 3.669547973200678825e+00 3.604290190618542056e-01
2.210602214932441711e+01 5.082267699763178825e+00 1.322648257343104206e+00
2.215021160244941711e+01 5.292838988825678825e+00 1.333558291522791706e+00
2.772455242276191711e+01 6.176505981013178825e+00 1.749375552264979206e+00
2.964154461026191711e+01 6.692253051325678825e+00 1.900803774921229206e+00
2.699200847744941711e+01 6.600822387263178825e+00 1.716248721210291706e+00
1.820660808682441711e+01 5.525138793513178825e+00 1.073929995624354206e+00
1.795270183682441711e+01 5.652458129450678825e+00 1.061661929218104206e+00
2.212958171963691711e+01 4.876213012263178825e+00 1.410905093280604206e+00
2.213715007901191711e+01 5.082389770075678825e+00 1.419282168475916706e+00
2.214899089932441711e+01 5.289665160700678825e+00 1.428528994647791706e+00
2.231952312588691711e+01 5.517692504450678825e+00 1.450181216327479206e+00
2.671576336026191711e+01 6.303947387263178825e+00 1.802323550311854206e+00
2.683636882901191711e+01 6.575187621638178825e+00 1.822068423358729206e+00
1.817364910244941711e+01 5.517814574763178825e+00 1.148041934100916706e+00
1.802338054776191711e+01 5.661613402888178825e+00 1.143311709491541706e+00
9.559269219636917114e+00 4.312248168513178825e+00 -2.239673432428332944e-01
8.910587579011917114e+00 4.279045043513178825e+00 -2.159564789850207944e-01
9.064274102449417114e+00 4.381462035700678825e+00 -2.153308686334582944e-01
1.299860027432441711e+01 5.226432738825678825e+00 -2.458179291803332944e-01
1.290204265713691711e+01 5.323356566950678825e+00 -2.419879731256457944e-01
1.286542156338691711e+01 5.431755004450678825e+00 -2.386462983209582944e-01
1.310651043057441711e+01 5.603263793513178825e+00 -2.373798188287707944e-01
1.295087078213691711e+01 5.685661254450678825e+00 -2.334125336725207944e-01
8.886661797761917114e+00 4.200431762263178825e+00 -1.844318207818957944e-01
8.920353204011917114e+00 4.279777465388178825e+00 -1.825702485162707944e-01
1.299762371182441711e+01 5.108024535700678825e+00 -1.960742768365832944e-01
1.295221355557441711e+01 5.215812621638178825e+00 -1.927478608209582944e-01
1.336432293057441711e+01 5.416984496638178825e+00 -1.909473237115832944e-01
1.336713054776191711e+01 5.538688598200678825e+00 -1.876666840631457944e-01
1.315558269619941711e+01 5.612785277888178825e+00 -1.840656098443957944e-01
1.300067546963691711e+01 5.696037231013178825e+00 -1.804340180475207944e-01
8.969669610261917114e+00 4.213127074763178825e+00 -1.509692963678332944e-01
8.902042657136917114e+00 4.275505004450678825e+00 -1.489246186334582944e-01
1.311395671963691711e+01 5.127921996638178825e+00 -1.434619721490832944e-01
1.291840007901191711e+01 5.207755981013178825e+00 -1.403644379693957944e-01
1.383356121182441711e+01 5.511833129450678825e+00 -1.358478364068957944e-01
1.337311199307441711e+01 5.538444457575678825e+00 -1.330859955865832944e-01
1.334515789151191711e+01 5.654167113825678825e+00 -1.297138032037707944e-01
1.305084636807441711e+01 5.706413207575678825e+00 -1.269672211725207944e-01
8.979557305574417114e+00 4.213737426325678825e+00 -1.172626313287707944e-01
8.940128594636917114e+00 4.281242309138178825e+00 -1.151264008600207944e-01
1.291449382901191711e+01 5.089469848200678825e+00 -9.118536082095829443e-02
1.336493328213691711e+01 5.293327270075678825e+00 -8.521917429752079443e-02
1.383160808682441711e+01 5.509880004450678825e+00 -7.890203562564579443e-02
1.337909343838691711e+01 5.538200316950678825e+00 -7.813909617252079443e-02
1.339606121182441711e+01 5.664176879450678825e+00 -7.449224558658329443e-02
1.310126140713691711e+01 5.716911254450678825e+00 -7.328680125064579443e-02
8.989567071199417114e+00 4.214347777888178825e+00 -8.328130808658329443e-02
9.105655938386917114e+00 4.309074340388178825e+00 -7.990911570377079443e-02
9.164371758699417114e+00 4.395866332575678825e+00 -7.704046336002079443e-02
9.224552422761917114e+00 4.484733520075678825e+00 -7.411077586002079443e-02
9.285709649324417114e+00 4.575065551325678825e+00 -7.113531199283329443e-02
9.348087579011917114e+00 4.667228637263178825e+00 -6.809881296939579443e-02
9.411930352449417114e+00 4.761711059138178825e+00 -6.498602000064579443e-02
9.476993829011917114e+00 4.857780395075678825e+00 -6.181219187564579443e-02
8.999576836824417114e+00 4.214958129450678825e+00 -4.936102000064579443e-02
9.060367852449417114e+00 4.300163207575678825e+00 -4.600408640689579443e-02
9.118229180574417114e+00 4.386344848200678825e+00 -4.283025828189579443e-02
9.177555352449417114e+00 4.474601684138178825e+00 -3.956487742252079443e-02
9.237858086824417114e+00 4.564201293513178825e+00 -3.626897898502079443e-02
9.299381524324417114e+00 4.655754027888178825e+00 -3.288152781314579443e-02
9.362369805574417114e+00 4.749504027888178825e+00 -2.943304148502079443e-02
9.426700860261917114e+00 4.844963012263178825e+00 -2.609136668033329443e-02
8.970890313386917114e+00 4.209220824763178825e+00 -1.589849558658329443e-02
9.033268243074417114e+00 4.294425902888178825e+00 -1.235845652408329443e-02
9.097111016511917114e+00 4.381462035700678825e+00 -8.726864727208294426e-03
9.162540704011917114e+00 4.470573363825678825e+00 -5.018978985020794426e-03
9.229069024324417114e+00 4.561393676325678825e+00 -1.234799297520794426e-03
9.297184258699417114e+00 4.654289184138178825e+00 2.640933124354205574e-03
9.367008477449417114e+00 4.749504027888178825e+00 6.608218280604205574e-03
9.438175469636917114e+00 4.846549926325678825e+00 1.065179738216670557e-02
9.007267266511917114e+00 4.214225707575678825e+00 1.864740285091670557e-02
9.070377618074417114e+00 4.299796996638178825e+00 2.258417042904170557e-02
9.135074883699417114e+00 4.387443481013178825e+00 2.679559621029170557e-02
9.201236993074417114e+00 4.477165160700678825e+00 3.091546925716670557e-02
9.268619805574417114e+00 4.568473754450678825e+00 3.511163624935420557e-02
9.337467461824417114e+00 4.661979613825678825e+00 3.941461476497920557e-02
9.408024102449417114e+00 4.757804809138178825e+00 4.361078175716670557e-02
9.480045586824417114e+00 4.855461059138178825e+00 4.811212453060420557e-02
9.044132500886917114e+00 4.219230590388178825e+00 5.374261769466670557e-02
9.102848321199417114e+00 4.304435668513178825e+00 5.793878468685420557e-02
9.160465508699417114e+00 4.391105590388178825e+00 6.213495167904170557e-02
9.219547539949417114e+00 4.479606566950678825e+00 6.643793019466670557e-02
9.279484063386917114e+00 4.569694457575678825e+00 7.081720265560420557e-02
9.340641289949417114e+00 4.661613402888178825e+00 7.527276906185420557e-02
9.403385430574417114e+00 4.755729613825678825e+00 7.983514699154170557e-02
9.467106133699417114e+00 4.851432738825678825e+00 8.448907765560420557e-02
9.009708672761917114e+00 4.212516723200678825e+00 8.667108449154170557e-02
9.065616875886917114e+00 4.296989379450678825e+00 9.109613331966670557e-02
9.122623711824417114e+00 4.383048949763178825e+00 9.559747609310420557e-02
9.180973321199417114e+00 4.471183715388178825e+00 1.002208891790417056e-01
9.240299493074417114e+00 4.560661254450678825e+00 1.049053374212292056e-01
9.300724297761917114e+00 4.651969848200678825e+00 1.096813383977917056e-01
9.362736016511917114e+00 4.745475707575678825e+00 1.145794096868542056e-01
9.425602227449417114e+00 4.840568481013178825e+00 1.195537749212292056e-01
8.973331719636917114e+00 4.205558715388178825e+00 1.194011870306042056e-01
9.028629571199417114e+00 4.289543090388178825e+00 1.241161528509167056e-01
9.084903985261917114e+00 4.375114379450678825e+00 1.289226714056042056e-01
9.147526055574417114e+00 4.463615356013178825e+00 1.340343657415417056e-01
9.216861993074417114e+00 4.554801879450678825e+00 1.394359770696667056e-01
9.287662774324417114e+00 4.648185668513178825e+00 1.449749174993542056e-01
9.360416680574417114e+00 4.744010863825678825e+00 1.506664458196667056e-01
9.434513360261917114e+00 4.841667113825678825e+00 1.564495268743542056e-01
8.993351250886917114e+00 4.207878051325678825e+00 1.539928618352917056e-01
9.059025079011917114e+00 4.293815551325678825e+00 1.594860258977917056e-01
9.126163750886917114e+00 4.381706176325678825e+00 1.650860014837292056e-01
9.195133477449417114e+00 4.471794066950678825e+00 1.708538237493542056e-01
9.265323907136917114e+00 4.563713012263178825e+00 1.767131987493542056e-01
9.337223321199417114e+00 4.657829223200678825e+00 1.827099028509167056e-01
9.410953789949417114e+00 4.754386840388178825e+00 1.888744536321667056e-01
9.486271172761917114e+00 4.852897582575678825e+00 1.951763335149792056e-01
9.038883477449417114e+00 4.214225707575678825e+00 1.901561919134167056e-01
9.105533868074417114e+00 4.300895629450678825e+00 1.960766020696667056e-01
9.173404961824417114e+00 4.389274535700678825e+00 2.019359770696667056e-01
1.430878093838691711e+01 5.462028441950678825e+00 4.507610503118542056e-01
1.485944011807441711e+01 5.704948363825678825e+00 4.821788969915417056e-01
1.526117351651191711e+01 5.927970824763178825e+00 5.068065825384167056e-01
1.527655437588691711e+01 6.073478637263178825e+00 5.131694975774792056e-01
1.503412273526191711e+01 6.158683715388178825e+00 5.064556303899792056e-01
1.492914226651191711e+01 5.172233520075678825e+00 5.271160307806042056e-01
1.515826824307441711e+01 5.347160277888178825e+00 5.441295805852917056e-01
1.457208660244941711e+01 5.378044066950678825e+00 5.187847319524792056e-01
1.451068523526191711e+01 5.499381957575678825e+00 5.206157866399792056e-01
1.486481121182441711e+01 5.704338012263178825e+00 5.444194975774792056e-01
1.521149089932441711e+01 5.915519652888178825e+00 5.681316557806042056e-01
1.510992839932441711e+01 6.034171996638178825e+00 5.680401030462292056e-01
1.500311687588691711e+01 6.149650512263178825e+00 5.675975981634167056e-01
1.488519695401191711e+01 5.163200316950678825e+00 5.864574614446667056e-01
1.479462078213691711e+01 5.282463012263178825e+00 5.862590971868542056e-01
2.533417156338691711e+01 7.347770629450678825e+00 1.190888613788416706e+00
1.458234050869941711e+01 5.511466918513178825e+00 5.846111479681042056e-01
1.487311199307441711e+01 5.704215941950678825e+00 6.065685454290417056e-01
2.641376140713691711e+01 8.314567504450678825e+00 1.282212466327479206e+00
3.246808269619941711e+01 9.934684691950678825e+00 1.646393984882166706e+00
3.243683269619941711e+01 1.024999230913817883e+01 1.657883853046229206e+00
1.484271648526191711e+01 5.154411254450678825e+00 6.451580229681042056e-01
1.465594890713691711e+01 5.256706176325678825e+00 6.390850249212292056e-01
1.454718425869941711e+01 5.369865356013178825e+00 6.376964751165417056e-01
1.520355632901191711e+01 5.629875121638178825e+00 6.836712065618542056e-01
1.479742839932441711e+01 5.687004027888178825e+00 6.638958159368542056e-01
2.636322429776191711e+01 8.300407348200678825e+00 1.395722598163416706e+00
3.221405437588691711e+01 9.873527465388178825e+00 1.775925845233729206e+00
3.243597820401191711e+01 1.024571984820067883e+01 1.802781313983729206e+00
1.480023601651191711e+01 5.145744262263178825e+00 7.038128081243542056e-01
1.794781902432441711e+01 5.823234496638178825e+00 9.161235991399792056e-01
1.450348308682441711e+01 5.360221801325678825e+00 6.947643462102917056e-01
1.521442058682441711e+01 5.630119262263178825e+00 7.475597563665417056e-01
1.488531902432441711e+01 5.703117309138178825e+00 7.311718169134167056e-01
2.724603679776191711e+01 8.486198363825678825e+00 1.571183413593104206e+00
2.655560711026191711e+01 8.598869262263178825e+00 1.535172671405604206e+00
3.243500164151191711e+01 1.024144738726317883e+01 1.948487490741541706e+00
1.801959636807441711e+01 5.666252074763178825e+00 9.903576079290417056e-01
1.800616863369941711e+01 5.830924926325678825e+00 9.963543120306042056e-01
1.826971843838691711e+01 6.046745238825678825e+00 1.022034854022791706e+00
2.718146160244941711e+01 7.939567504450678825e+00 1.665177554218104206e+00
1.489117839932441711e+01 5.702506957575678825e+00 7.937328520696667056e-01
2.658441570401191711e+01 8.341178832575678825e+00 1.644074648944666706e+00
3.217523601651191711e+01 9.856681762263178825e+00 2.061219424335291706e+00
3.243414714932441711e+01 1.023729699663817883e+01 2.093445986835291706e+00
1.795221355557441711e+01 5.652946410700678825e+00 1.061646670429041706e+00
1.795880535244941711e+01 5.820548949763178825e+00 1.069215029804041706e+00
1.825226238369941711e+01 6.041374145075678825e+00 1.098115176288416706e+00
2.660541179776191711e+01 8.083122191950678825e+00 1.751633853046229206e+00
2.741827800869941711e+01 8.516105590388178825e+00 1.825196475116541706e+00
2.895648601651191711e+01 9.130729613825678825e+00 1.956376284686854206e+00
3.224420574307441711e+01 1.018859094195067883e+01 2.224488467304041706e+00
1.802301433682441711e+01 5.662101684138178825e+00 1.143311709491541706e+00
1.794110515713691711e+01 5.815299926325678825e+00 1.143616885272791706e+00
1.824725750088691711e+01 6.038078246638178825e+00 1.175461978046229206e+00
2.644257000088691711e+01 7.790153441950678825e+00 1.844773501483729206e+00
2.732562664151191711e+01 8.226066527888178825e+00 1.927613467304041706e+00
2.868610027432441711e+01 8.783561645075678825e+00 2.050309390155604206e+00
2.894134929776191711e+01 9.123771606013178825e+00 2.083543032733729206e+00
3.243243816494941711e+01 1.022875207476317883e+01 2.385010928241541706e+00
1.294989421963691711e+01 5.685905395075678825e+00 -2.333972748834582944e-01
1.382574871182441711e+01 6.021110473200678825e+00 -2.364185151178332944e-01
1.382037761807441711e+01 6.147941527888178825e+00 -2.333972748834582944e-01
1.371466472744941711e+01 6.248771606013178825e+00 -2.297046479303332944e-01
1.391583660244941711e+01 6.433463988825678825e+00 -2.279651459772082944e-01
1.342352703213691711e+01 6.421745238825678825e+00 -2.219837006647082944e-01
1.357648113369941711e+01 6.594963012263178825e+00 -2.198932465631457944e-01
1.387897136807441711e+01 6.818473754450678825e+00 -2.188403901178332944e-01
1.299969890713691711e+01 5.696159301325678825e+00 -1.804187592584582944e-01
1.402118328213691711e+01 6.067863402888178825e+00 -1.797626313287707944e-01
1.375507000088691711e+01 6.129508910700678825e+00 -1.757495698053332944e-01
1.397955730557441711e+01 6.318473754450678825e+00 -1.729724701959582944e-01
1.390338543057441711e+01 6.428459106013178825e+00 -1.696460541803332944e-01
1.384418132901191711e+01 6.542472777888178825e+00 -1.663654145318957944e-01
1.376727703213691711e+01 6.650993285700678825e+00 -1.633899506647082944e-01
1.364618328213691711e+01 6.744377074763178825e+00 -1.600940522272082944e-01
1.304986980557441711e+01 5.706535277888178825e+00 -1.269519623834582944e-01
1.364435222744941711e+01 5.973014770075678825e+00 -1.223743256647082944e-01
1.390826824307441711e+01 6.167472777888178825e+00 -1.183917817193957944e-01
1.371405437588691711e+01 6.245597777888178825e+00 -1.156451996881457944e-01
1.389093425869941711e+01 6.423454223200678825e+00 -1.117389496881457944e-01
1.383185222744941711e+01 6.537345824763178825e+00 -1.085956391412707944e-01
1.344403484463691711e+01 6.552238402888178825e+00 -1.067340668756457944e-01
1.361432293057441711e+01 6.732902465388178825e+00 -1.027362641412707944e-01
1.310028484463691711e+01 5.717033324763178825e+00 -7.328680125064579443e-02
1.354901531338691711e+01 5.947990356013178825e+00 -6.649664011783329443e-02
1.411029461026191711e+01 6.218009887263178825e+00 -5.888250437564579443e-02
1.399554851651191711e+01 6.319572387263178825e+00 -5.622747507877079443e-02
1.387836101651191711e+01 6.418327270075678825e+00 -5.363348093814579443e-02
1.381818035244941711e+01 6.531852660700678825e+00 -5.062749949283329443e-02
9.959415704011917114e+00 5.502189574763178825e+00 -8.071783152408329443e-02
1.003754070401191711e+01 5.616325316950678825e+00 -7.781866160220829443e-02
9.477482110261917114e+00 4.858268676325678825e+00 -6.179693308658329443e-02
9.544132500886917114e+00 4.956413207575678825e+00 -5.869939890689579443e-02
9.612369805574417114e+00 5.056999145075678825e+00 -5.552557078189579443e-02
9.682316094636917114e+00 5.160148559138178825e+00 -5.227544871158329443e-02
9.753727227449417114e+00 5.265373168513178825e+00 -4.894903269595829443e-02
9.826725274324417114e+00 5.373161254450678825e+00 -4.554632273502079443e-02
9.901920586824417114e+00 5.483879027888178825e+00 -4.205206003970829443e-02
9.978580743074417114e+00 5.596916137263178825e+00 -3.849676218814579443e-02
9.427189141511917114e+00 4.845329223200678825e+00 -2.607610789127079443e-02
9.492618829011917114e+00 4.942741332575678825e+00 -2.241399851627079443e-02
9.559757500886917114e+00 5.042472777888178825e+00 -1.884344187564579443e-02
9.628727227449417114e+00 5.144767699763178825e+00 -1.518133250064579443e-02
9.698917657136917114e+00 5.249137816950678825e+00 -1.145818796939579443e-02
9.775211602449417114e+00 5.357170043513178825e+00 -7.567196758458294426e-03
9.856754571199417114e+00 5.469352660700678825e+00 -3.493100078770794426e-03
9.940006524324417114e+00 5.583854613825678825e+00 4.436674993542055745e-04
9.438785821199417114e+00 4.847038207575678825e+00 1.066705617122920557e-02
9.511539727449417114e+00 4.946403441950678825e+00 1.472589406185420557e-02
9.586002618074417114e+00 5.048210082575678825e+00 1.886102589779170557e-02
9.662784844636917114e+00 5.152824340388178825e+00 2.313348683529170557e-02
9.741031914949417114e+00 5.259880004450678825e+00 2.749750050716670557e-02
9.821476250886917114e+00 5.369621215388178825e+00 3.196832570247920557e-02
9.904117852449417114e+00 5.482536254450678825e+00 3.656122121029170557e-02
9.988712579011917114e+00 5.598014770075678825e+00 4.127618703060420557e-02
9.480533868074417114e+00 4.855827270075678825e+00 4.812738331966670557e-02
9.554264336824417114e+00 4.955924926325678825e+00 5.265924367122920557e-02
9.629947930574417114e+00 5.058463988825678825e+00 5.751153859310420557e-02
9.707706719636917114e+00 5.163932738825678825e+00 6.228753956966670557e-02
9.782657891511917114e+00 5.270500121638178825e+00 6.704828175716670557e-02
9.855045586824417114e+00 5.378288207575678825e+00 7.179376515560420557e-02
9.929508477449417114e+00 5.489128051325678825e+00 7.647821339779170557e-02
1.000531414151191711e+01 5.602165160700678825e+00 8.145257863216670557e-02
9.467594414949417114e+00 4.851798949763178825e+00 8.451959523372920557e-02
9.532779961824417114e+00 4.949577270075678825e+00 8.921930226497920557e-02
9.599308282136917114e+00 5.049552856013178825e+00 9.404107960872920557e-02
9.667789727449417114e+00 5.152213988825678825e+00 9.898492726497920557e-02
9.737491875886917114e+00 5.256828246638178825e+00 1.040203276556042056e-01
9.808780938386917114e+00 5.363883910700678825e+00 1.091777983587292056e-01
9.882023125886917114e+00 5.473869262263178825e+00 1.144878569524792056e-01
9.956852227449417114e+00 5.586051879450678825e+00 1.198894682806042056e-01
9.426212579011917114e+00 4.841056762263178825e+00 1.195842924993542056e-01
9.490543633699417114e+00 4.938102660700678825e+00 1.246654692571667056e-01
9.556339532136917114e+00 5.037467895075678825e+00 1.298534575384167056e-01
9.623844414949417114e+00 5.139396606013178825e+00 1.351787749212292056e-01
9.695133477449417114e+00 5.244010863825678825e+00 1.406871977727917056e-01
9.778019219636917114e+00 5.353996215388178825e+00 1.467144194524792056e-01
9.863468438386917114e+00 5.467277465388178825e+00 1.529094878118542056e-01
9.950870782136917114e+00 5.583244262263178825e+00 1.592571440618542056e-01
9.435123711824417114e+00 4.842155395075678825e+00 1.564953032415417056e-01
9.511173516511917114e+00 4.942253051325678825e+00 1.624462309759167056e-01
9.589054375886917114e+00 5.044914184138178825e+00 1.685497466009167056e-01
9.669376641511917114e+00 5.150627074763178825e+00 1.748363676946667056e-01
9.751407891511917114e+00 5.258659301325678825e+00 1.812603178899792056e-01
9.835636407136917114e+00 5.369621215388178825e+00 1.878673735540417056e-01
9.922428399324417114e+00 5.484001098200678825e+00 1.946575346868542056e-01
1.001129558682441711e+01 5.600944457575678825e+00 2.016155424993542056e-01
9.486881524324417114e+00 4.853263793513178825e+00 1.952068510931042056e-01
9.564029961824417114e+00 4.954215941950678825e+00 2.016918364446667056e-01
9.643253594636917114e+00 5.057731566950678825e+00 2.083446684759167056e-01
2.693036296963691711e+01 9.767814574763178825e+00 1.004853457538416706e+00
1.479095867276191711e+01 6.660026488825678825e+00 4.528362456243542056e-01
3.541998699307441711e+01 1.276329797320067883e+01 1.421021670429041706e+00
6.637335613369941711e+01 2.241246789507567883e+01 2.891755313007166706e+00
6.605585125088691711e+01 2.301793664507567883e+01 2.902482241718104206e+00
1.503351238369941711e+01 6.159049926325678825e+00 5.064403716009167056e-01
1.455548503994941711e+01 6.181755004450678825e+00 4.879162016790417056e-01
1.441095378994941711e+01 6.280754027888178825e+00 4.854900542181042056e-01
1.521014812588691711e+01 6.630241332575678825e+00 5.310985747259167056e-01
1.502569988369941711e+01 6.723625121638178825e+00 5.271618071477917056e-01
3.534112957119941711e+01 1.273632043413817883e+01 1.578049868671229206e+00
6.603558757901191711e+01 2.230321496538817883e+01 3.185746401874354206e+00
7.363653972744941711e+01 2.536498254351317883e+01 3.609879702655604206e+00
1.500250652432441711e+01 6.150016723200678825e+00 5.675823393743542056e-01
1.450799968838691711e+01 6.168449340388178825e+00 5.460674467962292056e-01
7.076092937588691711e+01 2.073876184038817883e+01 3.645798892108729206e+00
1.523102214932441711e+01 6.634147582575678825e+00 5.967724028509167056e-01
1.504596355557441711e+01 6.727531371638178825e+00 5.921032133977917056e-01
3.543036296963691711e+01 1.275780480913817883e+01 1.744691104022791706e+00
8.026959636807441711e+01 2.656041711382567883e+01 4.301026553241541706e+00
7.962054851651191711e+01 2.721446984820067883e+01 4.297379702655604206e+00
3.243964031338691711e+01 1.025182336382567883e+01 1.658082217304041706e+00
2.665765789151191711e+01 9.154045043513178825e+00 1.327347964374354206e+00
8.294147136807441711e+01 2.385387414507567883e+01 4.701050967304041706e+00
3.582330730557441711e+01 1.213402551226317883e+01 1.900361270038416706e+00
3.557440593838691711e+01 1.243029016070067883e+01 1.900010317889979206e+00
3.538983562588691711e+01 1.274193566851317883e+01 1.903443545429041706e+00
8.024640300869941711e+01 2.654369348101317883e+01 4.676255435077479206e+00
7.986481121182441711e+01 2.728063195757567883e+01 4.689103335468104206e+00
3.243878582119941711e+01 1.024755090288817883e+01 1.802994937030604206e+00
8.386896160244941711e+01 2.321019738726317883e+01 5.112107485858729206e+00
8.313470867276191711e+01 2.389281457476317883e+01 5.100892275897791706e+00
8.310126140713691711e+01 2.475463098101317883e+01 5.134873599139979206e+00
3.558575847744941711e+01 1.242919152788817883e+01 2.063126772968104206e+00
3.550555828213691711e+01 1.277098840288817883e+01 2.072999209491541706e+00
8.021759441494941711e+01 2.652513879351317883e+01 5.053010195819666706e+00
8.061847332119941711e+01 2.750487512163817883e+01 5.115281313983729206e+00
3.243780925869941711e+01 1.024327844195067883e+01 1.948716372577479206e+00
8.364715984463691711e+01 2.314501184038817883e+01 5.485612124530604206e+00
3.590863445401191711e+01 1.214806359820067883e+01 2.231751650897791706e+00
3.559711101651191711e+01 1.242809289507567883e+01 2.225541323749354206e+00
3.550531414151191711e+01 1.276671594195067883e+01 2.234666079608729206e+00
3.554278972744941711e+01 1.314537805132567883e+01 2.253022402850916706e+00
8.050995281338691711e+01 2.746141809038817883e+01 5.489136904804041706e+00
3.243695476651191711e+01 1.023900598101317883e+01 2.093690127460291706e+00
3.586932781338691711e+01 1.213317102007567883e+01 2.392441958514979206e+00
3.560956218838691711e+01 1.242711633257567883e+01 2.389054507343104206e+00
3.550507000088691711e+01 1.276232141070067883e+01 2.397233218280604206e+00
8.230524089932441711e+01 2.713011926226317883e+01 5.966889590350916706e+00
8.026153972744941711e+01 2.737462609820067883e+01 5.849351138202479206e+00
3.224335125088691711e+01 1.018956750445067883e+01 2.224473208514979206e+00
3.578339031338691711e+01 1.210582727007567883e+01 2.548234194843104206e+00
3.562176921963691711e+01 1.242626184038817883e+01 2.551850527850916706e+00
3.550568035244941711e+01 1.275829309038817883e+01 2.559052676288416706e+00
3.243524578213691711e+01 1.023046105913817883e+01 2.385300845233729206e+00
3.580048015713691711e+01 1.210607141070067883e+01 2.712800234882166706e+00
3.538336589932441711e+01 1.235582727007567883e+01 2.694474429218104206e+00
3.550861003994941711e+01 1.275487512163817883e+01 2.721970767108729206e+00
3.514337566494941711e+01 1.301329797320067883e+01 2.707780093280604206e+00
1.388055828213691711e+01 6.819450316950678825e+00 -2.188403901178332944e-01
1.399078777432441711e+01 6.988273559138178825e+00 -2.163989838678332944e-01
1.024798992276191711e+01 5.872917113825678825e+00 -1.950366791803332944e-01
1.386420086026191711e+01 7.216667113825678825e+00 -2.102496918756457944e-01
1.373077800869941711e+01 7.304923949763178825e+00 -2.068774994928332944e-01
1.359479168057441711e+01 7.390129027888178825e+00 -2.035510834772082944e-01
1.411664226651191711e+01 7.723136840388178825e+00 -2.029102143365832944e-01
1.392840984463691711e+01 7.791252074763178825e+00 -1.996295746881457944e-01
1.364593914151191711e+01 6.744743285700678825e+00 -1.600940522272082944e-01
1.401337078213691711e+01 6.994010863825678825e+00 -1.573779877740832944e-01
1.024860027432441711e+01 5.872062621638178825e+00 -1.536395844537707944e-01
1.382489421963691711e+01 7.201652465388178825e+00 -1.511066254693957944e-01
1.370221355557441711e+01 7.293327270075678825e+00 -1.481921967584582944e-01
1.352252605557441711e+01 7.362174926325678825e+00 -1.453540619928332944e-01
1.420221355557441711e+01 7.754142699763178825e+00 -1.421497162897082944e-01
1.489264324307441711e+01 8.166252074763178825e+00 -1.382739838678332944e-01
1.361822918057441711e+01 6.734611449763178825e+00 -1.027057465631457944e-01
1.354449871182441711e+01 6.841178832575678825e+00 -9.998968211002079443e-02
1.024921062588691711e+01 5.871208129450678825e+00 -1.124408539850207944e-01
1.376410320401191711e+01 7.179191527888178825e+00 -9.275701609439579443e-02
1.368805339932441711e+01 7.286857543513178825e+00 -8.999517527408329443e-02
1.406903484463691711e+01 7.561637816950678825e+00 -8.474615183658329443e-02
1.419525554776191711e+01 7.749992309138178825e+00 -8.073309031314579443e-02
1.445831707119941711e+01 7.995231566950678825e+00 -7.581976023502079443e-02
1.003827312588691711e+01 5.616813598200678825e+00 -7.780340281314579443e-02
1.011810711026191711e+01 5.733756957575678825e+00 -7.456853953189579443e-02
1.020038250088691711e+01 5.853996215388178825e+00 -7.147100535220829443e-02
1.028522136807441711e+01 5.977775512263178825e+00 -6.828191843814579443e-02
1.042413738369941711e+01 6.123161254450678825e+00 -6.448247996158329443e-02
1.055316570401191711e+01 6.268669066950678825e+00 -6.069830027408329443e-02
1.068744304776191711e+01 6.420036254450678825e+00 -5.676153269595829443e-02
1.082696941494941711e+01 6.577018676325678825e+00 -5.291631785220829443e-02
9.979191094636917114e+00 5.597404418513178825e+00 -3.848150339908329443e-02
1.005804851651191711e+01 5.713371215388178825e+00 -3.497198191470829443e-02
1.013885906338691711e+01 5.832389770075678825e+00 -3.137090769595829443e-02
1.022223308682441711e+01 5.955070434138178825e+00 -2.766302195377079443e-02
1.034491375088691711e+01 6.093864379450678825e+00 -2.331426707095829443e-02
1.047137859463691711e+01 6.237541137263178825e+00 -1.881292429752079443e-02
1.060297039151191711e+01 6.387077270075678825e+00 -1.412847605533329443e-02
1.073895671963691711e+01 6.541618285700678825e+00 -9.276181133458294426e-03
9.940738946199417114e+00 5.584464965388178825e+00 4.589262884167055745e-04
1.002655437588691711e+01 5.702262816950678825e+00 4.822939960291705574e-03
1.011456707119941711e+01 5.823234496638178825e+00 9.080142108729205574e-03
1.020538738369941711e+01 5.948234496638178825e+00 1.347467335872920557e-02
1.033819988369941711e+01 6.090446410700678825e+00 1.876947316341670557e-02
1.047894695401191711e+01 6.239250121638178825e+00 2.432367238216670557e-02
1.062579753994941711e+01 6.394645629450678825e+00 3.012201222591670557e-02
1.077789714932441711e+01 6.555778441950678825e+00 3.590509328060420557e-02
9.989445000886917114e+00 5.598625121638178825e+00 4.129144581966670557e-02
1.007623699307441711e+01 5.717277465388178825e+00 4.603692921810420557e-02
1.016547039151191711e+01 5.839225707575678825e+00 5.090448292904170557e-02
1.024774578213691711e+01 5.961784301325678825e+00 5.568048390560420557e-02
1.040485027432441711e+01 6.113151488825678825e+00 6.237909230404170557e-02
1.054803875088691711e+01 6.263664184138178825e+00 6.886407765560420557e-02
1.069415691494941711e+01 6.419547973200678825e+00 7.553216847591670557e-02
1.083026531338691711e+01 6.575065551325678825e+00 8.206293019466670557e-02
1.000592449307441711e+01 5.602653441950678825e+00 8.148309621029170557e-02
1.008368328213691711e+01 5.718620238825678825e+00 8.651849660091670557e-02
1.016315105557441711e+01 5.837394652888178825e+00 9.190484913997920557e-02
1.024530437588691711e+01 5.959953246638178825e+00 9.723016652279170557e-02
1.037042644619941711e+01 6.099845824763178825e+00 1.038982573431042056e-01
