2.798436014354228973e+01 5.123539498075842857e+00 1.851662608189514003e+00
2.206260721385478973e+01 4.850101998075842857e+00 1.408760996861389003e+00
8.010971471667289734e+00 3.591435005888342857e+00 -2.266607560682984968e-01
7.911484166979789734e+00 3.645145943388342857e+00 -2.235479630995484968e-01
8.436874791979789734e+00 3.768070748075842857e+00 -2.272405900526734968e-01
8.413437291979789734e+00 3.834110787138342857e+00 -2.249975480604859968e-01
8.814316198229789734e+00 3.956425240263342857e+00 -2.269811906386109968e-01
8.796371862292289734e+00 4.026615669950842857e+00 -2.246771134901734968e-01
8.825180456042289734e+00 4.104130318388342857e+00 -2.228155412245484968e-01
9.482651159167289734e+00 4.285648873075842857e+00 -2.268286027479859968e-01
8.492660924792289734e+00 3.635624459013342857e+00 -2.003698625136109968e-01
7.909531041979789734e+00 3.644047310575842857e+00 -1.946783341932984968e-01
9.185043737292289734e+00 3.852177193388342857e+00 -2.001867570448609968e-01
8.059067174792289734e+00 3.789188912138342857e+00 -1.915808000136109968e-01
8.428696081042289734e+00 3.903690865263342857e+00 -1.916113175917359968e-01
9.055160924792289734e+00 4.062870552763342857e+00 -1.926946916151734968e-01
8.781479284167289734e+00 4.096317818388342857e+00 -1.893224992323609968e-01
8.810043737292289734e+00 4.173954537138342857e+00 -1.872778214979859968e-01
7.957016393542289734e+00 3.584599068388342857e+00 -1.676702775526734968e-01
8.511825963854789734e+00 3.705448677763342857e+00 -1.666326798964234968e-01
1.359617654979228973e+01 4.351810982450842857e+00 -1.712255754042359968e-01
8.451157018542289734e+00 3.836796334013342857e+00 -1.623449601698609968e-01
8.150619909167289734e+00 3.865604927763342857e+00 -1.600408830214234968e-01
9.067367956042289734e+00 4.063602974638342857e+00 -1.583929338026734968e-01
8.937363073229789734e+00 4.119389107450842857e+00 -1.560735978651734968e-01
8.893417760729789734e+00 4.186649849638342857e+00 -1.538152970839234968e-01
8.527817174792289734e+00 3.636845162138342857e+00 -1.370916642714234968e-01
8.529526159167289734e+00 3.706303169950842857e+00 -1.347723283339234968e-01
8.721420690417289734e+00 3.797367623075842857e+00 -1.319799699354859968e-01
8.711899206042289734e+00 3.868046334013342857e+00 -1.297979630995484968e-01
7.946762487292289734e+00 3.837406685575842857e+00 -1.305914201307984968e-01
8.756943151354789734e+00 4.017948677763342857e+00 -1.251592912245484968e-01
1.359605447947978973e+01 4.835697701200842857e+00 -1.007757463026734968e-01
8.903427526354789734e+00 4.187260201200842857e+00 -1.201086320448609968e-01
8.545517370104789734e+00 3.637455513700842857e+00 -1.051092423964234968e-01
8.547226354479789734e+00 3.707035591825842857e+00 -1.028967179823609968e-01
8.694321081042289734e+00 3.793339302763342857e+00 -9.953978438861099676e-02
8.666122838854789734e+00 3.861332466825842857e+00 -9.751036544329849676e-02
8.704574987292289734e+00 3.937626412138342857e+00 -9.493163009173599676e-02
8.859360143542289734e+00 4.031620552763342857e+00 -9.130003829486099676e-02
8.914902135729789734e+00 4.113895943388342857e+00 -8.846190352923599676e-02
8.913437291979789734e+00 4.187870552763342857e+00 -8.612730880267349676e-02
8.554306432604789734e+00 3.637333443388342857e+00 -7.323363204486099676e-02
8.565170690417289734e+00 3.707890084013342857e+00 -7.070067306048599676e-02
8.644028112292289734e+00 3.786625435575842857e+00 -6.745055099017349676e-02
8.709946081042289734e+00 3.865726998075842857e+00 -6.432249923236099676e-02
8.762680456042289734e+00 3.944340279325842857e+00 -6.131651778704849676e-02
8.816269323229789734e+00 4.024418404325842857e+00 -5.826475997454849676e-02
8.871078893542289734e+00 4.106083443388342857e+00 -5.515196700579849676e-02
8.923447057604789734e+00 4.188480904325842857e+00 -5.222227950579849676e-02
8.529404088854789734e+00 3.633915474638342857e+00 -4.164793868548599676e-02
8.567978307604789734e+00 3.707157662138342857e+00 -3.873350997454849676e-02
8.607040807604789734e+00 3.781376412138342857e+00 -3.577330489642349676e-02
8.668808385729789734e+00 3.859623482450842857e+00 -3.238585372454849676e-02
8.720932409167289734e+00 3.937748482450842857e+00 -2.912047286517349676e-02
8.773910924792289734e+00 4.017338326200842857e+00 -2.579405684954849676e-02
8.832748815417289734e+00 4.099247505888342857e+00 -2.233031173236099676e-02
8.894028112292289734e+00 4.182743599638342857e+00 -1.875975509173599676e-02
8.524765416979789734e+00 3.632450630888342857e+00 -1.003172774798599676e-02
8.575546666979789734e+00 3.706913521513342857e+00 -6.629017787048496757e-03
8.619247838854789734e+00 3.781742623075842857e+00 -3.180531458923496757e-03
8.689682409167289734e+00 3.861210396513342857e+00 7.409773301390032429e-04
8.748154088854789734e+00 3.940434029325842857e+00 4.433604283264003243e-03
8.807724401354789734e+00 4.021122505888342857e+00 8.202525181701503243e-03
8.868393346667289734e+00 4.103642037138342857e+00 1.186463455670150324e-02
8.930405065417289734e+00 4.187626412138342857e+00 1.578614334576400324e-02
8.562729284167289734e+00 3.635014107450842857e+00 2.282044510357650324e-02
8.589950963854789734e+00 3.707401802763342857e+00 2.588746170513900324e-02
8.650009557604789734e+00 3.784184029325842857e+00 2.985474686138900324e-02
8.723740026354789734e+00 3.864384224638342857e+00 3.423401932232650324e-02
8.782822057604789734e+00 3.943974068388342857e+00 3.827759842388900324e-02
8.843002721667289734e+00 4.025150826200842857e+00 4.239747147076400324e-02
8.904648229479789734e+00 4.108280709013342857e+00 4.659363846295150324e-02
8.967270299792289734e+00 4.192631294950842857e+00 5.088135818951400324e-02
8.495346471667289734e+00 3.627689888700842857e+00 5.265137772076400324e-02
8.574936315417289734e+00 3.704838326200842857e+00 5.748841385357650324e-02
8.653427526354789734e+00 3.783573677763342857e+00 6.232544998638900324e-02
8.718857213854789734e+00 3.862797310575842857e+00 6.684205154888900324e-02
8.770981237292289734e+00 3.941410591825842857e+00 7.096192459576400324e-02
8.823959752917289734e+00 4.021366646513342857e+00 7.517335037701400324e-02
8.878036901354789734e+00 4.103153755888342857e+00 7.946107010357650324e-02
8.932846471667289734e+00 4.186039498075842857e+00 8.380982498638900324e-02
8.480698034167289734e+00 3.625370552763342857e+00 8.390137772076400324e-02
8.559921666979789734e+00 3.702274849638342857e+00 8.911988358013900324e-02
8.622543737292289734e+00 3.779057076200842857e+00 9.380433182232650324e-02
8.684677526354789734e+00 3.857548287138342857e+00 9.851929764263900324e-02
8.736191198229789734e+00 3.935795357450842857e+00 1.028985701035765032e-01
8.788681432604789734e+00 4.015385201200842857e+00 1.073693952988890032e-01
8.842148229479789734e+00 4.096561959013342857e+00 1.119165144395140032e-01
8.896469518542289734e+00 4.179081490263342857e+00 1.165246687363890032e-01
8.466171666979789734e+00 3.623051216825842857e+00 1.148462019395140032e-01
8.545151159167289734e+00 3.699711373075842857e+00 1.204614363145140032e-01
8.596542760729789734e+00 3.775150826200842857e+00 1.250085554551390032e-01
8.666855260729789734e+00 3.854374459013342857e+00 1.303796492051390032e-01
8.727280065417289734e+00 3.933598091825842857e+00 1.354150495957640032e-01
8.789047643542289734e+00 4.014408638700842857e+00 1.405420027207640032e-01
8.852280065417289734e+00 4.097172310575842857e+00 1.457757673692015032e-01
8.916489049792289734e+00 4.181278755888342857e+00 1.511163435410765032e-01
8.451645299792289734e+00 3.620731880888342857e+00 1.458520613145140032e-01
8.588974401354789734e+00 3.703251412138342857e+00 1.544580183457640032e-01
8.634262487292289734e+00 3.778324654325842857e+00 1.588525495957640032e-01
8.708725377917289734e+00 3.858402779325842857e+00 1.648034773301390032e-01
8.770126745104789734e+00 3.938236763700842857e+00 1.702050886582640032e-01
8.832626745104789734e+00 4.019535591825842857e+00 1.757135115098265032e-01
8.896835729479789734e+00 4.102909615263342857e+00 1.815423689317015032e-01
8.962021276354789734e+00 4.187626412138342857e+00 1.872796736192015032e-01
8.581161901354789734e+00 3.631596138700842857e+00 1.835717878770140032e-01
8.626449987292289734e+00 3.706059029325842857e+00 1.883783064317015032e-01
8.690414831042289734e+00 3.783573677763342857e+00 1.941461286973265032e-01
1.394554178416728973e+01 4.496586373075842857e+00 4.591302595567015032e-01
1.408372537791728973e+01 4.639530709013342857e+00 4.706811628770140032e-01
1.410777322947978973e+01 4.769413521513342857e+00 4.765557966660765032e-01
1.422813455760478973e+01 4.915287544950842857e+00 4.873895369004515032e-01
1.485337869822978973e+01 5.145634224638342857e+00 5.242852888535765032e-01
8.755356237292289734e+00 3.646488716825842857e+00 2.250756941270140032e-01
9.396347448229789734e+00 3.783329537138342857e+00 2.620477400254515032e-01
2.207884256541728973e+01 5.279057076200842857e+00 9.519586286973265032e-01
1.394834940135478973e+01 4.495121529325842857e+00 5.162286482285765032e-01
2.751585428416728973e+01 6.411381294950842857e+00 1.266121836705139003e+00
1.508995096385478973e+01 4.907352974638342857e+00 5.887384138535765032e-01
1.809519998729228973e+01 5.502934029325842857e+00 7.612390242051390032e-01
1.480943338572978973e+01 5.136601021513342857e+00 5.836267195176390032e-01
8.758163854479789734e+00 3.645756294950842857e+00 2.580651960801390032e-01
2.208213846385478973e+01 5.070316841825842857e+00 1.039299937291076503e+00
2.207762186229228973e+01 5.275883248075842857e+00 1.046883555455139003e+00
2.668150369822978973e+01 6.043827584013342857e+00 1.327324839634826503e+00
3.060765115916728973e+01 6.815434029325842857e+00 1.570916148228576503e+00
2.731993143260478973e+01 6.642826607450842857e+00 1.384942027134826503e+00
1.486375467479228973e+01 5.008427193388342857e+00 6.430749617051390032e-01
1.476683084666728973e+01 5.127811959013342857e+00 6.423272810410765032e-01
8.751938268542289734e+00 3.644047310575842857e+00 2.906884870957640032e-01
8.730331823229789734e+00 3.713505318388342857e+00 2.919244490098265032e-01
2.207627908885478973e+01 5.272831490263342857e+00 1.141304942173889003e+00
2.772154276072978973e+01 6.166752388700842857e+00 1.509636851353576503e+00
2.750804178416728973e+01 6.402958443388342857e+00 1.506142588658264003e+00
2.719065897166728973e+01 6.620731880888342857e+00 1.495797129673889003e+00
1.482090799510478973e+01 5.000126412138342857e+00 7.017602644395140032e-01
1.472447244822978973e+01 5.119144966825842857e+00 7.009820661973265032e-01
8.712265416979789734e+00 3.639408638700842857e+00 3.208551130723265032e-01
2.208482401072978973e+01 5.064579537138342857e+00 1.228829356236389003e+00
2.207505838572978973e+01 5.269657662138342857e+00 1.236260386509826503e+00
2.768016092479228973e+01 6.157963326200842857e+00 1.628243418736389003e+00
2.789207498729228973e+01 6.449833443388342857e+00 1.653191538853576503e+00
2.814024393260478973e+01 6.751713326200842857e+00 1.680855723423889003e+00
1.822264139354228973e+01 5.515263130888342857e+00 1.000420542759826503e+00
1.788597147166728973e+01 5.630131294950842857e+00 9.834680281113890032e-01
8.766586706042289734e+00 3.643314888700842857e+00 3.575830183457640032e-01
2.202964822947978973e+01 5.056034615263342857e+00 1.319802256627014003e+00
2.207383768260478973e+01 5.266605904325842857e+00 1.330712290806701503e+00
2.764817850291728973e+01 6.150272896513342857e+00 1.746529551548889003e+00
2.956517069041728973e+01 6.666019966825842857e+00 1.897957774205139003e+00
2.691563455760478973e+01 6.574589302763342857e+00 1.713402720494201503e+00
1.813023416697978973e+01 5.498905709013342857e+00 1.071083994908264003e+00
1.787632791697978973e+01 5.626225044950842857e+00 1.058815928502014003e+00
2.205320779979228973e+01 4.849979927763342857e+00 1.408059092564514003e+00
2.206077615916728973e+01 5.056156685575842857e+00 1.416436167759826503e+00
2.207261697947978973e+01 5.263432076200842857e+00 1.425682993931701503e+00
2.224314920604228973e+01 5.491459419950842857e+00 1.447335215611389003e+00
2.663938944041728973e+01 6.277714302763342857e+00 1.799477549595764003e+00
2.675999490916728973e+01 6.548954537138342857e+00 1.819222422642639003e+00
1.809727518260478973e+01 5.491581490263342857e+00 1.145195933384826503e+00
1.794700662791728973e+01 5.635380318388342857e+00 1.140465708775451503e+00
9.482895299792289734e+00 4.286015084013342857e+00 -2.268133439589234968e-01
8.834213659167289734e+00 4.252811959013342857e+00 -2.188024797011109968e-01
8.987900182604789734e+00 4.355228951200842857e+00 -2.181768693495484968e-01
1.292222635447978973e+01 5.200199654325842857e+00 -2.486639298964234968e-01
1.282566873729228973e+01 5.297123482450842857e+00 -2.448339738417359968e-01
1.278904764354228973e+01 5.405521919950842857e+00 -2.414922990370484968e-01
1.303013651072978973e+01 5.577030709013342857e+00 -2.402258195448609968e-01
1.287449686229228973e+01 5.659428169950842857e+00 -2.362585343886109968e-01
8.810287877917289734e+00 4.174198677763342857e+00 -1.872778214979859968e-01
8.843979284167289734e+00 4.253544380888342857e+00 -1.854162492323609968e-01
1.292124979197978973e+01 5.081791451200842857e+00 -1.989202775526734968e-01
1.287583963572978973e+01 5.189579537138342857e+00 -1.955938615370484968e-01
1.328794901072978973e+01 5.390751412138342857e+00 -1.937933244276734968e-01
1.329075662791728973e+01 5.512455513700842857e+00 -1.905126847792359968e-01
1.307920877635478973e+01 5.586552193388342857e+00 -1.869116105604859968e-01
1.292430154979228973e+01 5.669804146513342857e+00 -1.832800187636109968e-01
8.893295690417289734e+00 4.186893990263342857e+00 -1.538152970839234968e-01
8.825668737292289734e+00 4.249271919950842857e+00 -1.517706193495484968e-01
1.303758279979228973e+01 5.101688912138342857e+00 -1.463079728651734968e-01
1.284202615916728973e+01 5.181522896513342857e+00 -1.432104386854859968e-01
1.375718729197978973e+01 5.485600044950842857e+00 -1.386938371229859968e-01
1.329673807322978973e+01 5.512211373075842857e+00 -1.359319963026734968e-01
1.326878397166728973e+01 5.627934029325842857e+00 -1.325598039198609968e-01
1.297447244822978973e+01 5.680180123075842857e+00 -1.298132218886109968e-01
8.903183385729789734e+00 4.187504341825842857e+00 -1.201086320448609968e-01
8.863754674792289734e+00 4.255009224638342857e+00 -1.179724015761109968e-01
1.283811990916728973e+01 5.063236763700842857e+00 -9.403136153704849676e-02
1.328855936229228973e+01 5.267094185575842857e+00 -8.806517501361099676e-02
1.375523416697978973e+01 5.483646919950842857e+00 -8.174803634173599676e-02
1.330271951854228973e+01 5.511967232450842857e+00 -8.098509688861099676e-02
1.331968729197978973e+01 5.637943794950842857e+00 -7.733824630267349676e-02
1.302488748729228973e+01 5.690678169950842857e+00 -7.613280196673599676e-02
8.913193151354789734e+00 4.188114693388342857e+00 -8.612730880267349676e-02
9.029282018542289734e+00 4.282841255888342857e+00 -8.275511641986099676e-02
9.087997838854789734e+00 4.369633248075842857e+00 -7.988646407611099676e-02
9.148178502917289734e+00 4.458500435575842857e+00 -7.695677657611099676e-02
9.209335729479789734e+00 4.548832466825842857e+00 -7.398131270892349676e-02
9.271713659167289734e+00 4.640995552763342857e+00 -7.094481368548599676e-02
9.335556432604789734e+00 4.735477974638342857e+00 -6.783202071673599676e-02
9.400619909167289734e+00 4.831547310575842857e+00 -6.465819259173599676e-02
8.923202916979789734e+00 4.188725044950842857e+00 -5.220702071673599676e-02
8.983993932604789734e+00 4.273930123075842857e+00 -4.885008712298599676e-02
9.041855260729789734e+00 4.360111763700842857e+00 -4.567625899798599676e-02
9.101181432604789734e+00 4.448368599638342857e+00 -4.241087813861099676e-02
9.161484166979789734e+00 4.537968209013342857e+00 -3.911497970111099676e-02
9.223007604479789734e+00 4.629520943388342857e+00 -3.572752852923599676e-02
9.285995885729789734e+00 4.723270943388342857e+00 -3.227904220111099676e-02
9.350326940417289734e+00 4.818729927763342857e+00 -2.893736739642349676e-02
8.894516393542289734e+00 4.182987740263342857e+00 -1.874449630267349676e-02
8.956894323229789734e+00 4.268192818388342857e+00 -1.520445724017349676e-02
9.020737096667289734e+00 4.355228951200842857e+00 -1.157286544329849676e-02
9.086166784167289734e+00 4.444340279325842857e+00 -7.864979701110996757e-03
9.152695104479789734e+00 4.535160591825842857e+00 -4.080800013610996757e-03
9.220810338854789734e+00 4.628056099638342857e+00 -2.050675917359967571e-04
9.290634557604789734e+00 4.723270943388342857e+00 3.762217564514003243e-03
9.361801549792289734e+00 4.820316841825842857e+00 7.805796666076503243e-03
8.930893346667289734e+00 4.187992623075842857e+00 1.580140213482650324e-02
8.994003698229789734e+00 4.273563912138342857e+00 1.973816971295150324e-02
9.058700963854789734e+00 4.361210396513342857e+00 2.394959549420150324e-02
9.124863073229789734e+00 4.450932076200842857e+00 2.806946854107650324e-02
9.192245885729789734e+00 4.542240669950842857e+00 3.226563553326400324e-02
9.261093541979789734e+00 4.635746529325842857e+00 3.656861404888900324e-02
9.331650182604789734e+00 4.731571724638342857e+00 4.076478104107650324e-02
9.403671666979789734e+00 4.829227974638342857e+00 4.526612381451400324e-02
8.967758581042289734e+00 4.192997505888342857e+00 5.089661697857650324e-02
9.026474401354789734e+00 4.278202584013342857e+00 5.509278397076400324e-02
9.084091588854789734e+00 4.364872505888342857e+00 5.928895096295150324e-02
9.143173620104789734e+00 4.453373482450842857e+00 6.359192947857650324e-02
9.203110143542289734e+00 4.543461373075842857e+00 6.797120193951400324e-02
9.264267370104789734e+00 4.635380318388342857e+00 7.242676834576400324e-02
9.327011510729789734e+00 4.729496529325842857e+00 7.698914627545150324e-02
9.390732213854789734e+00 4.825199654325842857e+00 8.164307693951400324e-02
8.933334752917289734e+00 4.186283638700842857e+00 8.382508377545150324e-02
8.989242956042289734e+00 4.270756294950842857e+00 8.825013260357650324e-02
9.046249791979789734e+00 4.356815865263342857e+00 9.275147537701400324e-02
9.104599401354789734e+00 4.444950630888342857e+00 9.737488846295150324e-02
9.163925573229789734e+00 4.534428169950842857e+00 1.020593367051390032e-01
9.224350377917289734e+00 4.625736763700842857e+00 1.068353376817015032e-01
9.286362096667289734e+00 4.719242623075842857e+00 1.117334089707640032e-01
9.349228307604789734e+00 4.814335396513342857e+00 1.167077742051390032e-01
8.896957799792289734e+00 4.179325630888342857e+00 1.165551863145140032e-01
8.952255651354789734e+00 4.263310005888342857e+00 1.212701521348265032e-01
9.008530065417289734e+00 4.348881294950842857e+00 1.260766706895140032e-01
9.071152135729789734e+00 4.437382271513342857e+00 1.311883650254515032e-01
9.140488073229789734e+00 4.528568794950842857e+00 1.365899763535765032e-01
9.211288854479789734e+00 4.621952584013342857e+00 1.421289167832640032e-01
9.284042760729789734e+00 4.717777779325842857e+00 1.478204451035765032e-01
9.358139440417289734e+00 4.815434029325842857e+00 1.536035261582640032e-01
8.916977331042289734e+00 4.181644966825842857e+00 1.511468611192015032e-01
8.982651159167289734e+00 4.267582466825842857e+00 1.566400251817015032e-01
9.049789831042289734e+00 4.355473091825842857e+00 1.622400007676390032e-01
9.118759557604789734e+00 4.445560982450842857e+00 1.680078230332640032e-01
9.188949987292289734e+00 4.537479927763342857e+00 1.738671980332640032e-01
9.260849401354789734e+00 4.631596138700842857e+00 1.798639021348265032e-01
9.334579870104789734e+00 4.728153755888342857e+00 1.860284529160765032e-01
9.409897252917289734e+00 4.826664498075842857e+00 1.923303327988890032e-01
8.962509557604789734e+00 4.187992623075842857e+00 1.873101911973265032e-01
9.029159948229789734e+00 4.274662544950842857e+00 1.932306013535765032e-01
9.097031041979789734e+00 4.363041451200842857e+00 1.990899763535765032e-01
1.423240701854228973e+01 5.435795357450842857e+00 4.479150495957640032e-01
1.478306619822978973e+01 5.678715279325842857e+00 4.793328962754515032e-01
1.518479959666728973e+01 5.901737740263342857e+00 5.039605818223265032e-01
1.520018045604228973e+01 6.047245552763342857e+00 5.103234968613890032e-01
1.495774881541728973e+01 6.132450630888342857e+00 5.036096296738890032e-01
1.485276834666728973e+01 5.146000435575842857e+00 5.242700300645140032e-01
1.508189432322978973e+01 5.320927193388342857e+00 5.412835798692015032e-01
1.449571268260478973e+01 5.351810982450842857e+00 5.159387312363890032e-01
1.443431131541728973e+01 5.473148873075842857e+00 5.177697859238890032e-01
1.478843729197978973e+01 5.678104927763342857e+00 5.415734968613890032e-01
1.513511697947978973e+01 5.889286568388342857e+00 5.652856550645140032e-01
1.503355447947978973e+01 6.007938912138342857e+00 5.651941023301390032e-01
1.492674295604228973e+01 6.123417427763342857e+00 5.647515974473265032e-01
1.480882303416728973e+01 5.136967232450842857e+00 5.836114607285765032e-01
1.471824686229228973e+01 5.256229927763342857e+00 5.834130964707640032e-01
2.525779764354228973e+01 7.321537544950842857e+00 1.188042613072326503e+00
1.450596658885478973e+01 5.485233834013342857e+00 5.817651472520140032e-01
1.479673807322978973e+01 5.677982857450842857e+00 6.037225447129515032e-01
2.633738748729228973e+01 8.288334419950842857e+00 1.279366465611389003e+00
3.239170877635478973e+01 9.908451607450842857e+00 1.643547984166076503e+00
3.236045877635478973e+01 1.022375922463834286e+01 1.655037852330139003e+00
1.476634256541728973e+01 5.128178169950842857e+00 6.423120222520140032e-01
1.457957498729228973e+01 5.230473091825842857e+00 6.362390242051390032e-01
1.447081033885478973e+01 5.343632271513342857e+00 6.348504744004515032e-01
1.512718240916728973e+01 5.603642037138342857e+00 6.808252058457640032e-01
1.472105447947978973e+01 5.660770943388342857e+00 6.610498152207640032e-01
2.628685037791728973e+01 8.274174263700842857e+00 1.392876597447326503e+00
3.213768045604228973e+01 9.847294380888342857e+00 1.773079844517639003e+00
3.235960428416728973e+01 1.021948676370084286e+01 1.799935313267639003e+00
1.472386209666728973e+01 5.119511177763342857e+00 7.009668074082640032e-01
1.787144510447978973e+01 5.797001412138342857e+00 9.132775984238890032e-01
1.442710916697978973e+01 5.333988716825842857e+00 6.919183454942015032e-01
1.513804666697978973e+01 5.603886177763342857e+00 7.447137556504515032e-01
1.480894510447978973e+01 5.676884224638342857e+00 7.283258161973265032e-01
2.716966287791728973e+01 8.459965279325842857e+00 1.568337412877014003e+00
2.647923319041728973e+01 8.572636177763342857e+00 1.532326670689514003e+00
3.235862772166728973e+01 1.021521430276334286e+01 1.945641490025451503e+00
1.794322244822978973e+01 5.640018990263342857e+00 9.875116072129515032e-01
1.792979471385478973e+01 5.804691841825842857e+00 9.935083113145140032e-01
1.819334451854228973e+01 6.020512154325842857e+00 1.019188853306701503e+00
2.710508768260478973e+01 7.913334419950842857e+00 1.662331553502014003e+00
1.481480447947978973e+01 5.676273873075842857e+00 7.908868513535765032e-01
2.650804178416728973e+01 8.314945748075842857e+00 1.641228648228576503e+00
3.209886209666728973e+01 9.830448677763342857e+00 2.058373423619201503e+00
3.235777322947978973e+01 1.021106391213834286e+01 2.090599986119201503e+00
1.787583963572978973e+01 5.626713326200842857e+00 1.058800669712951503e+00
1.788243143260478973e+01 5.794315865263342857e+00 1.066369029087951503e+00
1.817588846385478973e+01 6.015141060575842857e+00 1.095269175572326503e+00
2.652903787791728973e+01 8.056889107450842857e+00 1.748787852330139003e+00
2.734190408885478973e+01 8.489872505888342857e+00 1.822350474400451503e+00
2.888011209666728973e+01 9.104496529325842857e+00 1.953530283970764003e+00
3.216783182322978973e+01 1.016235785745084286e+01 2.221642466587951503e+00
1.794664041697978973e+01 5.635868599638342857e+00 1.140465708775451503e+00
1.786473123729228973e+01 5.789066841825842857e+00 1.140770884556701503e+00
1.817088358104228973e+01 6.011845162138342857e+00 1.172615977330139003e+00
2.636619608104228973e+01 7.763920357450842857e+00 1.841927500767639003e+00
2.724925272166728973e+01 8.199833443388342857e+00 1.924767466587951503e+00
2.860972635447978973e+01 8.757328560575842857e+00 2.047463389439514003e+00
2.886497537791728973e+01 9.097538521513342857e+00 2.080697032017639003e+00
3.235606424510478973e+01 1.020251899026334286e+01 2.382164927525451503e+00
1.287352029979228973e+01 5.659672310575842857e+00 -2.362432755995484968e-01
1.374937479197978973e+01 5.994877388700842857e+00 -2.392645158339234968e-01
1.374400369822978973e+01 6.121708443388342857e+00 -2.362432755995484968e-01
1.363829080760478973e+01 6.222538521513342857e+00 -2.325506486464234968e-01
1.383946268260478973e+01 6.407230904325842857e+00 -2.308111466932984968e-01
1.334715311229228973e+01 6.395512154325842857e+00 -2.248297013807984968e-01
1.350010721385478973e+01 6.568729927763342857e+00 -2.227392472792359968e-01
1.380259744822978973e+01 6.792240669950842857e+00 -2.216863908339234968e-01
1.292332498729228973e+01 5.669926216825842857e+00 -1.832647599745484968e-01
1.394480936229228973e+01 6.041630318388342857e+00 -1.826086320448609968e-01
1.367869608104228973e+01 6.103275826200842857e+00 -1.785955705214234968e-01
1.390318338572978973e+01 6.292240669950842857e+00 -1.758184709120484968e-01
1.382701151072978973e+01 6.402226021513342857e+00 -1.724920548964234968e-01
1.376780740916728973e+01 6.516239693388342857e+00 -1.692114152479859968e-01
1.369090311229228973e+01 6.624760201200842857e+00 -1.662359513807984968e-01
1.356980936229228973e+01 6.718143990263342857e+00 -1.629400529432984968e-01
1.297349588572978973e+01 5.680302193388342857e+00 -1.297979630995484968e-01
1.356797830760478973e+01 5.946781685575842857e+00 -1.252203263807984968e-01
1.383189432322978973e+01 6.141239693388342857e+00 -1.212377824354859968e-01
1.363768045604228973e+01 6.219364693388342857e+00 -1.184912004042359968e-01
1.381456033885478973e+01 6.397221138700842857e+00 -1.145849504042359968e-01
1.375547830760478973e+01 6.511112740263342857e+00 -1.114416398573609968e-01
1.336766092479228973e+01 6.526005318388342857e+00 -1.095800675917359968e-01
1.353794901072978973e+01 6.706669380888342857e+00 -1.055822648573609968e-01
1.302391092479228973e+01 5.690800240263342857e+00 -7.613280196673599676e-02
1.347264139354228973e+01 5.921757271513342857e+00 -6.934264083392349676e-02
1.403392069041728973e+01 6.191776802763342857e+00 -6.172850509173599676e-02
1.391917459666728973e+01 6.293339302763342857e+00 -5.907347579486099676e-02
1.380198709666728973e+01 6.392094185575842857e+00 -5.647948165423599676e-02
1.374180643260478973e+01 6.505619576200842857e+00 -5.347350020892349676e-02
9.883041784167289734e+00 5.475956490263342857e+00 -8.356383224017349676e-02
9.961166784167289734e+00 5.590092232450842857e+00 -8.066466231829849676e-02
9.401108190417289734e+00 4.832035591825842857e+00 -6.464293380267349676e-02
9.467758581042289734e+00 4.930180123075842857e+00 -6.154539962298599676e-02
9.535995885729789734e+00 5.030766060575842857e+00 -5.837157149798599676e-02
9.605942174792289734e+00 5.133915474638342857e+00 -5.512144942767349676e-02
9.677353307604789734e+00 5.239140084013342857e+00 -5.179503341204849676e-02
9.750351354479789734e+00 5.346928169950842857e+00 -4.839232345111099676e-02
9.825546666979789734e+00 5.457645943388342857e+00 -4.489806075579849676e-02
9.902206823229789734e+00 5.570683052763342857e+00 -4.134276290423599676e-02
9.350815221667289734e+00 4.819096138700842857e+00 -2.892210860736099676e-02
9.416244909167289734e+00 4.916508248075842857e+00 -2.525999923236099676e-02
9.483383581042289734e+00 5.016239693388342857e+00 -2.168944259173599676e-02
9.552353307604789734e+00 5.118534615263342857e+00 -1.802733321673599676e-02
9.622543737292289734e+00 5.222904732450842857e+00 -1.430418868548599676e-02
9.698837682604789734e+00 5.330936959013342857e+00 -1.041319747454849676e-02
9.780380651354789734e+00 5.443119576200842857e+00 -6.339100794860996757e-03
9.863632604479789734e+00 5.557621529325842857e+00 -2.402333216735996757e-03
9.362411901354789734e+00 4.820805123075842857e+00 7.821055455139003243e-03
9.435165807604789734e+00 4.920170357450842857e+00 1.187989334576400324e-02
9.509628698229789734e+00 5.021976998075842857e+00 1.601502518170150324e-02
9.586410924792289734e+00 5.126591255888342857e+00 2.028748611920150324e-02
9.664657995104789734e+00 5.233646919950842857e+00 2.465149979107650324e-02
9.745102331042289734e+00 5.343388130888342857e+00 2.912232498638900324e-02
9.827743932604789734e+00 5.456303169950842857e+00 3.371522049420150324e-02
9.912338659167289734e+00 5.571781685575842857e+00 3.843018631451400324e-02
9.404159948229789734e+00 4.829594185575842857e+00 4.528138260357650324e-02
9.477890416979789734e+00 4.929691841825842857e+00 4.981324295513900324e-02
9.553574010729789734e+00 5.032230904325842857e+00 5.466553787701400324e-02
9.631332799792289734e+00 5.137699654325842857e+00 5.944153885357650324e-02
9.706283971667289734e+00 5.244267037138342857e+00 6.420228104107650324e-02
9.778671666979789734e+00 5.352055123075842857e+00 6.894776443951400324e-02
9.853134557604789734e+00 5.462894966825842857e+00 7.363221268170150324e-02
9.928940221667289734e+00 5.575932076200842857e+00 7.860657791607650324e-02
9.391220495104789734e+00 4.825565865263342857e+00 8.167359451763900324e-02
9.456406041979789734e+00 4.923344185575842857e+00 8.637330154888900324e-02
9.522934362292289734e+00 5.023319771513342857e+00 9.119507889263900324e-02
9.591415807604789734e+00 5.125980904325842857e+00 9.613892654888900324e-02
9.661117956042289734e+00 5.230595162138342857e+00 1.011743269395140032e-01
9.732407018542289734e+00 5.337650826200842857e+00 1.063317976426390032e-01
9.805649206042289734e+00 5.447636177763342857e+00 1.116418562363890032e-01
9.880478307604789734e+00 5.559818794950842857e+00 1.170434675645140032e-01
9.349838659167289734e+00 4.814823677763342857e+00 1.167382917832640032e-01
9.414169713854789734e+00 4.911869576200842857e+00 1.218194685410765032e-01
9.479965612292289734e+00 5.011234810575842857e+00 1.270074568223265032e-01
9.547470495104789734e+00 5.113163521513342857e+00 1.323327742051390032e-01
9.618759557604789734e+00 5.217777779325842857e+00 1.378411970567015032e-01
9.701645299792289734e+00 5.327763130888342857e+00 1.438684187363890032e-01
9.787094518542289734e+00 5.441044380888342857e+00 1.500634870957640032e-01
9.874496862292289734e+00 5.557011177763342857e+00 1.564111433457640032e-01
9.358749791979789734e+00 4.815922310575842857e+00 1.536493025254515032e-01
9.434799596667289734e+00 4.916019966825842857e+00 1.596002302598265032e-01
9.512680456042289734e+00 5.018681099638342857e+00 1.657037458848265032e-01
9.593002721667289734e+00 5.124393990263342857e+00 1.719903669785765032e-01
9.675033971667289734e+00 5.232426216825842857e+00 1.784143171738890032e-01
9.759262487292289734e+00 5.343388130888342857e+00 1.850213728379515032e-01
9.846054479479789734e+00 5.457768013700842857e+00 1.918115339707640032e-01
9.934921666979789734e+00 5.574711373075842857e+00 1.987695417832640032e-01
9.410507604479789734e+00 4.827030709013342857e+00 1.923608503770140032e-01
9.487656041979789734e+00 4.927982857450842857e+00 1.988458357285765032e-01
9.566879674792289734e+00 5.031498482450842857e+00 2.054986677598265032e-01
2.685398904979228973e+01 9.741581490263342857e+00 1.002007456822326503e+00
1.471458475291728973e+01 6.633793404325842857e+00 4.499902449082640032e-01
3.534361307322978973e+01 1.273706488870084286e+01 1.418175669712951503e+00
6.629698221385478973e+01 2.238623481057584286e+01 2.888909312291076503e+00
6.597947733104228973e+01 2.299170356057584286e+01 2.899636241002014003e+00
1.495713846385478973e+01 6.132816841825842857e+00 5.035943708848265032e-01
1.447911112010478973e+01 6.155521919950842857e+00 4.850702009629515032e-01
1.433457987010478973e+01 6.254520943388342857e+00 4.826440535020140032e-01
1.513377420604228973e+01 6.604008248075842857e+00 5.282525740098265032e-01
1.494932596385478973e+01 6.697392037138342857e+00 5.243158064317015032e-01
3.526475565135478973e+01 1.271008734963834286e+01 1.575203867955139003e+00
6.595921365916728973e+01 2.227698188088834286e+01 3.182900401158264003e+00
7.356016580760478973e+01 2.533874945901334286e+01 3.607033701939514003e+00
1.492613260447978973e+01 6.123783638700842857e+00 5.647363386582640032e-01
1.443162576854228973e+01 6.142216255888342857e+00 5.432214460801390032e-01
7.068455545604228973e+01 2.071252875588834286e+01 3.642952891392639003e+00
1.515464822947978973e+01 6.607914498075842857e+00 5.939264021348265032e-01
1.496958963572978973e+01 6.701298287138342857e+00 5.892572126817015032e-01
3.535398904979228973e+01 1.273157172463834286e+01 1.741845103306701503e+00
8.019322244822978973e+01 2.653418402932584286e+01 4.298180552525451503e+00
7.954417459666728973e+01 2.718823676370084286e+01 4.294533701939514003e+00
3.236326639354228973e+01 1.022559027932584286e+01 1.655236216587951503e+00
2.658128397166728973e+01 9.127811959013342857e+00 1.324501963658264003e+00
8.286509744822978973e+01 2.382764106057584286e+01 4.698204966587951503e+00
3.574693338572978973e+01 1.210779242776334286e+01 1.897515269322326503e+00
3.549803201854228973e+01 1.240405707620084286e+01 1.897164317173889003e+00
3.531346170604228973e+01 1.271570258401334286e+01 1.900597544712951503e+00
8.017002908885478973e+01 2.651746039651334286e+01 4.673409434361389003e+00
7.978843729197978973e+01 2.725439887307584286e+01 4.686257334752014003e+00
3.236241190135478973e+01 1.022131781838834286e+01 1.800148936314514003e+00
8.379258768260478973e+01 2.318396430276334286e+01 5.109261485142639003e+00
8.305833475291728973e+01 2.386658149026334286e+01 5.098046275181701503e+00
8.302488748729228973e+01 2.472839789651334286e+01 5.132027598423889003e+00
3.550938455760478973e+01 1.240295844338834286e+01 2.060280772252014003e+00
3.542918436229228973e+01 1.274475531838834286e+01 2.070153208775451503e+00
8.014122049510478973e+01 2.649890570901334286e+01 5.050164195103576503e+00
8.054209940135478973e+01 2.747864203713834286e+01 5.112435313267639003e+00
3.236143533885478973e+01 1.021704535745084286e+01 1.945870371861389003e+00
8.357078592479228973e+01 2.311877875588834286e+01 5.482766123814514003e+00
3.583226053416728973e+01 1.212183051370084286e+01 2.228905650181701503e+00
3.552073709666728973e+01 1.240185981057584286e+01 2.222695323033264003e+00
3.542894022166728973e+01 1.274048285745084286e+01 2.231820078892639003e+00
3.546641580760478973e+01 1.311914496682584286e+01 2.250176402134826503e+00
8.043357889354228973e+01 2.743518500588834286e+01 5.486290904087951503e+00
3.236058084666728973e+01 1.021277289651334286e+01 2.090844126744201503e+00
3.579295389354228973e+01 1.210693793557584286e+01 2.389595957798889003e+00
3.553318826854228973e+01 1.240088324807584286e+01 2.386208506627014003e+00
3.542869608104228973e+01 1.273608832620084286e+01 2.394387217564514003e+00
8.222886697947978973e+01 2.710388617776334286e+01 5.964043589634826503e+00
8.018516580760478973e+01 2.734839301370084286e+01 5.846505137486389003e+00
3.216697733104228973e+01 1.016333441995084286e+01 2.221627207798889003e+00
3.570701639354228973e+01 1.207959418557584286e+01 2.545388194127014003e+00
3.554539529979228973e+01 1.240002875588834286e+01 2.549004527134826503e+00
3.542930643260478973e+01 1.273206000588834286e+01 2.556206675572326503e+00
3.235887186229228973e+01 1.020422797463834286e+01 2.382454844517639003e+00
3.572410623729228973e+01 1.207983832620084286e+01 2.709954234166076503e+00
3.530699197947978973e+01 1.232959418557584286e+01 2.691628428502014003e+00
3.543223612010478973e+01 1.272864203713834286e+01 2.719124766392639003e+00
3.506700174510478973e+01 1.298706488870084286e+01 2.704934092564514003e+00
1.380418436229228973e+01 6.793217232450842857e+00 -2.216863908339234968e-01
1.391441385447978973e+01 6.962040474638342857e+00 -2.192449845839234968e-01
1.017161600291728973e+01 5.846684029325842857e+00 -1.978826798964234968e-01
1.378782694041728973e+01 7.190434029325842857e+00 -2.130956925917359968e-01
1.365440408885478973e+01 7.278690865263342857e+00 -2.097235002089234968e-01
1.351841776072978973e+01 7.363895943388342857e+00 -2.063970841932984968e-01
1.404026834666728973e+01 7.696903755888342857e+00 -2.057562150526734968e-01
1.385203592479228973e+01 7.765018990263342857e+00 -2.024755754042359968e-01
1.356956522166728973e+01 6.718510201200842857e+00 -1.629400529432984968e-01
1.393699686229228973e+01 6.967777779325842857e+00 -1.602239884901734968e-01
1.017222635447978973e+01 5.845829537138342857e+00 -1.564855851698609968e-01
1.374852029979228973e+01 7.175419380888342857e+00 -1.539526261854859968e-01
1.362583963572978973e+01 7.267094185575842857e+00 -1.510381974745484968e-01
1.344615213572978973e+01 7.335941841825842857e+00 -1.482000627089234968e-01
1.412583963572978973e+01 7.727909615263342857e+00 -1.449957170057984968e-01
1.481626932322978973e+01 8.140018990263342857e+00 -1.411199845839234968e-01
1.354185526072978973e+01 6.708378365263342857e+00 -1.055517472792359968e-01
1.346812479197978973e+01 6.814945748075842857e+00 -1.028356828261109968e-01
1.017283670604228973e+01 5.844975044950842857e+00 -1.152868547011109968e-01
1.368772928416728973e+01 7.152958443388342857e+00 -9.560301681048599676e-02
1.361167947947978973e+01 7.260624459013342857e+00 -9.284117599017349676e-02
1.399266092479228973e+01 7.535404732450842857e+00 -8.759215255267349676e-02
1.411888162791728973e+01 7.723759224638342857e+00 -8.357909102923599676e-02
1.438194315135478973e+01 7.968998482450842857e+00 -7.866576095111099676e-02
9.961899206042289734e+00 5.590580513700842857e+00 -8.064940352923599676e-02
1.004173319041728973e+01 5.707523873075842857e+00 -7.741454024798599676e-02
1.012400858104228973e+01 5.827763130888342857e+00 -7.431700606829849676e-02
1.020884744822978973e+01 5.951542427763342857e+00 -7.112791915423599676e-02
1.034776346385478973e+01 6.096928169950842857e+00 -6.732848067767349676e-02
1.047679178416728973e+01 6.242435982450842857e+00 -6.354430099017349676e-02
1.061106912791728973e+01 6.393803169950842857e+00 -5.960753341204849676e-02
1.075059549510478973e+01 6.550785591825842857e+00 -5.576231856829849676e-02
9.902817174792289734e+00 5.571171334013342857e+00 -4.132750411517349676e-02
9.981674596667289734e+00 5.687138130888342857e+00 -3.781798263079849676e-02
1.006248514354228973e+01 5.806156685575842857e+00 -3.421690841204849676e-02
1.014585916697978973e+01 5.928837349638342857e+00 -3.050902266986099676e-02
1.026853983104228973e+01 6.067631294950842857e+00 -2.616026778704849676e-02
1.039500467479228973e+01 6.211308052763342857e+00 -2.165892501361099676e-02
1.052659647166728973e+01 6.360844185575842857e+00 -1.697447677142349676e-02
1.066258279979228973e+01 6.515385201200842857e+00 -1.212218184954849676e-02
9.864365026354789734e+00 5.558231880888342857e+00 -2.387074427673496757e-03
9.950180456042289734e+00 5.676029732450842857e+00 1.976939244201503243e-03
1.003819315135478973e+01 5.797001412138342857e+00 6.234141392639003243e-03
1.012901346385478973e+01 5.922001412138342857e+00 1.062867264263900324e-02
1.026182596385478973e+01 6.064213326200842857e+00 1.592347244732650324e-02
1.040257303416728973e+01 6.213017037138342857e+00 2.147767166607650324e-02
1.054942362010478973e+01 6.368412544950842857e+00 2.727601150982650324e-02
1.070152322947978973e+01 6.529545357450842857e+00 3.305909256451400324e-02
9.913071081042289734e+00 5.572392037138342857e+00 3.844544510357650324e-02
9.999863073229789734e+00 5.691044380888342857e+00 4.319092850201400324e-02
1.008909647166728973e+01 5.812992623075842857e+00 4.805848221295150324e-02
1.017137186229228973e+01 5.935551216825842857e+00 5.283448318951400324e-02
1.032847635447978973e+01 6.086918404325842857e+00 5.953309158795150324e-02
1.047166483104228973e+01 6.237431099638342857e+00 6.601807693951400324e-02
1.061778299510478973e+01 6.393314888700842857e+00 7.268616775982650324e-02
1.075389139354228973e+01 6.548832466825842857e+00 7.921692947857650324e-02
9.929550573229789734e+00 5.576420357450842857e+00 7.863709549420150324e-02
1.000730936229228973e+01 5.692387154325842857e+00 8.367249588482650324e-02
1.008677713572978973e+01 5.811161568388342857e+00 8.905884842388900324e-02
1.016893045604228973e+01 5.933720162138342857e+00 9.438416580670150324e-02
1.029405252635478973e+01 6.073612740263342857e+00 1.010522566270140032e-01
1.041832010447978973e+01 6.216801216825842857e+00 1.077966413926390032e-01
1.054808084666728973e+01 6.365849068388342857e+00 1.146020613145140032e-01
1.068174783885478973e+01 6.519779732450842857e+00 1.218652449082640032e-01
9.881088659167289734e+00 5.560307076200842857e+00 1.170739851426390032e-01
9.957748815417289734e+00 5.675419380888342857e+00 1.225671492051390032e-01
1.003648416697978973e+01 5.793461373075842857e+00 1.282129011582640032e-01
1.011753885447978973e+01 5.914921334013342857e+00 1.340264997910765032e-01
1.022959940135478973e+01 6.049686959013342857e+00 1.409845076035765032e-01
1.036338846385478973e+01 6.195560982450842857e+00 1.487970076035765032e-01
1.051670877635478973e+01 6.352909615263342857e+00 1.574182234238890032e-01
1.067601053416728973e+01 6.516483834013342857e+00 1.663903913926390032e-01
9.875229284167289734e+00 5.557499459013342857e+00 1.564416609238890032e-01
9.965073034167289734e+00 5.676762154325842857e+00 1.629571638535765032e-01
1.005760233104228973e+01 5.799442818388342857e+00 1.696557722520140032e-01
1.015306131541728973e+01 5.926151802763342857e+00 1.765680036973265032e-01
1.029930154979228973e+01 6.073490669950842857e+00 1.855706892442015032e-01
1.044895975291728973e+01 6.225956490263342857e+00 1.948480329942015032e-01
1.060557596385478973e+01 6.385502388700842857e+00 2.045526228379515032e-01
1.076841776072978973e+01 6.551395943388342857e+00 2.146386824082640032e-01
9.935654088854789734e+00 5.575321724638342857e+00 1.988153181504515032e-01
1.002708475291728973e+01 5.695683052763342857e+00 2.059869490098265032e-01
1.012120096385478973e+01 5.819584419950842857e+00 2.133722029160765032e-01
7.454307596385478973e+01 2.808081488870084286e+01 3.042046519322326503e+00
2.011546365916728973e+01 9.559818794950842857e+00 6.624078474473265032e-01
2.002427713572978973e+01 9.734623482450842857e+00 6.657495222520140032e-01
2.031822244822978973e+01 1.005505805276334286e+01 6.864404402207640032e-01
4.069358865916728973e+01 1.820166449807584286e+01 1.620446177525451503e+00
6.597776834666728973e+01 2.299365668557584286e+01 2.899636241002014003e+00
6.524522440135478973e+01 2.346289496682584286e+01 2.890725108189514003e+00
7.547068826854228973e+01 2.756787543557584286e+01 3.410622569127014003e+00
7.428123514354228973e+01 2.798206000588834286e+01 3.383217783970764003e+00
6.868333475291728973e+01 2.680664496682584286e+01 3.138375254673889003e+00
2.000010721385478973e+01 9.723637154325842857e+00 7.544488630723265032e-01
2.031944315135478973e+01 1.005334906838834286e+01 7.781610212754515032e-01
4.072972147166728973e+01 1.821130805276334286e+01 1.814568491978576503e+00
7.356175272166728973e+01 2.534204535745084286e+01 3.607216807408264003e+00
7.710362283885478973e+01 2.726941352151334286e+01 3.824440928502014003e+00
7.543003885447978973e+01 2.754553656838834286e+01 3.765740366978576503e+00
7.518089334666728973e+01 2.828259711526334286e+01 3.784172984166076503e+00
7.488096658885478973e+01 2.899914984963834286e+01 3.799767466587951503e+00
7.486436502635478973e+01 2.981836371682584286e+01 3.830742808384826503e+00
2.032066385447978973e+01 1.005164008401334286e+01 8.704156599473265032e-01
4.073301737010478973e+01 1.820801215432584286e+01 2.008324595494201503e+00
7.954344217479228973e+01 2.719092231057584286e+01 4.294609995884826503e+00
7.709043924510478973e+01 2.725598578713834286e+01 4.187691660923889003e+00
7.679063455760478973e+01 2.798901801370084286e+01 4.203743907017639003e+00
7.612339822947978973e+01 2.859778266213834286e+01 4.198403330845764003e+00
7.516966287791728973e+01 2.909289984963834286e+01 4.175698252720764003e+00
7.479722635447978973e+01 2.978516059182584286e+01 4.186867686314514003e+00
6.911949197947978973e+01 2.847461371682584286e+01 3.880745860142639003e+00
4.064244119822978973e+01 1.816833930276334286e+01 2.195473643345764003e+00
7.978672830760478973e+01 2.725684027932584286e+01 4.686272593541076503e+00
7.699754373729228973e+01 2.721692328713834286e+01 4.545968028111389003e+00
7.677391092479228973e+01 2.797436957620084286e+01 4.566567393345764003e+00
7.746629373729228973e+01 2.905017524026334286e+01 4.645318003697326503e+00
7.490928690135478973e+01 2.899170356057584286e+01 4.517632456822326503e+00
7.514964334666728973e+01 2.990564399026334286e+01 4.567498179478576503e+00
7.736607401072978973e+01 3.157947211526334286e+01 4.745827647252014003e+00
4.074229471385478973e+01 1.820264106057584286e+01 2.395241709752014003e+00
8.054307596385478973e+01 2.748181586526334286e+01 5.112633677525451503e+00
7.977378885447978973e+01 2.809961371682584286e+01 5.098275157017639003e+00
7.863633768260478973e+01 2.858411078713834286e+01 5.058526011509826503e+00
7.736644022166728973e+01 2.900684027932584286e+01 5.009026499791076503e+00
7.693296854197978973e+01 2.970081000588834286e+01 5.015892954869201503e+00
7.756871072947978973e+01 3.078223090432584286e+01 5.096535655064514003e+00
4.099803201854228973e+01 1.784753852151334286e+01 2.586495371861389003e+00
4.074913065135478973e+01 1.820081000588834286e+01 2.588479014439514003e+00
8.043626444041728973e+01 2.743896918557584286e+01 5.486611338658264003e+00
8.003294412791728973e+01 2.817334418557584286e+01 5.494164439244201503e+00
7.928050272166728973e+01 2.878882270120084286e+01 5.478280039830139003e+00
7.749424783885478973e+01 2.904163031838834286e+01 5.386528941197326503e+00
7.716770975291728973e+01 2.977502875588834286e+01 5.400490733189514003e+00
7.755210916697978973e+01 3.076721625588834286e+01 5.467049571080139003e+00
4.102610819041728973e+01 1.785351996682584286e+01 2.781990977330139003e+00
4.070933572947978973e+01 1.818079047463834286e+01 2.779381724400451503e+00
8.018638651072978973e+01 2.735168891213834286e+01 5.846718760533264003e+00
7.989207498729228973e+01 2.811853461526334286e+01 5.863930674595764003e+00
8.014561502635478973e+01 2.906665473245084286e+01 5.923531504673889003e+00
7.934935037791728973e+01 2.966919379495084286e+01 5.901986094517639003e+00
7.774388162791728973e+01 2.997021918557584286e+01 5.816262217564514003e+00
7.738169901072978973e+01 3.069592719338834286e+01 5.827355357212951503e+00
4.104612772166728973e+01 1.785644965432584286e+01 2.978203745884826503e+00
4.072117654979228973e+01 1.818091254495084286e+01 2.973061533970764003e+00
7.967808572947978973e+01 2.890198188088834286e+01 6.265618296666076503e+00
7.979661600291728973e+01 2.981335883401334286e+01 6.317040415806701503e+00
4.109654276072978973e+01 1.787085395120084286e+01 3.177254649205139003e+00
4.073008768260478973e+01 1.817981391213834286e+01 3.167672129673889003e+00
7.933934061229228973e+01 2.964709906838834286e+01 6.659264536900451503e+00
4.155528299510478973e+01 1.803918891213834286e+01 3.412301035923889003e+00
4.077244608104228973e+01 1.819177680276334286e+01 3.365441294712951503e+00
3.541929666697978973e+01 1.269592719338834286e+01 2.832100840611389003e+00
3.506871072947978973e+01 1.296472602151334286e+01 2.818276377720764003e+00
7.941233865916728973e+01 2.957458930276334286e+01 6.475380869908264003e+00
7.958873026072978973e+01 2.952502875588834286e+01 6.212975474400451503e+00
8.011924783885478973e+01 2.786731391213834286e+01 5.612877818150451503e+00
7.905027811229228973e+01 2.839465766213834286e+01 5.571694346470764003e+00
7.925303690135478973e+01 2.933325629495084286e+01 5.621895762486389003e+00
8.296897928416728973e+01 2.518591742776334286e+01 6.071511241002014003e+00
3.540708963572978973e+01 1.251306586526334286e+01 2.459954234166076503e+00
3.564500467479228973e+01 1.296143012307584286e+01 2.494103404087951503e+00
8.034043924510478973e+01 2.792920356057584286e+01 6.015786143345764003e+00
7.962754862010478973e+01 2.857642035745084286e+01 5.996621104283264003e+00
7.962913553416728973e+01 2.945288520120084286e+01 6.035393687291076503e+00
7.927818338572978973e+01 2.988452582620084286e+01 6.223381968541076503e+00
7.748728983104228973e+01 3.060071234963834286e+01 5.726937266392639003e+00
