8.120034061372280121e+00 3.402350150048732758e+00 5.340162185021313235e-02
8.416542850434780121e+00 3.486822806298732758e+00 6.522718337365063235e-02
8.355385623872280121e+00 3.549322806298732758e+00 6.541028884240063235e-02
8.432289920747280121e+00 3.623175345361232758e+00 7.017103102990063235e-02
8.510536991059780121e+00 3.698492728173732758e+00 7.502332595177563235e-02
8.246743045747280121e+00 3.212530814111232758e+00 8.112684157677563235e-02
8.256508670747280121e+00 3.278204642236232758e+00 8.362928298302563235e-02
8.175698123872280121e+00 3.339728079736232758e+00 8.283582595177563235e-02
8.120400272309780121e+00 3.401373587548732758e+00 8.292737868615063235e-02
8.388100467622280121e+00 3.483893118798732758e+00 9.505811599083813235e-02
8.341835819184780121e+00 3.547369681298732758e+00 9.553113845177563235e-02
8.418129764497280121e+00 3.620978079736232758e+00 1.006428327877131323e-01
8.498696170747280121e+00 3.696417532861232758e+00 1.059528913814631323e-01
8.219643436372280121e+00 3.210821829736232758e+00 1.102253523189631323e-01
8.232216678559780121e+00 3.276251517236232758e+00 1.129108991939631323e-01
8.208657108247280121e+00 3.340338431298732758e+00 1.139484968502131323e-01
8.336464725434780121e+00 3.413092337548732758e+00 1.214405622799006323e-01
8.378090701997280121e+00 3.482306204736232758e+00 1.254078474361506323e-01
8.420327030122280121e+00 3.552496634423732758e+00 1.294209089595881323e-01
8.403969608247280121e+00 3.618780814111232758e+00 1.311451521236506323e-01
8.506874881684780121e+00 3.696173392236232758e+00 1.378132429439631323e-01
8.248329959809780121e+00 3.210699759423732758e+00 1.414448347408381323e-01
8.288735233247280121e+00 3.277472220361232758e+00 1.454884138424006323e-01
8.176674686372280121e+00 3.337897025048732758e+00 1.425587263424006323e-01
8.288735233247280121e+00 3.409308157861232758e+00 1.499134626705256323e-01
8.413491092622280121e+00 3.483771048486232758e+00 1.579548445064631323e-01
8.456093631684780121e+00 3.554449759423732758e+00 1.622273054439631323e-01
8.499550662934780121e+00 3.626227103173732758e+00 1.665608015377131323e-01
8.543495975434780121e+00 3.698858939111232758e+00 1.709553327877131323e-01
8.282265506684780121e+00 3.210577689111232758e+00 1.733662214595881323e-01
8.322914920747280121e+00 3.277838431298732758e+00 1.774708357174006323e-01
8.364296756684780121e+00 3.345953665673732758e+00 1.818043318111506323e-01
8.406411014497280121e+00 3.415167532861232758e+00 1.862141218502131323e-01
8.449013553559780121e+00 3.485235892236232758e+00 1.906849470455256323e-01
8.709389530122280121e+00 3.573126517236232758e+00 2.064014997799006323e-01
8.667031131684780121e+00 3.640021048486232758e+00 2.065998640377131323e-01
2.201627429574728012e+01 5.017706595361232758e+00 9.068714704830256323e-01
8.478188358247280121e+00 3.215094290673732758e+00 2.142750349361506323e-01
8.499794803559780121e+00 3.283453665673732758e+00 2.177692976314631323e-01
8.554116092622280121e+00 3.354010306298732758e+00 2.230946150142756323e-01
8.800209842622280121e+00 3.437018118798732758e+00 2.391010847408381323e-01
8.590615116059780121e+00 3.493902884423732758e+00 2.298237409908381323e-01
9.308144412934780121e+00 3.618658743798732758e+00 2.725178327877131323e-01
8.669716678559780121e+00 3.639288626611232758e+00 2.390400495845881323e-01
2.201908191293478012e+01 5.015265189111232758e+00 1.000743540795525632e+00
8.451699100434780121e+00 3.213385306298732758e+00 2.440144148189631323e-01
8.921181522309780121e+00 3.298346243798732758e+00 2.740589704830256323e-01
8.531411014497280121e+00 3.351935110986232758e+00 2.532612409908381323e-01
8.201505359262228012e+01 7.648077689111232758e+00 4.672435435326775632e+00
8.732827030122280121e+00 3.502447806298732758e+00 2.701679792720881323e-01
8.617104373872280121e+00 3.564093314111232758e+00 2.655598249752131323e-01
8.672402225434780121e+00 3.638556204736232758e+00 2.713429060299006323e-01
8.860634647309780121e+00 3.727057181298732758e+00 2.855183210689631323e-01
2.664041980355978012e+01 3.710699759423732758e+00 1.433452281029900632e+00
8.925209842622280121e+00 3.297369681298732758e+00 3.077046003658381323e-01
8.488076053559780121e+00 3.348883353173732758e+00 2.820698347408381323e-01
8.938211902230978012e+01 8.059454642236232758e+00 5.520961436303338132e+00
8.735634647309780121e+00 3.501715384423732758e+00 3.029133406002131323e-01
8.705239139497280121e+00 3.569830618798732758e+00 3.033863630611506323e-01
8.675087772309780121e+00 3.637823782861232758e+00 3.038593855220881323e-01
2.202481921762228012e+01 5.010138235986232758e+00 1.189128550561150632e+00
2.718302234262228012e+01 3.721808157861232758e+00 1.585734995873650632e+00
8.930947147309780121e+00 3.296637259423732758e+00 3.415028181392756323e-01
2.862394031137228012e+01 4.298590384423732758e+00 1.702373179467400632e+00
3.003067859262228012e+01 4.649298392236232758e+00 1.809383067162713132e+00
8.738320194184780121e+00 3.500860892236232758e+00 3.355213728267756323e-01
8.707924686372280121e+00 3.569098196923732758e+00 3.358723249752131323e-01
8.650551639497280121e+00 3.634772025048732758e+00 3.344837751705256323e-01
2.198392566293478012e+01 5.003424368798732758e+00 1.280574473412713132e+00
2.798551257699728012e+01 3.739874564111232758e+00 1.762004527123650632e+00
8.741249881684780121e+00 3.288458548486232758e+00 3.608662214595881323e-01
8.900063358247280121e+00 3.366339407861232758e+00 3.750416364986506323e-01
8.864296756684780121e+00 3.436529837548732758e+00 3.749653425533381323e-01
9.959684070199728012e+01 9.598028860986232758e+00 7.120814951928338132e+00
2.744095691293478012e+01 5.013312064111232758e+00 1.767268809350213132e+00
2.768314441293478012e+01 5.293707571923732758e+00 1.794627818139275632e+00
2.170499499887228012e+01 4.973395071923732758e+00 1.353694590600213132e+00
7.798744998872280121e+00 3.636969290673732758e+00 -2.305949601810368677e-01
8.018837772309780121e+00 3.722418509423732758e+00 -2.314494523685368677e-01
8.326943241059780121e+00 3.823126517236232758e+00 -2.333873185794743677e-01
8.742226444184780121e+00 3.944464407861232758e+00 -2.363780412357243677e-01
8.240151248872280121e+00 3.945318900048732758e+00 -2.288096818607243677e-01
8.760292850434780121e+00 4.090094290673732758e+00 -2.327617082279118677e-01
9.397866092622280121e+00 4.264654837548732758e+00 -2.376597795169743677e-01
8.848427616059780121e+00 4.249396048486232758e+00 -2.299998674075993677e-01
8.412636600434780121e+00 3.697394095361232758e+00 -2.071574601810368677e-01
8.703041873872280121e+00 3.796759329736232758e+00 -2.074931535404118677e-01
8.345375858247280121e+00 3.824469290673732758e+00 -2.028087052982243677e-01
8.720497928559780121e+00 3.940680228173732758e+00 -2.035563859622868677e-01
8.162636600434780121e+00 3.933600150048732758e+00 -1.979106340091618677e-01
8.347451053559780121e+00 4.027106009423732758e+00 -1.972850236575993677e-01
8.745888553559780121e+00 4.159064017236232758e+00 -1.980174455325993677e-01
8.759316287934780121e+00 4.233282767236232758e+00 -1.961253556888493677e-01
8.561806522309780121e+00 3.711310110986232758e+00 -1.765941056888493677e-01
1.274417956918478012e+01 4.239142142236232758e+00 -1.865886125247868677e-01
8.690346561372280121e+00 3.864874564111232758e+00 -1.730693254154118677e-01
8.699013553559780121e+00 3.936896048486232758e+00 -1.711009416263493677e-01
8.978676639497280121e+00 4.047003470361232758e+00 -1.696666154544743677e-01
8.846840701997280121e+00 4.101202689111232758e+00 -1.673777970950993677e-01
8.807656131684780121e+00 4.167975150048732758e+00 -1.652720842044743677e-01
8.765419803559780121e+00 4.233404837548732758e+00 -1.631968888919743677e-01
8.545449100434780121e+00 3.708746634423732758e+00 -1.450694474857243677e-01
8.996498905122280121e+00 3.827032767236232758e+00 -1.421245011966618677e-01
8.656655155122280121e+00 3.859869681298732758e+00 -1.407206926029118677e-01
7.988564334809780121e+00 3.843756400048732758e+00 -1.402781877200993677e-01
8.990761600434780121e+00 4.047735892236232758e+00 -1.358073625247868677e-01
8.860756717622280121e+00 4.102301321923732758e+00 -1.340678605716618677e-01
8.817421756684780121e+00 4.168707571923732758e+00 -1.321147355716618677e-01
8.724892459809780121e+00 4.225592337548732758e+00 -1.305278215091618677e-01
8.602578006684780121e+00 3.713507376611232758e+00 -1.130565080325993677e-01
8.631142459809780121e+00 3.786017142236232758e+00 -1.108439836185368677e-01
8.740517459809780121e+00 3.869024954736232758e+00 -1.080821427982243677e-01
8.648232303559780121e+00 3.928473196923732758e+00 -1.066325578372868677e-01
9.002846561372280121e+00 4.048468314111232758e+00 -1.019938859622868677e-01
8.857216678559780121e+00 4.100836478173732758e+00 -1.009257707279118677e-01
8.827187381684780121e+00 4.169317923486232758e+00 -9.903368088416186765e-02
8.788369022309780121e+00 4.235480032861232758e+00 -9.721788498572436765e-02
8.547890506684780121e+00 3.707037650048732758e+00 -8.188280197791186765e-02
8.604409061372280121e+00 3.782110892236232758e+00 -7.902940842322436765e-02
8.655434451997280121e+00 3.857916556298732758e+00 -7.637437912634936765e-02
8.707558475434780121e+00 3.935187064111232758e+00 -7.367357346228686765e-02
8.760414920747280121e+00 4.013678275048732758e+00 -7.092699143103686765e-02
8.814247928559780121e+00 4.093512259423732758e+00 -6.811937424353686765e-02
8.869301639497280121e+00 4.175055228173732758e+00 -6.526598068884936765e-02
8.925331912934780121e+00 4.257940970361232758e+00 -6.253465744666186765e-02
8.511757694184780121e+00 3.702521048486232758e+00 -5.075487229041186765e-02
8.564736209809780121e+00 3.776861868798732758e+00 -4.784044357947436765e-02
8.615151248872280121e+00 3.852179251611232758e+00 -4.492601486853686765e-02
8.666664920747280121e+00 3.928961478173732758e+00 -4.195055100134936765e-02
8.718911014497280121e+00 4.006964407861232758e+00 -3.892931076697436765e-02
8.772011600434780121e+00 4.086188040673732758e+00 -3.586229416541186765e-02
8.826332889497280121e+00 4.167242728173732758e+00 -3.273424240759936765e-02
8.881508670747280121e+00 4.249518118798732758e+00 -2.954515549353686765e-02
8.499428592622280121e+00 3.700445853173732758e+00 -1.962694260291186765e-02
8.541664920747280121e+00 3.773443900048732758e+00 -1.665147873572436765e-02
8.612831912934780121e+00 3.850958548486232758e+00 -1.288255783728686765e-02
8.669838748872280121e+00 3.928473196923732758e+00 -9.510365454474367652e-03
8.727700076997280121e+00 4.007208548486232758e+00 -6.092396704474367652e-03
8.786660037934780121e+00 4.087530814111232758e+00 -2.598134009161867652e-03
8.846962772309780121e+00 4.169684134423732758e+00 7.893171627131323476e-04
8.908242069184780121e+00 4.253180228173732758e+00 4.420908959588132348e-03
8.511879764497280121e+00 3.700689993798732758e+00 1.215711501427563235e-02
8.589882694184780121e+00 3.777716360986232758e+00 1.626172927208813235e-02
8.646157108247280121e+00 3.853888235986232758e+00 1.987806227990063235e-02
8.703774295747280121e+00 3.931891165673732758e+00 2.358594802208813235e-02
8.762245975434780121e+00 4.011114798486232758e+00 2.733961013146313235e-02
8.821938358247280121e+00 4.091803275048732758e+00 3.118482497521313235e-02
8.882973514497280121e+00 4.174444876611232758e+00 3.510633376427563235e-02
8.944985233247280121e+00 4.258429251611232758e+00 3.908887770958813235e-02
8.525795780122280121e+00 3.701178275048732758e+00 4.394117263146313235e-02
8.614662967622280121e+00 3.779547415673732758e+00 4.877820876427563235e-02
8.665078006684780121e+00 3.855231009423732758e+00 5.253187087365063235e-02
8.716591678559780121e+00 3.932623587548732758e+00 5.636182692833813235e-02
8.768715701997280121e+00 4.010992728173732758e+00 6.025281813927563235e-02
8.821816287934780121e+00 4.090826712548732758e+00 6.420484450646313235e-02
8.876015506684780121e+00 4.172369681298732758e+00 6.824842360802563235e-02
8.931069217622280121e+00 4.255133353173732758e+00 7.233777907677563235e-02
8.511147342622280121e+00 3.698736868798732758e+00 7.505384352990063235e-02
8.581703983247280121e+00 3.775030814111232758e+00 7.972303298302563235e-02
8.631630741059780121e+00 3.850348196923732758e+00 8.372083571740063235e-02
8.682534061372280121e+00 3.927252493798732758e+00 8.781019118615063235e-02
8.734169803559780121e+00 4.005255423486232758e+00 9.196058181115063235e-02
8.786660037934780121e+00 4.084723196923732758e+00 9.617200759240063235e-02
8.840248905122280121e+00 4.165777884423732758e+00 1.004749861080256323e-01
8.894692264497280121e+00 4.248053275048732758e+00 1.048542585689631323e-01
8.498940311372280121e+00 3.696661673486232758e+00 1.059834089595881323e-01
8.536660037934780121e+00 3.769171439111232758e+00 1.097370710689631323e-01
8.598549686372280121e+00 3.845465384423732758e+00 1.144672956783381323e-01
8.648964725434780121e+00 3.922003470361232758e+00 1.188007917720881323e-01
8.703408084809780121e+00 4.000128470361232758e+00 1.233326521236506323e-01
8.764443241059780121e+00 4.080450735986232758e+00 1.281696882564631323e-01
8.827065311372280121e+00 4.162726126611232758e+00 1.331135359127131323e-01
8.890663944184780121e+00 4.246466360986232758e+00 1.381489363033381323e-01
8.507119022309780121e+00 3.696539603173732758e+00 1.378437605220881323e-01
8.567421756684780121e+00 3.771490775048732758e+00 1.428028669674006323e-01
8.625527225434780121e+00 3.847784720361232758e+00 1.475330915767756323e-01
8.685219608247280121e+00 3.925787650048732758e+00 1.525532331783381323e-01
8.745888553559780121e+00 4.005011282861232758e+00 1.576649275142756323e-01
8.807778201997280121e+00 4.085943900048732758e+00 1.628834333736506323e-01
8.871376834809780121e+00 4.168829642236232758e+00 1.684223738033381323e-01
8.935829959809780121e+00 4.253180228173732758e+00 1.738545027095881323e-01
8.543740116059780121e+00 3.699103079736232758e+00 1.709705915767756323e-01
8.608071170747280121e+00 3.775030814111232758e+00 1.764637556392756323e-01
8.667153201997280121e+00 3.851690970361232758e+00 1.817280378658381323e-01
8.727578006684780121e+00 3.930304251611232758e+00 1.871449079830256323e-01
8.789101444184780121e+00 4.010138235986232758e+00 1.926380720455256323e-01
1.415641101449728012e+01 4.880743704736232758e+00 4.602467146236506323e-01
1.480204089730978012e+01 5.110846243798732758e+00 4.967915144283381323e-01
1.471244128793478012e+01 5.229742728173732758e+00 4.969593611080256323e-01
2.201505359262228012e+01 5.018316946923732758e+00 9.068256941158381323e-01
2.192264636605978012e+01 5.212774954736232758e+00 9.087025251705256323e-01
2.673673328012228012e+01 5.985724173486232758e+00 1.170848521264275632e+00
1.400138171762228012e+01 4.605963431298732758e+00 5.008503523189631323e-01
2.745731433480978012e+01 6.593878470361232758e+00 1.227504405053338132e+00
1.415970691293478012e+01 4.879523001611232758e+00 5.182606306392756323e-01
1.475858386605978012e+01 5.102301321923732758e+00 5.553394880611506323e-01
1.466861804574728012e+01 5.220709525048732758e+00 5.554615583736506323e-01
2.201786120980978012e+01 5.015753470361232758e+00 1.000682505639275632e+00
2.198673328012228012e+01 5.216925345361232758e+00 1.006267222436150632e+00
2.667789538949728012e+01 5.975470267236232758e+00 1.283870371850213132e+00
2.800895007699728012e+01 6.399786673486232758e+00 1.370174082787713132e+00
1.502420886605978012e+01 4.870733939111232758e+00 6.222950544674006323e-01
1.794925769418478012e+01 5.440680228173732758e+00 7.988850202877131323e-01
1.471610339730978012e+01 5.093878470361232758e+00 6.138874616939631323e-01
1.462516101449728012e+01 5.211676321923732758e+00 6.132771101314631323e-01
8.861611209809780121e+00 3.727423392236232758e+00 2.855793562252131323e-01
2.195267566293478012e+01 5.210577689111232758e+00 1.097880991967400632e+00
2.768094714730978012e+01 6.090338431298732758e+00 1.461848887475213132e+00
2.664432605355978012e+01 6.221441946923732758e+00 1.406612071068963132e+00
2.710685046762228012e+01 6.538580618798732758e+00 1.445003184350213132e+00
1.477005847543478012e+01 4.966803275048732758e+00 6.729694929439631323e-01
1.467411120980978012e+01 5.085455618798732758e+00 6.717640486080256323e-01
1.789139636605978012e+01 5.761481009423732758e+00 8.832356062252131323e-01
2.202347644418478012e+01 5.010748587548732758e+00 1.189067515404900632e+00
2.198441394418478012e+01 5.211188040673732758e+00 1.194087657006463132e+00
2.766495593637228012e+01 6.084845267236232758e+00 1.581645640404900632e+00
2.743546374887228012e+01 6.319342337548732758e+00 1.576030406029900632e+00
2.692520984262228012e+01 6.510138235986232758e+00 1.551234873803338132e+00
1.842813953012228012e+01 5.507330618798732758e+00 9.828449812252131323e-01
1.787491687387228012e+01 5.590948782861232758e+00 9.513813581783381323e-01
1.788883288949728012e+01 5.758917532861232758e+00 9.584919538814631323e-01
2.198404773324728012e+01 5.004034720361232758e+00 1.280589732201775632e+00
2.194168933480978012e+01 5.203863821923732758e+00 1.285319956811150632e+00
2.209500964730978012e+01 5.426275931298732758e+00 1.303523692162713132e+00
2.790055163949728012e+01 6.375250540673732758e+00 1.728740366967400632e+00
2.685672839730978012e+01 6.497320853173732758e+00 1.663356455834588132e+00
2.677018054574728012e+01 6.740606985986232758e+00 1.666759165795525632e+00
1.787625964730978012e+01 5.589117728173732758e+00 1.027156504662713132e+00
1.779154285043478012e+01 5.740362845361232758e+00 1.027202281029900632e+00
2.170340808480978012e+01 4.974005423486232758e+00 1.353587779076775632e+00
2.198209460824728012e+01 5.205328665673732758e+00 1.381969126733025632e+00
2.201261218637228012e+01 5.413824759423732758e+00 1.392177256615838132e+00
2.201651843637228012e+01 5.620733939111232758e+00 1.400401743920525632e+00
2.713590320199728012e+01 6.532477103173732758e+00 1.802257212670525632e+00
1.800138171762228012e+01 5.439825735986232758e+00 1.105769785912713132e+00
1.787809070199728012e+01 5.587286673486232758e+00 1.102611216576775632e+00
1.783414538949728012e+01 5.745489798486232758e+00 1.105952891381463132e+00
8.848915897309780121e+00 4.249762259423732758e+00 -2.299998674075993677e-01
8.924599491059780121e+00 4.336798392236232758e+00 -2.288401994388493677e-01
1.286686023324728012e+01 5.166022025048732758e+00 -2.663463029544743677e-01
1.320780261605978012e+01 5.350714407861232758e+00 -2.668956193607243677e-01
1.273319324105978012e+01 5.369391165673732758e+00 -2.595714006107243677e-01
1.295938953012228012e+01 5.534674368798732758e+00 -2.589305314700993677e-01
1.326041492074728012e+01 5.723150931298732758e+00 -2.588237199466618677e-01
1.382865222543478012e+01 5.983038626611232758e+00 -2.611888322513493677e-01
8.759072147309780121e+00 4.233526907861232758e+00 -1.961253556888493677e-01
1.296378406137228012e+01 5.067267142236232758e+00 -2.176860246341618677e-01
1.280973132699728012e+01 5.153692923486232758e+00 -2.137339982669743677e-01
1.320902331918478012e+01 5.349493704736232758e+00 -2.128947648685368677e-01
1.321061023324728012e+01 5.469244681298732758e+00 -2.099498185794743677e-01
1.300809558480978012e+01 5.544195853173732758e+00 -2.060740861575993677e-01
1.285489734262228012e+01 5.627203665673732758e+00 -2.027781877200993677e-01
1.360440906137228012e+01 5.927008353173732758e+00 -2.028849992435368677e-01
8.766030155122280121e+00 4.233771048486232758e+00 -1.631816301029118677e-01
1.279093249887228012e+01 5.034552298486232758e+00 -1.648753556888493677e-01
1.277640613168478012e+01 5.145880423486232758e+00 -1.619456681888493677e-01
1.274723132699728012e+01 5.254889212548732758e+00 -1.589854631107243677e-01
1.321183093637228012e+01 5.468146048486232758e+00 -1.560862931888493677e-01
1.319681628793478012e+01 5.584723196923732758e+00 -1.530192765872868677e-01
1.290457995980978012e+01 5.637457571923732758e+00 -1.500590715091618677e-01
1.349771960824728012e+01 5.899542532861232758e+00 -1.466105851810368677e-01
8.725380741059780121e+00 4.225958548486232758e+00 -1.305278215091618677e-01
1.277201160043478012e+01 5.029669485986232758e+00 -1.130717668216618677e-01
1.320328601449728012e+01 5.226080618798732758e+00 -1.082957658450993677e-01
1.368839343637228012e+01 5.443121634423732758e+00 -1.030162248294743677e-01
1.321439441293478012e+01 5.467169485986232758e+00 -1.019023332279118677e-01
1.324710925668478012e+01 5.594488821923732758e+00 -9.856065842322436765e-02
1.295475085824728012e+01 5.647711478173732758e+00 -9.685167404822436765e-02
1.378739245980978012e+01 5.968634329736232758e+00 -8.948167893103686765e-02
8.788124881684780121e+00 4.235724173486232758e+00 -9.721788498572436765e-02
9.027748905122280121e+00 4.351690970361232758e+00 -9.318956467322436765e-02
9.086830936372280121e+00 4.438482962548732758e+00 -9.059557053259936765e-02
9.147255741059780121e+00 4.527228079736232758e+00 -8.795580002478686765e-02
9.208657108247280121e+00 4.617682181298732758e+00 -8.525499436072436765e-02
9.271401248872280121e+00 4.709845267236232758e+00 -8.249315354041186765e-02
9.335732303559780121e+00 4.804327689111232758e+00 -7.968553635291186765e-02
9.401161991059780121e+00 4.900519095361232758e+00 -7.680162522009936765e-02
8.925820194184780121e+00 4.258307181298732758e+00 -6.251939865759936765e-02
8.982582889497280121e+00 4.342657767236232758e+00 -5.948289963416186765e-02
9.040810428559780121e+00 4.428717337548732758e+00 -5.658372971228686765e-02
9.100380741059780121e+00 4.516852103173732758e+00 -5.359300705603686765e-02
9.160927616059780121e+00 4.606573782861232758e+00 -5.057176682166186765e-02
9.222817264497280121e+00 4.698126517236232758e+00 -4.747423264197436765e-02
9.286171756684780121e+00 4.791876517236232758e+00 -4.430040451697436765e-02
9.350869022309780121e+00 4.887457571923732758e+00 -4.126390549353686765e-02
8.881874881684780121e+00 4.249884329736232758e+00 -2.952989670447436765e-02
8.938149295747280121e+00 4.333624564111232758e+00 -2.637132736853686765e-02
8.997719608247280121e+00 4.419562064111232758e+00 -2.310594650916186765e-02
9.062538944184780121e+00 4.508429251611232758e+00 -1.968797775916186765e-02
9.128578983247280121e+00 4.598761282861232758e+00 -1.622423264197436765e-02
9.196083866059780121e+00 4.691290579736232758e+00 -1.266893479041186765e-02
9.265297733247280121e+00 4.786139212548732758e+00 -9.006825415411867652e-03
9.335976444184780121e+00 4.882818900048732758e+00 -5.298939673224367652e-03
8.908730350434780121e+00 4.253424368798732758e+00 4.436167748650632348e-03
8.971352420747280121e+00 4.338751517236232758e+00 8.083018334588132348e-03
9.035439334809780121e+00 4.425909720361232758e+00 1.198926833458813235e-02
9.101113162934780121e+00 4.515143118798732758e+00 1.580396560021313235e-02
9.167885623872280121e+00 4.606207571923732758e+00 1.969495681115063235e-02
9.236244998872280121e+00 4.699225150048732758e+00 2.367750075646313235e-02
9.306069217622280121e+00 4.794684134423732758e+00 2.756849196740063235e-02
9.377602420747280121e+00 4.891974173486232758e+00 3.171888259240063235e-02
8.945473514497280121e+00 4.258795462548732758e+00 3.911939528771313235e-02
9.008705936372280121e+00 4.344488821923732758e+00 4.314771560021313235e-02
9.073403201997280121e+00 4.432135306298732758e+00 4.728284743615063235e-02
9.139809451997280121e+00 4.521979056298732758e+00 5.150953200646313235e-02
9.201943241059780121e+00 4.612433157861232758e+00 5.565992263146313235e-02
9.263344608247280121e+00 4.704352103173732758e+00 5.985608962365063235e-02
9.326332889497280121e+00 4.798468314111232758e+00 6.414380935021313235e-02
9.390297733247280121e+00 4.894171439111232758e+00 6.850782302208813235e-02
8.931435428559780121e+00 4.255499564111232758e+00 7.236829665490063235e-02
8.987465701997280121e+00 4.339728079736232758e+00 7.653394606896313235e-02
9.044716678559780121e+00 4.425787650048732758e+00 8.077588942833813235e-02
9.103188358247280121e+00 4.513800345361232758e+00 8.512464431115063235e-02
9.162758670747280121e+00 4.603277884423732758e+00 8.954969313927563235e-02
9.223549686372280121e+00 4.694586478173732758e+00 9.406629470177563235e-02
9.285683475434780121e+00 4.788092337548732758e+00 9.868970778771313235e-02
9.348915897309780121e+00 4.883185110986232758e+00 1.033894148189631323e-01
8.895180545747280121e+00 4.248419485986232758e+00 1.048695173580256323e-01
8.950600467622280121e+00 4.332159720361232758e+00 1.093403425533381323e-01
9.007119022309780121e+00 4.417731009423732758e+00 1.138874616939631323e-01
9.064980350434780121e+00 4.505133353173732758e+00 1.185413923580256323e-01
9.123818241059780121e+00 4.594122610986232758e+00 1.232716169674006323e-01
9.183876834809780121e+00 4.684820853173732758e+00 1.281086531002131323e-01
9.254433475434780121e+00 4.779913626611232758e+00 1.334034529049006323e-01
9.327919803559780121e+00 4.877203665673732758e+00 1.388660993892756323e-01
8.891152225434780121e+00 4.246710501611232758e+00 1.381794538814631323e-01
8.956093631684780121e+00 4.332281790673732758e+00 1.433674421627131323e-01
9.022621951997280121e+00 4.419684134423732758e+00 1.486622419674006323e-01
9.090859256684780121e+00 4.509405814111232758e+00 1.541096296627131323e-01
9.160439334809780121e+00 4.600836478173732758e+00 1.596485700924006323e-01
9.231606326997280121e+00 4.694464407861232758e+00 1.653248396236506323e-01
9.304726444184780121e+00 4.790655814111232758e+00 1.711536970455256323e-01
9.379311405122280121e+00 4.888678275048732758e+00 1.771046247799006323e-01
8.936318241059780121e+00 4.253546439111232758e+00 1.738850202877131323e-01
9.002236209809780121e+00 4.339606009423732758e+00 1.795002546627131323e-01
9.069496951997280121e+00 4.427618704736232758e+00 1.850391950924006323e-01
9.138710819184780121e+00 4.518072806298732758e+00 1.909443464595881323e-01
9.209267459809780121e+00 4.610235892236232758e+00 1.969410505611506323e-01
9.281533084809780121e+00 4.704596243798732758e+00 2.030903425533381323e-01
1.531058581918478012e+01 6.181158743798732758e+00 4.932209577877131323e-01
1.472428210824728012e+01 6.182257376611232758e+00 4.700733747799006323e-01
1.471195300668478012e+01 5.230108939111232758e+00 4.969441023189631323e-01
1.442044910043478012e+01 5.311407767236232758e+00 4.870258894283381323e-01
1.440030749887228012e+01 5.438727103173732758e+00 4.907032575924006323e-01
1.481925281137228012e+01 5.654425345361232758e+00 5.168873396236506323e-01
1.504850085824728012e+01 5.839117728173732758e+00 5.336109724361506323e-01
1.498734363168478012e+01 5.964850150048732758e+00 5.354267683345881323e-01
1.488089831918478012e+01 6.079962454736232758e+00 5.348621931392756323e-01
1.437516101449728012e+01 6.096197806298732758e+00 5.131794538814631323e-01
1.466800769418478012e+01 5.221075735986232758e+00 5.554462995845881323e-01
1.440714343637228012e+01 5.307379446923732758e+00 5.456348982174006323e-01
1.436661609262228012e+01 5.430670462548732758e+00 5.482136335689631323e-01
2.622110828012228012e+01 7.934210501611232758e+00 1.215694102318963132e+00
1.499405749887228012e+01 5.825934134423732758e+00 5.932118025142756323e-01
2.599613269418478012e+01 8.395270071923732758e+00 1.221736582787713132e+00
1.485013660043478012e+01 6.071173392236232758e+00 5.952412214595881323e-01
3.690616687387228012e+01 1.154614897817373276e+01 1.868098887475213132e+00
1.776432117074728012e+01 5.742682181298732758e+00 7.998921003658381323e-01
1.442179187387228012e+01 5.308356009423732758e+00 6.061359968502131323e-01
1.454837878793478012e+01 5.463507376611232758e+00 6.186939802486506323e-01
1.464469226449728012e+01 5.616217337548732758e+00 6.295734968502131323e-01
2.627408679574728012e+01 8.197149954736232758e+00 1.344051035912713132e+00
2.635428699105978012e+01 8.471319876611232758e+00 1.358653697045525632e+00
3.222061999887228012e+01 1.008753081411123276e+01 1.730922373803338132e+00
9.260978015512228012e+01 2.501282378286123276e+01 5.498515757592400632e+00
1.789261706918478012e+01 5.762213431298732758e+00 8.833424177486506323e-01
1.512455066293478012e+01 5.432623587548732758e+00 7.108418073970881323e-01
1.507962878793478012e+01 5.562506400048732758e+00 7.132679548580256323e-01
1.475528796762228012e+01 5.636725150048732758e+00 6.974751081783381323e-01
2.650382312387228012e+01 8.242315970361232758e+00 1.474544199975213132e+00
2.599735339730978012e+01 8.389532767236232758e+00 1.451091441186150632e+00
3.216764148324728012e+01 1.007153960317373276e+01 1.871333750756463132e+00
1.789005359262228012e+01 5.759649954736232758e+00 9.585987654049006323e-01
1.796659167855978012e+01 5.939703665673732758e+00 9.704853620845881323e-01
2.690311511605978012e+01 7.799322806298732758e+00 1.599071177514275632e+00
1.476102527230978012e+01 5.636236868798732758e+00 7.594105329830256323e-01
2.615982898324728012e+01 8.166998587548732758e+00 1.567470225365838132e+00
2.618375476449728012e+01 8.427618704736232758e+00 1.579280528100213132e+00
3.223575671762228012e+01 1.008350249379873276e+01 2.020671519311150632e+00
1.779203113168478012e+01 5.741095267236232758e+00 1.027263316186150632e+00
1.809146960824728012e+01 5.959845267236232758e+00 1.056071909936150632e+00
2.720548328012228012e+01 7.853277884423732758e+00 1.739467295678338132e+00
2.718595203012228012e+01 8.114386282861232758e+00 1.748744639428338132e+00
2.722586902230978012e+01 8.387701712548732758e+00 1.762492808373650632e+00
2.716373523324728012e+01 8.640509329736232758e+00 1.768596323998650632e+00
3.214847644418478012e+01 1.005957671254873276e+01 2.158885630639275632e+00
1.783414538949728012e+01 5.746100150048732758e+00 1.105968150170525632e+00
1.788395007699728012e+01 5.920660696923732758e+00 1.116359385522088132e+00
2.515726550668478012e+01 7.462774954736232758e+00 1.697719248803338132e+00
2.738883288949728012e+01 8.151617728173732758e+00 1.885036143334588132e+00
2.623685535043478012e+01 8.177008353173732758e+00 1.804149302514275632e+00
2.876212390512228012e+01 8.989508353173732758e+00 2.017482432397088132e+00
3.224234851449728012e+01 1.007752104848623276e+01 2.310176524193963132e+00
1.382816394418478012e+01 5.983404837548732758e+00 -2.611735734622868677e-01
1.368607410043478012e+01 6.075323782861232758e+00 -2.569926652591618677e-01
1.357437976449728012e+01 6.173102103173732758e+00 -2.534221086185368677e-01
1.375345691293478012e+01 6.349615775048732758e+00 -2.522319230716618677e-01
1.323746570199728012e+01 6.331305228173732758e+00 -2.454875383060368677e-01
1.340946277230978012e+01 6.506964407861232758e+00 -2.442058000247868677e-01
1.352860339730978012e+01 6.671271048486232758e+00 -2.424357804935368677e-01
1.383060535043478012e+01 6.896734915673732758e+00 -2.422221574466618677e-01
1.386344226449728012e+01 5.990484915673732758e+00 -2.039225968997868677e-01
1.372757800668478012e+01 6.084479056298732758e+00 -2.005809220950993677e-01
1.359928210824728012e+01 6.178229056298732758e+00 -1.970103654544743677e-01
1.376566394418478012e+01 6.351568900048732758e+00 -1.947368058841618677e-01
1.370719226449728012e+01 6.464361868798732758e+00 -1.917003068607243677e-01
1.334391101449728012e+01 6.486090384423732758e+00 -1.878245744388493677e-01
1.356107410043478012e+01 6.679938040673732758e+00 -1.858867082279118677e-01
1.384427722543478012e+01 6.899786673486232758e+00 -1.837047013919743677e-01
1.349881824105978012e+01 5.900274954736232758e+00 -1.465953263919743677e-01
1.397843249887228012e+01 6.146734915673732758e+00 -1.432383927982243677e-01
1.356705554574728012e+01 6.168219290673732758e+00 -1.407054338138493677e-01
1.375321277230978012e+01 6.346686087548732758e+00 -1.374705705325993677e-01
1.369486316293478012e+01 6.459479056298732758e+00 -1.345561418216618677e-01
1.426102527230978012e+01 6.757086478173732758e+00 -1.304210099857243677e-01
1.339371570199728012e+01 6.627081595361232758e+00 -1.291697892825993677e-01
1.401017078012228012e+01 6.951300345361232758e+00 -1.246684465091618677e-01
1.379776843637228012e+01 5.971564017236232758e+00 -8.940538498572436765e-02
1.395682605355978012e+01 6.139776907861232758e+00 -8.505663010291186765e-02
1.402286609262228012e+01 6.287359915673732758e+00 -8.147081467322436765e-02
1.374454578012228012e+01 6.342901907861232758e+00 -7.997545334509936765e-02
1.368253406137228012e+01 6.454474173486232758e+00 -7.719835373572436765e-02
1.404056628793478012e+01 6.690191946923732758e+00 -7.159837814978686765e-02
1.348075183480978012e+01 6.652472220361232758e+00 -7.223924729041186765e-02
1.342362292855978012e+01 6.762945853173732758e+00 -6.979784104041186765e-02
9.401650272309780121e+00 4.900885306298732758e+00 -7.680162522009936765e-02
9.468788944184780121e+00 4.999396048486232758e+00 -7.399400803259936765e-02
9.537392459809780121e+00 5.099981985986232758e+00 -7.114061447791186765e-02
9.607949100434780121e+00 5.203497610986232758e+00 -6.819566818884936765e-02
9.679848514497280121e+00 5.308966360986232758e+00 -6.520494553259936765e-02
9.753578983247280121e+00 5.416998587548732758e+00 -6.212267014197436765e-02
9.829262576997280121e+00 5.528082571923732758e+00 -5.896410080603686765e-02
9.906655155122280121e+00 5.641607962548732758e+00 -5.574449631384936765e-02
9.351357303559780121e+00 4.887823782861232758e+00 -4.124864670447436765e-02
9.417153201997280121e+00 4.985357962548732758e+00 -3.787645432166186765e-02
9.484780155122280121e+00 5.085211478173732758e+00 -3.461107346228686765e-02
9.554238162934780121e+00 5.187750540673732758e+00 -3.125413986853686765e-02
9.625038944184780121e+00 5.292364798486232758e+00 -2.785142990759936765e-02
9.697670780122280121e+00 5.399542532861232758e+00 -2.434190842322436765e-02
9.772133670747280121e+00 5.509649954736232758e+00 -2.075609299353686765e-02
9.848549686372280121e+00 5.622198782861232758e+00 -1.727708908728686765e-02
9.336464725434780121e+00 4.883185110986232758e+00 -5.268422095099367652e-03
9.408730350434780121e+00 4.982184134423732758e+00 -1.560536352911867652e-03
9.482704959809780121e+00 5.083746634423732758e+00 2.254160912713132348e-03
9.558754764497280121e+00 5.188116751611232758e+00 6.175669701775632348e-03
9.636513553559780121e+00 5.294684134423732758e+00 1.017347243615063235e-02
9.716347537934780121e+00 5.404181204736232758e+00 1.427808669396313235e-02
9.798500858247280121e+00 5.516852103173732758e+00 1.852003005333813235e-02
9.882607303559780121e+00 5.632086478173732758e+00 2.283826735802563235e-02
9.378090701997280121e+00 4.892462454736232758e+00 3.174940017052563235e-02
9.451210819184780121e+00 4.992071829736232758e+00 3.594556716271313235e-02
9.526406131684780121e+00 5.094366751611232758e+00 4.044690993615063235e-02
9.603554569184780121e+00 5.199469290673732758e+00 4.487195876427563235e-02
9.682289920747280121e+00 5.306891165673732758e+00 4.938856032677563235e-02
9.763222537934780121e+00 5.417120657861232758e+00 5.404249099083813235e-02
9.846230350434780121e+00 5.530523978173732758e+00 5.860486892052563235e-02
9.931435428559780121e+00 5.646612845361232758e+00 6.348768142052563235e-02
9.390786014497280121e+00 4.894537650048732758e+00 6.852308181115063235e-02
9.456337772309780121e+00 4.992438040673732758e+00 7.294813063927563235e-02
9.523354373872280121e+00 5.092535696923732758e+00 7.747999099083813235e-02
9.592079959809780121e+00 5.195318900048732758e+00 8.211866286583813235e-02
9.662270389497280121e+00 5.300177298486232758e+00 8.686414626427563235e-02
9.734047733247280121e+00 5.407477103173732758e+00 9.171644118615063235e-02
9.807900272309780121e+00 5.517828665673732758e+00 9.669080642052563235e-02
9.883217655122280121e+00 5.630377493798732758e+00 1.017872419674006323e-01
9.349526248872280121e+00 4.883551321923732758e+00 1.034199323970881323e-01
9.414223514497280121e+00 4.980841360986232758e+00 1.082111921627131323e-01
9.480263553559780121e+00 5.080328665673732758e+00 1.131092634517756323e-01
9.548256717622280121e+00 5.182379446923732758e+00 1.181446638424006323e-01
9.617470584809780121e+00 5.286505423486232758e+00 1.232716169674006323e-01
9.688393436372280121e+00 5.393072806298732758e+00 1.285206404049006323e-01
9.761269412934780121e+00 5.502569876611232758e+00 1.339222517330256323e-01
9.839760623872280121e+00 5.615606985986232758e+00 1.395832624752131323e-01
9.328530155122280121e+00 4.877569876611232758e+00 1.388966169674006323e-01
9.403847537934780121e+00 4.977301321923732758e+00 1.445118513424006323e-01
9.481118045747280121e+00 5.079596243798732758e+00 1.502644148189631323e-01
9.560707889497280121e+00 5.184820853173732758e+00 1.561848249752131323e-01
9.642006717622280121e+00 5.292608939111232758e+00 1.622425642330256323e-01
9.725624881684780121e+00 5.403204642236232758e+00 1.684681501705256323e-01
9.811684451997280121e+00 5.517096243798732758e+00 1.748768415767756323e-01
9.899941287934780121e+00 5.633795462548732758e+00 1.814381208736506323e-01
9.379921756684780121e+00 4.889166556298732758e+00 1.771351423580256323e-01
9.456459842622280121e+00 4.989630423486232758e+00 1.832691755611506323e-01
9.534951053559780121e+00 5.092779837548732758e+00 1.895710554439631323e-01
9.615761600434780121e+00 5.199103079736232758e+00 1.960407820064631323e-01
9.698525272309780121e+00 5.307745657861232758e+00 2.026783552486506323e-01
9.783486209809780121e+00 5.419317923486232758e+00 2.094837751705256323e-01
6.484330066293478012e+01 2.239673491567373276e+01 2.716014536889275632e+00
1.433036120980978012e+01 7.040289603173732758e+00 4.240223493892756323e-01
1.472281726449728012e+01 6.182379446923732758e+00 4.700275984127131323e-01
1.427835925668478012e+01 6.207770071923732758e+00 4.534412947017756323e-01
1.508561023324728012e+01 6.554083548486232758e+00 4.972340193111506323e-01
1.487748035043478012e+01 6.640631400048732758e+00 4.921375837642756323e-01
3.529337390512228012e+01 1.259900542348623276e+01 1.507655772240838132e+00
6.683084949105978012e+01 2.228845854848623276e+01 3.093700083764275632e+00
6.677640613168478012e+01 2.298218413442373276e+01 3.118007334740838132e+00
7.847684558480978012e+01 2.740918608754873276e+01 3.736461314233025632e+00
1.437455066293478012e+01 6.096564017236232758e+00 5.131641950924006323e-01
1.457572253793478012e+01 6.281378470361232758e+00 5.288044538814631323e-01
1.510807117074728012e+01 6.558478079736232758e+00 5.623432722408381323e-01
1.492337878793478012e+01 6.651617728173732758e+00 5.577046003658381323e-01
3.528458484262228012e+01 1.259253569692373276e+01 1.668452891381463132e+00
7.328189929574728012e+01 2.418775054067373276e+01 3.760097178490838132e+00
7.987455066293478012e+01 2.698950835317373276e+01 4.152187022240838132e+00
7.777787097543478012e+01 2.717859526723623276e+01 4.067393931420525632e+00
3.212516101449728012e+01 1.039038725942373276e+01 1.593394907983025632e+00
7.041324695199728012e+01 2.038233061879873276e+01 3.819652232201775632e+00
8.260904773324728012e+01 2.432276030629873276e+01 4.557979258568963132e+00
1.494339831918478012e+01 6.655646048486232758e+00 6.218678083736506323e-01
3.529239734262228012e+01 1.259082671254873276e+01 1.829341563256463132e+00
8.028629382699728012e+01 2.624915190786123276e+01 4.519603404076775632e+00
7.953263171762228012e+01 2.687573882192373276e+01 4.507213267358025632e+00
7.710270007699728012e+01 2.695569487661123276e+01 4.395091685326775632e+00
9.261893542855978012e+01 2.501819487661123276e+01 5.499232920678338132e+00
9.412418445199728012e+01 2.635962554067373276e+01 5.631404551537713132e+00
8.175724109262228012e+01 2.408899565786123276e+01 4.890727671654900632e+00
8.238138660043478012e+01 2.511890288442373276e+01 4.964213999779900632e+00
3.520279773324728012e+01 1.256140776723623276e+01 1.984965952904900632e+00
8.030924304574728012e+01 2.624683257192373276e+01 4.899608286889275632e+00
8.032816394418478012e+01 2.711035796254873276e+01 4.934672984154900632e+00
7.975821765512228012e+01 2.778943511098623276e+01 4.931453379662713132e+00
8.323160632699728012e+01 2.360010405629873276e+01 5.335811289818963132e+00
8.392325671762228012e+01 2.464905425161123276e+01 5.417979868920525632e+00
8.280570300668478012e+01 2.522547026723623276e+01 5.377635630639275632e+00
3.528043445199728012e+01 1.257959624379873276e+01 2.150417002709588132e+00
8.225333484262228012e+01 2.681165190786123276e+01 5.410655650170525632e+00
8.116275867074728012e+01 2.735681792348623276e+01 5.370586070092400632e+00
8.047428210824728012e+01 2.800757475942373276e+01 5.359813365014275632e+00
8.393534167855978012e+01 2.464221831411123276e+01 5.811778697045525632e+00
3.551578601449728012e+01 1.227881499379873276e+01 2.313823374779900632e+00
3.523185046762228012e+01 1.256177397817373276e+01 2.308223399193963132e+00
8.205948718637228012e+01 2.674512358754873276e+01 5.784557017358025632e+00
7.978226550668478012e+01 2.777930327504873276e+01 5.687801035912713132e+00
8.279483874887228012e+01 2.520325347036123276e+01 6.152187022240838132e+00
3.529825671762228012e+01 1.257678862661123276e+01 2.473766001733025632e+00
3.503604968637228012e+01 1.286279936879873276e+01 2.468822154076775632e+00
8.024942859262228012e+01 2.791834136098623276e+01 6.103572520287713132e+00
3.557621081918478012e+01 1.228735991567373276e+01 2.642207774193963132e+00
3.530350574105978012e+01 1.257422515004873276e+01 2.635753306420525632e+00
1.383072742074728012e+01 6.897223196923732758e+00 -2.422068986575993677e-01
1.011490710824728012e+01 5.804571829736232758e+00 -2.136577043216618677e-01
1.376261218637228012e+01 7.141607962548732758e+00 -2.366526994388493677e-01
1.362967761605978012e+01 7.229742728173732758e+00 -2.333720597904118677e-01
1.386551745980978012e+01 7.449347220361232758e+00 -2.324717912357243677e-01
1.335233386605978012e+01 7.394659720361232758e+00 -2.268412980716618677e-01
1.377152331918478012e+01 7.689703665673732758e+00 -2.269633683841618677e-01
1.330643542855978012e+01 7.643194876611232758e+00 -2.221110734622868677e-01
1.384586413949728012e+01 6.900763235986232758e+00 -1.837047013919743677e-01
1.011539538949728012e+01 5.803717337548732758e+00 -1.731151017825993677e-01
1.360501941293478012e+01 7.086554251611232758e+00 -1.777232560794743677e-01
1.359110339730978012e+01 7.214850150048732758e+00 -1.750987443607243677e-01
1.391739734262228012e+01 7.466925345361232758e+00 -1.729930314700993677e-01
1.387320788949728012e+01 7.588507376611232758e+00 -1.702464494388493677e-01
1.415909656137228012e+01 7.838019095361232758e+00 -1.681559953372868677e-01
1.358622058480978012e+01 7.753180228173732758e+00 -1.649058732669743677e-01
1.401004870980978012e+01 6.951666556298732758e+00 -1.246531877200993677e-01
1.011588367074728012e+01 5.802984915673732758e+00 -1.323436174075993677e-01
1.368448718637228012e+01 7.112311087548732758e+00 -1.199077043216618677e-01
1.356778796762228012e+01 7.205328665673732758e+00 -1.174662980716618677e-01
1.388883288949728012e+01 7.455206595361232758e+00 -1.135753068607243677e-01
1.438846667855978012e+01 7.780157767236232758e+00 -1.088603410404118677e-01
1.410587390512228012e+01 7.816046439111232758e+00 -1.069224748294743677e-01
1.358634265512228012e+01 7.751959525048732758e+00 -1.060679826419743677e-01
1.342337878793478012e+01 6.763312064111232758e+00 -6.979784104041186765e-02
1.011649402230978012e+01 5.802252493798732758e+00 -9.155687424353686765e-02
1.366507800668478012e+01 7.104376517236232758e+00 -6.177171799353686765e-02
1.355362781137228012e+01 7.198981009423732758e+00 -5.965074631384936765e-02
1.444413074105978012e+01 7.655523978173732758e+00 -4.925951096228686765e-02
1.052091296762228012e+01 6.330694876611232758e+00 -7.959398361853686765e-02
1.065787585824728012e+01 6.484381400048732758e+00 -7.611497971228686765e-02
1.080008777230978012e+01 6.643683157861232758e+00 -7.274278732947436765e-02
9.907265506684780121e+00 5.642096243798732758e+00 -5.572923752478686765e-02
9.986855350434780121e+00 5.758551321923732758e+00 -5.257066818884936765e-02
1.006864245980978012e+01 5.878180228173732758e+00 -4.933580490759936765e-02
1.018521960824728012e+01 6.012823782861232758e+00 -4.556688400916186765e-02
1.030936511605978012e+01 6.153204642236232758e+00 -4.163011643103686765e-02
1.043814929574728012e+01 6.298834525048732758e+00 -3.755601975134936765e-02
1.057218249887228012e+01 6.450445853173732758e+00 -3.331407639197436765e-02
1.071097644418478012e+01 6.607428275048732758e+00 -2.891954514197436765e-02
9.849160037934780121e+00 5.622687064111232758e+00 -1.726183029822436765e-02
9.927162967622280121e+00 5.737921439111232758e+00 -1.341661545447436765e-02
1.000748523324728012e+01 5.856451712548732758e+00 -9.678212134161867652e-03
1.009781726449728012e+01 5.981207571923732758e+00 -5.680409399786867652e-03
1.025614245980978012e+01 6.132940970361232758e+00 -4.008683841618676524e-04
1.039701160043478012e+01 6.282477103173732758e+00 4.665049584588132348e-03
1.054410632699728012e+01 6.438605032861232758e+00 9.959849389275632348e-03
1.069645007699728012e+01 6.600714407861232758e+00 1.520887282677563235e-02
9.883217655122280121e+00 5.632574759423732758e+00 2.286878493615063235e-02
9.969521366059780121e+00 5.750982962548732758e+00 2.721753981896313235e-02
1.005826648324728012e+01 5.872809134423732758e+00 3.168836501427563235e-02
1.018534167855978012e+01 6.010992728173732758e+00 3.710523513146313235e-02
1.032303699105978012e+01 6.156256400048732758e+00 4.285779860802563235e-02
1.046634753793478012e+01 6.307501517236232758e+00 4.883924392052563235e-02
1.061612781137228012e+01 6.465460501611232758e+00 5.509534743615063235e-02
1.077164538949728012e+01 6.629523001611232758e+00 6.159559157677563235e-02
9.932045780122280121e+00 5.647223196923732758e+00 6.351819899865063235e-02
1.001065906137228012e+01 5.763556204736232758e+00 6.823316481896313235e-02
1.009085925668478012e+01 5.882940970361232758e+00 7.326856520958813235e-02
1.020975574105978012e+01 6.018683157861232758e+00 7.923475173302563235e-02
1.033170398324728012e+01 6.158453665673732758e+00 8.538404372521313235e-02
1.045804675668478012e+01 6.303473196923732758e+00 9.174695876427563235e-02
1.059000476449728012e+01 6.454474173486232758e+00 9.815565017052563235e-02
1.072611316293478012e+01 6.610480032861232758e+00 1.050068464595881323e-01
9.883828006684780121e+00 5.630865775048732758e+00 1.018177595455256323e-01
9.961220584809780121e+00 5.746344290673732758e+00 1.069904890377131323e-01
1.004056628793478012e+01 5.864874564111232758e+00 1.123005476314631323e-01
1.014676745980978012e+01 5.995611868798732758e+00 1.185719099361506323e-01
1.026664050668478012e+01 6.133917532861232758e+00 1.253773298580256323e-01
1.039090808480978012e+01 6.277350150048732758e+00 1.324116316158381323e-01
1.052018054574728012e+01 6.426642142236232758e+00 1.397511091549006323e-01
1.066446765512228012e+01 6.585089407861232758e+00 1.476856794674006323e-01
9.840493045747280121e+00 5.616217337548732758e+00 1.396137800533381323e-01
9.929604373872280121e+00 5.735113821923732758e+00 1.457325544674006323e-01
1.002140124887228012e+01 5.857428275048732758e+00 1.520191755611506323e-01
1.014432605355978012e+01 5.993780814111232758e+00 1.595570173580256323e-01
1.028788074105978012e+01 6.140753470361232758e+00 1.679798689205256323e-01
1.043753894418478012e+01 6.293829642236232758e+00 1.767536726314631323e-01
1.059415515512228012e+01 6.454107962548732758e+00 1.859394636470881323e-01
1.075711902230978012e+01 6.620978079736232758e+00 1.954914656002131323e-01
9.900673709809780121e+00 5.634405814111232758e+00 1.814838972408381323e-01
9.991371951997280121e+00 5.754400931298732758e+00 1.882435407955256323e-01
1.008475574105978012e+01 5.878058157861232758e+00 1.952168073970881323e-01
1.022574695199728012e+01 6.021490775048732758e+00 2.042957868892756323e-01
1.037247546762228012e+01 6.170416556298732758e+00 2.137257185299006323e-01
1.938773425668478012e+01 9.637213431298732758e+00 6.037251081783381323e-01
2.027884753793478012e+01 1.018262358754873276e+01 6.490437116939631323e-01
1.358719714730978012e+01 7.742315970361232758e+00 3.639942732174006323e-01
1.432999499887228012e+01 7.040655814111232758e+00 4.240223493892756323e-01
1.426371081918478012e+01 7.157843314111232758e+00 4.258228864986506323e-01
7.508487781137228012e+01 2.796362944692373276e+01 3.266032847436150632e+00
7.482706531137228012e+01 2.869470854848623276e+01 3.282603892358025632e+00
2.013016589730978012e+01 9.703985892236232758e+00 7.186085310299006323e-01
1.973905261605978012e+01 9.766485892236232758e+00 7.071949568111506323e-01
4.070560535043478012e+01 1.804456206411123276e+01 1.724910410912713132e+00
1.358731921762228012e+01 7.741095267236232758e+00 4.226795759517756323e-01
7.848429187387228012e+01 2.741443511098623276e+01 3.736949595483025632e+00
7.692057117074728012e+01 2.774536772817373276e+01 3.687877329858025632e+00
