1.712057790160179138e+01 5.891403838992118835e+00 -8.626792471855821987e-01
2.372519215941429138e+01 7.427536651492118835e+00 -1.097405199334019699e+00
9.488009542226791382e+00 4.595871612429618835e+00 -6.014792960137071987e-01
7.949923604726791382e+00 4.254196807742118835e+00 -1.255547289177769699e+00
7.865695089101791382e+00 4.318039581179618835e+00 -1.248116258904332199e+00
7.781222432851791382e+00 4.380417510867118835e+00 -1.240776781365269699e+00
7.697848409414291382e+00 4.441940948367118835e+00 -1.233544115349644699e+00
7.616061300039291382e+00 4.502243682742118835e+00 -1.226448778435582199e+00
7.553073018789291382e+00 4.566208526492118835e+00 -1.221672777459019699e+00
7.530978292226791382e+00 4.641037628054618835e+00 -1.222100023552769699e+00
7.498873800039291382e+00 4.712448760867118835e+00 -1.221428636834019699e+00
8.303805440664291382e+00 4.330856963992118835e+00 -1.260521654412144699e+00
8.211032003164291382e+00 4.396408721804618835e+00 -1.252693895623082199e+00
8.121676534414291382e+00 4.461228057742118835e+00 -1.245018724724644699e+00
8.031710714101791382e+00 4.524704620242118835e+00 -1.237419847771519699e+00
7.988619893789291382e+00 4.598435088992118835e+00 -1.235481981560582199e+00
7.965670675039291382e+00 4.677170440554618835e+00 -1.235985521599644699e+00
7.940402120351791382e+00 4.755539581179618835e+00 -1.236397508904332199e+00
7.917574971914291382e+00 4.834152862429618835e+00 -1.236901048943394699e+00
8.764132589101791382e+00 4.430344268679618835e+00 -1.274422411248082199e+00
8.633273214101791382e+00 4.492111846804618835e+00 -1.262718920037144699e+00
8.518893331289291382e+00 4.555466338992118835e+00 -1.252815965935582199e+00
8.484713643789291382e+00 4.636887237429618835e+00 -1.252251390740269699e+00
8.450900167226791382e+00 4.717941924929618835e+00 -1.251671556755894699e+00
8.423434346914291382e+00 4.800339385867118835e+00 -1.251839403435582199e+00
8.399020284414291382e+00 4.883835479617118835e+00 -1.252373461052769699e+00
8.374606221914291382e+00 4.966843292117118835e+00 -1.252892259880894699e+00
9.334811300039291382e+00 4.553757354617118835e+00 -1.296440843865269699e+00
9.300753682851791382e+00 4.643234893679618835e+00 -1.295983080193394699e+00
9.262545675039291382e+00 4.731613799929618835e+00 -1.295281175896519699e+00
9.224215596914291382e+00 4.819992706179618835e+00 -1.294579271599644699e+00
9.186251729726791382e+00 4.907639190554618835e+00 -1.293892626091832199e+00
9.148287862539291382e+00 4.995163604617118835e+00 -1.293205980584019699e+00
9.110446065664291382e+00 5.082688018679618835e+00 -1.292504076287144699e+00
9.068575948476791382e+00 5.168259307742118835e+00 -1.291573290154332199e+00
9.422579854726791382e+00 4.573166534304618835e+00 -1.261635546013707199e+00
9.367159932851791382e+00 4.658859893679618835e+00 -1.259209398552769699e+00
9.326266378164291382e+00 4.747238799929618835e+00 -1.258339647576207199e+00
9.525729268789291382e+00 4.894821807742118835e+00 -1.283196214959019699e+00
9.782443135976791382e+00 5.061691924929618835e+00 -1.314369921013707199e+00
9.797213643789291382e+00 5.169602081179618835e+00 -1.319649462029332199e+00
9.770968526601791382e+00 5.267380401492118835e+00 -1.320549730584019699e+00
9.744845479726791382e+00 5.364670440554618835e+00 -1.321434740349644699e+00
9.424044698476791382e+00 4.574143096804618835e+00 -1.217537645623082199e+00
9.368624776601791382e+00 4.659714385867118835e+00 -1.215035204216832199e+00
9.327731221914291382e+00 4.748093292117118835e+00 -1.214241747185582199e+00
9.526949971914291382e+00 4.895676299929618835e+00 -1.237999681755894699e+00
9.783663839101791382e+00 5.062546417117118835e+00 -1.267815355584019699e+00
1.005612477660179138e+01 5.239548370242118835e+00 -1.299462084099644699e+00
1.034689626097679138e+01 5.428513213992118835e+00 -1.333245043084019699e+00
1.035434255003929138e+01 5.541794463992118835e+00 -1.338097338005894699e+00
9.425631612539291382e+00 4.574997588992118835e+00 -1.173210863396519699e+00
9.370211690664291382e+00 4.660568878054618835e+00 -1.171105150505894699e+00
9.329318135976791382e+00 4.748947784304618835e+00 -1.170387987419957199e+00
9.528170675039291382e+00 4.896530792117118835e+00 -1.193062547966832199e+00
9.784884542226791382e+00 5.063278838992118835e+00 -1.221535448357457199e+00
1.005734547972679138e+01 5.240280792117118835e+00 -1.251763109490269699e+00
1.034799489378929138e+01 5.429245635867118835e+00 -1.284004930779332199e+00
1.466000661253929138e+01 6.790695831179618835e+00 -1.714485887810582199e+00
9.427096456289291382e+00 4.575974151492118835e+00 -1.129158739373082199e+00
9.371676534414291382e+00 4.661545440554618835e+00 -1.127190355584019699e+00
9.330782979726791382e+00 4.749802276492118835e+00 -1.126320604607457199e+00
9.529513448476791382e+00 4.897263213992118835e+00 -1.147911791130894699e+00
9.786105245351791382e+00 5.064133331179618835e+00 -1.175026659294957199e+00
1.005856618285179138e+01 5.241135284304618835e+00 -1.203819994255894699e+00
1.034921559691429138e+01 5.429978057742118835e+00 -1.234810594841832199e+00
1.481332692503929138e+01 6.835617706179618835e+00 -1.658745531365269699e+00
9.428683370351791382e+00 4.576828643679618835e+00 -1.084862474724644699e+00
9.373263448476791382e+00 4.662399932742118835e+00 -1.083061937615269699e+00
9.332247823476791382e+00 4.750656768679618835e+00 -1.082497362419957199e+00
9.530734151601791382e+00 4.898117706179618835e+00 -1.103005174919957199e+00
9.787325948476791382e+00 5.064865753054618835e+00 -1.128792528435582199e+00
1.005966481566429138e+01 5.241867706179618835e+00 -1.156166796013707199e+00
1.035031422972679138e+01 5.430710479617118835e+00 -1.185356859490269699e+00
1.497079762816429138e+01 6.881882354617118835e+00 -1.601570848748082199e+00
9.430148214101791382e+00 4.577805206179618835e+00 -1.040840868279332199e+00
9.374728292226791382e+00 4.663254424929618835e+00 -1.039177660271519699e+00
9.333712667226791382e+00 4.751511260867118835e+00 -1.038704637810582199e+00
9.531954854726791382e+00 4.898850128054618835e+00 -1.058129076287144699e+00
9.788546651601791382e+00 5.065598174929618835e+00 -1.082573656365269699e+00
1.006088551878929138e+01 5.242600128054618835e+00 -1.108528856560582199e+00
1.035153493285179138e+01 5.431442901492118835e+00 -1.136208299919957199e+00
1.584860524535179138e+01 7.137131378054618835e+00 -1.604195360466832199e+00
9.431735128164291382e+00 4.578659698367118835e+00 -9.965903799980821987e-01
9.376315206289291382e+00 4.664230987429618835e+00 -9.950797598808946987e-01
9.335299581289291382e+00 4.752365753054618835e+00 -9.946830313652696987e-01
9.533175557851791382e+00 4.899704620242118835e+00 -1.013024095818394699e+00
9.789767354726791382e+00 5.066452667117118835e+00 -1.036125902459019699e+00
1.006210622191429138e+01 5.243454620242118835e+00 -1.060646776482457199e+00
1.035263356566429138e+01 5.432297393679618835e+00 -1.086800340935582199e+00
1.630856618285179138e+01 7.271164581179618835e+00 -1.564720873162144699e+00
9.433199971914291382e+00 4.579636260867118835e+00 -9.525840323418321987e-01
9.377780050039291382e+00 4.665085479617118835e+00 -9.512260001152696987e-01
9.336764425039291382e+00 4.753342315554618835e+00 -9.509055655449571987e-01
9.534396260976791382e+00 4.900437042117118835e+00 -9.681937735527696987e-01
9.790988057851791382e+00 5.067185088992118835e+00 -9.899528067558946987e-01
1.006332692503929138e+01 5.244187042117118835e+00 -1.013054613396519699e+00
1.035373219847679138e+01 5.433029815554618835e+00 -1.037697557732457199e+00
5.194382008910179138e+01 1.761137454211711884e+01 -4.156304125115269699e+00
9.434786885976791382e+00 4.580490753054618835e+00 -9.083640616387071987e-01
9.379366964101791382e+00 4.665939971804618835e+00 -9.071586173027696987e-01
9.338229268789291382e+00 4.754196807742118835e+00 -9.071586173027696987e-01
9.535616964101791382e+00 4.901291534304618835e+00 -9.233787100762071987e-01
9.792208760976791382e+00 5.068039581179618835e+00 -9.437949698418321987e-01
1.006442555785179138e+01 5.244919463992118835e+00 -9.654777090996446987e-01
1.035495290160179138e+01 5.433762237429618835e+00 -9.883506339043321987e-01
5.373788747191429138e+01 1.813395754992961884e+01 -4.032112840935582199e+00
9.436251729726791382e+00 4.581467315554618835e+00 -8.644034903496446987e-01
9.380831807851791382e+00 4.666916534304618835e+00 -8.633353751152696987e-01
9.339816182851791382e+00 4.755051299929618835e+00 -8.631827872246446987e-01
9.536837667226791382e+00 4.902023956179618835e+00 -8.783347647637071987e-01
9.793429464101791382e+00 5.068772003054618835e+00 -8.974235098808946987e-01
1.006564626097679138e+01 5.245773956179618835e+00 -9.176719229668321987e-01
1.035605153441429138e+01 5.434494659304618835e+00 -9.392783682793321987e-01
1.601449880003929138e+01 7.187546417117118835e+00 -1.311592821404332199e+00
9.437838643789291382e+00 4.582321807742118835e+00 -8.202140372246446987e-01
9.382418721914291382e+00 4.667771026492118835e+00 -8.195426505058946987e-01
9.341281026601791382e+00 4.755905792117118835e+00 -8.194663565605821987e-01
9.538058370351791382e+00 4.902878448367118835e+00 -8.335502188652696987e-01
9.794650167226791382e+00 5.069626495242118835e+00 -8.512961905449571987e-01
1.006686696410179138e+01 5.246506378054618835e+00 -8.701407950371446987e-01
1.035727223753929138e+01 5.435227081179618835e+00 -8.902366202324571987e-01
4.891037282347679138e+01 1.673674075305461884e+01 -3.224816088005894699e+00
9.439303487539291382e+00 4.583298370242118835e+00 -7.762687247246446987e-01
9.383883565664291382e+00 4.668625518679618835e+00 -7.755210440605821987e-01
9.342745870351791382e+00 4.756760284304618835e+00 -7.755363028496446987e-01
9.539279073476791382e+00 4.903732940554618835e+00 -7.885520499199571987e-01
9.795870870351791382e+00 5.070358917117118835e+00 -8.049705069512071987e-01
1.006796559691429138e+01 5.247238799929618835e+00 -8.223807852715196987e-01
1.035837087035179138e+01 5.435959503054618835e+00 -8.409659903496446987e-01
5.685129079222679138e+01 1.904386965930461884e+01 -3.433617357537144699e+00
9.440890401601791382e+00 4.584152862429618835e+00 -7.321250479668321987e-01
9.385470479726791382e+00 4.669602081179618835e+00 -7.317588370293321987e-01
9.344210714101791382e+00 4.757614776492118835e+00 -7.318503897637071987e-01
9.540499776601791382e+00 4.904465362429618835e+00 -7.438132803887071987e-01
9.797091573476791382e+00 5.071213409304618835e+00 -7.588889639824571987e-01
1.006918630003929138e+01 5.248093292117118835e+00 -7.748954337090196987e-01
1.035959157347679138e+01 5.436691924929618835e+00 -7.919700186699571987e-01
1.595981130003929138e+01 7.173508331179618835e+00 -1.079216722771519699e+00
9.442355245351791382e+00 4.585129424929618835e+00 -6.882102530449571987e-01
9.386935323476791382e+00 4.670456573367118835e+00 -6.877677481621446987e-01
9.345797628164291382e+00 4.758469268679618835e+00 -6.879355948418321987e-01
9.541842550039291382e+00 4.905319854617118835e+00 -6.988456290215196987e-01
9.798312276601791382e+00 5.071945831179618835e+00 -7.125937979668321987e-01
1.007040700316429138e+01 5.248825713992118835e+00 -7.271812003105821987e-01
1.036069020628929138e+01 5.437424346804618835e+00 -7.427299063652696987e-01
1.594174489378929138e+01 7.168869659304618835e+00 -1.002480272576207199e+00
9.444308370351791382e+00 4.586105987429618835e+00 -6.441123526543321987e-01
9.389010518789291382e+00 4.671433135867118835e+00 -6.438071768730821987e-01
9.347628682851791382e+00 4.759445831179618835e+00 -6.442954581230821987e-01
9.544528096914291382e+00 4.906418487429618835e+00 -6.541984122246446987e-01
9.800875753164291382e+00 5.073044463992118835e+00 -6.666190665215196987e-01
1.007284840941429138e+01 5.249924346804618835e+00 -6.797874014824571987e-01
1.036337575316429138e+01 5.438645049929618835e+00 -6.935813467949571987e-01
6.739108571410179138e+01 2.211113040149211884e+01 -3.052773241326207199e+00
9.487643331289291382e+00 4.596115753054618835e+00 -6.014640372246446987e-01
9.431735128164291382e+00 4.681687042117118835e+00 -6.015555899590196987e-01
9.419650167226791382e+00 4.777023956179618835e+00 -6.029288809746446987e-01
9.674288839101791382e+00 4.939011260867118835e+00 -6.138694327324571987e-01
9.943575948476791382e+00 5.110397979617118835e+00 -6.254355948418321987e-01
1.585409840941429138e+01 6.805222198367118835e+00 -8.411338370293321987e-01
1.563827809691429138e+01 6.914475128054618835e+00 -8.364341299980821987e-01
6.219125661253929138e+01 2.060331790149211884e+01 -2.540016893669957199e+00
7.498873800039291382e+00 4.712814971804618835e+00 -1.221428636834019699e+00
7.468478292226791382e+00 4.784592315554618835e+00 -1.220818285271519699e+00
7.436251729726791382e+00 4.855637237429618835e+00 -1.220162157341832199e+00
7.406344503164291382e+00 4.927536651492118835e+00 -1.219795946404332199e+00
7.376559346914291382e+00 4.999191924929618835e+00 -1.219444994255894699e+00
7.346774190664291382e+00 5.070603057742118835e+00 -1.219078783318394699e+00
7.316989034414291382e+00 5.142258331179618835e+00 -1.218712572380894699e+00
7.285372823476791382e+00 5.212692901492118835e+00 -1.218285326287144699e+00
7.917697042226791382e+00 4.834397003054618835e+00 -1.236931566521519699e+00
7.892306417226791382e+00 4.912277862429618835e+00 -1.237343553826207199e+00
7.867526143789291382e+00 4.990280792117118835e+00 -1.237648729607457199e+00
7.832614034414291382e+00 5.065354034304618835e+00 -1.236885790154332199e+00
7.797946065664291382e+00 5.139938995242118835e+00 -1.236122850701207199e+00
7.763278096914291382e+00 5.214401885867118835e+00 -1.235375170037144699e+00
7.726168721914291382e+00 5.288132354617118835e+00 -1.234520677849644699e+00
7.691744893789291382e+00 5.362229034304618835e+00 -1.233772997185582199e+00
8.375094503164291382e+00 4.967331573367118835e+00 -1.252953295037144699e+00
8.348116964101791382e+00 5.049606963992118835e+00 -1.253395799919957199e+00
8.321261495351791382e+00 5.132004424929618835e+00 -1.253823046013707199e+00
8.294283956289291382e+00 5.214523956179618835e+00 -1.254265550896519699e+00
8.267428487539291382e+00 5.296921417117118835e+00 -1.254692796990269699e+00
8.237277120351791382e+00 5.378098174929618835e+00 -1.254738573357457199e+00
8.199801534414291382e+00 5.456955596804618835e+00 -1.253914598748082199e+00
8.162692159414291382e+00 5.535446807742118835e+00 -1.253090624138707199e+00
9.068575948476791382e+00 5.168625518679618835e+00 -1.291603807732457199e+00
9.031710714101791382e+00 5.255539581179618835e+00 -1.290947679802769699e+00
8.990817159414291382e+00 5.340866729617118835e+00 -1.290062670037144699e+00
8.949801534414291382e+00 5.426438018679618835e+00 -1.289177660271519699e+00
8.909152120351791382e+00 5.511398956179618835e+00 -1.288307909294957199e+00
8.861910909414291382e+00 5.593796417117118835e+00 -1.286659960076207199e+00
8.810519307851791382e+00 5.674729034304618835e+00 -1.284538988396519699e+00
8.755709737539291382e+00 5.753586456179618835e+00 -1.282219652459019699e+00
9.744845479726791382e+00 5.365036651492118835e+00 -1.321434740349644699e+00
9.716525167226791382e+00 5.461716338992118835e+00 -1.322258714959019699e+00
9.686862081289291382e+00 5.558151885867118835e+00 -1.322945360466832199e+00
9.649630635976791382e+00 5.652512237429618835e+00 -1.322823290154332199e+00
9.612521260976791382e+00 5.746384307742118835e+00 -1.322685961052769699e+00
9.575533956289291382e+00 5.840256378054618835e+00 -1.322563890740269699e+00
9.538424581289291382e+00 5.934250518679618835e+00 -1.322426561638707199e+00
9.501437276601791382e+00 6.027756378054618835e+00 -1.322289232537144699e+00
1.035422047972679138e+01 5.542160674929618835e+00 -1.338112596794957199e+00
1.031796559691429138e+01 5.643112823367118835e+00 -1.338066820427769699e+00
1.029465016722679138e+01 5.747971221804618835e+00 -1.339638475701207199e+00
1.028268727660179138e+01 5.857102081179618835e+00 -1.342415575310582199e+00
1.027060231566429138e+01 5.966355010867118835e+00 -1.345192674919957199e+00
1.025851735472679138e+01 6.076096221804618835e+00 -1.347985033318394699e+00
1.024631032347679138e+01 6.186691924929618835e+00 -1.350807909294957199e+00
1.022873219847679138e+01 6.295334503054618835e+00 -1.353325609490269699e+00
1.465951833128929138e+01 6.791062042117118835e+00 -1.714470629021519699e+00
1.458005055785179138e+01 6.925705596804618835e+00 -1.712013963982457199e+00
1.223190602660179138e+01 6.352341338992118835e+00 -1.483269457146519699e+00
1.196762380003929138e+01 6.401413604617118835e+00 -1.461434129998082199e+00
1.171383962035179138e+01 6.448532745242118835e+00 -1.440468553826207199e+00
1.124167165160179138e+01 6.415573760867118835e+00 -1.397301439568394699e+00
1.123251637816429138e+01 6.538254424929618835e+00 -1.400688890740269699e+00
1.117941579222679138e+01 6.644943878054618835e+00 -1.399636034294957199e+00
1.481296071410179138e+01 6.836105987429618835e+00 -1.658730272576207199e+00
1.473227223753929138e+01 6.972092315554618835e+00 -1.656380419060582199e+00
1.465280446410179138e+01 7.107590362429618835e+00 -1.653725389763707199e+00
1.235080251097679138e+01 6.525437042117118835e+00 -1.439812425896519699e+00
1.227231130003929138e+01 6.635300323367118835e+00 -1.436791185662144699e+00
1.238058766722679138e+01 6.808884307742118835e+00 -1.451653246209019699e+00
1.234738454222679138e+01 6.935715362429618835e+00 -1.453331713005894699e+00
1.227463063597679138e+01 7.047775909304618835e+00 -1.450859789177769699e+00
1.497043141722679138e+01 6.882370635867118835e+00 -1.601555589959019699e+00
1.488852223753929138e+01 7.019577667117118835e+00 -1.599297289177769699e+00
1.480710133910179138e+01 7.156174346804618835e+00 -1.597054247185582199e+00
1.235251149535179138e+01 6.526291534304618835e+00 -1.380348924919957199e+00
1.227414235472679138e+01 6.636154815554618835e+00 -1.377510790154332199e+00
1.238119801878929138e+01 6.809250518679618835e+00 -1.391548876091832199e+00
1.276779469847679138e+01 7.085739776492118835e+00 -1.431236986443394699e+00
1.318075856566429138e+01 7.381149932742118835e+00 -1.473656420037144699e+00
1.585019215941429138e+01 7.138107940554618835e+00 -1.604347948357457199e+00
1.604794606566429138e+01 7.368942901492118835e+00 -1.626259569451207199e+00
1.617257985472679138e+01 7.582565948367118835e+00 -1.642128710076207199e+00
1.235422047972679138e+01 6.527268096804618835e+00 -1.320915941521519699e+00
1.227585133910179138e+01 6.637131378054618835e+00 -1.318260912224644699e+00
1.238180837035179138e+01 6.809738799929618835e+00 -1.331475023552769699e+00
1.276828297972679138e+01 7.086105987429618835e+00 -1.369072679802769699e+00
1.318112477660179138e+01 7.381394073367118835e+00 -1.409233812615269699e+00
1.630954274535179138e+01 7.272019073367118835e+00 -1.564812425896519699e+00
1.643527516722679138e+01 7.486130401492118835e+00 -1.579903368279332199e+00
1.659811696410179138e+01 7.715744659304618835e+00 -1.598091844841832199e+00
1.235605153441429138e+01 6.528122588992118835e+00 -1.261193041130894699e+00
1.227768239378929138e+01 6.637985870242118835e+00 -1.258721117302769699e+00
1.238241872191429138e+01 6.810227081179618835e+00 -1.271126512810582199e+00
1.276877126097679138e+01 7.086472198367118835e+00 -1.306603197380894699e+00
1.318149098753929138e+01 7.381638213992118835e+00 -1.344506029412144699e+00
5.194992360472679138e+01 1.761503665149211884e+01 -4.156822923943394699e+00
5.297275075316429138e+01 1.848588626086711884e+01 -4.249001268669957199e+00
5.049850758910179138e+01 1.829179446399211884e+01 -4.077843431755894699e+00
1.235776051878929138e+01 6.528977081179618835e+00 -1.201805834099644699e+00
1.227939137816429138e+01 6.638840362429618835e+00 -1.199532274529332199e+00
1.238302907347679138e+01 6.810593292117118835e+00 -1.211128954216832199e+00
1.276925954222679138e+01 7.086838409304618835e+00 -1.244515184685582199e+00
1.318197926878929138e+01 7.382004424929618835e+00 -1.280174974724644699e+00
5.347531422972679138e+01 1.805961672961711884e+01 -4.013756517693394699e+00
5.368429860472679138e+01 1.870195071399211884e+01 -4.043328050896519699e+00
5.049533376097679138e+01 1.829240481555461884e+01 -3.834328417107457199e+00
1.235959157347679138e+01 6.529953643679618835e+00 -1.142449144646519699e+00
1.228122243285179138e+01 6.639694854617118835e+00 -1.140358690544957199e+00
1.238363942503929138e+01 6.811081573367118835e+00 -1.151177171990269699e+00
1.276986989378929138e+01 7.087204620242118835e+00 -1.182121996209019699e+00
1.318234547972679138e+01 7.382248565554618835e+00 -1.215538744255894699e+00
1.601376637816429138e+01 7.188034698367118835e+00 -1.311562303826207199e+00
5.369711598753929138e+01 1.870756594836711884e+01 -3.786537889763707199e+00
5.045346364378929138e+01 1.828080813586711884e+01 -3.587166551873082199e+00
1.236130055785179138e+01 6.530808135867118835e+00 -1.082802538201207199e+00
1.228293141722679138e+01 6.640549346804618835e+00 -1.080879930779332199e+00
1.238424977660179138e+01 6.811447784304618835e+00 -1.090935472771519699e+00
1.277035817503929138e+01 7.087570831179618835e+00 -1.120110277459019699e+00
1.318271169066429138e+01 7.382492706179618835e+00 -1.151283983513707199e+00
4.890829762816429138e+01 1.673783938586711884e+01 -3.224739794060582199e+00
5.190976247191429138e+01 1.817118899524211884e+01 -3.420418504998082199e+00
5.037985524535179138e+01 1.825932376086711884e+01 -3.339943651482457199e+00
1.236313161253929138e+01 6.531662628054618835e+00 -1.023491625115269699e+00
1.228476247191429138e+01 6.641403838992118835e+00 -1.021767381951207199e+00
1.238486012816429138e+01 6.811936065554618835e+00 -1.031044725701207199e+00
1.277084645628929138e+01 7.087937042117118835e+00 -1.058144335076207199e+00
1.318319997191429138e+01 7.382858917117118835e+00 -1.086739305779332199e+00
5.685129079222679138e+01 1.904582278430461884e+01 -3.433663133904332199e+00
5.609115895628929138e+01 1.943229739367961884e+01 -3.404259447380894699e+00
5.052414235472679138e+01 1.830583254992961884e+01 -3.104561571404332199e+00
1.236484059691429138e+01 6.532517120242118835e+00 -9.638907950371446987e-01
1.228647145628929138e+01 6.642258331179618835e+00 -9.623496573418321987e-01
1.238559255003929138e+01 6.812424346804618835e+00 -9.708793204277696987e-01
1.277145680785179138e+01 7.088303253054618835e+00 -9.958732169121446987e-01
1.318356618285179138e+01 7.383103057742118835e+00 -1.022560838982457199e+00
1.595920094847679138e+01 7.173874542117118835e+00 -1.079186205193394699e+00
6.440597829222679138e+01 2.193864504992961884e+01 -3.560906175896519699e+00
4.865610036253929138e+01 1.772441165149211884e+01 -2.765892748162144699e+00
1.236654958128929138e+01 6.533493682742118835e+00 -9.046256583183946987e-01
1.228830251097679138e+01 6.643112823367118835e+00 -9.032676260918321987e-01
1.238620290160179138e+01 6.812790557742118835e+00 -9.110648673027696987e-01
1.277194508910179138e+01 7.088669463992118835e+00 -9.339683096855821987e-01
1.318393239378929138e+01 7.383347198367118835e+00 -9.581077139824571987e-01
1.594113454222679138e+01 7.169235870242118835e+00 -1.002465013787144699e+00
6.231076344847679138e+01 2.130961672961711884e+01 -3.153923754021519699e+00
5.320749196410179138e+01 1.914653079211711884e+01 -2.742851976677769699e+00
1.236838063597679138e+01 6.534348174929618835e+00 -8.450858633965196987e-01
1.229001149535179138e+01 6.643967315554618835e+00 -8.439109366387071987e-01
1.238681325316429138e+01 6.813278838992118835e+00 -8.509757559746446987e-01
1.277243337035179138e+01 7.089035674929618835e+00 -8.717887442558946987e-01
1.318442067503929138e+01 7.383713409304618835e+00 -8.940207999199571987e-01
6.228549489378929138e+01 2.063066165149211884e+01 -2.841805223748082199e+00
6.301144704222679138e+01 2.152287356555461884e+01 -2.883400682732457199e+00
5.304184255003929138e+01 1.909635989367961884e+01 -2.480675463005894699e+00
1.237008962035179138e+01 6.535202667117118835e+00 -7.858665030449571987e-01
1.229184255003929138e+01 6.644821807742118835e+00 -7.848899405449571987e-01
1.238742360472679138e+01 6.813767120242118835e+00 -7.912375967949571987e-01
1.277292165160179138e+01 7.089401885867118835e+00 -8.096396964043321987e-01
1.318478688597679138e+01 7.383957549929618835e+00 -8.296287100762071987e-01
6.218783864378929138e+01 2.060453860461711884e+01 -2.539925340935582199e+00
6.478549489378929138e+01 2.205949465930461884e+01 -2.647392992302769699e+00
5.265317067503929138e+01 1.897660891711711884e+01 -2.210671190544957199e+00
1.265060719847679138e+01 6.626267120242118835e+00 -7.367026846855821987e-01
5.154513844847679138e+01 1.976506106555461884e+01 -2.187447313591832199e+00
4.626169118285179138e+01 1.851225344836711884e+01 -1.998665575310582199e+00
5.106100758910179138e+01 2.074174563586711884e+01 -2.187157396599644699e+00
5.061032399535179138e+01 2.114994876086711884e+01 -2.177742723748082199e+00
7.285372823476791382e+00 5.213059112429618835e+00 -1.218300585076207199e+00
7.255221456289291382e+00 5.283981963992118835e+00 -1.217919115349644699e+00
7.223239034414291382e+00 5.354172393679618835e+00 -1.217476610466832199e+00
7.191134542226791382e+00 5.424606963992118835e+00 -1.217034105584019699e+00
7.159152120351791382e+00 5.494675323367118835e+00 -1.216591600701207199e+00
7.130587667226791382e+00 5.566086456179618835e+00 -1.216606859490269699e+00
7.109957784414291382e+00 5.641403838992118835e+00 -1.217690233513707199e+00
7.087252706289291382e+00 5.715622588992118835e+00 -1.218697313591832199e+00
7.691622823476791382e+00 5.362473174929618835e+00 -1.233772997185582199e+00
7.654635518789291382e+00 5.435471221804618835e+00 -1.232918504998082199e+00
7.619967550039291382e+00 5.509201690554618835e+00 -1.232155565544957199e+00
7.590182393789291382e+00 5.585007354617118835e+00 -1.232216600701207199e+00
7.566989034414291382e+00 5.663376495242118835e+00 -1.233132128044957199e+00
7.543795675039291382e+00 5.741989776492118835e+00 -1.234032396599644699e+00
7.517916768789291382e+00 5.819870635867118835e+00 -1.234825853630894699e+00
7.494601339101791382e+00 5.898605987429618835e+00 -1.235741380974644699e+00
8.162448018789291382e+00 5.535690948367118835e+00 -1.253075365349644699e+00
8.136691182851791382e+00 5.618210479617118835e+00 -1.253853563591832199e+00
8.112643331289291382e+00 5.701584503054618835e+00 -1.254845384880894699e+00
8.088473409414291382e+00 5.785446807742118835e+00 -1.255837206169957199e+00
8.064303487539291382e+00 5.869187042117118835e+00 -1.256829027459019699e+00
8.040011495351791382e+00 5.953171417117118835e+00 -1.257820848748082199e+00
8.015719503164291382e+00 6.037522003054618835e+00 -1.258827928826207199e+00
7.991427510976791382e+00 6.121872588992118835e+00 -1.259819750115269699e+00
8.755465596914291382e+00 5.753708526492118835e+00 -1.282189134880894699e+00
8.710665792226791382e+00 5.835861846804618835e+00 -1.280754808709019699e+00
8.685519307851791382e+00 5.925461456179618835e+00 -1.281838182732457199e+00
8.660372823476791382e+00 6.015427276492118835e+00 -1.282936815544957199e+00
8.635104268789291382e+00 6.105393096804618835e+00 -1.284035448357457199e+00
8.609835714101791382e+00 6.195603057742118835e+00 -1.285134081169957199e+00
8.584445089101791382e+00 6.286301299929618835e+00 -1.286232713982457199e+00
8.555758565664291382e+00 6.375412628054618835e+00 -1.287178758904332199e+00
9.501315206289291382e+00 6.028122588992118835e+00 -1.322289232537144699e+00
9.462374776601791382e+00 6.120896026492118835e+00 -1.322106127068394699e+00
9.413912862539291382e+00 6.209885284304618835e+00 -1.320854906365269699e+00
9.353732198476791382e+00 6.294357940554618835e+00 -1.318291429802769699e+00
9.294039815664291382e+00 6.378098174929618835e+00 -1.315743212029332199e+00
9.263033956289291382e+00 6.473557159304618835e+00 -1.316445116326207199e+00
9.239718526601791382e+00 6.572922393679618835e+00 -1.318047289177769699e+00
9.225070089101791382e+00 6.676193878054618835e+00 -1.320626024529332199e+00
1.022885426878929138e+01 6.295700713992118835e+00 -1.353340868279332199e+00
1.021896657347679138e+01 6.407761260867118835e+00 -1.356316332146519699e+00
1.020346364378929138e+01 6.518356963992118835e+00 -1.358971361443394699e+00
1.015487965941429138e+01 6.616623565554618835e+00 -1.358101610466832199e+00
1.009628590941429138e+01 6.710129424929618835e+00 -1.356133226677769699e+00
1.003793630003929138e+01 6.803391143679618835e+00 -1.354180101677769699e+00
9.979586690664291382e+00 6.896530792117118835e+00 -1.352211717888707199e+00
9.917208760976791382e+00 6.987106963992118835e+00 -1.350060228630894699e+00
1.117929372191429138e+01 6.645310088992118835e+00 -1.399620775505894699e+00
1.112167653441429138e+01 6.750046417117118835e+00 -1.398232225701207199e+00
1.106418141722679138e+01 6.854538604617118835e+00 -1.396828417107457199e+00
1.100668630003929138e+01 6.959152862429618835e+00 -1.395424608513707199e+00
1.095334157347679138e+01 7.064743682742118835e+00 -1.394432787224644699e+00
1.090317067503929138e+01 7.171555206179618835e+00 -1.393761400505894699e+00
1.085287770628929138e+01 7.278488799929618835e+00 -1.393090013787144699e+00
1.080282887816429138e+01 7.385056182742118835e+00 -1.392418627068394699e+00
1.227426442503929138e+01 7.048142120242118835e+00 -1.450844530388707199e+00
1.219967946410179138e+01 7.158859893679618835e+00 -1.448265795037144699e+00
1.213730153441429138e+01 7.273728057742118835e+00 -1.446541551873082199e+00
1.208920583128929138e+01 7.394577667117118835e+00 -1.446556810662144699e+00
1.204123219847679138e+01 7.514938995242118835e+00 -1.446556810662144699e+00
1.198141774535179138e+01 7.630295440554618835e+00 -1.445397142693394699e+00
1.191183766722679138e+01 7.741745635867118835e+00 -1.443596605584019699e+00
1.184836110472679138e+01 7.854782745242118835e+00 -1.442040209099644699e+00
1.318381032347679138e+01 7.382736846804618835e+00 -1.473946337029332199e+00
1.316427907347679138e+01 7.524582549929618835e+00 -1.476906542107457199e+00
1.309762868285179138e+01 7.648850128054618835e+00 -1.475533251091832199e+00
1.309457692503929138e+01 7.798874542117118835e+00 -1.480065111443394699e+00
1.309140309691429138e+01 7.949509307742118835e+00 -1.484627489373082199e+00
1.308835133910179138e+01 8.101364776492118835e+00 -1.489205126091832199e+00
1.304269704222679138e+01 8.236252471804618835e+00 -1.489861254021519699e+00
1.294101247191429138e+01 8.345749542117118835e+00 -1.485207323357457199e+00
1.318417653441429138e+01 7.382980987429618835e+00 -1.409508470818394699e+00
1.555258473753929138e+01 8.430222198367118835e+00 -1.620537523552769699e+00
1.652121266722679138e+01 8.986130401492118835e+00 -1.710686449334019699e+00
1.492929372191429138e+01 8.536789581179618835e+00 -1.576515917107457199e+00
1.440597829222679138e+01 8.493454620242118835e+00 -1.535561327263707199e+00
1.426132497191429138e+01 8.600510284304618835e+00 -1.527825121209019699e+00
1.421908864378929138e+01 8.750778838992118835e+00 -1.529152635857457199e+00
1.417697438597679138e+01 8.900925323367118835e+00 -1.530480150505894699e+00
1.318466481566429138e+01 7.383347198367118835e+00 -1.344780687615269699e+00
1.690573415160179138e+01 8.943283721804618835e+00 -1.655052904412144699e+00
1.676889333128929138e+01 9.082932159304618835e+00 -1.649239305779332199e+00
1.517245778441429138e+01 8.634567901492118835e+00 -1.522392992302769699e+00
1.508090505003929138e+01 8.772751495242118835e+00 -1.519753221794957199e+00
1.551364430785179138e+01 9.133347198367118835e+00 -1.560921434685582199e+00
1.588571462035179138e+01 9.479660674929618835e+00 -1.597359422966832199e+00
1.576449880003929138e+01 9.614182159304618835e+00 -1.592507128044957199e+00
1.318503102660179138e+01 7.383591338992118835e+00 -1.280419115349644699e+00
2.035715016722679138e+01 1.025199954211711884e+01 -1.838921312615269699e+00
2.033346852660179138e+01 1.047526614367961884e+01 -1.843270067498082199e+00
1.517428883910179138e+01 8.635300323367118835e+00 -1.447487596794957199e+00
1.508249196410179138e+01 8.773361846804618835e+00 -1.444985155388707199e+00
1.551315602660179138e+01 9.132980987429618835e+00 -1.483513597771519699e+00
1.604916676878929138e+01 9.550949737429618835e+00 -1.530678514763707199e+00
2.133273610472679138e+01 1.211650149524211884e+01 -1.954155687615269699e+00
1.318539723753929138e+01 7.383835479617118835e+00 -1.215767626091832199e+00
3.114120778441429138e+01 1.434098879992961884e+01 -2.518868212029332199e+00
2.548569020628929138e+01 1.248783938586711884e+01 -2.117516283318394699e+00
1.517624196410179138e+01 8.636032745242118835e+00 -1.372612718865269699e+00
1.508420094847679138e+01 8.773850128054618835e+00 -1.370247606560582199e+00
1.551266774535179138e+01 9.132614776492118835e+00 -1.406151537224644699e+00
1.604843434691429138e+01 9.550461456179618835e+00 -1.449852709099644699e+00
2.224667653441429138e+01 1.252677981555461884e+01 -1.913979296013707199e+00
1.318588551878929138e+01 7.384201690554618835e+00 -1.151497606560582199e+00
2.622067555785179138e+01 1.247551028430461884e+01 -2.034065965935582199e+00
2.556418141722679138e+01 1.251860110461711884e+01 -1.996559862419957199e+00
1.517807301878929138e+01 8.636765167117118835e+00 -1.297371629998082199e+00
1.508578786253929138e+01 8.774460479617118835e+00 -1.295159105584019699e+00
1.551230153441429138e+01 9.132248565554618835e+00 -1.328453783318394699e+00
1.604770192503929138e+01 9.549973174929618835e+00 -1.369530443474644699e+00
4.309360036253929138e+01 2.189469973742961884e+01 -3.241997484490269699e+00
1.318625172972679138e+01 7.384445831179618835e+00 -1.086937670037144699e+00
2.605600270628929138e+01 1.241325442492961884e+01 -1.895165209099644699e+00
2.600339040160179138e+01 1.269023196399211884e+01 -1.898232225701207199e+00
1.517990407347679138e+01 8.637497588992118835e+00 -1.222573046013707199e+00
1.508737477660179138e+01 8.775070831179618835e+00 -1.220497850701207199e+00
1.551181325316429138e+01 9.131882354617118835e+00 -1.251213793084019699e+00
1.604709157347679138e+01 9.549362823367118835e+00 -1.289284471794957199e+00
4.309738454222679138e+01 2.189555422961711884e+01 -3.024224046990269699e+00
1.318661794066429138e+01 7.384812042117118835e+00 -1.022759203240269699e+00
6.392343434691429138e+01 2.677165286242961884e+01 -3.947396044060582199e+00
2.577548512816429138e+01 1.260124270617961884e+01 -1.756401781365269699e+00
1.518173512816429138e+01 8.638230010867118835e+00 -1.147408251091832199e+00
1.508908376097679138e+01 8.775681182742118835e+00 -1.145470384880894699e+00
1.551132497191429138e+01 9.131516143679618835e+00 -1.173638109490269699e+00
1.604635915160179138e+01 9.548874542117118835e+00 -1.208672289177769699e+00
4.310116872191429138e+01 2.189653079211711884e+01 -2.807717088982457199e+00
1.318710622191429138e+01 7.385056182742118835e+00 -9.582755606621446987e-01
5.057052907347679138e+01 2.170890872180461884e+01 -2.930458788201207199e+00
2.578293141722679138e+01 1.260429446399211884e+01 -1.630043749138707199e+00
1.518356618285179138e+01 8.638840362429618835e+00 -1.072685961052769699e+00
1.509067067503929138e+01 8.776291534304618835e+00 -1.070885423943394699e+00
1.551083669066429138e+01 9.131149932742118835e+00 -1.096535448357457199e+00
1.604562672972679138e+01 9.548264190554618835e+00 -1.128548387810582199e+00
4.290512380003929138e+01 2.180754153430461884e+01 -2.579415087029332199e+00
1.318747243285179138e+01 7.385300323367118835e+00 -8.941733878105821987e-01
2.583066090941429138e+01 1.232829348742961884e+01 -1.500191454216832199e+00
4.535458669066429138e+01 2.024943606555461884e+01 -2.440666918084019699e+00
1.518539723753929138e+01 8.639572784304618835e+00 -9.975974600762071987e-01
1.509237965941429138e+01 8.776901885867118835e+00 -9.959495108574571987e-01
1.551047047972679138e+01 9.130905792117118835e+00 -1.019066576287144699e+00
1.604501637816429138e+01 9.547775909304618835e+00 -1.048058275505894699e+00
4.310995778441429138e+01 2.189872805774211884e+01 -2.373986009880894699e+00
1.318783864378929138e+01 7.385666534304618835e+00 -8.297812979668321987e-01
5.102487477660179138e+01 2.188188235461711884e+01 -2.451790575310582199e+00
2.585824880003929138e+01 1.263383547961711884e+01 -1.379296068474644699e+00
1.518722829222679138e+01 8.640305206179618835e+00 -9.229362051933946987e-01
1.509396657347679138e+01 8.777390167117118835e+00 -9.214408438652696987e-01
1.550998219847679138e+01 9.130539581179618835e+00 -9.420859854668321987e-01
1.604428395628929138e+01 9.547165557742118835e+00 -9.676444571465196987e-01
4.311630544066429138e+01 2.190080325305461884e+01 -2.156792406365269699e+00
5.058932790160179138e+01 2.114421145617961884e+01 -2.176979784294957199e+00
5.097384938597679138e+01 2.186283938586711884e+01 -2.200157884880894699e+00
4.562668141722679138e+01 2.035600344836711884e+01 -2.004067186638707199e+00
1.521310719847679138e+01 8.650681182742118835e+00 -8.488395255058946987e-01
1.512741383910179138e+01 8.791184112429618835e+00 -8.478019278496446987e-01
1.557004079222679138e+01 9.155930206179618835e+00 -8.670737784355821987e-01
1.608908376097679138e+01 9.566574737429618835e+00 -8.894736807793321987e-01
4.313156422972679138e+01 2.190678469836711884e+01 -1.940056566521519699e+00
7.086886495351791382e+00 5.715744659304618835e+00 -1.218651537224644699e+00
7.065646260976791382e+00 5.790817901492118835e+00 -1.219734911248082199e+00
7.042452901601791382e+00 5.865280792117118835e+00 -1.220726732537144699e+00
7.019015401601791382e+00 5.940231963992118835e+00 -1.221718553826207199e+00
6.995577901601791382e+00 6.015183135867118835e+00 -1.222725633904332199e+00
6.970919698476791382e+00 6.089890167117118835e+00 -1.223564867302769699e+00
6.939181417226791382e+00 6.161179229617118835e+00 -1.223442796990269699e+00
6.905367940664291382e+00 6.231247588992118835e+00 -1.223213915154332199e+00
7.494113057851791382e+00 5.898728057742118835e+00 -1.235695604607457199e+00
7.467990010976791382e+00 5.976486846804618835e+00 -1.236473802849644699e+00
7.444308370351791382e+00 6.055588409304618835e+00 -1.237374071404332199e+00
7.419772237539291382e+00 6.134934112429618835e+00 -1.238411669060582199e+00
7.395724385976791382e+00 6.214523956179618835e+00 -1.239495043084019699e+00
7.371554464101791382e+00 6.294357940554618835e+00 -1.240578417107457199e+00
7.344943135976791382e+00 6.373581573367118835e+00 -1.241585497185582199e+00
7.318087667226791382e+00 6.452561065554618835e+00 -1.242348436638707199e+00
7.990939229726791382e+00 6.121994659304618835e+00 -1.259789232537144699e+00
7.963839620351791382e+00 6.205246612429618835e+00 -1.260658983513707199e+00
7.936617940664291382e+00 6.288742706179618835e+00 -1.261528734490269699e+00
7.909274190664291382e+00 6.372849151492118835e+00 -1.262398485466832199e+00
7.881930440664291382e+00 6.456833526492118835e+00 -1.263283495232457199e+00
7.854464620351791382e+00 6.541062042117118835e+00 -1.264168504998082199e+00
7.835177510976791382e+00 6.630173370242118835e+00 -1.266121629998082199e+00
7.816256612539291382e+00 6.719650909304618835e+00 -1.268120531365269699e+00
8.555514425039291382e+00 6.375656768679618835e+00 -1.287163500115269699e+00
8.530612081289291382e+00 6.466721221804618835e+00 -1.288307909294957199e+00
8.503756612539291382e+00 6.557297393679618835e+00 -1.289452318474644699e+00
8.485323995351791382e+00 6.652634307742118835e+00 -1.291649584099644699e+00
8.466891378164291382e+00 6.748215362429618835e+00 -1.293862108513707199e+00
8.448458760976791382e+00 6.844284698367118835e+00 -1.296089891716832199e+00
8.429659932851791382e+00 6.941330596804618835e+00 -1.298332933709019699e+00
8.407565206289291382e+00 7.036667510867118835e+00 -1.300392870232457199e+00
9.224581807851791382e+00 6.676315948367118835e+00 -1.320580248162144699e+00
9.207003682851791382e+00 6.778855010867118835e+00 -1.323036913201207199e+00
9.180514425039291382e+00 6.877731963992118835e+00 -1.324486498162144699e+00
9.153903096914291382e+00 6.977463409304618835e+00 -1.325966600701207199e+00
9.127291768789291382e+00 7.077194854617118835e+00 -1.327431444451207199e+00
9.100558370351791382e+00 7.177414581179618835e+00 -1.328896288201207199e+00
9.073580831289291382e+00 7.278244659304618835e+00 -1.330391649529332199e+00
9.046603292226791382e+00 7.379196807742118835e+00 -1.331871752068394699e+00
9.916476339101791382e+00 6.987106963992118835e+00 -1.349983934685582199e+00
9.886202901601791382e+00 7.092087432742118835e+00 -1.350960497185582199e+00
9.859225362539291382e+00 7.199143096804618835e+00 -1.352577928826207199e+00
9.832125753164291382e+00 7.306931182742118835e+00 -1.354210619255894699e+00
9.804904073476791382e+00 7.414841338992118835e+00 -1.355858568474644699e+00
9.777682393789291382e+00 7.523117706179618835e+00 -1.357491258904332199e+00
9.741183370351791382e+00 7.627609893679618835e+00 -1.358147386834019699e+00
9.698947042226791382e+00 7.728928253054618835e+00 -1.358406786248082199e+00
1.080197438597679138e+01 7.385056182742118835e+00 -1.392357591912144699e+00
1.074948415160179138e+01 7.490402862429618835e+00 -1.391548876091832199e+00
1.069003590941429138e+01 7.592453643679618835e+00 -1.390038255974644699e+00
1.062326344847679138e+01 7.691208526492118835e+00 -1.387734178826207199e+00
1.057297047972679138e+01 7.797409698367118835e+00 -1.387169603630894699e+00
1.052719411253929138e+01 7.905808135867118835e+00 -1.387078050896519699e+00
1.048117360472679138e+01 8.014816924929618835e+00 -1.386986498162144699e+00
1.043600758910179138e+01 8.123947784304618835e+00 -1.386986498162144699e+00
1.184762868285179138e+01 7.855026885867118835e+00 -1.441979173943394699e+00
1.178244313597679138e+01 7.967087432742118835e+00 -1.440361742302769699e+00
1.172287282347679138e+01 8.081467315554618835e+00 -1.438957933709019699e+00
1.165756520628929138e+01 8.193649932742118835e+00 -1.437340502068394699e+00
1.159262380003929138e+01 8.305344268679618835e+00 -1.435707811638707199e+00
1.152780446410179138e+01 8.416794463992118835e+00 -1.434090379998082199e+00
1.145749196410179138e+01 8.525803253054618835e+00 -1.432244066521519699e+00
1.139279469847679138e+01 8.636887237429618835e+00 -1.430626634880894699e+00
1.294015797972679138e+01 8.345871612429618835e+00 -1.485131029412144699e+00
1.283786305785179138e+01 8.453903838992118835e+00 -1.480461839959019699e+00
1.273874196410179138e+01 8.562546417117118835e+00 -1.476052049919957199e+00
1.265500172972679138e+01 8.678147003054618835e+00 -1.473107103630894699e+00
1.257187184691429138e+01 8.793015167117118835e+00 -1.470177416130894699e+00
1.248886403441429138e+01 8.907517120242118835e+00 -1.467262987419957199e+00
1.241513356566429138e+01 9.026779815554618835e+00 -1.465218309685582199e+00
1.235275563597679138e+01 9.151413604617118835e+00 -1.464257005974644699e+00
1.417636403441429138e+01 8.901291534304618835e+00 -1.530449632927769699e+00
1.413351735472679138e+01 9.051682159304618835e+00 -1.531761888787144699e+00
1.408774098753929138e+01 9.201218292117118835e+00 -1.532814745232457199e+00
1.398752126097679138e+01 9.325485870242118835e+00 -1.528984789177769699e+00
1.388803395628929138e+01 9.448776885867118835e+00 -1.525185350701207199e+00
1.379294118285179138e+01 9.573410674929618835e+00 -1.521752123162144699e+00
1.371286305785179138e+01 9.705979034304618835e+00 -1.519707445427769699e+00
1.363327321410179138e+01 9.837814971804618835e+00 -1.517678026482457199e+00
1.576376637816429138e+01 9.614548370242118835e+00 -1.592461351677769699e+00
1.569674977660179138e+01 9.772751495242118835e+00 -1.592140917107457199e+00
1.562961110472679138e+01 9.931198760867118835e+00 -1.591805223748082199e+00
1.556222829222679138e+01 1.009037844836711884e+01 -1.591469530388707199e+00
1.549496755003929138e+01 1.024919192492961884e+01 -1.591149095818394699e+00
1.542135915160179138e+01 1.040495364367961884e+01 -1.590279344841832199e+00
1.533029469847679138e+01 1.055229251086711884e+01 -1.587929491326207199e+00
1.523984059691429138e+01 1.069889895617961884e+01 -1.585594896599644699e+00
2.133395680785179138e+01 1.211784426867961884e+01 -1.954277757927769699e+00
1.723459157347679138e+01 1.048210208117961884e+01 -1.635063890740269699e+00
1.716781911253929138e+01 1.065934817492961884e+01 -1.635201219841832199e+00
1.707406911253929138e+01 1.082463137805461884e+01 -1.633217577263707199e+00
1.698092946410179138e+01 1.098918215930461884e+01 -1.631249193474644699e+00
1.693295583128929138e+01 1.117668215930461884e+01 -1.632927660271519699e+00
1.691012868285179138e+01 1.137883059680461884e+01 -1.636681322380894699e+00
1.686984547972679138e+01 1.157255618274211884e+01 -1.639046434685582199e+00
2.224606618285179138e+01 1.252739016711711884e+01 -1.913964037224644699e+00
1.794089040160179138e+01 1.080766360461711884e+01 -1.600075487419957199e+00
1.782284840941429138e+01 1.096916262805461884e+01 -1.596993212029332199e+00
1.837863454222679138e+01 1.145805422961711884e+01 -1.643975023552769699e+00
2.000607594847679138e+01 1.249626223742961884e+01 -1.772057298943394699e+00
1.891513356566429138e+01 1.218864504992961884e+01 -1.695580248162144699e+00
1.883212575316429138e+01 1.238444583117961884e+01 -1.694542650505894699e+00
1.873300465941429138e+01 1.257096926867961884e+01 -1.692772630974644699e+00
2.452109059691429138e+01 1.354948489367961884e+01 -1.959236864373082199e+00
1.794259938597679138e+01 1.080815188586711884e+01 -1.509606127068394699e+00
1.782431325316429138e+01 1.096940676867961884e+01 -1.506188158318394699e+00
1.837692555785179138e+01 1.145658938586711884e+01 -1.549629930779332199e+00
2.400912770628929138e+01 1.449040286242961884e+01 -1.949761156365269699e+00
2.064242848753929138e+01 1.307023684680461884e+01 -1.719292406365269699e+00
2.048971852660179138e+01 1.325138919055461884e+01 -1.714257005974644699e+00
2.108871755003929138e+01 1.383342044055461884e+01 -1.762551073357457199e+00
4.309457692503929138e+01 2.189604251086711884e+01 -3.024086717888707199e+00
1.794443044066429138e+01 1.080851809680461884e+01 -1.419182543084019699e+00
1.782577809691429138e+01 1.096952883899211884e+01 -1.415901903435582199e+00
1.837521657347679138e+01 1.145524661242961884e+01 -1.455879930779332199e+00
2.504623708128929138e+01 1.500627200305461884e+01 -1.894127611443394699e+00
2.064389333128929138e+01 1.307011477649211884e+01 -1.613106493279332199e+00
2.049081715941429138e+01 1.325090090930461884e+01 -1.608315233513707199e+00
2.108566579222679138e+01 1.383073489367961884e+01 -1.652092699334019699e+00
4.303842458128929138e+01 2.187004153430461884e+01 -2.804054979607457199e+00
1.794613942503929138e+01 1.080888430774211884e+01 -1.328331713005894699e+00
1.782736501097679138e+01 1.096977297961711884e+01 -1.325188402459019699e+00
1.837350758910179138e+01 1.145378176867961884e+01 -1.361702684685582199e+00
2.499362477660179138e+01 1.497917239367961884e+01 -1.762001756951207199e+00
2.064535817503929138e+01 1.306999270617961884e+01 -1.506417040154332199e+00
2.049191579222679138e+01 1.325053469836711884e+01 -1.501869921013707199e+00
2.108273610472679138e+01 1.382792727649211884e+01 -1.542336229607457199e+00
4.290414723753929138e+01 2.180888430774211884e+01 -2.579384569451207199e+00
1.794784840941429138e+01 1.080925051867961884e+01 -1.238014940544957199e+00
1.782882985472679138e+01 1.097001712024211884e+01 -1.235024217888707199e+00
1.837179860472679138e+01 1.145231692492961884e+01 -1.268120531365269699e+00
2.611276540160179138e+01 1.553581301867961884e+01 -1.695320848748082199e+00
2.064682301878929138e+01 1.306987063586711884e+01 -1.400368456169957199e+00
2.049301442503929138e+01 1.325016848742961884e+01 -1.396065477654332199e+00
2.107968434691429138e+01 1.382524172961711884e+01 -1.432106737419957199e+00
4.310715016722679138e+01 2.189921633899211884e+01 -2.373879198357457199e+00
1.794967946410179138e+01 1.080961672961711884e+01 -1.147255663201207199e+00
1.783029469847679138e+01 1.097013919055461884e+01 -1.144417528435582199e+00
1.837008962035179138e+01 1.145085208117961884e+01 -1.174126390740269699e+00
2.518930348753929138e+01 1.507475344836711884e+01 -1.515267137810582199e+00
2.064828786253929138e+01 1.306962649524211884e+01 -1.293816332146519699e+00
2.049411305785179138e+01 1.324968020617961884e+01 -1.289757494255894699e+00
2.107663258910179138e+01 1.382255618274211884e+01 -1.322579149529332199e+00
4.311361989378929138e+01 2.190129153430461884e+01 -2.156716112419957199e+00
1.795138844847679138e+01 1.080998294055461884e+01 -1.056557421013707199e+00
1.783175954222679138e+01 1.097038333117961884e+01 -1.054344896599644699e+00
1.836838063597679138e+01 1.144950930774211884e+01 -1.080727342888707199e+00
