9.034977227449417114e+00 4.530143514275550842e+00 -8.241873629391136546e-01
9.013859063386917114e+00 4.615836873650550842e+00 -8.252249605953636546e-01
9.205997735261917114e+00 4.750358358025550842e+00 -8.395224459469261546e-01
3.364911296963691711e+01 7.974357381463050842e+00 -2.143874252587551155e+00
4.615253093838691711e+01 1.041771675646305084e+01 -2.853423202782863655e+00
2.473175457119941711e+01 7.064201131463050842e+00 -1.660048568993801155e+00
9.139835625886917114e+00 4.371574178338050842e+00 -7.851096041500511546e-01
9.087833672761917114e+00 4.451652303338050842e+00 -7.844229586422386546e-01
9.036320000886917114e+00 4.530998006463050842e+00 -7.837363131344261546e-01
9.015201836824417114e+00 4.616691365838050842e+00 -7.847891695797386546e-01
9.207218438386917114e+00 4.751090779900550842e+00 -7.978812105953636546e-01
3.364947918057441711e+01 7.977164998650550842e+00 -1.989379013329738655e+00
4.611432293057441711e+01 1.041490913927555084e+01 -2.637297714501613655e+00
9.141178399324417114e+00 4.372428670525550842e+00 -7.441397555172386546e-01
9.089298516511917114e+00 4.452506795525550842e+00 -7.436209566891136546e-01
9.037662774324417114e+00 4.531852498650550842e+00 -7.430868990719261546e-01
9.016544610261917114e+00 4.617545858025550842e+00 -7.441550143063011546e-01
9.208439141511917114e+00 4.751945272088050842e+00 -7.564688570797386546e-01
3.364972332119941711e+01 7.979850545525550842e+00 -1.834166610985988655e+00
4.749103191494941711e+01 1.065026070177555084e+01 -2.488829696923488655e+00
4.963617351651191711e+01 1.151671577990055084e+01 -2.600691879540676155e+00
9.142521172761917114e+00 4.373283162713050842e+00 -7.033987887203636546e-01
9.090641289949417114e+00 4.453361287713050842e+00 -7.030325777828636546e-01
9.039127618074417114e+00 4.532706990838050842e+00 -7.026816256344261546e-01
9.017887383699417114e+00 4.618278279900550842e+00 -7.037649996578636546e-01
9.209659844636917114e+00 4.752677693963050842e+00 -7.148581393063011546e-01
3.365008953213691711e+01 7.982658162713050842e+00 -1.679884994775051155e+00
4.737494304776191711e+01 1.063439156115055084e+01 -2.263808334618801155e+00
4.890033367276191711e+01 1.138890816271305084e+01 -2.339003647118801155e+00
9.143986016511917114e+00 4.374259725213050842e+00 -6.624441988766136546e-01
9.091984063386917114e+00 4.454215779900550842e+00 -6.622458346188011546e-01
9.040470391511917114e+00 4.533561483025550842e+00 -6.620627291500511546e-01
9.019230157136917114e+00 4.619132772088050842e+00 -6.631613619625511546e-01
9.210880547761917114e+00 4.753532186150550842e+00 -6.734915621578636546e-01
1.715900066494941711e+01 5.374625936150550842e+00 -9.130392916500511546e-01
4.725946453213691711e+01 1.061864449083805084e+01 -2.040053451806301155e+00
9.145328789949417114e+00 4.375114217400550842e+00 -6.217337496578636546e-01
9.093448907136917114e+00 4.455070272088050842e+00 -6.217032320797386546e-01
9.041935235261917114e+00 4.534415975213050842e+00 -6.216727145016136546e-01
9.020695000886917114e+00 4.619987264275550842e+00 -6.225729830563011546e-01
9.212711602449417114e+00 4.754386678338050842e+00 -6.319418795406761546e-01
3.366644695401191711e+01 7.990714803338050842e+00 -1.370467270165676155e+00
4.836566570401191711e+01 1.080883003771305084e+01 -1.858595932275051155e+00
4.467718914151191711e+01 1.064086128771305084e+01 -1.747435653954738655e+00
2.500055339932441711e+01 7.375358358025550842e+00 -1.105574692040676155e+00
9.127018243074417114e+00 4.462394490838050842e+00 -5.820151217281761546e-01
9.074894219636917114e+00 4.541862264275550842e+00 -5.821371920406761546e-01
9.083927422761917114e+00 4.634513631463050842e+00 -5.843039400875511546e-01
9.310245782136917114e+00 4.777457967400550842e+00 -5.936423189938011546e-01
7.886905938386917114e+00 4.440910115838050842e+00 -1.219435776025051155e+00
7.866886407136917114e+00 4.515128865838050842e+00 -1.219954574853176155e+00
7.844913750886917114e+00 4.588859334588050842e+00 -1.220412338525051155e+00
7.822819024324417114e+00 4.662833943963050842e+00 -1.220854843407863655e+00
7.800724297761917114e+00 4.736564412713050842e+00 -1.221312607079738655e+00
7.778751641511917114e+00 4.810172811150550842e+00 -1.221755111962551155e+00
7.756656914949417114e+00 4.883903279900550842e+00 -1.222212875634426155e+00
7.732609063386917114e+00 4.956901326775550842e+00 -1.222579086571926155e+00
8.381046563386917114e+00 4.554923787713050842e+00 -1.242598617821926155e+00
8.348820000886917114e+00 4.631339803338050842e+00 -1.242034042626613655e+00
8.319889336824417114e+00 4.708488240838050842e+00 -1.241667831689113655e+00
8.287662774324417114e+00 4.784904256463050842e+00 -1.241118515282863655e+00
8.255680352449417114e+00 4.860831990838050842e+00 -1.240569198876613655e+00
8.223820000886917114e+00 4.936515584588050842e+00 -1.240019882470363655e+00
8.188663750886917114e+00 5.011344686150550842e+00 -1.239287460595363655e+00
8.157047539949417114e+00 5.086539998650550842e+00 -1.238738144189113655e+00
9.043400079011917114e+00 4.707633748650550842e+00 -1.280318344384426155e+00
9.007511407136917114e+00 4.790153279900550842e+00 -1.279662216454738655e+00
8.971744805574417114e+00 4.872550740838050842e+00 -1.279006088525051155e+00
8.935978204011917114e+00 4.954948201775550842e+00 -1.278349960595363655e+00
8.900455743074417114e+00 5.036857381463050842e+00 -1.277709091454738655e+00
8.865055352449417114e+00 5.118400350213050842e+00 -1.277052963525051155e+00
8.829532891511917114e+00 5.200065389275550842e+00 -1.276412094384426155e+00
8.794376641511917114e+00 5.281242147088050842e+00 -1.275771225243801155e+00
9.195255547761917114e+00 4.743034139275550842e+00 -1.255950058251613655e+00
9.421940118074417114e+00 4.890373006463050842e+00 -1.284087265282863655e+00
9.511783868074417114e+00 5.008537068963050842e+00 -1.297545517235988655e+00
9.486881524324417114e+00 5.099601522088050842e+00 -1.298354233056301155e+00
9.461979180574417114e+00 5.190177693963050842e+00 -1.299178207665676155e+00
9.437076836824417114e+00 5.280875936150550842e+00 -1.299986923485988655e+00
9.412052422761917114e+00 5.371818318963050842e+00 -1.300795639306301155e+00
9.378116875886917114e+00 5.459586873650550842e+00 -1.300826156884426155e+00
9.196476250886917114e+00 4.743766561150550842e+00 -1.214125717431301155e+00
9.423160821199417114e+00 4.891105428338050842e+00 -1.241301620751613655e+00
9.663151055574417114e+00 5.047111287713050842e+00 -1.270079696923488655e+00
9.918522149324417114e+00 5.213004842400550842e+00 -1.300688827782863655e+00
1.000958660244941711e+01 5.339835897088050842e+00 -1.314025009423488655e+00
9.978824883699417114e+00 5.434684529900550842e+00 -1.314421737939113655e+00
9.943302422761917114e+00 5.528434529900550842e+00 -1.314330185204738655e+00
9.922916680574417114e+00 5.626212850213050842e+00 -1.315825546532863655e+00
9.197696954011917114e+00 4.744621053338050842e+00 -1.172545517235988655e+00
9.424381524324417114e+00 4.891959920525550842e+00 -1.198302353173488655e+00
9.664371758699417114e+00 5.047843709588050842e+00 -1.225813949853176155e+00
9.919620782136917114e+00 5.213737264275550842e+00 -1.255080307275051155e+00
1.019000652432441711e+01 5.389518514275550842e+00 -1.286070907860988655e+00
1.426727703213691711e+01 6.650382772088050842e+00 -1.705687607079738655e+00
1.198956707119941711e+01 6.130973592400550842e+00 -1.477629745751613655e+00
1.173712566494941711e+01 6.180045858025550842e+00 -1.456313217431301155e+00
9.198917657136917114e+00 4.745353475213050842e+00 -1.130766952782863655e+00
9.425602227449417114e+00 4.892692342400550842e+00 -1.155547226220363655e+00
9.665470391511917114e+00 5.048576131463050842e+00 -1.181792343407863655e+00
9.920841485261917114e+00 5.214591756463050842e+00 -1.209715927392238655e+00
1.019122722744941711e+01 5.390250936150550842e+00 -1.239287460595363655e+00
1.441241863369941711e+01 6.692130818963050842e+00 -1.653166855126613655e+00
1.433588054776191711e+01 6.821891561150550842e+00 -1.650771225243801155e+00
1.426019695401191711e+01 6.950553670525550842e+00 -1.648375595360988655e+00
9.200138360261917114e+00 4.746207967400550842e+00 -1.089217270165676155e+00
9.426822930574417114e+00 4.893424764275550842e+00 -1.112822616845363655e+00
9.666691094636917114e+00 5.049430623650550842e+00 -1.137572372704738655e+00
9.922062188386917114e+00 5.215324178338050842e+00 -1.164137924462551155e+00
1.019232586026191711e+01 5.390983358025550842e+00 -1.192290390282863655e+00
1.456122234463691711e+01 6.734855428338050842e+00 -1.599303329735988655e+00
1.448273113369941711e+01 6.865592733025550842e+00 -1.597304428368801155e+00
1.440582683682441711e+01 6.995475545525550842e+00 -1.595046127587551155e+00
9.201481133699417114e+00 4.747062459588050842e+00 -1.047469223290676155e+00
9.428043633699417114e+00 4.894279256463050842e+00 -1.069869125634426155e+00
9.667911797761917114e+00 5.050163045525550842e+00 -1.093596542626613655e+00
9.923160821199417114e+00 5.216056600213050842e+00 -1.118834579735988655e+00
1.019354656338691711e+01 5.391715779900550842e+00 -1.145552719384426155e+00
1.471222332119941711e+01 6.778312459588050842e+00 -1.544600570946926155e+00
1.558453777432441711e+01 7.190421834588050842e+00 -1.626082504540676155e+00
1.574481609463691711e+01 7.404655233025550842e+00 -1.645323837548488655e+00
9.202701836824417114e+00 4.747794881463050842e+00 -1.005950058251613655e+00
9.429264336824417114e+00 4.895011678338050842e+00 -1.027175033837551155e+00
9.669132500886917114e+00 5.050895467400550842e+00 -1.049635971337551155e+00
9.924381524324417114e+00 5.216789022088050842e+00 -1.073531235009426155e+00
1.019464519619941711e+01 5.392448201775550842e+00 -1.098845566064113655e+00
1.570795086026191711e+01 7.061149373650550842e+00 -1.558440292626613655e+00
1.589984539151191711e+01 7.283927693963050842e+00 -1.579314316064113655e+00
1.593890789151191711e+01 7.464469686150550842e+00 -1.587554062157863655e+00
9.203922539949417114e+00 4.748649373650550842e+00 -9.642325289547386546e-01
9.430485039949417114e+00 4.895866170525550842e+00 -9.842673189938011546e-01
9.670353204011917114e+00 5.051749959588050842e+00 -1.005461777001613655e+00
9.925602227449417114e+00 5.217643514275550842e+00 -1.028014267235988655e+00
1.019586589932441711e+01 5.393302693963050842e+00 -1.051894272118801155e+00
1.665228679776191711e+01 7.329581990838050842e+00 -1.558363998681301155e+00
1.668158367276191711e+01 7.514640584588050842e+00 -1.565672958642238655e+00
1.679108074307441711e+01 7.725089803338050842e+00 -1.579283798485988655e+00
9.205143243074417114e+00 4.749381795525550842e+00 -9.227591402828636546e-01
9.431705743074417114e+00 4.896598592400550842e+00 -9.415884859859886546e-01
9.671573907136917114e+00 5.052482381463050842e+00 -9.615317232906761546e-01
9.926700860261917114e+00 5.218375936150550842e+00 -9.827566988766136546e-01
1.019696453213691711e+01 5.394035115838050842e+00 -1.005232895165676155e+00
4.866022136807441711e+01 1.640880562365055084e+01 -3.823241318017238655e+00
4.858331707119941711e+01 1.690990425646305084e+01 -3.831832016259426155e+00
3.517645671963691711e+01 1.333983589708805084e+01 -2.856886947900051155e+00
9.206363946199417114e+00 4.750236287713050842e+00 -8.810721285641136546e-01
9.432926446199417114e+00 4.897453084588050842e+00 -8.987265475094261546e-01
9.672672539949417114e+00 5.053336873650550842e+00 -9.176321871578636546e-01
9.927921563386917114e+00 5.219108358025550842e+00 -9.375296480953636546e-01
1.019818523526191711e+01 5.394767537713050842e+00 -9.585867770016136546e-01
4.866498211026191711e+01 1.641210152208805084e+01 -3.592635238915676155e+00
5.343414714932441711e+01 1.834032417833805084e+01 -3.932463730126613655e+00
3.517853191494941711e+01 1.334166695177555084e+01 -2.688826645165676155e+00
9.207584649324417114e+00 4.750968709588050842e+00 -8.396292574703636546e-01
9.434147149324417114e+00 4.898185506463050842e+00 -8.560934908688011546e-01
9.673893243074417114e+00 5.054069295525550842e+00 -8.735190279781761546e-01
9.929142266511917114e+00 5.219962850213050842e+00 -8.920737154781761546e-01
1.019928386807441711e+01 5.395499959588050842e+00 -9.116965182125511546e-01
5.261090496182441711e+01 1.753356148302555084e+01 -3.611556137353176155e+00
5.153693035244941711e+01 1.778343941271305084e+01 -3.557005966454738655e+00
3.518060711026191711e+01 1.334349800646305084e+01 -2.521758163720363655e+00
9.208805352449417114e+00 4.751823201775550842e+00 -7.979727633297386546e-01
9.435367852449417114e+00 4.899039998650550842e+00 -8.134756930172386546e-01
9.675113946199417114e+00 5.054801717400550842e+00 -8.296500094234886546e-01
9.930240899324417114e+00 5.220695272088050842e+00 -8.468771822750511546e-01
1.020050457119941711e+01 5.396232381463050842e+00 -8.650961764156761546e-01
1.563934734463691711e+01 7.044791951775550842e+00 -1.187483871728176155e+00
5.339606121182441711e+01 1.833299995958805084e+01 -3.421797836571926155e+00
4.839386394619941711e+01 1.738085152208805084e+01 -3.137389267235988655e+00
9.210026055574417114e+00 4.752555623650550842e+00 -7.565604098141136546e-01
9.436466485261917114e+00 4.899772420525550842e+00 -7.706595309078636546e-01
9.676334649324417114e+00 5.055656209588050842e+00 -7.855826266109886546e-01
9.931461602449417114e+00 5.221427693963050842e+00 -8.014517672359886546e-01
1.020160320401191711e+01 5.396964803338050842e+00 -8.182516939938011546e-01
1.562176921963691711e+01 7.040519490838050842e+00 -1.113402450829738655e+00
5.630316570401191711e+01 1.919152046740055084e+01 -3.324431503564113655e+00
5.312640789151191711e+01 1.882811714708805084e+01 -3.164885605126613655e+00
9.211246758699417114e+00 4.753410115838050842e+00 -7.149496920406761546e-01
9.437687188386917114e+00 4.900504842400550842e+00 -7.280722506344261546e-01
9.677555352449417114e+00 5.056388631463050842e+00 -7.417441256344261546e-01
9.932682305574417114e+00 5.222160115838050842e+00 -7.563010104000511546e-01
1.020270183682441711e+01 5.397697225213050842e+00 -7.716971285641136546e-01
1.560443523526191711e+01 7.036124959588050842e+00 -1.039931381493801155e+00
6.257928875088691711e+01 2.104296089708805084e+01 -3.367430771142238655e+00
5.147577312588691711e+01 1.832555367052555084e+01 -2.828566635400051155e+00
9.212467461824417114e+00 4.754142537713050842e+00 -6.735678561031761546e-01
9.438907891511917114e+00 4.901359334588050842e+00 -6.852866061031761546e-01
9.678653985261917114e+00 5.057121053338050842e+00 -6.977072604000511546e-01
9.933780938386917114e+00 5.223014608025550842e+00 -7.109213717281761546e-01
1.020392253994941711e+01 5.398429647088050842e+00 -7.248984225094261546e-01
1.558697918057441711e+01 7.031852498650550842e+00 -9.662772066891136546e-01
6.200616863369941711e+01 2.087645699083805084e+01 -3.042922104150051155e+00
6.242828777432441711e+01 2.167394234240055084e+01 -3.075255478173488655e+00
9.214176446199417114e+00 4.755119100213050842e+00 -6.320029146969261546e-01
9.441105157136917114e+00 4.902335897088050842e+00 -6.425619967281761546e-01
9.681095391511917114e+00 5.058219686150550842e+00 -6.539603121578636546e-01
9.936588555574417114e+00 5.224113240838050842e+00 -6.658621676266136546e-01
1.020721843838691711e+01 5.399772420525550842e+00 -6.784659273922386546e-01
5.268011882901191711e+01 1.756383492052555084e+01 -2.365904892235988655e+00
6.193121746182441711e+01 2.085655952990055084e+01 -2.743987167626613655e+00
6.582281902432441711e+01 2.271337105333805084e+01 -2.912474716454738655e+00
9.311954766511917114e+00 4.778190389275550842e+00 -5.937033541500511546e-01
9.550358086824417114e+00 4.929191365838050842e+00 -6.037283785641136546e-01
9.805118829011917114e+00 5.089957967400550842e+00 -6.141653902828636546e-01
1.007696941494941711e+01 5.261466756463050842e+00 -6.253195650875511546e-01
1.526263836026191711e+01 6.781486287713050842e+00 -8.071127779781761546e-01
6.543085125088691711e+01 2.118663765490055084e+01 -2.560530746728176155e+00
6.598688152432441711e+01 2.205443550646305084e+01 -2.592467392235988655e+00
6.134747722744941711e+01 2.134777046740055084e+01 -2.439787948876613655e+00
7.732486993074417114e+00 4.957145467400550842e+00 -1.222579086571926155e+00
7.706974297761917114e+00 5.029533162713050842e+00 -1.222624862939113655e+00
7.674015313386917114e+00 5.099357381463050842e+00 -1.221892441064113655e+00
7.640934258699417114e+00 5.169425740838050842e+00 -1.221160019189113655e+00
7.608097344636917114e+00 5.239127889275550842e+00 -1.220442856103176155e+00
7.575260430574417114e+00 5.308585897088050842e+00 -1.219725693017238655e+00
7.542423516511917114e+00 5.378165975213050842e+00 -1.219008529931301155e+00
7.518131524324417114e+00 5.450431600213050842e+00 -1.219557846337551155e+00
8.156681329011917114e+00 5.086662068963050842e+00 -1.238707626610988655e+00
8.121525079011917114e+00 5.160758748650550842e+00 -1.237959945946926155e+00
8.093570977449417114e+00 5.236808553338050842e+00 -1.237868393212551155e+00
8.067570000886917114e+00 5.313956990838050842e+00 -1.238265121728176155e+00
8.035831719636917114e+00 5.388664022088050842e+00 -1.237914169579738655e+00
8.014835625886917114e+00 5.467277303338050842e+00 -1.238905990868801155e+00
7.991398125886917114e+00 5.545280233025550842e+00 -1.239791000634426155e+00
7.970402032136917114e+00 5.624015584588050842e+00 -1.240798080712551155e+00
8.794132500886917114e+00 5.281486287713050842e+00 -1.275755966454738655e+00
8.755436211824417114e+00 5.361320272088050842e+00 -1.274901474267238655e+00
8.710514336824417114e+00 5.438834920525550842e+00 -1.273314560204738655e+00
8.662052422761917114e+00 5.515250936150550842e+00 -1.271300400048488655e+00
8.614200860261917114e+00 5.590934529900550842e+00 -1.269316757470363655e+00
8.566471368074417114e+00 5.666373983025550842e+00 -1.267348373681301155e+00
8.518741875886917114e+00 5.741569295525550842e+00 -1.265379989892238655e+00
8.483951836824417114e+00 5.821037068963050842e+00 -1.264906967431301155e+00
9.377872735261917114e+00 5.459831014275550842e+00 -1.300810898095363655e+00
9.345524102449417114e+00 5.548087850213050842e+00 -1.300734604150051155e+00
9.310489922761917114e+00 5.635368123650550842e+00 -1.300597275048488655e+00
9.275455743074417114e+00 5.722892537713050842e+00 -1.300475204735988655e+00
9.240543633699417114e+00 5.810050740838050842e+00 -1.300337875634426155e+00
9.205631524324417114e+00 5.897086873650550842e+00 -1.300200546532863655e+00
9.170597344636917114e+00 5.984367147088050842e+00 -1.300063217431301155e+00
9.133243829011917114e+00 6.070182576775550842e+00 -1.299864853173488655e+00
9.922428399324417114e+00 5.626334920525550842e+00 -1.315779770165676155e+00
9.909000664949417114e+00 5.726554647088050842e+00 -1.318221176415676155e+00
9.895572930574417114e+00 5.827018514275550842e+00 -1.320677841454738655e+00
9.882023125886917114e+00 5.928336873650550842e+00 -1.323149765282863655e+00
9.868473321199417114e+00 6.029655233025550842e+00 -1.325621689110988655e+00
9.854801446199417114e+00 6.131461873650550842e+00 -1.328108871728176155e+00
9.841129571199417114e+00 6.234000936150550842e+00 -1.330611313134426155e+00
9.827457696199417114e+00 6.336539998650550842e+00 -1.333113754540676155e+00
1.173529461026191711e+01 6.179923787713050842e+00 -1.456145370751613655e+00
1.149567058682441711e+01 6.228385701775550842e+00 -1.435561264306301155e+00
1.076300457119941711e+01 6.111076131463050842e+00 -1.364073837548488655e+00
1.075214031338691711e+01 6.222892537713050842e+00 -1.367064560204738655e+00
1.074115398526191711e+01 6.334953084588050842e+00 -1.370070541650051155e+00
1.070965984463691711e+01 6.440055623650550842e+00 -1.370925033837551155e+00
1.065826824307441711e+01 6.538200154900550842e+00 -1.369719589501613655e+00
1.060297039151191711e+01 6.634147420525550842e+00 -1.368346298485988655e+00
1.425970867276191711e+01 6.950919881463050842e+00 -1.648345077782863655e+00
1.196161296963691711e+01 6.376090779900550842e+00 -1.427611435204738655e+00
1.183758953213691711e+01 6.463004842400550842e+00 -1.419737900048488655e+00
1.177069500088691711e+01 6.567863240838050842e+00 -1.417479599267238655e+00
1.170441082119941711e+01 6.671867147088050842e+00 -1.415236557275051155e+00
1.163837078213691711e+01 6.775260701775550842e+00 -1.413008774071926155e+00
1.157550457119941711e+01 6.879752889275550842e+00 -1.411086166650051155e+00
1.153277996182441711e+01 6.990958943963050842e+00 -1.411147201806301155e+00
1.440521648526191711e+01 6.995719686150550842e+00 -1.595015610009426155e+00
1.200372722744941711e+01 6.389762654900550842e+00 -1.375548446923488655e+00
1.192963054776191711e+01 6.493400350213050842e+00 -1.372496689110988655e+00
1.206427410244941711e+01 6.667472615838050842e+00 -1.389388168603176155e+00
1.242096355557441711e+01 6.922477498650550842e+00 -1.427367294579738655e+00
1.280279949307441711e+01 7.195670858025550842e+00 -1.468047226220363655e+00
1.270392253994941711e+01 7.299918904900550842e+00 -1.463561142235988655e+00
1.250946453213691711e+01 7.365714803338050842e+00 -1.449553573876613655e+00
1.574383953213691711e+01 7.404899373650550842e+00 -1.645262802392238655e+00
1.200531414151191711e+01 6.390617147088050842e+00 -1.319243515282863655e+00
1.193133953213691711e+01 6.494254842400550842e+00 -1.316664779931301155e+00
1.206500652432441711e+01 6.667960897088050842e+00 -1.332610214501613655e+00
1.242157390713691711e+01 6.922965779900550842e+00 -1.368651474267238655e+00
1.280328777432441711e+01 7.196037068963050842e+00 -1.407225693017238655e+00
1.515570476651191711e+01 8.212638631463050842e+00 -1.624175155907863655e+00
1.449701336026191711e+01 8.128288045525550842e+00 -1.569686020165676155e+00
1.593805339932441711e+01 7.464713826775550842e+00 -1.587508285790676155e+00
1.200702312588691711e+01 6.391471639275550842e+00 -1.263259018212551155e+00
1.193292644619941711e+01 6.495109334588050842e+00 -1.260848129540676155e+00
1.206561687588691711e+01 6.668449178338050842e+00 -1.275862777978176155e+00
1.242218425869941711e+01 6.923331990838050842e+00 -1.309950912743801155e+00
1.280389812588691711e+01 7.196403279900550842e+00 -1.346449936181301155e+00
1.647760418057441711e+01 8.704826131463050842e+00 -1.664504135400051155e+00
1.634772136807441711e+01 8.838371053338050842e+00 -1.658812607079738655e+00
1.679156902432441711e+01 7.725822225213050842e+00 -1.579344833642238655e+00
1.200861003994941711e+01 6.392326131463050842e+00 -1.206999862939113655e+00
1.193463543057441711e+01 6.495963826775550842e+00 -1.204756820946926155e+00
1.206634929776191711e+01 6.668937459588050842e+00 -1.218855942040676155e+00
1.242279461026191711e+01 6.923820272088050842e+00 -1.250990951806301155e+00
1.280438640713691711e+01 7.196647420525550842e+00 -1.285399521142238655e+00
1.981366375088691711e+01 9.946891561150550842e+00 -1.853514755517238655e+00
1.978998211026191711e+01 1.015917183458805084e+01 -1.857848251610988655e+00
3.517902019619941711e+01 1.334191109240055084e+01 -2.857115829735988655e+00
1.201019695401191711e+01 6.393180623650550842e+00 -1.151061142235988655e+00
1.193622234463691711e+01 6.496818318963050842e+00 -1.148985946923488655e+00
1.206695964932441711e+01 6.669425740838050842e+00 -1.162169540673488655e+00
1.242340496182441711e+01 6.924186483025550842e+00 -1.192366684228176155e+00
1.280487468838691711e+01 7.197013631463050842e+00 -1.224700058251613655e+00
2.090753582119941711e+01 1.035436226427555084e+01 -1.840773666650051155e+00
2.104706218838691711e+01 1.064159370958805084e+01 -1.857604110985988655e+00
3.518109539151191711e+01 1.334374214708805084e+01 -2.689040268212551155e+00
1.201190593838691711e+01 6.394035115838050842e+00 -1.094847763329738655e+00
1.193793132901191711e+01 6.497672811150550842e+00 -1.093230331689113655e+00
1.206769207119941711e+01 6.669914022088050842e+00 -1.105528915673488655e+00
1.242401531338691711e+01 6.924674764275550842e+00 -1.133788193017238655e+00
1.280536296963691711e+01 7.197379842400550842e+00 -1.164031112939113655e+00
4.497833660244941711e+01 1.931554390490055084e+01 -3.439650619775051155e+00
2.589276531338691711e+01 1.250096870958805084e+01 -2.098952377587551155e+00
5.259759929776191711e+01 1.866503120958805084e+01 -3.638854110985988655e+00
1.201349285244941711e+01 6.394889608025550842e+00 -1.038970077782863655e+00
1.193951824307441711e+01 6.498527303338050842e+00 -1.037215317040676155e+00
1.206842449307441711e+01 6.670402303338050842e+00 -1.048613632470363655e+00
1.242450359463691711e+01 6.925040975213050842e+00 -1.074919784814113655e+00
1.280585125088691711e+01 7.197746053338050842e+00 -1.103087509423488655e+00
2.588312175869941711e+01 1.220714546740055084e+01 -1.965865219384426155e+00
3.060760906338691711e+01 1.431017281115055084e+01 -2.284529770165676155e+00
4.839496257901191711e+01 1.738280464708805084e+01 -3.137480819970363655e+00
1.201520183682441711e+01 6.395744100213050842e+00 -9.830923922359886546e-01
1.194122722744941711e+01 6.499259725213050842e+00 -9.815054781734886546e-01
1.206903484463691711e+01 6.670890584588050842e+00 -9.920340426266136546e-01
1.242511394619941711e+01 6.925529256463050842e+00 -1.016402328759426155e+00
1.280633953213691711e+01 7.198112264275550842e+00 -1.042494858056301155e+00
4.484894207119941711e+01 1.926830269396305084e+01 -2.994307602196926155e+00
2.564850261807441711e+01 1.240758492052555084e+01 -1.832350815087551155e+00
5.313007000088691711e+01 1.883116890490055084e+01 -3.165129745751613655e+00
1.201678875088691711e+01 6.396598592400550842e+00 -9.269553072750511546e-01
1.194293621182441711e+01 6.500114217400550842e+00 -9.255362398922386546e-01
1.206976726651191711e+01 6.671378865838050842e+00 -9.351950533688011546e-01
1.242572429776191711e+01 6.925895467400550842e+00 -9.576254732906761546e-01
1.280682781338691711e+01 7.198478475213050842e+00 -9.816275484859886546e-01
2.559125164151191711e+01 1.209899117052555084e+01 -1.699019516259426155e+00
3.061529949307441711e+01 1.431346870958805084e+01 -1.986922348290676155e+00
5.147833660244941711e+01 1.832823921740055084e+01 -2.828734482079738655e+00
1.201849773526191711e+01 6.397453084588050842e+00 -8.711233980953636546e-01
1.194452312588691711e+01 6.500968709588050842e+00 -8.698721773922386546e-01
1.207049968838691711e+01 6.671867147088050842e+00 -8.786764986813011546e-01
1.242633464932441711e+01 6.926383748650550842e+00 -8.991690523922386546e-01
1.280743816494941711e+01 7.198844686150550842e+00 -9.211111910641136546e-01
4.468158367276191711e+01 1.920690132677555084e+01 -2.549025619775051155e+00
2.550043132901191711e+01 1.235106636583805084e+01 -1.575835312157863655e+00
6.242560222744941711e+01 2.167540718615055084e+01 -3.075179184228176155e+00
1.202008464932441711e+01 6.398307576775550842e+00 -8.150320895016136546e-01
1.194623211026191711e+01 6.501823201775550842e+00 -8.139487154781761546e-01
1.207111003994941711e+01 6.672355428338050842e+00 -8.218985445797386546e-01
1.242694500088691711e+01 6.926749959588050842e+00 -8.404532320797386546e-01
1.280792644619941711e+01 7.199210897088050842e+00 -8.603201754391136546e-01
4.459833171963691711e+01 1.917638374865055084e+01 -2.327269638329738655e+00
2.542889812588691711e+01 1.232384468615055084e+01 -1.449263656884426155e+00
6.367413738369941711e+01 2.205907417833805084e+01 -2.826415146142238655e+00
1.202179363369941711e+01 6.399162068963050842e+00 -7.589560396969261546e-01
1.194781902432441711e+01 6.502677693963050842e+00 -7.583456881344261546e-01
1.207184246182441711e+01 6.672843709588050842e+00 -7.654562838375511546e-01
1.242755535244941711e+01 6.927238240838050842e+00 -7.820883639156761546e-01
1.280841472744941711e+01 7.199577108025550842e+00 -7.998801119625511546e-01
4.451532390713691711e+01 1.914598824083805084e+01 -2.106520736962551155e+00
3.062701824307441711e+01 1.431847359240055084e+01 -1.540618027001613655e+00
6.134491375088691711e+01 2.134911324083805084e+01 -2.439726913720363655e+00
1.232257488369941711e+01 6.494743123650550842e+00 -7.138052828609886546e-01
5.171173503994941711e+01 1.952819038927555084e+01 -2.117995346337551155e+00
4.389862468838691711e+01 1.745165230333805084e+01 -1.846953476220363655e+00
5.078827312588691711e+01 2.034618355333805084e+01 -2.101622665673488655e+00
3.898468425869941711e+01 1.664989449083805084e+01 -1.683928573876613655e+00
4.443317058682441711e+01 1.911583687365055084e+01 -1.887923324853176155e+00
3.063080242276191711e+01 1.432018257677555084e+01 -1.391722763329738655e+00
7.517765313386917114e+00 5.450553670525550842e+00 -1.219512069970363655e+00
7.497135430574417114e+00 5.524528279900550842e+00 -1.220412338525051155e+00
7.474308282136917114e+00 5.597648397088050842e+00 -1.221221054345363655e+00
7.451236993074417114e+00 5.671256795525550842e+00 -1.222029770165676155e+00
7.428287774324417114e+00 5.744743123650550842e+00 -1.222823227196926155e+00
7.405216485261917114e+00 5.818351522088050842e+00 -1.223631943017238655e+00
7.382145196199417114e+00 5.892326131463050842e+00 -1.224440658837551155e+00
7.356754571199417114e+00 5.965202108025550842e+00 -1.225142563134426155e+00
7.970035821199417114e+00 5.624137654900550842e+00 -1.240752304345363655e+00
7.946232110261917114e+00 5.702018514275550842e+00 -1.241622055321926155e+00
7.924869805574417114e+00 5.780998006463050842e+00 -1.242613876610988655e+00
7.900944024324417114e+00 5.859489217400550842e+00 -1.243498886376613655e+00
7.877018243074417114e+00 5.937858358025550842e+00 -1.244383896142238655e+00
7.852970391511917114e+00 6.016349568963050842e+00 -1.245253647118801155e+00
7.826359063386917114e+00 6.094108358025550842e+00 -1.246016586571926155e+00
7.802189141511917114e+00 6.172965779900550842e+00 -1.246901596337551155e+00
8.483463555574417114e+00 5.821159139275550842e+00 -1.264876449853176155e+00
8.458683282136917114e+00 5.904533162713050842e+00 -1.265837753564113655e+00
8.433780938386917114e+00 5.988029256463050842e+00 -1.266799057275051155e+00
8.408756524324417114e+00 6.072013631463050842e+00 -1.267760360985988655e+00
8.383732110261917114e+00 6.155875936150550842e+00 -1.268721664696926155e+00
8.358707696199417114e+00 6.239860311150550842e+00 -1.269698227196926155e+00
8.333561211824417114e+00 6.324455037713050842e+00 -1.270674789696926155e+00
8.310367852449417114e+00 6.409782186150550842e+00 -1.271895492821926155e+00
9.132755547761917114e+00 6.070304647088050842e+00 -1.299819076806301155e+00
9.094913750886917114e+00 6.155998006463050842e+00 -1.299300277978176155e+00
9.039127618074417114e+00 6.234245076775550842e+00 -1.296904648095363655e+00
8.993229180574417114e+00 6.316520467400550842e+00 -1.295683944970363655e+00
8.969059258699417114e+00 6.407706990838050842e+00 -1.296980942040676155e+00
8.953312188386917114e+00 6.502799764275550842e+00 -1.299285019189113655e+00
8.933414727449417114e+00 6.596793904900550842e+00 -1.301116073876613655e+00
8.906681329011917114e+00 6.687736287713050842e+00 -1.302382553368801155e+00
9.826847344636917114e+00 6.336662068963050842e+00 -1.333067978173488655e+00
9.791691094636917114e+00 6.431388631463050842e+00 -1.333388412743801155e+00
9.737247735261917114e+00 6.518180623650550842e+00 -1.331557358056301155e+00
9.682682305574417114e+00 6.605094686150550842e+00 -1.329726303368801155e+00
9.628605157136917114e+00 6.691398397088050842e+00 -1.327910507470363655e+00
9.574528008699417114e+00 6.777457967400550842e+00 -1.326094711571926155e+00
9.532902032136917114e+00 6.869010701775550842e+00 -1.325682724267238655e+00
9.508365899324417114e+00 6.968253865838050842e+00 -1.327208603173488655e+00
1.060248211026191711e+01 6.634391561150550842e+00 -1.368315780907863655e+00
1.055328777432441711e+01 6.732414022088050842e+00 -1.367186630517238655e+00
1.050006511807441711e+01 6.828483358025550842e+00 -1.365874374657863655e+00
1.044672039151191711e+01 6.924796834588050842e+00 -1.364577377587551155e+00
1.039361980557441711e+01 7.020499959588050842e+00 -1.363280380517238655e+00
1.034064128994941711e+01 7.116081014275550842e+00 -1.361998642235988655e+00
1.028766277432441711e+01 7.211784139275550842e+00 -1.360701645165676155e+00
1.023627117276191711e+01 7.307609334588050842e+00 -1.359831894189113655e+00
1.153229168057441711e+01 6.991203084588050842e+00 -1.411116684228176155e+00
1.148712566494941711e+01 7.101432576775550842e+00 -1.411070907860988655e+00
1.144195964932441711e+01 7.211662068963050842e+00 -1.411040390282863655e+00
1.139654949307441711e+01 7.322379842400550842e+00 -1.410994613915676155e+00
1.134613445401191711e+01 7.430412068963050842e+00 -1.410414779931301155e+00
1.128717449307441711e+01 7.534538045525550842e+00 -1.408965194970363655e+00
1.122821453213691711e+01 7.638908162713050842e+00 -1.407500351220363655e+00
1.116949871182441711e+01 7.742667928338050842e+00 -1.406066025048488655e+00
1.250812175869941711e+01 7.365714803338050842e+00 -1.449446762353176155e+00
1.243072918057441711e+01 7.474357381463050842e+00 -1.446669662743801155e+00
1.242938640713691711e+01 7.613273397088050842e+00 -1.450896347314113655e+00
1.239606121182441711e+01 7.740592733025550842e+00 -1.452391708642238655e+00
1.230377605557441711e+01 7.842399373650550842e+00 -1.448180282860988655e+00
1.221222332119941711e+01 7.943473592400550842e+00 -1.443984115868801155e+00
1.211493328213691711e+01 8.041496053338050842e+00 -1.439513290673488655e+00
1.204327800869941711e+01 8.149894490838050842e+00 -1.437209213525051155e+00
1.449261882901191711e+01 8.127189412713050842e+00 -1.569319809228176155e+00
1.404962566494941711e+01 8.114127889275550842e+00 -1.534102524071926155e+00
1.385931804776191711e+01 8.195060506463050842e+00 -1.521712387353176155e+00
1.367218425869941711e+01 8.274650350213050842e+00 -1.509535873681301155e+00
1.348920086026191711e+01 8.352409139275550842e+00 -1.497618759423488655e+00
1.337787273526191711e+01 8.458854451775550842e+00 -1.492247665673488655e+00
1.333710125088691711e+01 8.596549764275550842e+00 -1.493422592431301155e+00
1.325384929776191711e+01 8.714225545525550842e+00 -1.490614975243801155e+00
1.634674480557441711e+01 8.838737264275550842e+00 -1.658751571923488655e+00
1.486883953213691711e+01 8.437980428338050842e+00 -1.536955917626613655e+00
1.476971843838691711e+01 8.565299764275550842e+00 -1.533400619775051155e+00
1.497516277432441711e+01 8.819938436150550842e+00 -1.556273544579738655e+00
1.512701824307441711e+01 9.056998983025550842e+00 -1.574645126610988655e+00
1.495111492276191711e+01 9.154289022088050842e+00 -1.564482773095363655e+00
1.477338054776191711e+01 9.248771443963050842e+00 -1.554091537743801155e+00
1.459906414151191711e+01 9.341300740838050842e+00 -1.543913925439113655e+00
1.978998211026191711e+01 1.016002632677555084e+01 -1.857878769189113655e+00
1.487054851651191711e+01 8.438712850213050842e+00 -1.465010727196926155e+00
1.477142742276191711e+01 8.566032186150550842e+00 -1.461653793603176155e+00
1.497491863369941711e+01 8.819694295525550842e+00 -1.483016098290676155e+00
1.546625164151191711e+01 9.202873006463050842e+00 -1.528182113915676155e+00
1.617804363369941711e+01 9.696769490838050842e+00 -1.591902817040676155e+00
1.616290691494941711e+01 9.879630818963050842e+00 -1.595976913720363655e+00
1.614764812588691711e+01 1.006310249865055084e+01 -1.600051010400051155e+00
2.104706218838691711e+01 1.064244820177555084e+01 -1.857634628564113655e+00
1.487237957119941711e+01 8.439323201775550842e+00 -1.393492782860988655e+00
1.477313640713691711e+01 8.566642537713050842e+00 -1.390303695946926155e+00
1.497467449307441711e+01 8.819450154900550842e+00 -1.410216415673488655e+00
1.546576336026191711e+01 9.202506795525550842e+00 -1.452590072900051155e+00
2.163129070401191711e+01 1.210790230333805084e+01 -1.934569443017238655e+00
2.153387859463691711e+01 1.231896187365055084e+01 -1.933699692040676155e+00
1.755072429776191711e+01 1.071703316271305084e+01 -1.629546249657863655e+00
2.589178875088691711e+01 1.250157906115055084e+01 -2.098906601220363655e+00
1.487408855557441711e+01 8.440055623650550842e+00 -1.321608627587551155e+00
1.477496746182441711e+01 8.567374959588050842e+00 -1.319014633446926155e+00
1.497443035244941711e+01 8.819328084588050842e+00 -1.337462509423488655e+00
1.546539714932441711e+01 9.202140584588050842e+00 -1.377043808251613655e+00
2.298236492276191711e+01 1.270494820177555084e+01 -1.925475204735988655e+00
2.287775066494941711e+01 1.292894722521305084e+01 -1.923903549462551155e+00
1.755243328213691711e+01 1.071739937365055084e+01 -1.542128647118801155e+00
3.060736492276191711e+01 1.431127144396305084e+01 -2.284545028954738655e+00
1.487579753994941711e+01 8.440788045525550842e+00 -1.250151718407863655e+00
1.477667644619941711e+01 8.568107381463050842e+00 -1.247359360009426155e+00
1.497418621182441711e+01 8.819083943963050842e+00 -1.264357651025051155e+00
1.546490886807441711e+01 9.201774373650550842e+00 -1.301161850243801155e+00
3.473895671963691711e+01 1.790294624865055084e+01 -2.602675522118801155e+00
4.531476238369941711e+01 2.311901070177555084e+01 -3.326857651025051155e+00
1.755402019619941711e+01 1.071776558458805084e+01 -1.455214584618801155e+00
2.564838054776191711e+01 1.240856148302555084e+01 -1.832366073876613655e+00
1.487750652432441711e+01 8.441520467400550842e+00 -1.178725326806301155e+00
1.477838543057441711e+01 8.568717733025550842e+00 -1.176116073876613655e+00
1.497394207119941711e+01 8.818961873650550842e+00 -1.191725815087551155e+00
1.546442058682441711e+01 9.201408162713050842e+00 -1.225722397118801155e+00
3.475507000088691711e+01 1.790953804552555084e+01 -2.431044662743801155e+00
4.377484539151191711e+01 2.241869331896305084e+01 -3.003752792626613655e+00
1.755572918057441711e+01 1.071813179552555084e+01 -1.367888534814113655e+00
3.061505535244941711e+01 1.431456734240055084e+01 -1.986937607079738655e+00
1.487921550869941711e+01 8.442252889275550842e+00 -1.106947983056301155e+00
1.478021648526191711e+01 8.569450154900550842e+00 -1.104537094384426155e+00
1.497369793057441711e+01 8.818717733025550842e+00 -1.118743027001613655e+00
1.546393230557441711e+01 9.201164022088050842e+00 -1.149962509423488655e+00
3.477753093838691711e+01 1.791893745958805084e+01 -2.258818710595363655e+00
4.263739421963691711e+01 2.190135933458805084e+01 -2.718367660790676155e+00
1.755743816494941711e+01 1.071849800646305084e+01 -1.281066025048488655e+00
2.550140789151191711e+01 1.235240913927555084e+01 -1.575911606103176155e+00
1.488092449307441711e+01 8.442985311150550842e+00 -1.035597885400051155e+00
1.478192546963691711e+01 8.570060506463050842e+00 -1.033370102196926155e+00
1.497345378994941711e+01 8.818473592400550842e+00 -1.046202743798488655e+00
1.546356609463691711e+01 9.200797811150550842e+00 -1.074645126610988655e+00
3.479986980557441711e+01 1.792833687365055084e+01 -2.087401474267238655e+00
4.408734539151191711e+01 2.255907417833805084e+01 -2.581420028954738655e+00
1.755914714932441711e+01 1.071886421740055084e+01 -1.193831527978176155e+00
2.542853191494941711e+01 1.232457710802555084e+01 -1.449263656884426155e+00
1.488275554776191711e+01 8.443717733025550842e+00 -9.638815768063011546e-01
1.478363445401191711e+01 8.570792928338050842e+00 -9.618521578609886546e-01
1.497320964932441711e+01 8.818351522088050842e+00 -9.733267672359886546e-01
1.546307781338691711e+01 9.200431600213050842e+00 -9.990073092281761546e-01
3.482880046963691711e+01 1.794066597521305084e+01 -1.915267074853176155e+00
4.348077800869941711e+01 2.228270699083805084e+01 -2.331404770165676155e+00
1.756073406338691711e+01 1.071923042833805084e+01 -1.107100570946926155e+00
3.062677410244941711e+01 1.431957222521305084e+01 -1.540633285790676155e+00
1.488446453213691711e+01 8.444328084588050842e+00 -8.922110445797386546e-01
1.478546550869941711e+01 8.571525350213050842e+00 -8.907614596188011546e-01
1.497296550869941711e+01 8.818107381463050842e+00 -9.009085543453636546e-01
1.546271160244941711e+01 9.200065389275550842e+00 -9.238119967281761546e-01
3.486456707119941711e+01 1.795592476427555084e+01 -1.744185531884426155e+00
4.510284832119941711e+01 2.301842476427555084e+01 -2.181944931298488655e+00
1.756244304776191711e+01 1.071959663927555084e+01 -1.019957626610988655e+00
3.063055828213691711e+01 1.432128120958805084e+01 -1.391722763329738655e+00
1.491913250088691711e+01 8.458122029900550842e+00 -8.221579439938011546e-01
1.482367351651191711e+01 8.587028279900550842e+00 -8.206473238766136546e-01
1.508746746182441711e+01 8.865958943963050842e+00 -8.323660738766136546e-01
1.554437664151191711e+01 9.235099568963050842e+00 -8.513174898922386546e-01
2.662640789151191711e+01 1.431359077990055084e+01 -1.264815414696926155e+00
4.822101238369941711e+01 2.443346382677555084e+01 -2.073241318017238655e+00
1.756854656338691711e+01 1.072203804552555084e+01 -9.330283053219261546e-01
7.357486993074417114e+00 5.965812459588050842e+00 -1.225249374657863655e+00
7.333805352449417114e+00 6.039787068963050842e+00 -1.226042831689113655e+00
7.307926446199417114e+00 6.112785115838050842e+00 -1.226729477196926155e+00
7.281803399324417114e+00 6.186271443963050842e+00 -1.227416122704738655e+00
7.255680352449417114e+00 6.259635701775550842e+00 -1.228102768212551155e+00
7.229557305574417114e+00 6.333244100213050842e+00 -1.228789413720363655e+00
7.204899102449417114e+00 6.408073201775550842e+00 -1.229704941064113655e+00
7.182926446199417114e+00 6.484611287713050842e+00 -1.231215561181301155e+00
7.803043633699417114e+00 6.173576131463050842e+00 -1.247023666650051155e+00
7.776066094636917114e+00 6.251334920525550842e+00 -1.247771347314113655e+00
7.751652032136917114e+00 6.330558553338050842e+00 -1.248656357079738655e+00
7.726383477449417114e+00 6.409904256463050842e+00 -1.249678695946926155e+00
7.706974297761917114e+00 6.492301717400550842e+00 -1.251448715478176155e+00
7.687320977449417114e+00 6.575065389275550842e+00 -1.253218735009426155e+00
7.664982110261917114e+00 6.657218709588050842e+00 -1.254881943017238655e+00
7.645206719636917114e+00 6.740836873650550842e+00 -1.256682480126613655e+00
8.311344414949417114e+00 6.410514608025550842e+00 -1.272017563134426155e+00
8.292057305574417114e+00 6.498161092400550842e+00 -1.273970688134426155e+00
8.272892266511917114e+00 6.586295858025550842e+00 -1.275908554345363655e+00
8.253361016511917114e+00 6.675163045525550842e+00 -1.277892196923488655e+00
8.233829766511917114e+00 6.764152303338050842e+00 -1.279860580712551155e+00
8.214298516511917114e+00 6.853629842400550842e+00 -1.281844223290676155e+00
8.194523125886917114e+00 6.943839803338050842e+00 -1.283843124657863655e+00
8.174747735261917114e+00 7.034293904900550842e+00 -1.285842026025051155e+00
8.907413750886917114e+00 6.688468709588050842e+00 -1.302489364892238655e+00
8.883976250886917114e+00 6.781364217400550842e+00 -1.303908432275051155e+00
8.857486993074417114e+00 6.873161092400550842e+00 -1.305190170556301155e+00
8.830753594636917114e+00 6.965690389275550842e+00 -1.306502426415676155e+00
8.804142266511917114e+00 7.058219686150550842e+00 -1.307799423485988655e+00
8.777286797761917114e+00 7.151115193963050842e+00 -1.309111679345363655e+00
8.750309258699417114e+00 7.244621053338050842e+00 -1.310423935204738655e+00
8.720402032136917114e+00 7.336662068963050842e+00 -1.311614120751613655e+00
9.508976250886917114e+00 6.968986287713050842e+00 -1.327284897118801155e+00
9.481998711824417114e+00 7.067374959588050842e+00 -1.328719223290676155e+00
9.454899102449417114e+00 7.166251912713050842e+00 -1.330153549462551155e+00
9.427555352449417114e+00 7.265861287713050842e+00 -1.331603134423488655e+00
9.400211602449417114e+00 7.365592733025550842e+00 -1.333052719384426155e+00
9.365421563386917114e+00 7.461784139275550842e+00 -1.333632553368801155e+00
9.327945977449417114e+00 7.557243123650550842e+00 -1.333952987939113655e+00
9.290470391511917114e+00 7.652580037713050842e+00 -1.334258163720363655e+00
1.023651531338691711e+01 7.308097615838050842e+00 -1.359877670556301155e+00
1.018939617276191711e+01 7.405875936150550842e+00 -1.359099472314113655e+00
1.013751628994941711e+01 7.501212850213050842e+00 -1.358046615868801155e+00
1.009491375088691711e+01 7.601554647088050842e+00 -1.358031357079738655e+00
1.005560711026191711e+01 7.703483358025550842e+00 -1.358397568017238655e+00
1.001630046963691711e+01 7.805656209588050842e+00 -1.358748520165676155e+00
9.976871758699417114e+00 7.908439412713050842e+00 -1.359114731103176155e+00
9.933658868074417114e+00 8.008903279900550842e+00 -1.359328354150051155e+00
1.116937664151191711e+01 7.743034139275550842e+00 -1.406066025048488655e+00
1.110895183682441711e+01 7.845695272088050842e+00 -1.404555404931301155e+00
1.103986003994941711e+01 7.943961873650550842e+00 -1.402144516259426155e+00
1.097076824307441711e+01 8.042350545525550842e+00 -1.399733627587551155e+00
1.090216472744941711e+01 8.140006795525550842e+00 -1.397337997704738655e+00
1.084894207119941711e+01 8.245597615838050842e+00 -1.396559799462551155e+00
1.080145671963691711e+01 8.354728475213050842e+00 -1.396422470360988655e+00
1.074554851651191711e+01 8.458732381463050842e+00 -1.395354355126613655e+00
1.204352214932441711e+01 8.150504842400550842e+00 -1.437254989892238655e+00
1.197235515713691711e+01 8.258659139275550842e+00 -1.435088241845363655e+00
1.190582683682441711e+01 8.368888631463050842e+00 -1.433058822900051155e+00
1.184466961026191711e+01 8.481925740838050842e+00 -1.431883896142238655e+00
1.178632000088691711e+01 8.595939412713050842e+00 -1.430968368798488655e+00
1.172784832119941711e+01 8.709953084588050842e+00 -1.430052841454738655e+00
1.166449382901191711e+01 8.821769490838050842e+00 -1.428969467431301155e+00
1.160614421963691711e+01 8.935661092400550842e+00 -1.428053940087551155e+00
1.325384929776191711e+01 8.714713826775550842e+00 -1.490614975243801155e+00
1.316302898526191711e+01 8.828239217400550842e+00 -1.487151230126613655e+00
1.307269695401191711e+01 8.941398397088050842e+00 -1.483702743798488655e+00
1.298236492276191711e+01 9.054313436150550842e+00 -1.480254257470363655e+00
1.289276531338691711e+01 9.166496053338050842e+00 -1.476836288720363655e+00
1.280340984463691711e+01 9.278190389275550842e+00 -1.473433578759426155e+00
1.271429851651191711e+01 9.389762654900550842e+00 -1.470030868798488655e+00
1.264117839932441711e+01 9.509147420525550842e+00 -1.468138778954738655e+00
1.459820964932441711e+01 9.341422811150550842e+00 -1.543852890282863655e+00
1.446625164151191711e+01 9.451652303338050842e+00 -1.537367904931301155e+00
1.438385418057441711e+01 9.584708943963050842e+00 -1.535246933251613655e+00
1.430109050869941711e+01 9.717765584588050842e+00 -1.533095443993801155e+00
1.421881511807441711e+01 9.850211873650550842e+00 -1.530959213525051155e+00
1.413653972744941711e+01 9.982536092400550842e+00 -1.528838241845363655e+00
1.405426433682441711e+01 1.011498238146305084e+01 -1.526702011376613655e+00
1.397247722744941711e+01 1.024681831896305084e+01 -1.524581039696926155e+00
1.614801433682441711e+01 1.006395699083805084e+01 -1.600112045556301155e+00
1.613312175869941711e+01 1.024901558458805084e+01 -1.604231918603176155e+00
1.609613445401191711e+01 1.042479683458805084e+01 -1.606551254540676155e+00
1.595624187588691711e+01 1.055052925646305084e+01 -1.600264633446926155e+00
1.581793621182441711e+01 1.067491890490055084e+01 -1.594039047509426155e+00
1.568072918057441711e+01 1.079833199083805084e+01 -1.587859237939113655e+00
1.554401043057441711e+01 1.092113472521305084e+01 -1.581709945946926155e+00
1.540863445401191711e+01 1.104259468615055084e+01 -1.575606430321926155e+00
1.755011394619941711e+01 1.071739937365055084e+01 -1.629530990868801155e+00
1.753180339932441711e+01 1.091796089708805084e+01 -1.633498276025051155e+00
1.751996257901191711e+01 1.112328316271305084e+01 -1.638014877587551155e+00
1.750799968838691711e+01 1.133104683458805084e+01 -1.642592514306301155e+00
1.744354656338691711e+01 1.151293160021305084e+01 -1.643050277978176155e+00
1.735663250088691711e+01 1.168358589708805084e+01 -1.641722763329738655e+00
1.726947429776191711e+01 1.185472847521305084e+01 -1.640395248681301155e+00
1.718256023526191711e+01 1.202538277208805084e+01 -1.639067734032863655e+00
1.755182293057441711e+01 1.071776558458805084e+01 -1.542098129540676155e+00
1.765887859463691711e+01 1.097826363146305084e+01 -1.554915512353176155e+00
1.825946453213691711e+01 1.148570992052555084e+01 -1.604613388329738655e+00
2.296869304776191711e+01 1.407897163927555084e+01 -1.957655990868801155e+00
1.990326336026191711e+01 1.278124214708805084e+01 -1.737105453759426155e+00
1.927960613369941711e+01 1.269921089708805084e+01 -1.696562851220363655e+00
