9.518039226531982422e+00 5.487444728612899780e+00 -8.670413143932762523e-01
9.748874187469482422e+00 5.652605861425399780e+00 -8.838412411510887523e-01
9.068088054656982422e+00 4.822039455175399780e+00 -7.870394833385887523e-01
9.014377117156982422e+00 4.897356837987899780e+00 -7.858645565807762523e-01
8.961154460906982422e+00 4.971941798925399780e+00 -7.846896298229637523e-01
8.928805828094482422e+00 5.051653712987899780e+00 -7.847201474010887523e-01
9.092990398406982422e+00 5.183489650487899780e+00 -7.961184628307762523e-01
9.299533367156982422e+00 5.331316798925399780e+00 -8.100649960339012523e-01
9.518527507781982422e+00 5.487933009862899780e+00 -8.248355038464012523e-01
9.749484539031982422e+00 5.653094142675399780e+00 -8.404299862682762523e-01
9.069186687469482422e+00 4.822771877050399780e+00 -7.474581845104637523e-01
9.015475749969482422e+00 4.897967189550399780e+00 -7.466494686901512523e-01
8.962253093719482422e+00 4.972552150487899780e+00 -7.456271298229637523e-01
8.929660320281982422e+00 5.052141994237899780e+00 -7.457034237682762523e-01
9.093600749969482422e+00 5.183977931737899780e+00 -7.562014706432762523e-01
9.300265789031982422e+00 5.331805080175399780e+00 -7.690493710339012523e-01
9.519137859344482422e+00 5.488299220800399780e+00 -7.826754696667137523e-01
9.750094890594482422e+00 5.653460353612899780e+00 -7.968051083385887523e-01
9.070407390594482422e+00 4.823382228612899780e+00 -7.081210263073387523e-01
9.016696453094482422e+00 4.898577541112899780e+00 -7.072360165417137523e-01
8.963351726531982422e+00 4.973162502050399780e+00 -7.063815243542137523e-01
8.930636882781982422e+00 5.052752345800399780e+00 -7.064883358776512523e-01
9.094333171844482422e+00 5.184466212987899780e+00 -7.160861141979637523e-01
9.300876140594482422e+00 5.332171291112899780e+00 -7.278353817760887523e-01
9.519748210906982422e+00 5.488787502050399780e+00 -7.402865536510887523e-01
9.750583171844482422e+00 5.653826564550399780e+00 -7.534243710339012523e-01
9.071506023406982422e+00 4.824114650487899780e+00 -6.685702450573387523e-01
9.017795085906982422e+00 4.899187892675399780e+00 -6.680667050182762523e-01
8.964450359344482422e+00 4.973772853612899780e+00 -6.673495419323387523e-01
8.931613445281982422e+00 5.053240627050399780e+00 -6.675021298229637523e-01
9.094943523406982422e+00 5.184954494237899780e+00 -6.761996395885887523e-01
9.301486492156982422e+00 5.332659572362899780e+00 -6.868655331432762523e-01
9.520358562469482422e+00 5.489275783300399780e+00 -6.981570370495262523e-01
9.751193523406982422e+00 5.654314845800399780e+00 -7.098452694714012523e-01
9.072604656219482422e+00 4.824725002050399780e+00 -6.292483456432762523e-01
9.018893718719482422e+00 4.899920314550399780e+00 -6.286837704479637523e-01
8.965671062469482422e+00 4.974383205175399780e+00 -6.281191952526512523e-01
8.932467937469482422e+00 5.053850978612899780e+00 -6.283175595104637523e-01
9.095675945281982422e+00 5.185442775487899780e+00 -6.361300595104637523e-01
9.302096843719482422e+00 5.333147853612899780e+00 -6.456973202526512523e-01
9.520968914031982422e+00 5.489641994237899780e+00 -6.558291561901512523e-01
9.751681804656982422e+00 5.654681056737899780e+00 -6.665103085339012523e-01
9.073703289031982422e+00 4.825457423925399780e+00 -5.897433407604637523e-01
9.019992351531982422e+00 4.900530666112899780e+00 -5.893160946667137523e-01
8.966769695281982422e+00 4.975115627050399780e+00 -5.891177304089012523e-01
8.933444499969482422e+00 5.054339259862899780e+00 -5.893618710339012523e-01
9.096286296844482422e+00 5.185931056737899780e+00 -5.962893612682762523e-01
9.302829265594482422e+00 5.333636134862899780e+00 -6.047579891979637523e-01
9.521579265594482422e+00 5.490130275487899780e+00 -6.135165341198387523e-01
9.752292156219482422e+00 5.655047267675399780e+00 -6.229769833385887523e-01
9.078464031219482422e+00 4.826922267675399780e+00 -5.503451474010887523e-01
9.024753093719482422e+00 4.901995509862899780e+00 -5.502841122448387523e-01
8.971530437469482422e+00 4.976580470800399780e+00 -5.500247128307762523e-01
8.937961101531982422e+00 5.055926173925399780e+00 -5.503146298229637523e-01
9.108005046844482422e+00 5.189349025487899780e+00 -5.565707333385887523e-01
9.315768718719482422e+00 5.337542384862899780e+00 -5.639865048229637523e-01
9.536105632781982422e+00 5.494524806737899780e+00 -5.718600399792137523e-01
9.768649578094482422e+00 5.660174220800399780e+00 -5.799319393932762523e-01
7.857882976531982422e+00 5.081560939550399780e+00 -1.179571831971401252e+00
7.829074382781982422e+00 5.150896877050399780e+00 -1.179007256776088752e+00
7.800631999969482422e+00 5.220354884862899780e+00 -1.178656304627651252e+00
7.773532390594482422e+00 5.290545314550399780e+00 -1.178488457947963752e+00
7.746676921844482422e+00 5.360247462987899780e+00 -1.178320611268276252e+00
7.719699382781982422e+00 5.429949611425399780e+00 -1.178152764588588752e+00
7.692721843719482422e+00 5.499895900487899780e+00 -1.177984917908901252e+00
7.663180828094482422e+00 5.568499416112899780e+00 -1.177679742127651252e+00
8.350314617156982422e+00 5.229754298925399780e+00 -1.202124322205776252e+00
8.324191570281982422e+00 5.305437892675399780e+00 -1.202276910096401252e+00
8.300754070281982422e+00 5.381975978612899780e+00 -1.202551568299526252e+00
8.274508953094482422e+00 5.457903712987899780e+00 -1.202719414979213752e+00
8.248385906219482422e+00 5.533465236425399780e+00 -1.202872002869838752e+00
8.222384929656982422e+00 5.609148830175399780e+00 -1.203039849549526252e+00
8.193454265594482422e+00 5.684100002050399780e+00 -1.203070367127651252e+00
8.167453289031982422e+00 5.759661525487899780e+00 -1.203238213807338752e+00
8.923556804656982422e+00 5.402483791112899780e+00 -1.228934014588588752e+00
8.882297039031982422e+00 5.479632228612899780e+00 -1.227621758729213752e+00
8.841281414031982422e+00 5.556536525487899780e+00 -1.226324761658901252e+00
8.806125164031982422e+00 5.635393947362899780e+00 -1.225699151307338752e+00
8.778171062469482422e+00 5.716326564550399780e+00 -1.225866997987026252e+00
8.750216960906982422e+00 5.797259181737899780e+00 -1.226034844666713752e+00
8.722140789031982422e+00 5.878435939550399780e+00 -1.226217950135463752e+00
8.686618328094482422e+00 5.956438869237899780e+00 -1.225516045838588752e+00
9.745578289031982422e+00 5.649920314550399780e+00 -1.276999200135463752e+00
9.701755046844482422e+00 5.735247462987899780e+00 -1.275564873963588752e+00
9.564059734344482422e+00 5.790057033300399780e+00 -1.264258111268276252e+00
9.429294109344482422e+00 5.843645900487899780e+00 -1.253195489197963752e+00
9.319919109344482422e+00 5.903460353612899780e+00 -1.244787896424526252e+00
9.314303874969482422e+00 5.998308986425399780e+00 -1.247610772401088752e+00
9.305881023406982422e+00 6.093035548925399780e+00 -1.250143731385463752e+00
9.247897624969482422e+00 6.169207423925399780e+00 -1.247488702088588752e+00
9.746188640594482422e+00 5.650408595800399780e+00 -1.233130181580776252e+00
9.991549968719482422e+00 5.825823634862899780e+00 -1.261587823182338752e+00
9.872531414031982422e+00 5.889788478612899780e+00 -1.252844537049526252e+00
9.868136882781982422e+00 5.990374416112899780e+00 -1.255850518494838752e+00
9.863864421844482422e+00 6.091204494237899780e+00 -1.258856499940151252e+00
9.859469890594482422e+00 6.192644923925399780e+00 -1.261892998963588752e+00
9.854953289031982422e+00 6.295061916112899780e+00 -1.264944756776088752e+00
9.850558757781982422e+00 6.397723048925399780e+00 -1.268027032166713752e+00
9.746676921844482422e+00 5.650774806737899780e+00 -1.189520562440151252e+00
9.992038249969482422e+00 5.826189845800399780e+00 -1.216406548768276252e+00
1.218259000778198242e+01 6.635638087987899780e+00 -1.434027398377651252e+00
1.173849821090698242e+01 6.615008205175399780e+00 -1.394552911072963752e+00
1.134518766403198242e+01 6.602557033300399780e+00 -1.359778130799526252e+00
1.105783414840698242e+01 6.619768947362899780e+00 -1.335226739197963752e+00
1.092074918746948242e+01 6.686907619237899780e+00 -1.325430596619838752e+00
1.078451871871948242e+01 6.751726955175399780e+00 -1.315878594666713752e+00
9.747287273406982422e+00 5.651141017675399780e+00 -1.145697320252651252e+00
9.992526531219482422e+00 5.826556056737899780e+00 -1.171469414979213752e+00
1.347067594528198242e+01 7.051653712987899780e+00 -1.498022759705776252e+00
1.336874723434448242e+01 7.159685939550399780e+00 -1.492895806580776252e+00
1.326803922653198242e+01 7.266253322362899780e+00 -1.487829888612026252e+00
1.188632535934448242e+01 6.915057033300399780e+00 -1.362280572205776252e+00
1.180942106246948242e+01 7.013689845800399780e+00 -1.358954156190151252e+00
1.174643278121948242e+01 7.116350978612899780e+00 -1.356894219666713752e+00
9.747897624969482422e+00 5.651507228612899780e+00 -1.102133477479213752e+00
9.993014812469482422e+00 5.826922267675399780e+00 -1.126578057557338752e+00
1.366379117965698242e+01 7.114275783300399780e+00 -1.452734673768276252e+00
1.355942106246948242e+01 7.223528712987899780e+00 -1.447745049744838752e+00
1.345639371871948242e+01 7.331316798925399780e+00 -1.442816460877651252e+00
1.188754606246948242e+01 6.915545314550399780e+00 -1.307257378846401252e+00
1.181076383590698242e+01 7.014300197362899780e+00 -1.304419244080776252e+00
1.174753141403198242e+01 7.116717189550399780e+00 -1.302466119080776252e+00
9.748385906219482422e+00 5.651995509862899780e+00 -1.058356011658901252e+00
9.993503093719482422e+00 5.827288478612899780e+00 -1.081457818299526252e+00
1.605514860153198242e+01 7.886614650487899780e+00 -1.588965142518276252e+00
1.680600309371948242e+01 8.308001369237899780e+00 -1.656454766541713752e+00
1.678720426559448242e+01 8.481097072362899780e+00 -1.659887994080776252e+00
1.188888883590698242e+01 6.916155666112899780e+00 -1.252554620057338752e+00
1.181210660934448242e+01 7.014788478612899780e+00 -1.249609673768276252e+00
1.174875211715698242e+01 7.117205470800399780e+00 -1.247763360291713752e+00
9.748996257781982422e+00 5.652361720800399780e+00 -1.014837945252651252e+00
9.994113445281982422e+00 5.827654689550399780e+00 -1.036596978455776252e+00
1.722043180465698242e+01 8.263201564550399780e+00 -1.605902398377651252e+00
1.710519742965698242e+01 8.408221095800399780e+00 -1.601690972596401252e+00
1.708688688278198242e+01 8.584612697362899780e+00 -1.605063164979213752e+00
1.189023160934448242e+01 6.916643947362899780e+00 -1.197867120057338752e+00
1.181344938278198242e+01 7.015276759862899780e+00 -1.195105279237026252e+00
1.174997282028198242e+01 7.117693752050399780e+00 -1.193381036072963752e+00
9.749484539031982422e+00 5.652727931737899780e+00 -9.711215145885887523e-01
9.994601726531982422e+00 5.828020900487899780e+00 -9.915377743542137523e-01
4.104355192184448242e+01 1.595619472861289978e+01 -3.277426446229213752e+00
4.888217496871948242e+01 1.902235683798789978e+01 -3.867224419862026252e+00
3.602218961715698242e+01 1.512037929892539978e+01 -2.927740777283901252e+00
1.189157438278198242e+01 6.917254298925399780e+00 -1.142920220643276252e+00
1.181479215621948242e+01 7.015887111425399780e+00 -1.140341485291713752e+00
1.175119352340698242e+01 7.118182033300399780e+00 -1.138739312440151252e+00
9.750094890594482422e+00 5.653094142675399780e+00 -9.276492245495262523e-01
9.995090007781982422e+00 5.828387111425399780e+00 -9.467227108776512523e-01
4.104928922653198242e+01 1.595888027548789978e+01 -3.082602227479213752e+00
4.917685270309448242e+01 1.912147793173789978e+01 -3.653586114197963752e+00
3.602756071090698242e+01 1.512269863486289978e+01 -2.756018365174526252e+00
1.189279508590698242e+01 6.917742580175399780e+00 -1.088278497010463752e+00
1.181613492965698242e+01 7.016375392675399780e+00 -1.085898125916713752e+00
1.175229215621948242e+01 7.118548244237899780e+00 -1.084402764588588752e+00
9.750583171844482422e+00 5.653582423925399780e+00 -8.839633114635887523e-01
9.995578289031982422e+00 5.828753322362899780e+00 -9.017092831432762523e-01
4.104281949996948242e+01 1.595753750205039978e+01 -2.887045586854213752e+00
4.906283903121948242e+01 1.908412441611289978e+01 -3.411047662049526252e+00
3.603280973434448242e+01 1.512489590048789978e+01 -2.584341729432338752e+00
1.189413785934448242e+01 6.918352931737899780e+00 -1.033667290955776252e+00
1.181735563278198242e+01 7.016863673925399780e+00 -1.031180108338588752e+00
1.175351285934448242e+01 7.119036525487899780e+00 -1.029806817322963752e+00
9.751193523406982422e+00 5.653948634862899780e+00 -8.405367977917137523e-01
9.996066570281982422e+00 5.829119533300399780e+00 -8.569552548229637523e-01
4.103451871871948242e+01 1.595558437705039978e+01 -2.690542901307338752e+00
4.729062223434448242e+01 1.849281582236289978e+01 -3.070288384705776252e+00
3.603818082809448242e+01 1.512709316611289978e+01 -2.411810601502651252e+00
1.189548063278198242e+01 6.918841212987899780e+00 -9.787814266979637523e-01
1.181869840621948242e+01 7.017474025487899780e+00 -9.767825253307762523e-01
1.175473356246948242e+01 7.119524806737899780e+00 -9.755160458385887523e-01
9.751803874969482422e+00 5.654314845800399780e+00 -7.968966610729637523e-01
9.996554851531982422e+00 5.829485744237899780e+00 -8.122164852917137523e-01
4.100168180465698242e+01 1.594569668173789978e+01 -2.493963921815151252e+00
4.295614957809448242e+01 1.704542812705039978e+01 -2.608755791932338752e+00
3.604342985153198242e+01 1.512929043173789978e+01 -2.240256036072963752e+00
1.189682340621948242e+01 6.919451564550399780e+00 -9.242159970104637523e-01
1.182004117965698242e+01 7.017962306737899780e+00 -9.224002011120262523e-01
1.175595426559448242e+01 7.119891017675399780e+00 -9.209658749401512523e-01
9.752292156219482422e+00 5.654681056737899780e+00 -7.535159237682762523e-01
9.997165203094482422e+00 5.829851955175399780e+00 -7.672793515026512523e-01
4.097323942184448242e+01 1.593727383017539978e+01 -2.297003472596401252e+00
4.288095426559448242e+01 1.702101406455039978e+01 -2.399298394471401252e+00
3.604880094528198242e+01 1.513160976767539978e+01 -2.067846978455776252e+00
1.189816617965698242e+01 6.920061916112899780e+00 -8.693759091198387523e-01
1.182138395309448242e+01 7.018450587987899780e+00 -8.677584774792137523e-01
1.175705289840698242e+01 7.120379298925399780e+00 -8.667361386120262523e-01
9.752902507781982422e+00 5.655169337987899780e+00 -7.099215634167137523e-01
9.997653484344482422e+00 5.830218166112899780e+00 -7.225863583385887523e-01
4.095126676559448242e+01 1.593092617392539978e+01 -2.101782525330776252e+00
4.288241910934448242e+01 1.702211269736289978e+01 -2.195212090760463752e+00
3.604452848434448242e+01 1.513051113486289978e+01 -1.895987237244838752e+00
1.189938688278198242e+01 6.920550197362899780e+00 -8.148562557995262523e-01
1.182272672653198242e+01 7.019060939550399780e+00 -8.134219296276512523e-01
1.175827360153198242e+01 7.120867580175399780e+00 -8.122317440807762523e-01
9.753390789031982422e+00 5.655535548925399780e+00 -6.665866024792137523e-01
9.998141765594482422e+00 5.830584377050399780e+00 -6.776950009167137523e-01
4.093564176559448242e+01 1.592653164267539978e+01 -1.906103814393276252e+00
4.776486539840698242e+01 1.865407070517539978e+01 -2.184530938416713752e+00
3.603854703903198242e+01 1.512880215048789978e+01 -1.723303521424526252e+00
1.190072965621948242e+01 6.921160548925399780e+00 -7.600772030651512523e-01
1.182406949996948242e+01 7.019549220800399780e+00 -7.588259823620262523e-01
1.175949430465698242e+01 7.121233791112899780e+00 -7.580477841198387523e-01
9.754001140594482422e+00 5.655901759862899780e+00 -6.230380184948387523e-01
9.998630046844482422e+00 5.830828517675399780e+00 -6.328189022839012523e-01
4.091635465621948242e+01 1.592103847861289978e+01 -1.711615289002651252e+00
4.778610563278198242e+01 1.866176113486289978e+01 -1.957785332947963752e+00
3.602743864059448242e+01 1.512538418173789978e+01 -1.551520074158901252e+00
1.190207242965698242e+01 6.921648830175399780e+00 -7.056033261120262523e-01
1.182541227340698242e+01 7.020037502050399780e+00 -7.042452938854637523e-01
1.176059293746948242e+01 7.121722072362899780e+00 -7.035891659557762523e-01
9.770358562469482422e+00 5.661150783300399780e+00 -5.799929745495262523e-01
1.001694059371948242e+01 5.836809962987899780e+00 -5.887362606823387523e-01
4.092660856246948242e+01 1.592518886923789978e+01 -1.517279351502651252e+00
4.833798551559448242e+01 1.884694179892539978e+01 -1.745764458924526252e+00
3.597665739059448242e+01 1.510829433798789978e+01 -1.377844537049526252e+00
1.190964078903198242e+01 6.924456447362899780e+00 -6.510378964245262523e-01
1.183322477340698242e+01 7.022967189550399780e+00 -6.501834042370262523e-01
1.176657438278198242e+01 7.124041408300399780e+00 -6.493136532604637523e-01
7.663058757781982422e+00 5.568743556737899780e+00 -1.177664483338588752e+00
7.635592937469482422e+00 5.638079494237899780e+00 -1.177466119080776252e+00
7.605563640594482422e+00 5.706438869237899780e+00 -1.177145684510463752e+00
7.575412273406982422e+00 5.775042384862899780e+00 -1.176809991151088752e+00
7.545505046844482422e+00 5.843279689550399780e+00 -1.176474297791713752e+00
7.513034343719482422e+00 5.910540431737899780e+00 -1.175833428651088752e+00
7.476291179656982422e+00 5.975970119237899780e+00 -1.174643243104213752e+00
7.437350749969482422e+00 6.040057033300399780e+00 -1.173361504822963752e+00
8.167209148406982422e+00 5.759905666112899780e+00 -1.203222955018276252e+00
8.138278484344482422e+00 5.834368556737899780e+00 -1.203253472596401252e+00
8.109591960906982422e+00 5.909075587987899780e+00 -1.203131402283901252e+00
8.069674968719482422e+00 5.979510158300399780e+00 -1.201864922791713752e+00
8.029635906219482422e+00 6.049334377050399780e+00 -1.200567925721401252e+00
7.989840984344482422e+00 6.119036525487899780e+00 -1.199270928651088752e+00
7.947238445281982422e+00 6.187517970800399780e+00 -1.197836602479213752e+00
7.907565593719482422e+00 6.256853908300399780e+00 -1.196539605408901252e+00
8.686496257781982422e+00 5.956683009862899780e+00 -1.225500787049526252e+00
8.647311687469482422e+00 6.033221095800399780e+00 -1.224600518494838752e+00
8.608249187469482422e+00 6.109637111425399780e+00 -1.223684991151088752e+00
8.569064617156982422e+00 6.186053127050399780e+00 -1.222769463807338752e+00
8.530124187469482422e+00 6.262225002050399780e+00 -1.221869195252651252e+00
8.491183757781982422e+00 6.338274806737899780e+00 -1.220953667908901252e+00
8.452243328094482422e+00 6.414446681737899780e+00 -1.220053399354213752e+00
8.413424968719482422e+00 6.490252345800399780e+00 -1.219137872010463752e+00
9.247653484344482422e+00 6.169451564550399780e+00 -1.247473443299526252e+00
9.194186687469482422e+00 6.246844142675399780e+00 -1.245032037049526252e+00
9.137423992156982422e+00 6.322405666112899780e+00 -1.242438042908901252e+00
9.085788249969482422e+00 6.399920314550399780e+00 -1.240393365174526252e+00
9.040256023406982422e+00 6.479266017675399780e+00 -1.239004815369838752e+00
8.994723796844482422e+00 6.558367580175399780e+00 -1.237616265565151252e+00
8.949191570281982422e+00 6.637713283300399780e+00 -1.236227715760463752e+00
8.901217937469482422e+00 6.715105861425399780e+00 -1.234762872010463752e+00
9.850558757781982422e+00 6.398089259862899780e+00 -1.268042290955776252e+00
9.843844890594482422e+00 6.500506252050399780e+00 -1.271063531190151252e+00
9.837131023406982422e+00 6.603655666112899780e+00 -1.274115289002651252e+00
9.780368328094482422e+00 6.687273830175399780e+00 -1.271902764588588752e+00
9.717624187469482422e+00 6.767474025487899780e+00 -1.269034112244838752e+00
9.655246257781982422e+00 6.847185939550399780e+00 -1.266180718690151252e+00
9.598117351531982422e+00 6.929217189550399780e+00 -1.263891900330776252e+00
9.546603679656982422e+00 7.012835353612899780e+00 -1.262167657166713752e+00
1.078366422653198242e+01 6.751849025487899780e+00 -1.315802300721401252e+00
1.065329313278198242e+01 6.816668361425399780e+00 -1.306402886658901252e+00
1.052292203903198242e+01 6.879412502050399780e+00 -1.297186578065151252e+00
1.048092985153198242e+01 6.977068752050399780e+00 -1.296835625916713752e+00
1.045126676559448242e+01 7.079607814550399780e+00 -1.297720635682338752e+00
1.042160367965698242e+01 7.182391017675399780e+00 -1.298605645447963752e+00
1.036435270309448242e+01 7.273455470800399780e+00 -1.296698296815151252e+00
1.029916715621948242e+01 7.360003322362899780e+00 -1.294211114197963752e+00
1.174631071090698242e+01 7.116717189550399780e+00 -1.356894219666713752e+00
1.192868375778198242e+01 7.314715236425399780e+00 -1.378287041932338752e+00
1.180331754684448242e+01 7.394183009862899780e+00 -1.370459283143276252e+00
1.167917203903198242e+01 7.472918361425399780e+00 -1.362723077088588752e+00
1.155734586715698242e+01 7.550188869237899780e+00 -1.355124200135463752e+00
1.143710660934448242e+01 7.626360744237899780e+00 -1.347616875916713752e+00
1.131808805465698242e+01 7.701800197362899780e+00 -1.340201104432338752e+00
1.109140348434448242e+01 7.725359767675399780e+00 -1.322226250916713752e+00
1.174753141403198242e+01 7.117205470800399780e+00 -1.302466119080776252e+00
1.202072477340698242e+01 7.350603908300399780e+00 -1.330908501893276252e+00
1.236728239059448242e+01 7.620867580175399780e+00 -1.365896905213588752e+00
1.241745328903198242e+01 7.778216212987899780e+00 -1.374563897401088752e+00
1.230612516403198242e+01 7.868670314550399780e+00 -1.368567193299526252e+00
1.224509000778198242e+01 7.979632228612899780e+00 -1.367148125916713752e+00
1.219284391403198242e+01 8.094744533300399780e+00 -1.366827691346401252e+00
1.214535856246948242e+01 8.211443752050399780e+00 -1.366629327088588752e+00
1.174863004684448242e+01 7.117693752050399780e+00 -1.247763360291713752e+00
1.202060270309448242e+01 7.350481837987899780e+00 -1.274512017518276252e+00
1.236703824996948242e+01 7.620745509862899780e+00 -1.307837212830776252e+00
1.273984098434448242e+01 7.911516994237899780e+00 -1.343695367127651252e+00
1.331430387496948242e+01 8.297503322362899780e+00 -1.397192681580776252e+00
1.330234098434448242e+01 8.441912502050399780e+00 -1.400397027283901252e+00
1.329037809371948242e+01 8.587664455175399780e+00 -1.403647149354213752e+00
1.327841520309448242e+01 8.734026759862899780e+00 -1.406897271424526252e+00
1.174985074996948242e+01 7.118059962987899780e+00 -1.193381036072963752e+00
1.202048063278198242e+01 7.350481837987899780e+00 -1.218451226502651252e+00
1.236679410934448242e+01 7.620501369237899780e+00 -1.249808038026088752e+00
1.273947477340698242e+01 7.911272853612899780e+00 -1.283560479432338752e+00
1.797006559371948242e+01 1.027858242392539978e+01 -1.711661065369838752e+00
1.811288785934448242e+01 1.054579433798789978e+01 -1.728735650330776252e+00
1.458908414840698242e+01 9.171038478612899780e+00 -1.446173394471401252e+00
1.430148649215698242e+01 9.205828517675399780e+00 -1.427008355408901252e+00
1.175107145309448242e+01 7.118548244237899780e+00 -1.138739312440151252e+00
1.202035856246948242e+01 7.350359767675399780e+00 -1.162131036072963752e+00
1.236654996871948242e+01 7.620379298925399780e+00 -1.191519463807338752e+00
1.273910856246948242e+01 7.910906642675399780e+00 -1.223135674744838752e+00
1.893979215621948242e+01 1.069105800986289978e+01 -1.698462212830776252e+00
1.885800504684448242e+01 1.087135586142539978e+01 -1.697561944276088752e+00
1.459054899215698242e+01 9.171404689550399780e+00 -1.375723565369838752e+00
1.449545621871948242e+01 9.294939845800399780e+00 -1.372549737244838752e+00
1.175229215621948242e+01 7.119036525487899780e+00 -1.084402764588588752e+00
1.202023649215698242e+01 7.350237697362899780e+00 -1.106146539002651252e+00
1.236630582809448242e+01 7.620135158300399780e+00 -1.133566582947963752e+00
1.273874235153198242e+01 7.910662502050399780e+00 -1.163077080994838752e+00
2.104648160934448242e+01 1.158717617392539978e+01 -1.756903374940151252e+00
2.025546598434448242e+01 1.148219570517539978e+01 -1.706000054627651252e+00
1.459189176559448242e+01 9.171648830175399780e+00 -1.305670464783901252e+00
1.449667692184448242e+01 9.295061916112899780e+00 -1.302679742127651252e+00
1.175351285934448242e+01 7.119402736425399780e+00 -1.029806817322963752e+00
1.202011442184448242e+01 7.350115627050399780e+00 -1.049902642518276252e+00
1.236606168746948242e+01 7.620013087987899780e+00 -1.075674737244838752e+00
1.273837614059448242e+01 7.910296291112899780e+00 -1.103064263612026252e+00
4.120248746871948242e+01 2.016347011923789978e+01 -2.987097466737026252e+00
3.174093961715698242e+01 1.650502285361289978e+01 -2.369635308533901252e+00
1.459323453903198242e+01 9.171892970800399780e+00 -1.235296929627651252e+00
1.449777555465698242e+01 9.295183986425399780e+00 -1.232458794862026252e+00
1.175461149215698242e+01 7.119891017675399780e+00 -9.755160458385887523e-01
1.201999235153198242e+01 7.350115627050399780e+00 -9.940096981823387523e-01
1.236581754684448242e+01 7.619768947362899780e+00 -1.017508233338588752e+00
1.273788785934448242e+01 7.910052150487899780e+00 -1.042776788026088752e+00
4.101169157028198242e+01 2.008168300986289978e+01 -2.771887505799526252e+00
3.175058317184448242e+01 1.650856289267539978e+01 -2.213553155213588752e+00
1.459457731246948242e+01 9.172137111425399780e+00 -1.165320122987026252e+00
1.449887418746948242e+01 9.295306056737899780e+00 -1.162665093690151252e+00
1.175583219528198242e+01 7.120379298925399780e+00 -9.209811337292137523e-01
1.201987028121948242e+01 7.349993556737899780e+00 -9.381320126354637523e-01
1.236557340621948242e+01 7.619646877050399780e+00 -9.596774227917137523e-01
1.273752164840698242e+01 7.909685939550399780e+00 -9.828555233776512523e-01
4.071396207809448242e+01 1.995436367392539978e+01 -2.553808892518276252e+00
3.176034879684448242e+01 1.651222500205039978e+01 -2.058325494080776252e+00
1.459592008590698242e+01 9.172503322362899780e+00 -1.095373833924526252e+00
1.450009489059448242e+01 9.295428127050399780e+00 -1.092520440369838752e+00
1.175705289840698242e+01 7.120745509862899780e+00 -8.667361386120262523e-01
1.201974821090698242e+01 7.349871486425399780e+00 -8.820101864635887523e-01
1.236532926559448242e+01 7.619402736425399780e+00 -9.016024716198387523e-01
1.273715543746948242e+01 7.909441798925399780e+00 -9.226596005260887523e-01
4.113705778121948242e+01 2.013380703330039978e+01 -2.374563897401088752e+00
3.177011442184448242e+01 1.651588711142539978e+01 -1.902258599549526252e+00
1.459738492965698242e+01 9.172747462987899780e+00 -1.025107110291713752e+00
1.450119352340698242e+01 9.295550197362899780e+00 -1.022787774354213752e+00
1.175815153121948242e+01 7.121233791112899780e+00 -8.122317440807762523e-01
1.201974821090698242e+01 7.349871486425399780e+00 -8.262240536510887523e-01
1.236508512496948242e+01 7.619280666112899780e+00 -8.438632138073387523e-01
1.273678922653198242e+01 7.909075587987899780e+00 -8.628298886120262523e-01
4.073337125778198242e+01 1.996144375205039978e+01 -2.154242242127651252e+00
3.179404020309448242e+01 1.652577480673789978e+01 -1.747702325135463752e+00
1.459872770309448242e+01 9.172991603612899780e+00 -9.552218563854637523e-01
1.450229215621948242e+01 9.295672267675399780e+00 -9.527194149792137523e-01
1.175937223434448242e+01 7.121722072362899780e+00 -7.580477841198387523e-01
1.201962614059448242e+01 7.349749416112899780e+00 -7.701785214245262523e-01
1.236484098434448242e+01 7.619036525487899780e+00 -7.858492977917137523e-01
1.273642301559448242e+01 7.908831447362899780e+00 -8.027255184948387523e-01
4.073410367965698242e+01 1.996107754111289978e+01 -1.953604424744838752e+00
3.183261442184448242e+01 1.654201015830039978e+01 -1.592779839783901252e+00
1.460007047653198242e+01 9.173357814550399780e+00 -8.850161679089012523e-01
1.450351285934448242e+01 9.295916408300399780e+00 -8.830630429089012523e-01
1.176059293746948242e+01 7.122088283300399780e+00 -7.036044247448387523e-01
1.201950407028198242e+01 7.349627345800399780e+00 -7.141635067760887523e-01
1.236459684371948242e+01 7.618914455175399780e+00 -7.282015927135887523e-01
1.273605680465698242e+01 7.908587306737899780e+00 -7.429721005260887523e-01
4.292856168746948242e+01 2.089393886923789978e+01 -1.833273614197963752e+00
3.187460660934448242e+01 1.655983242392539978e+01 -1.438528741151088752e+00
1.460141324996948242e+01 9.173601955175399780e+00 -8.148409970104637523e-01
1.450461149215698242e+01 9.296038478612899780e+00 -8.130709774792137523e-01
1.176645231246948242e+01 7.124407619237899780e+00 -6.493136532604637523e-01
1.204135465621948242e+01 7.358172267675399780e+00 -6.591708309948387523e-01
1.238608121871948242e+01 7.627459377050399780e+00 -6.709353573620262523e-01
1.275680875778198242e+01 7.917010158300399780e+00 -6.836154110729637523e-01
4.042599821090698242e+01 1.982875332236289978e+01 -1.544180596619838752e+00
3.191696500778198242e+01 1.657765468955039978e+01 -1.283133233338588752e+00
1.460336637496948242e+01 9.174212306737899780e+00 -7.450930722057762523e-01
1.450668668746948242e+01 9.296648830175399780e+00 -7.431399472057762523e-01
7.437350749969482422e+00 6.040301173925399780e+00 -1.173376763612026252e+00
7.400363445281982422e+00 6.104998439550399780e+00 -1.172171319276088752e+00
7.363620281219482422e+00 6.169695705175399780e+00 -1.171179497987026252e+00
7.333590984344482422e+00 6.238055080175399780e+00 -1.171072686463588752e+00
7.303683757781982422e+00 6.306170314550399780e+00 -1.170981133729213752e+00
7.273654460906982422e+00 6.374407619237899780e+00 -1.170874322205776252e+00
7.243625164031982422e+00 6.443011134862899780e+00 -1.170767510682338752e+00
7.211398601531982422e+00 6.510149806737899780e+00 -1.170569146424526252e+00
7.907687664031982422e+00 6.257220119237899780e+00 -1.196585381776088752e+00
7.865207195281982422e+00 6.325091212987899780e+00 -1.195151055604213752e+00
7.825412273406982422e+00 6.394060939550399780e+00 -1.193854058533901252e+00
7.782931804656982422e+00 6.461932033300399780e+00 -1.192419732362026252e+00
7.741427898406982422e+00 6.529803127050399780e+00 -1.191107476502651252e+00
7.709689617156982422e+00 6.602557033300399780e+00 -1.191015923768276252e+00
7.675387859344482422e+00 6.674456447362899780e+00 -1.190802300721401252e+00
7.643649578094482422e+00 6.747454494237899780e+00 -1.190695489197963752e+00
8.413913249969482422e+00 6.490740627050399780e+00 -1.219214165955776252e+00
8.372409343719482422e+00 6.565203517675399780e+00 -1.218191827088588752e+00
8.331027507781982422e+00 6.639666408300399780e+00 -1.217184747010463752e+00
8.288669109344482422e+00 6.713885158300399780e+00 -1.216070855408901252e+00
8.244601726531982422e+00 6.786639064550399780e+00 -1.214728081971401252e+00
8.200534343719482422e+00 6.859392970800399780e+00 -1.213385308533901252e+00
8.160373210906982422e+00 6.934466212987899780e+00 -1.212515557557338752e+00
8.122775554656982422e+00 7.010516017675399780e+00 -1.211950982362026252e+00
8.901095867156982422e+00 6.715472072362899780e+00 -1.234762872010463752e+00
8.856296062469482422e+00 6.794207423925399780e+00 -1.233404839783901252e+00
8.808932781219482422e+00 6.871722072362899780e+00 -1.231955254822963752e+00
8.767306804656982422e+00 6.952166408300399780e+00 -1.231177056580776252e+00
8.727511882781982422e+00 7.033221095800399780e+00 -1.230581963807338752e+00
8.687594890594482422e+00 7.114153712987899780e+00 -1.229986871033901252e+00
8.647433757781982422e+00 7.195452541112899780e+00 -1.229391778260463752e+00
8.604831218719482422e+00 7.274920314550399780e+00 -1.228689873963588752e+00
9.546359539031982422e+00 7.013079494237899780e+00 -1.262152398377651252e+00
9.492038249969482422e+00 7.095232814550399780e+00 -1.260290826112026252e+00
9.437961101531982422e+00 7.177141994237899780e+00 -1.258429253846401252e+00
9.383639812469482422e+00 7.259173244237899780e+00 -1.256582940369838752e+00
9.329806804656982422e+00 7.340716212987899780e+00 -1.254736626893276252e+00
9.276095867156982422e+00 7.422015041112899780e+00 -1.252890313416713752e+00
9.222262859344482422e+00 7.503435939550399780e+00 -1.251043999940151252e+00
9.168673992156982422e+00 7.584490627050399780e+00 -1.249212945252651252e+00
1.029892301559448242e+01 7.360247462987899780e+00 -1.294211114197963752e+00
1.023959684371948242e+01 7.449114650487899780e+00 -1.291937554627651252e+00
1.017648649215698242e+01 7.535784572362899780e+00 -1.289526665955776252e+00
1.011325407028198242e+01 7.622454494237899780e+00 -1.287115777283901252e+00
1.005050992965698242e+01 7.708636134862899780e+00 -1.284720147401088752e+00
9.987887859344482422e+00 7.794451564550399780e+00 -1.282339776307338752e+00
9.925387859344482422e+00 7.880389064550399780e+00 -1.279944146424526252e+00
9.868625164031982422e+00 7.968645900487899780e+00 -1.278403008729213752e+00
1.109152555465698242e+01 7.725848048925399780e+00 -1.322256768494838752e+00
1.105844449996948242e+01 7.836687892675399780e+00 -1.323187554627651252e+00
1.099423551559448242e+01 7.933001369237899780e+00 -1.321097100526088752e+00
1.093686246871948242e+01 8.032732814550399780e+00 -1.319662774354213752e+00
1.087973356246948242e+01 8.131975978612899780e+00 -1.318243706971401252e+00
1.082260465621948242e+01 8.231219142675399780e+00 -1.316824639588588752e+00
1.076547574996948242e+01 8.330584377050399780e+00 -1.315405572205776252e+00
1.070846891403198242e+01 8.429583400487899780e+00 -1.313986504822963752e+00
1.214499235153198242e+01 8.211687892675399780e+00 -1.366614068299526252e+00
1.209189176559448242e+01 8.325945705175399780e+00 -1.365988457947963752e+00
1.203439664840698242e+01 8.438128322362899780e+00 -1.364660943299526252e+00
1.197055387496948242e+01 8.547503322362899780e+00 -1.363058770447963752e+00
1.190695524215698242e+01 8.656512111425399780e+00 -1.361456597596401252e+00
1.184360074996948242e+01 8.765276759862899780e+00 -1.359884942322963752e+00
1.177414274215698242e+01 8.871233791112899780e+00 -1.358038628846401252e+00
1.171091032028198242e+01 8.979754298925399780e+00 -1.356451714783901252e+00
1.327890348434448242e+01 8.734759181737899780e+00 -1.406973565369838752e+00
1.326584196090698242e+01 8.881609767675399780e+00 -1.410238946229213752e+00
1.320126676559448242e+01 9.004778712987899780e+00 -1.409002984315151252e+00
1.313400602340698242e+01 9.126971095800399780e+00 -1.407553399354213752e+00
1.304269742965698242e+01 9.236224025487899780e+00 -1.403952325135463752e+00
1.293869352340698242e+01 9.338152736425399780e+00 -1.399206841737026252e+00
1.283505582809448242e+01 9.439715236425399780e+00 -1.394476617127651252e+00
1.273251676559448242e+01 9.540301173925399780e+00 -1.389792168885463752e+00
1.430246305465698242e+01 9.206805080175399780e+00 -1.427115166932338752e+00
1.429123258590698242e+01 9.366961330175399780e+00 -1.430594170838588752e+00
1.427988004684448242e+01 9.528460353612899780e+00 -1.434118951112026252e+00
1.426828336715698242e+01 9.691790431737899780e+00 -1.437674248963588752e+00
1.425668668746948242e+01 9.855975002050399780e+00 -1.441260064393276252e+00
1.420077848434448242e+01 9.998308986425399780e+00 -1.441153252869838752e+00
1.413339567184448242e+01 1.013551601767539978e+01 -1.440130914002651252e+00
1.404404020309448242e+01 1.026014980673789978e+01 -1.437216485291713752e+00
1.449533414840698242e+01 9.295428127050399780e+00 -1.372564996033901252e+00
1.483969449996948242e+01 9.626238673925399780e+00 -1.403296197205776252e+00
1.532358121871948242e+01 1.003505215048789978e+01 -1.445120538026088752e+00
1.651925992965698242e+01 1.081300625205039978e+01 -1.542731011658901252e+00
1.558298063278198242e+01 1.053285488486289978e+01 -1.474402154237026252e+00
1.551022672653198242e+01 1.068324550986289978e+01 -1.473334039002651252e+00
1.543735074996948242e+01 1.083412441611289978e+01 -1.472265923768276252e+00
1.534970426559448242e+01 1.097645840048789978e+01 -1.470022881776088752e+00
1.449655485153198242e+01 9.295550197362899780e+00 -1.302679742127651252e+00
1.483847379684448242e+01 9.625262111425399780e+00 -1.331152642518276252e+00
1.532199430465698242e+01 1.003383144736289978e+01 -1.370108330994838752e+00
2.047116422653198242e+01 1.278163418173789978e+01 -1.748785699158901252e+00
1.730844449996948242e+01 1.141371425986289978e+01 -1.523413384705776252e+00
1.717892789840698242e+01 1.155604824423789978e+01 -1.518652642518276252e+00
1.740426969528198242e+01 1.188832363486289978e+01 -1.540014947205776252e+00
1.711520719528198242e+01 1.194520840048789978e+01 -1.523504937440151252e+00
1.449765348434448242e+01 9.295672267675399780e+00 -1.232474053651088752e+00
1.483725309371948242e+01 9.624163478612899780e+00 -1.258673394471401252e+00
1.532052946090698242e+01 1.003248867392539978e+01 -1.295172417908901252e+00
2.189963102340698242e+01 1.349257168173789978e+01 -1.743643487244838752e+00
1.730966520309448242e+01 1.141347011923789978e+01 -1.437613213807338752e+00
1.718027067184448242e+01 1.155580410361289978e+01 -1.433111871033901252e+00
1.748910856246948242e+01 1.193287929892539978e+01 -1.458090508729213752e+00
1.808908414840698242e+01 1.247902187705039978e+01 -1.503699029237026252e+00
1.449887418746948242e+01 9.295794337987899780e+00 -1.162665093690151252e+00
1.483591032028198242e+01 9.623064845800399780e+00 -1.186651910096401252e+00
1.531906461715698242e+01 1.003126797080039978e+01 -1.219885552674526252e+00
2.435031461715698242e+01 1.471266445517539978e+01 -1.787100518494838752e+00
1.731088590621948242e+01 1.141334804892539978e+01 -1.351416314393276252e+00
1.718149137496948242e+01 1.155568203330039978e+01 -1.347143853455776252e+00
1.748666715621948242e+01 1.193055996298789978e+01 -1.370306695252651252e+00
1.808615446090698242e+01 1.247633633017539978e+01 -1.412283623963588752e+00
1.449997282028198242e+01 9.295916408300399780e+00 -1.092520440369838752e+00
1.483468961715698242e+01 9.622088283300399780e+00 -1.114691460877651252e+00
1.531759977340698242e+01 1.003004726767539978e+01 -1.145086968690151252e+00
2.166525602340698242e+01 1.337404140830039978e+01 -1.511755669862026252e+00
1.731210660934448242e+01 1.141322597861289978e+01 -1.265738213807338752e+00
1.718271207809448242e+01 1.155543789267539978e+01 -1.261694634705776252e+00
1.748410367965698242e+01 1.192836269736289978e+01 -1.282599175721401252e+00
1.808322477340698242e+01 1.247377285361289978e+01 -1.320486748963588752e+00
1.450107145309448242e+01 9.296160548925399780e+00 -1.022787774354213752e+00
1.483346891403198242e+01 9.620989650487899780e+00 -1.042395318299526252e+00
1.531601285934448242e+01 1.002870449423789978e+01 -1.069937432557338752e+00
2.245468473434448242e+01 1.376637539267539978e+01 -1.444723809510463752e+00
1.731332731246948242e+01 1.141310390830039978e+01 -1.179632867127651252e+00
1.718393278121948242e+01 1.155531582236289978e+01 -1.175833428651088752e+00
1.748166227340698242e+01 1.192604336142539978e+01 -1.194525445252651252e+00
1.808029508590698242e+01 1.247108730673789978e+01 -1.229254449158901252e+00
1.450229215621948242e+01 9.296282619237899780e+00 -9.527194149792137523e-01
1.483224821090698242e+01 9.620013087987899780e+00 -9.705569393932762523e-01
1.531454801559448242e+01 1.002748379111289978e+01 -9.952761776745262523e-01
2.183078336715698242e+01 1.345472988486289978e+01 -1.303808892518276252e+00
1.731454801559448242e+01 1.141298183798789978e+01 -1.094031060487026252e+00
1.718515348434448242e+01 1.155507168173789978e+01 -1.090475762635463752e+00
1.747922086715698242e+01 1.192384609580039978e+01 -1.107001031190151252e+00
1.807748746871948242e+01 1.246852383017539978e+01 -1.137655938416713752e+00
1.450339078903198242e+01 9.296404689550399780e+00 -8.830630429089012523e-01
1.483102750778198242e+01 9.618914455175399780e+00 -8.983981259167137523e-01
1.531308317184448242e+01 1.002614101767539978e+01 -9.202639706432762523e-01
2.386813688278198242e+01 1.446864590048789978e+01 -1.280188287049526252e+00
1.731576871871948242e+01 1.141273769736289978e+01 -1.008032525330776252e+00
1.718637418746948242e+01 1.155494961142539978e+01 -1.004706109315151252e+00
1.747665739059448242e+01 1.192152675986289978e+01 -1.019095147401088752e+00
1.807455778121948242e+01 1.246583828330039978e+01 -1.046622002869838752e+00
1.450448942184448242e+01 9.296526759862899780e+00 -8.130709774792137523e-01
1.482980680465698242e+01 9.617937892675399780e+00 -8.263003475964012523e-01
1.531161832809448242e+01 1.002492031455039978e+01 -8.457247860729637523e-01
2.027255582809448242e+01 1.267689785361289978e+01 -1.029425347596401252e+00
1.731686735153198242e+01 1.141261562705039978e+01 -9.225222714245262523e-01
1.718759489059448242e+01 1.155470547080039978e+01 -9.194399960339012523e-01
1.747421598434448242e+01 1.191920742392539978e+01 -9.312808163464012523e-01
1.807162809371948242e+01 1.246315273642539978e+01 -9.551913388073387523e-01
1.450668668746948242e+01 9.297137111425399780e+00 -7.431399472057762523e-01
1.482870817184448242e+01 9.616961330175399780e+00 -7.546450741589012523e-01
1.531003141403198242e+01 1.002369961142539978e+01 -7.708499081432762523e-01
2.059872770309448242e+01 1.283864101767539978e+01 -9.390017636120262523e-01
1.731808805465698242e+01 1.141249355673789978e+01 -8.366152890026512523e-01
1.718893766403198242e+01 1.155458340048789978e+01 -8.337618954479637523e-01
1.747177457809448242e+01 1.191701015830039978e+01 -8.440310604870262523e-01
1.806869840621948242e+01 1.246058925986289978e+01 -8.638674862682762523e-01
7.211154460906982422e+00 6.510393947362899780e+00 -1.170538628846401252e+00
7.180514812469482422e+00 6.578509181737899780e+00 -1.170416558533901252e+00
7.147677898406982422e+00 6.645647853612899780e+00 -1.170187676697963752e+00
7.114718914031982422e+00 6.713030666112899780e+00 -1.169958794862026252e+00
7.083835124969482422e+00 6.781634181737899780e+00 -1.169989312440151252e+00
7.053561687469482422e+00 6.850725978612899780e+00 -1.170126641541713752e+00
7.020480632781982422e+00 6.918597072362899780e+00 -1.169913018494838752e+00
6.983005046844482422e+00 6.983538478612899780e+00 -1.169272149354213752e+00
7.643405437469482422e+00 6.747698634862899780e+00 -1.190680230408901252e+00
7.608859539031982422e+00 6.819231837987899780e+00 -1.190451348572963752e+00
7.576266765594482422e+00 6.892107814550399780e+00 -1.190283501893276252e+00
7.535129070281982422e+00 6.960467189550399780e+00 -1.189230645447963752e+00
7.494113445281982422e+00 7.028582423925399780e+00 -1.188193047791713752e+00
7.453097820281982422e+00 7.096697658300399780e+00 -1.187140191346401252e+00
7.409762859344482422e+00 7.163592189550399780e+00 -1.185995782166713752e+00
7.368747234344482422e+00 7.231707423925399780e+00 -1.184958184510463752e+00
8.122531414031982422e+00 7.010638087987899780e+00 -1.211935723572963752e+00
8.080295085906982422e+00 7.084124416112899780e+00 -1.211004937440151252e+00
8.036471843719482422e+00 7.156756252050399780e+00 -1.209891045838588752e+00
7.992526531219482422e+00 7.229632228612899780e+00 -1.208761895447963752e+00
7.948825359344482422e+00 7.302264064550399780e+00 -1.207648003846401252e+00
7.905002117156982422e+00 7.374895900487899780e+00 -1.206534112244838752e+00
7.861178874969482422e+00 7.447771877050399780e+00 -1.205420220643276252e+00
7.817355632781982422e+00 7.520403712987899780e+00 -1.204306329041713752e+00
8.604465007781982422e+00 7.275164455175399780e+00 -1.228674615174526252e+00
8.565036296844482422e+00 7.356463283300399780e+00 -1.228094781190151252e+00
8.522677898406982422e+00 7.436297267675399780e+00 -1.227408135682338752e+00
8.480075359344482422e+00 7.516497462987899780e+00 -1.226721490174526252e+00
8.437716960906982422e+00 7.596575587987899780e+00 -1.226034844666713752e+00
8.395236492156982422e+00 7.676653712987899780e+00 -1.225348199158901252e+00
8.352511882781982422e+00 7.757098048925399780e+00 -1.224661553651088752e+00
8.307345867156982422e+00 7.835589259862899780e+00 -1.223883355408901252e+00
9.168307781219482422e+00 7.584612697362899780e+00 -1.249197686463588752e+00
9.112155437469482422e+00 7.663836330175399780e+00 -1.247214043885463752e+00
9.066256999969482422e+00 7.748919337987899780e+00 -1.246405328065151252e+00
9.021090984344482422e+00 7.834856837987899780e+00 -1.245672906190151252e+00
8.975924968719482422e+00 7.920550197362899780e+00 -1.244955743104213752e+00
8.930881023406982422e+00 8.006365627050399780e+00 -1.244238580018276252e+00
8.885470867156982422e+00 8.092547267675399780e+00 -1.243506158143276252e+00
8.842990398406982422e+00 8.180315822362899780e+00 -1.243094170838588752e+00
9.868381023406982422e+00 7.968890041112899780e+00 -1.278387749940151252e+00
9.818210124969482422e+00 8.060686916112899780e+00 -1.277167046815151252e+00
9.764132976531982422e+00 8.150164455175399780e+00 -1.275793755799526252e+00
9.709689617156982422e+00 8.240130275487899780e+00 -1.274405205994838752e+00
9.655612468719482422e+00 8.329607814550399780e+00 -1.273016656190151252e+00
9.605685710906982422e+00 8.421770900487899780e+00 -1.272085870057338752e+00
9.567355632781982422e+00 8.521746486425399780e+00 -1.272452080994838752e+00
9.525363445281982422e+00 8.619280666112899780e+00 -1.272650445252651252e+00
1.070810270309448242e+01 8.429705470800399780e+00 -1.313955987244838752e+00
1.064889860153198242e+01 8.527483791112899780e+00 -1.312445367127651252e+00
1.058981657028198242e+01 8.625140041112899780e+00 -1.310934747010463752e+00
1.053049039840698242e+01 8.723040431737899780e+00 -1.309424126893276252e+00
1.047140836715698242e+01 8.820696681737899780e+00 -1.307913506776088752e+00
1.041220426559448242e+01 8.918230861425399780e+00 -1.306402886658901252e+00
1.035287809371948242e+01 9.016131252050399780e+00 -1.304877007752651252e+00
1.029855680465698242e+01 9.116839259862899780e+00 -1.303869927674526252e+00
1.171029996871948242e+01 8.979876369237899780e+00 -1.356421197205776252e+00
1.164523649215698242e+01 9.087298244237899780e+00 -1.354757989197963752e+00
1.158591032028198242e+01 9.197893947362899780e+00 -1.353338921815151252e+00
1.152048063278198242e+01 9.305682033300399780e+00 -1.351660455018276252e+00
1.145529508590698242e+01 9.412981837987899780e+00 -1.349997247010463752e+00
1.139023160934448242e+01 9.520403712987899780e+00 -1.348334039002651252e+00
1.131918668746948242e+01 9.624407619237899780e+00 -1.346411431580776252e+00
1.125412321090698242e+01 9.731707423925399780e+00 -1.344748223572963752e+00
1.273166227340698242e+01 9.540423244237899780e+00 -1.389731133729213752e+00
1.262851285934448242e+01 9.639666408300399780e+00 -1.385046685487026252e+00
1.252609586715698242e+01 9.738421291112899780e+00 -1.380377496033901252e+00
1.242380094528198242e+01 9.837054103612899780e+00 -1.375723565369838752e+00
1.233688688278198242e+01 9.943499416112899780e+00 -1.372442925721401252e+00
1.226633024215698242e+01 1.005946621298789978e+01 -1.370642388612026252e+00
1.219552946090698242e+01 1.017592129111289978e+01 -1.368826592713588752e+00
1.212509489059448242e+01 1.029188808798789978e+01 -1.367026055604213752e+00
1.404318571090698242e+01 1.026027187705039978e+01 -1.437170708924526252e+00
1.394272184371948242e+01 1.037806972861289978e+01 -1.433325494080776252e+00
1.384262418746948242e+01 1.049550136923789978e+01 -1.429510796815151252e+00
1.374252653121948242e+01 1.061305508017539978e+01 -1.425680840760463752e+00
1.364316129684448242e+01 1.072975429892539978e+01 -1.421896661072963752e+00
1.354416227340698242e+01 1.084608730673789978e+01 -1.418127740174526252e+00
1.343478727340698242e+01 1.095582851767539978e+01 -1.413458550721401252e+00
1.332016324996948242e+01 1.106068691611289978e+01 -1.408285821229213752e+00
1.534897184371948242e+01 1.097670254111289978e+01 -1.469977105408901252e+00
1.525314664840698242e+01 1.111415371298789978e+01 -1.467047417908901252e+00
1.515756559371948242e+01 1.125148281455039978e+01 -1.464132989197963752e+00
1.506845426559448242e+01 1.139296230673789978e+01 -1.461737359315151252e+00
1.498556852340698242e+01 1.153749355673789978e+01 -1.459830010682338752e+00
1.490256071090698242e+01 1.168202480673789978e+01 -1.457922662049526252e+00
1.478805875778198242e+01 1.180739101767539978e+01 -1.453467095643276252e+00
1.467441129684448242e+01 1.193190273642539978e+01 -1.449057305604213752e+00
1.711435270309448242e+01 1.194545254111289978e+01 -1.523459161072963752e+00
1.699960660934448242e+01 1.209535488486289978e+01 -1.519705498963588752e+00
1.688522672653198242e+01 1.224476894736289978e+01 -1.515936578065151252e+00
1.677060270309448242e+01 1.239442715048789978e+01 -1.512182915955776252e+00
1.665671110153198242e+01 1.254323086142539978e+01 -1.508444512635463752e+00
