4.919352704286575317e+01 1.823614385724067688e+01 -2.359799987077707328e+00
8.673873722553253174e+00 4.943541318178176880e+00 -6.064583122730198284e-01
8.847213566303253174e+00 5.067564755678176880e+00 -6.139503777027073284e-01
9.029708683490753174e+00 5.197935849428176880e+00 -6.218391716480198284e-01
9.222457706928253174e+00 5.335875302553176880e+00 -6.301704704761448284e-01
9.425216495990753174e+00 5.480894833803176880e+00 -6.389290153980198284e-01
9.639449894428253174e+00 5.634093075990676880e+00 -6.481911003589573284e-01
4.974223309755325317e+01 1.787786749005317688e+01 -2.141095763444894828e+00
6.151615887880325317e+01 2.210455206036567688e+01 -2.588636046648019828e+00
8.674606144428253174e+00 4.944029599428176880e+00 -5.702339470386448284e-01
8.847823917865753174e+00 5.067930966615676880e+00 -5.767952263355198284e-01
9.030196964740753174e+00 5.198424130678176880e+00 -5.839058220386448284e-01
9.222945988178253174e+00 5.336241513490676880e+00 -5.912300407886448284e-01
9.425704777240753174e+00 5.481261044740676880e+00 -5.989204704761448284e-01
9.639938175678253174e+00 5.634459286928176880e+00 -6.070381462573948284e-01
4.958146649599075317e+01 1.783013799786567688e+01 -1.901364928483957328e+00
5.082328778505325317e+01 1.874908331036567688e+01 -1.948850280046457328e+00
8.684982120990753174e+00 4.946837216615676880e+00 -5.342842400073948284e-01
8.859786808490753174e+00 5.071226865053176880e+00 -5.401588737964573284e-01
9.043990910053253174e+00 5.202208310365676880e+00 -5.461555778980198284e-01
9.238693058490753174e+00 5.340758115053176880e+00 -5.525032341480198284e-01
9.443649113178253174e+00 5.486510068178176880e+00 -5.591865837573948284e-01
9.660201847553253174e+00 5.640562802553176880e+00 -5.662361443042698284e-01
4.665531903505325317e+01 1.694427374005317688e+01 -1.588254576921457328e+00
4.808927899599075317e+01 1.789166143536567688e+01 -1.632871276140207328e+00
8.282028019428253174e+00 5.394346982240676880e+00 -1.198316222429269828e+00
8.260299503803253174e+00 5.467345029115676880e+00 -1.198606139421457328e+00
8.236129581928253174e+00 5.539732724428176880e+00 -1.198789244890207328e+00
8.211959660053253174e+00 5.612242490053176880e+00 -1.198972350358957328e+00
8.187667667865753174e+00 5.684630185365676880e+00 -1.199155455827707328e+00
8.159103214740753174e+00 5.755430966615676880e+00 -1.198789244890207328e+00
8.127975285053253174e+00 5.825499325990676880e+00 -1.198133116960519828e+00
8.094650089740753174e+00 5.894224911928176880e+00 -1.197385436296457328e+00
8.969772160053253174e+00 5.610167294740676880e+00 -1.241819030046457328e+00
8.756393253803253174e+00 5.628477841615676880e+00 -1.220471984148019828e+00
8.727096378803253174e+00 5.704649716615676880e+00 -1.220044738054269828e+00
8.693893253803253174e+00 5.779600888490676880e+00 -1.219403868913644828e+00
8.658004581928253174e+00 5.853209286928176880e+00 -1.218412047624582328e+00
8.620895206928253174e+00 5.926085263490676880e+00 -1.217267638444894828e+00
8.581466495990753174e+00 5.998228818178176880e+00 -1.216062194108957328e+00
8.544601261615753174e+00 6.070738583803176880e+00 -1.214948302507394828e+00
9.232955753803253174e+00 5.692808896303176880e+00 -1.231961852312082328e+00
9.186813175678253174e+00 5.768370419740676880e+00 -1.230085021257394828e+00
9.181686222553253174e+00 5.857359677553176880e+00 -1.232709532976144828e+00
9.176437199115753174e+00 5.947081357240676880e+00 -1.235364562273019828e+00
9.171188175678253174e+00 6.037047177553176880e+00 -1.238034850358957328e+00
9.152999699115753174e+00 6.122740536928176880e+00 -1.239270812273019828e+00
9.103439152240753174e+00 6.197081357240676880e+00 -1.236997252702707328e+00
9.054244816303253174e+00 6.270811825990676880e+00 -1.234738951921457328e+00
9.686080753803253174e+00 5.835020810365676880e+00 -1.239743834733957328e+00
9.684982120990753174e+00 5.930235654115676880e+00 -1.242627745866769828e+00
9.680953800678253174e+00 6.025084286928176880e+00 -1.245465880632394828e+00
9.676925480365753174e+00 6.120787411928176880e+00 -1.248319274187082328e+00
9.672897160053253174e+00 6.216734677553176880e+00 -1.251187926530832328e+00
9.668746769428253174e+00 6.313414365053176880e+00 -1.254071837663644828e+00
9.664718449115753174e+00 6.410948544740676880e+00 -1.256986266374582328e+00
9.657760441303253174e+00 6.507628232240676880e+00 -1.259824401140207328e+00
1.182572919130325317e+01 6.506407529115676880e+00 -1.411908751726144828e+00
1.132756024599075317e+01 6.463682919740676880e+00 -1.365659362077707328e+00
1.097477704286575317e+01 6.459654599428176880e+00 -1.333753234148019828e+00
1.072465497255325317e+01 6.484434872865676880e+00 -1.312039977312082328e+00
1.059904462099075317e+01 6.548643857240676880e+00 -1.302793151140207328e+00
1.047575360536575317e+01 6.611632138490676880e+00 -1.293714171648019828e+00
1.035429364442825317e+01 6.673643857240676880e+00 -1.284787780046457328e+00
1.027165204286575317e+01 6.748472958803176880e+00 -1.279752379655832328e+00
1.309416180849075317e+01 6.904600888490676880e+00 -1.480542784929269828e+00
1.299980145692825317e+01 7.006895810365676880e+00 -1.475293761491769828e+00
1.290544110536575317e+01 7.108092099428176880e+00 -1.470319396257394828e+00
1.153507977724075317e+01 6.765684872865676880e+00 -1.342374449968332328e+00
1.146318036317825317e+01 6.858214169740676880e+00 -1.339048033952707328e+00
1.142765790224075317e+01 6.963438779115676880e+00 -1.339231139421457328e+00
1.159013348817825317e+01 7.144469052553176880e+00 -1.358731871843332328e+00
1.147416669130325317e+01 7.220396786928176880e+00 -1.351407653093332328e+00
1.327604657411575317e+01 6.961729794740676880e+00 -1.438260680437082328e+00
1.317851239442825317e+01 7.065123349428176880e+00 -1.433347350358957328e+00
1.308195477724075317e+01 7.167418271303176880e+00 -1.428479796648019828e+00
1.153642255067825317e+01 6.766173154115676880e+00 -1.291059142351144828e+00
1.146440106630325317e+01 6.858702450990676880e+00 -1.287900573015207328e+00
1.142826825380325317e+01 6.963682919740676880e+00 -1.288037902116769828e+00
1.171049481630325317e+01 7.190245419740676880e+00 -1.317609435319894828e+00
1.202751141786575317e+01 7.437437802553176880e+00 -1.350614196062082328e+00
1.346232587099075317e+01 7.020445615053176880e+00 -1.394940978288644828e+00
1.336247235536575317e+01 7.124937802553176880e+00 -1.390164977312082328e+00
1.638334637880325317e+01 8.276304990053176880e+00 -1.654157286882394828e+00
1.153764325380325317e+01 6.766661435365676880e+00 -1.239499694108957328e+00
1.146562176942825317e+01 6.859190732240676880e+00 -1.236508971452707328e+00
1.142900067567825317e+01 6.963804990053176880e+00 -1.236585265398019828e+00
1.171037274599075317e+01 7.190123349428176880e+00 -1.264783507585519828e+00
1.202714520692825317e+01 7.437315732240676880e+00 -1.296002990007394828e+00
1.670036298036575317e+01 8.036558896303176880e+00 -1.596128112077707328e+00
1.668327313661575317e+01 8.203551083803176880e+00 -1.599256163835519828e+00
1.666618329286575317e+01 8.371397763490676880e+00 -1.602399474382394828e+00
1.153886395692825317e+01 6.767149716615676880e+00 -1.188230162858957328e+00
1.146696454286575317e+01 6.859556943178176880e+00 -1.185422545671457328e+00
1.142973309755325317e+01 6.964049130678176880e+00 -1.185437804460519828e+00
1.171012860536575317e+01 7.190001279115676880e+00 -1.211698180437082328e+00
1.202690106630325317e+01 7.437071591615676880e+00 -1.241147643327707328e+00
4.382243329286575317e+01 1.654754522442817688e+01 -3.580945616960519828e+00
4.842692548036575317e+01 1.851373174786567688e+01 -3.943585997819894828e+00
4.965019208192825317e+01 1.944964483380317688e+01 -4.050092345476144828e+00
1.154020673036575317e+01 6.767637997865676880e+00 -1.136975890398019828e+00
1.146818524599075317e+01 6.860045224428176880e+00 -1.134336119890207328e+00
1.143034344911575317e+01 6.964293271303176880e+00 -1.134320861101144828e+00
1.171000653505325317e+01 7.189879208803176880e+00 -1.158948546648019828e+00
1.202653485536575317e+01 7.436827450990676880e+00 -1.186627990007394828e+00
4.386515790224075317e+01 1.656158331036567688e+01 -3.376325255632394828e+00
4.869499188661575317e+01 1.860137823224067688e+01 -3.731916075944894828e+00
4.917692548036575317e+01 1.929107549786567688e+01 -3.778607970476144828e+00
1.154142743349075317e+01 6.768126279115676880e+00 -1.085477477312082328e+00
1.146952801942825317e+01 6.860533505678176880e+00 -1.083005553483957328e+00
1.143107587099075317e+01 6.964537411928176880e+00 -1.082944518327707328e+00
1.170976239442825317e+01 7.189757138490676880e+00 -1.105939513444894828e+00
1.202629071474075317e+01 7.436583310365676880e+00 -1.131864196062082328e+00
4.388883954286575317e+01 1.656963995099067688e+01 -3.171277648210519828e+00
4.782402020692825317e+01 1.831902959942817688e+01 -3.443235045671457328e+00
4.254655438661575317e+01 1.706439092755317688e+01 -3.101987487077707328e+00
1.154264813661575317e+01 6.768614560365676880e+00 -1.034268981218332328e+00
1.147074872255325317e+01 6.861021786928176880e+00 -1.031964904069894828e+00
1.143180829286575317e+01 6.964781552553176880e+00 -1.031888610124582328e+00
1.170964032411575317e+01 7.189635068178176880e+00 -1.053266173601144828e+00
1.202592450380325317e+01 7.436339169740676880e+00 -1.077405577898019828e+00
4.391276532411575317e+01 1.657781866192817688e+01 -2.965024596452707328e+00
4.874113446474075317e+01 1.861749151349067688e+01 -3.272229796648019828e+00
4.250578290224075317e+01 1.705108526349067688e+01 -2.897916442155832328e+00
1.154399091005325317e+01 6.769102841615676880e+00 -9.830757439136448284e-01
1.147196942567825317e+01 6.861510068178176880e+00 -9.809547722339573284e-01
1.143254071474075317e+01 6.965025693178176880e+00 -9.808327019214573284e-01
1.170939618349075317e+01 7.189390927553176880e+00 -1.000333434343332328e+00
1.202568036317825317e+01 7.436095029115676880e+00 -1.022718077898019828e+00
4.393644696474075317e+01 1.658587530255317688e+01 -2.759763365983957328e+00
4.777690106630325317e+01 1.830474737286567688e+01 -2.986768370866769828e+00
4.253556805849075317e+01 1.706133916974067688e+01 -2.697309142351144828e+00
1.154521161317825317e+01 6.769591122865676880e+00 -9.316383659839573284e-01
1.147331219911575317e+01 6.861876279115676880e+00 -9.296852409839573284e-01
1.143315106630325317e+01 6.965269833803176880e+00 -9.295479118823948284e-01
1.170927411317825317e+01 7.189268857240676880e+00 -9.477211296558323284e-01
1.202543622255325317e+01 7.435850888490676880e+00 -9.683510124683323284e-01
4.396037274599075317e+01 1.659405401349067688e+01 -2.553327208757394828e+00
4.791972333192825317e+01 1.835162237286567688e+01 -2.768338805437082328e+00
4.764945966005325317e+01 1.877947881817817688e+01 -2.763013488054269828e+00
1.154643231630325317e+01 6.770079404115676880e+00 -8.804909050464573284e-01
1.147453290224075317e+01 6.862364560365676880e+00 -8.787056267261448284e-01
1.143388348817825317e+01 6.965391904115676880e+00 -8.785530388355198284e-01
1.170902997255325317e+01 7.189146786928176880e+00 -8.951393425464573284e-01
1.202507001161575317e+01 7.435606747865676880e+00 -9.137245476245823284e-01
4.922953778505325317e+01 1.824847295880317688e+01 -2.594358092546457328e+00
4.779606610536575317e+01 1.831207159161567688e+01 -2.534894591569894828e+00
4.791886883974075317e+01 1.887042120099067688e+01 -2.548673278093332328e+00
1.154777508974075317e+01 6.770567685365676880e+00 -8.290840446948948284e-01
1.147587567567825317e+01 6.862852841615676880e+00 -8.274818718433323284e-01
1.143461591005325317e+01 6.965636044740676880e+00 -8.273140251636448284e-01
1.170890790224075317e+01 7.189024716615676880e+00 -8.423286736011448284e-01
1.202482587099075317e+01 7.435362607240676880e+00 -8.594337761402073284e-01
5.033256512880325317e+01 1.859551885724067688e+01 -2.407849913835519828e+00
4.450993329286575317e+01 1.724505499005317688e+01 -2.170117980241769828e+00
4.720646649599075317e+01 1.863140752911567688e+01 -2.291349059343332328e+00
1.154899579286575317e+01 6.771055966615676880e+00 -7.779823601245823284e-01
1.147709637880325317e+01 6.863341122865676880e+00 -7.765480339527073284e-01
1.143522626161575317e+01 6.965880185365676880e+00 -7.763801872730198284e-01
1.170866376161575317e+01 7.188902646303176880e+00 -7.898231804370823284e-01
1.202445966005325317e+01 7.435240536928176880e+00 -8.048836052417698284e-01
6.022038251161575317e+01 2.170013311505317688e+01 -2.540280944108957328e+00
4.267399579286575317e+01 1.664910772442817688e+01 -1.890500670671457328e+00
4.752873212099075317e+01 1.874005010724067688e+01 -2.078839904069894828e+00
1.155021649599075317e+01 6.771544247865676880e+00 -7.266212761402073284e-01
1.147843915224075317e+01 6.863829404115676880e+00 -7.253547966480198284e-01
1.143595868349075317e+01 6.966124325990676880e+00 -7.252022087573948284e-01
1.170854169130325317e+01 7.188780575990676880e+00 -7.370735466480198284e-01
1.202421551942825317e+01 7.434996396303176880e+00 -7.506691277027073284e-01
5.082157880067825317e+01 1.875042608380317688e+01 -1.948819762468332328e+00
4.262223798036575317e+01 1.663275030255317688e+01 -1.687055236101144828e+00
4.745610028505325317e+01 1.871600225567817688e+01 -1.851590758562082328e+00
1.155155926942825317e+01 6.772032529115676880e+00 -6.755653679370823284e-01
1.147965985536575317e+01 6.864195615053176880e+00 -6.744667351245823284e-01
1.143669110536575317e+01 6.966368466615676880e+00 -6.743141472339573284e-01
1.170829755067825317e+01 7.188658505678176880e+00 -6.843544304370823284e-01
1.202384930849075317e+01 7.434752255678176880e+00 -6.962105095386448284e-01
4.808293133974075317e+01 1.789141729474067688e+01 -1.632718688249582328e+00
4.017680341005325317e+01 1.583868291974067688e+01 -1.418683654069894828e+00
4.738346844911575317e+01 1.869195440411567688e+01 -1.623990660905832328e+00
1.156217938661575317e+01 6.775816708803176880e+00 -6.245094597339573284e-01
1.149064618349075317e+01 6.868223935365676880e+00 -6.235939323902073284e-01
1.144999676942825317e+01 6.971251279115676880e+00 -6.235328972339573284e-01
1.174040204286575317e+01 7.200743466615676880e+00 -6.328712761402073284e-01
1.205717450380325317e+01 7.447691708803176880e+00 -6.427284538745823284e-01
8.094528019428253174e+00 5.894469052553176880e+00 -1.197385436296457328e+00
8.063155949115753174e+00 5.963804990053176880e+00 -1.196714049577707328e+00
8.029342472553253174e+00 6.032286435365676880e+00 -1.195951110124582328e+00
7.995651066303253174e+00 6.100767880678176880e+00 -1.195188170671457328e+00
7.961959660053253174e+00 6.169127255678176880e+00 -1.194425231218332328e+00
7.928268253803253174e+00 6.237242490053176880e+00 -1.193662291765207328e+00
7.894576847553253174e+00 6.305601865053176880e+00 -1.192899352312082328e+00
7.858810245990753174e+00 6.372618466615676880e+00 -1.192044860124582328e+00
8.544479191303253174e+00 6.070982724428176880e+00 -1.214933043718332328e+00
8.505172550678253174e+00 6.142393857240676880e+00 -1.213727599382394828e+00
8.468185245990753174e+00 6.214659482240676880e+00 -1.212613707780832328e+00
8.428878605365753174e+00 6.285948544740676880e+00 -1.211408263444894828e+00
8.389816105365753174e+00 6.356993466615676880e+00 -1.210218077898019828e+00
8.350753605365753174e+00 6.427794247865676880e+00 -1.209027892351144828e+00
8.309493839740753174e+00 6.497740536928176880e+00 -1.207761412858957328e+00
8.270553410053253174e+00 6.568419247865676880e+00 -1.206571227312082328e+00
9.054000675678253174e+00 6.270933896303176880e+00 -1.234723693132394828e+00
9.001876652240753174e+00 6.343077450990676880e+00 -1.232343322038644828e+00
8.950118839740753174e+00 6.414854794740676880e+00 -1.229978209733957328e+00
8.898361027240753174e+00 6.486632138490676880e+00 -1.227597838640207328e+00
8.847091495990753174e+00 6.557799130678176880e+00 -1.225247985124582328e+00
8.795944035053253174e+00 6.628721982240676880e+00 -1.222913390398019828e+00
8.750533878803253174e+00 6.702086240053176880e+00 -1.221234923601144828e+00
8.715133488178253174e+00 6.779722958803176880e+00 -1.220685607194894828e+00
9.657882511615753174e+00 6.507994443178176880e+00 -1.259839659929269828e+00
9.644820988178253174e+00 6.602843075990676880e+00 -1.261792784929269828e+00
9.587325870990753174e+00 6.679747372865676880e+00 -1.259168273210519828e+00
9.535812199115753174e+00 6.759093075990676880e+00 -1.257169371843332328e+00
9.488570988178253174e+00 6.839537411928176880e+00 -1.255628234148019828e+00
9.441329777240753174e+00 6.919859677553176880e+00 -1.254071837663644828e+00
9.394088566303253174e+00 7.000304013490676880e+00 -1.252530699968332328e+00
9.343429386615753174e+00 7.078429013490676880e+00 -1.250806456804269828e+00
1.027165204286575317e+01 6.748839169740676880e+00 -1.279767638444894828e+00
1.024467450380325317e+01 6.845152646303176880e+00 -1.280622130632394828e+00
1.021757489442825317e+01 6.941710263490676880e+00 -1.281476622819894828e+00
1.019035321474075317e+01 7.038756161928176880e+00 -1.282331115007394828e+00
1.015409833192825317e+01 7.131895810365676880e+00 -1.282254821062082328e+00
1.009831219911575317e+01 7.216246396303176880e+00 -1.280133849382394828e+00
1.004252606630325317e+01 7.300596982240676880e+00 -1.277997618913644828e+00
9.987106144428253174e+00 7.384459286928176880e+00 -1.275891906023019828e+00
1.147343426942825317e+01 7.220518857240676880e+00 -1.351346617937082328e+00
1.136430341005325317e+01 7.297545224428176880e+00 -1.344251281023019828e+00
1.125285321474075317e+01 7.372008115053176880e+00 -1.337155944108957328e+00
1.114262372255325317e+01 7.445860654115676880e+00 -1.330121642351144828e+00
1.103410321474075317e+01 7.518492490053176880e+00 -1.323209410905832328e+00
1.092692548036575317e+01 7.590147763490676880e+00 -1.316388732194894828e+00
1.077311688661575317e+01 7.639097958803176880e+00 -1.304868346452707328e+00
1.072709637880325317e+01 7.736143857240676880e+00 -1.304334288835519828e+00
1.202983075380325317e+01 7.438902646303176880e+00 -1.350843077898019828e+00
1.204008466005325317e+01 7.570494443178176880e+00 -1.355649596452707328e+00
1.193827801942825317e+01 7.656798154115676880e+00 -1.350034362077707328e+00
1.185832196474075317e+01 7.751646786928176880e+00 -1.346418029069894828e+00
1.181547528505325317e+01 7.861632138490676880e+00 -1.346280699968332328e+00
1.177079755067825317e+01 7.970885068178176880e+00 -1.345975524187082328e+00
1.171537762880325317e+01 8.075621396303176880e+00 -1.344663268327707328e+00
1.166032391786575317e+01 8.179869443178176880e+00 -1.343351012468332328e+00
1.202958661317825317e+01 7.438658505678176880e+00 -1.296231871843332328e+00
1.236869794130325317e+01 7.703062802553176880e+00 -1.329755431413644828e+00
1.284159833192825317e+01 8.032286435365676880e+00 -1.375058776140207328e+00
1.283085614442825317e+01 8.167296200990676880e+00 -1.378064757585519828e+00
1.281999188661575317e+01 8.302794247865676880e+00 -1.381085997819894828e+00
1.280912762880325317e+01 8.439268857240676880e+00 -1.384122496843332328e+00
1.279362469911575317e+01 8.575011044740676880e+00 -1.387113219499582328e+00
1.278507977724075317e+01 8.714537411928176880e+00 -1.390424376726144828e+00
1.202922040224075317e+01 7.438414365053176880e+00 -1.241361266374582328e+00
1.236820966005325317e+01 7.702818661928176880e+00 -1.272946959733957328e+00
1.743046551942825317e+01 9.940001279115676880e+00 -1.699048644304269828e+00
1.756278973817825317e+01 1.019036749005317688e+01 -1.715283995866769828e+00
1.371586591005325317e+01 8.696226865053176880e+00 -1.396955138444894828e+00
1.365702801942825317e+01 8.821715146303176880e+00 -1.396024352312082328e+00
1.363017255067825317e+01 8.962462216615676880e+00 -1.397809630632394828e+00
1.361442548036575317e+01 9.108580380678176880e+00 -1.400556212663644828e+00
1.202897626161575317e+01 7.438170224428176880e+00 -1.186826354265207328e+00
1.236772137880325317e+01 7.702452450990676880e+00 -1.216474181413644828e+00
1.848551923036575317e+01 1.037835577130317688e+01 -1.699887877702707328e+00
1.840824872255325317e+01 1.055145147442817688e+01 -1.698911315202707328e+00
1.429692059755325317e+01 8.951231747865676880e+00 -1.378934508562082328e+00
1.419975262880325317e+01 9.066344052553176880e+00 -1.375165587663644828e+00
1.429728680849075317e+01 9.271300107240676880e+00 -1.386884337663644828e+00
1.473551923036575317e+01 9.641417294740676880e+00 -1.425931578874582328e+00
1.202861005067825317e+01 7.437926083803176880e+00 -1.132047301530832328e+00
1.236735516786575317e+01 7.702086240053176880e+00 -1.159742003679269828e+00
1.974699383974075317e+01 1.090252569317817688e+01 -1.704953795671457328e+00
1.966093426942825317e+01 1.108660772442817688e+01 -1.703672057390207328e+00
1.429826337099075317e+01 8.951475888490676880e+00 -1.311841613054269828e+00
1.420109540224075317e+01 9.066466122865676880e+00 -1.308271056413644828e+00
1.429618817567825317e+01 9.270201474428176880e+00 -1.319013243913644828e+00
1.473405438661575317e+01 9.640196591615676880e+00 -1.355481749773019828e+00
1.202836591005325317e+01 7.437681943178176880e+00 -1.077588683366769828e+00
1.236686688661575317e+01 7.701720029115676880e+00 -1.103360778093332328e+00
4.045292645692825317e+01 1.951006963849067688e+01 -3.029554015398019828e+00
4.020536786317825317e+01 1.986944463849067688e+01 -3.022336608171457328e+00
1.429960614442825317e+01 8.951720029115676880e+00 -1.245130187273019828e+00
1.420243817567825317e+01 9.066710263490676880e+00 -1.241757994890207328e+00
1.429496747255325317e+01 9.269224911928176880e+00 -1.251538878679269828e+00
1.473258954286575317e+01 9.638975888490676880e+00 -1.285474425554269828e+00
1.202812176942825317e+01 7.437437802553176880e+00 -1.022870665788644828e+00
1.236650067567825317e+01 7.701475888490676880e+00 -1.046720153093332328e+00
4.185038739442825317e+01 2.009026983380317688e+01 -2.921781188249582328e+00
3.943424969911575317e+01 1.953887823224067688e+01 -2.777082091569894828e+00
1.430094891786575317e+01 8.951964169740676880e+00 -1.178449279069894828e+00
1.420378094911575317e+01 9.066954404115676880e+00 -1.175275450944894828e+00
1.429374676942825317e+01 9.268248349428176880e+00 -1.183774596452707328e+00
1.473112469911575317e+01 9.637755185365676880e+00 -1.215161925554269828e+00
1.202775555849075317e+01 7.437193661928176880e+00 -9.684883415698948284e-01
1.236601239442825317e+01 7.701109677553176880e+00 -9.904304802417698284e-01
2.150736981630325317e+01 1.163323858380317688e+01 -1.527433043718332328e+00
3.955509930849075317e+01 1.958965948224067688e+01 -2.591016417741769828e+00
1.430216962099075317e+01 8.952208310365676880e+00 -1.111447936296457328e+00
1.420512372255325317e+01 9.067198544740676880e+00 -1.108472472429269828e+00
1.429252606630325317e+01 9.267149716615676880e+00 -1.116437560319894828e+00
1.472978192567825317e+01 9.636534482240676880e+00 -1.145276671648019828e+00
1.202751141786575317e+01 7.437071591615676880e+00 -9.138618767261448284e-01
1.236564618349075317e+01 7.700743466615676880e+00 -9.341713249683323284e-01
2.160404950380325317e+01 1.167303350567817688e+01 -1.430646544694894828e+00
3.952067548036575317e+01 1.957415655255317688e+01 -2.396558409929269828e+00
1.430351239442825317e+01 8.952330380678176880e+00 -1.044828063249582328e+00
1.420646649599075317e+01 9.067320615053176880e+00 -1.042050963640207328e+00
1.429130536317825317e+01 9.266173154115676880e+00 -1.049146300554269828e+00
1.472831708192825317e+01 9.635313779115676880e+00 -1.075086241960519828e+00
1.202714520692825317e+01 7.436827450990676880e+00 -8.595558464527073284e-01
1.236515790224075317e+01 7.700377255678176880e+00 -8.776527702808323284e-01
4.159831219911575317e+01 1.998321416974067688e+01 -2.297773009538644828e+00
4.046623212099075317e+01 1.997747686505317688e+01 -2.249234801530832328e+00
1.430485516786575317e+01 8.952574521303176880e+00 -9.778877556323948284e-01
1.420793133974075317e+01 9.067564755678176880e+00 -9.753090202808323284e-01
1.429020673036575317e+01 9.265196591615676880e+00 -9.815498650073948284e-01
1.472685223817825317e+01 9.634215146303176880e+00 -1.005323058366769828e+00
1.202690106630325317e+01 7.436583310365676880e+00 -8.050056755542698284e-01
1.236479169130325317e+01 7.700133115053176880e+00 -8.214699089527073284e-01
4.132243329286575317e+01 1.986785772442817688e+01 -2.084088927507394828e+00
4.043949872255325317e+01 1.996514776349067688e+01 -2.051175719499582328e+00
1.430619794130325317e+01 8.952818661928176880e+00 -9.113289177417698284e-01
1.420927411317825317e+01 9.067808896303176880e+00 -9.089638054370823284e-01
1.428898602724075317e+01 9.264220029115676880e+00 -9.143806755542698284e-01
1.472550946474075317e+01 9.632994443178176880e+00 -9.352546989917698284e-01
1.202653485536575317e+01 7.436339169740676880e+00 -7.507759392261448284e-01
1.236430341005325317e+01 7.699766904115676880e+00 -7.650276482105198284e-01
4.051359540224075317e+01 1.953094366192817688e+01 -1.851651793718332328e+00
4.087345868349075317e+01 2.014971807599067688e+01 -1.870267516374582328e+00
1.430754071474075317e+01 8.953062802553176880e+00 -8.444496452808323284e-01
1.421061688661575317e+01 9.067930966615676880e+00 -8.422828972339573284e-01
1.428776532411575317e+01 9.263121396303176880e+00 -8.469063103198948284e-01
1.472404462099075317e+01 9.631773740053176880e+00 -8.656135857105198284e-01
1.202629071474075317e+01 7.436095029115676880e+00 -6.962868034839573284e-01
1.236393719911575317e+01 7.699400693178176880e+00 -7.086464226245823284e-01
4.004301434755325317e+01 1.933477666974067688e+01 -1.639814025163644828e+00
2.331974774599075317e+01 1.264703252911567688e+01 -1.080228453874582328e+00
1.430888348817825317e+01 8.953306943178176880e+00 -7.779518425464573284e-01
1.421195966005325317e+01 9.068175107240676880e+00 -7.759834587573948284e-01
1.428654462099075317e+01 9.262144833803176880e+00 -7.794777214527073284e-01
1.472257977724075317e+01 9.630553036928176880e+00 -7.956672966480198284e-01
1.205949383974075317e+01 7.449034482240676880e+00 -6.428047478198948284e-01
1.239811688661575317e+01 7.713072568178176880e+00 -6.535774528980198284e-01
2.210795575380325317e+01 1.188055303692817688e+01 -9.321724236011448284e-01
4.073869305849075317e+01 2.009039190411567688e+01 -1.468122130632394828e+00
1.431669598817825317e+01 8.956480771303176880e+00 -7.113319694995823284e-01
1.422038251161575317e+01 9.071593075990676880e+00 -7.095772087573948284e-01
1.431108075380325317e+01 9.273009091615676880e+00 -7.132240593433323284e-01
1.474284344911575317e+01 9.639708310365676880e+00 -7.264076530933323284e-01
7.858444035053253174e+00 6.372740536928176880e+00 -1.192014342546457328e+00
7.824386417865753174e+00 6.440489560365676880e+00 -1.191220885515207328e+00
7.788009464740753174e+00 6.507139950990676880e+00 -1.190351134538644828e+00
7.749313175678253174e+00 6.572813779115676880e+00 -1.189160948991769828e+00
7.709518253803253174e+00 6.637511044740676880e+00 -1.187833434343332328e+00
7.678878605365753174e+00 6.707091122865676880e+00 -1.187680846452707328e+00
7.642867863178253174e+00 6.773985654115676880e+00 -1.186841613054269828e+00
7.604537785053253174e+00 6.839415341615676880e+00 -1.185880309343332328e+00
8.270187199115753174e+00 6.568541318178176880e+00 -1.206540709733957328e+00
8.228927433490753174e+00 6.637755185365676880e+00 -1.205289489030832328e+00
8.189987003803253174e+00 6.708067685365676880e+00 -1.204099303483957328e+00
8.154464542865753174e+00 6.780455380678176880e+00 -1.203534728288644828e+00
8.119308292865753174e+00 6.852721005678176880e+00 -1.203015929460519828e+00
8.084029972553253174e+00 6.925108700990676880e+00 -1.202497130632394828e+00
8.046432316303253174e+00 6.996397763490676880e+00 -1.201886779069894828e+00
8.011276066303253174e+00 7.068785458803176880e+00 -1.201367980241769828e+00
8.714889347553253174e+00 6.779845029115676880e+00 -1.220670348405832328e+00
8.677657902240753174e+00 6.856627255678176880e+00 -1.220121031999582328e+00
8.640426456928253174e+00 6.933409482240676880e+00 -1.219556456804269828e+00
8.603072941303253174e+00 7.010435849428176880e+00 -1.219007140398019828e+00
8.565841495990753174e+00 7.087340146303176880e+00 -1.218457823991769828e+00
8.528487980365753174e+00 7.164244443178176880e+00 -1.217908507585519828e+00
8.491012394428253174e+00 7.241392880678176880e+00 -1.217343932390207328e+00
8.453780949115753174e+00 7.318297177553176880e+00 -1.216794615983957328e+00
9.343063175678253174e+00 7.078551083803176880e+00 -1.250775939226144828e+00
9.296798527240753174e+00 7.158629208803176880e+00 -1.249265319108957328e+00
9.246871769428253174e+00 7.236632138490676880e+00 -1.247571593523019828e+00
9.194381535053253174e+00 7.313658505678176880e+00 -1.245603209733957328e+00
9.141769230365753174e+00 7.389952450990676880e+00 -1.243604308366769828e+00
9.089401066303253174e+00 7.466002255678176880e+00 -1.241605406999582328e+00
9.036788761615753174e+00 7.542174130678176880e+00 -1.239591246843332328e+00
8.981612980365753174e+00 7.616148740053176880e+00 -1.237485533952707328e+00
9.986739933490753174e+00 7.384581357240676880e+00 -1.275861388444894828e+00
9.928878605365753174e+00 7.466856747865676880e+00 -1.273664122819894828e+00
9.871139347553253174e+00 7.548887997865676880e+00 -1.271451598405832328e+00
9.813400089740753174e+00 7.630919247865676880e+00 -1.269254332780832328e+00
9.756027042865753174e+00 7.712584286928176880e+00 -1.267072325944894828e+00
9.708419620990753174e+00 7.799010068178176880e+00 -1.265912657976144828e+00
9.660568058490753174e+00 7.885802060365676880e+00 -1.264752990007394828e+00
9.612838566303253174e+00 7.972105771303176880e+00 -1.263593322038644828e+00
1.072697430849075317e+01 7.736510068178176880e+00 -1.304334288835519828e+00
1.067924481630325317e+01 7.832823544740676880e+00 -1.303250914812082328e+00
1.062699872255325317e+01 7.926817685365676880e+00 -1.301969176530832328e+00
1.057463055849075317e+01 8.021178036928176880e+00 -1.300687438249582328e+00
1.052250653505325317e+01 8.115172177553176880e+00 -1.299420958757394828e+00
1.047038251161575317e+01 8.209044247865676880e+00 -1.298154479265207328e+00
1.041801434755325317e+01 8.303160458803176880e+00 -1.296872740983957328e+00
1.036161786317825317e+01 8.394591122865676880e+00 -1.295423156023019828e+00
1.166020184755325317e+01 8.180235654115676880e+00 -1.343351012468332328e+00
1.160258466005325317e+01 8.283140927553176880e+00 -1.341947203874582328e+00
1.154521161317825317e+01 8.386046200990676880e+00 -1.340543395280832328e+00
1.148747235536575317e+01 8.489195615053176880e+00 -1.339124327898019828e+00
1.143009930849075317e+01 8.591856747865676880e+00 -1.337720519304269828e+00
1.137272626161575317e+01 8.694639950990676880e+00 -1.336316710710519828e+00
1.131510907411575317e+01 8.797545224428176880e+00 -1.334912902116769828e+00
1.125773602724075317e+01 8.900084286928176880e+00 -1.333493834733957328e+00
1.278532391786575317e+01 8.715147763490676880e+00 -1.390470153093332328e+00
1.268852216005325317e+01 8.812681943178176880e+00 -1.385923033952707328e+00
1.259989911317825317e+01 8.913389950990676880e+00 -1.381757384538644828e+00
1.250566083192825317e+01 9.011046200990676880e+00 -1.377423888444894828e+00
1.241239911317825317e+01 9.107847958803176880e+00 -1.373120909929269828e+00
1.231962567567825317e+01 9.204039365053176880e+00 -1.368848448991769828e+00
1.222172528505325317e+01 9.297056943178176880e+00 -1.364408141374582328e+00
1.213017255067825317e+01 9.392027646303176880e+00 -1.360181456804269828e+00
1.361466962099075317e+01 9.109312802553176880e+00 -1.400586730241769828e+00
1.359684735536575317e+01 9.255553036928176880e+00 -1.403272277116769828e+00
1.357902508974075317e+01 9.403013974428176880e+00 -1.405957823991769828e+00
1.356095868349075317e+01 9.551939755678176880e+00 -1.408673888444894828e+00
1.354289227724075317e+01 9.701597958803176880e+00 -1.411405211687082328e+00
1.345878583192825317e+01 9.816954404115676880e+00 -1.408460265398019828e+00
1.336955243349075317e+01 9.929381161928176880e+00 -1.405057555437082328e+00
1.328105145692825317e+01 1.004107549786567688e+01 -1.401670104265207328e+00
1.473881512880325317e+01 9.643614560365676880e+00 -1.426206237077707328e+00
1.485002118349075317e+01 9.866637021303176880e+00 -1.439328795671457328e+00
1.478520184755325317e+01 1.000604131817817688e+01 -1.438382750749582328e+00
1.472990399599075317e+01 1.015106084942817688e+01 -1.438230162858957328e+00
1.467460614442825317e+01 1.029583624005317688e+01 -1.438062316179269828e+00
1.461918622255325317e+01 1.044097784161567688e+01 -1.437894469499582328e+00
1.456340008974075317e+01 1.058709600567817688e+01 -1.437741881608957328e+00
1.450529462099075317e+01 1.073150518536567688e+01 -1.437375670671457328e+00
1.473735028505325317e+01 9.642393857240676880e+00 -1.355741149187082328e+00
1.521000653505325317e+01 1.004168584942817688e+01 -1.395093566179269828e+00
1.972428876161575317e+01 1.247686651349067688e+01 -1.739484435319894828e+00
1.693693524599075317e+01 1.128253057599067688e+01 -1.533872252702707328e+00
1.651823407411575317e+01 1.126422002911567688e+01 -1.506650573015207328e+00
1.620280438661575317e+01 1.129302862286567688e+01 -1.487119323015207328e+00
1.610527020692825317e+01 1.143646124005317688e+01 -1.484143859148019828e+00
1.600834637880325317e+01 1.157903936505317688e+01 -1.481183654069894828e+00
1.473600751161575317e+01 9.641173154115676880e+00 -1.285718566179269828e+00
1.520829755067825317e+01 1.004022100567817688e+01 -1.322263365983957328e+00
2.056596356630325317e+01 1.289715459942817688e+01 -1.702298766374582328e+00
1.693815594911575317e+01 1.128228643536567688e+01 -1.451566344499582328e+00
1.682463055849075317e+01 1.142437627911567688e+01 -1.447690612077707328e+00
1.729460126161575317e+01 1.187994268536567688e+01 -1.485257750749582328e+00
1.788334637880325317e+01 1.241583135724067688e+01 -1.531598693132394828e+00
1.795133954286575317e+01 1.267486456036567688e+01 -1.541028624773019828e+00
1.473454266786575317e+01 9.639952450990676880e+00 -1.215390807390207328e+00
1.520658856630325317e+01 1.003875616192817688e+01 -1.249112731218332328e+00
2.396208173036575317e+01 1.459539678692817688e+01 -1.822843199968332328e+00
1.693937665224075317e+01 1.128216436505317688e+01 -1.369290953874582328e+00
1.682548505067825317e+01 1.142401006817817688e+01 -1.365567809343332328e+00
1.729191571474075317e+01 1.187750127911567688e+01 -1.400006896257394828e+00
1.788017255067825317e+01 1.241302374005317688e+01 -1.442304259538644828e+00
1.971195966005325317e+01 1.366729620099067688e+01 -1.567777281999582328e+00
1.473307782411575317e+01 9.638731747865676880e+00 -1.145475035905832328e+00
1.520487958192825317e+01 1.003729131817817688e+01 -1.176435118913644828e+00
2.391349774599075317e+01 1.456988409161567688e+01 -1.701306945085519828e+00
1.694059735536575317e+01 1.128192022442817688e+01 -1.286634093523019828e+00
1.682646161317825317e+01 1.142352178692817688e+01 -1.283048278093332328e+00
1.728923016786575317e+01 1.187505987286567688e+01 -1.314389830827707328e+00
1.787699872255325317e+01 1.241021612286567688e+01 -1.353589659929269828e+00
2.034233075380325317e+01 1.402178838849067688e+01 -1.507550841569894828e+00
1.473161298036575317e+01 9.637511044740676880e+00 -1.075269347429269828e+00
1.520317059755325317e+01 1.003594854474067688e+01 -1.103803282976144828e+00
2.207780438661575317e+01 1.365069463849067688e+01 -1.483060485124582328e+00
1.694181805849075317e+01 1.128167608380317688e+01 -1.204450255632394828e+00
1.682731610536575317e+01 1.142315557599067688e+01 -1.201017028093332328e+00
1.728654462099075317e+01 1.187261846661567688e+01 -1.229322081804269828e+00
1.787394696474075317e+01 1.240740850567817688e+01 -1.264951354265207328e+00
2.035246258974075317e+01 1.402606084942817688e+01 -1.405652648210519828e+00
1.473027020692825317e+01 9.636290341615676880e+00 -1.005490905046457328e+00
1.520146161317825317e+01 1.003448370099067688e+01 -1.030866271257394828e+00
2.129631024599075317e+01 1.325872686505317688e+01 -1.335538512468332328e+00
1.694303876161575317e+01 1.128155401349067688e+01 -1.121869689226144828e+00
1.682817059755325317e+01 1.142278936505317688e+01 -1.118589049577707328e+00
1.728385907411575317e+01 1.187017706036567688e+01 -1.143872863054269828e+00
1.787077313661575317e+01 1.240447881817817688e+01 -1.175946837663644828e+00
2.709025555849075317e+01 1.782623174786567688e+01 -1.643445616960519828e+00
1.472880536317825317e+01 9.635069638490676880e+00 -9.354072868823948284e-01
1.519975262880325317e+01 1.003301885724067688e+01 -9.583717644214573284e-01
2.255766278505325317e+01 1.388860967755317688e+01 -1.287625914812082328e+00
1.694425946474075317e+01 1.128130987286567688e+01 -1.039777404069894828e+00
1.682914716005325317e+01 1.142230108380317688e+01 -1.036649352312082328e+00
1.728117352724075317e+01 1.186773565411567688e+01 -1.058972960710519828e+00
1.786772137880325317e+01 1.240167120099067688e+01 -1.087506896257394828e+00
1.992802411317825317e+01 1.378387334942817688e+01 -1.182202941179269828e+00
1.472734051942825317e+01 9.633848935365676880e+00 -8.657509148120823284e-01
1.519804364442825317e+01 1.003155401349067688e+01 -8.855568230152073284e-01
2.262760907411575317e+01 1.392254522442817688e+01 -1.179319030046457328e+00
1.694548016786575317e+01 1.128106573224067688e+01 -9.572883903980198284e-01
1.683000165224075317e+01 1.142193487286567688e+01 -9.543281853198948284e-01
1.727848798036575317e+01 1.186529424786567688e+01 -9.737068474292698284e-01
1.786466962099075317e+01 1.239886358380317688e+01 -9.986854851245823284e-01
1.996025067567825317e+01 1.380071905255317688e+01 -1.083951598405832328e+00
1.472587567567825317e+01 9.632750302553176880e+00 -7.957741081714573284e-01
1.519633466005325317e+01 1.003008916974067688e+01 -8.128029167652073284e-01
2.085942059755325317e+01 1.303741338849067688e+01 -1.008054381608957328e+00
1.694657880067825317e+01 1.128094366192817688e+01 -8.752876579761448284e-01
1.683085614442825317e+01 1.142144659161567688e+01 -8.724800407886448284e-01
1.727580243349075317e+01 1.186285284161567688e+01 -8.889747917652073284e-01
1.786149579286575317e+01 1.239605596661567688e+01 -9.099556267261448284e-01
1.998637372255325317e+01 1.381414678692817688e+01 -9.846931755542698284e-01
1.474613934755325317e+01 9.641783505678176880e+00 -7.264992058277073284e-01
1.521122723817825317e+01 1.003680303692817688e+01 -7.409950554370823284e-01
2.413896161317825317e+01 1.467620733380317688e+01 -1.001264220476144828e+00
1.694779950380325317e+01 1.128069952130317688e+01 -7.928901970386448284e-01
1.683183270692825317e+01 1.142108038067817688e+01 -7.902351677417698284e-01
1.727311688661575317e+01 1.186041143536567688e+01 -8.038765251636448284e-01
1.785844403505325317e+01 1.239324834942817688e+01 -8.217903435230198284e-01
2.001249676942825317e+01 1.382757452130317688e+01 -8.852211296558323284e-01
7.604415714740753174e+00 6.839659482240676880e+00 -1.185880309343332328e+00
7.567672550678253174e+00 6.905821591615676880e+00 -1.184980040788644828e+00
7.528854191303253174e+00 6.970885068178176880e+00 -1.184003478288644828e+00
7.489791691303253174e+00 7.036192685365676880e+00 -1.183011656999582328e+00
7.450973331928253174e+00 7.101256161928176880e+00 -1.182019835710519828e+00
7.412154972553253174e+00 7.166441708803176880e+00 -1.181043273210519828e+00
7.373092472553253174e+00 7.231749325990676880e+00 -1.180051451921457328e+00
7.332076847553253174e+00 7.295470029115676880e+00 -1.178983336687082328e+00
8.011153995990753174e+00 7.069151669740676880e+00 -1.201367980241769828e+00
7.973556339740753174e+00 7.140196591615676880e+00 -1.200772887468332328e+00
7.938033878803253174e+00 7.212584286928176880e+00 -1.200238829851144828e+00
7.900070011615753174e+00 7.284117490053176880e+00 -1.199628478288644828e+00
7.862228214740753174e+00 7.355406552553176880e+00 -1.199018126726144828e+00
7.824386417865753174e+00 7.426817685365676880e+00 -1.198407775163644828e+00
7.784103214740753174e+00 7.497252255678176880e+00 -1.197721129655832328e+00
7.743453800678253174e+00 7.566954404115676880e+00 -1.196759825944894828e+00
8.453658878803253174e+00 7.318663388490676880e+00 -1.216809874773019828e+00
8.413863956928253174e+00 7.394346982240676880e+00 -1.216169005632394828e+00
8.374069035053253174e+00 7.470152646303176880e+00 -1.215528136491769828e+00
8.334029972553253174e+00 7.546324521303176880e+00 -1.214887267351144828e+00
8.294112980365753174e+00 7.622252255678176880e+00 -1.214261656999582328e+00
8.254195988178253174e+00 7.698302060365676880e+00 -1.213620787858957328e+00
8.213912785053253174e+00 7.774718075990676880e+00 -1.212979918718332328e+00
8.173873722553253174e+00 7.851012021303176880e+00 -1.212323790788644828e+00
8.981490910053253174e+00 7.616392880678176880e+00 -1.237485533952707328e+00
8.929855167865753174e+00 7.692198544740676880e+00 -1.235517150163644828e+00
8.881149113178253174e+00 7.769591122865676880e+00 -1.234098082780832328e+00
8.842330753803253174e+00 7.853331357240676880e+00 -1.233853942155832328e+00
8.808151066303253174e+00 7.939879208803176880e+00 -1.234128600358957328e+00
8.773361027240753174e+00 8.026427060365676880e+00 -1.234357482194894828e+00
8.735030949115753174e+00 8.111265927553176880e+00 -1.234189635515207328e+00
8.693404972553253174e+00 8.193907529115676880e+00 -1.233869200944894828e+00
9.612472355365753174e+00 7.972349911928176880e+00 -1.263578063249582328e+00
9.562179386615753174e+00 8.057188779115676880e+00 -1.262296324968332328e+00
9.511764347553253174e+00 8.142149716615676880e+00 -1.261029845476144828e+00
9.461227238178253174e+00 8.227354794740676880e+00 -1.259748107194894828e+00
9.410812199115753174e+00 8.312193661928176880e+00 -1.258466368913644828e+00
9.371383488178253174e+00 8.404112607240676880e+00 -1.258420592546457328e+00
9.335372745990753174e+00 8.498961240053176880e+00 -1.258771544694894828e+00
9.299239933490753174e+00 8.593809872865676880e+00 -1.259107238054269828e+00
1.036100751161575317e+01 8.394591122865676880e+00 -1.295362120866769828e+00
1.031071454286575317e+01 8.489439755678176880e+00 -1.294171935319894828e+00
1.025602704286575317e+01 8.581724911928176880e+00 -1.292783385515207328e+00
1.020121747255325317e+01 8.674376279115676880e+00 -1.291410094499582328e+00
1.014652997255325317e+01 8.766783505678176880e+00 -1.290021544694894828e+00
1.009184247255325317e+01 8.859312802553176880e+00 -1.288648253679269828e+00
1.003703290224075317e+01 8.952086240053176880e+00 -1.287259703874582328e+00
9.993087589740753174e+00 9.051695615053176880e+00 -1.287305480241769828e+00
1.125700360536575317e+01 8.900084286928176880e+00 -1.333432799577707328e+00
1.119731122255325317e+01 9.001280575990676880e+00 -1.331937438249582328e+00
1.113761883974075317e+01 9.102476865053176880e+00 -1.330426818132394828e+00
1.107768231630325317e+01 9.204039365053176880e+00 -1.328916198015207328e+00
1.101798993349075317e+01 9.305357724428176880e+00 -1.327420836687082328e+00
1.095829755067825317e+01 9.406676083803176880e+00 -1.325910216569894828e+00
1.089836102724075317e+01 9.508360654115676880e+00 -1.324399596452707328e+00
1.083854657411575317e+01 9.609801083803176880e+00 -1.322904235124582328e+00
1.212956219911575317e+01 9.392149716615676880e+00 -1.360135680437082328e+00
1.203678876161575317e+01 9.485777646303176880e+00 -1.355893737077707328e+00
1.194975262880325317e+01 9.581969052553176880e+00 -1.351834899187082328e+00
1.185746747255325317e+01 9.674986630678176880e+00 -1.347608214616769828e+00
1.178141766786575317e+01 9.776915341615676880e+00 -1.344876891374582328e+00
1.173197919130325317e+01 9.895201474428176880e+00 -1.344648009538644828e+00
1.167741376161575317e+01 1.001141241192817688e+01 -1.344281798601144828e+00
1.162760907411575317e+01 1.013043096661567688e+01 -1.344052916765207328e+00
1.328068524599075317e+01 1.004156377911567688e+01 -1.401670104265207328e+00
1.319108563661575317e+01 1.015203741192817688e+01 -1.398236876726144828e+00
1.310160809755325317e+01 1.026238897442817688e+01 -1.394834166765207328e+00
1.301213055849075317e+01 1.037261846661567688e+01 -1.391416198015207328e+00
1.292326337099075317e+01 1.048235967755317688e+01 -1.388028746843332328e+00
1.283451825380325317e+01 1.059173467755317688e+01 -1.384641295671457328e+00
1.275016766786575317e+01 1.070403936505317688e+01 -1.381650573015207328e+00
1.266056805849075317e+01 1.081194952130317688e+01 -1.378156310319894828e+00
1.450492841005325317e+01 1.073187139630317688e+01 -1.437360411882394828e+00
1.442997723817825317e+01 1.086712530255317688e+01 -1.435636168718332328e+00
1.435490399599075317e+01 1.100237920880317688e+01 -1.433927184343332328e+00
1.427958661317825317e+01 1.113824346661567688e+01 -1.432202941179269828e+00
1.418632489442825317e+01 1.126263311505317688e+01 -1.428968077898019828e+00
1.408366376161575317e+01 1.138067510724067688e+01 -1.424939757585519828e+00
1.398100262880325317e+01 1.149871709942817688e+01 -1.420896178483957328e+00
1.387907391786575317e+01 1.161590459942817688e+01 -1.416898375749582328e+00
1.600773602724075317e+01 1.157940557599067688e+01 -1.481153136491769828e+00
1.591154462099075317e+01 1.172210577130317688e+01 -1.478208190202707328e+00
1.581535321474075317e+01 1.186480596661567688e+01 -1.475278502702707328e+00
1.571916180849075317e+01 1.200775030255317688e+01 -1.472333556413644828e+00
1.562321454286575317e+01 1.215020635724067688e+01 -1.469419127702707328e+00
1.552751141786575317e+01 1.229254034161567688e+01 -1.466489440202707328e+00
1.543144208192825317e+01 1.243511846661567688e+01 -1.463575011491769828e+00
1.533586102724075317e+01 1.257720831036567688e+01 -1.460660582780832328e+00
1.794938641786575317e+01 1.267449834942817688e+01 -1.540906554460519828e+00
1.764494305849075317e+01 1.272259405255317688e+01 -1.523557311296457328e+00
1.753678876161575317e+01 1.288116338849067688e+01 -1.520261412858957328e+00
1.742839032411575317e+01 1.304022100567817688e+01 -1.516950255632394828e+00
1.731608563661575317e+01 1.319573858380317688e+01 -1.513333922624582328e+00
1.719682294130325317e+01 1.334661749005317688e+01 -1.509214049577707328e+00
1.707756024599075317e+01 1.349774053692817688e+01 -1.505094176530832328e+00
1.695890790224075317e+01 1.364788702130317688e+01 -1.500989562273019828e+00
1.970976239442825317e+01 1.366692999005317688e+01 -1.567655211687082328e+00
1.947721844911575317e+01 1.377972295880317688e+01 -1.556577330827707328e+00
1.942155438661575317e+01 1.399383428692817688e+01 -1.557798033952707328e+00
1.937504559755325317e+01 1.421588018536567688e+01 -1.559140807390207328e+00
1.920158368349075317e+01 1.436016729474067688e+01 -1.551953917741769828e+00
1.896708661317825317e+01 1.446429327130317688e+01 -1.540616637468332328e+00
1.875248700380325317e+01 1.457855108380317688e+01 -1.530072814226144828e+00
1.855717450380325317e+01 1.470184209942817688e+01 -1.521283751726144828e+00
2.034196454286575317e+01 1.402239874005317688e+01 -1.507550841569894828e+00
2.748002606630325317e+01 1.840069463849067688e+01 -1.948300963640207328e+00
2.636173993349075317e+01 1.809380987286567688e+01 -1.885083800554269828e+00
2.175675946474075317e+01 1.565411260724067688e+01 -1.606671935319894828e+00
2.143913251161575317e+01 1.574188116192817688e+01 -1.591428405046457328e+00
2.134574872255325317e+01 1.596612432599067688e+01 -1.589994078874582328e+00
2.124601727724075317e+01 1.618817022442817688e+01 -1.588193541765207328e+00
2.096647626161575317e+01 1.629119756817817688e+01 -1.575177794694894828e+00
2.035209637880325317e+01 1.402679327130317688e+01 -1.405637389421457328e+00
2.929093915224075317e+01 1.944463995099067688e+01 -1.909101134538644828e+00
3.216020184755325317e+01 2.151800420880317688e+01 -2.074872618913644828e+00
2.608525067567825317e+01 1.826873663067817688e+01 -1.738721495866769828e+00
2.881474286317825317e+01 2.029937627911567688e+01 -1.897184020280832328e+00
2.812821942567825317e+01 2.025091436505317688e+01 -1.863355284929269828e+00
2.372416669130325317e+01 1.778729131817817688e+01 -1.618253356218332328e+00
2.359587079286575317e+01 1.802532842755317688e+01 -1.614484435319894828e+00
2.708976727724075317e+01 1.782708624005317688e+01 -1.643430358171457328e+00
2.935661298036575317e+01 1.948028448224067688e+01 -1.761685973405832328e+00
2.031376630067825317e+01 1.451641729474067688e+01 -1.307233458757394828e+00
2.605619794130325317e+01 1.824896124005317688e+01 -1.601987487077707328e+00
2.890263348817825317e+01 2.035113409161567688e+01 -1.750760680437082328e+00
2.868937665224075317e+01 2.060284307599067688e+01 -1.743955260515207328e+00
