9.305626541376113892e+00 5.453503489494323730e+00 -1.042818984389299430e+00
1.323397126793861389e+01 6.737072825431823730e+00 -1.380907973647111930e+00
1.313350740075111389e+01 6.842785716056823730e+00 -1.375994643568986930e+00
8.338951736688613892e+00 4.762219309806823730e+00 -9.133481591939869304e-01
8.512535721063613892e+00 4.886364817619323730e+00 -9.291562646627369304e-01
8.695152908563613892e+00 5.016980051994323730e+00 -9.457883447408619304e-01
8.888268142938613892e+00 5.155041575431823730e+00 -9.633817285299244304e-01
9.091393142938613892e+00 5.300305247306823730e+00 -9.818906396627369304e-01
9.306114822626113892e+00 5.453869700431823730e+00 -1.001452407240861930e+00
1.638777986168861389e+01 7.692273020744323730e+00 -1.574084243178361930e+00
1.637117829918861389e+01 7.858654856681823730e+00 -1.577136000990861930e+00
8.339562088251113892e+00 4.762707591056823730e+00 -8.771543115377369304e-01
8.513146072626113892e+00 4.886731028556823730e+00 -8.920316308736744304e-01
8.695763260126113892e+00 5.017346262931823730e+00 -9.077024072408619304e-01
8.888878494501113892e+00 5.155529856681823730e+00 -9.242734521627369304e-01
9.091881424188613892e+00 5.300671458244323730e+00 -9.416837304830494304e-01
9.306481033563613892e+00 5.454235911369323730e+00 -9.601010888814869304e-01
4.820821443200111389e+01 1.732862555980682373e+01 -3.907443007826799430e+00
4.349349275231361389e+01 1.636866462230682373e+01 -3.561953505873674430e+00
8.340172439813613892e+00 4.763073801994323730e+00 -8.407926172017994304e-01
8.513756424188613892e+00 4.887219309806823730e+00 -8.547391504049244304e-01
8.696373611688613892e+00 5.017712473869323730e+00 -8.694333642721119304e-01
8.889366775751113892e+00 5.155896067619323730e+00 -8.849668115377369304e-01
9.092369705438613892e+00 5.301037669181823730e+00 -9.012937158346119304e-01
9.306969314813613892e+00 5.454480051994323730e+00 -9.185514062642994304e-01
4.787032380700111389e+01 1.722706305980682373e+01 -3.653613051772111930e+00
4.353951326012611389e+01 1.638367927074432373e+01 -3.357562026381486930e+00
8.340782791376113892e+00 4.763562083244323730e+00 -8.046292871236744304e-01
8.514366775751113892e+00 4.887585520744323730e+00 -8.176602929830494304e-01
8.696861892938613892e+00 5.018200755119323730e+00 -8.313779443502369304e-01
8.889855057001113892e+00 5.156262278556823730e+00 -8.458737939596119304e-01
9.092857986688613892e+00 5.301403880119323730e+00 -8.611325830221119304e-01
9.307457596063613892e+00 5.454846262931823730e+00 -8.772458642721119304e-01
4.824849763512611389e+01 1.734254157543182373e+01 -3.451693496108049430e+00
4.356319490075111389e+01 1.639185798168182373e+01 -3.152499160170549430e+00
8.341393142938613892e+00 4.763928294181823730e+00 -7.682981103658619304e-01
8.514855057001113892e+00 4.888073801994323730e+00 -7.803983300924244304e-01
8.697472244501113892e+00 5.018566966056823730e+00 -7.933377832174244304e-01
8.890465408563613892e+00 5.156628489494323730e+00 -8.068112939596119304e-01
9.093346267938613892e+00 5.301770091056823730e+00 -8.209867089986744304e-01
9.307823807001113892e+00 5.455090403556823730e+00 -8.359555810689869304e-01
4.845235505700111389e+01 1.740516364574432373e+01 -3.234393081068986930e+00
4.358712068200111389e+01 1.639991462230682373e+01 -2.946230849623674430e+00
8.342003494501113892e+00 4.764416575431823730e+00 -7.321805566549244304e-01
8.515465408563613892e+00 4.888440012931823730e+00 -7.433652490377369304e-01
8.697960525751113892e+00 5.018933176994323730e+00 -7.551297754049244304e-01
8.890953689813613892e+00 5.156994700431823730e+00 -7.675656884908619304e-01
9.093834549188613892e+00 5.302136301994323730e+00 -7.806424707174244304e-01
9.308312088251113892e+00 5.455456614494323730e+00 -7.944821923971119304e-01
4.830538240075111389e+01 1.736146247386932373e+01 -2.996691665053361930e+00
4.361092439293861389e+01 1.640809333324432373e+01 -2.740954360365861930e+00
8.342613846063613892e+00 4.764782786369323730e+00 -6.958798974752369304e-01
8.516075760126113892e+00 4.888806223869323730e+00 -7.063321679830494304e-01
8.698570877313613892e+00 5.019299387931823730e+00 -7.171353906392994304e-01
8.891441971063613892e+00 5.157360911369323730e+00 -7.285489648580494304e-01
9.094322830438613892e+00 5.302502512931823730e+00 -7.405423730611744304e-01
9.308800369501113892e+00 5.455822825431823730e+00 -7.532376855611744304e-01
4.920870271325111389e+01 1.763599860668182373e+01 -2.814776381850236930e+00
4.363485017418861389e+01 1.641614997386932373e+01 -2.534502944350236930e+00
8.343224197626113892e+00 4.765271067619323730e+00 -6.597928613424244304e-01
8.516686111688613892e+00 4.889294505119323730e+00 -6.691159814596119304e-01
8.699059158563613892e+00 5.019787669181823730e+00 -6.789426416158619304e-01
8.892052322626113892e+00 5.157727122306823730e+00 -6.893338769674244304e-01
9.094811111688613892e+00 5.302746653556823730e+00 -7.002591699361744304e-01
9.309166580438613892e+00 5.456066966056823730e+00 -7.117948144674244304e-01
4.926912751793861389e+01 1.765516364574432373e+01 -2.583620986342424430e+00
4.890145173668861389e+01 1.806971442699432373e+01 -2.575396499037736930e+00
8.343834549188613892e+00 4.765759348869323730e+00 -6.235227197408619304e-01
8.517296463251113892e+00 4.889660716056823730e+00 -6.321286767721119304e-01
8.699669510126113892e+00 5.020153880119323730e+00 -6.409940332174244304e-01
8.892540603876113892e+00 5.158093333244323730e+00 -6.503476709127369304e-01
9.095299392938613892e+00 5.303112864494323730e+00 -6.601895898580494304e-01
9.309654861688613892e+00 5.456433176994323730e+00 -6.705960839986744304e-01
4.774337068200111389e+01 1.719385993480682373e+01 -2.286639174818986930e+00
4.886409822106361389e+01 1.805872809886932373e+01 -2.340807875990861930e+00
8.344444900751113892e+00 4.766125559806823730e+00 -5.874662011861744304e-01
8.517784744501113892e+00 4.890148997306823730e+00 -5.949582666158619304e-01
8.700279861688613892e+00 5.020520091056823730e+00 -6.028470605611744304e-01
8.893028885126113892e+00 5.158459544181823730e+00 -6.111783593892994304e-01
9.095787674188613892e+00 5.303479075431823730e+00 -6.199369043111744304e-01
9.310021072626113892e+00 5.456677317619323730e+00 -6.291989892721119304e-01
4.941280427575111389e+01 1.770045173168182373e+01 -2.122103652358049430e+00
6.118673005700111389e+01 2.192713630199432373e+01 -2.569643935561174430e+00
8.345177322626113892e+00 4.766613841056823730e+00 -5.512418359517994304e-01
8.518395096063613892e+00 4.890515208244323730e+00 -5.578031152486744304e-01
8.700768142938613892e+00 5.021008372306823730e+00 -5.649137109517994304e-01
8.893517166376113892e+00 5.158825755119323730e+00 -5.722379297017994304e-01
9.096275955438613892e+00 5.303845286369323730e+00 -5.799283593892994304e-01
9.310509353876113892e+00 5.457043528556823730e+00 -5.880460351705494304e-01
4.925203767418861389e+01 1.765272223949432373e+01 -1.882372817397111930e+00
5.049385896325111389e+01 1.857166755199432373e+01 -1.929858168959611930e+00
8.355553299188613892e+00 4.769421458244323730e+00 -5.152921289205494304e-01
8.530357986688613892e+00 4.893811106681823730e+00 -5.211667627096119304e-01
8.714562088251113892e+00 5.024792551994323730e+00 -5.271634668111744304e-01
8.909264236688613892e+00 5.163342356681823730e+00 -5.335111230611744304e-01
9.114220291376113892e+00 5.309094309806823730e+00 -5.401944726705494304e-01
9.330773025751113892e+00 5.463147044181823730e+00 -5.472440332174244304e-01
4.632589021325111389e+01 1.676685798168182373e+01 -1.569262465834611930e+00
4.775985017418861389e+01 1.771424567699432373e+01 -1.613879165053361930e+00
7.952599197626113892e+00 5.216931223869323730e+00 -1.179324111342424430e+00
7.930870682001113892e+00 5.289929270744323730e+00 -1.179614028334611930e+00
7.906700760126113892e+00 5.362316966056823730e+00 -1.179797133803361930e+00
7.882530838251113892e+00 5.434826731681823730e+00 -1.179980239272111930e+00
7.858238846063613892e+00 5.507214426994323730e+00 -1.180163344740861930e+00
7.829674392938613892e+00 5.578015208244323730e+00 -1.179797133803361930e+00
7.798546463251113892e+00 5.648083567619323730e+00 -1.179141005873674430e+00
7.765221267938613892e+00 5.716809153556823730e+00 -1.178393325209611930e+00
8.640343338251113892e+00 5.432751536369323730e+00 -1.222826918959611930e+00
8.426964432001113892e+00 5.451062083244323730e+00 -1.201479873061174430e+00
8.397667557001113892e+00 5.527233958244323730e+00 -1.201052626967424430e+00
8.364464432001113892e+00 5.602185130119323730e+00 -1.200411757826799430e+00
8.328575760126113892e+00 5.675793528556823730e+00 -1.199419936537736930e+00
8.291466385126113892e+00 5.748669505119323730e+00 -1.198275527358049430e+00
8.252037674188613892e+00 5.820813059806823730e+00 -1.197070083022111930e+00
8.215172439813613892e+00 5.893322825431823730e+00 -1.195956191420549430e+00
8.903526932001113892e+00 5.515393137931823730e+00 -1.212969741225236930e+00
8.857384353876113892e+00 5.590954661369323730e+00 -1.211092910170549430e+00
8.852257400751113892e+00 5.679943919181823730e+00 -1.213717421889299430e+00
8.847008377313613892e+00 5.769665598869323730e+00 -1.216372451186174430e+00
8.841759353876113892e+00 5.859631419181823730e+00 -1.219042739272111930e+00
8.823570877313613892e+00 5.945324778556823730e+00 -1.220278701186174430e+00
8.774010330438613892e+00 6.019665598869323730e+00 -1.218005141615861930e+00
8.724815994501113892e+00 6.093396067619323730e+00 -1.215746840834611930e+00
9.356651932001113892e+00 5.657605051994323730e+00 -1.220751723647111930e+00
9.355553299188613892e+00 5.752819895744323730e+00 -1.223635634779924430e+00
9.351524978876113892e+00 5.847668528556823730e+00 -1.226473769545549430e+00
9.347496658563613892e+00 5.943371653556823730e+00 -1.229327163100236930e+00
9.343468338251113892e+00 6.039318919181823730e+00 -1.232195815443986930e+00
9.339317947626113892e+00 6.135998606681823730e+00 -1.235079726576799430e+00
9.335289627313613892e+00 6.233532786369323730e+00 -1.237994155287736930e+00
9.328331619501113892e+00 6.330212473869323730e+00 -1.240832290053361930e+00
1.149630036950111389e+01 6.328991770744323730e+00 -1.392916640639299430e+00
1.099813142418861389e+01 6.286267161369323730e+00 -1.346667250990861930e+00
1.064534822106361389e+01 6.282238841056823730e+00 -1.314761123061174430e+00
1.039522615075111389e+01 6.307019114494323730e+00 -1.293047866225236930e+00
1.026961579918861389e+01 6.371228098869323730e+00 -1.283801040053361930e+00
1.014632478356361389e+01 6.434216380119323730e+00 -1.274722060561174430e+00
1.002486482262611389e+01 6.496228098869323730e+00 -1.265795668959611930e+00
9.942223221063613892e+00 6.571057200431823730e+00 -1.260760268568986930e+00
1.276473298668861389e+01 6.727185130119323730e+00 -1.461550673842424430e+00
1.267037263512611389e+01 6.829480051994323730e+00 -1.456301650404924430e+00
1.257601228356361389e+01 6.930676341056823730e+00 -1.451327285170549430e+00
1.120565095543861389e+01 6.588269114494323730e+00 -1.323382338881486930e+00
1.113375154137611389e+01 6.680798411369323730e+00 -1.320055922865861930e+00
1.109822908043861389e+01 6.786023020744323730e+00 -1.320239028334611930e+00
1.126070466637611389e+01 6.967053294181823730e+00 -1.339739760756486930e+00
1.114473786950111389e+01 7.042981028556823730e+00 -1.332415542006486930e+00
1.294661775231361389e+01 6.784314036369323730e+00 -1.419268569350236930e+00
1.284908357262611389e+01 6.887707591056823730e+00 -1.414355239272111930e+00
1.275252595543861389e+01 6.990002512931823730e+00 -1.409487685561174430e+00
1.120699372887611389e+01 6.588757395744323730e+00 -1.272067031264299430e+00
1.113497224450111389e+01 6.681286692619323730e+00 -1.268908461928361930e+00
1.109883943200111389e+01 6.786267161369323730e+00 -1.269045791029924430e+00
1.138106599450111389e+01 7.012829661369323730e+00 -1.298617324233049430e+00
1.169808259606361389e+01 7.260022044181823730e+00 -1.331622084975236930e+00
1.313289704918861389e+01 6.843029856681823730e+00 -1.375948867201799430e+00
1.303304353356361389e+01 6.947522044181823730e+00 -1.371172866225236930e+00
1.605391755700111389e+01 8.098889231681823730e+00 -1.635165175795549430e+00
1.120821443200111389e+01 6.589245676994323730e+00 -1.220507583022111930e+00
1.113619294762611389e+01 6.681774973869323730e+00 -1.217516860365861930e+00
1.109957185387611389e+01 6.786389231681823730e+00 -1.217593154311174430e+00
1.138094392418861389e+01 7.012707591056823730e+00 -1.245791396498674430e+00
1.169771638512611389e+01 7.259899973869323730e+00 -1.277010878920549430e+00
1.637093415856361389e+01 7.859143137931823730e+00 -1.577136000990861930e+00
1.635384431481361389e+01 8.026135325431823730e+00 -1.580264052748674430e+00
1.633675447106361389e+01 8.193982005119323730e+00 -1.583407363295549430e+00
1.120943513512611389e+01 6.589733958244323730e+00 -1.169238051772111930e+00
1.113753572106361389e+01 6.682141184806823730e+00 -1.166430434584611930e+00
1.110030427575111389e+01 6.786633372306823730e+00 -1.166445693373674430e+00
1.138069978356361389e+01 7.012585520744323730e+00 -1.192706069350236930e+00
1.169747224450111389e+01 7.259655833244323730e+00 -1.222155532240861930e+00
4.349300447106361389e+01 1.637012946605682373e+01 -3.561953505873674430e+00
4.809749665856361389e+01 1.833631598949432373e+01 -3.924593886733049430e+00
4.932076326012611389e+01 1.927222907543182373e+01 -4.031100234389299430e+00
1.121077790856361389e+01 6.590222239494323730e+00 -1.117983779311174430e+00
1.113875642418861389e+01 6.682629466056823730e+00 -1.115344008803361930e+00
1.110091462731361389e+01 6.786877512931823730e+00 -1.115328750014299430e+00
1.138057771325111389e+01 7.012463450431823730e+00 -1.139956435561174430e+00
1.169710603356361389e+01 7.259411692619323730e+00 -1.167635878920549430e+00
4.353572908043861389e+01 1.638416755199432373e+01 -3.357333144545549430e+00
4.836556306481361389e+01 1.842396247386932373e+01 -3.712923964858049430e+00
4.884749665856361389e+01 1.911365973949432373e+01 -3.759615859389299430e+00
1.121199861168861389e+01 6.590710520744323730e+00 -1.066485366225236930e+00
1.114009919762611389e+01 6.683117747306823730e+00 -1.064013442397111930e+00
1.110164704918861389e+01 6.787121653556823730e+00 -1.063952407240861930e+00
1.138033357262611389e+01 7.012341380119323730e+00 -1.086947402358049430e+00
1.169686189293861389e+01 7.259167551994323730e+00 -1.112872084975236930e+00
4.355941072106361389e+01 1.639222419261932373e+01 -3.152285537123674430e+00
4.749459138512611389e+01 1.814161384105682373e+01 -3.424242934584611930e+00
4.221712556481361389e+01 1.688697516918182373e+01 -3.082995375990861930e+00
1.121321931481361389e+01 6.591198801994323730e+00 -1.015276870131486930e+00
1.114131990075111389e+01 6.683606028556823730e+00 -1.012972792983049430e+00
1.110237947106361389e+01 6.787365794181823730e+00 -1.012896499037736930e+00
1.138021150231361389e+01 7.012219309806823730e+00 -1.034274062514299430e+00
1.169649568200111389e+01 7.258923411369323730e+00 -1.058413466811174430e+00
4.358333650231361389e+01 1.640040290355682373e+01 -2.946032485365861930e+00
4.841170564293861389e+01 1.844007575511932373e+01 -3.253237685561174430e+00
4.217635408043861389e+01 1.687366950511932373e+01 -2.878924331068986930e+00
1.121456208825111389e+01 6.591687083244323730e+00 -9.640836328267994304e-01
1.114254060387611389e+01 6.684094309806823730e+00 -9.619626611471119304e-01
1.110311189293861389e+01 6.787609934806823730e+00 -9.618405908346119304e-01
1.137996736168861389e+01 7.011975169181823730e+00 -9.813413232564869304e-01
1.169625154137611389e+01 7.258679270744323730e+00 -1.003725966811174430e+00
4.360701814293861389e+01 1.640845954418182373e+01 -2.740771254897111930e+00
4.744747224450111389e+01 1.812733161449432373e+01 -2.967776259779924430e+00
4.220613923668861389e+01 1.688392341136932373e+01 -2.678317031264299430e+00
1.121578279137611389e+01 6.592175364494323730e+00 -9.126462548971119304e-01
1.114388337731361389e+01 6.684460520744323730e+00 -9.106931298971119304e-01
1.110372224450111389e+01 6.787854075431823730e+00 -9.105558007955494304e-01
1.137984529137611389e+01 7.011853098869323730e+00 -9.287290185689869304e-01
1.169600740075111389e+01 7.258435130119323730e+00 -9.493589013814869304e-01
4.363094392418861389e+01 1.641663825511932373e+01 -2.534335097670549430e+00
4.759029451012611389e+01 1.817420661449432373e+01 -2.749346694350236930e+00
4.732003083825111389e+01 1.860206305980682373e+01 -2.744021376967424430e+00
1.121700349450111389e+01 6.592663645744323730e+00 -8.614987939596119304e-01
1.114510408043861389e+01 6.684948801994323730e+00 -8.597135156392994304e-01
1.110445466637611389e+01 6.787976145744323730e+00 -8.595609277486744304e-01
1.137960115075111389e+01 7.011731028556823730e+00 -8.761472314596119304e-01
1.169564118981361389e+01 7.258190989494323730e+00 -8.947324365377369304e-01
4.890010896325111389e+01 1.807105720043182373e+01 -2.575365981459611930e+00
4.746663728356361389e+01 1.813465583324432373e+01 -2.515902480483049430e+00
4.758944001793861389e+01 1.869300544261932373e+01 -2.529681167006486930e+00
1.121834626793861389e+01 6.593151926994323730e+00 -8.100919336080494304e-01
1.114644685387611389e+01 6.685437083244323730e+00 -8.084897607564869304e-01
1.110518708825111389e+01 6.788220286369323730e+00 -8.083219140767994304e-01
1.137947908043861389e+01 7.011608958244323730e+00 -8.233365625142994304e-01
1.169539704918861389e+01 7.257946848869323730e+00 -8.404416650533619304e-01
5.000313630700111389e+01 1.841810309886932373e+01 -2.388857802748674430e+00
4.418050447106361389e+01 1.706763923168182373e+01 -2.151125869154924430e+00
4.687703767418861389e+01 1.845399177074432373e+01 -2.272356948256486930e+00
1.121956697106361389e+01 6.593640208244323730e+00 -7.589902490377369304e-01
1.114766755700111389e+01 6.685925364494323730e+00 -7.575559228658619304e-01
1.110579743981361389e+01 6.788464426994323730e+00 -7.573880761861744304e-01
1.137923493981361389e+01 7.011486887931823730e+00 -7.708310693502369304e-01
1.169503083825111389e+01 7.257824778556823730e+00 -7.858914941549244304e-01
5.989095368981361389e+01 2.152271735668182373e+01 -2.521288833022111930e+00
4.234456697106361389e+01 1.647169196605682373e+01 -1.871508559584611930e+00
4.719930329918861389e+01 1.856263434886932373e+01 -2.059847792983049430e+00
1.122078767418861389e+01 6.594128489494323730e+00 -7.076291650533619304e-01
1.114901033043861389e+01 6.686413645744323730e+00 -7.063626855611744304e-01
1.110652986168861389e+01 6.788708567619323730e+00 -7.062100976705494304e-01
1.137911286950111389e+01 7.011364817619323730e+00 -7.180814355611744304e-01
1.169478669762611389e+01 7.257580637931823730e+00 -7.316770166158619304e-01
5.049214997887611389e+01 1.857301032543182373e+01 -1.929827651381486930e+00
4.229280915856361389e+01 1.645533454418182373e+01 -1.668063125014299430e+00
4.712667146325111389e+01 1.853858649730682373e+01 -1.832598647475236930e+00
1.122213044762611389e+01 6.594616770744323730e+00 -6.565732568502369304e-01
1.115023103356361389e+01 6.686779856681823730e+00 -6.554746240377369304e-01
1.110726228356361389e+01 6.788952708244323730e+00 -6.553220361471119304e-01
1.137886872887611389e+01 7.011242747306823730e+00 -6.653623193502369304e-01
1.169442048668861389e+01 7.257336497306823730e+00 -6.772183984517994304e-01
4.775350251793861389e+01 1.771400153636932373e+01 -1.613726577162736930e+00
3.984737458825111389e+01 1.566126716136932373e+01 -1.399691542983049430e+00
4.705403962731361389e+01 1.851453864574432373e+01 -1.604998549818986930e+00
1.123275056481361389e+01 6.598400950431823730e+00 -6.055173486471119304e-01
1.116121736168861389e+01 6.690808176994323730e+00 -6.046018213033619304e-01
1.112056794762611389e+01 6.793835520744323730e+00 -6.045407861471119304e-01
1.141097322106361389e+01 7.023327708244323730e+00 -6.138791650533619304e-01
1.172774568200111389e+01 7.270275950431823730e+00 -6.237363427877369304e-01
7.765099197626113892e+00 5.717053294181823730e+00 -1.178393325209611930e+00
7.733727127313613892e+00 5.786389231681823730e+00 -1.177721938490861930e+00
7.699913650751113892e+00 5.854870676994323730e+00 -1.176958999037736930e+00
7.666222244501113892e+00 5.923352122306823730e+00 -1.176196059584611930e+00
7.632530838251113892e+00 5.991711497306823730e+00 -1.175433120131486930e+00
7.598839432001113892e+00 6.059826731681823730e+00 -1.174670180678361930e+00
7.565148025751113892e+00 6.128186106681823730e+00 -1.173907241225236930e+00
7.529381424188613892e+00 6.195202708244323730e+00 -1.173052749037736930e+00
8.215050369501113892e+00 5.893566966056823730e+00 -1.195940932631486930e+00
8.175743728876113892e+00 5.964978098869323730e+00 -1.194735488295549430e+00
8.138756424188613892e+00 6.037243723869323730e+00 -1.193621596693986930e+00
8.099449783563613892e+00 6.108532786369323730e+00 -1.192416152358049430e+00
8.060387283563613892e+00 6.179577708244323730e+00 -1.191225966811174430e+00
8.021324783563613892e+00 6.250378489494323730e+00 -1.190035781264299430e+00
7.980065017938613892e+00 6.320324778556823730e+00 -1.188769301772111930e+00
7.941124588251113892e+00 6.391003489494323730e+00 -1.187579116225236930e+00
8.724571853876113892e+00 6.093518137931823730e+00 -1.215731582045549430e+00
8.672447830438613892e+00 6.165661692619323730e+00 -1.213351210951799430e+00
8.620690017938613892e+00 6.237439036369323730e+00 -1.210986098647111930e+00
8.568932205438613892e+00 6.309216380119323730e+00 -1.208605727553361930e+00
8.517662674188613892e+00 6.380383372306823730e+00 -1.206255874037736930e+00
8.466515213251113892e+00 6.451306223869323730e+00 -1.203921279311174430e+00
8.421105057001113892e+00 6.524670481681823730e+00 -1.202242812514299430e+00
8.385704666376113892e+00 6.602307200431823730e+00 -1.201693496108049430e+00
9.328453689813613892e+00 6.330578684806823730e+00 -1.240847548842424430e+00
9.315392166376113892e+00 6.425427317619323730e+00 -1.242800673842424430e+00
9.257897049188613892e+00 6.502331614494323730e+00 -1.240176162123674430e+00
9.206383377313613892e+00 6.581677317619323730e+00 -1.238177260756486930e+00
9.159142166376113892e+00 6.662121653556823730e+00 -1.236636123061174430e+00
9.111900955438613892e+00 6.742443919181823730e+00 -1.235079726576799430e+00
9.064659744501113892e+00 6.822888255119323730e+00 -1.233538588881486930e+00
9.014000564813613892e+00 6.901013255119323730e+00 -1.231814345717424430e+00
9.942223221063613892e+00 6.571423411369323730e+00 -1.260775527358049430e+00
9.915245682001113892e+00 6.667736887931823730e+00 -1.261630019545549430e+00
9.888146072626113892e+00 6.764294505119323730e+00 -1.262484511733049430e+00
9.860924392938613892e+00 6.861340403556823730e+00 -1.263339003920549430e+00
9.824669510126113892e+00 6.954480051994323730e+00 -1.263262709975236930e+00
9.768883377313613892e+00 7.038830637931823730e+00 -1.261141738295549430e+00
9.713097244501113892e+00 7.123181223869323730e+00 -1.259005507826799430e+00
9.657677322626113892e+00 7.207043528556823730e+00 -1.256899794936174430e+00
1.114400544762611389e+01 7.043103098869323730e+00 -1.332354506850236930e+00
1.103487458825111389e+01 7.120129466056823730e+00 -1.325259169936174430e+00
1.092342439293861389e+01 7.194592356681823730e+00 -1.318163833022111930e+00
1.081319490075111389e+01 7.268444895744323730e+00 -1.311129531264299430e+00
1.070467439293861389e+01 7.341076731681823730e+00 -1.304217299818986930e+00
1.059749665856361389e+01 7.412732005119323730e+00 -1.297396621108049430e+00
1.044368806481361389e+01 7.461682200431823730e+00 -1.285876235365861930e+00
1.039766755700111389e+01 7.558728098869323730e+00 -1.285342177748674430e+00
1.170040193200111389e+01 7.261486887931823730e+00 -1.331850966811174430e+00
1.171065583825111389e+01 7.393078684806823730e+00 -1.336657485365861930e+00
1.160884919762611389e+01 7.479382395744323730e+00 -1.331042250990861930e+00
1.152889314293861389e+01 7.574231028556823730e+00 -1.327425917983049430e+00
1.148604646325111389e+01 7.684216380119323730e+00 -1.327288588881486930e+00
1.144136872887611389e+01 7.793469309806823730e+00 -1.326983413100236930e+00
1.138594880700111389e+01 7.898205637931823730e+00 -1.325671157240861930e+00
1.133089509606361389e+01 8.002453684806823730e+00 -1.324358901381486930e+00
1.170015779137611389e+01 7.261242747306823730e+00 -1.277239760756486930e+00
1.203926911950111389e+01 7.525647044181823730e+00 -1.310763320326799430e+00
1.251216951012611389e+01 7.854870676994323730e+00 -1.356066665053361930e+00
1.250142732262611389e+01 7.989880442619323730e+00 -1.359072646498674430e+00
1.249056306481361389e+01 8.125378489494323730e+00 -1.362093886733049430e+00
1.247969880700111389e+01 8.261853098869323730e+00 -1.365130385756486930e+00
1.246419587731361389e+01 8.397595286369323730e+00 -1.368121108412736930e+00
1.245565095543861389e+01 8.537121653556823730e+00 -1.371432265639299430e+00
1.169979158043861389e+01 7.260998606681823730e+00 -1.222369155287736930e+00
1.203878083825111389e+01 7.525402903556823730e+00 -1.253954848647111930e+00
1.710103669762611389e+01 9.762585520744323730e+00 -1.680056533217424430e+00
1.723336091637611389e+01 1.001295173168182373e+01 -1.696291884779924430e+00
1.338643708825111389e+01 8.518811106681823730e+00 -1.377963027358049430e+00
1.332759919762611389e+01 8.644299387931823730e+00 -1.377032241225236930e+00
1.330074372887611389e+01 8.785046458244323730e+00 -1.378817519545549430e+00
1.328499665856361389e+01 8.931164622306823730e+00 -1.381564101576799430e+00
1.169954743981361389e+01 7.260754466056823730e+00 -1.167834243178361930e+00
1.203829255700111389e+01 7.525036692619323730e+00 -1.197482070326799430e+00
1.815609040856361389e+01 1.020094001293182373e+01 -1.680895766615861930e+00
1.807881990075111389e+01 1.037403571605682373e+01 -1.679919204115861930e+00
1.396749177575111389e+01 8.773815989494323730e+00 -1.359942397475236930e+00
1.387032380700111389e+01 8.888928294181823730e+00 -1.356173476576799430e+00
1.396785798668861389e+01 9.093884348869323730e+00 -1.367892226576799430e+00
1.440609040856361389e+01 9.464001536369323730e+00 -1.406939467787736930e+00
1.169918122887611389e+01 7.260510325431823730e+00 -1.113055190443986930e+00
1.203792634606361389e+01 7.524670481681823730e+00 -1.140749892592424430e+00
1.941756501793861389e+01 1.072510993480682373e+01 -1.685961684584611930e+00
1.933150544762611389e+01 1.090919196605682373e+01 -1.684679946303361930e+00
1.396883454918861389e+01 8.774060130119323730e+00 -1.292849501967424430e+00
1.387166658043861389e+01 8.889050364494323730e+00 -1.289278945326799430e+00
1.396675935387611389e+01 9.092785716056823730e+00 -1.300021132826799430e+00
1.440462556481361389e+01 9.462780833244323730e+00 -1.336489638686174430e+00
1.169893708825111389e+01 7.260266184806823730e+00 -1.058596572279924430e+00
1.203743806481361389e+01 7.524304270744323730e+00 -1.084368667006486930e+00
4.012349763512611389e+01 1.933265388011932373e+01 -3.010561904311174430e+00
3.987593904137611389e+01 1.969202888011932373e+01 -3.003344497084611930e+00
1.397017732262611389e+01 8.774304270744323730e+00 -1.226138076186174430e+00
1.387300935387611389e+01 8.889294505119323730e+00 -1.222765883803361930e+00
1.396553865075111389e+01 9.091809153556823730e+00 -1.232546767592424430e+00
1.440316072106361389e+01 9.461560130119323730e+00 -1.266482314467424430e+00
1.169869294762611389e+01 7.260022044181823730e+00 -1.003878554701799430e+00
1.203707185387611389e+01 7.524060130119323730e+00 -1.027728042006486930e+00
4.152095857262611389e+01 1.991285407543182373e+01 -2.902789077162736930e+00
3.910482087731361389e+01 1.936146247386932373e+01 -2.758089980483049430e+00
1.397152009606361389e+01 8.774548411369323730e+00 -1.159457167983049430e+00
1.387435212731361389e+01 8.889538645744323730e+00 -1.156283339858049430e+00
1.396431794762611389e+01 9.090832591056823730e+00 -1.164782485365861930e+00
1.440169587731361389e+01 9.460339426994323730e+00 -1.196169814467424430e+00
1.169832673668861389e+01 7.259777903556823730e+00 -9.494962304830494304e-01
1.203658357262611389e+01 7.523693919181823730e+00 -9.714383691549244304e-01
2.117794099450111389e+01 1.145582282543182373e+01 -1.508440932631486930e+00
3.922567048668861389e+01 1.941224372386932373e+01 -2.572024306654924430e+00
1.397274079918861389e+01 8.774792551994323730e+00 -1.092455825209611930e+00
1.387569490075111389e+01 8.889782786369323730e+00 -1.089480361342424430e+00
1.396309724450111389e+01 9.089733958244323730e+00 -1.097445449233049430e+00
1.440035310387611389e+01 9.459118723869323730e+00 -1.126284560561174430e+00
1.169808259606361389e+01 7.259655833244323730e+00 -8.948697656392994304e-01
1.203621736168861389e+01 7.523327708244323730e+00 -9.151792138814869304e-01
2.127462068200111389e+01 1.149561774730682373e+01 -1.411654433608049430e+00
3.919124665856361389e+01 1.939674079418182373e+01 -2.377566298842424430e+00
1.397408357262611389e+01 8.774914622306823730e+00 -1.025835952162736930e+00
1.387703767418861389e+01 8.889904856681823730e+00 -1.023058852553361930e+00
1.396187654137611389e+01 9.088757395744323730e+00 -1.030154189467424430e+00
1.439888826012611389e+01 9.457898020744323730e+00 -1.056094130873674430e+00
1.169771638512611389e+01 7.259411692619323730e+00 -8.405637353658619304e-01
1.203572908043861389e+01 7.522961497306823730e+00 -8.586606591939869304e-01
4.126888337731361389e+01 1.980579841136932373e+01 -2.278780898451799430e+00
4.013680329918861389e+01 1.980006110668182373e+01 -2.230242690443986930e+00
1.397542634606361389e+01 8.775158762931823730e+00 -9.588956445455494304e-01
1.387850251793861389e+01 8.890148997306823730e+00 -9.563169091939869304e-01
1.396077790856361389e+01 9.087780833244323730e+00 -9.625577539205494304e-01
1.439742341637611389e+01 9.456799387931823730e+00 -9.863309472799244304e-01
1.169747224450111389e+01 7.259167551994323730e+00 -7.860135644674244304e-01
1.203536286950111389e+01 7.522717356681823730e+00 -8.024777978658619304e-01
4.099300447106361389e+01 1.969044196605682373e+01 -2.065096816420549430e+00
4.011006990075111389e+01 1.978773200511932373e+01 -2.032183608412736930e+00
1.397676911950111389e+01 8.775402903556823730e+00 -8.923368066549244304e-01
1.387984529137611389e+01 8.890393137931823730e+00 -8.899716943502369304e-01
1.395955720543861389e+01 9.086804270744323730e+00 -8.953885644674244304e-01
1.439608064293861389e+01 9.455578684806823730e+00 -9.162625879049244304e-01
1.169710603356361389e+01 7.258923411369323730e+00 -7.317838281392994304e-01
1.203487458825111389e+01 7.522351145744323730e+00 -7.460355371236744304e-01
4.018416658043861389e+01 1.935352790355682373e+01 -1.832659682631486930e+00
4.054402986168861389e+01 1.997230231761932373e+01 -1.851275405287736930e+00
1.397811189293861389e+01 8.775647044181823730e+00 -8.254575341939869304e-01
1.388118806481361389e+01 8.890515208244323730e+00 -8.232907861471119304e-01
1.395833650231361389e+01 9.085705637931823730e+00 -8.279141992330494304e-01
1.439461579918861389e+01 9.454357981681823730e+00 -8.466214746236744304e-01
1.169686189293861389e+01 7.258679270744323730e+00 -6.772946923971119304e-01
1.203450837731361389e+01 7.521984934806823730e+00 -6.896543115377369304e-01
3.971358552575111389e+01 1.915736091136932373e+01 -1.620821914076799430e+00
2.299031892418861389e+01 1.246961677074432373e+01 -1.061236342787736930e+00
1.397945466637611389e+01 8.775891184806823730e+00 -7.589597314596119304e-01
1.388253083825111389e+01 8.890759348869323730e+00 -7.569913476705494304e-01
1.395711579918861389e+01 9.084729075431823730e+00 -7.604856103658619304e-01
1.439315095543861389e+01 9.453137278556823730e+00 -7.766751855611744304e-01
1.173006501793861389e+01 7.271618723869323730e+00 -6.238126367330494304e-01
1.206868806481361389e+01 7.535656809806823730e+00 -6.345853418111744304e-01
2.177852693200111389e+01 1.170313727855682373e+01 -9.131803125142994304e-01
4.040926423668861389e+01 1.991297614574432373e+01 -1.449130019545549430e+00
1.398726716637611389e+01 8.779065012931823730e+00 -6.923398584127369304e-01
1.389095368981361389e+01 8.894177317619323730e+00 -6.905850976705494304e-01
1.398165193200111389e+01 9.095593333244323730e+00 -6.942319482564869304e-01
1.441341462731361389e+01 9.462292551994323730e+00 -7.074155420064869304e-01
7.529015213251113892e+00 6.195324778556823730e+00 -1.173022231459611930e+00
7.494957596063613892e+00 6.263073801994323730e+00 -1.172228774428361930e+00
7.458580642938613892e+00 6.329724192619323730e+00 -1.171359023451799430e+00
7.419884353876113892e+00 6.395398020744323730e+00 -1.170168837904924430e+00
7.380089432001113892e+00 6.460095286369323730e+00 -1.168841323256486930e+00
7.349449783563613892e+00 6.529675364494323730e+00 -1.168688735365861930e+00
7.313439041376113892e+00 6.596569895744323730e+00 -1.167849501967424430e+00
7.275108963251113892e+00 6.661999583244323730e+00 -1.166888198256486930e+00
7.940758377313613892e+00 6.391125559806823730e+00 -1.187548598647111930e+00
7.899498611688613892e+00 6.460339426994323730e+00 -1.186297377943986930e+00
7.860558182001113892e+00 6.530651926994323730e+00 -1.185107192397111930e+00
7.825035721063613892e+00 6.603039622306823730e+00 -1.184542617201799430e+00
7.789879471063613892e+00 6.675305247306823730e+00 -1.184023818373674430e+00
7.754601150751113892e+00 6.747692942619323730e+00 -1.183505019545549430e+00
7.717003494501113892e+00 6.818982005119323730e+00 -1.182894667983049430e+00
7.681847244501113892e+00 6.891369700431823730e+00 -1.182375869154924430e+00
8.385460525751113892e+00 6.602429270744323730e+00 -1.201678237318986930e+00
8.348229080438613892e+00 6.679211497306823730e+00 -1.201128920912736930e+00
8.310997635126113892e+00 6.755993723869323730e+00 -1.200564345717424430e+00
8.273644119501113892e+00 6.833020091056823730e+00 -1.200015029311174430e+00
8.236412674188613892e+00 6.909924387931823730e+00 -1.199465712904924430e+00
8.199059158563613892e+00 6.986828684806823730e+00 -1.198916396498674430e+00
8.161583572626113892e+00 7.063977122306823730e+00 -1.198351821303361930e+00
8.124352127313613892e+00 7.140881419181823730e+00 -1.197802504897111930e+00
9.013634353876113892e+00 6.901135325431823730e+00 -1.231783828139299430e+00
8.967369705438613892e+00 6.981213450431823730e+00 -1.230273208022111930e+00
8.917442947626113892e+00 7.059216380119323730e+00 -1.228579482436174430e+00
8.864952713251113892e+00 7.136242747306823730e+00 -1.226611098647111930e+00
8.812340408563613892e+00 7.212536692619323730e+00 -1.224612197279924430e+00
8.759972244501113892e+00 7.288586497306823730e+00 -1.222613295912736930e+00
8.707359939813613892e+00 7.364758372306823730e+00 -1.220599135756486930e+00
8.652184158563613892e+00 7.438732981681823730e+00 -1.218493422865861930e+00
9.657311111688613892e+00 7.207165598869323730e+00 -1.256869277358049430e+00
9.599449783563613892e+00 7.289440989494323730e+00 -1.254672011733049430e+00
9.541710525751113892e+00 7.371472239494323730e+00 -1.252459487318986930e+00
9.483971267938613892e+00 7.453503489494323730e+00 -1.250262221693986930e+00
9.426598221063613892e+00 7.535168528556823730e+00 -1.248080214858049430e+00
9.378990799188613892e+00 7.621594309806823730e+00 -1.246920546889299430e+00
9.331139236688613892e+00 7.708386301994323730e+00 -1.245760878920549430e+00
9.283409744501113892e+00 7.794690012931823730e+00 -1.244601210951799430e+00
1.039754548668861389e+01 7.559094309806823730e+00 -1.285342177748674430e+00
1.034981599450111389e+01 7.655407786369323730e+00 -1.284258803725236930e+00
1.029756990075111389e+01 7.749401926994323730e+00 -1.282977065443986930e+00
1.024520173668861389e+01 7.843762278556823730e+00 -1.281695327162736930e+00
1.019307771325111389e+01 7.937756419181823730e+00 -1.280428847670549430e+00
1.014095368981361389e+01 8.031628489494323730e+00 -1.279162368178361930e+00
1.008858552575111389e+01 8.125744700431823730e+00 -1.277880629897111930e+00
1.003218904137611389e+01 8.217175364494323730e+00 -1.276431044936174430e+00
1.133077302575111389e+01 8.002819895744323730e+00 -1.324358901381486930e+00
1.127315583825111389e+01 8.105725169181823730e+00 -1.322955092787736930e+00
1.121578279137611389e+01 8.208630442619323730e+00 -1.321551284193986930e+00
1.115804353356361389e+01 8.311779856681823730e+00 -1.320132216811174430e+00
1.110067048668861389e+01 8.414440989494323730e+00 -1.318728408217424430e+00
1.104329743981361389e+01 8.517224192619323730e+00 -1.317324599623674430e+00
1.098568025231361389e+01 8.620129466056823730e+00 -1.315920791029924430e+00
1.092830720543861389e+01 8.722668528556823730e+00 -1.314501723647111930e+00
1.245589509606361389e+01 8.537732005119323730e+00 -1.371478042006486930e+00
1.235909333825111389e+01 8.635266184806823730e+00 -1.366930922865861930e+00
1.227047029137611389e+01 8.735974192619323730e+00 -1.362765273451799430e+00
1.217623201012611389e+01 8.833630442619323730e+00 -1.358431777358049430e+00
1.208297029137611389e+01 8.930432200431823730e+00 -1.354128798842424430e+00
1.199019685387611389e+01 9.026623606681823730e+00 -1.349856337904924430e+00
1.189229646325111389e+01 9.119641184806823730e+00 -1.345416030287736930e+00
1.180074372887611389e+01 9.214611887931823730e+00 -1.341189345717424430e+00
1.328524079918861389e+01 8.931897044181823730e+00 -1.381594619154924430e+00
1.326741853356361389e+01 9.078137278556823730e+00 -1.384280166029924430e+00
1.324959626793861389e+01 9.225598216056823730e+00 -1.386965712904924430e+00
1.323152986168861389e+01 9.374523997306823730e+00 -1.389681777358049430e+00
1.321346345543861389e+01 9.524182200431823730e+00 -1.392413100600236930e+00
1.312935701012611389e+01 9.639538645744323730e+00 -1.389468154311174430e+00
1.304012361168861389e+01 9.751965403556823730e+00 -1.386065444350236930e+00
1.295162263512611389e+01 9.863659739494323730e+00 -1.382677993178361930e+00
1.440938630700111389e+01 9.466198801994323730e+00 -1.407214125990861930e+00
1.452059236168861389e+01 9.689221262931823730e+00 -1.420336684584611930e+00
1.445577302575111389e+01 9.828625559806823730e+00 -1.419390639662736930e+00
1.440047517418861389e+01 9.973645091056823730e+00 -1.419238051772111930e+00
1.434517732262611389e+01 1.011842048168182373e+01 -1.419070205092424430e+00
1.428975740075111389e+01 1.026356208324432373e+01 -1.418902358412736930e+00
1.423397126793861389e+01 1.040968024730682373e+01 -1.418749770522111930e+00
1.417586579918861389e+01 1.055408942699432373e+01 -1.418383559584611930e+00
1.440792146325111389e+01 9.464978098869323730e+00 -1.336749038100236930e+00
1.488057771325111389e+01 9.864270091056823730e+00 -1.376101455092424430e+00
1.939485993981361389e+01 1.229945075511932373e+01 -1.720492324233049430e+00
1.660750642418861389e+01 1.110511481761932373e+01 -1.514880141615861930e+00
1.618880525231361389e+01 1.108680427074432373e+01 -1.487658461928361930e+00
1.587337556481361389e+01 1.111561286449432373e+01 -1.468127211928361930e+00
1.577584138512611389e+01 1.125904548168182373e+01 -1.465151748061174430e+00
1.567891755700111389e+01 1.140162360668182373e+01 -1.462191542983049430e+00
1.440657868981361389e+01 9.463757395744323730e+00 -1.266726455092424430e+00
1.487886872887611389e+01 9.862805247306823730e+00 -1.303271254897111930e+00
2.023653474450111389e+01 1.271973884105682373e+01 -1.683306655287736930e+00
1.660872712731361389e+01 1.110487067699432373e+01 -1.432574233412736930e+00
1.649520173668861389e+01 1.124696052074432373e+01 -1.428698500990861930e+00
1.696517243981361389e+01 1.170252692699432373e+01 -1.466265639662736930e+00
1.755391755700111389e+01 1.223841559886932373e+01 -1.512606582045549430e+00
1.762191072106361389e+01 1.249744880199432373e+01 -1.522036513686174430e+00
1.440511384606361389e+01 9.462536692619323730e+00 -1.196398696303361930e+00
1.487715974450111389e+01 9.861340403556823730e+00 -1.230120620131486930e+00
2.363265290856361389e+01 1.441798102855682373e+01 -1.803851088881486930e+00
1.660994783043861389e+01 1.110474860668182373e+01 -1.350298842787736930e+00
1.649605622887611389e+01 1.124659430980682373e+01 -1.346575698256486930e+00
1.696248689293861389e+01 1.170008552074432373e+01 -1.381014785170549430e+00
1.755074372887611389e+01 1.223560798168182373e+01 -1.423312148451799430e+00
1.938253083825111389e+01 1.348988044261932373e+01 -1.548785170912736930e+00
1.440364900231361389e+01 9.461315989494323730e+00 -1.126482924818986930e+00
1.487545076012611389e+01 9.859875559806823730e+00 -1.157443007826799430e+00
2.358406892418861389e+01 1.439246833324432373e+01 -1.682314833998674430e+00
1.661116853356361389e+01 1.110450446605682373e+01 -1.267641982436174430e+00
1.649703279137611389e+01 1.124610602855682373e+01 -1.264056167006486930e+00
1.695980134606361389e+01 1.169764411449432373e+01 -1.295397719740861930e+00
1.754756990075111389e+01 1.223280036449432373e+01 -1.334597548842424430e+00
2.001290193200111389e+01 1.384437263011932373e+01 -1.488558730483049430e+00
1.440218415856361389e+01 9.460095286369323730e+00 -1.056277236342424430e+00
1.487374177575111389e+01 9.858532786369323730e+00 -1.084811171889299430e+00
2.174837556481361389e+01 1.347327888011932373e+01 -1.464068374037736930e+00
1.661238923668861389e+01 1.110426032543182373e+01 -1.185458144545549430e+00
1.649788728356361389e+01 1.124573981761932373e+01 -1.182024917006486930e+00
1.695711579918861389e+01 1.169520270824432373e+01 -1.210329970717424430e+00
1.754451814293861389e+01 1.222999274730682373e+01 -1.245959243178361930e+00
2.002303376793861389e+01 1.384864509105682373e+01 -1.386660537123674430e+00
1.440084138512611389e+01 9.458874583244323730e+00 -9.864987939596119304e-01
1.487203279137611389e+01 9.857067942619323730e+00 -1.011874160170549430e+00
2.096688142418861389e+01 1.308131110668182373e+01 -1.316546401381486930e+00
1.661360993981361389e+01 1.110413825511932373e+01 -1.102877578139299430e+00
1.649874177575111389e+01 1.124537360668182373e+01 -1.099596938490861930e+00
1.695443025231361389e+01 1.169276130199432373e+01 -1.124880751967424430e+00
1.754134431481361389e+01 1.222706305980682373e+01 -1.156954726576799430e+00
2.676082673668861389e+01 1.764881598949432373e+01 -1.624453505873674430e+00
1.439937654137611389e+01 9.457653880119323730e+00 -9.164151757955494304e-01
1.487032380700111389e+01 9.855603098869323730e+00 -9.393796533346119304e-01
2.222823396325111389e+01 1.371119391918182373e+01 -1.268633803725236930e+00
1.661483064293861389e+01 1.110389411449432373e+01 -1.020785292983049430e+00
1.649971833825111389e+01 1.124488532543182373e+01 -1.017657241225236930e+00
1.695174470543861389e+01 1.169031989574432373e+01 -1.039980849623674430e+00
1.753829255700111389e+01 1.222425544261932373e+01 -1.068514785170549430e+00
1.959859529137611389e+01 1.360645759105682373e+01 -1.163210830092424430e+00
1.439791169762611389e+01 9.456433176994323730e+00 -8.467588037252369304e-01
1.486861482262611389e+01 9.854138255119323730e+00 -8.665647119283619304e-01
2.229818025231361389e+01 1.374512946605682373e+01 -1.160326918959611930e+00
1.661605134606361389e+01 1.110364997386932373e+01 -9.382962793111744304e-01
1.650057283043861389e+01 1.124451911449432373e+01 -9.353360742330494304e-01
1.694905915856361389e+01 1.168787848949432373e+01 -9.547147363424244304e-01
1.753524079918861389e+01 1.222144782543182373e+01 -9.796933740377369304e-01
1.963082185387611389e+01 1.362330329418182373e+01 -1.064959487318986930e+00
1.439644685387611389e+01 9.455334544181823730e+00 -7.767819970846119304e-01
1.486690583825111389e+01 9.852673411369323730e+00 -7.938108056783619304e-01
2.052999177575111389e+01 1.285999763011932373e+01 -9.890622705221119304e-01
1.661714997887611389e+01 1.110352790355682373e+01 -8.562955468892994304e-01
1.650142732262611389e+01 1.124403083324432373e+01 -8.534879297017994304e-01
1.694637361168861389e+01 1.168543708324432373e+01 -8.699826806783619304e-01
1.753206697106361389e+01 1.221864020824432373e+01 -8.909635156392994304e-01
1.965694490075111389e+01 1.363673102855682373e+01 -9.657010644674244304e-01
1.441671052575111389e+01 9.464367747306823730e+00 -7.075070947408619304e-01
1.488179841637611389e+01 9.859387278556823730e+00 -7.220029443502369304e-01
2.380953279137611389e+01 1.449879157543182373e+01 -9.822721093892994304e-01
1.661837068200111389e+01 1.110328376293182373e+01 -7.738980859517994304e-01
1.650240388512611389e+01 1.124366462230682373e+01 -7.712430566549244304e-01
1.694368806481361389e+01 1.168299567699432373e+01 -7.848844140767994304e-01
1.752901521325111389e+01 1.221583259105682373e+01 -8.027982324361744304e-01
1.968306794762611389e+01 1.365015876293182373e+01 -8.662290185689869304e-01
7.274986892938613892e+00 6.662243723869323730e+00 -1.166888198256486930e+00
7.238243728876113892e+00 6.728405833244323730e+00 -1.165987929701799430e+00
7.199425369501113892e+00 6.793469309806823730e+00 -1.165011367201799430e+00
7.160362869501113892e+00 6.858776926994323730e+00 -1.164019545912736930e+00
7.121544510126113892e+00 6.923840403556823730e+00 -1.163027724623674430e+00
7.082726150751113892e+00 6.989025950431823730e+00 -1.162051162123674430e+00
7.043663650751113892e+00 7.054333567619323730e+00 -1.161059340834611930e+00
7.002648025751113892e+00 7.118054270744323730e+00 -1.159991225600236930e+00
7.681725174188613892e+00 6.891735911369323730e+00 -1.182375869154924430e+00
7.644127517938613892e+00 6.962780833244323730e+00 -1.181780776381486930e+00
7.608605057001113892e+00 7.035168528556823730e+00 -1.181246718764299430e+00
7.570641189813613892e+00 7.106701731681823730e+00 -1.180636367201799430e+00
7.532799392938613892e+00 7.177990794181823730e+00 -1.180026015639299430e+00
7.494957596063613892e+00 7.249401926994323730e+00 -1.179415664076799430e+00
7.454674392938613892e+00 7.319836497306823730e+00 -1.178729018568986930e+00
7.414024978876113892e+00 7.389538645744323730e+00 -1.177767714858049430e+00
8.124230057001113892e+00 7.141247630119323730e+00 -1.197817763686174430e+00
8.084435135126113892e+00 7.216931223869323730e+00 -1.197176894545549430e+00
8.044640213251113892e+00 7.292736887931823730e+00 -1.196536025404924430e+00
8.004601150751113892e+00 7.368908762931823730e+00 -1.195895156264299430e+00
7.964684158563613892e+00 7.444836497306823730e+00 -1.195269545912736930e+00
7.924767166376113892e+00 7.520886301994323730e+00 -1.194628676772111930e+00
7.884483963251113892e+00 7.597302317619323730e+00 -1.193987807631486930e+00
7.844444900751113892e+00 7.673596262931823730e+00 -1.193331679701799430e+00
8.652062088251113892e+00 7.438977122306823730e+00 -1.218493422865861930e+00
8.600426346063613892e+00 7.514782786369323730e+00 -1.216525039076799430e+00
8.551720291376113892e+00 7.592175364494323730e+00 -1.215105971693986930e+00
8.512901932001113892e+00 7.675915598869323730e+00 -1.214861831068986930e+00
8.478722244501113892e+00 7.762463450431823730e+00 -1.215136489272111930e+00
8.443932205438613892e+00 7.849011301994323730e+00 -1.215365371108049430e+00
8.405602127313613892e+00 7.933850169181823730e+00 -1.215197524428361930e+00
8.363976150751113892e+00 8.016491770744323730e+00 -1.214877089858049430e+00
9.283043533563613892e+00 7.794934153556823730e+00 -1.244585952162736930e+00
9.232750564813613892e+00 7.879773020744323730e+00 -1.243304213881486930e+00
9.182335525751113892e+00 7.964733958244323730e+00 -1.242037734389299430e+00
9.131798416376113892e+00 8.049939036369323730e+00 -1.240755996108049430e+00
9.081383377313613892e+00 8.134777903556823730e+00 -1.239474257826799430e+00
9.041954666376113892e+00 8.226696848869323730e+00 -1.239428481459611930e+00
9.005943924188613892e+00 8.321545481681823730e+00 -1.239779433608049430e+00
8.969811111688613892e+00 8.416394114494323730e+00 -1.240115126967424430e+00
1.003157868981361389e+01 8.217175364494323730e+00 -1.276370009779924430e+00
9.981285721063613892e+00 8.312023997306823730e+00 -1.275179824233049430e+00
9.926598221063613892e+00 8.404309153556823730e+00 -1.273791274428361930e+00
9.871788650751113892e+00 8.496960520744323730e+00 -1.272417983412736930e+00
9.817101150751113892e+00 8.589367747306823730e+00 -1.271029433608049430e+00
9.762413650751113892e+00 8.681897044181823730e+00 -1.269656142592424430e+00
9.707604080438613892e+00 8.774670481681823730e+00 -1.268267592787736930e+00
9.663658767938613892e+00 8.874279856681823730e+00 -1.268313369154924430e+00
1.092757478356361389e+01 8.722668528556823730e+00 -1.314440688490861930e+00
1.086788240075111389e+01 8.823864817619323730e+00 -1.312945327162736930e+00
1.080819001793861389e+01 8.925061106681823730e+00 -1.311434707045549430e+00
1.074825349450111389e+01 9.026623606681823730e+00 -1.309924086928361930e+00
