9.023020923137664795e+00 5.306392401456832886e+00 -8.666576039045992275e-01
4.856122893095016479e+01 1.656408283114433289e+01 -3.559742320701474227e+00
4.818586272001266479e+01 1.696813556551933289e+01 -3.544468272849911727e+00
4.765168303251266479e+01 1.731872150301933289e+01 -3.518207896873349227e+00
4.006244963407516479e+01 1.543847247958183289e+01 -3.006931651756161727e+00
1.093366545438766479e+01 6.366206854581832886e+00 -1.007175792381161727e+00
8.655589282512664795e+00 5.043697088956832886e+00 -8.021739613264742275e-01
8.834666430950164795e+00 5.171626776456832886e+00 -8.149608265608492275e-01
9.023265063762664795e+00 5.306636542081832886e+00 -8.284343373030367275e-01
4.864765471220016479e+01 1.658910724520683289e+01 -3.337772716209286727e+00
4.831891936063766479e+01 1.700756427645683289e+01 -3.326603282615536727e+00
4.793036955595016479e+01 1.740368244051933289e+01 -3.311573375388974227e+00
4.339326018095016479e+01 1.648839923739433289e+01 -3.031345714256161727e+00
1.093513029813766479e+01 6.366695135831832886e+00 -9.592326771467867275e-01
8.655955493450164795e+00 5.043941229581832886e+00 -7.657512318342867275e-01
8.834910571575164795e+00 5.171870917081832886e+00 -7.775767933577242275e-01
9.023509204387664795e+00 5.306758612394332886e+00 -7.902415882795992275e-01
4.440839689970016479e+01 1.539184162020683289e+01 -2.862034190818661727e+00
4.838215178251266479e+01 1.702660724520683289e+01 -3.103535045310849227e+00
4.762201994657516479e+01 1.731017658114433289e+01 -3.067814220115536727e+00
4.004828947782516479e+01 1.543420001864433289e+01 -2.628345836326474227e+00
1.093659514188766479e+01 6.367061346769332886e+00 -9.110606800764742275e-01
8.656321704387664795e+00 5.044185370206832886e+00 -7.295421253889742275e-01
8.835276782512664795e+00 5.172115057706832886e+00 -7.404063832014742275e-01
9.023875415325164795e+00 5.307002753019332886e+00 -7.518657337874117275e-01
4.909846037626266479e+01 1.671764728426933289e+01 -2.905475963279599227e+00
4.833002775907516479e+01 1.701171466708183289e+01 -2.872547496482724227e+00
4.891413420438766479e+01 1.770360919833183289e+01 -2.912510265037411727e+00
4.001606291532516479e+01 1.542406818270683289e+01 -2.438465465232724227e+00
1.093805998563766479e+01 6.367549628019332886e+00 -8.631480824202242275e-01
8.656687915325164795e+00 5.044429510831832886e+00 -6.931499134749117275e-01
8.835520923137664795e+00 5.172359198331832886e+00 -7.032512318342867275e-01
9.024119555950164795e+00 5.307246893644332886e+00 -7.137035023420992275e-01
4.749970549345016479e+01 1.626647540926933289e+01 -2.597660411521786727e+00
4.603803557157516479e+01 1.633971759676933289e+01 -2.533451427146786727e+00
4.869452971220016479e+01 1.763695880770683289e+01 -2.671650279685849227e+00
3.998249357938766479e+01 1.541357013583183289e+01 -2.248951305076474227e+00
1.093952482938766479e+01 6.368037909269332886e+00 -8.149913441389742275e-01
8.657054126262664795e+00 5.044673651456832886e+00 -6.569713246077242275e-01
8.835887134075164795e+00 5.172603338956832886e+00 -6.659282337874117275e-01
9.024363696575164795e+00 5.307368963956832886e+00 -6.753734242170992275e-01
8.320344084501266479e+01 2.635705158114433289e+01 -3.950413097068661727e+00
4.596332854032516479e+01 1.631811115145683289e+01 -2.313526500388974227e+00
4.865619963407516479e+01 1.762560626864433289e+01 -2.439884532615536727e+00
3.996564787626266479e+01 1.540832111239433289e+01 -2.059620250388974227e+00
1.094098967313766479e+01 6.368526190519332886e+00 -7.671092640608492275e-01
8.657420337200164795e+00 5.044917792081832886e+00 -6.206248890608492275e-01
8.836253345012664795e+00 5.172847479581832886e+00 -6.288188587874117275e-01
9.024607837200164795e+00 5.307613104581832886e+00 -6.372569691389742275e-01
4.620063322782516479e+01 1.590038654208183289e+01 -2.101826060935849227e+00
4.812177580595016479e+01 1.695177814364433289e+01 -2.183811534568661727e+00
4.894074553251266479e+01 1.771239826083183289e+01 -2.222660411521786727e+00
3.995246428251266479e+01 1.540429279208183289e+01 -1.871708263084286727e+00
1.094245451688766479e+01 6.369014471769332886e+00 -7.189830433577242275e-01
8.657786548137664795e+00 5.045161932706832886e+00 -5.844920765608492275e-01
8.836497485637664795e+00 5.173091620206832886e+00 -5.915416371077242275e-01
9.024974048137664795e+00 5.307735174894332886e+00 -5.989726673811617275e-01
5.769599455595016479e+01 1.914989826083183289e+01 -2.282780040428036727e+00
4.425825041532516479e+01 1.581859943270683289e+01 -1.823383678123349227e+00
6.245868986845016479e+01 2.182567951083183289e+01 -2.462360728904599227e+00
3.993390959501266479e+01 1.539843341708183289e+01 -1.682865489646786727e+00
1.094391936063766479e+01 6.369380682706832886e+00 -6.711314808577242275e-01
8.658152759075164795e+00 5.045528143644332886e+00 -5.481761585920992275e-01
8.836863696575164795e+00 5.173335760831832886e+00 -5.542796742170992275e-01
9.025218188762664795e+00 5.307979315519332886e+00 -5.609019886702242275e-01
5.872028654813766479e+01 1.944005939364433289e+01 -2.043354381248349227e+00
4.756110686063766479e+01 1.678808185458183289e+01 -1.715641368553036727e+00
4.755158537626266479e+01 1.729027912020683289e+01 -1.720386851951474227e+00
3.994489592313766479e+01 1.540197345614433289e+01 -1.495197642967099227e+00
1.094538420438766479e+01 6.369868963956832886e+00 -6.230510365217867275e-01
8.679515063762664795e+00 5.051021307706832886e+00 -5.124095570295992275e-01
8.860789477825164795e+00 5.179683417081832886e+00 -5.178111683577242275e-01
9.052073657512664795e+00 5.315425604581832886e+00 -5.233043324202242275e-01
5.859028166532516479e+01 1.940392658114433289e+01 -1.763950694724911727e+00
4.759028166532516479e+01 1.679711505770683289e+01 -1.492985118553036727e+00
4.755353850126266479e+01 1.729113361239433289e+01 -1.496448863670224227e+00
3.991926115751266479e+01 1.539403888583183289e+01 -1.307621349021786727e+00
1.098212736845016479e+01 6.381831854581832886e+00 -5.758708607405367275e-01
8.412791430950164795e+00 5.544307440519332886e+00 -1.194156993553036727e+00
8.410105884075164795e+00 5.625606268644332886e+00 -1.196598399803036727e+00
8.376536548137664795e+00 5.696773260831832886e+00 -1.195591319724911727e+00
8.335520923137664795e+00 5.765376776456832886e+00 -1.193714488670224227e+00
8.294871509075164795e+00 5.833492010831832886e+00 -1.191852916404599227e+00
8.254466235637664795e+00 5.901363104581832886e+00 -1.190006602928036727e+00
8.213938891887664795e+00 5.969234198331832886e+00 -1.188145030662411727e+00
8.171214282512664795e+00 6.035518378019332886e+00 -1.186191905662411727e+00
8.826976001262664795e+00 5.679439276456832886e+00 -1.204609264060849227e+00
8.823313891887664795e+00 5.765010565519332886e+00 -1.207172740623349227e+00
8.821849048137664795e+00 5.851924628019332886e+00 -1.209797252342099227e+00
8.818064868450164795e+00 5.938960760831832886e+00 -1.212391246482724227e+00
8.814280688762664795e+00 6.026241034269332886e+00 -1.215000499412411727e+00
8.779246509075164795e+00 6.102046698331832886e+00 -1.214039195701474227e+00
8.731761157512664795e+00 6.173213690519332886e+00 -1.211872447654599227e+00
8.687693774700164795e+00 6.244868963956832886e+00 -1.209843028709286727e+00
9.882884204387664795e+00 6.023921698331832886e+00 -1.280247081443661727e+00
9.773509204387664795e+00 6.085567206144332886e+00 -1.271625865623349227e+00
9.665965259075164795e+00 6.146114081144332886e+00 -1.263157237693661727e+00
9.560008227825164795e+00 6.205806463956832886e+00 -1.254810680076474227e+00
9.456126391887664795e+00 6.264278143644332886e+00 -1.246631969138974227e+00
9.354075610637664795e+00 6.321895331144332886e+00 -1.238590587303036727e+00
9.283885180950164795e+00 6.390620917081832886e+00 -1.234012950584286727e+00
9.263377368450164795e+00 6.478267401456832886e+00 -1.234882701560849227e+00
1.048981779813766479e+01 6.221919745206832886e+00 -1.299610484763974227e+00
1.019221037626266479e+01 6.226680487394332886e+00 -1.271870006248349227e+00
1.003596037626266479e+01 6.274898260831832886e+00 -1.258869517967099227e+00
9.922190845012664795e+00 6.336055487394332886e+00 -1.250202525779599227e+00
9.869578540325164795e+00 6.417598456144332886e+00 -1.247852672263974227e+00
9.848460376262664795e+00 6.510860174894332886e+00 -1.248798717185849227e+00
9.827220141887664795e+00 6.604610174894332886e+00 -1.249744762107724227e+00
9.802928149700164795e+00 6.697017401456832886e+00 -1.250599254295224227e+00
1.092426604032516479e+01 6.363521307706832886e+00 -1.295887340232724227e+00
1.085309904813766479e+01 6.449580878019332886e+00 -1.292133678123349227e+00
1.078571623563766479e+01 6.536128729581832886e+00 -1.288730968162411727e+00
1.083845061063766479e+01 6.665645331144332886e+00 -1.297199596092099227e+00
1.106281584501266479e+01 6.860347479581832886e+00 -1.322819102928036727e+00
1.096100920438766479e+01 6.936275213956832886e+00 -1.316028941795224227e+00
1.086005705595016479e+01 7.011470526456832886e+00 -1.309315074607724227e+00
1.076069182157516479e+01 7.085323065519332886e+00 -1.302708018943661727e+00
1.092560881376266479e+01 6.364009588956832886e+00 -1.247852672263974227e+00
1.085431975126266479e+01 6.449947088956832886e+00 -1.243992198631161727e+00
1.078693693876266479e+01 6.536494940519332886e+00 -1.240742076560849227e+00
1.083808439970016479e+01 6.665401190519332886e+00 -1.248646129295224227e+00
1.111078947782516479e+01 6.878047674894332886e+00 -1.277515758201474227e+00
1.140107268095016479e+01 7.104488104581832886e+00 -1.308246959373349227e+00
1.147028654813766479e+01 7.251704901456832886e+00 -1.318195689842099227e+00
1.137617033720016479e+01 7.334834784269332886e+00 -1.312870372459286727e+00
1.092707365751266479e+01 6.364497870206832886e+00 -1.199573863670224227e+00
1.085554045438766479e+01 6.450313299894332886e+00 -1.196125377342099227e+00
1.078827971220016479e+01 6.536861151456832886e+00 -1.193027843162411727e+00
1.083784025907516479e+01 6.665157049894332886e+00 -1.200367320701474227e+00
1.111030119657516479e+01 6.877681463956832886e+00 -1.227711070701474227e+00
1.140058439970016479e+01 7.103999823331832886e+00 -1.256824840232724227e+00
1.171137541532516479e+01 7.346431463956832886e+00 -1.287998546287411727e+00
1.221906584501266479e+01 7.676387518644332886e+00 -1.337208141013974227e+00
1.092853850126266479e+01 6.364986151456832886e+00 -1.151569713279599227e+00
1.085688322782516479e+01 6.450679510831832886e+00 -1.148273814842099227e+00
1.078950041532516479e+01 6.537227362394332886e+00 -1.145084727928036727e+00
1.083759611845016479e+01 6.664912909269332886e+00 -1.151859630271786727e+00
1.110993498563766479e+01 6.877437323331832886e+00 -1.177662242576474227e+00
1.140009611845016479e+01 7.103633612394332886e+00 -1.205143321678036727e+00
1.171076506376266479e+01 7.345943182706832886e+00 -1.234867442771786727e+00
1.666596525907516479e+01 9.479976385831832886e+00 -1.661609996482724227e+00
1.093000334501266479e+01 6.365474432706832886e+00 -1.103321422263974227e+00
1.085810393095016479e+01 6.451045721769332886e+00 -1.100193370506161727e+00
1.079072111845016479e+01 6.537593573331832886e+00 -1.097401012107724227e+00
1.083722990751266479e+01 6.664668768644332886e+00 -1.103657115623349227e+00
1.110956877470016479e+01 6.877071112394332886e+00 -1.127933849021786727e+00
1.139948576688766479e+01 7.103267401456832886e+00 -1.153797496482724227e+00
1.171003264188766479e+01 7.345454901456832886e+00 -1.181476939842099227e+00
1.777692717313766479e+01 9.930049628019332886e+00 -1.672718394920224227e+00
1.093146818876266479e+01 6.365840643644332886e+00 -1.055347789451474227e+00
1.085932463407516479e+01 6.451534003019332886e+00 -1.052372325584286727e+00
1.079194182157516479e+01 6.537959784269332886e+00 -1.049747813865536727e+00
1.083698576688766479e+01 6.664546698331832886e+00 -1.055485118553036727e+00
1.110920256376266479e+01 6.876826971769332886e+00 -1.078235973045224227e+00
1.139899748563766479e+01 7.102901190519332886e+00 -1.102466930076474227e+00
1.170942229032516479e+01 7.344966620206832886e+00 -1.128422130271786727e+00
1.844037932157516479e+01 1.019872638583183289e+01 -1.639469493553036727e+00
1.093293303251266479e+01 6.366328924894332886e+00 -1.007145274803036727e+00
1.086054533720016479e+01 6.451900213956832886e+00 -1.004322398826474227e+00
1.079328459501266479e+01 6.538325995206832886e+00 -1.001850474998349227e+00
1.083674162626266479e+01 6.664302557706832886e+00 -1.007084239646786727e+00
1.110883635282516479e+01 6.876460760831832886e+00 -1.028309215232724227e+00
1.139850920438766479e+01 7.102412909269332886e+00 -1.050907481834286727e+00
1.170881193876266479e+01 7.344478338956832886e+00 -1.075123180076474227e+00
2.084931486845016479e+01 1.117516681551933289e+01 -1.722309459373349227e+00
1.093439787626266479e+01 6.366817206144332886e+00 -9.592021595686617275e-01
1.086176604032516479e+01 6.452266424894332886e+00 -9.565471302717867275e-01
1.079450529813766479e+01 6.538692206144332886e+00 -9.542277943342867275e-01
1.083637541532516479e+01 6.664058417081832886e+00 -9.589732777327242275e-01
1.110834807157516479e+01 6.876216620206832886e+00 -9.786876332014742275e-01
1.139802092313766479e+01 7.102046698331832886e+00 -9.996684681624117275e-01
1.170807951688766479e+01 7.343990057706832886e+00 -1.022144664451474227e+00
2.089130705595016479e+01 1.119164630770683289e+01 -1.626545299217099227e+00
1.093586272001266479e+01 6.367305487394332886e+00 -9.110149037092867275e-01
1.086298674345016479e+01 6.452632635831832886e+00 -9.085429798811617275e-01
1.079572600126266479e+01 6.539058417081832886e+00 -9.066203724592867275e-01
1.083613127470016479e+01 6.663814276456832886e+00 -9.108928333967867275e-01
1.110798186063766479e+01 6.875850409269332886e+00 -9.290965687483492275e-01
1.139753264188766479e+01 7.101680487394332886e+00 -9.484599720686617275e-01
1.170746916532516479e+01 7.343501776456832886e+00 -9.689220082014742275e-01
4.017353361845016479e+01 1.901000568270683289e+01 -2.695530284568661727e+00
1.093732756376266479e+01 6.367671698331832886e+00 -8.631023060530367275e-01
1.086432951688766479e+01 6.452998846769332886e+00 -8.607982289045992275e-01
1.079694670438766479e+01 6.539302557706832886e+00 -8.587840687483492275e-01
1.083588713407516479e+01 6.663570135831832886e+00 -8.625987660139742275e-01
1.110761564970016479e+01 6.875606268644332886e+00 -8.792613636702242275e-01
1.139704436063766479e+01 7.101314276456832886e+00 -8.970073353499117275e-01
1.170685881376266479e+01 7.342891424894332886e+00 -9.160197865217867275e-01
2.097590178251266479e+01 1.122497150301933289e+01 -1.433491099998349227e+00
1.093879240751266479e+01 6.368159979581832886e+00 -8.149608265608492275e-01
1.086555022001266479e+01 6.453365057706832886e+00 -8.130687367170992275e-01
1.079828947782516479e+01 6.539668768644332886e+00 -8.112224232405367275e-01
1.083552092313766479e+01 6.663325995206832886e+00 -8.145946156233492275e-01
1.110724943876266479e+01 6.875240057706832886e+00 -8.297465931624117275e-01
1.139643400907516479e+01 7.100825995206832886e+00 -8.458751332014742275e-01
1.170624846220016479e+01 7.342403143644332886e+00 -8.631633412092867275e-01
4.188264006376266479e+01 1.970092365145683289e+01 -2.392780650779599227e+00
1.094025725126266479e+01 6.368648260831832886e+00 -7.670787464827242275e-01
1.086677092313766479e+01 6.453731268644332886e+00 -7.651103626936617275e-01
1.079951018095016479e+01 6.540034979581832886e+00 -7.634166371077242275e-01
1.083527678251266479e+01 6.663203924894332886e+00 -7.663615833967867275e-01
1.110688322782516479e+01 6.874995917081832886e+00 -7.799876820295992275e-01
1.139594572782516479e+01 7.100459784269332886e+00 -7.945140492170992275e-01
1.170551604032516479e+01 7.341914862394332886e+00 -8.100627552717867275e-01
3.995453947782516479e+01 1.891808673739433289e+01 -2.102283824607724227e+00
1.094172209501266479e+01 6.369136542081832886e+00 -7.189677845686617275e-01
1.086799162626266479e+01 6.454097479581832886e+00 -7.174266468733492275e-01
1.080073088407516479e+01 6.540401190519332886e+00 -7.158702503889742275e-01
1.083503264188766479e+01 6.662959784269332886e+00 -7.184184681624117275e-01
1.110651701688766479e+01 6.874629706144332886e+00 -7.305492054670992275e-01
1.139545744657516479e+01 7.100093573331832886e+00 -7.434581410139742275e-01
1.170490568876266479e+01 7.341426581144332886e+00 -7.572826039045992275e-01
4.286115568876266479e+01 2.009533283114433289e+01 -2.026859630271786727e+00
1.094318693876266479e+01 6.369502753019332886e+00 -6.711162220686617275e-01
1.086921232938766479e+01 6.454463690519332886e+00 -6.694987904280367275e-01
1.080195158720016479e+01 6.540767401456832886e+00 -6.681102406233492275e-01
1.083478850126266479e+01 6.662715643644332886e+00 -6.702464710920992275e-01
1.110602873563766479e+01 6.874385565519332886e+00 -6.808665882795992275e-01
1.139496916532516479e+01 7.099727362394332886e+00 -6.921580921858492275e-01
1.170429533720016479e+01 7.340938299894332886e+00 -7.042583119124117275e-01
4.069001311063766479e+01 1.921410724520683289e+01 -1.742206920310849227e+00
1.094465178251266479e+01 6.369991034269332886e+00 -6.230357777327242275e-01
1.087043303251266479e+01 6.454829901456832886e+00 -6.215861927717867275e-01
1.080317229032516479e+01 6.541133612394332886e+00 -6.206096302717867275e-01
1.083442229032516479e+01 6.662471503019332886e+00 -6.223643910139742275e-01
1.110566252470016479e+01 6.874019354581832886e+00 -6.314738880842867275e-01
1.139448088407516479e+01 7.099239081144332886e+00 -6.411784779280367275e-01
1.170368498563766479e+01 7.340450018644332886e+00 -6.512797962874117275e-01
3.989435881376266479e+01 1.889049884676933289e+01 -1.520527232810849227e+00
1.097980803251266479e+01 6.381465643644332886e+00 -5.758250843733492275e-01
1.088788908720016479e+01 6.460567206144332886e+00 -5.743754994124117275e-01
1.082306975126266479e+01 6.547969549894332886e+00 -5.733531605452242275e-01
1.089838713407516479e+01 6.685420721769332886e+00 -5.759166371077242275e-01
1.117914885282516479e+01 6.901118963956832886e+00 -5.837596546858492275e-01
1.147870939970016479e+01 7.131343573331832886e+00 -5.921367298811617275e-01
1.179987639188766479e+01 7.378047674894332886e+00 -6.011241566389742275e-01
2.141596525907516479e+01 1.140014240145683289e+01 -8.500102650374117275e-01
8.171214282512664795e+00 6.035762518644332886e+00 -1.186191905662411727e+00
8.130564868450164795e+00 6.102779120206832886e+00 -1.184345592185849227e+00
8.093699634075164795e+00 6.171016424894332886e+00 -1.183109630271786727e+00
8.057810962200164795e+00 6.239864081144332886e+00 -1.182026256248349227e+00
8.022044360637664795e+00 6.308467596769332886e+00 -1.180927623435849227e+00
7.988108813762664795e+00 6.377681463956832886e+00 -1.180057872459286727e+00
7.958201587200164795e+00 6.449092596769332886e+00 -1.179691661521786727e+00
7.926219165325164795e+00 6.519283026456832886e+00 -1.179233897849911727e+00
8.687693774700164795e+00 6.245235174894332886e+00 -1.209858287498349227e+00
8.640574634075164795e+00 6.315425604581832886e+00 -1.207706798240536727e+00
8.599803149700164795e+00 6.388057440519332886e+00 -1.206074107810849227e+00
8.560618579387664795e+00 6.461543768644332886e+00 -1.204838145896786727e+00
8.521678149700164795e+00 6.534541815519332886e+00 -1.203617442771786727e+00
8.482737720012664795e+00 6.607539862394332886e+00 -1.202381480857724227e+00
8.440745532512664795e+00 6.679317206144332886e+00 -1.201008189842099227e+00
8.401927173137664795e+00 6.752071112394332886e+00 -1.199787486717099227e+00
9.263499438762664795e+00 6.478633612394332886e+00 -1.234897960349911727e+00
9.220774829387664795e+00 6.557368963956832886e+00 -1.233539928123349227e+00
9.174510180950164795e+00 6.634395331144332886e+00 -1.231769908592099227e+00
9.128123462200164795e+00 6.711543768644332886e+00 -1.229999889060849227e+00
9.082102954387664795e+00 6.788203924894332886e+00 -1.228245128318661727e+00
9.036204516887664795e+00 6.864742010831832886e+00 -1.226490367576474227e+00
8.990184009075164795e+00 6.941280096769332886e+00 -1.224735606834286727e+00
8.944407641887664795e+00 7.017451971769332886e+00 -1.222996104881161727e+00
9.803050220012664795e+00 6.697383612394332886e+00 -1.250614513084286727e+00
9.782298266887664795e+00 6.791621893644332886e+00 -1.251575816795224227e+00
9.758372485637664795e+00 6.884761542081832886e+00 -1.252445567771786727e+00
9.731639087200164795e+00 6.977534979581832886e+00 -1.253055919334286727e+00
9.681346118450164795e+00 7.059566229581832886e+00 -1.251133311912411727e+00
9.631297290325164795e+00 7.141231268644332886e+00 -1.249225963279599227e+00
9.581126391887664795e+00 7.223140448331832886e+00 -1.247303355857724227e+00
9.527903735637664795e+00 7.302852362394332886e+00 -1.245273936912411727e+00
1.076032561063766479e+01 7.085567206144332886e+00 -1.302677501365536727e+00
1.065986174345016479e+01 7.157588690519332886e+00 -1.296100963279599227e+00
1.056061857938766479e+01 7.228877753019332886e+00 -1.289600719138974227e+00
1.046210783720016479e+01 7.299434393644332886e+00 -1.283146251365536727e+00
1.037397307157516479e+01 7.373042792081832886e+00 -1.277698863670224227e+00
1.033002775907516479e+01 7.466060370206832886e+00 -1.276737559959286727e+00
1.028583830595016479e+01 7.559200018644332886e+00 -1.275760997459286727e+00
1.024189299345016479e+01 7.652095526456832886e+00 -1.274784434959286727e+00
1.137592619657516479e+01 7.335078924894332886e+00 -1.312855113670224227e+00
1.132770842313766479e+01 7.436153143644332886e+00 -1.311497081443661727e+00
1.129011076688766479e+01 7.541621893644332886e+00 -1.311436046287411727e+00
1.125239104032516479e+01 7.647700995206832886e+00 -1.311390269920224227e+00
1.121467131376266479e+01 7.753535956144332886e+00 -1.311329234763974227e+00
1.117682951688766479e+01 7.859492987394332886e+00 -1.311283458396786727e+00
1.113898772001266479e+01 7.966060370206832886e+00 -1.311222423240536727e+00
1.108954924345016479e+01 8.066768378019332886e+00 -1.310306895896786727e+00
1.221930998563766479e+01 7.676997870206832886e+00 -1.337238658592099227e+00
1.221137541532516479e+01 7.804561346769332886e+00 -1.340092052146786727e+00
1.220331877470016479e+01 7.933223456144332886e+00 -1.342975963279599227e+00
1.219526213407516479e+01 8.063228338956832886e+00 -1.345890391990536727e+00
1.218708342313766479e+01 8.193721503019332886e+00 -1.348820079490536727e+00
1.217890471220016479e+01 8.325191229581832886e+00 -1.351765025779599227e+00
1.213605803251266479e+01 8.441646307706832886e+00 -1.351551402732724227e+00
1.205903166532516479e+01 8.541133612394332886e+00 -1.348163951560849227e+00
1.666718596220016479e+01 9.481075018644332886e+00 -1.661716808006161727e+00
1.679059904813766479e+01 9.715327948331832886e+00 -1.676960338279599227e+00
1.302741545438766479e+01 8.286494940519332886e+00 -1.357380260154599227e+00
1.299628752470016479e+01 8.416011542081832886e+00 -1.358341563865536727e+00
1.293867033720016479e+01 8.533687323331832886e+00 -1.357014049217099227e+00
1.291877287626266479e+01 8.668819159269332886e+00 -1.358967174217099227e+00
1.290046232938766479e+01 8.806026190519332886e+00 -1.361408580467099227e+00
1.289057463407516479e+01 8.947627753019332886e+00 -1.364277232810849227e+00
1.777680510282516479e+01 9.930782049894332886e+00 -1.672733653709286727e+00
1.770502775907516479e+01 1.009655353426933289e+01 -1.671558726951474227e+00
1.367560881376266479e+01 8.564082831144332886e+00 -1.349598277732724227e+00
1.358002775907516479e+01 8.672969549894332886e+00 -1.345371593162411727e+00
1.351179045438766479e+01 8.792842596769332886e+00 -1.343372691795224227e+00
1.387665861845016479e+01 9.113765448331832886e+00 -1.376819957420224227e+00
1.408051604032516479e+01 9.368648260831832886e+00 -1.397297252342099227e+00
1.402924650907516479e+01 9.504512518644332886e+00 -1.396870006248349227e+00
1.843805998563766479e+01 1.019848224520683289e+01 -1.639316905662411727e+00
1.811237639188766479e+01 1.026598712801933289e+01 -1.619053233787411727e+00
1.367731779813766479e+01 8.564449042081832886e+00 -1.286182750388974227e+00
1.358137053251266479e+01 8.673091620206832886e+00 -1.282139171287411727e+00
1.351203459501266479e+01 8.792354315519332886e+00 -1.280109752342099227e+00
1.387507170438766479e+01 9.112422674894332886e+00 -1.311283458396786727e+00
1.430366057157516479e+01 9.474483221769332886e+00 -1.347736705467099227e+00
1.880781096220016479e+01 1.184337970614433289e+01 -1.699695933982724227e+00
2.084809416532516479e+01 1.117553302645683289e+01 -1.722248424217099227e+00
3.933954924345016479e+01 1.912255451083183289e+01 -3.035404552146786727e+00
1.367902678251266479e+01 8.564693182706832886e+00 -1.222462047263974227e+00
1.358271330595016479e+01 8.673213690519332886e+00 -1.218586314842099227e+00
1.351227873563766479e+01 8.791988104581832886e+00 -1.216541637107724227e+00
1.387348479032516479e+01 9.111079901456832886e+00 -1.245441783592099227e+00
1.430182951688766479e+01 9.472896307706832886e+00 -1.279377330467099227e+00
1.969184416532516479e+01 1.227514240145683289e+01 -1.671787608787411727e+00
2.089008635282516479e+01 1.119201251864433289e+01 -1.626484264060849227e+00
3.962751311063766479e+01 1.924145099520683289e+01 -2.863193858787411727e+00
1.368061369657516479e+01 8.564937323331832886e+00 -1.159092296287411727e+00
1.358405607938766479e+01 8.673335760831832886e+00 -1.155399669334286727e+00
1.351264494657516479e+01 8.791621893644332886e+00 -1.153370250388974227e+00
1.387189787626266479e+01 9.109737128019332886e+00 -1.180027354881161727e+00
1.429987639188766479e+01 9.471309393644332886e+00 -1.211460460349911727e+00
2.295392912626266479e+01 1.387072345614433289e+01 -1.794880260154599227e+00
2.109870451688766479e+01 1.127611896395683289e+01 -1.539951671287411727e+00
4.012385100126266479e+01 1.944738361239433289e+01 -2.699879039451474227e+00
1.368232268095016479e+01 8.565303534269332886e+00 -1.095753062888974227e+00
1.358539885282516479e+01 8.673457831144332886e+00 -1.092243541404599227e+00
1.351288908720016479e+01 8.791133612394332886e+00 -1.090214122459286727e+00
1.387031096220016479e+01 9.108394354581832886e+00 -1.114658702537411727e+00
1.429804533720016479e+01 9.469722479581832886e+00 -1.143238414451474227e+00
2.068940275907516479e+01 1.276122638583183289e+01 -1.541691173240536727e+00
2.097468107938766479e+01 1.122521564364433289e+01 -1.433430064842099227e+00
4.093378752470016479e+01 1.978405353426933289e+01 -2.550251353904599227e+00
1.368403166532516479e+01 8.565547674894332886e+00 -1.032108653709286727e+00
1.358674162626266479e+01 8.673579901456832886e+00 -1.028782237693661727e+00
1.351313322782516479e+01 8.790767401456832886e+00 -1.026768077537411727e+00
1.386872404813766479e+01 9.107051581144332886e+00 -1.049000133201474227e+00
1.429621428251266479e+01 9.468257635831832886e+00 -1.075443614646786727e+00
2.064643400907516479e+01 1.273913165926933289e+01 -1.438557017967099227e+00
4.188300627470016479e+01 1.970263263583183289e+01 -2.392826427146786727e+00
4.196467131376266479e+01 2.021276447176933289e+01 -2.403919566795224227e+00
1.368574064970016479e+01 8.565791815519332886e+00 -9.688151966780367275e-01
1.358808439970016479e+01 8.673701971769332886e+00 -9.656871449202242275e-01
1.351337736845016479e+01 8.790279120206832886e+00 -9.637035023420992275e-01
1.386713713407516479e+01 9.105708807706832886e+00 -9.837535511702242275e-01
1.429438322782516479e+01 9.466670721769332886e+00 -1.007709849998349227e+00
2.136249846220016479e+01 1.308837482333183289e+01 -1.374607433006161727e+00
3.995441740751266479e+01 1.891955158114433289e+01 -2.102299083396786727e+00
4.045417326688766479e+01 1.958153888583183289e+01 -2.129917491599911727e+00
1.368744963407516479e+01 8.566158026456832886e+00 -9.052013050764742275e-01
1.358942717313766479e+01 8.673701971769332886e+00 -9.022716175764742275e-01
1.351362150907516479e+01 8.789912909269332886e+00 -9.003337513655367275e-01
1.386555022001266479e+01 9.104366034269332886e+00 -9.182170521467867275e-01
1.429255217313766479e+01 9.465083807706832886e+00 -9.396861683577242275e-01
2.137177580595016479e+01 1.309179279208183289e+01 -1.271046031638974227e+00
4.286396330595016479e+01 2.009814044833183289e+01 -2.026996959373349227e+00
4.046808928251266479e+01 1.958617755770683289e+01 -1.934421886131161727e+00
1.368903654813766479e+01 8.566402167081832886e+00 -8.419688832014742275e-01
1.359076994657516479e+01 8.673824042081832886e+00 -8.392223011702242275e-01
1.351386564970016479e+01 8.789546698331832886e+00 -8.373454701155367275e-01
1.386396330595016479e+01 9.103023260831832886e+00 -8.530772816389742275e-01
1.429072111845016479e+01 9.463496893644332886e+00 -8.720744740217867275e-01
2.129694670438766479e+01 1.305419513583183289e+01 -1.163410533592099227e+00
4.068830412626266479e+01 1.921496173739433289e+01 -1.742161143943661727e+00
4.200410002470016479e+01 2.022545978426933289e+01 -1.792423595115536727e+00
1.369074553251266479e+01 8.566646307706832886e+00 -7.784007679670992275e-01
1.359211272001266479e+01 8.673946112394332886e+00 -7.758678089827242275e-01
1.351410979032516479e+01 8.789058417081832886e+00 -7.740520130842867275e-01
1.386237639188766479e+01 9.101680487394332886e+00 -7.876628529280367275e-01
1.428889006376266479e+01 9.462032049894332886e+00 -8.041728626936617275e-01
1.929181975126266479e+01 1.207213947176933289e+01 -9.870341908186617275e-01
3.989448088407516479e+01 1.889220783114433289e+01 -1.520542491599911727e+00
4.032209318876266479e+01 1.952282306551933289e+01 -1.535908092185849227e+00
1.369245451688766479e+01 8.567012518644332886e+00 -7.152141224592867275e-01
1.359345549345016479e+01 8.674068182706832886e+00 -7.128795277327242275e-01
1.351496428251266479e+01 8.788936346769332886e+00 -7.111552845686617275e-01
1.386091154813766479e+01 9.100337713956832886e+00 -7.226451527327242275e-01
1.428705900907516479e+01 9.460445135831832886e+00 -7.363322865217867275e-01
2.209357756376266479e+01 1.344152423739433289e+01 -9.807323109358492275e-01
2.141669768095016479e+01 1.140124103426933289e+01 -8.500255238264742275e-01
2.276056975126266479e+01 1.219884845614433289e+01 -8.860667835920992275e-01
3.096100920438766479e+01 1.596972247958183289e+01 -1.099476207420224227e+00
1.362140959501266479e+01 8.685909003019332886e+00 -6.502574574202242275e-01
1.357075041532516479e+01 8.813594549894332886e+00 -6.493877064436617275e-01
1.395539397001266479e+01 9.143672674894332886e+00 -6.598552357405367275e-01
1.436945647001266479e+01 9.499019354581832886e+00 -6.711162220686617275e-01
4.356049650907516479e+01 2.393835040926933289e+01 -1.432621349021786727e+00
7.926097095012664795e+00 6.519527167081832886e+00 -1.179233897849911727e+00
7.895701587200164795e+00 6.590572088956832886e+00 -1.178852428123349227e+00
7.863230884075164795e+00 6.660640448331832886e+00 -1.178394664451474227e+00
7.830516040325164795e+00 6.730952948331832886e+00 -1.177921641990536727e+00
7.797801196575164795e+00 6.801143378019332886e+00 -1.177463878318661727e+00
7.765208423137664795e+00 6.871455878019332886e+00 -1.176990855857724227e+00
7.732371509075164795e+00 6.942134588956832886e+00 -1.176533092185849227e+00
7.697581470012664795e+00 7.011348456144332886e+00 -1.175999034568661727e+00
8.401927173137664795e+00 6.752315253019332886e+00 -1.199787486717099227e+00
8.359934985637664795e+00 6.823360174894332886e+00 -1.198414195701474227e+00
8.320750415325164795e+00 6.895869940519332886e+00 -1.197162974998349227e+00
8.278636157512664795e+00 6.967159003019332886e+00 -1.195789683982724227e+00
8.236766040325164795e+00 7.038081854581832886e+00 -1.194401134178036727e+00
8.194773852825164795e+00 7.108882635831832886e+00 -1.193027843162411727e+00
8.149974048137664795e+00 7.178340643644332886e+00 -1.191501964256161727e+00
8.110789477825164795e+00 7.250484198331832886e+00 -1.190449107810849227e+00
8.944285571575164795e+00 7.017696112394332886e+00 -1.222996104881161727e+00
8.895823657512664795e+00 7.092281073331832886e+00 -1.221134532615536727e+00
8.847483813762664795e+00 7.166743963956832886e+00 -1.219288219138974227e+00
8.799021899700164795e+00 7.241206854581832886e+00 -1.217441905662411727e+00
8.750682055950164795e+00 7.315425604581832886e+00 -1.215595592185849227e+00
8.706004321575164795e+00 7.391353338956832886e+00 -1.214146007224911727e+00
8.665354907512664795e+00 7.469844549894332886e+00 -1.213199962303036727e+00
8.624949634075164795e+00 7.548213690519332886e+00 -1.212253917381161727e+00
9.527659595012664795e+00 7.303096503019332886e+00 -1.245273936912411727e+00
9.481639087200164795e+00 7.386104315519332886e+00 -1.243732799217099227e+00
9.438182055950164795e+00 7.470454901456832886e+00 -1.242710460349911727e+00
9.394602954387664795e+00 7.555049628019332886e+00 -1.241703380271786727e+00
9.351145923137664795e+00 7.639400213956832886e+00 -1.240681041404599227e+00
9.307688891887664795e+00 7.723872870206832886e+00 -1.239673961326474227e+00
9.263987720012664795e+00 7.808589667081832886e+00 -1.238651622459286727e+00
9.217112720012664795e+00 7.890987128019332886e+00 -1.237491954490536727e+00
1.024164885282516479e+01 7.652461737394332886e+00 -1.274784434959286727e+00
1.019465178251266479e+01 7.743770331144332886e+00 -1.273685802146786727e+00
1.014765471220016479e+01 7.835200995206832886e+00 -1.272587169334286727e+00
1.010053557157516479e+01 7.926997870206832886e+00 -1.271488536521786727e+00
1.005353850126266479e+01 8.018550604581832886e+00 -1.270389903709286727e+00
1.000654143095016479e+01 8.109981268644332886e+00 -1.269291270896786727e+00
9.959300220012664795e+00 8.201900213956832886e+00 -1.268177379295224227e+00
9.912181079387664795e+00 8.293452948331832886e+00 -1.267078746482724227e+00
1.108906096220016479e+01 8.067012518644332886e+00 -1.310276378318661727e+00
1.104291838407516479e+01 8.169307440519332886e+00 -1.309299815818661727e+00
1.099177092313766479e+01 8.269283026456832886e+00 -1.308109630271786727e+00
1.094050139188766479e+01 8.369502753019332886e+00 -1.306919444724911727e+00
1.088935393095016479e+01 8.469600409269332886e+00 -1.305729259178036727e+00
1.083820647001266479e+01 8.569698065519332886e+00 -1.304554332420224227e+00
1.078693693876266479e+01 8.670161932706832886e+00 -1.303364146873349227e+00
1.072809904813766479e+01 8.765865057706832886e+00 -1.301685680076474227e+00
1.205866545438766479e+01 8.541255682706832886e+00 -1.348133433982724227e+00
1.197443693876266479e+01 8.636592596769332886e+00 -1.344196666404599227e+00
1.189057463407516479e+01 8.731319159269332886e+00 -1.340275157615536727e+00
1.180683439970016479e+01 8.825923651456832886e+00 -1.336353648826474227e+00
1.172382658720016479e+01 8.919795721769332886e+00 -1.332462657615536727e+00
1.164130705595016479e+01 9.013301581144332886e+00 -1.328602183982724227e+00
1.155878752470016479e+01 9.106563299894332886e+00 -1.324756969138974227e+00
1.147700041532516479e+01 9.199214667081832886e+00 -1.320927013084286727e+00
1.289057463407516479e+01 8.948116034269332886e+00 -1.364277232810849227e+00
1.287775725126266479e+01 9.089595526456832886e+00 -1.367039073631161727e+00
1.287348479032516479e+01 9.236568182706832886e+00 -1.370243419334286727e+00
1.285029143095016479e+01 9.375606268644332886e+00 -1.372150767967099227e+00
1.277180022001266479e+01 9.485347479581832886e+00 -1.369144786521786727e+00
1.269355314970016479e+01 9.594722479581832886e+00 -1.366154063865536727e+00
1.260883635282516479e+01 9.700557440519332886e+00 -1.362919200584286727e+00
1.253095549345016479e+01 9.809322088956832886e+00 -1.359958995506161727e+00
1.402900236845016479e+01 9.505000799894332886e+00 -1.396854747459286727e+00
1.398163908720016479e+01 9.643062323331832886e+00 -1.396824229881161727e+00
1.393403166532516479e+01 9.781612128019332886e+00 -1.396793712303036727e+00
1.388618010282516479e+01 9.921138495206832886e+00 -1.396763194724911727e+00
1.383832854032516479e+01 1.006066486239433289e+01 -1.396732677146786727e+00
1.379035490751266479e+01 1.020055744051933289e+01 -1.396702159568661727e+00
1.374201506376266479e+01 1.034142658114433289e+01 -1.396671641990536727e+00
1.367866057157516479e+01 1.047350665926933289e+01 -1.395359386131161727e+00
1.880903166532516479e+01 1.184460040926933289e+01 -1.699802745506161727e+00
1.691352385282516479e+01 1.111425372958183289e+01 -1.557514537498349227e+00
1.566413420438766479e+01 1.067113849520683289e+01 -1.464542735740536727e+00
1.532770842313766479e+01 1.068041583895683289e+01 -1.442325938865536727e+00
1.524384611845016479e+01 1.081896564364433289e+01 -1.439762462303036727e+00
1.516010588407516479e+01 1.095727130770683289e+01 -1.437214244529599227e+00
1.507612150907516479e+01 1.109582111239433289e+01 -1.434650767967099227e+00
1.499262541532516479e+01 1.123388263583183289e+01 -1.432102550193661727e+00
1.969160002470016479e+01 1.227575275301933289e+01 -1.671787608787411727e+00
1.973322600126266479e+01 1.252880451083183289e+01 -1.679371226951474227e+00
1.624701994657516479e+01 1.097008869051933289e+01 -1.430576671287411727e+00
1.624018400907516479e+01 1.116064044833183289e+01 -1.433903087303036727e+00
1.676789397001266479e+01 1.164098712801933289e+01 -1.476368297263974227e+00
1.692365568876266479e+01 1.193151447176933289e+01 -1.491840709373349227e+00
1.669587248563766479e+01 1.201183673739433289e+01 -1.479175914451474227e+00
1.657734221220016479e+01 1.215099689364433289e+01 -1.474491466209286727e+00
2.295551604032516479e+01 1.387243244051933289e+01 -1.795002330467099227e+00
2.106952971220016479e+01 1.319848224520683289e+01 -1.672870982810849227e+00
1.624836272001266479e+01 1.096984454989433289e+01 -1.351765025779599227e+00
1.623749846220016479e+01 1.115807697176933289e+01 -1.354435313865536727e+00
1.676472014188766479e+01 1.163817951083183289e+01 -1.393696178123349227e+00
1.997577971220016479e+01 1.361803790926933289e+01 -1.616230357810849227e+00
1.885566252470016479e+01 1.323327228426933289e+01 -1.543964732810849227e+00
1.856562346220016479e+01 1.330150958895683289e+01 -1.528187144920224227e+00
2.069037932157516479e+01 1.276256915926933289e+01 -1.541752208396786727e+00
2.139179533720016479e+01 1.335900470614433289e+01 -1.589084972068661727e+00
1.624958342313766479e+01 1.096947833895683289e+01 -1.272999156638974227e+00
1.623469084501266479e+01 1.115563556551933289e+01 -1.275043834373349227e+00
1.676154631376266479e+01 1.163524982333183289e+01 -1.311100352928036727e+00
1.995209807157516479e+01 1.360351154208183289e+01 -1.515018809959286727e+00
2.084028166532516479e+01 1.435522052645683289e+01 -1.574360240623349227e+00
2.466767424345016479e+01 1.683495685458183289e+01 -1.820698131248349227e+00
2.064741057157516479e+01 1.274047443270683289e+01 -1.438618053123349227e+00
2.140510100126266479e+01 1.336437579989433289e+01 -1.485004771873349227e+00
1.625092619657516479e+01 1.096923419833183289e+01 -1.193836558982724227e+00
1.623188322782516479e+01 1.115307208895683289e+01 -1.195316661521786727e+00
1.675837248563766479e+01 1.163244220614433289e+01 -1.228153575584286727e+00
1.992841643095016479e+01 1.358898517489433289e+01 -1.413593639060849227e+00
2.086555022001266479e+01 1.436791583895683289e+01 -1.471073497459286727e+00
3.395270842313766479e+01 2.221081134676933289e+01 -2.233585704490536727e+00
2.135859221220016479e+01 1.308739826083183289e+01 -1.374409068748349227e+00
2.078473967313766479e+01 1.305199787020683289e+01 -1.348011363670224227e+00
1.625214689970016479e+01 1.096886798739433289e+01 -1.115146983787411727e+00
1.622919768095016479e+01 1.115063068270683289e+01 -1.116093028709286727e+00
1.675532072782516479e+01 1.162963458895683289e+01 -1.145725597068661727e+00
2.625800627470016479e+01 1.708629962801933289e+01 -1.645954478904599227e+00
1.969074553251266479e+01 1.370141193270683289e+01 -1.304508556053036727e+00
2.867829436063766479e+01 1.915331622958183289e+01 -1.780033458396786727e+00
2.136786955595016479e+01 1.309081622958183289e+01 -1.270862926170224227e+00
2.053303068876266479e+01 1.292455646395683289e+01 -1.234135020896786727e+00
1.625336760282516479e+01 1.096850177645683289e+01 -1.036075938865536727e+00
1.622639006376266479e+01 1.114806720614433289e+01 -1.036518443748349227e+00
1.675214689970016479e+01 1.162670490145683289e+01 -1.062961925193661727e+00
1.944623869657516479e+01 1.331945392489433289e+01 -1.191730846092099227e+00
1.960993498563766479e+01 1.365417072176933289e+01 -1.201618541404599227e+00
2.820527189970016479e+01 1.887707111239433289e+01 -1.610889781638974227e+00
2.129377287626266479e+01 1.305346271395683289e+01 -1.163288463279599227e+00
2.040131682157516479e+01 1.285729572176933289e+01 -1.128437389060849227e+00
1.625471037626266479e+01 1.096825763583183289e+01 -9.574473988264742275e-01
1.622370451688766479e+01 1.114562579989433289e+01 -9.574626576155367275e-01
1.674897307157516479e+01 1.162389728426933289e+01 -9.807170521467867275e-01
1.947809904813766479e+01 1.333556720614433289e+01 -1.096393932029599227e+00
1.945478361845016479e+01 1.356481525301933289e+01 -1.097034801170224227e+00
1.935956877470016479e+01 1.375341388583183289e+01 -1.094150890037411727e+00
1.929243010282516479e+01 1.207323810458183289e+01 -9.870494496077242275e-01
1.932795256376266479e+01 1.231774494051933289e+01 -9.893687855452242275e-01
1.625593107938766479e+01 1.096789142489433289e+01 -8.784526478499117275e-01
1.622089689970016479e+01 1.114318439364433289e+01 -8.780559193342867275e-01
1.674579924345016479e+01 1.162096759676933289e+01 -8.981212269514742275e-01
2.628766936063766479e+01 1.709667560458183289e+01 -1.248463023826474227e+00
1.928693693876266479e+01 1.346825763583183289e+01 -9.931834828108492275e-01
1.932502287626266479e+01 1.373180744051933289e+01 -9.956859242170992275e-01
2.209211272001266479e+01 1.344164630770683289e+01 -9.806865345686617275e-01
2.636921232938766479e+01 1.584789630770683289e+01 -1.114887584373349227e+00
1.625727385282516479e+01 1.096752521395683289e+01 -7.999156605452242275e-01
1.621821135282516479e+01 1.114062091708183289e+01 -7.991527210920992275e-01
1.674274748563766479e+01 1.161815997958183289e+01 -8.160594593733492275e-01
1.954218596220016479e+01 1.336815997958183289e+01 -9.044078480452242275e-01
3.397260588407516479e+01 2.177245685458183289e+01 -1.357380260154599227e+00
1.950727385282516479e+01 1.383568927645683289e+01 -9.039500843733492275e-01
4.356086272001266479e+01 2.394030353426933289e+01 -1.432621349021786727e+00
2.633735197782516479e+01 1.583056232333183289e+01 -9.841502796858492275e-01
1.626716154813766479e+01 1.097167560458183289e+01 -7.212260853499117275e-01
1.625068205595016479e+01 1.115673419833183289e+01 -7.208446156233492275e-01
1.676545256376266479e+01 1.162926837801933289e+01 -7.343181263655367275e-01
1.896894377470016479e+01 1.305004474520683289e+01 -7.919353138655367275e-01
1.926984709501266479e+01 1.345568439364433289e+01 -7.998393665999117275e-01
1.909589689970016479e+01 1.359606525301933289e+01 -7.948344837874117275e-01
7.697581470012664795e+00 7.011592596769332886e+00 -1.175999034568661727e+00
7.664378345012664795e+00 7.081905096769332886e+00 -1.175526012107724227e+00
7.628977954387664795e+00 7.151118963956832886e+00 -1.174976695701474227e+00
7.593455493450164795e+00 7.220699042081832886e+00 -1.174412120506161727e+00
7.557933032512664795e+00 7.290034979581832886e+00 -1.173862804099911727e+00
7.522410571575164795e+00 7.359615057706832886e+00 -1.173313487693661727e+00
7.486643970012664795e+00 7.429561346769332886e+00 -1.172748912498349227e+00
7.448924243450164795e+00 7.498042792081832886e+00 -1.172123302146786727e+00
8.110789477825164795e+00 7.250850409269332886e+00 -1.190449107810849227e+00
8.073680102825164795e+00 7.324336737394332886e+00 -1.189884532615536727e+00
8.038890063762664795e+00 7.399409979581832886e+00 -1.189396251365536727e+00
8.001536548137664795e+00 7.473506659269332886e+00 -1.188816417381161727e+00
7.967234790325164795e+00 7.549434393644332886e+00 -1.188618053123349227e+00
7.933543384075164795e+00 7.625850409269332886e+00 -1.188511241599911727e+00
7.896922290325164795e+00 7.701167792081832886e+00 -1.188251842185849227e+00
7.863108813762664795e+00 7.778072088956832886e+00 -1.188145030662411727e+00
8.624949634075164795e+00 7.548457831144332886e+00 -1.212269176170224227e+00
8.581614673137664795e+00 7.625240057706832886e+00 -1.211201060935849227e+00
8.538279712200164795e+00 7.702022284269332886e+00 -1.210117686912411727e+00
8.499705493450164795e+00 7.782222479581832886e+00 -1.209644664451474227e+00
8.467967212200164795e+00 7.866573065519332886e+00 -1.209965099021786727e+00
8.436106860637664795e+00 7.951289862394332886e+00 -1.210285533592099227e+00
8.403880298137664795e+00 8.036617010831832886e+00 -1.210605968162411727e+00
8.371775805950164795e+00 8.122066229581832886e+00 -1.210926402732724227e+00
9.217112720012664795e+00 7.891353338956832886e+00 -1.237491954490536727e+00
9.174143970012664795e+00 7.976192206144332886e+00 -1.236500133201474227e+00
9.127635180950164795e+00 8.059077948331832886e+00 -1.235370982810849227e+00
9.081004321575164795e+00 8.142329901456832886e+00 -1.234226573631161727e+00
9.034495532512664795e+00 8.225459784269332886e+00 -1.233082164451474227e+00
8.997019946575164795e+00 8.314571112394332886e+00 -1.232975352928036727e+00
8.963694751262664795e+00 8.407100409269332886e+00 -1.233372081443661727e+00
8.927195727825164795e+00 8.497676581144332886e+00 -1.233631480857724227e+00
9.912547290325164795e+00 8.294063299894332886e+00 -1.267124522849911727e+00
9.862620532512664795e+00 8.384029120206832886e+00 -1.265919078513974227e+00
9.812571704387664795e+00 8.474117010831832886e+00 -1.264698375388974227e+00
9.762400805950164795e+00 8.564571112394332886e+00 -1.263462413474911727e+00
9.712351977825164795e+00 8.654903143644332886e+00 -1.262241710349911727e+00
9.662181079387664795e+00 8.745235174894332886e+00 -1.261021007224911727e+00
9.611766040325164795e+00 8.836055487394332886e+00 -1.259785045310849227e+00
9.576243579387664795e+00 8.936519354581832886e+00 -1.260166515037411727e+00
1.072797697782516479e+01 8.766231268644332886e+00 -1.301685680076474227e+00
1.066913908720016479e+01 8.861812323331832886e+00 -1.299610484763974227e+00
1.060700529813766479e+01 8.955440253019332886e+00 -1.297474254295224227e+00
1.054462736845016479e+01 9.049312323331832886e+00 -1.295338023826474227e+00
1.048249357938766479e+01 9.142818182706832886e+00 -1.293201793357724227e+00
1.042048186063766479e+01 9.236201971769332886e+00 -1.291065562888974227e+00
1.035822600126266479e+01 9.329951971769332886e+00 -1.288929332420224227e+00
1.030561369657516479e+01 9.429683417081832886e+00 -1.288059581443661727e+00
1.147651213407516479e+01 9.199336737394332886e+00 -1.320896495506161727e+00
1.139277189970016479e+01 9.290157049894332886e+00 -1.317005504295224227e+00
1.131586760282516479e+01 9.384639471769332886e+00 -1.313755382224911727e+00
1.125825041532516479e+01 9.491206854581832886e+00 -1.312366832420224227e+00
1.120087736845016479e+01 9.597652167081832886e+00 -1.310993541404599227e+00
1.114326018095016479e+01 9.704097479581832886e+00 -1.309604991599911727e+00
1.109430998563766479e+01 9.816890448331832886e+00 -1.309086192771786727e+00
1.104914397001266479e+01 9.932246893644332886e+00 -1.308933604881161727e+00
1.253107756376266479e+01 9.809810370206832886e+00 -1.359974254295224227e+00
1.245136564970016479e+01 9.917232245206832886e+00 -1.356937755271786727e+00
1.237812346220016479e+01 1.002819415926933289e+01 -1.354145396873349227e+00
1.229841154813766479e+01 1.013561603426933289e+01 -1.351093639060849227e+00
1.221906584501266479e+01 1.024254962801933289e+01 -1.348072398826474227e+00
1.213984221220016479e+01 1.034923908114433289e+01 -1.345051158592099227e+00
1.205207365751266479e+01 1.045055744051933289e+01 -1.341572154685849227e+00
1.197004240751266479e+01 1.055480548739433289e+01 -1.338276256248349227e+00
1.367890471220016479e+01 1.047423908114433289e+01 -1.395389903709286727e+00
1.361201018095016479e+01 1.060448810458183289e+01 -1.393864024803036727e+00
1.354511564970016479e+01 1.073498126864433289e+01 -1.392338145896786727e+00
1.345771330595016479e+01 1.085375568270683289e+01 -1.389072765037411727e+00
1.336555022001266479e+01 1.096862384676933289e+01 -1.385395396873349227e+00
1.327350920438766479e+01 1.108312579989433289e+01 -1.381702769920224227e+00
1.318146818876266479e+01 1.119787189364433289e+01 -1.378025401756161727e+00
1.308466643095016479e+01 1.130834552645683289e+01 -1.373890269920224227e+00
1.499238127470016479e+01 1.123437091708183289e+01 -1.432087291404599227e+00
