8.694222122430801392e+00 5.124508157372474670e+00 -1.038617559149855651e+00
1.244922700524330139e+01 6.271847024559974670e+00 -1.386670537665480651e+00
1.235669770836830139e+01 6.372188821434974670e+00 -1.381513066962355651e+00
1.226526704430580139e+01 6.471431985497474670e+00 -1.376416631415480651e+00
1.217432466149330139e+01 6.570186868309974670e+00 -1.371335454657668151e+00
1.059900727868080139e+01 6.182979837059974670e+00 -1.228085942938918151e+00
8.326546341180801392e+00 4.861446633934974670e+00 -9.641546685248556514e-01
8.505623489618301392e+00 4.989620462059974670e+00 -9.817633111029806514e-01
8.694588333368301392e+00 5.124752297997474670e+00 -1.000302739813918151e+00
1.262940278649330139e+01 6.322872415184974670e+00 -1.345929570868605651e+00
1.253467622399330139e+01 6.424434915184974670e+00 -1.340894170477980651e+00
1.244080415368080139e+01 6.525020852684974670e+00 -1.335919805243605651e+00
1.234766450524330139e+01 6.624874368309974670e+00 -1.330975957587355651e+00
1.060047212243080139e+01 6.183468118309974670e+00 -1.179807134345168151e+00
8.326912552118301392e+00 4.861690774559974670e+00 -9.278387505561056514e-01
8.505989700555801392e+00 4.989864602684974670e+00 -9.444708306342306514e-01
8.694832473993301392e+00 5.124874368309974670e+00 -9.618048150092306514e-01
1.527161470055580139e+01 7.069454446434974670e+00 -1.506207891181105651e+00
1.568665376305580139e+01 7.349117532372474670e+00 -1.544324346259230651e+00
1.567200532555580139e+01 7.507931008934974670e+00 -1.547025151923293151e+00
1.565576997399330139e+01 7.667598977684974670e+00 -1.550000615790480651e+00
1.060193696618080139e+01 6.183956399559974670e+00 -1.131802983954543151e+00
8.327278763055801392e+00 4.862056985497474670e+00 -8.913397271186056514e-01
8.506355911493301392e+00 4.990108743309974670e+00 -9.070105034857931514e-01
8.695076614618301392e+00 5.125118508934974670e+00 -9.235205132514181514e-01
4.807959809899330139e+01 1.633849741518497467e+01 -3.984464116767043151e+00
4.761658540368080139e+01 1.671545054018497467e+01 -3.960019536688918151e+00
4.524378266930580139e+01 1.650439096987247467e+01 -3.786160894110793151e+00
3.972937837243080139e+01 1.525561167299747467e+01 -3.364865728095168151e+00
1.060340180993080139e+01 6.184322610497474670e+00 -1.083554692938918151e+00
8.327644973993301392e+00 4.862301126122474670e+00 -8.550543267279806514e-01
8.506600052118301392e+00 4.990352883934974670e+00 -8.697637993842306514e-01
8.695320755243301392e+00 5.125240579247474670e+00 -8.852667290717306514e-01
4.904554048180580139e+01 1.661193491518497467e+01 -3.827878423407668151e+00
4.807874360680580139e+01 1.685143686830997467e+01 -3.768399663642043151e+00
4.547290864586830139e+01 1.657433725893497467e+01 -3.588315435126418151e+00
3.973157563805580139e+01 1.525634409487247467e+01 -3.176404424384230651e+00
1.060486665368080139e+01 6.184810891747474670e+00 -1.035565801337355651e+00
8.327889114618301392e+00 4.862545266747474670e+00 -8.185858208686056514e-01
8.506966263055801392e+00 4.990597024559974670e+00 -8.323339898139181514e-01
8.695686966180801392e+00 5.125484719872474670e+00 -8.468298394232931514e-01
4.823389497399330139e+01 1.638317514955997467e+01 -3.539914556220168151e+00
4.785852876305580139e+01 1.678722788393497467e+01 -3.524640508368605651e+00
4.732434907555580139e+01 1.713781382143497467e+01 -3.498380132392043151e+00
3.973511567711830139e+01 1.525756479799747467e+01 -2.987103887274855651e+00
1.060633149743080139e+01 6.185299172997474670e+00 -9.873480278998556514e-01
8.328255325555801392e+00 4.862789407372474670e+00 -7.823461968451681514e-01
8.507332473993301392e+00 4.990719094872474670e+00 -7.951330620795431514e-01
8.695931106805801392e+00 5.125728860497474670e+00 -8.086065728217306514e-01
4.832032075524330139e+01 1.640819956362247467e+01 -3.317944951727980651e+00
4.799158540368080139e+01 1.682665659487247467e+01 -3.306775518134230651e+00
4.760303559899330139e+01 1.722277475893497467e+01 -3.291745610907668151e+00
4.306592622399330139e+01 1.630749155580997467e+01 -3.011517949774855651e+00
1.060779634118080139e+01 6.185787454247474670e+00 -9.394049126654806514e-01
8.328621536493301392e+00 4.863033547997474670e+00 -7.459234673529806514e-01
8.507576614618301392e+00 4.990963235497474670e+00 -7.577490288764181514e-01
8.696175247430801392e+00 5.125850930809974670e+00 -7.704138237982931514e-01
4.408106294274330139e+01 1.521093393862247467e+01 -2.842206426337355651e+00
4.805481782555580139e+01 1.684569956362247467e+01 -3.083707280829543151e+00
4.729468598961830139e+01 1.712926889955997467e+01 -3.047986455634230651e+00
3.972095552086830139e+01 1.525329233705997467e+01 -2.608518071845168151e+00
1.060926118493080139e+01 6.186153665184974670e+00 -8.912329155951681514e-01
8.328987747430801392e+00 4.863277688622474670e+00 -7.097143609076681514e-01
8.507942825555801392e+00 4.991207376122474670e+00 -7.205786187201681514e-01
8.696541458368301392e+00 5.126095071434974670e+00 -7.320379693061056514e-01
4.877112641930580139e+01 1.653673960268497467e+01 -2.885648198798293151e+00
4.800269380211830139e+01 1.683080698549747467e+01 -2.852719732001418151e+00
4.858680024743080139e+01 1.752270151674747467e+01 -2.892682500556105651e+00
3.968872895836830139e+01 1.524316050112247467e+01 -2.418637700751418151e+00
1.061072602868080139e+01 6.186641946434974670e+00 -8.433203179389181514e-01
8.329353958368301392e+00 4.863521829247474670e+00 -6.733221489936056514e-01
8.508186966180801392e+00 4.991451516747474670e+00 -6.834234673529806514e-01
8.696785598993301392e+00 5.126339212059974670e+00 -6.938757378607931514e-01
4.717237153649330139e+01 1.608556772768497467e+01 -2.577832647040480651e+00
4.571070161461830139e+01 1.615880991518497467e+01 -2.513623662665480651e+00
4.836719575524330139e+01 1.745605112612247467e+01 -2.651822515204543151e+00
3.965515962243080139e+01 1.523266245424747467e+01 -2.229123540595168151e+00
1.061219087243080139e+01 6.187130227684974670e+00 -7.951635796576681514e-01
8.329720169305801392e+00 4.863765969872474670e+00 -6.371435601264181514e-01
8.508553177118301392e+00 4.991695657372474670e+00 -6.461004693061056514e-01
8.697029739618301392e+00 5.126461282372474670e+00 -6.555456597357931514e-01
8.287610688805580139e+01 2.617614389955997467e+01 -3.930585332587355651e+00
4.563599458336830139e+01 1.613720346987247467e+01 -2.293698735907668151e+00
4.832886567711830139e+01 1.744469858705997467e+01 -2.420056768134230651e+00
3.963831391930580139e+01 1.522741343080997467e+01 -2.039792485907668151e+00
1.061365571618080139e+01 6.187618508934974670e+00 -7.472814995795431514e-01
8.330086380243301392e+00 4.864010110497474670e+00 -6.007971245795431514e-01
8.508919388055801392e+00 4.991939797997474670e+00 -6.089910943061056514e-01
8.697273880243301392e+00 5.126705422997474670e+00 -6.174292046576681514e-01
4.587329927086830139e+01 1.571947886049747467e+01 -2.081998296454543151e+00
4.779444184899330139e+01 1.677087046205997467e+01 -2.163983770087355651e+00
4.861341157555580139e+01 1.753149057924747467e+01 -2.202832647040480651e+00
3.962513032555580139e+01 1.522338511049747467e+01 -1.851880498602980651e+00
1.061512055993080139e+01 6.188106790184974670e+00 -6.991552788764181514e-01
8.330452591180801392e+00 4.864254251122474670e+00 -5.646643120795431514e-01
8.509163528680801392e+00 4.992183938622474670e+00 -5.717138726264181514e-01
8.697640091180801392e+00 5.126827493309974670e+00 -5.791449028998556514e-01
5.736866059899330139e+01 1.896899057924747467e+01 -2.262952275946730651e+00
4.393091645836830139e+01 1.563769175112247467e+01 -1.803555913642043151e+00
6.213135591149330139e+01 2.164477182924747467e+01 -2.442532964423293151e+00
3.960657563805580139e+01 1.521752573549747467e+01 -1.663037725165480651e+00
1.061658540368080139e+01 6.188473001122474670e+00 -6.513037163764181514e-01
8.330818802118301392e+00 4.864620462059974670e+00 -5.283483941107931514e-01
8.509529739618301392e+00 4.992428079247474670e+00 -5.344519097357931514e-01
8.697884231805801392e+00 5.127071633934974670e+00 -5.410742241889181514e-01
5.839295259118080139e+01 1.925915171205997467e+01 -2.023526616767043151e+00
4.723377290368080139e+01 1.660717417299747467e+01 -1.695813604071730651e+00
4.722425141930580139e+01 1.710937143862247467e+01 -1.700559087470168151e+00
3.961756196618080139e+01 1.522106577455997467e+01 -1.475369878485793151e+00
1.061805024743080139e+01 6.188961282372474670e+00 -6.032232720404806514e-01
8.352181106805801392e+00 4.870113626122474670e+00 -4.925817925482931514e-01
8.533455520868301392e+00 4.998775735497474670e+00 -4.979834038764181514e-01
8.724739700555801392e+00 5.134517922997474670e+00 -5.034765679389181514e-01
5.826294770836830139e+01 1.922301889955997467e+01 -1.744122930243605651e+00
4.726294770836830139e+01 1.661620737612247467e+01 -1.473157354071730651e+00
4.722620454430580139e+01 1.711022593080997467e+01 -1.476621099188918151e+00
3.959192720055580139e+01 1.521313120424747467e+01 -1.287793584540480651e+00
1.065479341149330139e+01 6.200924172997474670e+00 -5.560430962592306514e-01
8.085457473993301392e+00 5.363399758934974670e+00 -1.174329229071730651e+00
8.082771927118301392e+00 5.444698587059974670e+00 -1.176770635321730651e+00
8.049202591180801392e+00 5.515865579247474670e+00 -1.175763555243605651e+00
8.008186966180801392e+00 5.584469094872474670e+00 -1.173886724188918151e+00
7.967537552118301392e+00 5.652584329247474670e+00 -1.172025151923293151e+00
7.927132278680801392e+00 5.720455422997474670e+00 -1.170178838446730651e+00
7.886604934930801392e+00 5.788326516747474670e+00 -1.168317266181105651e+00
7.843880325555801392e+00 5.854610696434974670e+00 -1.166364141181105651e+00
8.499642044305801392e+00 5.498531594872474670e+00 -1.184781499579543151e+00
8.495979934930801392e+00 5.584102883934974670e+00 -1.187344976142043151e+00
8.494515091180801392e+00 5.671016946434974670e+00 -1.189969487860793151e+00
8.490730911493301392e+00 5.758053079247474670e+00 -1.192563482001418151e+00
8.486946731805801392e+00 5.845333352684974670e+00 -1.195172734931105651e+00
8.451912552118301392e+00 5.921139016747474670e+00 -1.194211431220168151e+00
8.404427200555801392e+00 5.992306008934974670e+00 -1.192044683173293151e+00
8.360359817743301392e+00 6.063961282372474670e+00 -1.190015264227980651e+00
9.555550247430801392e+00 5.843014016747474670e+00 -1.260419316962355651e+00
9.446175247430801392e+00 5.904659524559974670e+00 -1.251798101142043151e+00
9.338631302118301392e+00 5.965206399559974670e+00 -1.243329473212355651e+00
9.232674270868301392e+00 6.024898782372474670e+00 -1.234982915595168151e+00
9.128792434930801392e+00 6.083370462059974670e+00 -1.226804204657668151e+00
9.026741653680801392e+00 6.140987649559974670e+00 -1.218762822821730651e+00
8.956551223993301392e+00 6.209713235497474670e+00 -1.214185186102980651e+00
8.936043411493301392e+00 6.297359719872474670e+00 -1.215054937079543151e+00
1.016248384118080139e+01 6.041012063622474670e+00 -1.279782720282668151e+00
9.864876419305801392e+00 6.045772805809974670e+00 -1.252042241767043151e+00
9.708626419305801392e+00 6.093990579247474670e+00 -1.239041753485793151e+00
9.594856888055801392e+00 6.155147805809974670e+00 -1.230374761298293151e+00
9.542244583368301392e+00 6.236690774559974670e+00 -1.228024907782668151e+00
9.521126419305801392e+00 6.329952493309974670e+00 -1.228970952704543151e+00
9.499886184930801392e+00 6.423702493309974670e+00 -1.229916997626418151e+00
9.475594192743301392e+00 6.516109719872474670e+00 -1.230771489813918151e+00
1.059693208336830139e+01 6.182613626122474670e+00 -1.276059575751418151e+00
1.052576509118080139e+01 6.268673196434974670e+00 -1.272305913642043151e+00
1.045838227868080139e+01 6.355221047997474670e+00 -1.268903203681105651e+00
1.051111665368080139e+01 6.484737649559974670e+00 -1.277371831610793151e+00
1.073548188805580139e+01 6.679439797997474670e+00 -1.302991338446730651e+00
1.063367524743080139e+01 6.755367532372474670e+00 -1.296201177313918151e+00
1.053272309899330139e+01 6.830562844872474670e+00 -1.289487310126418151e+00
1.043335786461830139e+01 6.904415383934974670e+00 -1.282880254462355651e+00
1.059827485680580139e+01 6.183101907372474670e+00 -1.228024907782668151e+00
1.052698579430580139e+01 6.269039407372474670e+00 -1.224164434149855651e+00
1.045960298180580139e+01 6.355587258934974670e+00 -1.220914312079543151e+00
1.051075044274330139e+01 6.484493508934974670e+00 -1.228818364813918151e+00
1.078345552086830139e+01 6.697139993309974670e+00 -1.257687993720168151e+00
1.107373872399330139e+01 6.923580422997474670e+00 -1.288419194892043151e+00
1.114295259118080139e+01 7.070797219872474670e+00 -1.298367925360793151e+00
1.104883638024330139e+01 7.153927102684974670e+00 -1.293042607977980651e+00
1.059973970055580139e+01 6.183590188622474670e+00 -1.179746099188918151e+00
1.052820649743080139e+01 6.269405618309974670e+00 -1.176297612860793151e+00
1.046094575524330139e+01 6.355953469872474670e+00 -1.173200078681105651e+00
1.051050630211830139e+01 6.484249368309974670e+00 -1.180539556220168151e+00
1.078296723961830139e+01 6.696773782372474670e+00 -1.207883306220168151e+00
1.107325044274330139e+01 6.923092141747474670e+00 -1.236997075751418151e+00
1.138404145836830139e+01 7.165523782372474670e+00 -1.268170781806105651e+00
1.189173188805580139e+01 7.495479837059974670e+00 -1.317380376532668151e+00
1.060120454430580139e+01 6.184078469872474670e+00 -1.131741948798293151e+00
1.052954927086830139e+01 6.269771829247474670e+00 -1.128446050360793151e+00
1.046216645836830139e+01 6.356319680809974670e+00 -1.125256963446730651e+00
1.051026216149330139e+01 6.484005227684974670e+00 -1.132031865790480651e+00
1.078260102868080139e+01 6.696529641747474670e+00 -1.157834478095168151e+00
1.107276216149330139e+01 6.922725930809974670e+00 -1.185315557196730651e+00
1.138343110680580139e+01 7.165035501122474670e+00 -1.215039678290480651e+00
1.633863130211830139e+01 9.299068704247474670e+00 -1.641782232001418151e+00
1.060266938805580139e+01 6.184566751122474670e+00 -1.083493657782668151e+00
1.053076997399330139e+01 6.270138040184974670e+00 -1.080365606024855651e+00
1.046338716149330139e+01 6.356685891747474670e+00 -1.077573247626418151e+00
1.050989595055580139e+01 6.483761087059974670e+00 -1.083829351142043151e+00
1.078223481774330139e+01 6.696163430809974670e+00 -1.108106084540480651e+00
1.107215180993080139e+01 6.922359719872474670e+00 -1.133969732001418151e+00
1.138269868493080139e+01 7.164547219872474670e+00 -1.161649175360793151e+00
1.744959321618080139e+01 9.749141946434974670e+00 -1.652890630438918151e+00
1.060413423180580139e+01 6.184932962059974670e+00 -1.035520024970168151e+00
1.053199067711830139e+01 6.270626321434974670e+00 -1.032544561102980651e+00
1.046460786461830139e+01 6.357052102684974670e+00 -1.029920049384230651e+00
1.050965180993080139e+01 6.483639016747474670e+00 -1.035657354071730651e+00
1.078186860680580139e+01 6.695919290184974670e+00 -1.058408208563918151e+00
1.107166352868080139e+01 6.921993508934974670e+00 -1.082639165595168151e+00
1.138208833336830139e+01 7.164058938622474670e+00 -1.108594365790480651e+00
1.811304536461830139e+01 1.001781870424747467e+01 -1.619641729071730651e+00
1.060559907555580139e+01 6.185421243309974670e+00 -9.873175103217306514e-01
1.053321138024330139e+01 6.270992532372474670e+00 -9.844946343451681514e-01
1.046595063805580139e+01 6.357418313622474670e+00 -9.820227105170431514e-01
1.050940766930580139e+01 6.483394876122474670e+00 -9.872564751654806514e-01
1.078150239586830139e+01 6.695553079247474670e+00 -1.008481450751418151e+00
1.107117524743080139e+01 6.921505227684974670e+00 -1.031079717352980651e+00
1.138147798180580139e+01 7.163570657372474670e+00 -1.055295415595168151e+00
2.052198091149330139e+01 1.099425913393497467e+01 -1.702481694892043151e+00
1.060706391930580139e+01 6.185909524559974670e+00 -9.393743950873556514e-01
1.053443208336830139e+01 6.271358743309974670e+00 -9.367193657904806514e-01
1.046717134118080139e+01 6.357784524559974670e+00 -9.344000298529806514e-01
1.050904145836830139e+01 6.483150735497474670e+00 -9.391455132514181514e-01
1.078101411461830139e+01 6.695308938622474670e+00 -9.588598687201681514e-01
1.107068696618080139e+01 6.921139016747474670e+00 -9.798407036811056514e-01
1.138074555993080139e+01 7.163082376122474670e+00 -1.002316899970168151e+00
2.056397309899330139e+01 1.101073862612247467e+01 -1.606717534735793151e+00
1.060852876305580139e+01 6.186397805809974670e+00 -8.911871392279806514e-01
1.053565278649330139e+01 6.271724954247474670e+00 -8.887152153998556514e-01
1.046839204430580139e+01 6.358150735497474670e+00 -8.867926079779806514e-01
1.050879731774330139e+01 6.482906594872474670e+00 -8.910650689154806514e-01
1.078064790368080139e+01 6.694942727684974670e+00 -9.092688042670431514e-01
1.107019868493080139e+01 6.920772805809974670e+00 -9.286322075873556514e-01
1.138013520836830139e+01 7.162594094872474670e+00 -9.490942437201681514e-01
3.984619966149330139e+01 1.882909800112247467e+01 -2.675702520087355651e+00
1.060999360680580139e+01 6.186764016747474670e+00 -8.432745415717306514e-01
1.053699555993080139e+01 6.272091165184974670e+00 -8.409704644232931514e-01
1.046961274743080139e+01 6.358394876122474670e+00 -8.389563042670431514e-01
1.050855317711830139e+01 6.482662454247474670e+00 -8.427710015326681514e-01
1.078028169274330139e+01 6.694698587059974670e+00 -8.594335991889181514e-01
1.106971040368080139e+01 6.920406594872474670e+00 -8.771795708686056514e-01
1.137952485680580139e+01 7.161983743309974670e+00 -8.961920220404806514e-01
2.064856782555580139e+01 1.104406382143497467e+01 -1.413663335517043151e+00
1.061145845055580139e+01 6.187252297997474670e+00 -7.951330620795431514e-01
1.053821626305580139e+01 6.272457376122474670e+00 -7.932409722357931514e-01
1.047095552086830139e+01 6.358761087059974670e+00 -7.913946587592306514e-01
1.050818696618080139e+01 6.482418313622474670e+00 -7.947668511420431514e-01
1.077991548180580139e+01 6.694332376122474670e+00 -8.099188286811056514e-01
1.106910005211830139e+01 6.919918313622474670e+00 -8.260473687201681514e-01
1.137891450524330139e+01 7.161495462059974670e+00 -8.433355767279806514e-01
4.155530610680580139e+01 1.952001596987247467e+01 -2.372952886298293151e+00
1.061292329430580139e+01 6.187740579247474670e+00 -7.472509820014181514e-01
1.053943696618080139e+01 6.272823587059974670e+00 -7.452825982123556514e-01
1.047217622399330139e+01 6.359127297997474670e+00 -7.435888726264181514e-01
1.050794282555580139e+01 6.482296243309974670e+00 -7.465338189154806514e-01
1.077954927086830139e+01 6.694088235497474670e+00 -7.601599175482931514e-01
1.106861177086830139e+01 6.919552102684974670e+00 -7.746862847357931514e-01
1.137818208336830139e+01 7.161007180809974670e+00 -7.902349907904806514e-01
3.962720552086830139e+01 1.873717905580997467e+01 -2.082456060126418151e+00
1.061438813805580139e+01 6.188228860497474670e+00 -6.991400200873556514e-01
1.054065766930580139e+01 6.273189797997474670e+00 -6.975988823920431514e-01
1.047339692711830139e+01 6.359493508934974670e+00 -6.960424859076681514e-01
1.050769868493080139e+01 6.482052102684974670e+00 -6.985907036811056514e-01
1.077918305993080139e+01 6.693722024559974670e+00 -7.107214409857931514e-01
1.106812348961830139e+01 6.919185891747474670e+00 -7.236303765326681514e-01
1.137757173180580139e+01 7.160518899559974670e+00 -7.374548394232931514e-01
4.253382173180580139e+01 1.991442514955997467e+01 -2.007031865790480651e+00
1.061585298180580139e+01 6.188595071434974670e+00 -6.512884575873556514e-01
1.054187837243080139e+01 6.273556008934974670e+00 -6.496710259467306514e-01
1.047461763024330139e+01 6.359859719872474670e+00 -6.482824761420431514e-01
1.050745454430580139e+01 6.481807962059974670e+00 -6.504187066107931514e-01
1.077869477868080139e+01 6.693477883934974670e+00 -6.610388237982931514e-01
1.106763520836830139e+01 6.918819680809974670e+00 -6.723303277045431514e-01
1.137696138024330139e+01 7.160030618309974670e+00 -6.844305474311056514e-01
4.036267915368080139e+01 1.903319956362247467e+01 -1.722379155829543151e+00
1.061731782555580139e+01 6.189083352684974670e+00 -6.032080132514181514e-01
1.054309907555580139e+01 6.273922219872474670e+00 -6.017584282904806514e-01
1.047583833336830139e+01 6.360225930809974670e+00 -6.007818657904806514e-01
1.050708833336830139e+01 6.481563821434974670e+00 -6.025366265326681514e-01
1.077832856774330139e+01 6.693111672997474670e+00 -6.116461236029806514e-01
1.106714692711830139e+01 6.918331399559974670e+00 -6.213507134467306514e-01
1.137635102868080139e+01 7.159542337059974670e+00 -6.314520318061056514e-01
3.956702485680580139e+01 1.870959116518497467e+01 -1.500699468329543151e+00
1.065247407555580139e+01 6.200557962059974670e+00 -5.559973198920431514e-01
1.056055513024330139e+01 6.279659524559974670e+00 -5.545477349311056514e-01
1.049573579430580139e+01 6.367061868309974670e+00 -5.535253960639181514e-01
1.057105317711830139e+01 6.504513040184974670e+00 -5.560888726264181514e-01
1.085181489586830139e+01 6.720211282372474670e+00 -5.639318902045431514e-01
1.115137544274330139e+01 6.950435891747474670e+00 -5.723089653998556514e-01
1.147254243493080139e+01 7.197139993309974670e+00 -5.812963921576681514e-01
2.108863130211830139e+01 1.121923471987247467e+01 -8.301825005561056514e-01
7.843880325555801392e+00 5.854854837059974670e+00 -1.166364141181105651e+00
7.803230911493301392e+00 5.921871438622474670e+00 -1.164517827704543151e+00
7.766365677118301392e+00 5.990108743309974670e+00 -1.163281865790480651e+00
7.730477005243301392e+00 6.058956399559974670e+00 -1.162198491767043151e+00
7.694710403680801392e+00 6.127559915184974670e+00 -1.161099858954543151e+00
7.660774856805801392e+00 6.196773782372474670e+00 -1.160230107977980651e+00
7.630867630243301392e+00 6.268184915184974670e+00 -1.159863897040480651e+00
7.598885208368301392e+00 6.338375344872474670e+00 -1.159406133368605651e+00
8.360359817743301392e+00 6.064327493309974670e+00 -1.190030523017043151e+00
8.313240677118301392e+00 6.134517922997474670e+00 -1.187879033759230651e+00
8.272469192743301392e+00 6.207149758934974670e+00 -1.186246343329543151e+00
8.233284622430801392e+00 6.280636087059974670e+00 -1.185010381415480651e+00
8.194344192743301392e+00 6.353634133934974670e+00 -1.183789678290480651e+00
8.155403763055801392e+00 6.426632180809974670e+00 -1.182553716376418151e+00
8.113411575555801392e+00 6.498409524559974670e+00 -1.181180425360793151e+00
8.074593216180801392e+00 6.571163430809974670e+00 -1.179959722235793151e+00
8.936165481805801392e+00 6.297725930809974670e+00 -1.215070195868605651e+00
8.893440872430801392e+00 6.376461282372474670e+00 -1.213712163642043151e+00
8.847176223993301392e+00 6.453487649559974670e+00 -1.211942144110793151e+00
8.800789505243301392e+00 6.530636087059974670e+00 -1.210172124579543151e+00
8.754768997430801392e+00 6.607296243309974670e+00 -1.208417363837355651e+00
8.708870559930801392e+00 6.683834329247474670e+00 -1.206662603095168151e+00
8.662850052118301392e+00 6.760372415184974670e+00 -1.204907842352980651e+00
8.617073684930801392e+00 6.836544290184974670e+00 -1.203168340399855651e+00
9.475716263055801392e+00 6.516475930809974670e+00 -1.230786748602980651e+00
9.454964309930801392e+00 6.610714212059974670e+00 -1.231748052313918151e+00
9.431038528680801392e+00 6.703853860497474670e+00 -1.232617803290480651e+00
9.404305130243301392e+00 6.796627297997474670e+00 -1.233228154852980651e+00
9.354012161493301392e+00 6.878658547997474670e+00 -1.231305547431105651e+00
9.303963333368301392e+00 6.960323587059974670e+00 -1.229398198798293151e+00
9.253792434930801392e+00 7.042232766747474670e+00 -1.227475591376418151e+00
9.200569778680801392e+00 7.121944680809974670e+00 -1.225446172431105651e+00
1.043299165368080139e+01 6.904659524559974670e+00 -1.282849736884230651e+00
1.033252778649330139e+01 6.976681008934974670e+00 -1.276273198798293151e+00
1.023328462243080139e+01 7.047970071434974670e+00 -1.269772954657668151e+00
1.013477388024330139e+01 7.118526712059974670e+00 -1.263318486884230651e+00
1.004663911461830139e+01 7.192135110497474670e+00 -1.257871099188918151e+00
1.000269380211830139e+01 7.285152688622474670e+00 -1.256909795477980651e+00
9.958504348993301392e+00 7.378292337059974670e+00 -1.255933232977980651e+00
9.914559036493301392e+00 7.471187844872474670e+00 -1.254956670477980651e+00
1.104859223961830139e+01 7.154171243309974670e+00 -1.293027349188918151e+00
1.100037446618080139e+01 7.255245462059974670e+00 -1.291669316962355651e+00
1.096277680993080139e+01 7.360714212059974670e+00 -1.291608281806105651e+00
1.092505708336830139e+01 7.466793313622474670e+00 -1.291562505438918151e+00
1.088733735680580139e+01 7.572628274559974670e+00 -1.291501470282668151e+00
1.084949555993080139e+01 7.678585305809974670e+00 -1.291455693915480651e+00
1.081165376305580139e+01 7.785152688622474670e+00 -1.291394658759230651e+00
1.076221528649330139e+01 7.885860696434974670e+00 -1.290479131415480651e+00
1.189197602868080139e+01 7.496090188622474670e+00 -1.317410894110793151e+00
1.188404145836830139e+01 7.623653665184974670e+00 -1.320264287665480651e+00
1.187598481774330139e+01 7.752315774559974670e+00 -1.323148198798293151e+00
1.186792817711830139e+01 7.882320657372474670e+00 -1.326062627509230651e+00
1.185974946618080139e+01 8.012813821434974670e+00 -1.328992315009230651e+00
1.185157075524330139e+01 8.144283547997474670e+00 -1.331937261298293151e+00
1.180872407555580139e+01 8.260738626122474670e+00 -1.331723638251418151e+00
1.173169770836830139e+01 8.360225930809974670e+00 -1.328336187079543151e+00
1.633985200524330139e+01 9.300167337059974670e+00 -1.641889043524855651e+00
1.646326509118080139e+01 9.534420266747474670e+00 -1.657132573798293151e+00
1.270008149743080139e+01 8.105587258934974670e+00 -1.337552495673293151e+00
1.266895356774330139e+01 8.235103860497474670e+00 -1.338513799384230651e+00
1.261133638024330139e+01 8.352779641747474670e+00 -1.337186284735793151e+00
1.259143891930580139e+01 8.487911477684974670e+00 -1.339139409735793151e+00
1.257312837243080139e+01 8.625118508934974670e+00 -1.341580815985793151e+00
1.256324067711830139e+01 8.766720071434974670e+00 -1.344449468329543151e+00
1.744947114586830139e+01 9.749874368309974670e+00 -1.652905889227980651e+00
1.737769380211830139e+01 9.915645852684974670e+00 -1.651730962470168151e+00
1.334827485680580139e+01 8.383175149559974670e+00 -1.329770513251418151e+00
1.325269380211830139e+01 8.492061868309974670e+00 -1.325543828681105651e+00
1.318445649743080139e+01 8.611934915184974670e+00 -1.323544927313918151e+00
1.354932466149330139e+01 8.932857766747474670e+00 -1.356992192938918151e+00
1.375318208336830139e+01 9.187740579247474670e+00 -1.377469487860793151e+00
1.370191255211830139e+01 9.323604837059974670e+00 -1.377042241767043151e+00
1.811072602868080139e+01 1.001757456362247467e+01 -1.619489141181105651e+00
1.778504243493080139e+01 1.008507944643497467e+01 -1.599225469306105651e+00
1.334998384118080139e+01 8.383541360497474670e+00 -1.266354985907668151e+00
1.325403657555580139e+01 8.492183938622474670e+00 -1.262311406806105651e+00
1.318470063805580139e+01 8.611446633934974670e+00 -1.260281987860793151e+00
1.354773774743080139e+01 8.931514993309974670e+00 -1.291455693915480651e+00
1.397632661461830139e+01 9.293575540184974670e+00 -1.327908940985793151e+00
1.848047700524330139e+01 1.166247202455997467e+01 -1.679868169501418151e+00
2.052076020836830139e+01 1.099462534487247467e+01 -1.702420659735793151e+00
3.901221528649330139e+01 1.894164682924747467e+01 -3.015576787665480651e+00
1.335169282555580139e+01 8.383785501122474670e+00 -1.202634282782668151e+00
1.325537934899330139e+01 8.492306008934974670e+00 -1.198758550360793151e+00
1.318494477868080139e+01 8.611080422997474670e+00 -1.196713872626418151e+00
1.354615083336830139e+01 8.930172219872474670e+00 -1.225614019110793151e+00
1.397449555993080139e+01 9.291988626122474670e+00 -1.259549565985793151e+00
1.936451020836830139e+01 1.209423471987247467e+01 -1.651959844306105651e+00
2.056275239586830139e+01 1.101110483705997467e+01 -1.606656499579543151e+00
3.930017915368080139e+01 1.906054331362247467e+01 -2.843366094306105651e+00
1.335327973961830139e+01 8.384029641747474670e+00 -1.139264531806105651e+00
1.325672212243080139e+01 8.492428079247474670e+00 -1.135571904852980651e+00
1.318531098961830139e+01 8.610714212059974670e+00 -1.133542485907668151e+00
1.354456391930580139e+01 8.928829446434974670e+00 -1.160199590399855651e+00
1.397254243493080139e+01 9.290401712059974670e+00 -1.191632695868605651e+00
2.262659516930580139e+01 1.368981577455997467e+01 -1.775052495673293151e+00
2.077137055993080139e+01 1.109521128237247467e+01 -1.520123906806105651e+00
3.979651704430580139e+01 1.926647593080997467e+01 -2.680051274970168151e+00
1.335498872399330139e+01 8.384395852684974670e+00 -1.075925298407668151e+00
1.325806489586830139e+01 8.492550149559974670e+00 -1.072415776923293151e+00
1.318555513024330139e+01 8.610225930809974670e+00 -1.070386357977980651e+00
1.354297700524330139e+01 8.927486672997474670e+00 -1.094830938056105651e+00
1.397071138024330139e+01 9.288814797997474670e+00 -1.123410649970168151e+00
2.036206880211830139e+01 1.258031870424747467e+01 -1.521863408759230651e+00
2.064734712243080139e+01 1.104430796205997467e+01 -1.413602300360793151e+00
4.060645356774330139e+01 1.960314585268497467e+01 -2.530423589423293151e+00
1.335669770836830139e+01 8.384639993309974670e+00 -1.012280889227980651e+00
1.325940766930580139e+01 8.492672219872474670e+00 -1.008954473212355651e+00
1.318579927086830139e+01 8.609859719872474670e+00 -1.006940313056105651e+00
1.354139009118080139e+01 8.926143899559974670e+00 -1.029172368720168151e+00
1.396888032555580139e+01 9.287349954247474670e+00 -1.055615850165480651e+00
2.031910005211830139e+01 1.255822397768497467e+01 -1.418729253485793151e+00
4.155567231774330139e+01 1.952172495424747467e+01 -2.372998662665480651e+00
4.163733735680580139e+01 2.003185679018497467e+01 -2.384091802313918151e+00
1.335840669274330139e+01 8.384884133934974670e+00 -9.489874321967306514e-01
1.326075044274330139e+01 8.492794290184974670e+00 -9.458593804389181514e-01
1.318604341149330139e+01 8.609371438622474670e+00 -9.438757378607931514e-01
1.353980317711830139e+01 8.924801126122474670e+00 -9.639257866889181514e-01
1.396704927086830139e+01 9.285763040184974670e+00 -9.878820855170431514e-01
2.103516450524330139e+01 1.290746714174747467e+01 -1.354779668524855651e+00
3.962708345055580139e+01 1.873864389955997467e+01 -2.082471318915480651e+00
4.012683930993080139e+01 1.940063120424747467e+01 -2.110089727118605651e+00
1.336011567711830139e+01 8.385250344872474670e+00 -8.853735405951681514e-01
1.326209321618080139e+01 8.492794290184974670e+00 -8.824438530951681514e-01
1.318628755211830139e+01 8.609005227684974670e+00 -8.805059868842306514e-01
1.353821626305580139e+01 8.923458352684974670e+00 -8.983892876654806514e-01
1.396521821618080139e+01 9.284176126122474670e+00 -9.198584038764181514e-01
2.104444184899330139e+01 1.291088511049747467e+01 -1.251218267157668151e+00
4.253662934899330139e+01 1.991723276674747467e+01 -2.007169194892043151e+00
4.014075532555580139e+01 1.940526987612247467e+01 -1.914594121649855651e+00
1.336170259118080139e+01 8.385494485497474670e+00 -8.221411187201681514e-01
1.326343598961830139e+01 8.492916360497474670e+00 -8.193945366889181514e-01
1.318653169274330139e+01 8.608639016747474670e+00 -8.175177056342306514e-01
1.353662934899330139e+01 8.922115579247474670e+00 -8.332495171576681514e-01
1.396338716149330139e+01 9.282589212059974670e+00 -8.522467095404806514e-01
2.096961274743080139e+01 1.287328745424747467e+01 -1.143582769110793151e+00
4.036097016930580139e+01 1.903405405580997467e+01 -1.722333379462355651e+00
4.167676606774330139e+01 2.004455210268497467e+01 -1.772595830634230651e+00
1.336341157555580139e+01 8.385738626122474670e+00 -7.585730034857931514e-01
1.326477876305580139e+01 8.493038430809974670e+00 -7.560400445014181514e-01
1.318677583336830139e+01 8.608150735497474670e+00 -7.542242486029806514e-01
1.353504243493080139e+01 8.920772805809974670e+00 -7.678350884467306514e-01
1.396155610680580139e+01 9.281124368309974670e+00 -7.843450982123556514e-01
1.896448579430580139e+01 1.189123179018497467e+01 -9.672064263373556514e-01
3.956714692711830139e+01 1.871130014955997467e+01 -1.500714727118605651e+00
3.999475923180580139e+01 1.934191538393497467e+01 -1.516080327704543151e+00
1.336512055993080139e+01 8.386104837059974670e+00 -6.953863579779806514e-01
1.326612153649330139e+01 8.493160501122474670e+00 -6.930517632514181514e-01
1.318763032555580139e+01 8.608028665184974670e+00 -6.913275200873556514e-01
1.353357759118080139e+01 8.919430032372474670e+00 -7.028173882514181514e-01
1.395972505211830139e+01 9.279537454247474670e+00 -7.165045220404806514e-01
2.176624360680580139e+01 1.326061655580997467e+01 -9.609045464545431514e-01
2.108936372399330139e+01 1.122033335268497467e+01 -8.301977593451681514e-01
2.243323579430580139e+01 1.201794077455997467e+01 -8.662390191107931514e-01
3.063367524743080139e+01 1.578881479799747467e+01 -1.079648442938918151e+00
1.329407563805580139e+01 8.505001321434974670e+00 -6.304296929389181514e-01
1.324341645836830139e+01 8.632686868309974670e+00 -6.295599419623556514e-01
1.362806001305580139e+01 8.962764993309974670e+00 -6.400274712592306514e-01
1.404212251305580139e+01 9.318111672997474670e+00 -6.512884575873556514e-01
4.323316255211830139e+01 2.375744272768497467e+01 -1.412793584540480651e+00
7.598763138055801392e+00 6.338619485497474670e+00 -1.159406133368605651e+00
7.568367630243301392e+00 6.409664407372474670e+00 -1.159024663642043151e+00
7.535896927118301392e+00 6.479732766747474670e+00 -1.158566899970168151e+00
7.503182083368301392e+00 6.550045266747474670e+00 -1.158093877509230651e+00
7.470467239618301392e+00 6.620235696434974670e+00 -1.157636113837355651e+00
7.437874466180801392e+00 6.690548196434974670e+00 -1.157163091376418151e+00
7.405037552118301392e+00 6.761226907372474670e+00 -1.156705327704543151e+00
7.370247513055801392e+00 6.830440774559974670e+00 -1.156171270087355651e+00
8.074593216180801392e+00 6.571407571434974670e+00 -1.179959722235793151e+00
8.032601028680801392e+00 6.642452493309974670e+00 -1.178586431220168151e+00
7.993416458368301392e+00 6.714962258934974670e+00 -1.177335210517043151e+00
7.951302200555801392e+00 6.786251321434974670e+00 -1.175961919501418151e+00
7.909432083368301392e+00 6.857174172997474670e+00 -1.174573369696730651e+00
7.867439895868301392e+00 6.927974954247474670e+00 -1.173200078681105651e+00
7.822640091180801392e+00 6.997432962059974670e+00 -1.171674199774855651e+00
7.783455520868301392e+00 7.069576516747474670e+00 -1.170621343329543151e+00
8.616951614618301392e+00 6.836788430809974670e+00 -1.203168340399855651e+00
8.568489700555801392e+00 6.911373391747474670e+00 -1.201306768134230651e+00
8.520149856805801392e+00 6.985836282372474670e+00 -1.199460454657668151e+00
8.471687942743301392e+00 7.060299172997474670e+00 -1.197614141181105651e+00
8.423348098993301392e+00 7.134517922997474670e+00 -1.195767827704543151e+00
8.378670364618301392e+00 7.210445657372474670e+00 -1.194318242743605651e+00
8.338020950555801392e+00 7.288936868309974670e+00 -1.193372197821730651e+00
8.297615677118301392e+00 7.367306008934974670e+00 -1.192426152899855651e+00
9.200325638055801392e+00 7.122188821434974670e+00 -1.225446172431105651e+00
9.154305130243301392e+00 7.205196633934974670e+00 -1.223905034735793151e+00
9.110848098993301392e+00 7.289547219872474670e+00 -1.222882695868605651e+00
9.067268997430801392e+00 7.374141946434974670e+00 -1.221875615790480651e+00
9.023811966180801392e+00 7.458492532372474670e+00 -1.220853276923293151e+00
8.980354934930801392e+00 7.542965188622474670e+00 -1.219846196845168151e+00
8.936653763055801392e+00 7.627681985497474670e+00 -1.218823857977980651e+00
8.889778763055801392e+00 7.710079446434974670e+00 -1.217664190009230651e+00
9.914314895868301392e+00 7.471554055809974670e+00 -1.254956670477980651e+00
9.867317825555801392e+00 7.562862649559974670e+00 -1.253858037665480651e+00
9.820320755243301392e+00 7.654293313622474670e+00 -1.252759404852980651e+00
9.773201614618301392e+00 7.746090188622474670e+00 -1.251660772040480651e+00
9.726204544305801392e+00 7.837642922997474670e+00 -1.250562139227980651e+00
9.679207473993301392e+00 7.929073587059974670e+00 -1.249463506415480651e+00
9.631966263055801392e+00 8.020992532372474670e+00 -1.248349614813918151e+00
9.584847122430801392e+00 8.112545266747474670e+00 -1.247250982001418151e+00
1.076172700524330139e+01 7.886104837059974670e+00 -1.290448613837355651e+00
1.071558442711830139e+01 7.988399758934974670e+00 -1.289472051337355651e+00
1.066443696618080139e+01 8.088375344872474670e+00 -1.288281865790480651e+00
1.061316743493080139e+01 8.188595071434974670e+00 -1.287091680243605651e+00
1.056201997399330139e+01 8.288692727684974670e+00 -1.285901494696730651e+00
1.051087251305580139e+01 8.388790383934974670e+00 -1.284726567938918151e+00
1.045960298180580139e+01 8.489254251122474670e+00 -1.283536382392043151e+00
1.040076509118080139e+01 8.584957376122474670e+00 -1.281857915595168151e+00
1.173133149743080139e+01 8.360348001122474670e+00 -1.328305669501418151e+00
1.164710298180580139e+01 8.455684915184974670e+00 -1.324368901923293151e+00
1.156324067711830139e+01 8.550411477684974670e+00 -1.320447393134230651e+00
1.147950044274330139e+01 8.645015969872474670e+00 -1.316525884345168151e+00
1.139649263024330139e+01 8.738888040184974670e+00 -1.312634893134230651e+00
1.131397309899330139e+01 8.832393899559974670e+00 -1.308774419501418151e+00
1.123145356774330139e+01 8.925655618309974670e+00 -1.304929204657668151e+00
1.114966645836830139e+01 9.018306985497474670e+00 -1.301099248602980651e+00
1.256324067711830139e+01 8.767208352684974670e+00 -1.344449468329543151e+00
1.255042329430580139e+01 8.908687844872474670e+00 -1.347211309149855651e+00
1.254615083336830139e+01 9.055660501122474670e+00 -1.350415654852980651e+00
1.252295747399330139e+01 9.194698587059974670e+00 -1.352323003485793151e+00
1.244446626305580139e+01 9.304439797997474670e+00 -1.349317022040480651e+00
1.236621919274330139e+01 9.413814797997474670e+00 -1.346326299384230651e+00
1.228150239586830139e+01 9.519649758934974670e+00 -1.343091436102980651e+00
1.220362153649330139e+01 9.628414407372474670e+00 -1.340131231024855651e+00
1.370166841149330139e+01 9.324093118309974670e+00 -1.377026982977980651e+00
1.365430513024330139e+01 9.462154641747474670e+00 -1.376996465399855651e+00
1.360669770836830139e+01 9.600704446434974670e+00 -1.376965947821730651e+00
1.355884614586830139e+01 9.740230813622474670e+00 -1.376935430243605651e+00
1.351099458336830139e+01 9.879757180809974670e+00 -1.376904912665480651e+00
1.346302095055580139e+01 1.001964975893497467e+01 -1.376874395087355651e+00
1.341468110680580139e+01 1.016051889955997467e+01 -1.376843877509230651e+00
1.335132661461830139e+01 1.029259897768497467e+01 -1.375531621649855651e+00
1.848169770836830139e+01 1.166369272768497467e+01 -1.679974981024855651e+00
1.658618989586830139e+01 1.093334604799747467e+01 -1.537686773017043151e+00
1.533680024743080139e+01 1.049023081362247467e+01 -1.444714971259230651e+00
1.500037446618080139e+01 1.049950815737247467e+01 -1.422498174384230651e+00
1.491651216149330139e+01 1.063805796205997467e+01 -1.419934697821730651e+00
1.483277192711830139e+01 1.077636362612247467e+01 -1.417386480048293151e+00
1.474878755211830139e+01 1.091491343080997467e+01 -1.414823003485793151e+00
1.466529145836830139e+01 1.105297495424747467e+01 -1.412274785712355651e+00
1.936426606774330139e+01 1.209484507143497467e+01 -1.651959844306105651e+00
1.940589204430580139e+01 1.234789682924747467e+01 -1.659543462470168151e+00
1.591968598961830139e+01 1.078918100893497467e+01 -1.410748906806105651e+00
1.591285005211830139e+01 1.097973276674747467e+01 -1.414075322821730651e+00
1.644056001305580139e+01 1.146007944643497467e+01 -1.456540532782668151e+00
1.659632173180580139e+01 1.175060679018497467e+01 -1.472012944892043151e+00
1.636853852868080139e+01 1.183092905580997467e+01 -1.459348149970168151e+00
1.625000825524330139e+01 1.197008921205997467e+01 -1.454663701727980651e+00
2.262818208336830139e+01 1.369152475893497467e+01 -1.775174565985793151e+00
2.074219575524330139e+01 1.301757456362247467e+01 -1.653043218329543151e+00
1.592102876305580139e+01 1.078893686830997467e+01 -1.331937261298293151e+00
1.591016450524330139e+01 1.097716929018497467e+01 -1.334607549384230651e+00
1.643738618493080139e+01 1.145727182924747467e+01 -1.373868413642043151e+00
1.964844575524330139e+01 1.343713022768497467e+01 -1.596402593329543151e+00
1.852832856774330139e+01 1.305236460268497467e+01 -1.524136968329543151e+00
1.823828950524330139e+01 1.312060190737247467e+01 -1.508359380438918151e+00
2.036304536461830139e+01 1.258166147768497467e+01 -1.521924443915480651e+00
2.106446138024330139e+01 1.317809702455997467e+01 -1.569257207587355651e+00
1.592224946618080139e+01 1.078857065737247467e+01 -1.253171392157668151e+00
1.590735688805580139e+01 1.097472788393497467e+01 -1.255216069892043151e+00
1.643421235680580139e+01 1.145434214174747467e+01 -1.291272588446730651e+00
1.962476411461830139e+01 1.342260386049747467e+01 -1.495191045477980651e+00
2.051294770836830139e+01 1.417431284487247467e+01 -1.554532476142043151e+00
2.434034028649330139e+01 1.665404917299747467e+01 -1.800870366767043151e+00
2.032007661461830139e+01 1.255956675112247467e+01 -1.418790288642043151e+00
2.107776704430580139e+01 1.318346811830997467e+01 -1.465177007392043151e+00
1.592359223961830139e+01 1.078832651674747467e+01 -1.174008794501418151e+00
1.590454927086830139e+01 1.097216440737247467e+01 -1.175488897040480651e+00
1.643103852868080139e+01 1.145153452455997467e+01 -1.208325811102980651e+00
1.960108247399330139e+01 1.340807749330997467e+01 -1.393765874579543151e+00
2.053821626305580139e+01 1.418700815737247467e+01 -1.451245732977980651e+00
3.362537446618080139e+01 2.202990366518497467e+01 -2.213757940009230651e+00
2.103125825524330139e+01 1.290649057924747467e+01 -1.354581304267043151e+00
2.045740571618080139e+01 1.287109018862247467e+01 -1.328183599188918151e+00
1.592481294274330139e+01 1.078796030580997467e+01 -1.095319219306105651e+00
1.590186372399330139e+01 1.096972300112247467e+01 -1.096265264227980651e+00
1.642798677086830139e+01 1.144872690737247467e+01 -1.125897832587355651e+00
2.593067231774330139e+01 1.690539194643497467e+01 -1.626126714423293151e+00
1.936341157555580139e+01 1.352050425112247467e+01 -1.284680791571730651e+00
2.835096040368080139e+01 1.897240854799747467e+01 -1.760205693915480651e+00
2.104053559899330139e+01 1.290990854799747467e+01 -1.251035161688918151e+00
2.020569673180580139e+01 1.274364878237247467e+01 -1.214307256415480651e+00
1.592603364586830139e+01 1.078759409487247467e+01 -1.016248174384230651e+00
1.589905610680580139e+01 1.096715952455997467e+01 -1.016690679267043151e+00
1.642481294274330139e+01 1.144579721987247467e+01 -1.043134160712355651e+00
1.911890473961830139e+01 1.313854624330997467e+01 -1.171903081610793151e+00
1.928260102868080139e+01 1.347326304018497467e+01 -1.181790776923293151e+00
2.787793794274330139e+01 1.869616343080997467e+01 -1.591062017157668151e+00
2.096643891930580139e+01 1.287255503237247467e+01 -1.143460698798293151e+00
2.007398286461830139e+01 1.267638804018497467e+01 -1.108609624579543151e+00
1.592737641930580139e+01 1.078734995424747467e+01 -9.376196343451681514e-01
1.589637055993080139e+01 1.096471811830997467e+01 -9.376348931342306514e-01
1.642163911461830139e+01 1.144298960268497467e+01 -9.608892876654806514e-01
1.915076509118080139e+01 1.315465952455997467e+01 -1.076566167548293151e+00
1.912744966149330139e+01 1.338390757143497467e+01 -1.077207036688918151e+00
1.903223481774330139e+01 1.357250620424747467e+01 -1.074323125556105651e+00
1.896509614586830139e+01 1.189233042299747467e+01 -9.672216851264181514e-01
1.900061860680580139e+01 1.213683725893497467e+01 -9.695410210639181514e-01
1.592859712243080139e+01 1.078698374330997467e+01 -8.586248833686056514e-01
1.589356294274330139e+01 1.096227671205997467e+01 -8.582281548529806514e-01
1.641846528649330139e+01 1.144005991518497467e+01 -8.782934624701681514e-01
2.596033540368080139e+01 1.691576792299747467e+01 -1.228635259345168151e+00
1.895960298180580139e+01 1.328734995424747467e+01 -9.733557183295431514e-01
1.899768891930580139e+01 1.355089975893497467e+01 -9.758581597357931514e-01
2.176477876305580139e+01 1.326073862612247467e+01 -9.608587700873556514e-01
2.604187837243080139e+01 1.566698862612247467e+01 -1.095059819892043151e+00
1.592993989586830139e+01 1.078661753237247467e+01 -7.800878960639181514e-01
1.589087739586830139e+01 1.095971323549747467e+01 -7.793249566107931514e-01
1.641541352868080139e+01 1.143725229799747467e+01 -7.962316948920431514e-01
1.921485200524330139e+01 1.318725229799747467e+01 -8.845800835639181514e-01
3.364527192711830139e+01 2.159154917299747467e+01 -1.337552495673293151e+00
1.917993989586830139e+01 1.365478159487247467e+01 -8.841223198920431514e-01
4.323352876305580139e+01 2.375939585268497467e+01 -1.412793584540480651e+00
2.601001802086830139e+01 1.564965464174747467e+01 -9.643225152045431514e-01
1.593982759118080139e+01 1.079076792299747467e+01 -7.013983208686056514e-01
1.592334809899330139e+01 1.097582651674747467e+01 -7.010168511420431514e-01
1.643811860680580139e+01 1.144836069643497467e+01 -7.144903618842306514e-01
1.864160981774330139e+01 1.286913706362247467e+01 -7.721075493842306514e-01
1.894251313805580139e+01 1.327477671205997467e+01 -7.800116021186056514e-01
1.876856294274330139e+01 1.341515757143497467e+01 -7.750067193061056514e-01
7.370247513055801392e+00 6.830684915184974670e+00 -1.156171270087355651e+00
7.337044388055801392e+00 6.900997415184974670e+00 -1.155698247626418151e+00
7.301643997430801392e+00 6.970211282372474670e+00 -1.155148931220168151e+00
7.266121536493301392e+00 7.039791360497474670e+00 -1.154584356024855651e+00
7.230599075555801392e+00 7.109127297997474670e+00 -1.154035039618605651e+00
7.195076614618301392e+00 7.178707376122474670e+00 -1.153485723212355651e+00
7.159310013055801392e+00 7.248653665184974670e+00 -1.152921148017043151e+00
7.121590286493301392e+00 7.317135110497474670e+00 -1.152295537665480651e+00
7.783455520868301392e+00 7.069942727684974670e+00 -1.170621343329543151e+00
7.746346145868301392e+00 7.143429055809974670e+00 -1.170056768134230651e+00
7.711556106805801392e+00 7.218502297997474670e+00 -1.169568486884230651e+00
7.674202591180801392e+00 7.292598977684974670e+00 -1.168988652899855651e+00
7.639900833368301392e+00 7.368526712059974670e+00 -1.168790288642043151e+00
7.606209427118301392e+00 7.444942727684974670e+00 -1.168683477118605651e+00
7.569588333368301392e+00 7.520260110497474670e+00 -1.168424077704543151e+00
7.535774856805801392e+00 7.597164407372474670e+00 -1.168317266181105651e+00
8.297615677118301392e+00 7.367550149559974670e+00 -1.192441411688918151e+00
8.254280716180801392e+00 7.444332376122474670e+00 -1.191373296454543151e+00
8.210945755243301392e+00 7.521114602684974670e+00 -1.190289922431105651e+00
8.172371536493301392e+00 7.601314797997474670e+00 -1.189816899970168151e+00
8.140633255243301392e+00 7.685665383934974670e+00 -1.190137334540480651e+00
8.108772903680801392e+00 7.770382180809974670e+00 -1.190457769110793151e+00
8.076546341180801392e+00 7.855709329247474670e+00 -1.190778203681105651e+00
8.044441848993301392e+00 7.941158547997474670e+00 -1.191098638251418151e+00
8.889778763055801392e+00 7.710445657372474670e+00 -1.217664190009230651e+00
8.846810013055801392e+00 7.795284524559974670e+00 -1.216672368720168151e+00
8.800301223993301392e+00 7.878170266747474670e+00 -1.215543218329543151e+00
8.753670364618301392e+00 7.961422219872474670e+00 -1.214398809149855651e+00
8.707161575555801392e+00 8.044552102684974670e+00 -1.213254399970168151e+00
8.669685989618301392e+00 8.133663430809974670e+00 -1.213147588446730651e+00
8.636360794305801392e+00 8.226192727684974670e+00 -1.213544316962355651e+00
8.599861770868301392e+00 8.316768899559974670e+00 -1.213803716376418151e+00
9.585213333368301392e+00 8.113155618309974670e+00 -1.247296758368605651e+00
