8.719543278217315674e+00 4.342506542801856995e+00 -6.858742184936943431e-01
8.675109684467315674e+00 4.416359081864356995e+00 -6.855995602905693431e-01
8.749328434467315674e+00 4.514015331864356995e+00 -6.908791013061943431e-01
8.940246403217315674e+00 4.638160839676856995e+00 -7.017281003296318431e-01
9.141418278217315674e+00 4.768776074051856995e+00 -7.131569333374443431e-01
9.354430973529815674e+00 4.907203808426856995e+00 -7.252418942749443431e-01
9.578552067279815674e+00 5.052833691239356995e+00 -7.377388425171318431e-01
8.768737614154815674e+00 4.269508495926856995e+00 -6.487648434936943431e-01
8.720763981342315674e+00 4.343361034989356995e+00 -6.484901852905693431e-01
8.676452457904815674e+00 4.417213574051856995e+00 -6.483375973999443431e-01
8.750427067279815674e+00 4.514747753739356995e+00 -6.532051511108818431e-01
8.941467106342315674e+00 4.638771191239356995e+00 -6.630623288452568431e-01
9.142516911029815674e+00 4.769508495926856995e+00 -6.734535641968193431e-01
9.355529606342315674e+00 4.907936230301856995e+00 -6.844551511108818431e-01
9.579650700092315674e+00 5.053566113114356995e+00 -6.960365720093193431e-01
8.769958317279815674e+00 4.270362988114356995e+00 -6.112587399780693431e-01
8.722106754779815674e+00 4.344093456864356995e+00 -6.111214108765068431e-01
8.677673161029815674e+00 4.417945995926856995e+00 -6.113045163452568431e-01
8.751525700092315674e+00 4.515480175614356995e+00 -6.157448239624443431e-01
8.942565739154815674e+00 4.639503613114356995e+00 -6.246254391968193431e-01
9.143737614154815674e+00 4.770240917801856995e+00 -6.339943356811943431e-01
9.356506168842315674e+00 4.908668652176856995e+00 -6.436836667358818431e-01
9.580627262592315674e+00 5.054298534989356995e+00 -6.541054196655693431e-01
8.782531559467315674e+00 4.273048534989356995e+00 -5.741188473999443431e-01
8.734435856342315674e+00 4.346901074051856995e+00 -5.743324704468193431e-01
8.688049137592315674e+00 4.420387402176856995e+00 -5.743782468140068431e-01
8.781310856342315674e+00 4.521949902176856995e+00 -5.790321774780693431e-01
8.974304020404815674e+00 4.646827831864356995e+00 -5.870125241577568431e-01
9.177795231342315674e+00 4.778419628739356995e+00 -5.954201169311943431e-01
9.393127262592315674e+00 4.917701855301856995e+00 -6.043312497436943431e-01
9.620300114154815674e+00 5.064430370926856995e+00 -6.135017819702568431e-01
8.083190739154815674e+00 4.681251659989356995e+00 -1.226264233142131843e+00
8.057189762592315674e+00 4.752784863114356995e+00 -1.225974316149944343e+00
8.028503239154815674e+00 4.823585644364356995e+00 -1.225516552478069343e+00
7.999816715717315674e+00 4.894386425614356995e+00 -1.225074047595256843e+00
7.971252262592315674e+00 4.964820995926856995e+00 -1.224616283923381843e+00
7.942809879779815674e+00 5.035133495926856995e+00 -1.224173779040569343e+00
7.914245426654815674e+00 5.105568066239356995e+00 -1.223716015368694343e+00
7.883117496967315674e+00 5.174659863114356995e+00 -1.223120922595256843e+00
8.650939762592315674e+00 4.820167675614356995e+00 -1.258719677478069343e+00
8.619323551654815674e+00 4.896339550614356995e+00 -1.258200878649944343e+00
8.591003239154815674e+00 4.973243847489356995e+00 -1.257849926501506843e+00
8.559387028217315674e+00 5.049293652176856995e+00 -1.257331127673381843e+00
8.527892887592315674e+00 5.124977245926856995e+00 -1.256812328845256843e+00
8.496520817279815674e+00 5.200416699051856995e+00 -1.256278271228069343e+00
8.456847965717315674e+00 5.273292675614356995e+00 -1.254935497790569343e+00
8.417053043842315674e+00 5.345558300614356995e+00 -1.253363842517131843e+00
9.122985661029815674e+00 4.935890331864356995e+00 -1.274802441149944343e+00
9.100524723529815674e+00 5.019386425614356995e+00 -1.275565380603069343e+00
9.078063786029815674e+00 5.102882519364356995e+00 -1.276328320056194343e+00
9.055602848529815674e+00 5.186744824051856995e+00 -1.277091259509319343e+00
9.029723942279815674e+00 5.269264355301856995e+00 -1.277457470446819343e+00
9.000182926654815674e+00 5.350685253739356995e+00 -1.277411694079631843e+00
8.970763981342315674e+00 5.432350292801856995e+00 -1.277350658923381843e+00
8.941345036029815674e+00 5.513527050614356995e+00 -1.277304882556194343e+00
9.566100895404815674e+00 5.044532909989356995e+00 -1.283454174548381843e+00
9.583434879779815674e+00 5.142799511551856995e+00 -1.288520092517131843e+00
9.559631168842315674e+00 5.231056347489356995e+00 -1.289313549548381843e+00
9.527892887592315674e+00 5.317482128739356995e+00 -1.289252514392131843e+00
9.496398746967315674e+00 5.403541699051856995e+00 -1.289191479235881843e+00
9.465026676654815674e+00 5.489479199051856995e+00 -1.289115185290569343e+00
9.438781559467315674e+00 5.577247753739356995e+00 -1.289649242907756843e+00
9.425353825092315674e+00 5.668556347489356995e+00 -1.291815990954631843e+00
9.567199528217315674e+00 5.045265331864356995e+00 -1.241263622790569343e+00
9.804870426654815674e+00 5.199684277176856995e+00 -1.269568676501506843e+00
1.268682843446731567e+01 6.061988964676856995e+00 -1.577567333728069343e+00
1.161346417665481567e+01 5.894264355301856995e+00 -1.468207592517131843e+00
1.138018780946731567e+01 5.944801464676856995e+00 -1.447486156970256843e+00
1.019622784852981567e+01 5.707740917801856995e+00 -1.325049633532756843e+00
1.018853741884231567e+01 5.809059277176856995e+00 -1.327841991931194343e+00
1.018084698915481567e+01 5.910621777176856995e+00 -1.330649609118694343e+00
9.568298161029815674e+00 5.045875683426856995e+00 -1.199332470446819343e+00
9.805969059467315674e+00 5.200294628739356995e+00 -1.226142162829631843e+00
1.405194073915481567e+01 6.425148144364356995e+00 -1.657752270251506843e+00
1.397967511415481567e+01 6.548683300614356995e+00 -1.655265087634319343e+00
1.390814191102981567e+01 6.671241894364356995e+00 -1.652808422595256843e+00
1.159381085634231567e+01 6.124611034989356995e+00 -1.421622509509319343e+00
1.135943585634231567e+01 6.171241894364356995e+00 -1.401648754626506843e+00
1.113214093446731567e+01 6.215187206864356995e+00 -1.382498974353069343e+00
9.569396793842315674e+00 5.046608105301856995e+00 -1.157172436267131843e+00
9.807067692279815674e+00 5.201027050614356995e+00 -1.182975048571819343e+00
1.419195538759231567e+01 6.462867870926856995e+00 -1.607505077868694343e+00
1.411871320009231567e+01 6.587623730301856995e+00 -1.605124706774944343e+00
1.404608136415481567e+01 6.711280956864356995e+00 -1.602774853259319343e+00
1.171331769227981567e+01 6.160499706864356995e+00 -1.380835766345256843e+00
1.164300519227981567e+01 6.259132519364356995e+00 -1.377875561267131843e+00
1.157842999696731567e+01 6.358253613114356995e+00 -1.375434155017131843e+00
9.570495426654815674e+00 5.047340527176856995e+00 -1.115271801501506843e+00
9.808044254779815674e+00 5.201759472489356995e+00 -1.139807934314006843e+00
1.433575421571731567e+01 6.501686230301856995e+00 -1.555945629626506843e+00
1.426129132509231567e+01 6.627540722489356995e+00 -1.553687328845256843e+00
1.418756085634231567e+01 6.752418652176856995e+00 -1.551444286853069343e+00
1.171490460634231567e+01 6.161354199051856995e+00 -1.327765697985881843e+00
1.164459210634231567e+01 6.259864941239356995e+00 -1.325263256579631843e+00
1.157989484071731567e+01 6.358986034989356995e+00 -1.322989697009319343e+00
9.571594059467315674e+00 5.048072949051856995e+00 -1.073157543689006843e+00
9.809142887592315674e+00 5.202369824051856995e+00 -1.096442455798381843e+00
1.503265362977981567e+01 6.687477245926856995e+00 -1.551261181384319343e+00
1.520379620790481567e+01 6.888771191239356995e+00 -1.570716137439006843e+00
1.537945538759231567e+01 7.095314159989356995e+00 -1.590689892321819343e+00
1.171649152040481567e+01 6.162208691239356995e+00 -1.274985546618694343e+00
1.164605695009231567e+01 6.260719433426856995e+00 -1.272406811267131843e+00
1.158135968446731567e+01 6.359718456864356995e+00 -1.270270580798381843e+00
9.572692692279815674e+00 5.048683300614356995e+00 -1.031287426501506843e+00
9.810241520404815674e+00 5.203102245926856995e+00 -1.053321117907756843e+00
1.535906964540481567e+01 6.774757519364356995e+00 -1.509680981189006843e+00
1.549786359071731567e+01 6.970680370926856995e+00 -1.525580639392131843e+00
1.568157941102981567e+01 7.182716503739356995e+00 -1.545264477282756843e+00
1.171795636415481567e+01 6.162941113114356995e+00 -1.222235912829631843e+00
1.164764386415481567e+01 6.261451855301856995e+00 -1.219840282946819343e+00
1.158282452821731567e+01 6.360450878739356995e+00 -1.217856640368694343e+00
9.573669254779815674e+00 5.049415722489356995e+00 -9.892189450561943431e-01
9.811218082904815674e+00 5.203834667801856995e+00 -1.009986156970256843e+00
1.659075909852981567e+01 7.102760449051856995e+00 -1.534308666735881843e+00
1.653424054384231567e+01 7.257911816239356995e+00 -1.534613842517131843e+00
1.664190655946731567e+01 7.459205761551856995e+00 -1.547614330798381843e+00
1.171954327821731567e+01 6.163795605301856995e+00 -1.169211620837444343e+00
1.164923077821731567e+01 6.262306347489356995e+00 -1.167014355212444343e+00
1.158428937196731567e+01 6.361183300614356995e+00 -1.165198559314006843e+00
9.574767887592315674e+00 5.050148144364356995e+00 -9.473946042358818431e-01
9.812316715717315674e+00 5.204445019364356995e+00 -9.669105954468193431e-01
7.281927472352981567e+01 2.205344404280185699e+01 -5.517325634509319343e+00
5.135601788759231567e+01 1.689133466780185699e+01 -3.982306713610881843e+00
4.833746320009231567e+01 1.656955732405185699e+01 -3.776984447985881843e+00
1.172113019227981567e+01 6.164528027176856995e+00 -1.116507763415569343e+00
1.165081769227981567e+01 6.263038769364356995e+00 -1.114493603259319343e+00
1.158575421571731567e+01 6.361915722489356995e+00 -1.112830395251506843e+00
9.575866520404815674e+00 5.050758495926856995e+00 -9.053566403686943431e-01
9.813415348529815674e+00 5.205177441239356995e+00 -9.236214108765068431e-01
1.542291241884231567e+01 6.793678417801856995e+00 -1.304435009509319343e+00
5.131341534852981567e+01 1.688156904280185699e+01 -3.737586254626506843e+00
4.826654034852981567e+01 1.655088056623935699e+01 -3.544089550524944343e+00
1.172259503602981567e+01 6.165382519364356995e+00 -1.063819164782756843e+00
1.165240460634231567e+01 6.263893261551856995e+00 -1.061713451892131843e+00
1.158721905946731567e+01 6.362648144364356995e+00 -1.060202831774944343e+00
9.576965153217315674e+00 5.051490917801856995e+00 -8.635475583374443431e-01
9.814391911029815674e+00 5.205787792801856995e+00 -8.805763669311943431e-01
1.540582257509231567e+01 6.789650097489356995e+00 -1.233054394274944343e+00
5.127069073915481567e+01 1.687168134748935699e+01 -3.492148632556194343e+00
4.819537335634231567e+01 1.653208173811435699e+01 -3.310813183337444343e+00
1.172418195009231567e+01 6.166237011551856995e+00 -1.010871166735881843e+00
1.165386945009231567e+01 6.264625683426856995e+00 -1.009223217517131843e+00
1.158868390321731567e+01 6.363380566239356995e+00 -1.007880444079631843e+00
9.578063786029815674e+00 5.052223339676856995e+00 -8.215553708374443431e-01
9.815490543842315674e+00 5.206520214676856995e+00 -8.375618405640068431e-01
1.538885480165481567e+01 6.785743847489356995e+00 -1.162268871814006843e+00
1.527471905946731567e+01 6.911720409989356995e+00 -1.159156078845256843e+00
4.812481671571731567e+01 1.651340498030185699e+01 -3.079627270251506843e+00
1.172576886415481567e+01 6.166969433426856995e+00 -9.582130856811943431e-01
1.165545636415481567e+01 6.265358105301856995e+00 -9.567635007202568431e-01
1.159014874696731567e+01 6.364112988114356995e+00 -9.552986569702568431e-01
9.579162418842315674e+00 5.052955761551856995e+00 -7.797920651733818431e-01
9.816589176654815674e+00 5.207252636551856995e+00 -7.943184323608818431e-01
1.537188702821731567e+01 6.781837597489356995e+00 -1.091315502673381843e+00
1.525799542665481567e+01 6.907692089676856995e+00 -1.088568920642131843e+00
4.805426007509231567e+01 1.649472822248935699e+01 -2.848044628649944343e+00
1.172735577821731567e+01 6.167823925614356995e+00 -9.053108640015068431e-01
1.165704327821731567e+01 6.266212597489356995e+00 -9.040443845093193431e-01
1.159161359071731567e+01 6.364845409989356995e+00 -9.030220456421318431e-01
9.580138981342315674e+00 5.053566113114356995e+00 -7.378303952515068431e-01
9.817565739154815674e+00 5.207862988114356995e+00 -7.513344235718193431e-01
1.535491925477981567e+01 6.778053417801856995e+00 -1.020957226306194343e+00
1.524139386415481567e+01 6.903541699051856995e+00 -1.018561596423381843e+00
4.799163800477981567e+01 1.647849287092685699e+01 -2.618918652087444343e+00
1.172882062196731567e+01 6.168556347489356995e+00 -8.527138181030693431e-01
1.165863019227981567e+01 6.266945019364356995e+00 -8.516304440796318431e-01
1.159307843446731567e+01 6.365577831864356995e+00 -8.504860348999443431e-01
9.581237614154815674e+00 5.054298534989356995e+00 -6.961128659546318431e-01
9.818664371967315674e+00 5.208595409989356995e+00 -7.081367917358818431e-01
1.533807355165481567e+01 6.774147167801856995e+00 -9.504311032593193431e-01
4.816497784852981567e+01 1.601963056623935699e+01 -2.390204662829631843e+00
4.793133527040481567e+01 1.646274580061435699e+01 -2.389411205798381843e+00
1.173040753602981567e+01 6.169410839676856995e+00 -7.998421140015068431e-01
1.166009503602981567e+01 6.267799511551856995e+00 -7.989571042358818431e-01
1.159442120790481567e+01 6.366310253739356995e+00 -7.982551999390068431e-01
9.582336246967315674e+00 5.055030956864356995e+00 -6.541817136108818431e-01
9.819640934467315674e+00 5.209205761551856995e+00 -6.649696774780693431e-01
1.532122784852981567e+01 6.770240917801856995e+00 -8.804848141968193431e-01
5.118170148134231567e+01 1.685678876936435699e+01 -2.282233471423381843e+00
4.787139874696731567e+01 1.644712080061435699e+01 -2.161887402087444343e+00
1.173199445009231567e+01 6.170265331864356995e+00 -7.472755856811943431e-01
1.166168195009231567e+01 6.268531933426856995e+00 -7.462990231811943431e-01
1.159588605165481567e+01 6.367042675614356995e+00 -7.457649655640068431e-01
9.621887028217315674e+00 5.065162792801856995e+00 -6.135628171265068431e-01
9.862365543842315674e+00 5.220558300614356995e+00 -6.234505124390068431e-01
1.486370831727981567e+01 6.649025097489356995e+00 -7.953560300171318431e-01
5.116973859071731567e+01 1.685544599592685699e+01 -2.040686840564006843e+00
4.781146222352981567e+01 1.643149580061435699e+01 -1.933860058337444343e+00
1.176397687196731567e+01 6.180153027176856995e+00 -6.955177731811943431e-01
1.169000226259231567e+01 6.277565136551856995e+00 -6.948769040405693431e-01
1.162274152040481567e+01 6.375953808426856995e+00 -6.941749997436943431e-01
7.882995426654815674e+00 5.174781933426856995e+00 -1.223105663806194343e+00
7.852355778217315674e+00 5.243995800614356995e+00 -1.222419018298381843e+00
7.819518864154815674e+00 5.312111034989356995e+00 -1.221610302478069343e+00
7.799987614154815674e+00 5.385109081864356995e+00 -1.222541088610881843e+00
7.780700504779815674e+00 5.458107128739356995e+00 -1.223456615954631843e+00
7.761169254779815674e+00 5.531105175614356995e+00 -1.224387402087444343e+00
7.741638004779815674e+00 5.604591503739356995e+00 -1.225333447009319343e+00
7.719909489154815674e+00 5.676979199051856995e+00 -1.226157421618694343e+00
8.416808903217315674e+00 5.345802441239356995e+00 -1.253348583728069343e+00
8.373718082904815674e+00 5.416725292801856995e+00 -1.251593822985881843e+00
8.333923161029815674e+00 5.488258495926856995e+00 -1.250006908923381843e+00
8.291198551654815674e+00 5.558815136551856995e+00 -1.248252148181194343e+00
8.248718082904815674e+00 5.628883495926856995e+00 -1.246527905017131843e+00
8.211852848529815674e+00 5.700660839676856995e+00 -1.245475048571819343e+00
8.188903629779815674e+00 5.777931347489356995e+00 -1.246360058337444343e+00
8.168639957904815674e+00 5.856056347489356995e+00 -1.247382397204631843e+00
8.941222965717315674e+00 5.513771191239356995e+00 -1.277289623767131843e+00
8.909606754779815674e+00 5.594215527176856995e+00 -1.277182812243694343e+00
8.877990543842315674e+00 5.674537792801856995e+00 -1.277060741931194343e+00
8.846252262592315674e+00 5.755104199051856995e+00 -1.276953930407756843e+00
8.814758121967315674e+00 5.835426464676856995e+00 -1.276847118884319343e+00
8.783141911029815674e+00 5.915626659989356995e+00 -1.276740307360881843e+00
8.744811832904815674e+00 5.993507519364356995e+00 -1.275809521228069343e+00
8.698303043842315674e+00 6.067482128739356995e+00 -1.273886913806194343e+00
9.425231754779815674e+00 5.668922558426856995e+00 -1.291815990954631843e+00
9.416320621967315674e+00 5.762184277176856995e+00 -1.294257397204631843e+00
9.403381168842315674e+00 5.854469433426856995e+00 -1.296485180407756843e+00
9.390319645404815674e+00 5.947609081864356995e+00 -1.298728222399944343e+00
9.377258121967315674e+00 6.040748730301856995e+00 -1.300971264392131843e+00
9.364074528217315674e+00 6.134254589676856995e+00 -1.303229565173381843e+00
9.350890934467315674e+00 6.228492870926856995e+00 -1.305503124743694343e+00
9.302429020404815674e+00 6.308693066239356995e+00 -1.303931469470256843e+00
1.018109112977981567e+01 5.910987988114356995e+00 -1.330680126696819343e+00
1.017047101259231567e+01 6.012062206864356995e+00 -1.333365673571819343e+00
1.015972882509231567e+01 6.113502636551856995e+00 -1.336051220446819343e+00
1.014898663759231567e+01 6.215919628739356995e+00 -1.338767284899944343e+00
1.010858136415481567e+01 6.307594433426856995e+00 -1.338248486071819343e+00
1.006353741884231567e+01 6.397438183426856995e+00 -1.337226147204631843e+00
1.001849347352981567e+01 6.487281933426856995e+00 -1.336188549548381843e+00
9.973571598529815674e+00 6.576637402176856995e+00 -1.335150951892131843e+00
1.113079816102981567e+01 6.215187206864356995e+00 -1.382376904040569343e+00
1.102264386415481567e+01 6.294410839676856995e+00 -1.374991650134319343e+00
1.096563702821731567e+01 6.389503613114356995e+00 -1.373099560290569343e+00
1.092303448915481567e+01 6.489601269364356995e+00 -1.372702831774944343e+00
1.088543683290481567e+01 6.591041699051856995e+00 -1.372824902087444343e+00
1.084796124696731567e+01 6.692482128739356995e+00 -1.372946972399944343e+00
1.081024152040481567e+01 6.794288769364356995e+00 -1.373069042712444343e+00
1.076861554384231567e+01 6.894020214676856995e+00 -1.373008007556194343e+00
1.157830792665481567e+01 6.358741894364356995e+00 -1.375449413806194343e+00
1.177642804384231567e+01 6.544166699051856995e+00 -1.398917431384319343e+00
1.210626202821731567e+01 6.780006542801856995e+00 -1.435553783923381843e+00
1.235613995790481567e+01 6.996437206864356995e+00 -1.464576000720256843e+00
1.217425519227981567e+01 7.061378613114356995e+00 -1.450888866931194343e+00
1.176959210634231567e+01 7.039283886551856995e+00 -1.414893383532756843e+00
1.170574933290481567e+01 7.141456738114356995e+00 -1.412741894274944343e+00
1.165850812196731567e+01 7.249244824051856995e+00 -1.412238354235881843e+00
1.157977277040481567e+01 6.359474316239356995e+00 -1.322989697009319343e+00
1.177703839540481567e+01 6.544654980301856995e+00 -1.345237011462444343e+00
1.210675030946731567e+01 6.780372753739356995e+00 -1.379752392321819343e+00
1.246063214540481567e+01 7.033424511551856995e+00 -1.417121166735881843e+00
1.257745343446731567e+01 7.208473339676856995e+00 -1.432364697009319343e+00
1.251007062196731567e+01 7.317848339676856995e+00 -1.430274242907756843e+00
1.250274640321731567e+01 7.450416699051856995e+00 -1.434211010485881843e+00
1.250006085634231567e+01 7.585182324051856995e+00 -1.438285107165569343e+00
1.158123761415481567e+01 6.360206738114356995e+00 -1.270270580798381843e+00
1.177764874696731567e+01 6.545021191239356995e+00 -1.291281933337444343e+00
1.210723859071731567e+01 6.780738964676856995e+00 -1.324286694079631843e+00
1.246099835634231567e+01 7.033790722489356995e+00 -1.359702343493694343e+00
1.489691144227981567e+01 8.054786816239356995e+00 -1.581732983142131843e+00
1.480499249696731567e+01 8.181373730301856995e+00 -1.578360790759319343e+00
1.441729718446731567e+01 8.192726269364356995e+00 -1.548300976306194343e+00
1.388665753602981567e+01 8.138771191239356995e+00 -1.505042309314006843e+00
1.158270245790481567e+01 6.360939159989356995e+00 -1.217871899157756843e+00
1.177825909852981567e+01 6.545509472489356995e+00 -1.237662548571819343e+00
1.210772687196731567e+01 6.781105175614356995e+00 -1.268851513415569343e+00
1.246136456727981567e+01 7.034034863114356995e+00 -1.302329296618694343e+00
1.623565655946731567e+01 8.543434277176856995e+00 -1.625388378649944343e+00
1.611041241884231567e+01 8.672462597489356995e+00 -1.619818920642131843e+00
1.455560284852981567e+01 8.246315136551856995e+00 -1.492362255603069343e+00
1.446087628602981567e+01 8.367897167801856995e+00 -1.488852734118694343e+00
1.158416730165481567e+01 6.361671581864356995e+00 -1.165198559314006843e+00
1.177886945009231567e+01 6.545875683426856995e+00 -1.183783764392131843e+00
1.210821515321731567e+01 6.781471386551856995e+00 -1.213156933337444343e+00
1.246185284852981567e+01 7.034279003739356995e+00 -1.244681591540569343e+00
1.956426984071731567e+01 9.758033886551856995e+00 -1.814002270251506843e+00
1.954217511415481567e+01 9.963600292801856995e+00 -1.818045849353069343e+00
1.455731183290481567e+01 8.246925488114356995e+00 -1.423789257556194343e+00
1.446258527040481567e+01 8.368507519364356995e+00 -1.420493359118694343e+00
1.158563214540481567e+01 6.362281933426856995e+00 -1.112830395251506843e+00
1.177935773134231567e+01 6.546241894364356995e+00 -1.130210155993694343e+00
1.210882550477981567e+01 6.781837597489356995e+00 -1.157798046618694343e+00
1.246221905946731567e+01 7.034645214676856995e+00 -1.187384838610881843e+00
4.711431866884231567e+01 1.981003583967685699e+01 -3.780814404040569343e+00
3.036407452821731567e+01 1.403513349592685699e+01 -2.537467236071819343e+00
1.455889874696731567e+01 8.247657909989356995e+00 -1.355597729235881843e+00
1.446429425477981567e+01 8.369117870926856995e+00 -1.352515453845256843e+00
1.158709698915481567e+01 6.363014355301856995e+00 -1.060202831774944343e+00
1.177996808290481567e+01 6.546730175614356995e+00 -1.076392406970256843e+00
1.210931378602981567e+01 6.782203808426856995e+00 -1.102469677478069343e+00
1.246258527040481567e+01 7.034889355301856995e+00 -1.130118603259319343e+00
4.714678937196731567e+01 1.982236494123935699e+01 -3.555716747790569343e+00
3.036492902040481567e+01 1.403562177717685699e+01 -2.391745800524944343e+00
1.456060773134231567e+01 8.248268261551856995e+00 -1.287070507556194343e+00
1.446600323915481567e+01 8.369850292801856995e+00 -1.284217114001506843e+00
1.158856183290481567e+01 6.363746777176856995e+00 -1.007880444079631843e+00
1.178057843446731567e+01 6.547096386551856995e+00 -1.022895092517131843e+00
1.210980206727981567e+01 6.782570019364356995e+00 -1.046866650134319343e+00
1.246307355165481567e+01 7.035255566239356995e+00 -1.072592968493694343e+00
4.717950421571731567e+01 1.983469404280185699e+01 -3.329261059314006843e+00
2.546551495790481567e+01 1.219236005842685699e+01 -1.925971264392131843e+00
1.456231671571731567e+01 8.249000683426856995e+00 -1.218955273181194343e+00
1.446771222352981567e+01 8.370460644364356995e+00 -1.216315502673381843e+00
1.159002667665481567e+01 6.364479199051856995e+00 -9.552986569702568431e-01
1.178118878602981567e+01 6.547584667801856995e+00 -9.694282956421318431e-01
1.211029034852981567e+01 6.782936230301856995e+00 -9.915993161499443431e-01
1.246343976259231567e+01 7.035499706864356995e+00 -1.015387768298381843e+00
5.168023663759231567e+01 2.147739423811435699e+01 -3.372046703845256843e+00
2.531036359071731567e+01 1.213413251936435699e+01 -1.795111889392131843e+00
1.456390362977981567e+01 8.249611034989356995e+00 -1.150855297595256843e+00
1.446942120790481567e+01 8.371070995926856995e+00 -1.148093456774944343e+00
1.159149152040481567e+01 6.365211620926856995e+00 -9.030220456421318431e-01
1.178167706727981567e+01 6.547950878739356995e+00 -9.157020993530693431e-01
1.211077862977981567e+01 6.783302441239356995e+00 -9.360725827515068431e-01
1.246380597352981567e+01 7.035743847489356995e+00 -9.579384274780693431e-01
4.967083722352981567e+01 2.074460615217685699e+01 -3.010764355212444343e+00
3.036749249696731567e+01 1.403696455061435699e+01 -1.953589672595256843e+00
1.456561261415481567e+01 8.250221386551856995e+00 -1.082434887439006843e+00
1.447100812196731567e+01 8.371681347489356995e+00 -1.080252880603069343e+00
1.159295636415481567e+01 6.365944042801856995e+00 -8.504860348999443431e-01
1.178228741884231567e+01 6.548317089676856995e+00 -8.622963376343193431e-01
1.211126691102981567e+01 6.783668652176856995e+00 -8.808815427124443431e-01
1.246429425477981567e+01 7.036110058426856995e+00 -9.008095212280693431e-01
4.922808820009231567e+01 2.058335126936435699e+01 -2.749305004626506843e+00
3.036834698915481567e+01 1.403745283186435699e+01 -1.808234447985881843e+00
1.456732159852981567e+01 8.250953808426856995e+00 -1.014395947009319343e+00
1.447271710634231567e+01 8.372291699051856995e+00 -1.012076611071819343e+00
1.159442120790481567e+01 6.366676464676856995e+00 -7.982551999390068431e-01
1.178289777040481567e+01 6.548805370926856995e+00 -8.086464352905693431e-01
1.211175519227981567e+01 6.784034863114356995e+00 -8.254158444702568431e-01
1.246466046571731567e+01 7.036354199051856995e+00 -8.434212155640068431e-01
5.463934308290481567e+01 2.255844892561435699e+01 -2.756293530017131843e+00
2.516180402040481567e+01 1.207859052717685699e+01 -1.425330395251506843e+00
1.456890851259231567e+01 8.251564159989356995e+00 -9.460365720093193431e-01
1.447442609071731567e+01 8.372902050614356995e+00 -9.442970700561943431e-01
1.159588605165481567e+01 6.367408886551856995e+00 -7.457649655640068431e-01
1.178350812196731567e+01 6.549171581864356995e+00 -7.550117917358818431e-01
1.211224347352981567e+01 6.784401074051856995e+00 -7.702858395874443431e-01
1.246502667665481567e+01 7.036598339676856995e+00 -7.863686032593193431e-01
5.052081280946731567e+01 2.105600751936435699e+01 -2.326667065173381843e+00
3.037017804384231567e+01 1.403830732405185699e+01 -1.517050976306194343e+00
1.457061749696731567e+01 8.252174511551856995e+00 -8.777077145874443431e-01
1.447613507509231567e+01 8.373512402176856995e+00 -8.761970944702568431e-01
1.162286359071731567e+01 6.376320019364356995e+00 -6.941902585327568431e-01
1.187457257509231567e+01 6.579567089676856995e+00 -7.048714108765068431e-01
1.220635968446731567e+01 6.816749706864356995e+00 -7.181923337280693431e-01
1.256231671571731567e+01 7.071144238114356995e+00 -7.324745602905693431e-01
7.331671124696731567e+01 2.937534345686435699e+01 -2.892203564196819343e+00
3.038189679384231567e+01 1.404294599592685699e+01 -1.371604198962444343e+00
1.458587628602981567e+01 8.258155956864356995e+00 -8.102638669311943431e-01
1.449090558290481567e+01 8.379371777176856995e+00 -8.085854001343193431e-01
7.719543278217315674e+00 5.677101269364356995e+00 -1.226111645251506843e+00
7.699401676654815674e+00 5.750343456864356995e+00 -1.227027172595256843e+00
7.677062809467315674e+00 5.822853222489356995e+00 -1.227820629626506843e+00
7.654601871967315674e+00 5.895729199051856995e+00 -1.228644604235881843e+00
7.632140934467315674e+00 5.968605175614356995e+00 -1.229453320056194343e+00
7.609557926654815674e+00 6.041603222489356995e+00 -1.230262035876506843e+00
7.586974918842315674e+00 6.114967480301856995e+00 -1.231070751696819343e+00
7.562072575092315674e+00 6.187233105301856995e+00 -1.231787914782756843e+00
8.168395817279815674e+00 5.856300488114356995e+00 -1.247367138415569343e+00
8.145202457904815674e+00 5.933448925614356995e+00 -1.248252148181194343e+00
8.124450504779815674e+00 6.011818066239356995e+00 -1.249243969470256843e+00
8.101135075092315674e+00 6.089698925614356995e+00 -1.250144238024944343e+00
8.077697575092315674e+00 6.167457714676856995e+00 -1.251029247790569343e+00
8.055846989154815674e+00 6.246070995926856995e+00 -1.252112621814006843e+00
8.037536442279815674e+00 6.327003613114356995e+00 -1.253882641345256843e+00
8.021789371967315674e+00 6.409156933426856995e+00 -1.255789989978069343e+00
8.698425114154815674e+00 6.067848339676856995e+00 -1.273917431384319343e+00
8.654479801654815674e+00 6.142677441239356995e+00 -1.272498364001506843e+00
8.630309879779815674e+00 6.225563183426856995e+00 -1.273474926501506843e+00
8.614684879779815674e+00 6.312721386551856995e+00 -1.275504345446819343e+00
8.599304020404815674e+00 6.400245800614356995e+00 -1.277594799548381843e+00
8.576843082904815674e+00 6.484840527176856995e+00 -1.278815502673381843e+00
8.554504215717315674e+00 6.570167675614356995e+00 -1.280081982165569343e+00
8.532287418842315674e+00 6.655494824051856995e+00 -1.281363720446819343e+00
9.302062809467315674e+00 6.308937206864356995e+00 -1.303900951892131843e+00
9.257140934467315674e+00 6.390236034989356995e+00 -1.302466625720256843e+00
9.208923161029815674e+00 6.470070019364356995e+00 -1.300879711657756843e+00
9.160583317279815674e+00 6.549904003739356995e+00 -1.299277538806194343e+00
9.122985661029815674e+00 6.633888378739356995e+00 -1.298911327868694343e+00
9.100280582904815674e+00 6.724708691239356995e+00 -1.300299877673381843e+00
9.077453434467315674e+00 6.816139355301856995e+00 -1.301688427478069343e+00
9.051696598529815674e+00 6.906227245926856995e+00 -1.302970165759319343e+00
9.972961246967315674e+00 6.576759472489356995e+00 -1.335105175524944343e+00
9.925720036029815674e+00 6.664894238114356995e+00 -1.333976025134319343e+00
9.878478825092315674e+00 6.752906933426856995e+00 -1.332831615954631843e+00
9.831115543842315674e+00 6.841163769364356995e+00 -1.331702465564006843e+00
9.784118473529815674e+00 6.928932324051856995e+00 -1.330573315173381843e+00
9.733581364154815674e+00 7.014869824051856995e+00 -1.329062695056194343e+00
9.680969059467315674e+00 7.099952831864356995e+00 -1.327307934314006843e+00
9.647888004779815674e+00 7.193946972489356995e+00 -1.327750439196819343e+00
1.076849347352981567e+01 6.894386425614356995e+00 -1.373008007556194343e+00
1.072772198915481567e+01 6.994362011551856995e+00 -1.372672314196819343e+00
1.068194562196731567e+01 7.092384472489356995e+00 -1.372077221423381843e+00
1.063592511415481567e+01 7.190773144364356995e+00 -1.371466869860881843e+00
1.058258038759231567e+01 7.285255566239356995e+00 -1.370047802478069343e+00
1.052398663759231567e+01 7.377052441239356995e+00 -1.368064159899944343e+00
1.046539288759231567e+01 7.468971386551856995e+00 -1.366080517321819343e+00
1.040264874696731567e+01 7.558204784989356995e+00 -1.363883251696819343e+00
1.165838605165481567e+01 7.249611034989356995e+00 -1.412238354235881843e+00
1.160113507509231567e+01 7.353248730301856995e+00 -1.410849804431194343e+00
1.154388409852981567e+01 7.456642284989356995e+00 -1.409445995837444343e+00
1.148126202821731567e+01 7.557838574051856995e+00 -1.407523388415569343e+00
1.141937237977981567e+01 7.658668652176856995e+00 -1.405631298571819343e+00
1.135772687196731567e+01 7.759132519364356995e+00 -1.403739208728069343e+00
1.129595929384231567e+01 7.859718456864356995e+00 -1.401862377673381843e+00
1.123455792665481567e+01 7.959694042801856995e+00 -1.399985546618694343e+00
1.250018292665481567e+01 7.585670605301856995e+00 -1.438315624743694343e+00
1.249578839540481567e+01 7.720802441239356995e+00 -1.442374462634319343e+00
1.249615460634231567e+01 7.858986034989356995e+00 -1.446601147204631843e+00
1.246661359071731567e+01 7.985817089676856995e+00 -1.448294872790569343e+00
1.237725812196731567e+01 8.086036816239356995e+00 -1.444205517321819343e+00
1.228863507509231567e+01 8.185646191239356995e+00 -1.440146679431194343e+00
1.220220929384231567e+01 8.285987988114356995e+00 -1.436606640368694343e+00
1.213006573915481567e+01 8.391822949051856995e+00 -1.434104198962444343e+00
1.388372784852981567e+01 8.138038769364356995e+00 -1.504782909899944343e+00
1.362847882509231567e+01 8.186134472489356995e+00 -1.486289257556194343e+00
1.350738507509231567e+01 8.286232128739356995e+00 -1.479895824939006843e+00
1.346954327821731567e+01 8.421363964676856995e+00 -1.481101269274944343e+00
1.343170148134231567e+01 8.556495800614356995e+00 -1.482291454821819343e+00
1.339361554384231567e+01 8.691993847489356995e+00 -1.483496899157756843e+00
1.335272198915481567e+01 8.827125683426856995e+00 -1.484442944079631843e+00
1.326605206727981567e+01 8.940040722489356995e+00 -1.481147045642131843e+00
1.446051007509231567e+01 8.368263378739356995e+00 -1.488822216540569343e+00
1.447357159852981567e+01 8.533302441239356995e+00 -1.494574780017131843e+00
1.492449933290481567e+01 8.884864941239356995e+00 -1.538123364001506843e+00
1.499798566102981567e+01 9.085304394364356995e+00 -1.549353832751506843e+00
1.485711652040481567e+01 9.192604199051856995e+00 -1.542029614001506843e+00
1.476739484071731567e+01 9.321510449051856995e+00 -1.539115185290569343e+00
1.468817120790481567e+01 9.455299511551856995e+00 -1.537116283923381843e+00
1.460931378602981567e+01 9.588234081864356995e+00 -1.535132641345256843e+00
1.446209698915481567e+01 8.368873730301856995e+00 -1.420462841540569343e+00
1.447332745790481567e+01 8.533058300614356995e+00 -1.425681347399944343e+00
1.492401105165481567e+01 8.884498730301856995e+00 -1.466651196032756843e+00
1.541143780946731567e+01 9.264625683426856995e+00 -1.510947460681194343e+00
1.615887433290481567e+01 9.773414745926856995e+00 -1.576865429431194343e+00
1.614678937196731567e+01 9.953468456864356995e+00 -1.580893749743694343e+00
1.613458234071731567e+01 1.013559736311435699e+01 -1.584967846423381843e+00
1.608929425477981567e+01 1.030234540998935699e+01 -1.586325878649944343e+00
1.446380597352981567e+01 8.369484081864356995e+00 -1.352500195056194343e+00
1.447296124696731567e+01 8.532814159989356995e+00 -1.357215160876506843e+00
1.492352277040481567e+01 8.884132519364356995e+00 -1.395606274157756843e+00
1.541070538759231567e+01 9.264137402176856995e+00 -1.437125439196819343e+00
2.135003644227981567e+01 1.209030927717685699e+01 -1.897757763415569343e+00
1.728253155946731567e+01 1.047373212873935699e+01 -1.590338940173381843e+00
1.716082745790481567e+01 1.061801923811435699e+01 -1.585990185290569343e+00
1.753192120790481567e+01 1.099839033186435699e+01 -1.619910473376506843e+00
1.446551495790481567e+01 8.370216503739356995e+00 -1.284201855212444343e+00
1.447271710634231567e+01 8.532570019364356995e+00 -1.288428539782756843e+00
1.492303448915481567e+01 8.883766308426856995e+00 -1.324622387439006843e+00
1.540997296571731567e+01 9.263649120926856995e+00 -1.363364452868694343e+00
2.269146710634231567e+01 1.268857587873935699e+01 -1.890036816149944343e+00
1.728424054384231567e+01 1.047409833967685699e+01 -1.506613964587444343e+00
1.716253644227981567e+01 1.061838544905185699e+01 -1.502066845446819343e+00
1.753033429384231567e+01 1.099704755842685699e+01 -1.533454174548381843e+00
1.446722394227981567e+01 8.370826855301856995e+00 -1.216300243884319343e+00
1.447247296571731567e+01 8.532325878739356995e+00 -1.220069164782756843e+00
1.492254620790481567e+01 8.883400097489356995e+00 -1.253318066149944343e+00
1.540936261415481567e+01 9.263038769364356995e+00 -1.289283031970256843e+00
4.890386945009231567e+01 2.438767255842685699e+01 -3.527213329821819343e+00
1.728582745790481567e+01 1.047446455061435699e+01 -1.422477001696819343e+00
1.716412335634231567e+01 1.061862958967685699e+01 -1.418616528064006843e+00
1.752874737977981567e+01 1.099570478498935699e+01 -1.447547192126506843e+00
1.446893292665481567e+01 8.371437206864356995e+00 -1.148062939196819343e+00
1.447210675477981567e+01 8.532081738114356995e+00 -1.151755566149944343e+00
1.492205792665481567e+01 8.883033886551856995e+00 -1.182456249743694343e+00
1.540863019227981567e+01 9.262550488114356995e+00 -1.215644115954631843e+00
4.239739972352981567e+01 2.148264326155185699e+01 -2.883368725329631843e+00
1.728753644227981567e+01 1.047483076155185699e+01 -1.338843578845256843e+00
1.716583234071731567e+01 1.061899580061435699e+01 -1.335227245837444343e+00
1.752716046571731567e+01 1.099436201155185699e+01 -1.361258739978069343e+00
1.447064191102981567e+01 8.372047558426856995e+00 -1.080237621814006843e+00
1.447186261415481567e+01 8.531837597489356995e+00 -1.083136791735881843e+00
1.492169171571731567e+01 8.882667675614356995e+00 -1.111258739978069343e+00
1.540789777040481567e+01 9.261940136551856995e+00 -1.141669506579631843e+00
4.225762921571731567e+01 2.141953290998935699e+01 -2.664633984118694343e+00
1.728912335634231567e+01 1.047507490217685699e+01 -1.254798168689006843e+00
1.716754132509231567e+01 1.061923994123935699e+01 -1.251425976306194343e+00
1.752557355165481567e+01 1.099301923811435699e+01 -1.275504345446819343e+00
1.447222882509231567e+01 8.372657909989356995e+00 -1.012061352282756843e+00
1.447161847352981567e+01 8.531715527176856995e+00 -1.014930004626506843e+00
1.492120343446731567e+01 8.882301464676856995e+00 -1.040503735095256843e+00
1.540728741884231567e+01 9.261451855301856995e+00 -1.068152660876506843e+00
3.448565655946731567e+01 1.795017255842685699e+01 -2.054938549548381843e+00
1.729071027040481567e+01 1.047544111311435699e+01 -1.171241039782756843e+00
1.716912823915481567e+01 1.061948408186435699e+01 -1.168128246814006843e+00
1.752398663759231567e+01 1.099167646467685699e+01 -1.189368481189006843e+00
1.447393780946731567e+01 8.373268261551856995e+00 -9.442818112671318431e-01
1.447125226259231567e+01 8.531471386551856995e+00 -9.464027829468193431e-01
1.492071515321731567e+01 8.881935253739356995e+00 -9.694130368530693431e-01
1.540655499696731567e+01 9.260841503739356995e+00 -9.943001218140068431e-01
3.451373273134231567e+01 1.796201337873935699e+01 -1.885718578845256843e+00
1.729241925477981567e+01 1.047580732405185699e+01 -1.087287182360881843e+00
1.717083722352981567e+01 1.061985029280185699e+01 -1.084418530017131843e+00
1.752239972352981567e+01 1.099033369123935699e+01 -1.103781933337444343e+00
1.447564679384231567e+01 8.373878613114356995e+00 -8.761818356811943431e-01
1.447100812196731567e+01 8.531227245926856995e+00 -8.779365964233818431e-01
1.492022687196731567e+01 8.881569042801856995e+00 -8.987648434936943431e-01
1.540582257509231567e+01 9.260353222489356995e+00 -9.209053464233818431e-01
4.328753644227981567e+01 2.187644208967685699e+01 -2.080207104235881843e+00
1.729400616884231567e+01 1.047617353498935699e+01 -1.003821606189006843e+00
1.717254620790481567e+01 1.062009443342685699e+01 -1.000754589587444343e+00
1.752081280946731567e+01 1.098899091780185699e+01 -1.017813915759319343e+00
1.449041730165481567e+01 8.379737988114356995e+00 -8.085701413452568431e-01
1.451763898134231567e+01 8.550270214676856995e+00 -8.115608640015068431e-01
1.496295148134231567e+01 8.899513378739356995e+00 -8.293678708374443431e-01
1.544403058290481567e+01 9.276710644364356995e+00 -8.485786862671318431e-01
2.609454327821731567e+01 1.420395673811435699e+01 -1.238684887439006843e+00
1.729632550477981567e+01 1.047678388655185699e+01 -9.199898190796318431e-01
1.717572003602981567e+01 1.062119306623935699e+01 -9.176399655640068431e-01
1.751922589540481567e+01 1.098764814436435699e+01 -9.319069333374443431e-01
7.562438786029815674e+00 6.187721386551856995e+00 -1.231848949939006843e+00
7.542175114154815674e+00 6.262550488114356995e+00 -1.233039135485881843e+00
7.523498356342315674e+00 6.338478222489356995e+00 -1.234641308337444343e+00
7.504577457904815674e+00 6.415016308426856995e+00 -1.236258739978069343e+00
7.485656559467315674e+00 6.491676464676856995e+00 -1.237876171618694343e+00
7.466613590717315674e+00 6.568702831864356995e+00 -1.239508862048381843e+00
7.447448551654815674e+00 6.646461620926856995e+00 -1.241141552478069343e+00
7.425964176654815674e+00 6.722877636551856995e+00 -1.242667431384319343e+00
8.022277653217315674e+00 6.409767284989356995e+00 -1.255866283923381843e+00
8.003600895404815674e+00 6.490944042801856995e+00 -1.257636303454631843e+00
7.987487614154815674e+00 6.573951855301856995e+00 -1.259558910876506843e+00
7.968566715717315674e+00 6.656349316239356995e+00 -1.261344189196819343e+00
7.949523746967315674e+00 6.738868847489356995e+00 -1.263144726306194343e+00
7.930480778217315674e+00 6.821876659989356995e+00 -1.264945263415569343e+00
7.908508121967315674e+00 6.904029980301856995e+00 -1.266623730212444343e+00
7.889221012592315674e+00 6.987892284989356995e+00 -1.268454784899944343e+00
8.532531559467315674e+00 6.655983105301856995e+00 -1.281409496814006843e+00
8.507629215717315674e+00 6.740455761551856995e+00 -1.282584423571819343e+00
8.482604801654815674e+00 6.825172558426856995e+00 -1.283759350329631843e+00
8.457458317279815674e+00 6.910621777176856995e+00 -1.284934277087444343e+00
8.432189762592315674e+00 6.996070995926856995e+00 -1.286124462634319343e+00
8.406921207904815674e+00 7.081886425614356995e+00 -1.287314648181194343e+00
8.381408512592315674e+00 7.168312206864356995e+00 -1.288520092517131843e+00
8.353820621967315674e+00 7.253517284989356995e+00 -1.289450878649944343e+00
9.051818668842315674e+00 6.906593456864356995e+00 -1.303000683337444343e+00
9.029357731342315674e+00 6.998634472489356995e+00 -1.304419750720256843e+00
9.003845036029815674e+00 7.089698925614356995e+00 -1.305732006579631843e+00
8.978088200092315674e+00 7.181373730301856995e+00 -1.307044262439006843e+00
8.948303043842315674e+00 7.270973339676856995e+00 -1.307868237048381843e+00
8.913879215717315674e+00 7.358497753739356995e+00 -1.308158154040569343e+00
8.879333317279815674e+00 7.446388378739356995e+00 -1.308448071032756843e+00
8.842101871967315674e+00 7.532692089676856995e+00 -1.308631176501506843e+00
9.648254215717315674e+00 7.194435253739356995e+00 -1.327796215564006843e+00
9.616149723529815674e+00 7.289039745926856995e+00 -1.328543896228069343e+00
9.580383121967315674e+00 7.382179394364356995e+00 -1.328864330798381843e+00
9.544372379779815674e+00 7.475807324051856995e+00 -1.329200024157756843e+00
9.508361637592315674e+00 7.569313183426856995e+00 -1.329535717517131843e+00
9.472228825092315674e+00 7.663063183426856995e+00 -1.329856152087444343e+00
9.435973942279815674e+00 7.757423534989356995e+00 -1.330191845446819343e+00
9.399841129779815674e+00 7.851661816239356995e+00 -1.330527538806194343e+00
1.040252667665481567e+01 7.558570995926856995e+00 -1.363883251696819343e+00
1.034637433290481567e+01 7.650489941239356995e+00 -1.362006420642131843e+00
1.028582745790481567e+01 7.740211620926856995e+00 -1.359915966540569343e+00
1.024212628602981567e+01 7.838722363114356995e+00 -1.359687084704631843e+00
1.019952374696731567e+01 7.937599316239356995e+00 -1.359565014392131843e+00
1.015692120790481567e+01 8.036720409989356995e+00 -1.359458202868694343e+00
1.011419659852981567e+01 8.136329784989356995e+00 -1.359336132556194343e+00
1.006707745790481567e+01 8.233131542801856995e+00 -1.359000439196819343e+00
1.123443585634231567e+01 7.960060253739356995e+00 -1.399985546618694343e+00
1.117132550477981567e+01 8.058815136551856995e+00 -1.398047680407756843e+00
1.110833722352981567e+01 8.157570019364356995e+00 -1.396125072985881843e+00
1.104815655946731567e+01 8.257911816239356995e+00 -1.394492382556194343e+00
1.099603253602981567e+01 8.361915722489356995e+00 -1.393698925524944343e+00
1.094390851259231567e+01 8.466041699051856995e+00 -1.392905468493694343e+00
1.089166241884231567e+01 8.570655956864356995e+00 -1.392112011462444343e+00
1.083953839540481567e+01 8.674904003739356995e+00 -1.391318554431194343e+00
1.212982159852981567e+01 8.392189159989356995e+00 -1.434104198962444343e+00
1.205584698915481567e+01 8.496681347489356995e+00 -1.431510204821819343e+00
1.198834210634231567e+01 8.604103222489356995e+00 -1.429236645251506843e+00
1.191448956727981567e+01 8.708351269364356995e+00 -1.426642651110881843e+00
1.184100323915481567e+01 8.812111034989356995e+00 -1.424079174548381843e+00
1.176776105165481567e+01 8.915504589676856995e+00 -1.421500439196819343e+00
1.170672589540481567e+01 9.025856152176856995e+00 -1.420493359118694343e+00
1.165057355165481567e+01 9.138527050614356995e+00 -1.419638866931194343e+00
1.326605206727981567e+01 8.940529003739356995e+00 -1.481147045642131843e+00
1.317852765321731567e+01 9.052345409989356995e+00 -1.477820629626506843e+00
1.309149152040481567e+01 9.163795605301856995e+00 -1.474494213610881843e+00
1.301080304384231567e+01 9.278541699051856995e+00 -1.471778149157756843e+00
1.294024640321731567e+01 9.397682324051856995e+00 -1.470008129626506843e+00
1.286981183290481567e+01 9.516822949051856995e+00 -1.468222851306194343e+00
1.279925519227981567e+01 9.636207714676856995e+00 -1.466437572985881843e+00
1.272894269227981567e+01 9.755104199051856995e+00 -1.464667553454631843e+00
1.460943585634231567e+01 9.588844433426856995e+00 -1.535163158923381843e+00
1.453021222352981567e+01 9.721412792801856995e+00 -1.533148998767131843e+00
1.445111066102981567e+01 9.853737011551856995e+00 -1.531150097399944343e+00
1.437176495790481567e+01 9.986305370926856995e+00 -1.529135937243694343e+00
1.429266339540481567e+01 1.011826337873935699e+01 -1.527121777087444343e+00
1.421368390321731567e+01 1.025009931623935699e+01 -1.525107616931194343e+00
1.413458234071731567e+01 1.038230146467685699e+01 -1.523093456774944343e+00
1.405584698915481567e+01 1.051377119123935699e+01 -1.521094555407756843e+00
1.608941632509231567e+01 1.030307783186435699e+01 -1.586356396228069343e+00
1.600677472352981567e+01 1.045212568342685699e+01 -1.584586376696819343e+00
1.592413312196731567e+01 1.060105146467685699e+01 -1.582816357165569343e+00
1.584124737977981567e+01 1.075046552717685699e+01 -1.581046337634319343e+00
1.575103741884231567e+01 1.089511884748935699e+01 -1.578635448962444343e+00
1.561871320009231567e+01 1.101657880842685699e+01 -1.572669262439006843e+00
1.548675519227981567e+01 1.113742841780185699e+01 -1.566703075915569343e+00
1.536456280946731567e+01 1.126194013655185699e+01 -1.561515087634319343e+00
1.753619366884231567e+01 1.100107587873935699e+01 -1.620246166735881843e+00
1.755120831727981567e+01 1.121628583967685699e+01 -1.626563305407756843e+00
1.747491437196731567e+01 1.138779462873935699e+01 -1.625800365954631843e+00
1.739202862977981567e+01 1.155673994123935699e+01 -1.624533886462444343e+00
1.731353741884231567e+01 1.172727216780185699e+01 -1.623587841540569343e+00
1.724334698915481567e+01 1.190280927717685699e+01 -1.623313183337444343e+00
1.717291241884231567e+01 1.207932294905185699e+01 -1.623053783923381843e+00
1.709967023134231567e+01 1.225388349592685699e+01 -1.622565502673381843e+00
1.753460675477981567e+01 1.099973310530185699e+01 -1.533774609118694343e+00
1.812847882509231567e+01 1.150156415998935699e+01 -1.581748241931194343e+00
2.294500714540481567e+01 1.416403974592685699e+01 -1.939627880603069343e+00
1.988104230165481567e+01 1.285105146467685699e+01 -1.720893139392131843e+00
1.932537823915481567e+01 1.279892744123935699e+01 -1.685431713610881843e+00
1.920098859071731567e+01 1.297068037092685699e+01 -1.681632275134319343e+00
1.908831769227981567e+01 1.314902509748935699e+01 -1.678199047595256843e+00
1.896441632509231567e+01 1.331980146467685699e+01 -1.674414867907756843e+00
1.753301984071731567e+01 1.099839033186435699e+01 -1.447837109118694343e+00
1.812652570009231567e+01 1.149997724592685699e+01 -1.492301220446819343e+00
2.442156964540481567e+01 1.491257490217685699e+01 -1.924765820056194343e+00
1.988250714540481567e+01 1.285080732405185699e+01 -1.621100658923381843e+00
2.004339581727981567e+01 1.318076337873935699e+01 -1.637122387439006843e+00
2.072589093446731567e+01 1.380210126936435699e+01 -1.689154858142131843e+00
2.136712628602981567e+01 1.442173017561435699e+01 -1.738776440173381843e+00
2.119061261415481567e+01 1.459226240217685699e+01 -1.732093090564006843e+00
1.753143292665481567e+01 1.099704755842685699e+01 -1.361533398181194343e+00
1.812457257509231567e+01 1.149826826155185699e+01 -1.402930492907756843e+00
2.506719952821731567e+01 1.523935712873935699e+01 -1.843161816149944343e+00
1.988384991884231567e+01 1.285056318342685699e+01 -1.521888012439006843e+00
2.004071027040481567e+01 1.317819990217685699e+01 -1.536292309314006843e+00
2.072271710634231567e+01 1.379917158186435699e+01 -1.584174389392131843e+00
2.437408429384231567e+01 1.610105146467685699e+01 -1.821845287829631843e+00
2.707037335634231567e+01 1.795444501936435699e+01 -1.999396557360881843e+00
