9.512923240661621094e+00 5.066927060484886169e+00 -1.082529366388911285e+00
1.414305019378662109e+01 6.305818662047386169e+00 -1.496027291193598785e+00
1.407139492034912109e+01 6.426302060484886169e+00 -1.493952095881098785e+00
8.562972068786621094e+00 4.449617490172386169e+00 -9.512732628732862850e-01
8.733992576599121094e+00 4.560701474547386169e+00 -9.676764611154737850e-01
8.913802146911621094e+00 4.677644833922386169e+00 -9.849341515451612850e-01
9.103743553161621094e+00 4.801057919859886169e+00 -1.003153145685786285e+00
9.303328514099121094e+00 4.930818662047386169e+00 -1.022302925959223785e+00
9.514021873474121094e+00 5.067659482359886169e+00 -1.042505562677973785e+00
1.479576015472412109e+01 6.468416318297386169e+00 -1.488230049982661285e+00
1.495603847503662109e+01 6.656038388609886169e+00 -1.506113350763911285e+00
8.564192771911621094e+00 4.450349912047386169e+00 -9.161780480295362850e-01
8.735213279724121094e+00 4.561555966734886169e+00 -9.316962365060987850e-01
8.915022850036621094e+00 4.678377255797386169e+00 -9.480231408029737850e-01
9.104964256286621094e+00 4.801790341734886169e+00 -9.652655724435987850e-01
9.304549217224121094e+00 4.931551083922386169e+00 -9.833777550607862850e-01
9.515242576599121094e+00 5.068513974547386169e+00 -1.002512276545161285e+00
1.598069667816162109e+01 6.763338193297386169e+00 -1.516718209162348785e+00
1.590354824066162109e+01 6.902010068297386169e+00 -1.515192330256098785e+00
8.565291404724121094e+00 4.451082333922386169e+00 -8.808997277170362850e-01
8.736311912536621094e+00 4.562288388609886169e+00 -8.955481652170362850e-01
8.916121482849121094e+00 4.679109677672386169e+00 -9.109442833810987850e-01
9.106184959411621094e+00 4.802644833922386169e+00 -9.271948937326612850e-01
9.305769920349121094e+00 4.932283505797386169e+00 -9.442847374826612850e-01
9.516463279724121094e+00 5.069246396422386169e+00 -9.623053673654737850e-01
4.880271816253662109e+01 1.491433916985988617e+01 -3.886072457209223785e+00
8.621165370941162109e+01 2.510806475579738617e+01 -6.693033516779536285e+00
8.566512107849121094e+00 4.451936826109886169e+00 -8.458350304514112850e-01
8.737532615661621094e+00 4.563020810484886169e+00 -8.595984581857862850e-01
8.917342185974121094e+00 4.679842099547386169e+00 -8.740637902170362850e-01
9.107283592224121094e+00 4.803377255797386169e+00 -8.893378380685987850e-01
9.306868553161621094e+00 4.933015927672386169e+00 -9.053900841623487850e-01
9.517561912536621094e+00 5.069978818297386169e+00 -9.223425988107862850e-01
2.542088222503662109e+01 9.109651669859886169e+00 -2.031854927912348785e+00
7.240672206878662109e+01 2.153701983392238617e+01 -5.323145211115473785e+00
8.567732810974121094e+00 4.452669247984886169e+00 -8.105872277170362850e-01
8.738753318786621094e+00 4.563753232359886169e+00 -8.234656456857862850e-01
8.918562889099121094e+00 4.680696591734886169e+00 -8.371985558420362850e-01
9.108504295349121094e+00 4.804109677672386169e+00 -8.514960411935987850e-01
9.308089256286621094e+00 4.933748349547386169e+00 -8.665259484201612850e-01
9.518660545349121094e+00 5.070711240172386169e+00 -8.823950890451612850e-01
2.540257167816162109e+01 9.106355771422386169e+00 -1.914530098810786285e+00
1.503233242034912109e+01 6.678499326109886169e+00 -1.245905220881098785e+00
8.568831443786621094e+00 4.453401669859886169e+00 -7.755377892404737850e-01
8.739851951599121094e+00 4.564607724547386169e+00 -7.875311974435987850e-01
8.919661521911621094e+00 4.681429013609886169e+00 -8.001502159982862850e-01
9.109602928161621094e+00 4.804842099547386169e+00 -8.134711388498487850e-01
9.309187889099121094e+00 4.934602841734886169e+00 -8.274634484201612850e-01
9.519881248474121094e+00 5.071443662047386169e+00 -8.422339562326612850e-01
2.542405605316162109e+01 9.112947568297386169e+00 -1.800470650568598785e+00
1.501609706878662109e+01 6.674959287047386169e+00 -1.178552925959223785e+00
8.570052146911621094e+00 4.454134091734886169e+00 -7.403205040842237850e-01
8.741072654724121094e+00 4.565340146422386169e+00 -7.516272667795362850e-01
8.920882225036621094e+00 4.682161435484886169e+00 -7.633154992014112850e-01
9.110823631286621094e+00 4.805574521422386169e+00 -7.756598595529737850e-01
9.310408592224121094e+00 4.935335263609886169e+00 -7.886298302560987850e-01
9.520979881286621094e+00 5.072176083922386169e+00 -8.023169640451612850e-01
1.510911464691162109e+01 6.550691708922386169e+00 -1.113901436701411285e+00
1.499973964691162109e+01 6.671419247984886169e+00 -1.111032784357661285e+00
8.571272850036621094e+00 4.454988583922386169e+00 -7.053015831857862850e-01
8.742293357849121094e+00 4.566072568297386169e+00 -7.155249718576612850e-01
8.922102928161621094e+00 4.682893857359886169e+00 -7.262824181467237850e-01
9.112044334411621094e+00 4.806429013609886169e+00 -7.376502159982862850e-01
9.311507225036621094e+00 4.936067685484886169e+00 -7.495978478342237850e-01
9.522200584411621094e+00 5.073030576109886169e+00 -7.621863488107862850e-01
1.509251308441162109e+01 6.547273740172386169e+00 -1.046213448420161285e+00
5.026243495941162109e+01 1.581167803704738617e+01 -2.838419258967036285e+00
8.572371482849121094e+00 4.455721005797386169e+00 -6.700995568185987850e-01
8.743391990661621094e+00 4.566804990172386169e+00 -6.796362999826612850e-01
8.923201560974121094e+00 4.683748349547386169e+00 -6.894782189279737850e-01
9.113142967224121094e+00 4.807161435484886169e+00 -6.998694542795362850e-01
9.312727928161621094e+00 4.936800107359886169e+00 -7.107794884592237850e-01
9.523299217224121094e+00 5.073762997984886169e+00 -7.222998742014112850e-01
1.507603359222412109e+01 6.543977841734886169e+00 -9.790747765451612850e-01
6.511692714691162109e+01 1.966482745110988617e+01 -3.288706124201411285e+00
8.573592185974121094e+00 4.456453427672386169e+00 -6.350958947092237850e-01
8.744612693786621094e+00 4.567659482359886169e+00 -6.435645226389112850e-01
8.924422264099121094e+00 4.684480771422386169e+00 -6.524756554514112850e-01
9.114363670349121094e+00 4.807893857359886169e+00 -6.618903283029737850e-01
9.313826560974121094e+00 4.937532529234886169e+00 -6.717780236154737850e-01
9.524519920349121094e+00 5.074495419859886169e+00 -6.822150353342237850e-01
2.548326015472412109e+01 9.132845029234886169e+00 -1.340616524592036285e+00
1.495103359222412109e+01 6.660921201109886169e+00 -9.104102257639112850e-01
8.574812889099121094e+00 4.457185849547386169e+00 -5.999243859201612850e-01
8.745833396911621094e+00 4.568391904234886169e+00 -6.075080040842237850e-01
8.925520896911621094e+00 4.685213193297386169e+00 -6.156867150217237850e-01
9.115462303161621094e+00 4.808626279234886169e+00 -6.241248253732862850e-01
9.315047264099121094e+00 4.938387021422386169e+00 -6.329901818185987850e-01
9.525618553161621094e+00 5.075227841734886169e+00 -6.423438195139112850e-01
1.461155605316162109e+01 6.429964169859886169e+00 -8.290045861154737850e-01
6.373106288909912109e+01 1.931180010735988617e+01 -2.629755318537348785e+00
8.602156639099121094e+00 4.462923154234886169e+00 -5.655615929514112850e-01
8.775252342224121094e+00 4.574739560484886169e+00 -5.725348595529737850e-01
8.957381248474121094e+00 4.692293271422386169e+00 -5.796759728342237850e-01
9.150008201599121094e+00 4.816682919859886169e+00 -5.872138146310987850e-01
9.352400779724121094e+00 4.947298154234886169e+00 -5.951483849435987850e-01
1.482481288909912109e+01 6.338045224547386169e+00 -7.690222863107862850e-01
1.463157558441162109e+01 6.435579404234886169e+00 -7.656653527170362850e-01
4.782847499847412109e+01 1.519009600579738617e+01 -1.825281441584223785e+00
8.512801170349121094e+00 4.985506162047386169e+00 -1.249445259943598785e+00
8.493391990661621094e+00 5.060213193297386169e+00 -1.250131905451411285e+00
8.466658592224121094e+00 5.132845029234886169e+00 -1.250131905451411285e+00
8.439314842224121094e+00 5.205476865172386169e+00 -1.250055611506098785e+00
8.405379295349121094e+00 5.275789365172386169e+00 -1.249140084162348785e+00
8.366316795349121094e+00 5.344148740172386169e+00 -1.247568428888911285e+00
8.327254295349121094e+00 5.412386044859886169e+00 -1.246012032404536285e+00
8.285872459411621094e+00 5.479280576109886169e+00 -1.244303048029536285e+00
8.906111717224121094e+00 5.087556943297386169e+00 -1.259867012873286285e+00
8.877181053161621094e+00 5.163850888609886169e+00 -1.259775460138911285e+00
8.850447654724121094e+00 5.240633115172386169e+00 -1.259744942560786285e+00
8.821516990661621094e+00 5.316927060484886169e+00 -1.259668648615473785e+00
8.792586326599121094e+00 5.392854794859886169e+00 -1.259592354670161285e+00
8.763899803161621094e+00 5.468660458922386169e+00 -1.259516060724848785e+00
8.732893943786621094e+00 5.543977841734886169e+00 -1.259378731623286285e+00
8.704207420349121094e+00 5.619539365172386169e+00 -1.259287178888911285e+00
9.350203514099121094e+00 5.202791318297386169e+00 -1.272241890802973785e+00
9.338484764099121094e+00 5.288362607359886169e+00 -1.274317086115473785e+00
9.326643943786621094e+00 5.374300107359886169e+00 -1.276407540217036285e+00
9.314681053161621094e+00 5.460725888609886169e+00 -1.278497994318598785e+00
9.302840232849121094e+00 5.547151669859886169e+00 -1.280588448420161285e+00
9.290877342224121094e+00 5.633821591734886169e+00 -1.282678902521723785e+00
9.278914451599121094e+00 5.720979794859886169e+00 -1.284799874201411285e+00
9.266951560974121094e+00 5.808260068297386169e+00 -1.286905587092036285e+00
1.137290859222412109e+01 5.726350888609886169e+00 -1.451319039240473785e+00
1.115147304534912109e+01 5.777132138609886169e+00 -1.431116402521723785e+00
1.093589687347412109e+01 5.825349912047386169e+00 -1.411661446467036285e+00
9.972273826599121094e+00 5.652376279234886169e+00 -1.310327828302973785e+00
9.962141990661621094e+00 5.746370419859886169e+00 -1.312799752131098785e+00
9.951888084411621094e+00 5.840852841734886169e+00 -1.315286934748286285e+00
9.941634178161621094e+00 5.935945615172386169e+00 -1.317804634943598785e+00
9.927596092224121094e+00 6.029695615172386169e+00 -1.320123970881098785e+00
1.366575527191162109e+01 6.319978818297386169e+00 -1.638681710138911285e+00
1.359751796722412109e+01 6.436433896422386169e+00 -1.636423409357661285e+00
1.135215663909912109e+01 5.942415341734886169e+00 -1.407526314631098785e+00
1.112730312347412109e+01 5.988802060484886169e+00 -1.388025582209223785e+00
1.091148281097412109e+01 6.033357724547386169e+00 -1.369303048029536285e+00
1.073521327972412109e+01 6.086092099547386169e+00 -1.354608834162348785e+00
1.068272304534912109e+01 6.176179990172386169e+00 -1.352899849787348785e+00
1.063084316253662109e+01 6.265535458922386169e+00 -1.351190865412348785e+00
1.379783535003662109e+01 6.354768857359886169e+00 -1.591501534357661285e+00
1.372923183441162109e+01 6.472566708922386169e+00 -1.589075386896723785e+00
1.366014003753662109e+01 6.589510068297386169e+00 -1.586908638849848785e+00
1.133799648284912109e+01 6.050569638609886169e+00 -1.360239327326411285e+00
1.127232265472412109e+01 6.142610654234886169e+00 -1.357523262873286285e+00
1.125389003753662109e+01 6.248689755797386169e+00 -1.359522164240473785e+00
1.153965663909912109e+01 6.454012021422386169e+00 -1.392191231623286285e+00
1.184519863128662109e+01 6.672639951109886169e+00 -1.427393257990473785e+00
1.393321132659912109e+01 6.390413388609886169e+00 -1.543085396662348785e+00
1.386289882659912109e+01 6.509187802672386169e+00 -1.541010201349848785e+00
1.379283046722412109e+01 6.627229794859886169e+00 -1.538950264826411285e+00
1.133946132659912109e+01 6.051424130797386169e+00 -1.310877144709223785e+00
1.127378749847412109e+01 6.143465146422386169e+00 -1.308328926935786285e+00
1.125498867034912109e+01 6.249422177672386169e+00 -1.310251534357661285e+00
1.154038906097412109e+01 6.454622372984886169e+00 -1.341348946467036285e+00
1.184593105316162109e+01 6.673128232359886169e+00 -1.374613106623286285e+00
1.407078456878662109e+01 6.426668271422386169e+00 -1.493921578302973785e+00
1.484580898284912109e+01 6.774690732359886169e+00 -1.567591011896723785e+00
1.500962734222412109e+01 6.968782529234886169e+00 -1.586633980646723785e+00
1.134080410003662109e+01 6.052156552672386169e+00 -1.261270821467036285e+00
1.127513027191162109e+01 6.144197568297386169e+00 -1.258890450373286285e+00
1.125620937347412109e+01 6.250154599547386169e+00 -1.260721505060786285e+00
1.154112148284912109e+01 6.455110654234886169e+00 -1.290521920099848785e+00
1.184666347503662109e+01 6.673616513609886169e+00 -1.322138131037348785e+00
1.495713710784912109e+01 6.656770810484886169e+00 -1.506220162287348785e+00
1.512193202972412109e+01 6.849641904234886169e+00 -1.524668038263911285e+00
1.529160976409912109e+01 7.048494443297386169e+00 -1.543680489435786285e+00
1.134226894378662109e+01 6.053011044859886169e+00 -1.211954415217036285e+00
1.127659511566162109e+01 6.145052060484886169e+00 -1.209741890802973785e+00
1.125730800628662109e+01 6.250764951109886169e+00 -1.211496651545161285e+00
1.154197597503662109e+01 6.455721005797386169e+00 -1.239450753107661285e+00
1.184739589691162109e+01 6.674104794859886169e+00 -1.269419014826411285e+00
1.590305995941162109e+01 6.902376279234886169e+00 -1.515177071467036285e+00
1.582615566253662109e+01 7.040193662047386169e+00 -1.513666451349848785e+00
1.588365077972412109e+01 7.214998349547386169e+00 -1.522882759943598785e+00
1.134361171722412109e+01 6.053865537047386169e+00 -1.162653267756098785e+00
1.127793788909912109e+01 6.145784482359886169e+00 -1.160608590021723785e+00
1.125852870941162109e+01 6.251497372984886169e+00 -1.162287056818598785e+00
1.154270839691162109e+01 6.456209287047386169e+00 -1.188684761896723785e+00
1.184812831878662109e+01 6.674593076109886169e+00 -1.217005074396723785e+00
8.620249843597412109e+01 2.510867510735988617e+01 -6.692438424006098785e+00
5.102647304534912109e+01 1.653262530267238617e+01 -4.081171334162348785e+00
5.092039394378662109e+01 1.703946124017238617e+01 -4.088114083185786285e+00
1.134507656097412109e+01 6.054597958922386169e+00 -1.113107979670161285e+00
1.127940273284912109e+01 6.146638974547386169e+00 -1.111231148615473785e+00
1.125962734222412109e+01 6.252229794859886169e+00 -1.112833321467036285e+00
1.154344081878662109e+01 6.456819638609886169e+00 -1.137674630060786285e+00
1.184873867034912109e+01 6.675081357359886169e+00 -1.164331734552973785e+00
7.240733242034912109e+01 2.153970538079738617e+01 -5.323267281427973785e+00
5.101536464691162109e+01 1.653189288079738617e+01 -3.842081368342036285e+00
5.190721035003662109e+01 1.731839190423488617e+01 -3.919138253107661285e+00
1.134654140472412109e+01 6.055452451109886169e+00 -1.063837349787348785e+00
1.128086757659912109e+01 6.147371396422386169e+00 -1.062128365412348785e+00
1.126084804534912109e+01 6.252840146422386169e+00 -1.063669503107661285e+00
1.154429531097412109e+01 6.457307919859886169e+00 -1.086954415217036285e+00
1.184947109222412109e+01 6.675691708922386169e+00 -1.111978829279536285e+00
1.503172206878662109e+01 6.678865537047386169e+00 -1.245874703302973785e+00
5.100425624847412109e+01 1.653116045892238617e+01 -3.601984322443598785e+00
4.794187831878662109e+01 1.620840655267238617e+01 -3.415582955256098785e+00
1.134788417816162109e+01 6.056184872984886169e+00 -1.014597237482661285e+00
1.128221035003662109e+01 6.148225888609886169e+00 -1.013056099787348785e+00
1.126194667816162109e+01 6.253572568297386169e+00 -1.014520943537348785e+00
1.154502773284912109e+01 6.457918271422386169e+00 -1.035990059748286285e+00
1.185020351409912109e+01 6.676179990172386169e+00 -1.059381783381098785e+00
1.501548671722412109e+01 6.675325497984886169e+00 -1.178522408381098785e+00
6.390574550628662109e+01 2.001419268548488617e+01 -4.146295845881098785e+00
4.794627285003662109e+01 1.621158038079738617e+01 -3.190698922052973785e+00
1.134934902191162109e+01 6.057039365172386169e+00 -9.650977257639112850e-01
1.128367519378662109e+01 6.148958310484886169e+00 -9.637396935373487850e-01
1.126316738128662109e+01 6.254304990172386169e+00 -9.651435021310987850e-01
1.154576015472412109e+01 6.458406552672386169e+00 -9.853308800607862850e-01
1.185093593597412109e+01 6.676668271422386169e+00 -1.007074654474848785e+00
4.853282070159912109e+01 1.536270342767238617e+01 -2.975641549006098785e+00
1.489097499847412109e+01 6.791292294859886169e+00 -1.108682930842036285e+00
4.785215663909912109e+01 1.618716631829738617e+01 -2.961572945490473785e+00
1.135069179534912109e+01 6.057893857359886169e+00 -9.158881310373487850e-01
1.128501796722412109e+01 6.149812802672386169e+00 -9.146979454904737850e-01
1.126426601409912109e+01 6.254915341734886169e+00 -9.160407189279737850e-01
1.154649257659912109e+01 6.459016904234886169e+00 -9.346869591623487850e-01
1.185166835784912109e+01 6.677156552672386169e+00 -9.545233849435987850e-01
5.026158046722412109e+01 1.581314288079738617e+01 -2.838419258967036285e+00
6.418455410003662109e+01 2.009512530267238617e+01 -3.560861885920161285e+00
4.779197597503662109e+01 1.617227374017238617e+01 -2.734033882990473785e+00
1.135215663909912109e+01 6.058626279234886169e+00 -8.664343956857862850e-01
1.128648281097412109e+01 6.150545224547386169e+00 -8.654120568185987850e-01
1.126548671722412109e+01 6.255647763609886169e+00 -8.666937950998487850e-01
1.154734706878662109e+01 6.459505185484886169e+00 -8.838141564279737850e-01
1.185227870941162109e+01 6.677644833922386169e+00 -9.022772911935987850e-01
6.511973476409912109e+01 1.966787920892238617e+01 -3.288889229670161285e+00
1.485899257659912109e+01 6.783846005797386169e+00 -9.752753380685987850e-01
4.774912929534912109e+01 1.616226397454738617e+01 -2.509241402521723785e+00
1.135349941253662109e+01 6.059480771422386169e+00 -8.172705773264112850e-01
1.128794765472412109e+01 6.151399716734886169e+00 -8.164160851389112850e-01
1.126658535003662109e+01 6.256380185484886169e+00 -8.176367882639112850e-01
1.154807949066162109e+01 6.459993466734886169e+00 -8.332312706857862850e-01
1.185301113128662109e+01 6.678133115172386169e+00 -8.497870568185987850e-01
1.495042324066162109e+01 6.661165341734886169e+00 -9.104102257639112850e-01
8.955674648284912109e+01 2.695071612298488617e+01 -4.013788521662348785e+00
4.772935390472412109e+01 1.615872393548488617e+01 -2.284769356623286285e+00
1.135496425628662109e+01 6.060335263609886169e+00 -7.678626183420362850e-01
1.128929042816162109e+01 6.152132138609886169e+00 -7.671759728342237850e-01
1.126780605316162109e+01 6.256990537047386169e+00 -7.683356408029737850e-01
1.154881191253662109e+01 6.460603818297386169e+00 -7.824042443185987850e-01
1.185374355316162109e+01 6.678621396422386169e+00 -7.976019982248487850e-01
6.374619960784912109e+01 1.931790362298488617e+01 -2.630365670099848785e+00
6.342027187347412109e+01 1.989749346673488617e+01 -2.629938424006098785e+00
4.779502773284912109e+01 1.617910967767238617e+01 -2.064981758967036285e+00
1.135630702972412109e+01 6.061067685484886169e+00 -7.187293175607862850e-01
1.129075527191162109e+01 6.152986630797386169e+00 -7.182105187326612850e-01
1.126890468597412109e+01 6.257722958922386169e+00 -7.193244103342237850e-01
1.154954433441162109e+01 6.461092099547386169e+00 -7.316077355295362850e-01
1.185447597503662109e+01 6.679109677672386169e+00 -7.451575402170362850e-01
4.782810878753662109e+01 1.519156084954738617e+01 -1.825296700373286285e+00
5.269895839691162109e+01 1.700491534173488617e+01 -1.990534127131098785e+00
4.786106777191162109e+01 1.619961749017238617e+01 -1.843530953302973785e+00
1.139048671722412109e+01 6.071443662047386169e+00 -6.704199913889112850e-01
1.132554531097412109e+01 6.163850888609886169e+00 -6.700995568185987850e-01
1.136668300628662109e+01 6.288728818297386169e+00 -6.732428673654737850e-01
1.165940761566162109e+01 6.497102841734886169e+00 -6.846869591623487850e-01
1.197227382659912109e+01 6.718904599547386169e+00 -6.966345909982862850e-01
8.285750389099121094e+00 5.479524716734886169e+00 -1.244303048029536285e+00
8.246687889099121094e+00 5.546785458922386169e+00 -1.242731392756098785e+00
8.204939842224121094e+00 5.612825497984886169e+00 -1.241007149592036285e+00
8.163313865661621094e+00 5.678865537047386169e+00 -1.239298165217036285e+00
8.121932029724121094e+00 5.744417294859886169e+00 -1.237589180842036285e+00
8.097640037536621094e+00 5.816194638609886169e+00 -1.238046944513911285e+00
8.076399803161621094e+00 5.889680966734886169e+00 -1.238916695490473785e+00
8.052962303161621094e+00 5.962068662047386169e+00 -1.239679634943598785e+00
8.704329490661621094e+00 5.619905576109886169e+00 -1.259302437677973785e+00
8.673323631286621094e+00 5.694612607359886169e+00 -1.259165108576411285e+00
8.644515037536621094e+00 5.770052060484886169e+00 -1.259088814631098785e+00
8.613509178161621094e+00 5.845003232359886169e+00 -1.258951485529536285e+00
8.585066795349121094e+00 5.920564755797386169e+00 -1.259119332209223785e+00
8.569441795349121094e+00 6.001131162047386169e+00 -1.260858834162348785e+00
8.546492576599121094e+00 6.079256162047386169e+00 -1.261926949396723785e+00
8.506941795349121094e+00 6.150423154234886169e+00 -1.260721505060786285e+00
9.267195701599121094e+00 5.808626279234886169e+00 -1.286951363459223785e+00
9.251692771911621094e+00 5.895052060484886169e+00 -1.288889229670161285e+00
9.236189842224121094e+00 5.981599912047386169e+00 -1.290811837092036285e+00
9.219954490661621094e+00 6.068758115172386169e+00 -1.292703926935786285e+00
9.175276756286621094e+00 6.144929990172386169e+00 -1.291239083185786285e+00
9.130721092224121094e+00 6.220979794859886169e+00 -1.289774239435786285e+00
9.086165428161621094e+00 6.297029599547386169e+00 -1.288309395685786285e+00
9.041975975036621094e+00 6.372469052672386169e+00 -1.286859810724848785e+00
9.928084373474121094e+00 6.030183896422386169e+00 -1.320200264826411285e+00
9.899275779724121094e+00 6.119295224547386169e+00 -1.320627510920161285e+00
9.855208396911621094e+00 6.203035458922386169e+00 -1.319574654474848785e+00
9.811018943786621094e+00 6.286775693297386169e+00 -1.318537056818598785e+00
9.767195701599121094e+00 6.370149716734886169e+00 -1.317484200373286285e+00
9.723494529724121094e+00 6.453157529234886169e+00 -1.316446602717036285e+00
9.679671287536621094e+00 6.536287412047386169e+00 -1.315409005060786285e+00
9.632918357849121094e+00 6.617708310484886169e+00 -1.314249337092036285e+00
1.063108730316162109e+01 6.265901669859886169e+00 -1.351236641779536285e+00
1.059300136566162109e+01 6.359651669859886169e+00 -1.351175606623286285e+00
1.055540370941162109e+01 6.453523740172386169e+00 -1.351175606623286285e+00
1.051768398284912109e+01 6.547517880797386169e+00 -1.351175606623286285e+00
1.048008632659912109e+01 6.641267880797386169e+00 -1.351160347834223785e+00
1.044261074066162109e+01 6.734895810484886169e+00 -1.351160347834223785e+00
1.040171718597412109e+01 6.827547177672386169e+00 -1.350794136896723785e+00
1.035923671722412109e+01 6.919099912047386169e+00 -1.350244820490473785e+00
1.184751796722412109e+01 6.673738583922386169e+00 -1.427637398615473785e+00
1.194859218597412109e+01 6.829134091734886169e+00 -1.441919625177973785e+00
1.139646816253662109e+01 6.754304990172386169e+00 -1.390009224787348785e+00
1.133494472503662109e+01 6.849031552672386169e+00 -1.387918770685786285e+00
1.127793788909912109e+01 6.944734677672386169e+00 -1.386255562677973785e+00
1.123704433441162109e+01 7.046175107359886169e+00 -1.386240303888911285e+00
1.118626308441162109e+01 7.144075497984886169e+00 -1.385217965021723785e+00
1.112889003753662109e+01 7.238435849547386169e+00 -1.383753121271723785e+00
1.184825038909912109e+01 6.674226865172386169e+00 -1.374841988459223785e+00
1.217454433441162109e+01 6.907625302672386169e+00 -1.410486519709223785e+00
1.214976406097412109e+01 7.023714169859886169e+00 -1.412363350763911285e+00
1.201951503753662109e+01 7.101717099547386169e+00 -1.403971016779536285e+00
1.201304531097412109e+01 7.224275693297386169e+00 -1.407617867365473785e+00
1.200657558441162109e+01 7.347688779234886169e+00 -1.411279976740473785e+00
1.199998378753662109e+01 7.472200497984886169e+00 -1.414972603693598785e+00
1.199339199066162109e+01 7.597200497984886169e+00 -1.418680489435786285e+00
1.184898281097412109e+01 6.674837216734886169e+00 -1.322367012873286285e+00
1.217515468597412109e+01 6.908113583922386169e+00 -1.356211007013911285e+00
1.451158046722412109e+01 7.868196591734886169e+00 -1.575205147638911285e+00
1.414366054534912109e+01 7.885286435484886169e+00 -1.546152413263911285e+00
1.363938808441162109e+01 7.842805966734886169e+00 -1.504190743342036285e+00
1.333396816253662109e+01 7.867708310484886169e+00 -1.480402291193598785e+00
1.316123867034912109e+01 7.940706357359886169e+00 -1.469202340021723785e+00
1.299558925628662109e+01 8.013094052672386169e+00 -1.458231270685786285e+00
1.184959316253662109e+01 6.675325497984886169e+00 -1.269632637873286285e+00
1.217576503753662109e+01 6.908479794859886169e+00 -1.301676094904536285e+00
1.582554531097412109e+01 8.338167294859886169e+00 -1.623850167170161285e+00
1.570567226409912109e+01 8.461580380797386169e+00 -1.618540108576411285e+00
1.423655605316162109e+01 8.069978818297386169e+00 -1.494531929865473785e+00
1.413963222503662109e+01 8.183382138609886169e+00 -1.490656197443598785e+00
1.407200527191162109e+01 8.308015927672386169e+00 -1.489359200373286285e+00
1.445152187347412109e+01 8.617220029234886169e+00 -1.527826607599848785e+00
1.185032558441162109e+01 6.675813779234886169e+00 -1.217203438654536285e+00
1.217637538909912109e+01 6.908968076109886169e+00 -1.247461617365473785e+00
1.604881191253662109e+01 8.418245419859886169e+00 -1.569879830256098785e+00
1.592625331878662109e+01 8.543123349547386169e+00 -1.564722359552973785e+00
1.423814296722412109e+01 8.070711240172386169e+00 -1.429605782404536285e+00
1.414121913909912109e+01 8.183992490172386169e+00 -1.425958931818598785e+00
1.407298183441162109e+01 8.308382138609886169e+00 -1.424707711115473785e+00
1.445152187347412109e+01 8.617220029234886169e+00 -1.460947335138911285e+00
1.185105800628662109e+01 6.676302060484886169e+00 -1.164530098810786285e+00
1.217710781097412109e+01 6.909456357359886169e+00 -1.192987740412348785e+00
1.941673183441162109e+01 9.622591122984886169e+00 -1.756738961115473785e+00
1.939475917816162109e+01 9.822786435484886169e+00 -1.760797799006098785e+00
1.423985195159912109e+01 8.071443662047386169e+00 -1.364374459162348785e+00
1.414268398284912109e+01 8.184724912047386169e+00 -1.360941231623286285e+00
1.407395839691162109e+01 8.308870419859886169e+00 -1.359735787287348785e+00
1.445139980316162109e+01 8.617097958922386169e+00 -1.393747628107661285e+00
1.185179042816162109e+01 6.676790341734886169e+00 -1.112161934748286285e+00
1.217771816253662109e+01 6.909944638609886169e+00 -1.138819039240473785e+00
3.841563320159912109e+01 1.641580401360988617e+01 -3.044382393732661285e+00
4.431907558441162109e+01 1.901724444329738617e+01 -3.485178292170161285e+00
1.424156093597412109e+01 8.072298154234886169e+00 -1.299509346857661285e+00
1.414427089691162109e+01 8.185457333922386169e+00 -1.296305001154536285e+00
1.407493495941162109e+01 8.309236630797386169e+00 -1.295160591974848785e+00
1.445127773284912109e+01 8.617097958922386169e+00 -1.326959908381098785e+00
1.185252285003662109e+01 6.677278622984886169e+00 -1.059534371271723785e+00
1.217832851409912109e+01 6.910310849547386169e+00 -1.084406197443598785e+00
3.843516445159912109e+01 1.642349444329738617e+01 -2.863062203302973785e+00
4.428697109222412109e+01 1.900589190423488617e+01 -3.270700753107661285e+00
1.424326992034912109e+01 8.073030576109886169e+00 -1.234690010920161285e+00
1.414573574066162109e+01 8.186067685484886169e+00 -1.231699288263911285e+00
1.407591152191162109e+01 8.309602841734886169e+00 -1.230264962092036285e+00
1.445127773284912109e+01 8.616975888609886169e+00 -1.259867012873286285e+00
1.185313320159912109e+01 6.677766904234886169e+00 -1.007227242365473785e+00
1.217893886566162109e+01 6.910799130797386169e+00 -1.030313790217036285e+00
3.845481777191162109e+01 1.643118487298488617e+01 -2.680719674006098785e+00
2.507237148284912109e+01 1.191812334954738617e+01 -1.847803414240473785e+00
1.424497890472412109e+01 8.073762997984886169e+00 -1.169534981623286285e+00
1.414732265472412109e+01 8.186800107359886169e+00 -1.166773140802973785e+00
1.407676601409912109e+01 8.310091122984886169e+00 -1.165750801935786285e+00
1.445115566253662109e+01 8.616975888609886169e+00 -1.193170845881098785e+00
1.185386562347412109e+01 6.678377255797386169e+00 -9.546607140451612850e-01
1.217967128753662109e+01 6.911287412047386169e+00 -9.762519005685987850e-01
4.885264492034912109e+01 2.014993487298488617e+01 -3.099329293146723785e+00
2.492246913909912109e+01 1.186306963860988617e+01 -1.721414864435786285e+00
1.424668788909912109e+01 8.074617490172386169e+00 -1.104746163263911285e+00
1.414890956878662109e+01 8.187410458922386169e+00 -1.102228463068598785e+00
1.407774257659912109e+01 8.310457333922386169e+00 -1.101267159357661285e+00
1.445103359222412109e+01 8.616853818297386169e+00 -1.126154244318598785e+00
1.185459804534912109e+01 6.678865537047386169e+00 -9.024146202951612850e-01
1.218028163909912109e+01 6.911775693297386169e+00 -9.219153527170362850e-01
5.144541835784912109e+01 2.107803545892238617e+01 -3.002100289240473785e+00
2.454978847503662109e+01 1.172586260735988617e+01 -1.584101021662348785e+00
1.424839687347412109e+01 8.075349912047386169e+00 -1.039652169123286285e+00
1.415037441253662109e+01 8.188142880797386169e+00 -1.037363350763911285e+00
1.407871913909912109e+01 8.310823544859886169e+00 -1.036478340998286285e+00
1.445103359222412109e+01 8.616853818297386169e+00 -1.059564888849848785e+00
1.185533046722412109e+01 6.679353818297386169e+00 -8.499091271310987850e-01
1.218089199066162109e+01 6.912141904234886169e+00 -8.679144982248487850e-01
5.442845058441162109e+01 2.214566241204738617e+01 -2.899729073420161285e+00
4.871678066253662109e+01 2.064261065423488617e+01 -2.635034859552973785e+00
1.425010585784912109e+01 8.076082333922386169e+00 -9.749396447092237850e-01
1.415196132659912109e+01 8.188753232359886169e+00 -9.728797081857862850e-01
1.407957363128662109e+01 8.311311826109886169e+00 -9.720709923654737850e-01
1.445091152191162109e+01 8.616731747984886169e+00 -9.926550988107862850e-01
1.185606288909912109e+01 6.679842099547386169e+00 -7.977088097482862850e-01
1.218150234222412109e+01 6.912630185484886169e+00 -8.136542443185987850e-01
5.363792324066162109e+01 2.186392413079738617e+01 -2.604196846857661285e+00
4.669541835784912109e+01 1.989749346673488617e+01 -2.313135445490473785e+00
1.425181484222412109e+01 8.076936826109886169e+00 -9.098914269357862850e-01
1.415342617034912109e+01 8.189485654234886169e+00 -9.080603722482862850e-01
1.408055019378662109e+01 8.311678037047386169e+00 -9.073432091623487850e-01
1.445078945159912109e+01 8.616731747984886169e+00 -9.261420372873487850e-01
1.185667324066162109e+01 6.680330380797386169e+00 -7.452643517404737850e-01
1.218223476409912109e+01 6.913118466734886169e+00 -7.594245079904737850e-01
4.992515468597412109e+01 2.053689776360988617e+01 -2.206095040217036285e+00
4.676829433441162109e+01 1.992495928704738617e+01 -2.092890084162348785e+00
1.425352382659912109e+01 8.077669247984886169e+00 -8.452246788889112850e-01
1.415501308441162109e+01 8.190218076109886169e+00 -8.436377648264112850e-01
1.408152675628662109e+01 8.312044247984886169e+00 -8.426612023264112850e-01
1.445078945159912109e+01 8.616609677672386169e+00 -8.593237999826612850e-01
1.197459316253662109e+01 6.720125302672386169e+00 -6.967108849435987850e-01
1.230711269378662109e+01 6.956575497984886169e+00 -7.096350792795362850e-01
3.831785488128662109e+01 1.638601885735988617e+01 -1.579569161310786285e+00
4.683982753753662109e+01 1.995205889642238617e+01 -1.870844185724848785e+00
2.996470546722412109e+01 1.405349932610988617e+01 -1.309320748224848785e+00
1.418272304534912109e+01 8.201082333922386169e+00 -7.797797325998487850e-01
1.413438320159912109e+01 8.333406552672386169e+00 -7.801306847482862850e-01
1.453050136566162109e+01 8.649690732359886169e+00 -7.952826622873487850e-01
8.052840232849121094e+00 5.962190732359886169e+00 -1.239664376154536285e+00
8.030989646911621094e+00 6.035432919859886169e+00 -1.240518868342036285e+00
8.010848045349121094e+00 6.109529599547386169e+00 -1.241770089045161285e+00
7.993636131286621094e+00 6.185579404234886169e+00 -1.243433297052973785e+00
7.976302146911621094e+00 6.261629208922386169e+00 -1.245096505060786285e+00
7.958968162536621094e+00 6.338045224547386169e+00 -1.246759713068598785e+00
7.941512107849121094e+00 6.414949521422386169e+00 -1.248453438654536285e+00
7.921736717224121094e+00 6.490877255797386169e+00 -1.250009835138911285e+00
8.506819725036621094e+00 6.150667294859886169e+00 -1.260721505060786285e+00
8.483992576599121094e+00 6.228670224547386169e+00 -1.261804879084223785e+00
8.463484764099121094e+00 6.308015927672386169e+00 -1.262995064631098785e+00
8.440413475036621094e+00 6.386873349547386169e+00 -1.264093697443598785e+00
8.417342185974121094e+00 6.465608701109886169e+00 -1.265192330256098785e+00
8.394148826599121094e+00 6.544588193297386169e+00 -1.266290963068598785e+00
8.368514060974121094e+00 6.622957333922386169e+00 -1.267313301935786285e+00
8.345320701599121094e+00 6.702425107359886169e+00 -1.268411934748286285e+00
9.041853904724121094e+00 6.372713193297386169e+00 -1.286859810724848785e+00
8.994856834411621094e+00 6.446687802672386169e+00 -1.285272896662348785e+00
8.947981834411621094e+00 6.520540341734886169e+00 -1.283701241388911285e+00
8.911482810974121094e+00 6.599031552672386169e+00 -1.283365548029536285e+00
8.887679100036621094e+00 6.683137997984886169e+00 -1.284555733576411285e+00
8.863753318786621094e+00 6.767488583922386169e+00 -1.285761177912348785e+00
8.839705467224121094e+00 6.852449521422386169e+00 -1.286966622248286285e+00
8.815657615661621094e+00 6.937288388609886169e+00 -1.288172066584223785e+00
9.632918357849121094e+00 6.617952451109886169e+00 -1.314249337092036285e+00
9.590071678161621094e+00 6.700716122984886169e+00 -1.313257515802973785e+00
9.544051170349121094e+00 6.782014951109886169e+00 -1.312128365412348785e+00
9.498030662536621094e+00 6.863435849547386169e+00 -1.310999215021723785e+00
9.452254295349121094e+00 6.944368466734886169e+00 -1.309870064631098785e+00
9.404036521911621094e+00 7.024080380797386169e+00 -1.308450997248286285e+00
9.370955467224121094e+00 7.111116513609886169e+00 -1.308817208185786285e+00
9.334578514099121094e+00 7.196443662047386169e+00 -1.309000313654536285e+00
1.035899257659912109e+01 6.919344052672386169e+00 -1.350244820490473785e+00
1.031358242034912109e+01 7.009431943297386169e+00 -1.349527657404536285e+00
1.026402187347412109e+01 7.097688779234886169e+00 -1.348383248224848785e+00
1.020725917816162109e+01 7.182893857359886169e+00 -1.346445382013911285e+00
1.015086269378662109e+01 7.267488583922386169e+00 -1.344507515802973785e+00
1.009458827972412109e+01 7.351839169859886169e+00 -1.342569649592036285e+00
1.003831386566162109e+01 7.436189755797386169e+00 -1.340647042170161285e+00
9.982405662536621094e+00 7.519929990172386169e+00 -1.338724434748286285e+00
1.112864589691162109e+01 7.238802060484886169e+00 -1.383737862482661285e+00
1.107749843597412109e+01 7.335481747984886169e+00 -1.382532418146723785e+00
1.102220058441162109e+01 7.430208310484886169e+00 -1.381143868342036285e+00
1.096678066253662109e+01 7.525056943297386169e+00 -1.379755318537348785e+00
1.090818691253662109e+01 7.617830380797386169e+00 -1.378000557795161285e+00
1.084922695159912109e+01 7.710115537047386169e+00 -1.376200020685786285e+00
1.079026699066162109e+01 7.802400693297386169e+00 -1.374399483576411285e+00
1.072813320159912109e+01 7.892366513609886169e+00 -1.372507393732661285e+00
1.199388027191162109e+01 7.597810849547386169e+00 -1.418756783381098785e+00
1.192869472503662109e+01 7.698762997984886169e+00 -1.416803658381098785e+00
1.184458827972412109e+01 7.790926083922386169e+00 -1.412943184748286285e+00
1.176084804534912109e+01 7.882845029234886169e+00 -1.409113228693598785e+00
1.167784023284912109e+01 7.973787412047386169e+00 -1.405298531427973785e+00
1.159532070159912109e+01 8.064241513609886169e+00 -1.401529610529536285e+00
1.152574062347412109e+01 8.160554990172386169e+00 -1.399042427912348785e+00
1.145725917816162109e+01 8.256380185484886169e+00 -1.396631539240473785e+00
1.299485683441162109e+01 8.013216122984886169e+00 -1.458170235529536285e+00
1.285899257659912109e+01 8.095735654234886169e+00 -1.450022042170161285e+00
1.282517910003662109e+01 8.220857724547386169e+00 -1.451151192560786285e+00
1.278623867034912109e+01 8.344759091734886169e+00 -1.452158272638911285e+00
1.272520351409912109e+01 8.458284482359886169e+00 -1.451029122248286285e+00
1.264329433441162109e+01 8.561800107359886169e+00 -1.447916329279536285e+00
1.255613613128662109e+01 8.662386044859886169e+00 -1.444589913263911285e+00
1.247520351409912109e+01 8.764803037047386169e+00 -1.441507637873286285e+00
1.445469570159912109e+01 8.619051083922386169e+00 -1.528116524592036285e+00
1.438291835784912109e+01 8.746004208922386169e+00 -1.526651680842036285e+00
1.422202968597412109e+01 8.833528622984886169e+00 -1.517160714045161285e+00
1.406297206878662109e+01 8.919954404234886169e+00 -1.507791817560786285e+00
1.390684413909912109e+01 9.004915341734886169e+00 -1.498590767756098785e+00
1.377110195159912109e+01 9.097078427672386169e+00 -1.491174996271723785e+00
1.369566249847412109e+01 9.217317685484886169e+00 -1.489206612482661285e+00
1.362071132659912109e+01 9.336824521422386169e+00 -1.487268746271723785e+00
1.445457363128662109e+01 8.619051083922386169e+00 -1.461221993342036285e+00
1.490049648284912109e+01 8.966829404234886169e+00 -1.503473580256098785e+00
1.522752285003662109e+01 9.274446591734886169e+00 -1.535990059748286285e+00
1.519700527191162109e+01 9.430818662047386169e+00 -1.538416207209223785e+00
1.516660976409912109e+01 9.587556943297386169e+00 -1.540842354670161285e+00
1.513609218597412109e+01 9.745027646422386169e+00 -1.543283760920161285e+00
1.510533046722412109e+01 9.903841122984886169e+00 -1.545755684748286285e+00
1.507444667816162109e+01 1.006277666985988617e+01 -1.548212349787348785e+00
1.445457363128662109e+01 8.618929013609886169e+00 -1.394007027521723785e+00
1.490025234222412109e+01 8.966585263609886169e+00 -1.433695137873286285e+00
2.030601406097412109e+01 1.150186358392238617e+01 -1.868692696467036285e+00
2.071433925628662109e+01 1.191702471673488617e+01 -1.907709420099848785e+00
1.646324062347412109e+01 1.018728838860988617e+01 -1.572885811701411285e+00
1.644724941253662109e+01 1.036734209954738617e+01 -1.576761544123286285e+00
1.642942714691162109e+01 1.054861651360988617e+01 -1.580545723810786285e+00
1.640159511566162109e+01 1.072549639642238617e+01 -1.583521187677973785e+00
1.445445156097412109e+01 8.618929013609886169e+00 -1.327204049006098785e+00
1.490000820159912109e+01 8.966463193297386169e+00 -1.364343941584223785e+00
2.129063320159912109e+01 1.193350420892238617e+01 -1.845300972834223785e+00
2.127171230316162109e+01 1.216775713860988617e+01 -1.850107491388911285e+00
1.688572597503662109e+01 1.038247881829738617e+01 -1.526438057795161285e+00
1.688658046722412109e+01 1.057559405267238617e+01 -1.531427681818598785e+00
1.743247890472412109e+01 1.103677569329738617e+01 -1.577829659357661285e+00
1.900938320159912109e+01 1.202786456048488617e+01 -1.703134835138911285e+00
1.445432949066162109e+01 8.618806943297386169e+00 -1.260095894709223785e+00
1.489976406097412109e+01 8.966219052672386169e+00 -1.294672310724848785e+00
3.410056972503662109e+01 1.755191241204738617e+01 -2.634851754084223785e+00
2.294102382659912109e+01 1.291971026360988617e+01 -1.864618599787348785e+00
1.688719081878662109e+01 1.038284502923488617e+01 -1.446222603693598785e+00
1.688560390472412109e+01 1.057473956048488617e+01 -1.450678170099848785e+00
1.743113613128662109e+01 1.103579913079738617e+01 -1.493433297052973785e+00
2.292832851409912109e+01 1.398501788079738617e+01 -1.888513863459223785e+00
1.445432949066162109e+01 8.618806943297386169e+00 -1.193369210138911285e+00
1.489951992034912109e+01 8.966096982359886169e+00 -1.225412667170161285e+00
3.411460781097412109e+01 1.755764971673488617e+01 -2.468851387873286285e+00
4.653172206878662109e+01 2.354910479485988617e+01 -3.281946480646723785e+00
1.688877773284912109e+01 1.038321124017238617e+01 -1.365625679865473785e+00
1.688462734222412109e+01 1.057400713860988617e+01 -1.369547188654536285e+00
1.742991542816162109e+01 1.103470049798488617e+01 -1.409555733576411285e+00
2.631126308441162109e+01 1.567422686517238617e+01 -1.998834908381098785e+00
1.445420742034912109e+01 8.618684872984886169e+00 -1.126352608576411285e+00
1.489927577972412109e+01 8.965852841734886169e+00 -1.156214058771723785e+00
3.412937831878662109e+01 1.756387530267238617e+01 -2.303766549006098785e+00
4.190110683441162109e+01 2.146206866204738617e+01 -2.775949776545161285e+00
1.689024257659912109e+01 1.038369952142238617e+01 -1.285501778498286285e+00
1.688352870941162109e+01 1.057315264642238617e+01 -1.288919747248286285e+00
1.742857265472412109e+01 1.103360186517238617e+01 -1.325754464045161285e+00
2.399839687347412109e+01 1.451809893548488617e+01 -1.728037178888911285e+00
1.445408535003662109e+01 8.618684872984886169e+00 -1.059732735529536285e+00
1.489903163909912109e+01 8.965608701109886169e+00 -1.086695015802973785e+00
3.414414882659912109e+01 1.756997881829738617e+01 -2.137766182795161285e+00
4.192979335784912109e+01 2.147439776360988617e+01 -2.570566475763911285e+00
1.689170742034912109e+01 1.038406573235988617e+01 -1.204996407404536285e+00
1.688255214691162109e+01 1.057229815423488617e+01 -1.207941353693598785e+00
1.742735195159912109e+01 1.103250323235988617e+01 -1.241571724787348785e+00
2.394822597503662109e+01 1.449234209954738617e+01 -1.607477486506098785e+00
1.445408535003662109e+01 8.618562802672386169e+00 -9.928076867014112850e-01
1.489878749847412109e+01 8.965486630797386169e+00 -1.017587960138911285e+00
3.417491054534912109e+01 1.758316241204738617e+01 -1.973398507013911285e+00
4.297593593597412109e+01 2.194510088860988617e+01 -2.416651070490473785e+00
1.689329433441162109e+01 1.038443194329738617e+01 -1.124948799982661285e+00
1.688157558441162109e+01 1.057144366204738617e+01 -1.127451241388911285e+00
1.742613124847412109e+01 1.103140459954738617e+01 -1.157923043146723785e+00
2.479722499847412109e+01 1.491555987298488617e+01 -1.532205880060786285e+00
1.445396327972412109e+01 8.618562802672386169e+00 -9.262793663889112850e-01
1.489854335784912109e+01 8.965242490172386169e+00 -9.481757286935987850e-01
3.420347499847412109e+01 1.759524737298488617e+01 -1.807855904474848785e+00
4.438035488128662109e+01 2.257718096673488617e+01 -2.267160714045161285e+00
1.689475917816162109e+01 1.038479815423488617e+01 -1.044519722834223785e+00
1.688059902191162109e+01 1.057058916985988617e+01 -1.046594918146723785e+00
1.742478847503662109e+01 1.103042803704738617e+01 -1.073892891779536285e+00
2.452354335784912109e+01 1.477823077142238617e+01 -1.398111641779536285e+00
1.445384120941162109e+01 8.618440732359886169e+00 -8.594611290842237850e-01
1.489829921722412109e+01 8.965120419859886169e+00 -8.788092736154737850e-01
3.424021816253662109e+01 1.761099444329738617e+01 -1.643350899592036285e+00
4.285764980316162109e+01 2.189053545892238617e+01 -1.989054024592036285e+00
1.689622402191162109e+01 1.038516436517238617e+01 -9.645484093576612850e-01
1.687962245941162109e+01 1.056973467767238617e+01 -9.662421349435987850e-01
1.742356777191162109e+01 1.102932940423488617e+01 -9.899237755685987850e-01
2.260423183441162109e+01 1.381888018548488617e+01 -1.200250924006098785e+00
1.453343105316162109e+01 8.651521787047386169e+00 -7.953894738107862850e-01
1.495579433441162109e+01 8.989534482359886169e+00 -8.118384484201612850e-01
2.595591640472412109e+01 1.397781573235988617e+01 -1.191675484552973785e+00
4.295396327972412109e+01 2.193338213860988617e+01 -1.781168282404536285e+00
1.690367031097412109e+01 1.038833819329738617e+01 -8.844092492014112850e-01
1.690098476409912109e+01 1.057950030267238617e+01 -8.863013390451612850e-01
1.743272304534912109e+01 1.103335772454738617e+01 -9.068549279123487850e-01
2.300767421722412109e+01 1.401968584954738617e+01 -1.103479683771723785e+00
7.921614646911621094e+00 6.491121396422386169e+00 -1.250009835138911285e+00
7.903426170349121094e+00 6.568147763609886169e+00 -1.251673043146723785e+00
7.880232810974121094e+00 6.643098935484886169e+00 -1.252847969904536285e+00
7.854842185974121094e+00 6.717439755797386169e+00 -1.253778756037348785e+00
7.829329490661621094e+00 6.791780576109886169e+00 -1.254709542170161285e+00
7.803938865661621094e+00 6.866365537047386169e+00 -1.255640328302973785e+00
7.778182029724121094e+00 6.941560849547386169e+00 -1.256586373224848785e+00
7.750472068786621094e+00 7.015413388609886169e+00 -1.257425606623286285e+00
8.345198631286621094e+00 6.702669247984886169e+00 -1.268411934748286285e+00
8.319319725036621094e+00 6.781038388609886169e+00 -1.269419014826411285e+00
8.295638084411621094e+00 6.860994443297386169e+00 -1.270532906427973785e+00
8.269515037536621094e+00 6.940218076109886169e+00 -1.271555245295161285e+00
8.243269920349121094e+00 7.019563779234886169e+00 -1.272562325373286285e+00
8.214339256286621094e+00 7.097566708922386169e+00 -1.273248970881098785e+00
8.179060935974121094e+00 7.172639951109886169e+00 -1.273310006037348785e+00
8.145979881286621094e+00 7.248689755797386169e+00 -1.273477852717036285e+00
8.815535545349121094e+00 6.937532529234886169e+00 -1.288172066584223785e+00
8.788802146911621094e+00 7.021394833922386169e+00 -1.289270699396723785e+00
8.758650779724121094e+00 7.103792294859886169e+00 -1.289972603693598785e+00
8.724104881286621094e+00 7.184602841734886169e+00 -1.290140450373286285e+00
8.689681053161621094e+00 7.265169247984886169e+00 -1.290323555842036285e+00
8.655135154724121094e+00 7.345857724547386169e+00 -1.290506661310786285e+00
8.620345115661621094e+00 7.427034482359886169e+00 -1.290689766779536285e+00
8.585799217224121094e+00 7.508089169859886169e+00 -1.290857613459223785e+00
9.334090232849121094e+00 7.196565732359886169e+00 -1.308969796076411285e+00
9.301009178161621094e+00 7.283601865172386169e+00 -1.309290230646723785e+00
9.264998435974121094e+00 7.369417294859886169e+00 -1.309488594904536285e+00
9.228743553161621094e+00 7.455721005797386169e+00 -1.309702217951411285e+00
9.192488670349121094e+00 7.541780576109886169e+00 -1.309915840998286285e+00
9.156233787536621094e+00 7.628084287047386169e+00 -1.310129464045161285e+00
9.119734764099121094e+00 7.714876279234886169e+00 -1.310327828302973785e+00
9.080428123474121094e+00 7.799959287047386169e+00 -1.310434639826411285e+00
9.982039451599121094e+00 7.520174130797386169e+00 -1.338693917170161285e+00
9.927962303161621094e+00 7.604646787047386169e+00 -1.337152779474848785e+00
9.885481834411621094e+00 7.694978818297386169e+00 -1.336908638849848785e+00
9.842757225036621094e+00 7.785677060484886169e+00 -1.336664498224848785e+00
9.800154685974121094e+00 7.876253232359886169e+00 -1.336420357599848785e+00
9.757430076599121094e+00 7.966829404234886169e+00 -1.336176216974848785e+00
9.714583396911621094e+00 8.057893857359886169e+00 -1.335932076349848785e+00
9.663313865661621094e+00 8.143831357359886169e+00 -1.334711373224848785e+00
1.072788906097412109e+01 7.892732724547386169e+00 -1.372507393732661285e+00
1.067088222503662109e+01 7.984895810484886169e+00 -1.370767891779536285e+00
1.061131191253662109e+01 8.075716122984886169e+00 -1.368997872248286285e+00
1.056004238128662109e+01 8.171175107359886169e+00 -1.368173897638911285e+00
1.050901699066162109e+01 8.266267880797386169e+00 -1.367334664240473785e+00
1.045799160003662109e+01 8.361482724547386169e+00 -1.366495430842036285e+00
1.040415859222412109e+01 8.455598935484886169e+00 -1.365381539240473785e+00
1.034348964691162109e+01 8.544954404234886169e+00 -1.363748848810786285e+00
1.145689296722412109e+01 8.256746396422386169e+00 -1.396616280451411285e+00
1.139597988128662109e+01 8.356111630797386169e+00 -1.395105660334223785e+00
1.134104824066162109e+01 8.458406552672386169e+00 -1.394205391779536285e+00
1.128611660003662109e+01 8.561189755797386169e+00 -1.393305123224848785e+00
