8.778187543153762817e+00 4.642573192715644836e+00 -7.912593301385584255e-01
8.977772504091262817e+00 4.772333934903144836e+00 -8.052516397088709255e-01
9.188465863466262817e+00 4.909174755215644836e+00 -8.200221475213709255e-01
2.509264066815376282e+01 8.950678661465644836e+00 -1.778258841857308425e+00
1.468468168377876282e+01 6.512690380215644836e+00 -1.156341117247933425e+00
8.238636761903762817e+00 4.291865184903144836e+00 -7.181086953729334255e-01
8.409657269716262817e+00 4.403071239590644836e+00 -7.294154580682459255e-01
8.589466840028762817e+00 4.519892528653144836e+00 -7.411036904901209255e-01
8.779408246278762817e+00 4.643305614590644836e+00 -7.534480508416834255e-01
8.978993207216262817e+00 4.773066356778144836e+00 -7.664180215448084255e-01
9.189564496278762817e+00 4.909907177090644836e+00 -7.801051553338709255e-01
1.477769926190376282e+01 6.388422802090644836e+00 -1.091689627990120925e+00
1.466832426190376282e+01 6.509150341153144836e+00 -1.088820975646370925e+00
8.239857465028762817e+00 4.292719677090644836e+00 -6.830897744744959255e-01
8.410877972841262817e+00 4.403803661465644836e+00 -6.933131631463709255e-01
8.590687543153762817e+00 4.520624950528144836e+00 -7.040706094354334255e-01
8.780628949403762817e+00 4.644160106778144836e+00 -7.154384072869959255e-01
8.980091840028762817e+00 4.773798778653144836e+00 -7.273860391229334255e-01
9.190785199403762817e+00 4.910761669278144836e+00 -7.399745400994959255e-01
1.476109769940376282e+01 6.385004833340644836e+00 -1.024001639708870925e+00
4.993101957440376282e+01 1.564940913021564484e+01 -2.816207450255745925e+00
8.240956097841262817e+00 4.293452098965644836e+00 -6.478877481073084255e-01
8.411976605653762817e+00 4.404536083340644836e+00 -6.574244912713709255e-01
8.591786175966262817e+00 4.521479442715644836e+00 -6.672664102166834255e-01
8.781727582216262817e+00 4.644892528653144836e+00 -6.776576455682459255e-01
8.981312543153762817e+00 4.774531200528144836e+00 -6.885676797479334255e-01
9.191883832216262817e+00 4.911494091153144836e+00 -7.000880654901209255e-01
1.474461820721626282e+01 6.381708934903144836e+00 -9.568629678338709255e-01
6.478551176190376282e+01 1.950255854427814484e+01 -3.266494315490120925e+00
8.242176800966262817e+00 4.294184520840644836e+00 -6.128840859979334255e-01
8.413197308778762817e+00 4.405390575528144836e+00 -6.213527139276209255e-01
8.593006879091262817e+00 4.522211864590644836e+00 -6.302638467401209255e-01
8.782948285341262817e+00 4.645624950528144836e+00 -6.396785195916834255e-01
8.982411175966262817e+00 4.775263622403144836e+00 -6.495662149041834255e-01
9.193104535341262817e+00 4.912226513028144836e+00 -6.600032266229334255e-01
2.515184476971626282e+01 8.970576122403144836e+00 -1.318404715880745925e+00
1.461961820721626282e+01 6.498652294278144836e+00 -8.881984170526209255e-01
8.243397504091262817e+00 4.294916942715644836e+00 -5.777125772088709255e-01
8.414418011903762817e+00 4.406122997403144836e+00 -5.852961953729334255e-01
8.594105511903762817e+00 4.522944286465644836e+00 -5.934749063104334255e-01
8.784046918153762817e+00 4.646357372403144836e+00 -6.019130166619959255e-01
8.983631879091262817e+00 4.776118114590644836e+00 -6.107783731073084255e-01
9.194203168153762817e+00 4.912958934903144836e+00 -6.201320108026209255e-01
1.428014066815376282e+01 6.267695263028144836e+00 -8.067927774041834255e-01
6.339964750409126282e+01 1.914953120052814484e+01 -2.607543509826058425e+00
8.270741254091262817e+00 4.300654247403144836e+00 -5.433497842401209255e-01
8.443836957216262817e+00 4.412470653653144836e+00 -5.503230508416834255e-01
8.625965863466262817e+00 4.530024364590644836e+00 -5.574641641229334255e-01
8.818592816591262817e+00 4.654414013028144836e+00 -5.650020059198084255e-01
9.020985394716262817e+00 4.785029247403144836e+00 -5.729365762323084255e-01
1.449339750409126282e+01 6.175776317715644836e+00 -7.468104775994959255e-01
1.430016019940376282e+01 6.273310497403144836e+00 -7.434535440057459255e-01
4.749705961346626282e+01 1.502782709896564484e+01 -1.803069632872933425e+00
8.181385785341262817e+00 4.823237255215644836e+00 -1.227233451232308425e+00
8.161976605653762817e+00 4.897944286465644836e+00 -1.227920096740120925e+00
8.135243207216262817e+00 4.970576122403144836e+00 -1.227920096740120925e+00
8.107899457216262817e+00 5.043207958340644836e+00 -1.227843802794808425e+00
8.073963910341262817e+00 5.113520458340644836e+00 -1.226928275451058425e+00
8.034901410341262817e+00 5.181879833340644836e+00 -1.225356620177620925e+00
7.995838910341262817e+00 5.250117138028144836e+00 -1.223800223693245925e+00
7.954457074403762817e+00 5.317011669278144836e+00 -1.222091239318245925e+00
8.574696332216262817e+00 4.925288036465644836e+00 -1.237655204161995925e+00
8.545765668153762817e+00 5.001581981778144836e+00 -1.237563651427620925e+00
8.519032269716262817e+00 5.078364208340644836e+00 -1.237533133849495925e+00
8.490101605653762817e+00 5.154658153653144836e+00 -1.237456839904183425e+00
8.461170941591262817e+00 5.230585888028144836e+00 -1.237380545958870925e+00
8.432484418153762817e+00 5.306391552090644836e+00 -1.237304252013558425e+00
8.401478558778762817e+00 5.381708934903144836e+00 -1.237166922911995925e+00
8.372792035341262817e+00 5.457270458340644836e+00 -1.237075370177620925e+00
9.018788129091262817e+00 5.040522411465644836e+00 -1.250030082091683425e+00
9.007069379091262817e+00 5.126093700528144836e+00 -1.252105277404183425e+00
8.995228558778762817e+00 5.212031200528144836e+00 -1.254195731505745925e+00
8.983265668153762817e+00 5.298456981778144836e+00 -1.256286185607308425e+00
8.971424847841262817e+00 5.384882763028144836e+00 -1.258376639708870925e+00
8.959461957216262817e+00 5.471552684903144836e+00 -1.260467093810433425e+00
8.947499066591262817e+00 5.558710888028144836e+00 -1.262588065490120925e+00
8.935536175966262817e+00 5.645991161465644836e+00 -1.264693778380745925e+00
1.104149320721626282e+01 5.564081981778144836e+00 -1.429107230529183425e+00
1.082005766034126282e+01 5.614863231778144836e+00 -1.408904593810433425e+00
1.060448148846626282e+01 5.663081005215644836e+00 -1.389449637755745925e+00
9.640858441591262817e+00 5.490107372403144836e+00 -1.288116019591683425e+00
9.630726605653762817e+00 5.584101513028144836e+00 -1.290587943419808425e+00
9.620472699403762817e+00 5.678583934903144836e+00 -1.293075126036995925e+00
9.610218793153762817e+00 5.773676708340644836e+00 -1.295592826232308425e+00
9.596180707216262817e+00 5.867426708340644836e+00 -1.297912162169808425e+00
1.333433988690376282e+01 6.157709911465644836e+00 -1.616469901427620925e+00
1.326610258221626282e+01 6.274164989590644836e+00 -1.614211600646370925e+00
1.102074125409126282e+01 5.780146434903144836e+00 -1.385314505919808425e+00
1.079588773846626282e+01 5.826533153653144836e+00 -1.365813773497933425e+00
1.058006742596626282e+01 5.871088817715644836e+00 -1.347091239318245925e+00
1.040379789471626282e+01 5.923823192715644836e+00 -1.332397025451058425e+00
1.035130766034126282e+01 6.013911083340644836e+00 -1.330688041076058425e+00
1.029942777752876282e+01 6.103266552090644836e+00 -1.328979056701058425e+00
1.346641996502876282e+01 6.192499950528144836e+00 -1.569289725646370925e+00
1.339781644940376282e+01 6.310297802090644836e+00 -1.566863578185433425e+00
1.332872465252876282e+01 6.427241161465644836e+00 -1.564696830138558425e+00
1.100658109784126282e+01 5.888300731778144836e+00 -1.338027518615120925e+00
1.094090726971626282e+01 5.980341747403144836e+00 -1.335311454161995925e+00
1.092247465252876282e+01 6.086420848965644836e+00 -1.337310355529183425e+00
1.120824125409126282e+01 6.291743114590644836e+00 -1.369979422911995925e+00
1.151378324627876282e+01 6.510371044278144836e+00 -1.405181449279183425e+00
1.360179594159126282e+01 6.228144481778144836e+00 -1.520873587951058425e+00
1.353148344159126282e+01 6.346918895840644836e+00 -1.518798392638558425e+00
1.346141508221626282e+01 6.464960888028144836e+00 -1.516738456115120925e+00
1.100804594159126282e+01 5.889155223965644836e+00 -1.288665335997933425e+00
1.094237211346626282e+01 5.981196239590644836e+00 -1.286117118224495925e+00
1.092357328534126282e+01 6.087153270840644836e+00 -1.288039725646370925e+00
1.120897367596626282e+01 6.292353466153144836e+00 -1.319137137755745925e+00
1.151451566815376282e+01 6.510859325528144836e+00 -1.352401297911995925e+00
1.373936918377876282e+01 6.264399364590644836e+00 -1.471709769591683425e+00
1.451439359784126282e+01 6.612421825528144836e+00 -1.545379203185433425e+00
1.467821195721626282e+01 6.806513622403144836e+00 -1.564422171935433425e+00
1.100938871502876282e+01 5.889887645840644836e+00 -1.239059012755745925e+00
1.094371488690376282e+01 5.981928661465644836e+00 -1.236678641661995925e+00
1.092479398846626282e+01 6.087885692715644836e+00 -1.238509696349495925e+00
1.120970609784126282e+01 6.292841747403144836e+00 -1.268310111388558425e+00
1.151524809002876282e+01 6.511347606778144836e+00 -1.299926322326058425e+00
1.462572172284126282e+01 6.494501903653144836e+00 -1.484008353576058425e+00
1.479051664471626282e+01 6.687372997403144836e+00 -1.502456229552620925e+00
1.496019437909126282e+01 6.886225536465644836e+00 -1.521468680724495925e+00
1.101085355877876282e+01 5.890742138028144836e+00 -1.189742606505745925e+00
1.094517973065376282e+01 5.982783153653144836e+00 -1.187530082091683425e+00
1.092589262127876282e+01 6.088496044278144836e+00 -1.189284842833870925e+00
1.121056059002876282e+01 6.293452098965644836e+00 -1.217238944396370925e+00
1.151598051190376282e+01 6.511835888028144836e+00 -1.247207206115120925e+00
1.557164457440376282e+01 6.740107372403144836e+00 -1.492965262755745925e+00
1.549474027752876282e+01 6.877924755215644836e+00 -1.491454642638558425e+00
1.555223539471626282e+01 7.052729442715644836e+00 -1.500670951232308425e+00
1.101219633221626282e+01 5.891596630215644836e+00 -1.140441459044808425e+00
1.094652250409126282e+01 5.983515575528144836e+00 -1.138396781310433425e+00
1.092711332440376282e+01 6.089228466153144836e+00 -1.140075248107308425e+00
1.121129301190376282e+01 6.293940380215644836e+00 -1.166472953185433425e+00
1.151671293377876282e+01 6.512324169278144836e+00 -1.194793265685433425e+00
8.587108305096626282e+01 2.494640620052814484e+01 -6.670226615294808425e+00
5.069505766034126282e+01 1.637035639584064484e+01 -4.058959525451058425e+00
5.058897855877876282e+01 1.687719233334064484e+01 -4.065902274474495925e+00
1.101366117596626282e+01 5.892329052090644836e+00 -1.090896170958870925e+00
1.094798734784126282e+01 5.984370067715644836e+00 -1.089019339904183425e+00
1.092821195721626282e+01 6.089960888028144836e+00 -1.090621512755745925e+00
1.121202543377876282e+01 6.294550731778144836e+00 -1.115462821349495925e+00
1.151732328534126282e+01 6.512812450528144836e+00 -1.142119925841683425e+00
7.207591703534126282e+01 2.137743647396564484e+01 -5.301055472716683425e+00
5.068394926190376282e+01 1.636962397396564484e+01 -3.819869559630745925e+00
5.157579496502876282e+01 1.715612299740314484e+01 -3.896926444396370925e+00
1.101512601971626282e+01 5.893183544278144836e+00 -1.041625541076058425e+00
1.094945219159126282e+01 5.985102489590644836e+00 -1.039916556701058425e+00
1.092943266034126282e+01 6.090571239590644836e+00 -1.041457694396370925e+00
1.121287992596626282e+01 6.295039013028144836e+00 -1.064742606505745925e+00
1.151805570721626282e+01 6.513422802090644836e+00 -1.089767020568245925e+00
1.470030668377876282e+01 6.516596630215644836e+00 -1.223662894591683425e+00
5.067284086346626282e+01 1.636889155209064484e+01 -3.579772513732308425e+00
4.761046293377876282e+01 1.604613764584064484e+01 -3.393371146544808425e+00
1.101646879315376282e+01 5.893915966153144836e+00 -9.923854287713709255e-01
1.095079496502876282e+01 5.985956981778144836e+00 -9.908442910760584255e-01
1.093053129315376282e+01 6.091303661465644836e+00 -9.923091348260584255e-01
1.121361234784126282e+01 6.295649364590644836e+00 -1.013778251036995925e+00
1.151878812909126282e+01 6.513911083340644836e+00 -1.037169974669808425e+00
1.468407133221626282e+01 6.513056591153144836e+00 -1.156310599669808425e+00
6.357433012127876282e+01 1.985192377865314484e+01 -4.124084037169808425e+00
4.761485746502876282e+01 1.604931147396564484e+01 -3.168487113341683425e+00
1.101793363690376282e+01 5.894770458340644836e+00 -9.428859170526209255e-01
1.095225980877876282e+01 5.986689403653144836e+00 -9.415278848260584255e-01
1.093175199627876282e+01 6.092036083340644836e+00 -9.429316934198084255e-01
1.121434476971626282e+01 6.296137645840644836e+00 -9.631190713494959255e-01
1.151952055096626282e+01 6.514399364590644836e+00 -9.848628457635584255e-01
4.820140531659126282e+01 1.520043452084064484e+01 -2.953429740294808425e+00
1.455955961346626282e+01 6.629023388028144836e+00 -1.086471122130745925e+00
4.752074125409126282e+01 1.602489741146564484e+01 -2.939361136779183425e+00
1.101927641034126282e+01 5.895624950528144836e+00 -8.936763223260584255e-01
1.095360258221626282e+01 5.987543895840644836e+00 -8.924861367791834255e-01
1.093285062909126282e+01 6.092646434903144836e+00 -8.938289102166834255e-01
1.121507719159126282e+01 6.296747997403144836e+00 -9.124751504510584255e-01
1.152025297284126282e+01 6.514887645840644836e+00 -9.323115762323084255e-01
4.993016508221626282e+01 1.565087397396564484e+01 -2.816207450255745925e+00
6.385313871502876282e+01 1.993285639584064484e+01 -3.538650077208870925e+00
4.746056059002876282e+01 1.601000483334064484e+01 -2.711822074279183425e+00
1.102074125409126282e+01 5.896357372403144836e+00 -8.442225869744959255e-01
1.095506742596626282e+01 5.988276317715644836e+00 -8.432002481073084255e-01
1.093407133221626282e+01 6.093378856778144836e+00 -8.444819863885584255e-01
1.121593168377876282e+01 6.297236278653144836e+00 -8.616023477166834255e-01
1.152086332440376282e+01 6.515375927090644836e+00 -8.800654824823084255e-01
6.478831937909126282e+01 1.950561030209064484e+01 -3.266677420958870925e+00
1.452757719159126282e+01 6.621577098965644836e+00 -9.530635293573084255e-01
4.741771391034126282e+01 1.599999506771564484e+01 -2.487029593810433425e+00
1.102208402752876282e+01 5.897211864590644836e+00 -7.950587686151209255e-01
1.095653226971626282e+01 5.989130809903144836e+00 -7.942042764276209255e-01
1.093516996502876282e+01 6.094111278653144836e+00 -7.954249795526209255e-01
1.121666410565376282e+01 6.297724559903144836e+00 -8.110194619744959255e-01
1.152159574627876282e+01 6.515864208340644836e+00 -8.275752481073084255e-01
1.461900785565376282e+01 6.498896434903144836e+00 -8.881984170526209255e-01
8.922533109784126282e+01 2.678844721615314484e+01 -3.991576712951058425e+00
4.739793851971626282e+01 1.599645502865314484e+01 -2.262557547911995925e+00
1.102354887127876282e+01 5.898066356778144836e+00 -7.456508096307459255e-01
1.095787504315376282e+01 5.989863231778144836e+00 -7.449641641229334255e-01
1.093639066815376282e+01 6.094721630215644836e+00 -7.461238320916834255e-01
1.121739652752876282e+01 6.298334911465644836e+00 -7.601924356073084255e-01
1.152232816815376282e+01 6.516352489590644836e+00 -7.753901895135584255e-01
6.341478422284126282e+01 1.915563471615314484e+01 -2.608153861388558425e+00
6.308885648846626282e+01 1.973522455990314484e+01 -2.607726615294808425e+00
4.746361234784126282e+01 1.601684077084064484e+01 -2.042769950255745925e+00
1.102489164471626282e+01 5.898798778653144836e+00 -6.965175088494959255e-01
1.095933988690376282e+01 5.990717723965644836e+00 -6.959987100213709255e-01
1.093748930096626282e+01 6.095454052090644836e+00 -6.971126016229334255e-01
1.121812894940376282e+01 6.298823192715644836e+00 -7.093959268182459255e-01
1.152306059002876282e+01 6.516840770840644836e+00 -7.229457315057459255e-01
4.749669340252876282e+01 1.502929194271564484e+01 -1.803084891661995925e+00
5.236754301190376282e+01 1.684264643490314484e+01 -1.968322318419808425e+00
4.752965238690376282e+01 1.603734858334064484e+01 -1.821319144591683425e+00
1.105907133221626282e+01 5.909174755215644836e+00 -6.482081826776209255e-01
1.099412992596626282e+01 6.001581981778144836e+00 -6.478877481073084255e-01
1.103526762127876282e+01 6.126459911465644836e+00 -6.510310586541834255e-01
1.132799223065376282e+01 6.334833934903144836e+00 -6.624751504510584255e-01
1.164085844159126282e+01 6.556635692715644836e+00 -6.744227822869959255e-01
7.954335004091262817e+00 5.317255809903144836e+00 -1.222091239318245925e+00
7.915272504091262817e+00 5.384516552090644836e+00 -1.220519584044808425e+00
7.873524457216262817e+00 5.450556591153144836e+00 -1.218795340880745925e+00
7.831898480653762817e+00 5.516596630215644836e+00 -1.217086356505745925e+00
7.790516644716262817e+00 5.582148388028144836e+00 -1.215377372130745925e+00
7.766224652528762817e+00 5.653925731778144836e+00 -1.215835135802620925e+00
7.744984418153762817e+00 5.727412059903144836e+00 -1.216704886779183425e+00
7.721546918153762817e+00 5.799799755215644836e+00 -1.217467826232308425e+00
8.372914105653762817e+00 5.457636669278144836e+00 -1.237090628966683425e+00
8.341908246278762817e+00 5.532343700528144836e+00 -1.236953299865120925e+00
8.313099652528762817e+00 5.607783153653144836e+00 -1.236877005919808425e+00
8.282093793153762817e+00 5.682734325528144836e+00 -1.236739676818245925e+00
8.253651410341262817e+00 5.758295848965644836e+00 -1.236907523497933425e+00
8.238026410341262817e+00 5.838862255215644836e+00 -1.238647025451058425e+00
8.215077191591262817e+00 5.916987255215644836e+00 -1.239715140685433425e+00
8.175526410341262817e+00 5.988154247403144836e+00 -1.238509696349495925e+00
8.935780316591262817e+00 5.646357372403144836e+00 -1.264739554747933425e+00
8.920277386903762817e+00 5.732783153653144836e+00 -1.266677420958870925e+00
8.904774457216262817e+00 5.819331005215644836e+00 -1.268600028380745925e+00
8.888539105653762817e+00 5.906489208340644836e+00 -1.270492118224495925e+00
8.843861371278762817e+00 5.982661083340644836e+00 -1.269027274474495925e+00
8.799305707216262817e+00 6.058710888028144836e+00 -1.267562430724495925e+00
8.754750043153762817e+00 6.134760692715644836e+00 -1.266097586974495925e+00
8.710560590028762817e+00 6.210200145840644836e+00 -1.264648002013558425e+00
9.596668988466262817e+00 5.867914989590644836e+00 -1.297988456115120925e+00
9.567860394716262817e+00 5.957026317715644836e+00 -1.298415702208870925e+00
9.523793011903762817e+00 6.040766552090644836e+00 -1.297362845763558425e+00
9.479603558778762817e+00 6.124506786465644836e+00 -1.296325248107308425e+00
9.435780316591262817e+00 6.207880809903144836e+00 -1.295272391661995925e+00
9.392079144716262817e+00 6.290888622403144836e+00 -1.294234794005745925e+00
9.348255902528762817e+00 6.374018505215644836e+00 -1.293197196349495925e+00
9.301502972841262817e+00 6.455439403653144836e+00 -1.292037528380745925e+00
1.029967191815376282e+01 6.103632763028144836e+00 -1.329024833068245925e+00
1.026158598065376282e+01 6.197382763028144836e+00 -1.328963797911995925e+00
1.022398832440376282e+01 6.291254833340644836e+00 -1.328963797911995925e+00
1.018626859784126282e+01 6.385248973965644836e+00 -1.328963797911995925e+00
1.014867094159126282e+01 6.478998973965644836e+00 -1.328948539122933425e+00
1.011119535565376282e+01 6.572626903653144836e+00 -1.328948539122933425e+00
1.007030180096626282e+01 6.665278270840644836e+00 -1.328582328185433425e+00
1.002782133221626282e+01 6.756831005215644836e+00 -1.328033011779183425e+00
1.151610258221626282e+01 6.511469677090644836e+00 -1.405425589904183425e+00
1.161717680096626282e+01 6.666865184903144836e+00 -1.419707816466683425e+00
1.106505277752876282e+01 6.592036083340644836e+00 -1.367797416076058425e+00
1.100352934002876282e+01 6.686762645840644836e+00 -1.365706961974495925e+00
1.094652250409126282e+01 6.782465770840644836e+00 -1.364043753966683425e+00
1.090562894940376282e+01 6.883906200528144836e+00 -1.364028495177620925e+00
1.085484769940376282e+01 6.981806591153144836e+00 -1.363006156310433425e+00
1.079747465252876282e+01 7.076166942715644836e+00 -1.361541312560433425e+00
1.151683500409126282e+01 6.511957958340644836e+00 -1.352630179747933425e+00
1.184312894940376282e+01 6.745356395840644836e+00 -1.388274710997933425e+00
1.181834867596626282e+01 6.861445263028144836e+00 -1.390151542052620925e+00
1.168809965252876282e+01 6.939448192715644836e+00 -1.381759208068245925e+00
1.168162992596626282e+01 7.062006786465644836e+00 -1.385406058654183425e+00
1.167516019940376282e+01 7.185419872403144836e+00 -1.389068168029183425e+00
1.166856840252876282e+01 7.309931591153144836e+00 -1.392760794982308425e+00
1.166197660565376282e+01 7.434931591153144836e+00 -1.396468680724495925e+00
1.151756742596626282e+01 6.512568309903144836e+00 -1.300155204161995925e+00
1.184373930096626282e+01 6.745844677090644836e+00 -1.333999198302620925e+00
1.418016508221626282e+01 7.705927684903144836e+00 -1.552993338927620925e+00
1.381224516034126282e+01 7.723017528653144836e+00 -1.523940604552620925e+00
1.330797269940376282e+01 7.680537059903144836e+00 -1.481978934630745925e+00
1.300255277752876282e+01 7.705439403653144836e+00 -1.458190482482308425e+00
1.282982328534126282e+01 7.778437450528144836e+00 -1.446990531310433425e+00
1.266417387127876282e+01 7.850825145840644836e+00 -1.436019461974495925e+00
1.151817777752876282e+01 6.513056591153144836e+00 -1.247420829161995925e+00
1.184434965252876282e+01 6.746210888028144836e+00 -1.279464286193245925e+00
1.549412992596626282e+01 8.175898388028144836e+00 -1.601638358458870925e+00
1.537425687909126282e+01 8.299311473965644836e+00 -1.596328299865120925e+00
1.390514066815376282e+01 7.907709911465644836e+00 -1.472320121154183425e+00
1.380821684002876282e+01 8.021113231778144836e+00 -1.468444388732308425e+00
1.374058988690376282e+01 8.145747020840644836e+00 -1.467147391661995925e+00
1.412010648846626282e+01 8.454951122403144836e+00 -1.505614798888558425e+00
1.151891019940376282e+01 6.513544872403144836e+00 -1.194991629943245925e+00
1.184496000409126282e+01 6.746699169278144836e+00 -1.225249808654183425e+00
1.571739652752876282e+01 8.255976513028144836e+00 -1.547668021544808425e+00
1.559483793377876282e+01 8.380854442715644836e+00 -1.542510550841683425e+00
1.390672758221626282e+01 7.908442333340644836e+00 -1.407393973693245925e+00
1.380980375409126282e+01 8.021723583340644836e+00 -1.403747123107308425e+00
1.374156644940376282e+01 8.146113231778144836e+00 -1.402495902404183425e+00
1.412010648846626282e+01 8.454951122403144836e+00 -1.438735526427620925e+00
1.151964262127876282e+01 6.514033153653144836e+00 -1.142318290099495925e+00
1.184569242596626282e+01 6.747187450528144836e+00 -1.170775931701058425e+00
1.908531644940376282e+01 9.460322216153144836e+00 -1.734527152404183425e+00
1.906334379315376282e+01 9.660517528653144836e+00 -1.738585990294808425e+00
1.390843656659126282e+01 7.909174755215644836e+00 -1.342162650451058425e+00
1.381126859784126282e+01 8.022456005215644836e+00 -1.338729422911995925e+00
1.374254301190376282e+01 8.146601513028144836e+00 -1.337523978576058425e+00
1.411998441815376282e+01 8.454829052090644836e+00 -1.371535819396370925e+00
1.152037504315376282e+01 6.514521434903144836e+00 -1.089950126036995925e+00
1.184630277752876282e+01 6.747675731778144836e+00 -1.116607230529183425e+00
3.808421781659126282e+01 1.625353510677814484e+01 -3.022170585021370925e+00
4.398766019940376282e+01 1.885497553646564484e+01 -3.462966483458870925e+00
1.391014555096626282e+01 7.910029247403144836e+00 -1.277297538146370925e+00
1.381285551190376282e+01 8.023188427090644836e+00 -1.274093192443245925e+00
1.374351957440376282e+01 8.146967723965644836e+00 -1.272948783263558425e+00
1.411986234784126282e+01 8.454829052090644836e+00 -1.304748099669808425e+00
1.152110746502876282e+01 6.515009716153144836e+00 -1.037322562560433425e+00
1.184691312909126282e+01 6.748041942715644836e+00 -1.062194388732308425e+00
3.810374906659126282e+01 1.626122553646564484e+01 -2.840850394591683425e+00
4.395555570721626282e+01 1.884362299740314484e+01 -3.248488944396370925e+00
1.391185453534126282e+01 7.910761669278144836e+00 -1.212478202208870925e+00
1.381432035565376282e+01 8.023798778653144836e+00 -1.209487479552620925e+00
1.374449613690376282e+01 8.147333934903144836e+00 -1.208053153380745925e+00
1.411986234784126282e+01 8.454706981778144836e+00 -1.237655204161995925e+00
1.152171781659126282e+01 6.515497997403144836e+00 -9.850154336541834255e-01
1.184752348065376282e+01 6.748530223965644836e+00 -1.008101981505745925e+00
3.812340238690376282e+01 1.626891596615314484e+01 -2.658507865294808425e+00
2.474095609784126282e+01 1.175585444271564484e+01 -1.825591605529183425e+00
1.391356351971626282e+01 7.911494091153144836e+00 -1.147323172911995925e+00
1.381590726971626282e+01 8.024531200528144836e+00 -1.144561332091683425e+00
1.374535062909126282e+01 8.147822216153144836e+00 -1.143538993224495925e+00
1.411974027752876282e+01 8.454706981778144836e+00 -1.170959037169808425e+00
1.152245023846626282e+01 6.516108348965644836e+00 -9.324489053338709255e-01
1.184825590252876282e+01 6.749018505215644836e+00 -9.540400918573084255e-01
4.852122953534126282e+01 1.998766596615314484e+01 -3.077117484435433425e+00
2.459105375409126282e+01 1.170080073177814484e+01 -1.699203055724495925e+00
1.391527250409126282e+01 7.912348583340644836e+00 -1.082534354552620925e+00
1.381749418377876282e+01 8.025141552090644836e+00 -1.080016654357308425e+00
1.374632719159126282e+01 8.148188427090644836e+00 -1.079055350646370925e+00
1.411961820721626282e+01 8.454584911465644836e+00 -1.103942435607308425e+00
1.152318266034126282e+01 6.516596630215644836e+00 -8.802028115838709255e-01
1.184886625409126282e+01 6.749506786465644836e+00 -8.997035440057459255e-01
5.111400297284126282e+01 2.091576655209064484e+01 -2.979888480529183425e+00
2.421837309002876282e+01 1.156359370052814484e+01 -1.561889212951058425e+00
1.391698148846626282e+01 7.913081005215644836e+00 -1.017440360411995925e+00
1.381895902752876282e+01 8.025873973965644836e+00 -1.015151542052620925e+00
1.374730375409126282e+01 8.148554638028144836e+00 -1.014266532286995925e+00
1.411961820721626282e+01 8.454584911465644836e+00 -1.037353080138558425e+00
1.152391508221626282e+01 6.517084911465644836e+00 -8.276973184198084255e-01
1.184947660565376282e+01 6.749872997403144836e+00 -8.457026895135584255e-01
5.409703519940376282e+01 2.198339350521564484e+01 -2.877517264708870925e+00
4.838536527752876282e+01 2.048034174740314484e+01 -2.612823050841683425e+00
1.391869047284126282e+01 7.913813427090644836e+00 -9.527278359979334255e-01
1.382054594159126282e+01 8.026484325528144836e+00 -9.506678994744959255e-01
1.374815824627876282e+01 8.149042919278144836e+00 -9.498591836541834255e-01
1.411949613690376282e+01 8.454462841153144836e+00 -9.704432900994959255e-01
1.152464750409126282e+01 6.517573192715644836e+00 -7.754970010369959255e-01
1.185008695721626282e+01 6.750361278653144836e+00 -7.914424356073084255e-01
5.330650785565376282e+01 2.170165522396564484e+01 -2.581985038146370925e+00
4.636400297284126282e+01 1.973522455990314484e+01 -2.290923636779183425e+00
1.392039945721626282e+01 7.914667919278144836e+00 -8.876796182244959255e-01
1.382201078534126282e+01 8.027216747403144836e+00 -8.858485635369959255e-01
1.374913480877876282e+01 8.149409130215644836e+00 -8.851314004510584255e-01
1.411937406659126282e+01 8.454462841153144836e+00 -9.039302285760584255e-01
1.152525785565376282e+01 6.518061473965644836e+00 -7.230525430291834255e-01
1.185081937909126282e+01 6.750849559903144836e+00 -7.372126992791834255e-01
4.959373930096626282e+01 2.037462885677814484e+01 -2.183883231505745925e+00
4.643687894940376282e+01 1.976269038021564484e+01 -2.070678275451058425e+00
1.392210844159126282e+01 7.915400341153144836e+00 -8.230128701776209255e-01
1.382359769940376282e+01 8.027949169278144836e+00 -8.214259561151209255e-01
1.375011137127876282e+01 8.149775341153144836e+00 -8.204493936151209255e-01
1.411937406659126282e+01 8.454340770840644836e+00 -8.371119912713709255e-01
1.164317777752876282e+01 6.557856395840644836e+00 -6.744990762323084255e-01
1.197569730877876282e+01 6.794306591153144836e+00 -6.874232705682459255e-01
3.798643949627876282e+01 1.622374995052814484e+01 -1.557357352599495925e+00
4.650841215252876282e+01 1.978978998959064484e+01 -1.848632377013558425e+00
2.963329008221626282e+01 1.389123041927814484e+01 -1.287108939513558425e+00
1.385130766034126282e+01 8.038813427090644836e+00 -7.575679238885584255e-01
1.380296781659126282e+01 8.171137645840644836e+00 -7.579188760369959255e-01
1.419908598065376282e+01 8.487421825528144836e+00 -7.730708535760584255e-01
7.721424847841262817e+00 5.799921825528144836e+00 -1.217452567443245925e+00
7.699574261903762817e+00 5.873164013028144836e+00 -1.218307059630745925e+00
7.679432660341262817e+00 5.947260692715644836e+00 -1.219558280333870925e+00
7.662220746278762817e+00 6.023310497403144836e+00 -1.221221488341683425e+00
7.644886761903762817e+00 6.099360302090644836e+00 -1.222884696349495925e+00
7.627552777528762817e+00 6.175776317715644836e+00 -1.224547904357308425e+00
7.610096722841262817e+00 6.252680614590644836e+00 -1.226241629943245925e+00
7.590321332216262817e+00 6.328608348965644836e+00 -1.227798026427620925e+00
8.175404340028762817e+00 5.988398388028144836e+00 -1.238509696349495925e+00
8.152577191591262817e+00 6.066401317715644836e+00 -1.239593070372933425e+00
8.132069379091262817e+00 6.145747020840644836e+00 -1.240783255919808425e+00
8.108998090028762817e+00 6.224604442715644836e+00 -1.241881888732308425e+00
8.085926800966262817e+00 6.303339794278144836e+00 -1.242980521544808425e+00
8.062733441591262817e+00 6.382319286465644836e+00 -1.244079154357308425e+00
8.037098675966262817e+00 6.460688427090644836e+00 -1.245101493224495925e+00
8.013905316591262817e+00 6.540156200528144836e+00 -1.246200126036995925e+00
8.710438519716262817e+00 6.210444286465644836e+00 -1.264648002013558425e+00
8.663441449403762817e+00 6.284418895840644836e+00 -1.263061087951058425e+00
8.616566449403762817e+00 6.358271434903144836e+00 -1.261489432677620925e+00
8.580067425966262817e+00 6.436762645840644836e+00 -1.261153739318245925e+00
8.556263715028762817e+00 6.520869091153144836e+00 -1.262343924865120925e+00
8.532337933778762817e+00 6.605219677090644836e+00 -1.263549369201058425e+00
8.508290082216262817e+00 6.690180614590644836e+00 -1.264754813536995925e+00
8.484242230653762817e+00 6.775019481778144836e+00 -1.265960257872933425e+00
9.301502972841262817e+00 6.455683544278144836e+00 -1.292037528380745925e+00
9.258656293153762817e+00 6.538447216153144836e+00 -1.291045707091683425e+00
9.212635785341262817e+00 6.619746044278144836e+00 -1.289916556701058425e+00
9.166615277528762817e+00 6.701166942715644836e+00 -1.288787406310433425e+00
9.120838910341262817e+00 6.782099559903144836e+00 -1.287658255919808425e+00
9.072621136903762817e+00 6.861811473965644836e+00 -1.286239188536995925e+00
9.039540082216262817e+00 6.948847606778144836e+00 -1.286605399474495925e+00
9.003163129091262817e+00 7.034174755215644836e+00 -1.286788504943245925e+00
1.002757719159126282e+01 6.757075145840644836e+00 -1.328033011779183425e+00
9.982167035341262817e+00 6.847163036465644836e+00 -1.327315848693245925e+00
9.932606488466262817e+00 6.935419872403144836e+00 -1.326171439513558425e+00
9.875843793153762817e+00 7.020624950528144836e+00 -1.324233573302620925e+00
9.819447308778762817e+00 7.105219677090644836e+00 -1.322295707091683425e+00
9.763172894716262817e+00 7.189570263028144836e+00 -1.320357840880745925e+00
9.706898480653762817e+00 7.273920848965644836e+00 -1.318435233458870925e+00
9.650990277528762817e+00 7.357661083340644836e+00 -1.316512626036995925e+00
1.079723051190376282e+01 7.076533153653144836e+00 -1.361526053771370925e+00
1.074608305096626282e+01 7.173212841153144836e+00 -1.360320609435433425e+00
1.069078519940376282e+01 7.267939403653144836e+00 -1.358932059630745925e+00
1.063536527752876282e+01 7.362788036465644836e+00 -1.357543509826058425e+00
1.057677152752876282e+01 7.455561473965644836e+00 -1.355788749083870925e+00
1.051781156659126282e+01 7.547846630215644836e+00 -1.353988211974495925e+00
1.045885160565376282e+01 7.640131786465644836e+00 -1.352187674865120925e+00
1.039671781659126282e+01 7.730097606778144836e+00 -1.350295585021370925e+00
1.166246488690376282e+01 7.435541942715644836e+00 -1.396544974669808425e+00
1.159727934002876282e+01 7.536494091153144836e+00 -1.394591849669808425e+00
1.151317289471626282e+01 7.628657177090644836e+00 -1.390731376036995925e+00
1.142943266034126282e+01 7.720576122403144836e+00 -1.386901419982308425e+00
1.134642484784126282e+01 7.811518505215644836e+00 -1.383086722716683425e+00
1.126390531659126282e+01 7.901972606778144836e+00 -1.379317801818245925e+00
1.119432523846626282e+01 7.998286083340644836e+00 -1.376830619201058425e+00
1.112584379315376282e+01 8.094111278653144836e+00 -1.374419730529183425e+00
1.266344144940376282e+01 7.850947216153144836e+00 -1.435958426818245925e+00
1.252757719159126282e+01 7.933466747403144836e+00 -1.427810233458870925e+00
1.249376371502876282e+01 8.058588817715644836e+00 -1.428939383849495925e+00
1.245482328534126282e+01 8.182490184903144836e+00 -1.429946463927620925e+00
1.239378812909126282e+01 8.296015575528144836e+00 -1.428817313536995925e+00
1.231187894940376282e+01 8.399531200528144836e+00 -1.425704520568245925e+00
1.222472074627876282e+01 8.500117138028144836e+00 -1.422378104552620925e+00
1.214378812909126282e+01 8.602534130215644836e+00 -1.419295829161995925e+00
1.412328031659126282e+01 8.456782177090644836e+00 -1.505904715880745925e+00
1.405150297284126282e+01 8.583735302090644836e+00 -1.504439872130745925e+00
1.389061430096626282e+01 8.671259716153144836e+00 -1.494948905333870925e+00
1.373155668377876282e+01 8.757685497403144836e+00 -1.485580008849495925e+00
1.357542875409126282e+01 8.842646434903144836e+00 -1.476378959044808425e+00
1.343968656659126282e+01 8.934809520840644836e+00 -1.468963187560433425e+00
1.336424711346626282e+01 9.055048778653144836e+00 -1.466994803771370925e+00
1.328929594159126282e+01 9.174555614590644836e+00 -1.465056937560433425e+00
1.412315824627876282e+01 8.456782177090644836e+00 -1.439010184630745925e+00
1.456908109784126282e+01 8.804560497403144836e+00 -1.481261771544808425e+00
1.489610746502876282e+01 9.112177684903144836e+00 -1.513778251036995925e+00
1.486558988690376282e+01 9.268549755215644836e+00 -1.516204398497933425e+00
1.483519437909126282e+01 9.425288036465644836e+00 -1.518630545958870925e+00
1.480467680096626282e+01 9.582758739590644836e+00 -1.521071952208870925e+00
1.477391508221626282e+01 9.741572216153144836e+00 -1.523543876036995925e+00
1.474303129315376282e+01 9.900507763028144836e+00 -1.526000541076058425e+00
1.412315824627876282e+01 8.456660106778144836e+00 -1.371795218810433425e+00
1.456883695721626282e+01 8.804316356778144836e+00 -1.411483329161995925e+00
1.997459867596626282e+01 1.133959467709064484e+01 -1.846480887755745925e+00
2.038292387127876282e+01 1.175475580990314484e+01 -1.885497611388558425e+00
1.613182523846626282e+01 1.002501948177814484e+01 -1.550674002990120925e+00
1.611583402752876282e+01 1.020507319271564484e+01 -1.554549735411995925e+00
1.609801176190376282e+01 1.038634760677814484e+01 -1.558333915099495925e+00
1.607017973065376282e+01 1.056322748959064484e+01 -1.561309378966683425e+00
1.412303617596626282e+01 8.456660106778144836e+00 -1.304992240294808425e+00
1.456859281659126282e+01 8.804194286465644836e+00 -1.342132132872933425e+00
2.095921781659126282e+01 1.177123530209064484e+01 -1.823089164122933425e+00
2.094029691815376282e+01 1.200548823177814484e+01 -1.827895682677620925e+00
1.655431059002876282e+01 1.022020991146564484e+01 -1.504226249083870925e+00
1.655516508221626282e+01 1.041332514584064484e+01 -1.509215873107308425e+00
1.710106351971626282e+01 1.087450678646564484e+01 -1.555617850646370925e+00
1.867796781659126282e+01 1.186559565365314484e+01 -1.680923026427620925e+00
1.412291410565376282e+01 8.456538036465644836e+00 -1.237884085997933425e+00
1.456834867596626282e+01 8.803950145840644836e+00 -1.272460502013558425e+00
3.376915434002876282e+01 1.738964350521564484e+01 -2.612639945372933425e+00
2.260960844159126282e+01 1.275744135677814484e+01 -1.842406791076058425e+00
1.655577543377876282e+01 1.022057612240314484e+01 -1.424010794982308425e+00
1.655418851971626282e+01 1.041247065365314484e+01 -1.428466361388558425e+00
1.709972074627876282e+01 1.087353022396564484e+01 -1.471221488341683425e+00
2.259691312909126282e+01 1.382274897396564484e+01 -1.866302054747933425e+00
1.412291410565376282e+01 8.456538036465644836e+00 -1.171157401427620925e+00
1.456810453534126282e+01 8.803828075528144836e+00 -1.203200858458870925e+00
3.378319242596626282e+01 1.739538080990314484e+01 -2.446639579161995925e+00
4.620030668377876282e+01 2.338683588802814484e+01 -3.259734671935433425e+00
1.655736234784126282e+01 1.022094233334064484e+01 -1.343413871154183425e+00
1.655321195721626282e+01 1.041173823177814484e+01 -1.347335379943245925e+00
1.709850004315376282e+01 1.087243159115314484e+01 -1.387343924865120925e+00
2.597984769940376282e+01 1.551195795834064484e+01 -1.976623099669808425e+00
1.412279203534126282e+01 8.456415966153144836e+00 -1.104140799865120925e+00
1.456786039471626282e+01 8.803583934903144836e+00 -1.134002250060433425e+00
3.379796293377876282e+01 1.740160639584064484e+01 -2.281554740294808425e+00
4.156969144940376282e+01 2.129979975521564484e+01 -2.753737967833870925e+00
1.655882719159126282e+01 1.022143061459064484e+01 -1.263289969786995925e+00
1.655211332440376282e+01 1.041088373959064484e+01 -1.266707938536995925e+00
1.709715726971626282e+01 1.087133295834064484e+01 -1.303542655333870925e+00
2.366698148846626282e+01 1.435583002865314484e+01 -1.705825370177620925e+00
1.412266996502876282e+01 8.456415966153144836e+00 -1.037520926818245925e+00
1.456761625409126282e+01 8.803339794278144836e+00 -1.064483207091683425e+00
3.381273344159126282e+01 1.740770991146564484e+01 -2.115554374083870925e+00
4.159837797284126282e+01 2.131212885677814484e+01 -2.548354667052620925e+00
1.656029203534126282e+01 1.022179682552814484e+01 -1.182784598693245925e+00
1.655113676190376282e+01 1.041002924740314484e+01 -1.185729544982308425e+00
1.709593656659126282e+01 1.087023432552814484e+01 -1.219359916076058425e+00
2.361681059002876282e+01 1.433007319271564484e+01 -1.585265677794808425e+00
1.412266996502876282e+01 8.456293895840644836e+00 -9.705958779901209255e-01
1.456737211346626282e+01 8.803217723965644836e+00 -9.953761514276209255e-01
3.384349516034126282e+01 1.742089350521564484e+01 -1.951186698302620925e+00
4.264452055096626282e+01 2.178283198177814484e+01 -2.394439261779183425e+00
1.656187894940376282e+01 1.022216303646564484e+01 -1.102736991271370925e+00
1.655016019940376282e+01 1.040917475521564484e+01 -1.105239432677620925e+00
1.709471586346626282e+01 1.086913569271564484e+01 -1.135711234435433425e+00
2.446580961346626282e+01 1.475329096615314484e+01 -1.509994071349495925e+00
1.412254789471626282e+01 8.456293895840644836e+00 -9.040675576776209255e-01
1.456712797284126282e+01 8.802973583340644836e+00 -9.259639199823084255e-01
3.387205961346626282e+01 1.743297846615314484e+01 -1.785644095763558425e+00
4.404893949627876282e+01 2.241491205990314484e+01 -2.244948905333870925e+00
1.656334379315376282e+01 1.022252924740314484e+01 -1.022307914122933425e+00
1.654918363690376282e+01 1.040832026302814484e+01 -1.024383109435433425e+00
1.709337309002876282e+01 1.086815913021564484e+01 -1.051681083068245925e+00
2.419212797284126282e+01 1.461596186459064484e+01 -1.375899833068245925e+00
1.412242582440376282e+01 8.456171825528144836e+00 -8.372493203729334255e-01
1.456688383221626282e+01 8.802851513028144836e+00 -8.565974649041834255e-01
3.390880277752876282e+01 1.744872553646564484e+01 -1.621139090880745925e+00
4.252623441815376282e+01 2.172826655209064484e+01 -1.966842215880745925e+00
1.656480863690376282e+01 1.022289545834064484e+01 -9.423366006463709255e-01
1.654820707440376282e+01 1.040746577084064484e+01 -9.440303262323084255e-01
1.709215238690376282e+01 1.086706049740314484e+01 -9.677119668573084255e-01
2.227281644940376282e+01 1.365661127865314484e+01 -1.178039115294808425e+00
1.420201566815376282e+01 8.489252880215644836e+00 -7.731776650994959255e-01
1.462437894940376282e+01 8.827265575528144836e+00 -7.896266397088709255e-01
2.562450101971626282e+01 1.381554682552814484e+01 -1.169463675841683425e+00
4.262254789471626282e+01 2.177111323177814484e+01 -1.758956473693245925e+00
1.657225492596626282e+01 1.022606928646564484e+01 -8.621974404901209255e-01
1.656956937909126282e+01 1.041723139584064484e+01 -8.640895303338709255e-01
1.710130766034126282e+01 1.087108881771564484e+01 -8.846431192010584255e-01
2.267625883221626282e+01 1.385741694271564484e+01 -1.081267875060433425e+00
7.590199261903762817e+00 6.328852489590644836e+00 -1.227798026427620925e+00
7.572010785341262817e+00 6.405878856778144836e+00 -1.229461234435433425e+00
7.548817425966262817e+00 6.480830028653144836e+00 -1.230636161193245925e+00
7.523426800966262817e+00 6.555170848965644836e+00 -1.231566947326058425e+00
7.497914105653762817e+00 6.629511669278144836e+00 -1.232497733458870925e+00
7.472523480653762817e+00 6.704096630215644836e+00 -1.233428519591683425e+00
7.446766644716262817e+00 6.779291942715644836e+00 -1.234374564513558425e+00
7.419056683778762817e+00 6.853144481778144836e+00 -1.235213797911995925e+00
8.013783246278762817e+00 6.540400341153144836e+00 -1.246200126036995925e+00
7.987904340028762817e+00 6.618769481778144836e+00 -1.247207206115120925e+00
7.964222699403762817e+00 6.698725536465644836e+00 -1.248321097716683425e+00
7.938099652528762817e+00 6.777949169278144836e+00 -1.249343436583870925e+00
7.911854535341262817e+00 6.857294872403144836e+00 -1.250350516661995925e+00
7.882923871278762817e+00 6.935297802090644836e+00 -1.251037162169808425e+00
7.847645550966262817e+00 7.010371044278144836e+00 -1.251098197326058425e+00
7.814564496278762817e+00 7.086420848965644836e+00 -1.251266044005745925e+00
8.484120160341262817e+00 6.775263622403144836e+00 -1.265960257872933425e+00
8.457386761903762817e+00 6.859125927090644836e+00 -1.267058890685433425e+00
8.427235394716262817e+00 6.941523388028144836e+00 -1.267760794982308425e+00
8.392689496278762817e+00 7.022333934903144836e+00 -1.267928641661995925e+00
8.358265668153762817e+00 7.102900341153144836e+00 -1.268111747130745925e+00
8.323719769716262817e+00 7.183588817715644836e+00 -1.268294852599495925e+00
8.288929730653762817e+00 7.264765575528144836e+00 -1.268477958068245925e+00
8.254383832216262817e+00 7.345820263028144836e+00 -1.268645804747933425e+00
9.002674847841262817e+00 7.034296825528144836e+00 -1.286757987365120925e+00
8.969593793153762817e+00 7.121332958340644836e+00 -1.287078421935433425e+00
8.933583050966262817e+00 7.207148388028144836e+00 -1.287276786193245925e+00
8.897328168153762817e+00 7.293452098965644836e+00 -1.287490409240120925e+00
8.861073285341262817e+00 7.379511669278144836e+00 -1.287704032286995925e+00
8.824818402528762817e+00 7.465815380215644836e+00 -1.287917655333870925e+00
8.788319379091262817e+00 7.552607372403144836e+00 -1.288116019591683425e+00
8.749012738466262817e+00 7.637690380215644836e+00 -1.288222831115120925e+00
9.650624066591262817e+00 7.357905223965644836e+00 -1.316482108458870925e+00
9.596546918153762817e+00 7.442377880215644836e+00 -1.314940970763558425e+00
9.554066449403762817e+00 7.532709911465644836e+00 -1.314696830138558425e+00
9.511341840028762817e+00 7.623408153653144836e+00 -1.314452689513558425e+00
9.468739300966262817e+00 7.713984325528144836e+00 -1.314208548888558425e+00
9.426014691591262817e+00 7.804560497403144836e+00 -1.313964408263558425e+00
9.383168011903762817e+00 7.895624950528144836e+00 -1.313720267638558425e+00
9.331898480653762817e+00 7.981562450528144836e+00 -1.312499564513558425e+00
1.039647367596626282e+01 7.730463817715644836e+00 -1.350295585021370925e+00
1.033946684002876282e+01 7.822626903653144836e+00 -1.348556083068245925e+00
1.027989652752876282e+01 7.913447216153144836e+00 -1.346786063536995925e+00
1.022862699627876282e+01 8.008906200528144836e+00 -1.345962088927620925e+00
1.017760160565376282e+01 8.103998973965644836e+00 -1.345122855529183425e+00
1.012657621502876282e+01 8.199213817715644836e+00 -1.344283622130745925e+00
1.007274320721626282e+01 8.293330028653144836e+00 -1.343169730529183425e+00
1.001207426190376282e+01 8.382685497403144836e+00 -1.341537040099495925e+00
1.112547758221626282e+01 8.094477489590644836e+00 -1.374404471740120925e+00
1.106456449627876282e+01 8.193842723965644836e+00 -1.372893851622933425e+00
1.100963285565376282e+01 8.296137645840644836e+00 -1.371993583068245925e+00
1.095470121502876282e+01 8.398920848965644836e+00 -1.371093314513558425e+00
1.089976957440376282e+01 8.501459911465644836e+00 -1.370208304747933425e+00
1.084496000409126282e+01 8.603876903653144836e+00 -1.369308036193245925e+00
1.078990629315376282e+01 8.706660106778144836e+00 -1.368407767638558425e+00
1.073497465252876282e+01 8.809077098965644836e+00 -1.367522757872933425e+00
1.214305570721626282e+01 8.602656200528144836e+00 -1.419234794005745925e+00
1.206065824627876282e+01 8.703730419278144836e+00 -1.416091483458870925e+00
1.198387601971626282e+01 8.807246044278144836e+00 -1.413161795958870925e+00
1.190172269940376282e+01 8.907831981778144836e+00 -1.410033744201058425e+00
1.183397367596626282e+01 9.015497997403144836e+00 -1.408278983458870925e+00
1.176610258221626282e+01 9.122797802090644836e+00 -1.406508963927620925e+00
1.169261625409126282e+01 9.227167919278144836e+00 -1.404510062560433425e+00
1.162498930096626282e+01 9.334101513028144836e+00 -1.402755301818245925e+00
1.328917387127876282e+01 9.175043895840644836e+00 -1.465056937560433425e+00
1.321312406659126282e+01 9.293696239590644836e+00 -1.463058036193245925e+00
1.313707426190376282e+01 9.412104442715644836e+00 -1.461059134826058425e+00
1.306090238690376282e+01 9.530756786465644836e+00 -1.459060233458870925e+00
1.298509672284126282e+01 9.648920848965644836e+00 -1.457076590880745925e+00
1.290941312909126282e+01 9.766840770840644836e+00 -1.455092948302620925e+00
1.283360746502876282e+01 9.885004833340644836e+00 -1.453109305724495925e+00
1.275816801190376282e+01 1.000255854427814484e+01 -1.451125663146370925e+00
1.474327543377876282e+01 9.901240184903144836e+00 -1.526046317443245925e+00
1.462242582440376282e+01 1.001513178646564484e+01 -1.520751517638558425e+00
1.449889066815376282e+01 1.012645991146564484e+01 -1.515182059630745925e+00
1.437584379315376282e+01 1.023742182552814484e+01 -1.509643119201058425e+00
1.425413969159126282e+01 1.034716303646564484e+01 -1.504165213927620925e+00
1.413341215252876282e+01 1.045617182552814484e+01 -1.498733085021370925e+00
1.403197172284126282e+01 1.057580073177814484e+01 -1.494994681701058425e+00
1.393834379315376282e+01 1.069872553646564484e+01 -1.491912406310433425e+00
1.606993559002876282e+01 1.056371577084064484e+01 -1.561309378966683425e+00
1.604271391034126282e+01 1.074218256771564484e+01 -1.564345877990120925e+00
1.600816801190376282e+01 1.091808588802814484e+01 -1.566833060607308425e+00
1.588658598065376282e+01 1.104906733334064484e+01 -1.562194388732308425e+00
1.576598051190376282e+01 1.117895014584064484e+01 -1.557586234435433425e+00
1.564598539471626282e+01 1.130822260677814484e+01 -1.553008597716683425e+00
1.552623441815376282e+01 1.143725092709064484e+01 -1.548446219786995925e+00
1.540746000409126282e+01 1.156518061459064484e+01 -1.543914359435433425e+00
1.867430570721626282e+01 1.186449702084064484e+01 -1.680663627013558425e+00
1.763707426190376282e+01 1.155822260677814484e+01 -1.607009452208870925e+00
1.754820707440376282e+01 1.172570307552814484e+01 -1.605575126036995925e+00
1.745897367596626282e+01 1.189379389584064484e+01 -1.604125541076058425e+00
1.734532621502876282e+01 1.204784663021564484e+01 -1.600783866271370925e+00
1.722960355877876282e+01 1.220006830990314484e+01 -1.597259085997933425e+00
1.711388090252876282e+01 1.235241205990314484e+01 -1.593734305724495925e+00
1.701329496502876282e+01 1.251220209896564484e+01 -1.591353934630745925e+00
2.259691312909126282e+01 1.382372553646564484e+01 -1.866317313536995925e+00
1.931334379315376282e+01 1.241601069271564484e+01 -1.638549369201058425e+00
