1.315058538317680359e+01 5.986436173319816589e+00 -1.547848366573447265e+00
1.308491155505180359e+01 6.098374649882316589e+00 -1.545681618526572265e+00
1.301948186755180359e+01 6.209946915507316589e+00 -1.543530129268759765e+00
1.068574163317680359e+01 5.701890274882316589e+00 -1.310787819698447265e+00
8.591991633176803589e+00 4.573350235819816589e+00 -1.043072365596884765e+00
8.770092219114303589e+00 4.689072892069816589e+00 -1.062389992550009765e+00
1.341413518786430359e+01 5.789780899882316589e+00 -1.506466530635947265e+00
1.334638616442680359e+01 5.904526993632316589e+00 -1.504376076534384765e+00
1.327912542223930359e+01 6.018174454569816589e+00 -1.502316140010947265e+00
1.321247503161430359e+01 6.131089493632316589e+00 -1.500271462276572265e+00
1.314594671130180359e+01 6.243760392069816589e+00 -1.498242043331259765e+00
1.068708440661430359e+01 5.702744767069816589e+00 -1.264767311885947265e+00
8.593212336301803589e+00 4.574204728007316589e+00 -1.007488869503134765e+00
8.771312922239303589e+00 4.689927384257316589e+00 -1.026074074581259765e+00
1.354694768786430359e+01 5.819810196757316589e+00 -1.459988259151572265e+00
1.347797796130180359e+01 5.935654923319816589e+00 -1.458035134151572265e+00
1.340974065661430359e+01 6.050401017069816589e+00 -1.456097267940634765e+00
1.406110784411430359e+01 6.345078751444816589e+00 -1.519863747432822265e+00
1.420832464098930359e+01 6.522813126444816589e+00 -1.537899636104697265e+00
1.068830510973930359e+01 5.703477188944816589e+00 -1.218517922237509765e+00
8.594433039426803589e+00 4.574937149882316589e+00 -9.721189964562597652e-01
8.772533625364303589e+00 4.690659806132316589e+00 -9.897734154015722652e-01
1.387714788317680359e+01 5.893174454569816589e+00 -1.428875588253134765e+00
1.401887151598930359e+01 6.060899063944816589e+00 -1.445294045284384765e+00
1.416376897692680359e+01 6.232651993632316589e+00 -1.462109230831259765e+00
1.431281682848930359e+01 6.409165665507316589e+00 -1.479397438839072265e+00
1.446503850817680359e+01 6.590806290507316589e+00 -1.497433327510947265e+00
1.068952581286430359e+01 5.704331681132316589e+00 -1.172527932003134765e+00
8.595653742551803589e+00 4.575791642069816589e+00 -9.365660179406347652e-01
8.773754328489303589e+00 4.691514298319816589e+00 -9.533049095421972652e-01
1.448640081286430359e+01 6.027940079569816589e+00 -1.417538307979697265e+00
1.457563421130180359e+01 6.190049454569816589e+00 -1.429104470089072265e+00
1.466633245348930359e+01 6.354478165507316589e+00 -1.440838478878134765e+00
1.475861760973930359e+01 6.522080704569816589e+00 -1.452786110714072265e+00
1.491669866442680359e+01 6.709946915507316589e+00 -1.470226906612509765e+00
1.069086858630180359e+01 5.705186173319816589e+00 -1.126309059932822265e+00
8.596874445676803589e+00 4.576524063944816589e+00 -9.012114036828222652e-01
8.774975031614303589e+00 4.692246720194816589e+00 -9.170195091515722652e-01
2.328742620348930359e+01 7.963975235819816589e+00 -2.024029396846884765e+00
2.472358343005180359e+01 8.529038712382316589e+00 -2.140682839229697265e+00
4.829096624255180359e+01 1.445738343894481659e+01 -3.956478737667197265e+00
4.899787542223930359e+01 1.513572816550731659e+01 -4.025662087276572265e+00
7.456733343005180359e+01 2.235289125144481659e+01 -6.018810890987509765e+00
1.069208928942680359e+01 5.706040665507316589e+00 -1.080364846065634765e+00
8.598095148801803589e+00 4.577256485819816589e+00 -8.656736839562597652e-01
8.776195734739303589e+00 4.693101212382316589e+00 -8.805662620812597652e-01
2.336945745348930359e+01 7.983506485819816589e+00 -1.924435280635947265e+00
2.475288030505180359e+01 8.537339493632316589e+00 -2.030254982784384765e+00
1.443684026598930359e+01 6.300889298319816589e+00 -1.294872902706259765e+00
4.902009221911430359e+01 1.514402894675731659e+01 -3.798275612667197265e+00
6.317170354723930359e+01 1.936790589988231659e+01 -4.839840554073447265e+00
1.069330999255180359e+01 5.706773087382316589e+00 -1.034176491573447265e+00
8.599315851926803589e+00 4.578110978007316589e+00 -8.303495872765722652e-01
8.777416437864303589e+00 4.693833634257316589e+00 -8.443113792687597652e-01
2.368684026598930359e+01 8.054795548319816589e+00 -1.840389870479697265e+00
6.307148382067680359e+01 1.737266664206981659e+01 -4.483608864620322265e+00
1.442084905505180359e+01 6.297837540507316589e+00 -1.230389260128134765e+00
4.904218694567680359e+01 1.515220765769481659e+01 -3.572033547237509765e+00
8.587202093005180359e+01 2.532640199363231659e+01 -6.083645485714072265e+00
1.069465276598930359e+01 5.707627579569816589e+00 -9.882627952843847652e-01
8.600536555051803589e+00 4.578843399882316589e+00 -7.948423851281347652e-01
8.778637140989303589e+00 4.694688126444816589e+00 -8.078733909875097652e-01
2.366621038317680359e+01 8.051743790507316589e+00 -1.732479714229697265e+00
4.353254339098930359e+01 1.287083558738231659e+01 -2.974926613643759765e+00
1.440497991442680359e+01 6.294785782694816589e+00 -1.166119240596884765e+00
4.795759221911430359e+01 1.488194398581981659e+01 -3.276257180050009765e+00
6.389289495348930359e+01 1.956382875144481659e+01 -4.292660378292197265e+00
1.069587346911430359e+01 5.708482071757316589e+00 -9.421202171593847652e-01
8.601757258176803589e+00 4.579697892069816589e+00 -7.595335472375097652e-01
8.779857844114303589e+00 4.695420548319816589e+00 -7.716490257531347652e-01
2.364558050036430359e+01 8.048692032694816589e+00 -1.624264382198447265e+00
4.351435491442680359e+01 1.286937074363231659e+01 -2.772350930050009765e+00
1.438911077380180359e+01 6.291734024882316589e+00 -1.101681374385947265e+00
1.428498479723930359e+01 6.406602188944816589e+00 -1.099194191768759765e+00
6.337348577380180359e+01 1.943077211081981659e+01 -3.963711403682822265e+00
1.069709417223930359e+01 5.709336563944816589e+00 -8.962370384484472652e-01
8.602977961301803589e+00 4.580430313944816589e+00 -7.240416038781347652e-01
8.781078547239303589e+00 4.696275040507316589e+00 -7.354246605187597652e-01
2.362507268786430359e+01 8.045640274882316589e+00 -1.516873024776572265e+00
4.824934026598930359e+01 1.396446351706981659e+01 -2.821941994503134765e+00
1.437324163317680359e+01 6.288682267069816589e+00 -1.037792824581259765e+00
1.426948186755180359e+01 6.403550431132316589e+00 -1.035656594112509765e+00
6.377460882067680359e+01 1.953941468894481659e+01 -3.689175270870322265e+00
1.069843694567680359e+01 5.710191056132316589e+00 -8.501249779015722652e-01
8.604076594114303589e+00 4.581284806132316589e+00 -6.887632835656347652e-01
8.782299250364303589e+00 4.697007462382316589e+00 -6.990324486046972652e-01
2.360444280505180359e+01 8.042588517069816589e+00 -1.409191750362509765e+00
4.986518499255180359e+01 1.434031800925731659e+01 -2.675915383175009765e+00
1.435749456286430359e+01 6.285630509257316589e+00 -9.737516868859472652e-01
1.425385686755180359e+01 6.400254532694816589e+00 -9.719664085656347652e-01
6.211213323473930359e+01 1.910618714988231659e+01 -3.308773659542197265e+00
1.069965764880180359e+01 5.710923478007316589e+00 -8.042875755578222652e-01
8.605297297239303589e+00 4.582017228007316589e+00 -6.532865989953222652e-01
8.783519953489303589e+00 4.697861954569816589e+00 -6.628386009484472652e-01
2.358405706286430359e+01 8.039658829569816589e+00 -1.302334450557822265e+00
1.471686956286430359e+01 6.229478165507316589e+00 -9.234129417687597652e-01
1.434174749255180359e+01 6.282700821757316589e+00 -9.102446068078222652e-01
1.423835393786430359e+01 6.397202774882316589e+00 -9.088102806359472652e-01
6.216267034411430359e+01 1.912278871238231659e+01 -3.021359108760947265e+00
1.070100042223930359e+01 5.711777970194816589e+00 -7.582060325890722652e-01
8.606518000364303589e+00 4.582871720194816589e+00 -6.180235374718847652e-01
8.784740656614303589e+00 4.698594376444816589e+00 -6.264616478234472652e-01
2.356354925036430359e+01 8.036607071757316589e+00 -1.195171974971884765e+00
1.462617132067680359e+01 6.209336563944816589e+00 -8.552519310265722652e-01
1.432600042223930359e+01 6.279649063944816589e+00 -8.465849388390722652e-01
6.357221624255180359e+01 1.883006410300731659e+01 -2.771496437862509765e+00
4.770747014880180359e+01 1.532920961081981659e+01 -2.162716530635947265e+00
1.070222112536430359e+01 5.712632462382316589e+00 -7.123991478234472652e-01
8.607738703489303589e+00 4.583604142069816589e+00 -5.825773704796972652e-01
8.785961359739303589e+00 4.699448868632316589e+00 -5.900999534875097652e-01
1.469794866442680359e+01 6.083482071757316589e+00 -7.909819114953222652e-01
1.401545354723930359e+01 6.069077774882316589e+00 -7.707029808312597652e-01
1.431037542223930359e+01 6.276719376444816589e+00 -7.834593284875097652e-01
6.353644964098930359e+01 1.882457093894481659e+01 -2.474774025753134765e+00
4.715302678942680359e+01 1.518602113425731659e+01 -1.921368264034384765e+00
1.070344182848930359e+01 5.713486954569816589e+00 -6.663481224328222652e-01
8.642772883176803589e+00 4.591172501444816589e+00 -5.481077659875097652e-01
8.823681086301803589e+00 4.707871720194816589e+00 -5.549894798546972652e-01
1.422297307848930359e+01 5.979600235819816589e+00 -7.128721702843847652e-01
1.403486272692680359e+01 6.074448868632316589e+00 -7.099882591515722652e-01
1.385187932848930359e+01 6.166734024882316589e+00 -7.071806419640722652e-01
4.716730901598930359e+01 1.470115785300731659e+01 -1.694302223995322265e+00
4.767927190661430359e+01 1.532676820456981659e+01 -1.718762062862509765e+00
1.074750921130180359e+01 5.725938126444816589e+00 -6.216093529015722652e-01
8.407177180051803589e+00 5.079331681132316589e+00 -1.220913552120322265e+00
8.392040461301803589e+00 5.154404923319816589e+00 -1.222225807979697265e+00
8.378490656614303589e+00 5.230088517069816589e+00 -1.223919533565634765e+00
8.364696711301803589e+00 5.306138321757316589e+00 -1.225613259151572265e+00
8.351024836301803589e+00 5.382188126444816589e+00 -1.227306984737509765e+00
8.337352961301803589e+00 5.458482071757316589e+00 -1.229000710323447265e+00
8.323436945676803589e+00 5.535142228007316589e+00 -1.230709694698447265e+00
8.306835383176803589e+00 5.610825821757316589e+00 -1.232250832393759765e+00
8.952343195676803589e+00 5.228257462382316589e+00 -1.248684548214072265e+00
8.940014094114303589e+00 5.310044571757316589e+00 -1.250713967159384765e+00
8.930614680051803589e+00 5.392808243632316589e+00 -1.252880715206259765e+00
8.918163508176803589e+00 5.475327774882316589e+00 -1.254925392940634765e+00
8.905712336301803589e+00 5.557847306132316589e+00 -1.256970070675009765e+00
8.893261164426803589e+00 5.640610978007316589e+00 -1.259014748409384765e+00
8.877758234739303589e+00 5.722886368632316589e+00 -1.260937355831259765e+00
8.845531672239303589e+00 5.799302384257316589e+00 -1.260647438839072265e+00
1.019660589098930359e+01 5.567857071757316589e+00 -1.348995827510947265e+00
1.000471135973930359e+01 5.612168595194816589e+00 -1.331432961300009765e+00
9.516674250364303589e+00 5.565659806132316589e+00 -1.280529640987509765e+00
9.504223078489303589e+00 5.654526993632316589e+00 -1.282772682979697265e+00
9.490429133176803589e+00 5.743027970194816589e+00 -1.284847878292197265e+00
9.449901789426803589e+00 5.822984024882316589e+00 -1.283917092159384765e+00
9.409496515989303589e+00 5.903062149882316589e+00 -1.282986306026572265e+00
9.369213312864303589e+00 5.982529923319816589e+00 -1.282055519893759765e+00
1.057795354723930359e+01 5.672349259257316589e+00 -1.345745705440634765e+00
1.037336370348930359e+01 5.717026993632316589e+00 -1.327511452510947265e+00
1.024592229723930359e+01 5.780625626444816589e+00 -1.317684792354697265e+00
1.019489690661430359e+01 5.865708634257316589e+00 -1.315991066768759765e+00
1.014435979723930359e+01 5.950059220194816589e+00 -1.314312599971884765e+00
1.009394475817680359e+01 6.034043595194816589e+00 -1.312649391964072265e+00
1.005500432848930359e+01 6.121690079569816589e+00 -1.312222145870322265e+00
1.001691839098930359e+01 6.209092423319816589e+00 -1.312100075557822265e+00
1.068537542223930359e+01 5.702134415507316589e+00 -1.310757302120322265e+00
1.062385198473930359e+01 5.788438126444816589e+00 -1.308254860714072265e+00
1.057160589098930359e+01 5.876817032694816589e+00 -1.306698464229697265e+00
1.074445745348930359e+01 6.033799454569816589e+00 -1.328259133175009765e+00
1.101105901598930359e+01 6.224473282694816589e+00 -1.359661721065634765e+00
1.129462835192680359e+01 6.427354142069816589e+00 -1.393063210323447265e+00
1.124518987536430359e+01 6.524766251444816589e+00 -1.392071389034384765e+00
1.108759710192680359e+01 6.583726212382316589e+00 -1.379772805050009765e+00
1.068671819567680359e+01 5.702988907694816589e+00 -1.264736794307822265e+00
1.062507268786430359e+01 5.789292618632316589e+00 -1.262142800167197265e+00
1.057282659411430359e+01 5.877671524882316589e+00 -1.260693215206259765e+00
1.074543401598930359e+01 6.034531876444816589e+00 -1.281246804073447265e+00
1.101203557848930359e+01 6.225205704569816589e+00 -1.311199807003134765e+00
1.129560491442680359e+01 6.427964493632316589e+00 -1.343044899776572265e+00
1.159870550036430359e+01 6.644761368632316589e+00 -1.377102516964072265e+00
1.143110296130180359e+01 6.704087540507316589e+00 -1.364834450557822265e+00
1.068793889880180359e+01 5.703843399882316589e+00 -1.218487404659384765e+00
1.062641546130180359e+01 5.790025040507316589e+00 -1.216290139034384765e+00
1.057404729723930359e+01 5.878403946757316589e+00 -1.214947365596884765e+00
1.074628850817680359e+01 6.035142228007316589e+00 -1.234493874385947265e+00
1.101289007067680359e+01 6.225816056132316589e+00 -1.262997292354697265e+00
1.129645940661430359e+01 6.428574845194816589e+00 -1.293316506221884765e+00
1.159955999255180359e+01 6.645371720194816589e+00 -1.325741432979697265e+00
1.380952093005180359e+01 7.535996720194816589e+00 -1.538845681026572265e+00
1.068928167223930359e+01 5.704575821757316589e+00 -1.172512673214072265e+00
1.062763616442680359e+01 5.790879532694816589e+00 -1.170467995479697265e+00
1.057539007067680359e+01 5.879136368632316589e+00 -1.168972634151572265e+00
1.074726507067680359e+01 6.035874649882316589e+00 -1.187512062862509765e+00
1.101386663317680359e+01 6.226426407694816589e+00 -1.214581154659384765e+00
1.129731389880180359e+01 6.429185196757316589e+00 -1.243359230831259765e+00
1.160041448473930359e+01 6.645982071757316589e+00 -1.274395607784384765e+00
1.510163518786430359e+01 7.988145157694816589e+00 -1.592404030635947265e+00
1.069050237536430359e+01 5.705430313944816589e+00 -1.126293801143759765e+00
1.062897893786430359e+01 5.791734024882316589e+00 -1.124401711300009765e+00
1.057661077380180359e+01 5.879990860819816589e+00 -1.123257302120322265e+00
1.074824163317680359e+01 6.036485001444816589e+00 -1.140804909542197265e+00
1.101472112536430359e+01 6.227158829569816589e+00 -1.166424416378134765e+00
1.129816839098930359e+01 6.429795548319816589e+00 -1.193676613643759765e+00
1.160114690661430359e+01 6.646470353007316589e+00 -1.222805641964072265e+00
1.531403753161430359e+01 8.062852188944816589e+00 -1.541409157589072265e+00
1.069172307848930359e+01 5.706284806132316589e+00 -1.080349587276572265e+00
1.063019964098930359e+01 5.792466446757316589e+00 -1.078610085323447265e+00
1.057783147692680359e+01 5.880723282694816589e+00 -1.077572487667197265e+00
1.074921819567680359e+01 6.037217423319816589e+00 -1.094128273800009765e+00
1.101569768786430359e+01 6.227769181132316589e+00 -1.118313454464072265e+00
1.129902288317680359e+01 6.430405899882316589e+00 -1.144024514034384765e+00
1.160200139880180359e+01 6.647080704569816589e+00 -1.171520851925009765e+00
1.861628362536430359e+01 9.218125626444816589e+00 -1.735775612667197265e+00
1.069306585192680359e+01 5.707139298319816589e+00 -1.034161232784384765e+00
1.063142034411430359e+01 5.793320938944816589e+00 -1.032589577510947265e+00
1.057905218005180359e+01 5.881577774882316589e+00 -1.031658791378134765e+00
1.075007268786430359e+01 6.037827774882316589e+00 -1.047207497432822265e+00
1.101655218005180359e+01 6.228379532694816589e+00 -1.069943093135947265e+00
1.129987737536430359e+01 6.431016251444816589e+00 -1.094128273800009765e+00
1.160285589098930359e+01 6.647691056132316589e+00 -1.119976662471884765e+00
3.772651311755180359e+01 1.590269593894481659e+01 -3.083660744503134765e+00
1.069428655505180359e+01 5.707871720194816589e+00 -9.882475364953222652e-01
1.063276311755180359e+01 5.794053360819816589e+00 -9.868132103234472652e-01
1.058027288317680359e+01 5.882310196757316589e+00 -9.860044945031347652e-01
1.075104925036430359e+01 6.038560196757316589e+00 -1.000561379268759765e+00
1.101752874255180359e+01 6.229111954569816589e+00 -1.021877907589072265e+00
1.130085393786430359e+01 6.431626603007316589e+00 -1.044521950557822265e+00
1.160371038317680359e+01 6.648301407694816589e+00 -1.068737648800009765e+00
3.773176214098930359e+01 1.590538148581981659e+01 -2.905178688839072265e+00
1.069550725817680359e+01 5.708726212382316589e+00 -9.421049583703222652e-01
1.063398382067680359e+01 5.794907853007316589e+00 -9.408232200890722652e-01
1.058161565661430359e+01 5.883042618632316589e+00 -9.403654564171972652e-01
1.075202581286430359e+01 6.039170548319816589e+00 -9.539457786828222652e-01
1.101838323473930359e+01 6.229722306132316589e+00 -9.738127220421972652e-01
1.130170843005180359e+01 6.432359024882316589e+00 -9.949461448937597652e-01
1.160444280505180359e+01 6.648911759257316589e+00 -1.017254494503134765e+00
3.773688909411430359e+01 1.590818910300731659e+01 -2.725811623409384765e+00
1.069685003161430359e+01 5.709580704569816589e+00 -8.962217796593847652e-01
1.063532659411430359e+01 5.795762345194816589e+00 -8.951078880578222652e-01
1.058283635973930359e+01 5.883897110819816589e+00 -8.944975364953222652e-01
1.075300237536430359e+01 6.039902970194816589e+00 -9.071012962609472652e-01
1.101935979723930359e+01 6.230332657694816589e+00 -9.255186546593847652e-01
1.130256292223930359e+01 6.432969376444816589e+00 -9.451261986046972652e-01
1.160529729723930359e+01 6.649522110819816589e+00 -9.660612571984472652e-01
3.774213811755180359e+01 1.591099672019481659e+01 -2.547482155635947265e+00
1.069807073473930359e+01 5.710435196757316589e+00 -8.501249779015722652e-01
1.063654729723930359e+01 5.796494767069816589e+00 -8.493925560265722652e-01
1.058405706286430359e+01 5.884629532694816589e+00 -8.488890159875097652e-01
1.075385686755180359e+01 6.040513321757316589e+00 -8.605162132531347652e-01
1.102021428942680359e+01 6.231065079569816589e+00 -8.775145042687597652e-01
1.130341741442680359e+01 6.433579728007316589e+00 -8.955809105187597652e-01
1.160615178942680359e+01 6.650010392069816589e+00 -9.149137962609472652e-01
3.774726507067680359e+01 1.591368226706981659e+01 -2.368252419307822265e+00
1.069929143786430359e+01 5.711167618632316589e+00 -8.042723167687597652e-01
1.063789007067680359e+01 5.797349259257316589e+00 -8.034483421593847652e-01
1.058527776598930359e+01 5.885361954569816589e+00 -8.030668724328222652e-01
1.075483343005180359e+01 6.041245743632316589e+00 -8.137022484093847652e-01
1.102119085192680359e+01 6.231675431132316589e+00 -8.292662132531347652e-01
1.130427190661430359e+01 6.434190079569816589e+00 -8.458067405968847652e-01
1.160700628161430359e+01 6.650620743632316589e+00 -8.634916771203222652e-01
3.775251409411430359e+01 1.591648988425731659e+01 -2.190045021846884765e+00
1.070063421130180359e+01 5.712022110819816589e+00 -7.582060325890722652e-01
1.063911077380180359e+01 5.798081681132316589e+00 -7.577787864953222652e-01
1.058649846911430359e+01 5.886216446757316589e+00 -7.574888695031347652e-01
1.075580999255180359e+01 6.041856095194816589e+00 -7.671629417687597652e-01
1.102204534411430359e+01 6.232285782694816589e+00 -7.813078392296972652e-01
1.130512639880180359e+01 6.434800431132316589e+00 -7.963224876671972652e-01
1.160773870348930359e+01 6.651231095194816589e+00 -8.123899925500097652e-01
3.774848577380180359e+01 1.591600160300731659e+01 -2.010525368526572265e+00
1.070185491442680359e+01 5.712876603007316589e+00 -7.123838890343847652e-01
1.064033147692680359e+01 5.798936173319816589e+00 -7.118803489953222652e-01
1.058771917223930359e+01 5.886948868632316589e+00 -7.116972435265722652e-01
1.075666448473930359e+01 6.042588517069816589e+00 -7.204100120812597652e-01
1.102302190661430359e+01 6.233018204569816589e+00 -7.331053245812597652e-01
1.130598089098930359e+01 6.435410782694816589e+00 -7.465940941125097652e-01
1.160859319567680359e+01 6.651841446757316589e+00 -7.610289085656347652e-01
3.774177190661430359e+01 1.591453675925731659e+01 -1.832012795284384765e+00
1.070319768786430359e+01 5.713731095194816589e+00 -6.663481224328222652e-01
1.064167425036430359e+01 5.799790665507316589e+00 -6.659819114953222652e-01
1.058906194567680359e+01 5.887681290507316589e+00 -6.661650169640722652e-01
1.075764104723930359e+01 6.043198868632316589e+00 -6.739012230187597652e-01
1.102387639880180359e+01 6.233628556132316589e+00 -6.851774681359472652e-01
1.130683538317680359e+01 6.436021134257316589e+00 -6.971556175500097652e-01
1.160944768786430359e+01 6.652451798319816589e+00 -7.096983421593847652e-01
3.772993108630180359e+01 1.591136293113231659e+01 -1.652538918331259765e+00
1.074726507067680359e+01 5.726182267069816589e+00 -6.216093529015722652e-01
1.068537542223930359e+01 5.812608048319816589e+00 -6.216398704796972652e-01
1.063080999255180359e+01 5.900498673319816589e+00 -6.216398704796972652e-01
1.089143010973930359e+01 6.084580704569816589e+00 -6.312376488000097652e-01
1.116804143786430359e+01 6.279649063944816589e+00 -6.414152611046972652e-01
4.266462346911430359e+01 1.671458558738231659e+01 -1.613751076534384765e+00
4.996686956286430359e+01 1.965086488425731659e+01 -1.847378395870322265e+00
4.922639104723930359e+01 1.993602113425731659e+01 -1.831692360714072265e+00
8.306835383176803589e+00 5.611069962382316589e+00 -1.232266091182822265e+00
8.292309015989303589e+00 5.687608048319816589e+00 -1.233929299190634765e+00
8.267528742551803589e+00 5.760728165507316589e+00 -1.234524391964072265e+00
8.227367609739303589e+00 5.828233048319816589e+00 -1.233196877315634765e+00
8.187572687864303589e+00 5.895371720194816589e+00 -1.231884621456259765e+00
8.147777765989303589e+00 5.962144181132316589e+00 -1.230572365596884765e+00
8.108104914426803589e+00 6.029038712382316589e+00 -1.229275368526572265e+00
8.074901789426803589e+00 6.098252579569816589e+00 -1.228970192745322265e+00
8.845287531614303589e+00 5.799546524882316589e+00 -1.260632180050009765e+00
8.805736750364303589e+00 5.873032853007316589e+00 -1.259686135128134765e+00
8.768749445676803589e+00 5.947373673319816589e+00 -1.258846901729697265e+00
8.725780695676803589e+00 6.019517228007316589e+00 -1.257488869503134765e+00
8.682323664426803589e+00 6.090928360819816589e+00 -1.256039284542197265e+00
8.638988703489303589e+00 6.162095353007316589e+00 -1.254604958370322265e+00
8.592846125364303589e+00 6.232041642069816589e+00 -1.253018044307822265e+00
8.549755305051803589e+00 6.302598282694816589e+00 -1.251598976925009765e+00
9.369091242551803589e+00 5.982774063944816589e+00 -1.282040261104697265e+00
9.326122492551803589e+00 6.061021134257316589e+00 -1.281002663448447265e+00
9.283153742551803589e+00 6.139024063944816589e+00 -1.279965065792197265e+00
9.240307062864303589e+00 6.217149063944816589e+00 -1.278912209346884765e+00
9.197704523801803589e+00 6.294785782694816589e+00 -1.277874611690634765e+00
9.158275812864303589e+00 6.373399063944816589e+00 -1.277218483760947265e+00
9.119823664426803589e+00 6.452622696757316589e+00 -1.276669167354697265e+00
9.081493586301803589e+00 6.531480118632316589e+00 -1.276119850948447265e+00
1.001667425036430359e+01 6.209458634257316589e+00 -1.312100075557822265e+00
9.982738703489303589e+00 6.298203751444816589e+00 -1.312161110714072265e+00
9.945385187864303589e+00 6.385606095194816589e+00 -1.312054299190634765e+00
9.907787531614303589e+00 6.473374649882316589e+00 -1.311962746456259765e+00
9.870311945676803589e+00 6.560654923319816589e+00 -1.311871193721884765e+00
9.832958430051803589e+00 6.647935196757316589e+00 -1.311779640987509765e+00
9.795482844114303589e+00 6.735459610819816589e+00 -1.311688088253134765e+00
9.743969172239303589e+00 6.816636368632316589e+00 -1.310238503292197265e+00
1.108662053942680359e+01 6.583726212382316589e+00 -1.379681252315634765e+00
1.071711370348930359e+01 6.563462540507316589e+00 -1.345242165401572265e+00
1.066010686755180359e+01 6.651963517069816589e+00 -1.343426369503134765e+00
1.061848089098930359e+01 6.746201798319816589e+00 -1.343212746456259765e+00
1.056672307848930359e+01 6.836045548319816589e+00 -1.341931008175009765e+00
1.051520940661430359e+01 6.925645157694816589e+00 -1.340649269893759765e+00
1.046369573473930359e+01 7.015244767069816589e+00 -1.339367531612509765e+00
1.041083928942680359e+01 7.103623673319816589e+00 -1.337917946651572265e+00
1.143012639880180359e+01 6.704087540507316589e+00 -1.364742897823447265e+00
1.133015081286430359e+01 6.784898087382316589e+00 -1.358746193721884765e+00
1.132075139880180359e+01 6.898057267069816589e+00 -1.362042092159384765e+00
1.131135198473930359e+01 7.012193009257316589e+00 -1.365383766964072265e+00
1.130183050036430359e+01 7.126694962382316589e+00 -1.368725441768759765e+00
1.129230901598930359e+01 7.241929337382316589e+00 -1.372097634151572265e+00
1.122932073473930359e+01 7.335801407694816589e+00 -1.370052956417197265e+00
1.114728948473930359e+01 7.420640274882316589e+00 -1.366299294307822265e+00
1.380915471911430359e+01 7.536362931132316589e+00 -1.538815163448447265e+00
1.318000432848930359e+01 7.452866837382316589e+00 -1.484036110714072265e+00
1.275031682848930359e+01 7.430405899882316589e+00 -1.447796486690634765e+00
1.258832952380180359e+01 7.502427384257316589e+00 -1.436947487667197265e+00
1.243012639880180359e+01 7.572861954569816589e+00 -1.426342629268759765e+00
1.227509710192680359e+01 7.641831681132316589e+00 -1.415951393917197265e+00
1.212238714098930359e+01 7.709702774882316589e+00 -1.405728005245322265e+00
1.203425237536430359e+01 7.802354142069816589e+00 -1.401669167354697265e+00
1.510114690661430359e+01 7.988511368632316589e+00 -1.592388771846884765e+00
1.498737737536430359e+01 8.105576798319816589e+00 -1.587368630245322265e+00
1.357526800036430359e+01 7.737778946757316589e+00 -1.464474343135947265e+00
1.347993108630180359e+01 7.844834610819816589e+00 -1.460568093135947265e+00
1.340351507067680359e+01 7.957749649882316589e+00 -1.458325051143759765e+00
1.367145940661430359e+01 8.210068985819816589e+00 -1.487606667354697265e+00
1.351557561755180359e+01 8.292954728007316589e+00 -1.478497170284384765e+00
1.336738225817680359e+01 8.376206681132316589e+00 -1.469662331417197265e+00
1.531354925036430359e+01 8.063218399882316589e+00 -1.541378640010947265e+00
1.519721624255180359e+01 8.181626603007316589e+00 -1.536511086300009765e+00
1.357673284411430359e+01 7.738511368632316589e+00 -1.402920388057822265e+00
1.348139593005180359e+01 7.845567032694816589e+00 -1.399243019893759765e+00
1.340485784411430359e+01 7.958360001444816589e+00 -1.397137307003134765e+00
1.369746038317680359e+01 8.220811173319816589e+00 -1.426983498409384765e+00
1.410810491442680359e+01 8.541123673319816589e+00 -1.467358254268759765e+00
1.421149846911430359e+01 8.739487931132316589e+00 -1.481213234737509765e+00
1.861628362536430359e+01 9.218735978007316589e+00 -1.735790871456259765e+00
1.859394475817680359e+01 9.408189103007316589e+00 -1.739864968135947265e+00
1.357819768786430359e+01 7.739365860819816589e+00 -1.341412209346884765e+00
1.348273870348930359e+01 7.846299454569816589e+00 -1.337948464229697265e+00
1.340607854723930359e+01 7.958970353007316589e+00 -1.335964821651572265e+00
1.369770452380180359e+01 8.220933243632316589e+00 -1.364025734737509765e+00
1.410822698473930359e+01 8.541245743632316589e+00 -1.402096413448447265e+00
1.931293889880180359e+01 1.093528871238231659e+01 -1.835232399776572265e+00
3.772529241442680359e+01 1.590367250144481659e+01 -3.083599709346884765e+00
4.608478948473930359e+01 1.933397035300731659e+01 -3.725109719112509765e+00
1.357978460192680359e+01 7.740098282694816589e+00 -1.279583596065634765e+00
1.348420354723930359e+01 7.847031876444816589e+00 -1.276348732784384765e+00
1.340742132067680359e+01 7.959702774882316589e+00 -1.274502419307822265e+00
1.369794866442680359e+01 8.221177384257316589e+00 -1.300778054073447265e+00
1.410834905505180359e+01 8.541245743632316589e+00 -1.336529396846884765e+00
2.043537542223930359e+01 1.141832093894481659e+01 -1.829922341182822265e+00
3.773054143786430359e+01 1.590635804831981659e+01 -2.905132912471884765e+00
4.609138128161430359e+01 1.933738832175731659e+01 -3.505123757198447265e+00
1.358124944567680359e+01 7.740952774882316589e+00 -1.218121193721884765e+00
1.348554632067680359e+01 7.847764298319816589e+00 -1.215099953487509765e+00
1.340876409411430359e+01 7.960313126444816589e+00 -1.213390969112509765e+00
1.369819280505180359e+01 8.221299454569816589e+00 -1.237911843135947265e+00
1.410847112536430359e+01 8.541367813944816589e+00 -1.271343849971884765e+00
2.174714300036430359e+01 1.198289613425731659e+01 -1.827603005245322265e+00
3.773566839098930359e+01 1.590916566550731659e+01 -2.725781105831259765e+00
2.453339788317680359e+01 1.155406312644481659e+01 -1.870602272823447265e+00
1.358271428942680359e+01 7.741685196757316589e+00 -1.156674050167197265e+00
1.348701116442680359e+01 7.848374649882316589e+00 -1.153881691768759765e+00
1.340998479723930359e+01 7.960923478007316589e+00 -1.152310036495322265e+00
1.369843694567680359e+01 8.221543595194816589e+00 -1.175076149776572265e+00
1.410859319567680359e+01 8.541489884257316589e+00 -1.205868386104697265e+00
4.315632268786430359e+01 2.119786195456981659e+01 -3.163265847042197265e+00
3.774091741442680359e+01 1.591197328269481659e+01 -2.547436379268759765e+00
4.614692327380180359e+01 1.935936097800731659e+01 -3.066784523800009765e+00
1.358430120348930359e+01 7.742539688944816589e+00 -1.094936989620322265e+00
1.348835393786430359e+01 7.849107071757316589e+00 -1.092373513057822265e+00
1.341132757067680359e+01 7.961655899882316589e+00 -1.090923928096884765e+00
1.369868108630180359e+01 8.221787735819816589e+00 -1.111950539425009765e+00
1.410871526598930359e+01 8.541611954569816589e+00 -1.140774391964072265e+00
4.251142522692680359e+01 2.092027406394481659e+01 -2.912380837276572265e+00
3.774604436755180359e+01 1.591465882956981659e+01 -2.368221901729697265e+00
2.425959417223930359e+01 1.145616273581981659e+01 -1.625805519893759765e+00
1.358576604723930359e+01 7.743272110819816589e+00 -1.033550881221884765e+00
1.348981878161430359e+01 7.849839493632316589e+00 -1.031201027706259765e+00
1.341267034411430359e+01 7.962266251444816589e+00 -1.029888771846884765e+00
1.369892522692680359e+01 8.221909806132316589e+00 -1.049191140010947265e+00
1.410883733630180359e+01 8.541611954569816589e+00 -1.075726174190634765e+00
4.411262151598930359e+01 2.160936097800731659e+01 -2.795529030635947265e+00
3.775129339098930359e+01 1.591746644675731659e+01 -2.190014504268759765e+00
2.412458440661430359e+01 1.140794496238231659e+01 -1.505016945675009765e+00
1.358723089098930359e+01 7.744126603007316589e+00 -9.718595970421972652e-01
1.349116155505180359e+01 7.850571915507316589e+00 -9.697386253625097652e-01
1.341389104723930359e+01 7.962876603007316589e+00 -9.685636986046972652e-01
1.369916936755180359e+01 8.222153946757316589e+00 -9.861418236046972652e-01
1.410895940661430359e+01 8.541734024882316589e+00 -1.010357521846884765e+00
4.251191350817680359e+01 2.092039613425731659e+01 -2.496685646846884765e+00
3.774726507067680359e+01 1.591697816550731659e+01 -2.010494850948447265e+00
4.798371526598930359e+01 2.002586488425731659e+01 -2.489575051143759765e+00
1.358881780505180359e+01 7.744859024882316589e+00 -9.105192650109472652e-01
1.349250432848930359e+01 7.851304337382316589e+00 -9.086271751671972652e-01
1.341523382067680359e+01 7.963609024882316589e+00 -9.075895775109472652e-01
1.369941350817680359e+01 8.222276017069816589e+00 -9.234739769250097652e-01
1.410908147692680359e+01 8.541856095194816589e+00 -9.454008568078222652e-01
1.454816839098930359e+01 8.884385392069816589e+00 -9.685331810265722652e-01
3.774055120348930359e+01 1.591551332175731659e+01 -1.831982277706259765e+00
5.322394964098930359e+01 2.191966371238231659e+01 -2.474789284542197265e+00
1.359028264880180359e+01 7.745713517069816589e+00 -8.488737571984472652e-01
1.349396917223930359e+01 7.852036759257316589e+00 -8.472258079796972652e-01
1.341645452380180359e+01 7.964219376444816589e+00 -8.463255394250097652e-01
1.369965764880180359e+01 8.222520157694816589e+00 -8.605009544640722652e-01
1.410920354723930359e+01 8.541978165507316589e+00 -8.801237571984472652e-01
1.454816839098930359e+01 8.884263321757316589e+00 -9.011656273156347652e-01
3.772871038317680359e+01 1.591233949363231659e+01 -1.652508400753134765e+00
4.879279729723930359e+01 2.032005433738231659e+01 -2.058865212276572265e+00
1.359174749255180359e+01 7.746445938944816589e+00 -7.875944603234472652e-01
1.349531194567680359e+01 7.852769181132316589e+00 -7.861601341515722652e-01
1.341779729723930359e+01 7.964829728007316589e+00 -7.854124534875097652e-01
1.369990178942680359e+01 8.222642228007316589e+00 -7.979094017296972652e-01
1.410932561755180359e+01 8.541978165507316589e+00 -8.148924339562597652e-01
1.454816839098930359e+01 8.884263321757316589e+00 -8.334623802453222652e-01
4.922175237536430359e+01 1.993626527488231659e+01 -1.831570290401572265e+00
4.916254827380180359e+01 2.045469789206981659e+01 -1.837978981807822265e+00
2.930988714098930359e+01 1.360228089988231659e+01 -1.220455788448447265e+00
1.354377385973930359e+01 7.871568009257316589e+00 -7.262999046593847652e-01
1.358674260973930359e+01 8.031724259257316589e+00 -7.295195091515722652e-01
1.385541936755180359e+01 8.285996720194816589e+00 -7.399717796593847652e-01
1.425361272692680359e+01 8.602402970194816589e+00 -7.546812523156347652e-01
2.411640569567680359e+01 1.300254945456981659e+01 -1.073773049190634765e+00
8.074901789426803589e+00 6.098496720194816589e+00 -1.228970192745322265e+00
8.053417414426803589e+00 6.172715470194816589e+00 -1.230023049190634765e+00
8.029613703489303589e+00 6.246201798319816589e+00 -1.230969094112509765e+00
8.005687922239303589e+00 6.320054337382316589e+00 -1.231930397823447265e+00
7.981884211301803589e+00 6.393906876444816589e+00 -1.232891701534384765e+00
7.957836359739303589e+00 6.468003556132316589e+00 -1.233853005245322265e+00
7.933788508176803589e+00 6.542466446757316589e+00 -1.234829567745322265e+00
7.907543390989303589e+00 6.615830704569816589e+00 -1.235699318721884765e+00
8.549755305051803589e+00 6.302842423319816589e+00 -1.251598976925009765e+00
8.503856867551803589e+00 6.371934220194816589e+00 -1.250027321651572265e+00
8.461376398801803589e+00 6.442246720194816589e+00 -1.248654030635947265e+00
8.436596125364303589e+00 6.520982071757316589e+00 -1.249706887081259765e+00
8.411815851926803589e+00 6.599717423319816589e+00 -1.250744484737509765e+00
8.387035578489303589e+00 6.678574845194816589e+00 -1.251797341182822265e+00
8.358104914426803589e+00 6.755967423319816589e+00 -1.252560280635947265e+00
8.326244562864303589e+00 6.831773087382316589e+00 -1.252743386104697265e+00
9.081493586301803589e+00 6.531724259257316589e+00 -1.276119850948447265e+00
9.039989680051803589e+00 6.609116837382316589e+00 -1.275402687862509765e+00
8.998607844114303589e+00 6.686387345194816589e+00 -1.274685524776572265e+00
8.954418390989303589e+00 6.762559220194816589e+00 -1.273647927120322265e+00
8.904613703489303589e+00 6.835557267069816589e+00 -1.271938942745322265e+00
8.862865656614303589e+00 6.912217423319816589e+00 -1.271145485714072265e+00
8.825634211301803589e+00 6.991318985819816589e+00 -1.270931862667197265e+00
8.788646906614303589e+00 7.070298478007316589e+00 -1.270718239620322265e+00
9.743847101926803589e+00 6.816880509257316589e+00 -1.310223244503134765e+00
9.692211359739303589e+00 6.897568985819816589e+00 -1.308483742550009765e+00
9.637157648801803589e+00 6.976426407694816589e+00 -1.306561135128134765e+00
9.582103937864303589e+00 7.055283829569816589e+00 -1.304638527706259765e+00
9.527416437864303589e+00 7.133652970194816589e+00 -1.302746437862509765e+00
9.472973078489303589e+00 7.211655899882316589e+00 -1.300839089229697265e+00
9.418529719114303589e+00 7.289780899882316589e+00 -1.298946999385947265e+00
9.363720148801803589e+00 7.366929337382316589e+00 -1.297222756221884765e+00
1.041059514880180359e+01 7.103867813944816589e+00 -1.337917946651572265e+00
1.035346624255180359e+01 7.190049454569816589e+00 -1.336163185909384765e+00
1.029645940661430359e+01 7.275986954569816589e+00 -1.334423683956259765e+00
1.023945257067680359e+01 7.361924454569816589e+00 -1.332684182003134765e+00
1.018281194567680359e+01 7.447251603007316589e+00 -1.330959938839072265e+00
1.012629339098930359e+01 7.532456681132316589e+00 -1.329235695675009765e+00
1.006977483630180359e+01 7.617539688944816589e+00 -1.327511452510947265e+00
1.001362249255180359e+01 7.702256485819816589e+00 -1.325787209346884765e+00
1.114692327380180359e+01 7.420884415507316589e+00 -1.366268776729697265e+00
1.107221624255180359e+01 7.507920548319816589e+00 -1.362850807979697265e+00
1.099323675036430359e+01 7.592515274882316589e+00 -1.359234474971884765e+00
1.091450139880180359e+01 7.676743790507316589e+00 -1.355633400753134765e+00
1.083942815661430359e+01 7.761460587382316589e+00 -1.352352761104697265e+00
1.077351018786430359e+01 7.850083634257316589e+00 -1.350002907589072265e+00
1.071931096911430359e+01 7.944443985819816589e+00 -1.348904274776572265e+00
1.066413518786430359e+01 8.037705704569816589e+00 -1.347927712276572265e+00
1.203413030505180359e+01 7.802720353007316589e+00 -1.401669167354697265e+00
1.199494573473930359e+01 7.916123673319816589e+00 -1.402508400753134765e+00
1.193085882067680359e+01 8.018418595194816589e+00 -1.400906227901572265e+00
1.185273382067680359e+01 8.114243790507316589e+00 -1.397930764034384765e+00
1.177521917223930359e+01 8.209336563944816589e+00 -1.394985817745322265e+00
1.169807073473930359e+01 8.303941056132316589e+00 -1.392040871456259765e+00
1.162104436755180359e+01 8.398423478007316589e+00 -1.389095925167197265e+00
1.154475042223930359e+01 8.492051407694816589e+00 -1.386181496456259765e+00
1.336689397692680359e+01 8.376450821757316589e+00 -1.469631813839072265e+00
1.321955510973930359e+01 8.457749649882316589e+00 -1.460903786495322265e+00
1.307893010973930359e+01 8.539902970194816589e+00 -1.452404640987509765e+00
1.293525335192680359e+01 8.619126603007316589e+00 -1.443905495479697265e+00
1.275056096911430359e+01 8.676011368632316589e+00 -1.431454323604697265e+00
1.268403264880180359e+01 8.787949845194816589e+00 -1.430065773800009765e+00
1.260590764880180359e+01 8.894028946757316589e+00 -1.427883766964072265e+00
1.253425237536430359e+01 9.002549454569816589e+00 -1.425976418331259765e+00
1.421101018786430359e+01 8.739732071757316589e+00 -1.481197975948447265e+00
1.414887639880180359e+01 8.868760392069816589e+00 -1.480724953487509765e+00
1.408735296130180359e+01 8.998032853007316589e+00 -1.480297707393759765e+00
1.402558538317680359e+01 9.127671524882316589e+00 -1.479885720089072265e+00
1.396406194567680359e+01 9.256821915507316589e+00 -1.479458473995322265e+00
1.390253850817680359e+01 9.385972306132316589e+00 -1.479031227901572265e+00
1.384077093005180359e+01 9.515610978007316589e+00 -1.478619240596884765e+00
1.377924749255180359e+01 9.644761368632316589e+00 -1.478191994503134765e+00
1.931415960192680359e+01 1.093650941550731659e+01 -1.835354470089072265e+00
1.534174749255180359e+01 9.396348282694816589e+00 -1.513317726925009765e+00
1.532331487536430359e+01 9.559434220194816589e+00 -1.516918801143759765e+00
1.530476018786430359e+01 9.724107071757316589e+00 -1.520535134151572265e+00
1.522944280505180359e+01 9.862290665507316589e+00 -1.519436501339072265e+00
1.514777776598930359e+01 9.997178360819816589e+00 -1.517788552120322265e+00
1.506586858630180359e+01 1.013218812644481659e+01 -1.516125344112509765e+00
1.498456975817680359e+01 1.026646547019481659e+01 -1.514477394893759765e+00
2.043525335192680359e+01 1.141905336081981659e+01 -1.829937599971884765e+00
2.034528753161430359e+01 1.160948304831981659e+01 -1.829373024776572265e+00
1.627180120348930359e+01 9.990220353007316589e+00 -1.518215798214072265e+00
1.615986272692680359e+01 1.012278871238231659e+01 -1.514599465206259765e+00
1.646259710192680359e+01 1.045237855613231659e+01 -1.543560646846884765e+00
1.659370061755180359e+01 1.070689515769481659e+01 -1.559231423214072265e+00
1.652192327380180359e+01 1.086497621238231659e+01 -1.558941506221884765e+00
1.643769475817680359e+01 1.101597718894481659e+01 -1.557644509151572265e+00
2.174677678942680359e+01 1.198362855613231659e+01 -1.827587746456259765e+00
2.164692327380180359e+01 1.218528871238231659e+01 -1.826717995479697265e+00
1.627314397692680359e+01 9.990708634257316589e+00 -1.441311501339072265e+00
1.616120550036430359e+01 1.012327699363231659e+01 -1.437908791378134765e+00
1.646186468005180359e+01 1.045176820456981659e+01 -1.464794777706259765e+00
1.699885198473930359e+01 1.090550355613231659e+01 -1.509380959346884765e+00
2.170356389880180359e+01 1.347349672019481659e+01 -1.863552712276572265e+00
1.892963811755180359e+01 1.230149964988231659e+01 -1.663601540401572265e+00
4.315668889880180359e+01 2.119969300925731659e+01 -3.163326882198447265e+00
3.339606878161430359e+01 1.738206605613231659e+01 -2.516064308956259765e+00
1.627448675036430359e+01 9.991196915507316589e+00 -1.364437722042197265e+00
1.616254827380180359e+01 1.012376527488231659e+01 -1.361233376339072265e+00
1.646113225817680359e+01 1.045115785300731659e+01 -1.386089943721884765e+00
1.699787542223930359e+01 1.090464906394481659e+01 -1.427532814815634765e+00
2.265205022692680359e+01 1.395054750144481659e+01 -1.822018288448447265e+00
1.893085882067680359e+01 1.230162172019481659e+01 -1.570614479854697265e+00
4.250300237536430359e+01 2.091819886863231659e+01 -2.911892556026572265e+00
3.340620061755180359e+01 1.738646058738231659e+01 -2.354046486690634765e+00
1.627582952380180359e+01 9.991685196757316589e+00 -1.287197731807822265e+00
1.616389104723930359e+01 1.012413148581981659e+01 -1.284207009151572265e+00
1.646039983630180359e+01 1.045054750144481659e+01 -1.307018898800009765e+00
1.699689885973930359e+01 1.090391664206981659e+01 -1.345303200557822265e+00
2.884687444567680359e+01 1.706871156394481659e+01 -2.106350563839072265e+00
1.893195745348930359e+01 1.230162172019481659e+01 -1.478176735714072265e+00
4.410456487536430359e+01 2.160765199363231659e+01 -2.795101784542197265e+00
3.341645452380180359e+01 1.739085511863231659e+01 -2.192043923214072265e+00
1.627717229723930359e+01 9.992051407694816589e+00 -1.210400246456259765e+00
1.616535589098930359e+01 1.012461976706981659e+01 -1.207623146846884765e+00
1.645966741442680359e+01 1.044993714988231659e+01 -1.228436135128134765e+00
1.699604436755180359e+01 1.090306214988231659e+01 -1.263592385128134765e+00
2.341987249255180359e+01 1.433592347800731659e+01 -1.644711159542197265e+00
1.893305608630180359e+01 1.230162172019481659e+01 -1.385296486690634765e+00
4.250776311755180359e+01 2.092027406394481659e+01 -2.496502541378134765e+00
3.343146917223930359e+01 1.739732484519481659e+01 -2.029415749385947265e+00
1.627851507067680359e+01 9.992539688944816589e+00 -1.133236550167197265e+00
1.616669866442680359e+01 1.012510804831981659e+01 -1.130657814815634765e+00
1.645893499255180359e+01 1.044932679831981659e+01 -1.149502419307822265e+00
1.699506780505180359e+01 1.090220765769481659e+01 -1.181500099971884765e+00
2.329804632067680359e+01 1.427403382956981659e+01 -1.522549294307822265e+00
1.893415471911430359e+01 1.230174379050731659e+01 -1.292965554073447265e+00
4.268708440661430359e+01 2.099742250144481659e+01 -2.296795510128134765e+00
3.345234319567680359e+01 1.740648011863231659e+01 -1.867916725948447265e+00
1.627985784411430359e+01 9.993027970194816589e+00 -1.056530617550009765e+00
1.616804143786430359e+01 1.012547425925731659e+01 -1.054150246456259765e+00
1.645820257067680359e+01 1.044871644675731659e+01 -1.071041725948447265e+00
1.699409124255180359e+01 1.090135316550731659e+01 -1.099911354854697265e+00
2.345087835192680359e+01 1.435032777488231659e+01 -1.415630959346884765e+00
1.893537542223930359e+01 1.230174379050731659e+01 -1.200176857784384765e+00
4.231513616442680359e+01 2.083726625144481659e+01 -2.073254250362509765e+00
3.348945257067680359e+01 1.742271547019481659e+01 -1.706127785518759765e+00
1.628120061755180359e+01 9.993516251444816589e+00 -9.794432152062597652e-01
1.616950628161430359e+01 1.012596254050731659e+01 -9.772612083703222652e-01
1.645747014880180359e+01 1.044810609519481659e+01 -9.922148216515722652e-01
1.699311468005180359e+01 1.090062074363231659e+01 -1.017956398800009765e+00
2.612238714098930359e+01 1.569444398581981659e+01 -1.415508889034384765e+00
1.893647405505180359e+01 1.230174379050731659e+01 -1.107952736690634765e+00
1.455146428942680359e+01 8.886216446757316589e+00 -8.335997093468847652e-01
3.353168889880180359e+01 1.744114808738231659e+01 -1.544262551143759765e+00
1.628254339098930359e+01 9.994004532694816589e+00 -9.027983177453222652e-01
1.617084905505180359e+01 1.012645082175731659e+01 -9.008299339562597652e-01
1.645685979723930359e+01 1.044749574363231659e+01 -9.138761986046972652e-01
1.699213811755180359e+01 1.089976625144481659e+01 -9.365049827843847652e-01
2.206623479723930359e+01 1.365232972800731659e+01 -1.131710671260947265e+00
1.893757268786430359e+01 1.230174379050731659e+01 -1.015286110714072265e+00
2.411726018786430359e+01 1.300389222800731659e+01 -1.073803566768759765e+00
2.451691839098930359e+01 1.345384339988231659e+01 -1.090130471065634765e+00
1.629499456286430359e+01 9.999497696757316589e+00 -8.261534202843847652e-01
1.618391057848930359e+01 1.013231019675731659e+01 -8.243986595421972652e-01
1.649433538317680359e+01 1.046519593894481659e+01 -8.364378441125097652e-01
1.701984807848930359e+01 1.091294984519481659e+01 -8.556181419640722652e-01
2.612348577380180359e+01 1.569371156394481659e+01 -1.157635353878134765e+00
1.893867132067680359e+01 1.230186586081981659e+01 -9.226652611046972652e-01
7.907543390989303589e+00 6.616074845194816589e+00 -1.235714577510947265e+00
7.882885187864303589e+00 6.690415665507316589e+00 -1.236660622432822265e+00
7.854076594114303589e+00 6.762925431132316589e+00 -1.237255715206259765e+00
7.821117609739303589e+00 6.833604142069816589e+00 -1.237332009151572265e+00
7.788158625364303589e+00 6.904160782694816589e+00 -1.237408303096884765e+00
7.755199640989303589e+00 6.974839493632316589e+00 -1.237484597042197265e+00
7.722118586301803589e+00 7.045884415507316589e+00 -1.237560890987509765e+00
7.687084406614303589e+00 7.115464493632316589e+00 -1.237560890987509765e+00
8.326122492551803589e+00 6.832017228007316589e+00 -1.252743386104697265e+00
8.291820734739303589e+00 6.906602188944816589e+00 -1.252834938839072265e+00
8.259716242551803589e+00 6.982407853007316589e+00 -1.253018044307822265e+00
8.225048273801803589e+00 7.057481095194816589e+00 -1.253109597042197265e+00
8.190502375364303589e+00 7.132432267069816589e+00 -1.253201149776572265e+00
8.155956476926803589e+00 7.207505509257316589e+00 -1.253292702510947265e+00
8.118847101926803589e+00 7.281602188944816589e+00 -1.253292702510947265e+00
8.084179133176803589e+00 7.356797501444816589e+00 -1.253384255245322265e+00
8.788524836301803589e+00 7.070542618632316589e+00 -1.270733498409384765e+00
8.749828547239303589e+00 7.148667618632316589e+00 -1.270535134151572265e+00
8.713573664426803589e+00 7.228257462382316589e+00 -1.270641945675009765e+00
8.677196711301803589e+00 7.308213517069816589e+00 -1.270748757198447265e+00
8.640819758176803589e+00 7.388047501444816589e+00 -1.270855568721884765e+00
8.604442805051803589e+00 7.468003556132316589e+00 -1.270962380245322265e+00
8.567821711301803589e+00 7.548325821757316589e+00 -1.271069191768759765e+00
8.531322687864303589e+00 7.628526017069816589e+00 -1.271191262081259765e+00
9.363598078489303589e+00 7.367295548319816589e+00 -1.297222756221884765e+00
9.324413508176803589e+00 7.452378556132316589e+00 -1.297024391964072265e+00
9.281810969114303589e+00 7.535874649882316589e+00 -1.296673439815634765e+00
