8.253493934869766235e+00 4.403464064002037048e+00 -1.126481734588736572e+00
8.431594520807266235e+00 4.519186720252037048e+00 -1.148774825409049072e+00
1.126545682549476624e+01 5.221701368689537048e+00 -1.461473189666861572e+00
1.134370389580726624e+01 5.351095899939537048e+00 -1.474153243377799072e+00
1.142304959893226624e+01 5.482443556189537048e+00 -1.487031661346549072e+00
1.026545682549476624e+01 5.305441603064537048e+00 -1.363343917205924072e+00
1.006001248955726624e+01 5.353903517127037048e+00 -1.344331466034049072e+00
9.862868934869766235e+00 5.400290235877037048e+00 -1.326112471893424072e+00
8.254714637994766235e+00 4.404196485877037048e+00 -1.091050826385611572e+00
8.432815223932266235e+00 4.519919142127037048e+00 -1.112230025604361572e+00
1.142585721611976624e+01 5.257712110877037048e+00 -1.427980147674674072e+00
1.275544705986976624e+01 5.676535353064537048e+00 -1.571504317596549072e+00
1.269038358330726624e+01 5.787985548377037048e+00 -1.569215499237174072e+00
1.262580838799476624e+01 5.898947462439537048e+00 -1.566941939666861572e+00
1.256135526299476624e+01 6.009543165564537048e+00 -1.564668380096549072e+00
1.024433866143226624e+01 5.504782423377037048e+00 -1.322862349823111572e+00
8.255935341119766235e+00 4.405050978064537048e+00 -1.055467330291861572e+00
8.434035927057266235e+00 4.520773634314537048e+00 -1.075898848846549072e+00
1.294856229424476624e+01 5.592673048377037048e+00 -1.529222213104361572e+00
1.288178983330726624e+01 5.706320509314537048e+00 -1.527024947479361572e+00
1.281574979424476624e+01 5.818869337439537048e+00 -1.524842940643424072e+00
1.275007596611976624e+01 5.930807814002037048e+00 -1.522676192596549072e+00
1.268464627861976624e+01 6.042380079627037048e+00 -1.520524703338736572e+00
1.035090604424476624e+01 5.534323439002037048e+00 -1.287782393768424072e+00
8.257156044244766235e+00 4.405783399939537048e+00 -1.020066939666861572e+00
8.435256630182266235e+00 4.521506056189537048e+00 -1.039384566619986572e+00
1.307929959893226624e+01 5.622214064002037048e+00 -1.483461104705924072e+00
1.301155057549476624e+01 5.736960157752037048e+00 -1.481370650604361572e+00
1.294428983330726624e+01 5.850607618689537048e+00 -1.479310714080924072e+00
1.287763944268226624e+01 5.963522657752037048e+00 -1.477266036346549072e+00
1.281111112236976624e+01 6.076193556189537048e+00 -1.475236617401236572e+00
1.035224881768226624e+01 5.535177931189537048e+00 -1.241761885955924072e+00
8.258376747369766235e+00 4.406637892127037048e+00 -9.844834435731115718e-01
8.436477333307266235e+00 4.522360548377037048e+00 -1.003068648651236572e+00
1.321211209893226624e+01 5.652243360877037048e+00 -1.436982833221549072e+00
1.314314237236976624e+01 5.768088087439537048e+00 -1.435029708221549072e+00
1.307490506768226624e+01 5.882834181189537048e+00 -1.433091842010611572e+00
1.372627225518226624e+01 6.177511915564537048e+00 -1.496858321502799072e+00
1.387348905205726624e+01 6.355246290564537048e+00 -1.514894210174674072e+00
1.035346952080726624e+01 5.535910353064537048e+00 -1.195512496307486572e+00
8.259597450494766235e+00 4.407370314002037048e+00 -9.491135705262365718e-01
8.437698036432266235e+00 4.523092970252037048e+00 -9.667679894715490718e-01
1.354231229424476624e+01 5.725607618689537048e+00 -1.405870162323111572e+00
1.368403592705726624e+01 5.893332228064537048e+00 -1.422288619354361572e+00
1.382893338799476624e+01 6.065085157752037048e+00 -1.439103804901236572e+00
1.397798123955726624e+01 6.241598829627037048e+00 -1.456392012909049072e+00
1.413020291924476624e+01 6.423239454627037048e+00 -1.474427901580924072e+00
1.035469022393226624e+01 5.536764845252037048e+00 -1.149522506073111572e+00
8.260818153619766235e+00 4.408224806189537048e+00 -9.135605920106115718e-01
8.438918739557266235e+00 4.523947462439537048e+00 -9.302994836121740718e-01
1.415156522393226624e+01 5.860373243689537048e+00 -1.394532882049674072e+00
1.424079862236976624e+01 6.022482618689537048e+00 -1.406099044159049072e+00
1.433149686455726624e+01 6.186911329627037048e+00 -1.417833052948111572e+00
1.442378202080726624e+01 6.354513868689537048e+00 -1.429780684784049072e+00
1.458186307549476624e+01 6.542380079627037048e+00 -1.447221480682486572e+00
1.035603299736976624e+01 5.537619337439537048e+00 -1.103303634002799072e+00
8.262038856744766235e+00 4.408957228064537048e+00 -8.782059777527990718e-01
8.440139442682266235e+00 4.524679884314537048e+00 -8.940140832215490718e-01
2.295259061455726624e+01 7.796408399939537048e+00 -2.001023970916861572e+00
2.438874784111976624e+01 8.361471876502037048e+00 -2.117677413299674072e+00
4.795613065361976624e+01 1.428981660306453705e+01 -3.933473311737174072e+00
4.866303983330726624e+01 1.496816132962703705e+01 -4.002656661346549072e+00
7.423249784111976624e+01 2.218532441556453705e+01 -5.995805465057486572e+00
1.035725370049476624e+01 5.538473829627037048e+00 -1.057359420135611572e+00
8.263259559869766235e+00 4.409689649939537048e+00 -8.426682580262365718e-01
8.441360145807266235e+00 4.525534376502037048e+00 -8.575608361512365718e-01
2.303462186455726624e+01 7.815939649939537048e+00 -1.901429854705924072e+00
2.441804471611976624e+01 8.369772657752037048e+00 -2.007249556854361572e+00
1.410200467705726624e+01 6.133322462439537048e+00 -1.271867476776236572e+00
4.868525663018226624e+01 1.497646211087703705e+01 -3.775270186737174072e+00
6.283686795830726624e+01 1.920033906400203705e+01 -4.816835128143424072e+00
1.035847440361976624e+01 5.539206251502037048e+00 -1.011171065643424072e+00
8.264480262994766235e+00 4.410544142127037048e+00 -8.073441613465490718e-01
8.442580848932266235e+00 4.526266798377037048e+00 -8.213059533387365718e-01
2.335200467705726624e+01 7.887228712439537048e+00 -1.817384444549674072e+00
6.273664823174476624e+01 1.720509980618953705e+01 -4.460603438690299072e+00
1.408601346611976624e+01 6.130270704627037048e+00 -1.207383834198111572e+00
4.870735135674476624e+01 1.498464082181453705e+01 -3.549028121307486572e+00
8.553718534111976624e+01 2.515883515775203705e+01 -6.060640059784049072e+00
1.035981717705726624e+01 5.540060743689537048e+00 -9.652573693543615718e-01
8.265700966119766235e+00 4.411276564002037048e+00 -7.718369591981115718e-01
8.443801552057266235e+00 4.527121290564537048e+00 -7.848679650574865718e-01
2.333137479424476624e+01 7.884176954627037048e+00 -1.709474288299674072e+00
4.319770780205726624e+01 1.270326875150203705e+01 -2.951921187713736572e+00
1.407014432549476624e+01 6.127218946814537048e+00 -1.143113814666861572e+00
4.762275663018226624e+01 1.471437714993953705e+01 -3.253251754119986572e+00
6.355805936455726624e+01 1.939626191556453705e+01 -4.269654952362174072e+00
1.036103788018226624e+01 5.540915235877037048e+00 -9.191147912293615718e-01
8.266921669244766235e+00 4.412131056189537048e+00 -7.365281213074865718e-01
8.445022255182266235e+00 4.527853712439537048e+00 -7.486435998231115718e-01
2.331074491143226624e+01 7.881125196814537048e+00 -1.601258956268424072e+00
4.317951932549476624e+01 1.270180390775203705e+01 -2.749345504119986572e+00
1.405427518486976624e+01 6.124167189002037048e+00 -1.078675948455924072e+00
1.395014920830726624e+01 6.239035353064537048e+00 -1.076188765838736572e+00
6.303865018486976624e+01 1.926320527493953705e+01 -3.940705977752799072e+00
1.036225858330726624e+01 5.541769728064537048e+00 -8.732316125184240718e-01
8.268142372369766235e+00 4.412863478064537048e+00 -7.010361779481115718e-01
8.446242958307266235e+00 4.528708204627037048e+00 -7.124192345887365718e-01
2.329023709893226624e+01 7.878073439002037048e+00 -1.493867598846549072e+00
4.791450467705726624e+01 1.379689668118953705e+01 -2.798936568573111572e+00
1.403840604424476624e+01 6.121115431189537048e+00 -1.014787398651236572e+00
1.393464627861976624e+01 6.235983595252037048e+00 -1.012651168182486572e+00
6.343977323174476624e+01 1.937184785306453705e+01 -3.666169844940299072e+00
1.036360135674476624e+01 5.542624220252037048e+00 -8.271195519715490718e-01
8.269241005182266235e+00 4.413717970252037048e+00 -6.657578576356115718e-01
8.447463661432266235e+00 4.529440626502037048e+00 -6.760270226746740718e-01
2.326960721611976624e+01 7.875021681189537048e+00 -1.386186324432486572e+00
4.953034940361976624e+01 1.417275117337703705e+01 -2.652909957244986572e+00
1.402265897393226624e+01 6.118063673377037048e+00 -9.507462609559240718e-01
1.391902127861976624e+01 6.232687696814537048e+00 -9.489609826356115718e-01
6.177729764580726624e+01 1.893862031400203705e+01 -3.285768233612174072e+00
1.036482205986976624e+01 5.543356642127037048e+00 -7.812821496277990718e-01
8.270461708307266235e+00 4.414450392127037048e+00 -6.302811730652990718e-01
8.448684364557266235e+00 4.530295118689537048e+00 -6.398331750184240718e-01
2.324922147393226624e+01 7.872091993689537048e+00 -1.279329024627799072e+00
1.438203397393226624e+01 6.061911329627037048e+00 -9.004075158387365718e-01
1.400691190361976624e+01 6.115133985877037048e+00 -8.872391808777990718e-01
1.390351834893226624e+01 6.229635939002037048e+00 -8.858048547059240718e-01
6.182783475518226624e+01 1.895522187650203705e+01 -2.998353682830924072e+00
1.036616483330726624e+01 5.544211134314537048e+00 -7.352006066590490718e-01
8.271682411432266235e+00 4.415304884314537048e+00 -5.950181115418615718e-01
8.449905067682266235e+00 4.531027540564537048e+00 -6.034562218934240718e-01
2.322871366143226624e+01 7.869040235877037048e+00 -1.172166549041861572e+00
1.429133573174476624e+01 6.041769728064537048e+00 -8.322465050965490718e-01
1.399116483330726624e+01 6.112082228064537048e+00 -8.235795129090490718e-01
6.323738065361976624e+01 1.866249726712703705e+01 -2.748491011932486572e+00
4.737263455986976624e+01 1.516164277493953705e+01 -2.139711104705924072e+00
1.036738553643226624e+01 5.545065626502037048e+00 -6.893937218934240718e-01
8.272903114557266235e+00 4.416037306189537048e+00 -5.595719445496740718e-01
8.451125770807266235e+00 4.531882032752037048e+00 -5.670945275574865718e-01
1.436311307549476624e+01 5.915915235877037048e+00 -7.679764855652990718e-01
1.368061795830726624e+01 5.901510939002037048e+00 -7.476975549012365718e-01
1.397553983330726624e+01 6.109152540564537048e+00 -7.604539025574865718e-01
6.320161405205726624e+01 1.865700410306453705e+01 -2.451768599823111572e+00
4.681819120049476624e+01 1.501845429837703705e+01 -1.898362838104361572e+00
1.036860623955726624e+01 5.545920118689537048e+00 -6.433426965027990718e-01
8.307937294244766235e+00 4.423605665564537048e+00 -5.251023400574865718e-01
8.488845497369766235e+00 4.540304884314537048e+00 -5.319840539246740718e-01
1.388813748955726624e+01 5.812033399939537048e+00 -6.898667443543615718e-01
1.370002713799476624e+01 5.906882032752037048e+00 -6.869828332215490718e-01
1.351704373955726624e+01 5.999167189002037048e+00 -6.841752160340490718e-01
4.683247342705726624e+01 1.453359101712703705e+01 -1.671296798065299072e+00
4.734443631768226624e+01 1.515920136868953705e+01 -1.695756636932486572e+00
1.041267362236976624e+01 5.558371290564537048e+00 -5.986039269715490718e-01
8.072341591119766235e+00 4.911764845252037048e+00 -1.197908126190299072e+00
8.057204872369766235e+00 4.986838087439537048e+00 -1.199220382049674072e+00
8.043655067682266235e+00 5.062521681189537048e+00 -1.200914107635611572e+00
8.029861122369766235e+00 5.138571485877037048e+00 -1.202607833221549072e+00
8.016189247369766235e+00 5.214621290564537048e+00 -1.204301558807486572e+00
8.002517372369766235e+00 5.290915235877037048e+00 -1.205995284393424072e+00
7.988601356744766235e+00 5.367575392127037048e+00 -1.207704268768424072e+00
7.971999794244766235e+00 5.443258985877037048e+00 -1.209245406463736572e+00
8.617507606744766235e+00 5.060690626502037048e+00 -1.225679122284049072e+00
8.605178505182266235e+00 5.142477735877037048e+00 -1.227708541229361572e+00
8.595779091119766235e+00 5.225241407752037048e+00 -1.229875289276236572e+00
8.583327919244766235e+00 5.307760939002037048e+00 -1.231919967010611572e+00
8.570876747369766235e+00 5.390280470252037048e+00 -1.233964644744986572e+00
8.558425575494766235e+00 5.473044142127037048e+00 -1.236009322479361572e+00
8.542922645807266235e+00 5.555319532752037048e+00 -1.237931929901236572e+00
8.510696083307266235e+00 5.631735548377037048e+00 -1.237642012909049072e+00
9.861770302057266235e+00 5.400290235877037048e+00 -1.325990401580924072e+00
9.669875770807266235e+00 5.444601759314537048e+00 -1.308427535369986572e+00
9.181838661432266235e+00 5.398092970252037048e+00 -1.257524215057486572e+00
9.169387489557266235e+00 5.486960157752037048e+00 -1.259767257049674072e+00
9.155593544244766235e+00 5.575461134314537048e+00 -1.261842452362174072e+00
9.115066200494766235e+00 5.655417189002037048e+00 -1.260911666229361572e+00
9.074660927057266235e+00 5.735495314002037048e+00 -1.259980880096549072e+00
9.034377723932266235e+00 5.814963087439537048e+00 -1.259050093963736572e+00
1.024311795830726624e+01 5.504782423377037048e+00 -1.322740279510611572e+00
1.003852811455726624e+01 5.549460157752037048e+00 -1.304506026580924072e+00
9.911086708307266235e+00 5.613058790564537048e+00 -1.294679366424674072e+00
9.860061317682266235e+00 5.698141798377037048e+00 -1.292985640838736572e+00
9.809524208307266235e+00 5.782492384314537048e+00 -1.291307174041861572e+00
9.759109169244766235e+00 5.866476759314537048e+00 -1.289643966034049072e+00
9.720168739557266235e+00 5.954123243689537048e+00 -1.289216719940299072e+00
9.682082802057266235e+00 6.041525587439537048e+00 -1.289094649627799072e+00
1.035053983330726624e+01 5.534567579627037048e+00 -1.287751876190299072e+00
1.028901639580726624e+01 5.620871290564537048e+00 -1.285249434784049072e+00
1.023677030205726624e+01 5.709250196814537048e+00 -1.283693038299674072e+00
1.040962186455726624e+01 5.866232618689537048e+00 -1.305253707244986572e+00
1.067622342705726624e+01 6.056906446814537048e+00 -1.336656295135611572e+00
1.095979276299476624e+01 6.259787306189537048e+00 -1.370057784393424072e+00
1.091035428643226624e+01 6.357199415564537048e+00 -1.369065963104361572e+00
1.075276151299476624e+01 6.416159376502037048e+00 -1.356767379119986572e+00
1.035188260674476624e+01 5.535422071814537048e+00 -1.241731368377799072e+00
1.029023709893226624e+01 5.621725782752037048e+00 -1.239137374237174072e+00
1.023799100518226624e+01 5.710104689002037048e+00 -1.237687789276236572e+00
1.041059842705726624e+01 5.866965040564537048e+00 -1.258241378143424072e+00
1.067719998955726624e+01 6.057638868689537048e+00 -1.288194381073111572e+00
1.096076932549476624e+01 6.260397657752037048e+00 -1.320039473846549072e+00
1.126386991143226624e+01 6.477194532752037048e+00 -1.354097091034049072e+00
1.109626737236976624e+01 6.536520704627037048e+00 -1.341829024627799072e+00
1.035310330986976624e+01 5.536276564002037048e+00 -1.195481978729361572e+00
1.029157987236976624e+01 5.622458204627037048e+00 -1.193284713104361572e+00
1.023921170830726624e+01 5.710837110877037048e+00 -1.191941939666861572e+00
1.041145291924476624e+01 5.867575392127037048e+00 -1.211488448455924072e+00
1.067805448174476624e+01 6.058249220252037048e+00 -1.239991866424674072e+00
1.096162381768226624e+01 6.261008009314537048e+00 -1.270311080291861572e+00
1.126472440361976624e+01 6.477804884314537048e+00 -1.302736007049674072e+00
1.347468534111976624e+01 7.368429884314537048e+00 -1.515840255096549072e+00
1.035444608330726624e+01 5.537008985877037048e+00 -1.149507247284049072e+00
1.029280057549476624e+01 5.623312696814537048e+00 -1.147462569549674072e+00
1.024055448174476624e+01 5.711569532752037048e+00 -1.145967208221549072e+00
1.041242948174476624e+01 5.868307814002037048e+00 -1.164506636932486572e+00
1.067903104424476624e+01 6.058859571814537048e+00 -1.191575728729361572e+00
1.096247830986976624e+01 6.261618360877037048e+00 -1.220353804901236572e+00
1.126557889580726624e+01 6.478415235877037048e+00 -1.251390181854361572e+00
1.476679959893226624e+01 7.820578321814537048e+00 -1.569398604705924072e+00
1.035566678643226624e+01 5.537863478064537048e+00 -1.103288375213736572e+00
1.029414334893226624e+01 5.624167189002037048e+00 -1.101396285369986572e+00
1.024177518486976624e+01 5.712424024939537048e+00 -1.100251876190299072e+00
1.041340604424476624e+01 5.868918165564537048e+00 -1.117799483612174072e+00
1.067988553643226624e+01 6.059591993689537048e+00 -1.143418990448111572e+00
1.096333280205726624e+01 6.262228712439537048e+00 -1.170671187713736572e+00
1.126631131768226624e+01 6.478903517127037048e+00 -1.199800216034049072e+00
1.497920194268226624e+01 7.895285353064537048e+00 -1.518403731659049072e+00
1.035688748955726624e+01 5.538717970252037048e+00 -1.057344161346549072e+00
1.029536405205726624e+01 5.624899610877037048e+00 -1.055604659393424072e+00
1.024299588799476624e+01 5.713156446814537048e+00 -1.054567061737174072e+00
1.041438260674476624e+01 5.869650587439537048e+00 -1.071122847869986572e+00
1.068086209893226624e+01 6.060202345252037048e+00 -1.095308028534049072e+00
1.096418729424476624e+01 6.262839064002037048e+00 -1.121019088104361572e+00
1.126716580986976624e+01 6.479513868689537048e+00 -1.148515425994986572e+00
1.828144803643226624e+01 9.050558790564537048e+00 -1.712770186737174072e+00
1.035823026299476624e+01 5.539572462439537048e+00 -1.011155806854361572e+00
1.029658475518226624e+01 5.625754103064537048e+00 -1.009584151580924072e+00
1.024421659111976624e+01 5.714010939002037048e+00 -1.008653365448111572e+00
1.041523709893226624e+01 5.870260939002037048e+00 -1.024202071502799072e+00
1.068171659111976624e+01 6.060812696814537048e+00 -1.046937667205924072e+00
1.096504178643226624e+01 6.263449415564537048e+00 -1.071122847869986572e+00
1.126802030205726624e+01 6.480124220252037048e+00 -1.096971236541861572e+00
3.739167752861976624e+01 1.573512910306453705e+01 -3.060655318573111572e+00
1.035945096611976624e+01 5.540304884314537048e+00 -9.652421105652990718e-01
1.029792752861976624e+01 5.626486524939537048e+00 -9.638077843934240718e-01
1.024543729424476624e+01 5.714743360877037048e+00 -9.629990685731115718e-01
1.041621366143226624e+01 5.870993360877037048e+00 -9.775559533387365718e-01
1.068269315361976624e+01 6.061545118689537048e+00 -9.988724816590490718e-01
1.096601834893226624e+01 6.264059767127037048e+00 -1.021516524627799072e+00
1.126887479424476624e+01 6.480734571814537048e+00 -1.045732222869986572e+00
3.739692655205726624e+01 1.573781464993953705e+01 -2.882173262909049072e+00
1.036067166924476624e+01 5.541159376502037048e+00 -9.190995324402990718e-01
1.029914823174476624e+01 5.627341017127037048e+00 -9.178177941590490718e-01
1.024678006768226624e+01 5.715475782752037048e+00 -9.173600304871740718e-01
1.041719022393226624e+01 5.871603712439537048e+00 -9.309403527527990718e-01
1.068354764580726624e+01 6.062155470252037048e+00 -9.508072961121740718e-01
1.096687284111976624e+01 6.264792189002037048e+00 -9.719407189637365718e-01
1.126960721611976624e+01 6.481344923377037048e+00 -9.942490685731115718e-01
3.740205350518226624e+01 1.574062226712703705e+01 -2.702806197479361572e+00
1.036201444268226624e+01 5.542013868689537048e+00 -8.732163537293615718e-01
1.030049100518226624e+01 5.628195509314537048e+00 -8.721024621277990718e-01
1.024800077080726624e+01 5.716330274939537048e+00 -8.714921105652990718e-01
1.041816678643226624e+01 5.872336134314537048e+00 -8.840958703309240718e-01
1.068452420830726624e+01 6.062765821814537048e+00 -9.025132287293615718e-01
1.096772733330726624e+01 6.265402540564537048e+00 -9.221207726746740718e-01
1.127046170830726624e+01 6.481955274939537048e+00 -9.430558312684240718e-01
3.740730252861976624e+01 1.574342988431453705e+01 -2.524476729705924072e+00
1.036323514580726624e+01 5.542868360877037048e+00 -8.271195519715490718e-01
1.030171170830726624e+01 5.628927931189537048e+00 -8.263871300965490718e-01
1.024922147393226624e+01 5.717062696814537048e+00 -8.258835900574865718e-01
1.041902127861976624e+01 5.872946485877037048e+00 -8.375107873231115718e-01
1.068537870049476624e+01 6.063498243689537048e+00 -8.545090783387365718e-01
1.096858182549476624e+01 6.266012892127037048e+00 -8.725754845887365718e-01
1.127131620049476624e+01 6.482443556189537048e+00 -8.919083703309240718e-01
3.741242948174476624e+01 1.574611543118953705e+01 -2.345246993377799072e+00
1.036445584893226624e+01 5.543600782752037048e+00 -7.812668908387365718e-01
1.030305448174476624e+01 5.629782423377037048e+00 -7.804429162293615718e-01
1.025044217705726624e+01 5.717795118689537048e+00 -7.800614465027990718e-01
1.041999784111976624e+01 5.873678907752037048e+00 -7.906968224793615718e-01
1.068635526299476624e+01 6.064108595252037048e+00 -8.062607873231115718e-01
1.096943631768226624e+01 6.266623243689537048e+00 -8.228013146668615718e-01
1.127217069268226624e+01 6.483053907752037048e+00 -8.404862511902990718e-01
3.741767850518226624e+01 1.574892304837703705e+01 -2.167039595916861572e+00
1.036579862236976624e+01 5.544455274939537048e+00 -7.352006066590490718e-01
1.030427518486976624e+01 5.630514845252037048e+00 -7.347733605652990718e-01
1.025166288018226624e+01 5.718649610877037048e+00 -7.344834435731115718e-01
1.042097440361976624e+01 5.874289259314537048e+00 -7.441575158387365718e-01
1.068720975518226624e+01 6.064718946814537048e+00 -7.583024132996740718e-01
1.097029080986976624e+01 6.267233595252037048e+00 -7.733170617371740718e-01
1.127290311455726624e+01 6.483664259314537048e+00 -7.893845666199865718e-01
3.741365018486976624e+01 1.574843476712703705e+01 -1.987519942596549072e+00
1.036701932549476624e+01 5.545309767127037048e+00 -6.893784631043615718e-01
1.030549588799476624e+01 5.631369337439537048e+00 -6.888749230652990718e-01
1.025288358330726624e+01 5.719382032752037048e+00 -6.886918175965490718e-01
1.042182889580726624e+01 5.875021681189537048e+00 -6.974045861512365718e-01
1.068818631768226624e+01 6.065451368689537048e+00 -7.100998986512365718e-01
1.097114530205726624e+01 6.267843946814537048e+00 -7.235886681824865718e-01
1.127375760674476624e+01 6.484274610877037048e+00 -7.380234826356115718e-01
3.740693631768226624e+01 1.574696992337703705e+01 -1.809007369354361572e+00
1.036836209893226624e+01 5.546164259314537048e+00 -6.433426965027990718e-01
1.030683866143226624e+01 5.632223829627037048e+00 -6.429764855652990718e-01
1.025422635674476624e+01 5.720114454627037048e+00 -6.431595910340490718e-01
1.042280545830726624e+01 5.875632032752037048e+00 -6.508957970887365718e-01
1.068904080986976624e+01 6.066061720252037048e+00 -6.621720422059240718e-01
1.097199979424476624e+01 6.268454298377037048e+00 -6.741501916199865718e-01
1.127461209893226624e+01 6.484884962439537048e+00 -6.866929162293615718e-01
3.739509549736976624e+01 1.574379609525203705e+01 -1.629533492401236572e+00
1.041242948174476624e+01 5.558615431189537048e+00 -5.986039269715490718e-01
1.035053983330726624e+01 5.645041212439537048e+00 -5.986344445496740718e-01
1.029597440361976624e+01 5.732931837439537048e+00 -5.986344445496740718e-01
1.055659452080726624e+01 5.917013868689537048e+00 -6.082322228699865718e-01
1.083320584893226624e+01 6.112082228064537048e+00 -6.184098351746740718e-01
4.232978788018226624e+01 1.654701875150203705e+01 -1.590745650604361572e+00
4.963203397393226624e+01 1.948329804837703705e+01 -1.824372969940299072e+00
4.889155545830726624e+01 1.976845429837703705e+01 -1.808686934784049072e+00
7.971999794244766235e+00 5.443503126502037048e+00 -1.209260665252799072e+00
7.957473427057266235e+00 5.520041212439537048e+00 -1.210923873260611572e+00
7.932693153619766235e+00 5.593161329627037048e+00 -1.211518966034049072e+00
7.892532020807266235e+00 5.660666212439537048e+00 -1.210191451385611572e+00
7.852737098932266235e+00 5.727804884314537048e+00 -1.208879195526236572e+00
7.812942177057266235e+00 5.794577345252037048e+00 -1.207566939666861572e+00
7.773269325494766235e+00 5.861471876502037048e+00 -1.206269942596549072e+00
7.740066200494766235e+00 5.930685743689537048e+00 -1.205964766815299072e+00
8.510451942682266235e+00 5.631979689002037048e+00 -1.237626754119986572e+00
8.470901161432266235e+00 5.705466017127037048e+00 -1.236680709198111572e+00
8.433913856744766235e+00 5.779806837439537048e+00 -1.235841475799674072e+00
8.390945106744766235e+00 5.851950392127037048e+00 -1.234483443573111572e+00
8.347488075494766235e+00 5.923361524939537048e+00 -1.233033858612174072e+00
8.304153114557266235e+00 5.994528517127037048e+00 -1.231599532440299072e+00
8.258010536432266235e+00 6.064474806189537048e+00 -1.230012618377799072e+00
8.214919716119766235e+00 6.135031446814537048e+00 -1.228593550994986572e+00
9.034255653619766235e+00 5.815207228064537048e+00 -1.259034835174674072e+00
8.991286903619766235e+00 5.893454298377037048e+00 -1.257997237518424072e+00
8.948318153619766235e+00 5.971457228064537048e+00 -1.256959639862174072e+00
8.905471473932266235e+00 6.049582228064537048e+00 -1.255906783416861572e+00
8.862868934869766235e+00 6.127218946814537048e+00 -1.254869185760611572e+00
8.823440223932266235e+00 6.205832228064537048e+00 -1.254213057830924072e+00
8.784988075494766235e+00 6.285055860877037048e+00 -1.253663741424674072e+00
8.746657997369766235e+00 6.363913282752037048e+00 -1.253114425018424072e+00
9.681838661432266235e+00 6.041891798377037048e+00 -1.289094649627799072e+00
9.647903114557266235e+00 6.130636915564537048e+00 -1.289155684784049072e+00
9.610549598932266235e+00 6.218039259314537048e+00 -1.289048873260611572e+00
9.572951942682266235e+00 6.305807814002037048e+00 -1.288957320526236572e+00
9.535476356744766235e+00 6.393088087439537048e+00 -1.288865767791861572e+00
9.498122841119766235e+00 6.480368360877037048e+00 -1.288774215057486572e+00
9.460647255182266235e+00 6.567892774939537048e+00 -1.288682662323111572e+00
9.409133583307266235e+00 6.649069532752037048e+00 -1.287233077362174072e+00
1.075178495049476624e+01 6.416159376502037048e+00 -1.356675826385611572e+00
1.038227811455726624e+01 6.395895704627037048e+00 -1.322236739471549072e+00
1.032527127861976624e+01 6.484396681189537048e+00 -1.320420943573111572e+00
1.028364530205726624e+01 6.578634962439537048e+00 -1.320207320526236572e+00
1.023188748955726624e+01 6.668478712439537048e+00 -1.318925582244986572e+00
1.018037381768226624e+01 6.758078321814537048e+00 -1.317643843963736572e+00
1.012886014580726624e+01 6.847677931189537048e+00 -1.316362105682486572e+00
1.007600370049476624e+01 6.936056837439537048e+00 -1.314912520721549072e+00
1.109529080986976624e+01 6.536520704627037048e+00 -1.341737471893424072e+00
1.099531522393226624e+01 6.617331251502037048e+00 -1.335740767791861572e+00
1.098591580986976624e+01 6.730490431189537048e+00 -1.339036666229361572e+00
1.097651639580726624e+01 6.844626173377037048e+00 -1.342378341034049072e+00
1.096699491143226624e+01 6.959128126502037048e+00 -1.345720015838736572e+00
1.095747342705726624e+01 7.074362501502037048e+00 -1.349092208221549072e+00
1.089448514580726624e+01 7.168234571814537048e+00 -1.347047530487174072e+00
1.081245389580726624e+01 7.253073439002037048e+00 -1.343293868377799072e+00
1.347431913018226624e+01 7.368796095252037048e+00 -1.515809737518424072e+00
1.284516873955726624e+01 7.285300001502037048e+00 -1.461030684784049072e+00
1.241548123955726624e+01 7.262839064002037048e+00 -1.424791060760611572e+00
1.225349393486976624e+01 7.334860548377037048e+00 -1.413942061737174072e+00
1.209529080986976624e+01 7.405295118689537048e+00 -1.403337203338736572e+00
1.194026151299476624e+01 7.474264845252037048e+00 -1.392945967987174072e+00
1.178755155205726624e+01 7.542135939002037048e+00 -1.382722579315299072e+00
1.169941678643226624e+01 7.634787306189537048e+00 -1.378663741424674072e+00
1.476631131768226624e+01 7.820944532752037048e+00 -1.569383345916861572e+00
1.465254178643226624e+01 7.938009962439537048e+00 -1.564363204315299072e+00
1.324043241143226624e+01 7.570212110877037048e+00 -1.441468917205924072e+00
1.314509549736976624e+01 7.677267774939537048e+00 -1.437562667205924072e+00
1.306867948174476624e+01 7.790182814002037048e+00 -1.435319625213736572e+00
1.333662381768226624e+01 8.042502149939537048e+00 -1.464601241424674072e+00
1.318074002861976624e+01 8.125387892127037048e+00 -1.455491744354361572e+00
1.303254666924476624e+01 8.208639845252037048e+00 -1.446656905487174072e+00
1.497871366143226624e+01 7.895651564002037048e+00 -1.518373214080924072e+00
1.486238065361976624e+01 8.014059767127037048e+00 -1.513505660369986572e+00
1.324189725518226624e+01 7.570944532752037048e+00 -1.379914962127799072e+00
1.314656034111976624e+01 7.678000196814537048e+00 -1.376237593963736572e+00
1.307002225518226624e+01 7.790793165564537048e+00 -1.374131881073111572e+00
1.336262479424476624e+01 8.053244337439537048e+00 -1.403978072479361572e+00
1.377326932549476624e+01 8.373556837439537048e+00 -1.444352828338736572e+00
1.387666288018226624e+01 8.571921095252037048e+00 -1.458207808807486572e+00
1.828144803643226624e+01 9.051169142127037048e+00 -1.712785445526236572e+00
1.825910916924476624e+01 9.240622267127037048e+00 -1.716859542205924072e+00
1.324336209893226624e+01 7.571799024939537048e+00 -1.318406783416861572e+00
1.314790311455726624e+01 7.678732618689537048e+00 -1.314943038299674072e+00
1.307124295830726624e+01 7.791403517127037048e+00 -1.312959395721549072e+00
1.336286893486976624e+01 8.053366407752037048e+00 -1.341020308807486572e+00
1.377339139580726624e+01 8.373678907752037048e+00 -1.379090987518424072e+00
1.897810330986976624e+01 1.076772187650203705e+01 -1.812226973846549072e+00
3.739045682549476624e+01 1.573610566556453705e+01 -3.060594283416861572e+00
4.574995389580726624e+01 1.916640351712703705e+01 -3.702104293182486572e+00
1.324494901299476624e+01 7.572531446814537048e+00 -1.256578170135611572e+00
1.314936795830726624e+01 7.679465040564537048e+00 -1.253343306854361572e+00
1.307258573174476624e+01 7.792135939002037048e+00 -1.251496993377799072e+00
1.336311307549476624e+01 8.053610548377037048e+00 -1.277772628143424072e+00
1.377351346611976624e+01 8.373678907752037048e+00 -1.313523970916861572e+00
2.010053983330726624e+01 1.125075410306453705e+01 -1.806916915252799072e+00
3.739570584893226624e+01 1.573879121243953705e+01 -2.882127486541861572e+00
4.575654569268226624e+01 1.916982148587703705e+01 -3.482118331268424072e+00
1.324641385674476624e+01 7.573385939002037048e+00 -1.195115767791861572e+00
1.315071073174476624e+01 7.680197462439537048e+00 -1.192094527557486572e+00
1.307392850518226624e+01 7.792746290564537048e+00 -1.190385543182486572e+00
1.336335721611976624e+01 8.053732618689537048e+00 -1.214906417205924072e+00
1.377363553643226624e+01 8.373800978064537048e+00 -1.248338424041861572e+00
2.141230741143226624e+01 1.181532929837703705e+01 -1.804597579315299072e+00
3.740083280205726624e+01 1.574159882962703705e+01 -2.702775679901236572e+00
2.419856229424476624e+01 1.138649629056453705e+01 -1.847596846893424072e+00
1.324787870049476624e+01 7.574118360877037048e+00 -1.133668624237174072e+00
1.315217557549476624e+01 7.680807814002037048e+00 -1.130876265838736572e+00
1.307514920830726624e+01 7.793356642127037048e+00 -1.129304610565299072e+00
1.336360135674476624e+01 8.053976759314537048e+00 -1.152070723846549072e+00
1.377375760674476624e+01 8.373923048377037048e+00 -1.182862960174674072e+00
4.282148709893226624e+01 2.103029511868953705e+01 -3.140260421112174072e+00
3.740608182549476624e+01 1.574440644681453705e+01 -2.524430953338736572e+00
4.581208768486976624e+01 1.919179414212703705e+01 -3.043779097869986572e+00
1.324946561455726624e+01 7.574972853064537048e+00 -1.071931563690299072e+00
1.315351834893226624e+01 7.681540235877037048e+00 -1.069368087127799072e+00
1.307649198174476624e+01 7.794089064002037048e+00 -1.067918502166861572e+00
1.336384549736976624e+01 8.054220899939537048e+00 -1.088945113494986572e+00
1.377387967705726624e+01 8.374045118689537048e+00 -1.117768966034049072e+00
4.217658963799476624e+01 2.075270722806453705e+01 -2.889375411346549072e+00
3.741120877861976624e+01 1.574709199368953705e+01 -2.345216475799674072e+00
2.392475858330726624e+01 1.128859589993953705e+01 -1.602800093963736572e+00
1.325093045830726624e+01 7.575705274939537048e+00 -1.010545455291861572e+00
1.315498319268226624e+01 7.682272657752037048e+00 -1.008195601776236572e+00
1.307783475518226624e+01 7.794699415564537048e+00 -1.006883345916861572e+00
1.336408963799476624e+01 8.054342970252037048e+00 -1.026185714080924072e+00
1.377400174736976624e+01 8.374045118689537048e+00 -1.052720748260611572e+00
4.377778592705726624e+01 2.144179414212703705e+01 -2.772523604705924072e+00
3.741645780205726624e+01 1.574989961087703705e+01 -2.167009078338736572e+00
2.378974881768226624e+01 1.124037812650203705e+01 -1.482011519744986572e+00
1.325239530205726624e+01 7.576559767127037048e+00 -9.488541711121740718e-01
1.315632596611976624e+01 7.683005079627037048e+00 -9.467331994324865718e-01
1.307905545830726624e+01 7.795309767127037048e+00 -9.455582726746740718e-01
1.336433377861976624e+01 8.054587110877037048e+00 -9.631363976746740718e-01
1.377412381768226624e+01 8.374167189002037048e+00 -9.873520959168615718e-01
4.217707791924476624e+01 2.075282929837703705e+01 -2.473680220916861572e+00
3.741242948174476624e+01 1.574941132962703705e+01 -1.987489425018424072e+00
4.764887967705726624e+01 1.985829804837703705e+01 -2.466569625213736572e+00
1.325398221611976624e+01 7.577292189002037048e+00 -8.875138390809240718e-01
1.315766873955726624e+01 7.683737501502037048e+00 -8.856217492371740718e-01
1.308039823174476624e+01 7.796042189002037048e+00 -8.845841515809240718e-01
1.336457791924476624e+01 8.054709181189537048e+00 -9.004685509949865718e-01
1.377424588799476624e+01 8.374289259314537048e+00 -9.223954308777990718e-01
1.421333280205726624e+01 8.716818556189537048e+00 -9.455277550965490718e-01
3.740571561455726624e+01 1.574794648587703705e+01 -1.808976851776236572e+00
5.288911405205726624e+01 2.175209687650203705e+01 -2.451783858612174072e+00
1.325544705986976624e+01 7.578146681189537048e+00 -8.258683312684240718e-01
1.315913358330726624e+01 7.684469923377037048e+00 -8.242203820496740718e-01
1.308161893486976624e+01 7.796652540564537048e+00 -8.233201134949865718e-01
1.336482205986976624e+01 8.054953321814537048e+00 -8.374955285340490718e-01
1.377436795830726624e+01 8.374411329627037048e+00 -8.571183312684240718e-01
1.421333280205726624e+01 8.716696485877037048e+00 -8.781602013856115718e-01
3.739387479424476624e+01 1.574477265775203705e+01 -1.629502974823111572e+00
4.845796170830726624e+01 2.015248750150203705e+01 -2.035859786346549072e+00
1.325691190361976624e+01 7.578879103064537048e+00 -7.645890343934240718e-01
1.316047635674476624e+01 7.685202345252037048e+00 -7.631547082215490718e-01
1.308296170830726624e+01 7.797262892127037048e+00 -7.624070275574865718e-01
1.336506620049476624e+01 8.055075392127037048e+00 -7.749039757996740718e-01
1.377449002861976624e+01 8.374411329627037048e+00 -7.918870080262365718e-01
1.421333280205726624e+01 8.716696485877037048e+00 -8.104569543152990718e-01
4.888691678643226624e+01 1.976869843900203705e+01 -1.808564864471549072e+00
4.882771268486976624e+01 2.028713105618953705e+01 -1.814973555877799072e+00
2.897505155205726624e+01 1.343471406400203705e+01 -1.197450362518424072e+00
1.320893827080726624e+01 7.704001173377037048e+00 -7.032944787293615718e-01
1.325190702080726624e+01 7.864157423377037048e+00 -7.065140832215490718e-01
1.352058377861976624e+01 8.118429884314537048e+00 -7.169663537293615718e-01
1.391877713799476624e+01 8.434836134314537048e+00 -7.316758263856115718e-01
2.378157010674476624e+01 1.283498261868953705e+01 -1.050767623260611572e+00
7.740066200494766235e+00 5.930929884314537048e+00 -1.205964766815299072e+00
7.718581825494766235e+00 6.005148634314537048e+00 -1.207017623260611572e+00
7.694778114557266235e+00 6.078634962439537048e+00 -1.207963668182486572e+00
7.670852333307266235e+00 6.152487501502037048e+00 -1.208924971893424072e+00
7.647048622369766235e+00 6.226340040564537048e+00 -1.209886275604361572e+00
7.623000770807266235e+00 6.300436720252037048e+00 -1.210847579315299072e+00
7.598952919244766235e+00 6.374899610877037048e+00 -1.211824141815299072e+00
7.572707802057266235e+00 6.448263868689537048e+00 -1.212693892791861572e+00
8.214919716119766235e+00 6.135275587439537048e+00 -1.228593550994986572e+00
8.169021278619766235e+00 6.204367384314537048e+00 -1.227021895721549072e+00
8.126540809869766235e+00 6.274679884314537048e+00 -1.225648604705924072e+00
8.101760536432266235e+00 6.353415235877037048e+00 -1.226701461151236572e+00
8.076980262994766235e+00 6.432150587439537048e+00 -1.227739058807486572e+00
8.052199989557266235e+00 6.511008009314537048e+00 -1.228791915252799072e+00
8.023269325494766235e+00 6.588400587439537048e+00 -1.229554854705924072e+00
7.991408973932266235e+00 6.664206251502037048e+00 -1.229737960174674072e+00
8.746657997369766235e+00 6.364157423377037048e+00 -1.253114425018424072e+00
8.705154091119766235e+00 6.441550001502037048e+00 -1.252397261932486572e+00
8.663772255182266235e+00 6.518820509314537048e+00 -1.251680098846549072e+00
8.619582802057266235e+00 6.594992384314537048e+00 -1.250642501190299072e+00
8.569778114557266235e+00 6.667990431189537048e+00 -1.248933516815299072e+00
8.528030067682266235e+00 6.744650587439537048e+00 -1.248140059784049072e+00
8.490798622369766235e+00 6.823752149939537048e+00 -1.247926436737174072e+00
8.453811317682266235e+00 6.902731642127037048e+00 -1.247712813690299072e+00
9.409011512994766235e+00 6.649313673377037048e+00 -1.287217818573111572e+00
9.357375770807266235e+00 6.730002149939537048e+00 -1.285478316619986572e+00
9.302322059869766235e+00 6.808859571814537048e+00 -1.283555709198111572e+00
9.247268348932266235e+00 6.887716993689537048e+00 -1.281633101776236572e+00
9.192580848932266235e+00 6.966086134314537048e+00 -1.279741011932486572e+00
9.138137489557266235e+00 7.044089064002037048e+00 -1.277833663299674072e+00
9.083694130182266235e+00 7.122214064002037048e+00 -1.275941573455924072e+00
9.028884559869766235e+00 7.199362501502037048e+00 -1.274217330291861572e+00
1.007575955986976624e+01 6.936300978064537048e+00 -1.314912520721549072e+00
1.001863065361976624e+01 7.022482618689537048e+00 -1.313157759979361572e+00
9.961623817682266235e+00 7.108420118689537048e+00 -1.311418258026236572e+00
9.904616981744766235e+00 7.194357618689537048e+00 -1.309678756073111572e+00
9.847976356744766235e+00 7.279684767127037048e+00 -1.307954512909049072e+00
9.791457802057266235e+00 7.364889845252037048e+00 -1.306230269744986572e+00
9.734939247369766235e+00 7.449972853064537048e+00 -1.304506026580924072e+00
9.678786903619766235e+00 7.534689649939537048e+00 -1.302781783416861572e+00
1.081208768486976624e+01 7.253317579627037048e+00 -1.343263350799674072e+00
1.073738065361976624e+01 7.340353712439537048e+00 -1.339845382049674072e+00
1.065840116143226624e+01 7.424948439002037048e+00 -1.336229049041861572e+00
1.057966580986976624e+01 7.509176954627037048e+00 -1.332627974823111572e+00
1.050459256768226624e+01 7.593893751502037048e+00 -1.329347335174674072e+00
1.043867459893226624e+01 7.682516798377037048e+00 -1.326997481659049072e+00
1.038447538018226624e+01 7.776877149939537048e+00 -1.325898848846549072e+00
1.032929959893226624e+01 7.870138868689537048e+00 -1.324922286346549072e+00
1.169929471611976624e+01 7.635153517127037048e+00 -1.378663741424674072e+00
1.166011014580726624e+01 7.748556837439537048e+00 -1.379502974823111572e+00
1.159602323174476624e+01 7.850851759314537048e+00 -1.377900801971549072e+00
1.151789823174476624e+01 7.946676954627037048e+00 -1.374925338104361572e+00
1.144038358330726624e+01 8.041769728064537048e+00 -1.371980391815299072e+00
1.136323514580726624e+01 8.136374220252037048e+00 -1.369035445526236572e+00
1.128620877861976624e+01 8.230856642127037048e+00 -1.366090499237174072e+00
1.120991483330726624e+01 8.324484571814537048e+00 -1.363176070526236572e+00
1.303205838799476624e+01 8.208883985877037048e+00 -1.446626387909049072e+00
1.288471952080726624e+01 8.290182814002037048e+00 -1.437898360565299072e+00
1.274409452080726624e+01 8.372336134314537048e+00 -1.429399215057486572e+00
1.260041776299476624e+01 8.451559767127037048e+00 -1.420900069549674072e+00
1.241572538018226624e+01 8.508444532752037048e+00 -1.408448897674674072e+00
1.234919705986976624e+01 8.620383009314537048e+00 -1.407060347869986572e+00
1.227107205986976624e+01 8.726462110877037048e+00 -1.404878341034049072e+00
1.219941678643226624e+01 8.834982618689537048e+00 -1.402970992401236572e+00
1.387617459893226624e+01 8.572165235877037048e+00 -1.458192550018424072e+00
1.381404080986976624e+01 8.701193556189537048e+00 -1.457719527557486572e+00
1.375251737236976624e+01 8.830466017127037048e+00 -1.457292281463736572e+00
1.369074979424476624e+01 8.960104689002037048e+00 -1.456880294159049072e+00
1.362922635674476624e+01 9.089255079627037048e+00 -1.456453048065299072e+00
1.356770291924476624e+01 9.218405470252037048e+00 -1.456025801971549072e+00
1.350593534111976624e+01 9.348044142127037048e+00 -1.455613814666861572e+00
1.344441190361976624e+01 9.477194532752037048e+00 -1.455186568573111572e+00
1.897932401299476624e+01 1.076894257962703705e+01 -1.812349044159049072e+00
1.500691190361976624e+01 9.228781446814537048e+00 -1.490312300994986572e+00
1.498847928643226624e+01 9.391867384314537048e+00 -1.493913375213736572e+00
1.496992459893226624e+01 9.556540235877037048e+00 -1.497529708221549072e+00
1.489460721611976624e+01 9.694723829627037048e+00 -1.496431075409049072e+00
1.481294217705726624e+01 9.829611524939537048e+00 -1.494783126190299072e+00
1.473103299736976624e+01 9.964621290564537048e+00 -1.493119918182486572e+00
1.464973416924476624e+01 1.009889863431453705e+01 -1.491471968963736572e+00
2.010041776299476624e+01 1.125148652493953705e+01 -1.806932174041861572e+00
2.001045194268226624e+01 1.144191621243953705e+01 -1.806367598846549072e+00
1.593696561455726624e+01 9.822653517127037048e+00 -1.495210372284049072e+00
1.582502713799476624e+01 9.955221876502037048e+00 -1.491594039276236572e+00
1.612776151299476624e+01 1.028481172025203705e+01 -1.520555220916861572e+00
1.625886502861976624e+01 1.053932832181453705e+01 -1.536225997284049072e+00
1.618708768486976624e+01 1.069740937650203705e+01 -1.535936080291861572e+00
1.610285916924476624e+01 1.084841035306453705e+01 -1.534639083221549072e+00
2.141194120049476624e+01 1.181606172025203705e+01 -1.804582320526236572e+00
2.131208768486976624e+01 1.201772187650203705e+01 -1.803712569549674072e+00
1.593830838799476624e+01 9.823141798377037048e+00 -1.418306075409049072e+00
1.582636991143226624e+01 9.955710157752037048e+00 -1.414903365448111572e+00
1.612702909111976624e+01 1.028420136868953705e+01 -1.441789351776236572e+00
1.666401639580726624e+01 1.073793672025203705e+01 -1.486375533416861572e+00
2.136872830986976624e+01 1.330592988431453705e+01 -1.840547286346549072e+00
1.859480252861976624e+01 1.213393281400203705e+01 -1.640596114471549072e+00
4.282185330986976624e+01 2.103212617337703705e+01 -3.140321456268424072e+00
3.306123319268226624e+01 1.721449922025203705e+01 -2.493058883026236572e+00
1.593965116143226624e+01 9.823630079627037048e+00 -1.341432296112174072e+00
1.582771268486976624e+01 9.956198439002037048e+00 -1.338227950409049072e+00
1.612629666924476624e+01 1.028359101712703705e+01 -1.363084517791861572e+00
1.666303983330726624e+01 1.073708222806453705e+01 -1.404527388885611572e+00
2.231721463799476624e+01 1.378298066556453705e+01 -1.799012862518424072e+00
1.859602323174476624e+01 1.213405488431453705e+01 -1.547609053924674072e+00
4.216816678643226624e+01 2.075063203275203705e+01 -2.888887130096549072e+00
3.307136502861976624e+01 1.721889375150203705e+01 -2.331041060760611572e+00
1.594099393486976624e+01 9.824118360877037048e+00 -1.264192305877799072e+00
1.582905545830726624e+01 9.956564649939537048e+00 -1.261201583221549072e+00
1.612556424736976624e+01 1.028298066556453705e+01 -1.284013472869986572e+00
1.666206327080726624e+01 1.073634980618953705e+01 -1.322297774627799072e+00
2.851203885674476624e+01 1.690114472806453705e+01 -2.083345137909049072e+00
1.859712186455726624e+01 1.213405488431453705e+01 -1.455171309784049072e+00
4.376972928643226624e+01 2.144008515775203705e+01 -2.772096358612174072e+00
3.308161893486976624e+01 1.722328828275203705e+01 -2.169038497284049072e+00
1.594233670830726624e+01 9.824484571814537048e+00 -1.187394820526236572e+00
1.583052030205726624e+01 9.957052931189537048e+00 -1.184617720916861572e+00
1.612483182549476624e+01 1.028237031400203705e+01 -1.205430709198111572e+00
1.666120877861976624e+01 1.073549531400203705e+01 -1.240586959198111572e+00
2.308503690361976624e+01 1.416835664212703705e+01 -1.621705733612174072e+00
1.859822049736976624e+01 1.213405488431453705e+01 -1.362291060760611572e+00
4.217292752861976624e+01 2.075270722806453705e+01 -2.473497115448111572e+00
3.309663358330726624e+01 1.722975800931453705e+01 -2.006410323455924072e+00
1.594367948174476624e+01 9.824972853064537048e+00 -1.110231124237174072e+00
1.583186307549476624e+01 9.957541212439537048e+00 -1.107652388885611572e+00
1.612409940361976624e+01 1.028175996243953705e+01 -1.126496993377799072e+00
1.666023221611976624e+01 1.073464082181453705e+01 -1.158494674041861572e+00
2.296321073174476624e+01 1.410646699368953705e+01 -1.499543868377799072e+00
1.859931913018226624e+01 1.213417695462703705e+01 -1.269960128143424072e+00
4.235224881768226624e+01 2.082985566556453705e+01 -2.273790084198111572e+00
3.311750760674476624e+01 1.723891328275203705e+01 -1.844911300018424072e+00
1.594502225518226624e+01 9.825461134314537048e+00 -1.033525191619986572e+00
1.583320584893226624e+01 9.957907423377037048e+00 -1.031144820526236572e+00
1.612336698174476624e+01 1.028114961087703705e+01 -1.048036300018424072e+00
1.665925565361976624e+01 1.073378632962703705e+01 -1.076905928924674072e+00
2.311604276299476624e+01 1.418276093900203705e+01 -1.392625533416861572e+00
1.860053983330726624e+01 1.213417695462703705e+01 -1.177171431854361572e+00
4.198030057549476624e+01 2.066969941556453705e+01 -2.050248824432486572e+00
3.315461698174476624e+01 1.725514863431453705e+01 -1.683122359588736572e+00
1.594636502861976624e+01 9.825949415564537048e+00 -9.564377892762365718e-01
1.583467069268226624e+01 9.958395704627037048e+00 -9.542557824402990718e-01
1.612263455986976624e+01 1.028053925931453705e+01 -9.692093957215490718e-01
1.665827909111976624e+01 1.073305390775203705e+01 -9.949509728699865718e-01
2.578755155205726624e+01 1.552687714993953705e+01 -1.392503463104361572e+00
1.860163846611976624e+01 1.213417695462703705e+01 -1.084947310760611572e+00
1.421662870049476624e+01 8.718649610877037048e+00 -8.105942834168615718e-01
3.319685330986976624e+01 1.727358125150203705e+01 -1.521257125213736572e+00
1.594770780205726624e+01 9.826437696814537048e+00 -8.797928918152990718e-01
1.583601346611976624e+01 9.958883985877037048e+00 -8.778245080262365718e-01
1.612202420830726624e+01 1.027992890775203705e+01 -8.908707726746740718e-01
1.665730252861976624e+01 1.073219941556453705e+01 -9.134995568543615718e-01
2.173139920830726624e+01 1.348476289212703705e+01 -1.108705245330924072e+00
1.860273709893226624e+01 1.213417695462703705e+01 -9.922806847840490718e-01
2.378242459893226624e+01 1.283632539212703705e+01 -1.050798140838736572e+00
2.418208280205726624e+01 1.328627656400203705e+01 -1.067125045135611572e+00
1.596015897393226624e+01 9.831930860877037048e+00 -8.031479943543615718e-01
1.584907498955726624e+01 9.964743360877037048e+00 -8.013932336121740718e-01
1.615949979424476624e+01 1.029762910306453705e+01 -8.134324181824865718e-01
1.668501248955726624e+01 1.074538300931453705e+01 -8.326127160340490718e-01
2.578865018486976624e+01 1.552614472806453705e+01 -1.134629927948111572e+00
1.860383573174476624e+01 1.213429902493953705e+01 -8.996598351746740718e-01
7.572707802057266235e+00 6.448508009314537048e+00 -1.212709151580924072e+00
7.548049598932266235e+00 6.522848829627037048e+00 -1.213655196502799072e+00
7.519241005182266235e+00 6.595358595252037048e+00 -1.214250289276236572e+00
7.486282020807266235e+00 6.666037306189537048e+00 -1.214326583221549072e+00
7.453323036432266235e+00 6.736593946814537048e+00 -1.214402877166861572e+00
7.420364052057266235e+00 6.807272657752037048e+00 -1.214479171112174072e+00
7.387282997369766235e+00 6.878317579627037048e+00 -1.214555465057486572e+00
