1.232191464304924011e+01 5.844054818153381348e+00 -1.514475658908480682e+00
1.001515194773674011e+01 5.376403450965881348e+00 -1.275172070041293182e+00
9.957656830549240112e+00 5.457091927528381348e+00 -1.272272900119418182e+00
9.908340424299240112e+00 5.539611458778381348e+00 -1.270243481174105682e+00
1.004640194773674011e+01 5.674987435340881348e+00 -1.288386181369418182e+00
1.262611386179924011e+01 5.552550911903381348e+00 -1.479487255588168182e+00
1.256385800242424011e+01 5.659972786903381348e+00 -1.477183178439730682e+00
1.250184628367424011e+01 5.766784310340881348e+00 -1.474894360080355682e+00
1.244007870554924011e+01 5.873351693153381348e+00 -1.472605541720980682e+00
1.001637265086174011e+01 5.377135872840881348e+00 -1.232447460666293182e+00
9.958877533674240112e+00 5.457702279090881348e+00 -1.229716137424105682e+00
9.909561127424240112e+00 5.540221810340881348e+00 -1.227808788791293182e+00
1.004713436961174011e+01 5.675353646278381348e+00 -1.244883373752230682e+00
1.274964901804924011e+01 5.579528450965881348e+00 -1.436457470431918182e+00
1.268702694773674011e+01 5.688048958778381348e+00 -1.434031322970980682e+00
1.262403866648674011e+01 5.795959115028381348e+00 -1.431834057345980682e+00
1.256129452586174011e+01 5.903503060340881348e+00 -1.429652050510043182e+00
1.001771542429924011e+01 5.377746224403381348e+00 -1.189509228244418182e+00
9.960098236799240112e+00 5.458434700965881348e+00 -1.186945751681918182e+00
9.910659760236740112e+00 5.540832161903381348e+00 -1.185160473361605682e+00
1.004774472117424011e+01 5.675841927528381348e+00 -1.201655224338168182e+00
1.287648007273674011e+01 5.607116341590881348e+00 -1.392283276095980682e+00
1.333180233836174011e+01 5.832580208778381348e+00 -1.437052563205355682e+00
1.346607968211174011e+01 5.993224740028381348e+00 -1.453089550510043182e+00
1.360462948679924011e+01 6.158874154090881348e+00 -1.469614819064730682e+00
1.001893612742424011e+01 5.378478646278381348e+00 -1.146815136447543182e+00
9.961441010236740112e+00 5.459045052528381348e+00 -1.144419506564730682e+00
9.911880463361740112e+00 5.541442513465881348e+00 -1.142756298556918182e+00
1.004847714304924011e+01 5.676330208778381348e+00 -1.158198193088168182e+00
1.343336483836174011e+01 5.726134896278381348e+00 -1.383875683322543182e+00
1.356007382273674011e+01 5.884093880653381348e+00 -1.398447826877230682e+00
1.370130917429924011e+01 6.048766732215881348e+00 -1.414027050510043182e+00
1.384571835398674011e+01 6.218322396278381348e+00 -1.430323437228793182e+00
1.002015683054924011e+01 5.379088997840881348e+00 -1.103907421603793182e+00
9.962661713361740112e+00 5.459777474403381348e+00 -1.101679638400668182e+00
9.912979096174240112e+00 5.542052865028381348e+00 -1.100367382541293182e+00
1.004908749461174011e+01 5.676818490028381348e+00 -1.115000561252230682e+00
1.470277401804924011e+01 5.996886849403381348e+00 -1.427225903049105682e+00
1.463575741648674011e+01 6.124938607215881348e+00 -1.425776318088168182e+00
1.456922909617424011e+01 6.252257943153381348e+00 -1.424341991916293182e+00
1.450270077586174011e+01 6.379455208778381348e+00 -1.422907665744418182e+00
1.002137753367424011e+01 5.379821419715881348e+00 -1.061243847385043182e+00
9.963882416486740112e+00 5.460387825965881348e+00 -1.059183910861605682e+00
9.914199799299240112e+00 5.542663216590881348e+00 -1.057764843478793182e+00
1.004981991648674011e+01 5.677306771278381348e+00 -1.071589306369418182e+00
2.258070370554924011e+01 7.674255013465881348e+00 -1.959315136447543182e+00
2.404396054148674011e+01 8.226256966590881348e+00 -2.076487377658480682e+00
6.529835507273674011e+01 1.811260950565338135e+01 -5.229334667697543182e+00
6.441322323679924011e+01 1.857720911502838135e+01 -5.179682568088168182e+00
1.002259823679924011e+01 5.380553841590881348e+00 -1.018595531955355682e+00
9.965103119611740112e+00 5.461120247840881348e+00 -1.016703442111605682e+00
9.915420502424240112e+00 5.543395638465881348e+00 -1.015406445041293182e+00
1.005043026804924011e+01 5.677795052528381348e+00 -1.028437450900668182e+00
2.301136776804924011e+01 7.767150521278381348e+00 -1.887919262424105682e+00
2.407276913523674011e+01 8.233825325965881348e+00 -1.969385937228793182e+00
4.763807675242424011e+01 1.398614466190338135e+01 -3.660761669650668182e+00
4.878895565867424011e+01 1.476104700565338135e+01 -3.755945995822543182e+00
1.002381893992424011e+01 5.381164193153381348e+00 -9.757335934787931819e-01
9.966323822736740112e+00 5.461730599403381348e+00 -9.740093503147306819e-01
9.916519135236740112e+00 5.544005990028381348e+00 -9.728344235569181819e-01
1.005104061961174011e+01 5.678283333778381348e+00 -9.850719723850431819e-01
2.299159237742424011e+01 7.764098763465881348e+00 -1.783243969455355682e+00
1.377943417429924011e+01 5.935729622840881348e+00 -1.175944164767855682e+00
6.179408261179924011e+01 1.729913294315338135e+01 -4.385844067111605682e+00
4.740370175242424011e+01 1.442449915409088135e+01 -3.436732128635043182e+00
1.002503964304924011e+01 5.381896615028381348e+00 -9.331157956272306819e-01
9.967544525861740112e+00 5.462463021278381348e+00 -9.315593991428556819e-01
9.917739838361740112e+00 5.544616341590881348e+00 -9.305218014866056819e-01
1.005177304148674011e+01 5.678771615028381348e+00 -9.419658932834806819e-01
2.297169491648674011e+01 7.761047005653381348e+00 -1.678248241916293182e+00
1.376417538523674011e+01 5.932922005653381348e+00 -1.114634350314730682e+00
1.394642636179924011e+01 6.109191536903381348e+00 -1.129374340549105682e+00
4.887904354929924011e+01 1.478729212284088135e+01 -3.309031322970980682e+00
1.002626034617424011e+01 5.382629036903381348e+00 -8.905132565647306819e-01
9.968765228986740112e+00 5.463073372840881348e+00 -8.891247067600431819e-01
9.918960541486740112e+00 5.545226693153381348e+00 -8.879802975803556819e-01
1.005238339304924011e+01 5.679137825965881348e+00 -8.986461911350431819e-01
2.295191952586174011e+01 7.758117318153381348e+00 -1.574076488986605682e+00
1.374903866648674011e+01 5.930236458778381348e+00 -1.053828075900668182e+00
2.411842343211174011e+01 8.489806771278381348e+00 -1.651072338595980682e+00
1.355030819773674011e+01 6.149474740028381348e+00 -1.048319653049105682e+00
1.002748104929924011e+01 5.383239388465881348e+00 -8.476970944553556819e-01
9.969985932111740112e+00 5.463683724403381348e+00 -8.464763913303556819e-01
9.920059174299240112e+00 5.545837044715881348e+00 -8.456981930881681819e-01
1.005311581492424011e+01 5.679626107215881348e+00 -8.555858884006681819e-01
2.293214413523674011e+01 7.755065560340881348e+00 -1.469599560275668182e+00
1.373390194773674011e+01 5.927428841590881348e+00 -9.932049069553556819e-01
2.413380429148674011e+01 8.494445443153381348e+00 -1.542963818088168182e+00
1.353565976023674011e+01 6.146422982215881348e+00 -9.883526120334806819e-01
1.002870175242424011e+01 5.383971810340881348e+00 -8.051250729709806819e-01
9.971328705549240112e+00 5.464416146278381348e+00 -8.040722165256681819e-01
9.921279877424240112e+00 5.546569466590881348e+00 -8.034160885959806819e-01
1.005372616648674011e+01 5.680114388465881348e+00 -8.123119626194181819e-01
2.291261288523674011e+01 7.752013802528381348e+00 -1.365931347385043182e+00
1.371876522898674011e+01 5.924743294715881348e+00 -9.324444089084806819e-01
1.361952206492424011e+01 6.034484505653381348e+00 -9.303386960178556819e-01
1.352101132273674011e+01 6.143493294715881348e+00 -9.282329831272306819e-01
1.002992245554924011e+01 5.384582161903381348e+00 -7.623546872287931819e-01
9.972549408674240112e+00 5.465026497840881348e+00 -7.614696774631681819e-01
9.922378510236740112e+00 5.547179818153381348e+00 -7.609356198459806819e-01
1.005433651804924011e+01 5.680602669715881348e+00 -7.692821774631681819e-01
2.289283749461174011e+01 7.749084115028381348e+00 -1.261957958713168182e+00
1.384718319773674011e+01 5.954162240028381348e+00 -8.783520016819181819e-01
1.360475155711174011e+01 6.031676888465881348e+00 -8.704021725803556819e-01
4.876942440867424011e+01 1.476910364627838135e+01 -2.396830395236605682e+00
1.003126522898674011e+01 5.385314583778381348e+00 -7.198131833225431819e-01
9.973770111799240112e+00 5.465758919715881348e+00 -7.190960202366056819e-01
9.923599213361740112e+00 5.547790169715881348e+00 -7.186840329319181819e-01
1.005506893992424011e+01 5.681090950965881348e+00 -7.260540280491056819e-01
1.402406308054924011e+01 5.858825325965881348e+00 -8.222149167209806819e-01
1.368873593211174011e+01 5.919372200965881348e+00 -8.117931637912931819e-01
1.352345272898674011e+01 6.013244271278381348e+00 -8.077801022678556819e-01
4.887879940867424011e+01 1.479791224002838135e+01 -2.174479321017855682e+00
1.003248593211174011e+01 5.386047005653381348e+00 -6.770580563694181819e-01
9.974990814924240112e+00 5.466369271278381348e+00 -6.765087399631681819e-01
9.924819916486740112e+00 5.548400521278381348e+00 -6.762340817600431819e-01
1.005567929148674011e+01 5.681579232215881348e+00 -6.830700192600431819e-01
1.377345272898674011e+01 5.806090950965881348e+00 -7.527111325412931819e-01
3.910731503367424011e+01 1.160711634159088135e+01 -1.603571728244418182e+00
2.414601132273674011e+01 8.501769661903381348e+00 -1.106959179416293182e+00
6.306202694773674011e+01 1.827191126346588135e+01 -2.429133251681918182e+00
1.003370663523674011e+01 5.386657357215881348e+00 -6.345470700412931819e-01
9.976211518049240112e+00 5.467101693153381348e+00 -6.341656003147306819e-01
9.925918549299240112e+00 5.549010872840881348e+00 -6.337993893772306819e-01
1.005641171336174011e+01 5.682067513465881348e+00 -6.398723874241056819e-01
1.375831601023674011e+01 5.803649544715881348e+00 -6.923626217991056819e-01
1.321510311961174011e+01 5.814635872840881348e+00 -6.790722165256681819e-01
2.414381405711174011e+01 8.502380013465881348e+00 -9.976146969944181819e-01
6.419667050242424011e+01 1.855242884159088135e+01 -2.168131664767855682e+00
1.004725643992424011e+01 5.390563607215881348e+00 -5.922039303928556819e-01
9.989883393049240112e+00 5.471007943153381348e+00 -5.919750485569181819e-01
9.936782807111740112e+00 5.552306771278381348e+00 -5.918834958225431819e-01
1.009303280711174011e+01 5.692809700965881348e+00 -5.977886471897306819e-01
8.364395111799240112e+00 5.191711068153381348e+00 -1.215357616916293182e+00
8.357070893049240112e+00 5.269225716590881348e+00 -1.217448071017855682e+00
8.347305268049240112e+00 5.346252083778381348e+00 -1.219416454806918182e+00
8.331924408674240112e+00 5.422057747840881348e+00 -1.220743969455355682e+00
8.300430268049240112e+00 5.492492318153381348e+00 -1.220072582736605682e+00
8.268936127424240112e+00 5.562682747840881348e+00 -1.219401196017855682e+00
8.237441986799240112e+00 5.632995247840881348e+00 -1.218745068088168182e+00
8.203750580549240112e+00 5.702087044715881348e+00 -1.217982128635043182e+00
8.876724213361740112e+00 5.339049935340881348e+00 -1.239420727267855682e+00
8.862197846174240112e+00 5.419860482215881348e+00 -1.240961864963168182e+00
8.830581635236740112e+00 5.495666146278381348e+00 -1.240336254611605682e+00
8.796401947736740112e+00 5.570739388465881348e+00 -1.239603832736605682e+00
8.762222260236740112e+00 5.645446419715881348e+00 -1.238871410861605682e+00
8.728286713361740112e+00 5.719909310340881348e+00 -1.238138988986605682e+00
8.691665619611740112e+00 5.793517708778381348e+00 -1.237299755588168182e+00
8.660537689924240112e+00 5.868713021278381348e+00 -1.236903027072543182e+00
9.472549408674240112e+00 5.510314583778381348e+00 -1.267817333713168182e+00
9.430679291486740112e+00 5.589416146278381348e+00 -1.266505077853793182e+00
9.388931244611740112e+00 5.668273568153381348e+00 -1.265192821994418182e+00
9.357315033674240112e+00 5.750304818153381348e+00 -1.265040234103793182e+00
9.328994721174240112e+00 5.833068490028381348e+00 -1.265223339572543182e+00
9.300552338361740112e+00 5.915710091590881348e+00 -1.265391186252230682e+00
9.272109955549240112e+00 5.998717904090881348e+00 -1.265574291720980682e+00
9.243667572736740112e+00 6.081359505653381348e+00 -1.265757397189730682e+00
1.004811093211174011e+01 5.675719857215881348e+00 -1.288569286838168182e+00
1.028248593211174011e+01 5.843444466590881348e+00 -1.316859081760043182e+00
1.007655331492424011e+01 5.880797982215881348e+00 -1.298334911838168182e+00
1.003016659617424011e+01 5.965636849403381348e+00 -1.296854809299105682e+00
9.984024018049240112e+00 6.049987435340881348e+00 -1.295374706760043182e+00
9.938003510236740112e+00 6.133971810340881348e+00 -1.293925121799105682e+00
9.894302338361740112e+00 6.218688607215881348e+00 -1.292704418674105682e+00
9.860122650861740112e+00 6.306213021278381348e+00 -1.292734936252230682e+00
1.004872128367424011e+01 5.676208138465881348e+00 -1.245066479220980682e+00
1.028309628367424011e+01 5.843810677528381348e+00 -1.272318676486605682e+00
1.053163143992424011e+01 6.021545052528381348e+00 -1.301218822970980682e+00
1.079664608836174011e+01 6.211120247840881348e+00 -1.332011059299105682e+00
1.074574276804924011e+01 6.302184700965881348e+00 -1.330424145236605682e+00
1.059608456492424011e+01 6.359191536903381348e+00 -1.318583324924105682e+00
1.047535702586174011e+01 6.424010872840881348e+00 -1.309687450900668182e+00
1.047071835398674011e+01 6.528869271278381348e+00 -1.312815502658480682e+00
1.004945370554924011e+01 5.676696419715881348e+00 -1.201823071017855682e+00
1.028370663523674011e+01 5.844298958778381348e+00 -1.227549389377230682e+00
1.053224179148674011e+01 6.022033333778381348e+00 -1.255091503635043182e+00
1.079713436961174011e+01 6.211486458778381348e+00 -1.284449413791293182e+00
1.107814022898674011e+01 6.412414193153381348e+00 -1.315577343478793182e+00
1.221766659617424011e+01 6.914001107215881348e+00 -1.431681469455355682e+00
1.199562069773674011e+01 6.961364388465881348e+00 -1.413767651095980682e+00
1.184877011179924011e+01 7.031310677528381348e+00 -1.403452709689730682e+00
1.005006405711174011e+01 5.677184700965881348e+00 -1.158366039767855682e+00
1.028443905711174011e+01 5.844665169715881348e+00 -1.183054760470980682e+00
1.053285214304924011e+01 6.022399544715881348e+00 -1.209238842502230682e+00
1.079762265086174011e+01 6.211852669715881348e+00 -1.237147167697543182e+00
1.107862851023674011e+01 6.412780404090881348e+00 -1.266764477267855682e+00
1.320423886179924011e+01 7.251647591590881348e+00 -1.469645336642855682e+00
1.312599179148674011e+01 7.360778450965881348e+00 -1.466517284885043182e+00
1.277491757273674011e+01 7.369201302528381348e+00 -1.437571362033480682e+00
1.005079647898674011e+01 5.677672982215881348e+00 -1.115153149142855682e+00
1.028504940867424011e+01 5.845153450965881348e+00 -1.138575390353793182e+00
1.053346249461174011e+01 6.022765755653381348e+00 -1.163172558322543182e+00
1.079823300242424011e+01 6.212218880653381348e+00 -1.189631298556918182e+00
1.107911679148674011e+01 6.413024544715881348e+00 -1.217707470431918182e+00
1.450868222117424011e+01 7.698180794715881348e+00 -1.525935009494418182e+00
1.439942929148674011e+01 7.810973763465881348e+00 -1.521021679416293182e+00
1.289564511179924011e+01 7.413268685340881348e+00 -1.390742138400668182e+00
1.005140683054924011e+01 5.678039193153381348e+00 -1.071741894260043182e+00
1.028565976023674011e+01 5.845641732215881348e+00 -1.093882397189730682e+00
1.053395077586174011e+01 6.023254036903381348e+00 -1.117365673556918182e+00
1.079872128367424011e+01 6.212585091590881348e+00 -1.142390087619418182e+00
1.107948300242424011e+01 6.413390755653381348e+00 -1.168940380588168182e+00
1.471229550242424011e+01 7.768005013465881348e+00 -1.477351025119418182e+00
1.460157772898674011e+01 7.882506966590881348e+00 -1.472346142306918182e+00
1.289723202586174011e+01 7.413879036903381348e+00 -1.332346752658480682e+00
1.005201718211174011e+01 5.678527474403381348e+00 -1.028574780002230682e+00
1.028627011179924011e+01 5.846007943153381348e+00 -1.049448803439730682e+00
1.053456112742424011e+01 6.023620247840881348e+00 -1.071589306369418182e+00
1.079920956492424011e+01 6.212951302528381348e+00 -1.095179394260043182e+00
1.107997128367424011e+01 6.413756966590881348e+00 -1.120203808322543182e+00
1.804054257273674011e+01 8.906921029090881348e+00 -1.674174145236605682e+00
1.802113339304924011e+01 9.091003060340881348e+00 -1.677729443088168182e+00
1.289881893992424011e+01 7.414611458778381348e+00 -1.274302319064730682e+00
1.005274960398674011e+01 5.679015755653381348e+00 -9.852093014866056819e-01
1.028688046336174011e+01 5.846496224403381348e+00 -1.004801586642855682e+00
1.053517147898674011e+01 6.023986458778381348e+00 -1.025584057345980682e+00
1.079969784617424011e+01 6.213317513465881348e+00 -1.047739819064730682e+00
1.108045956492424011e+01 6.414001107215881348e+00 -1.071223095431918182e+00
4.817152401804924011e+01 1.921697962284088135e+01 -3.828516796603793182e+00
5.017494198679924011e+01 2.045416224002838135e+01 -3.991251781955355682e+00
1.290040585398674011e+01 7.415221810340881348e+00 -1.215967968478793182e+00
1.005335995554924011e+01 5.679504036903381348e+00 -9.420879635959806819e-01
1.028749081492424011e+01 5.846984505653381348e+00 -9.604137692600431819e-01
1.053565976023674011e+01 6.024474740028381348e+00 -9.798534665256681819e-01
1.080030819773674011e+01 6.213683724403381348e+00 -1.000574902072543182e+00
1.108094784617424011e+01 6.414367318153381348e+00 -1.022547558322543182e+00
4.392628476023674011e+01 1.776495325565338135e+01 -3.304514721408480682e+00
4.842286679148674011e+01 1.983550989627838135e+01 -3.629267529025668182e+00
1.290199276804924011e+01 7.415832161903381348e+00 -1.157954052463168182e+00
1.005409237742424011e+01 5.679992318153381348e+00 -8.987682614475431819e-01
1.028810116648674011e+01 5.847350716590881348e+00 -9.158123288303556819e-01
1.053627011179924011e+01 6.024840950965881348e+00 -9.341533932834806819e-01
1.080079647898674011e+01 6.214049935340881348e+00 -9.534252438694181819e-01
1.108131405711174011e+01 6.414733529090881348e+00 -9.738872800022306819e-01
4.385511776804924011e+01 1.774114954471588135e+01 -3.091318920627230682e+00
5.097560116648674011e+01 2.073809778690338135e+01 -3.562098339572543182e+00
1.290357968211174011e+01 7.416564583778381348e+00 -1.099665478244418182e+00
1.005470272898674011e+01 5.680480599403381348e+00 -8.556926999241056819e-01
1.028871151804924011e+01 5.847838997840881348e+00 -8.714702878147306819e-01
1.053688046336174011e+01 6.025207161903381348e+00 -8.882244382053556819e-01
1.080128476023674011e+01 6.214416146278381348e+00 -9.060619626194181819e-01
1.108180233836174011e+01 6.414977669715881348e+00 -9.249981198459806819e-01
4.382142636179924011e+01 1.773028528690338135e+01 -2.880091503635043182e+00
5.261830136179924011e+01 2.131915247440338135e+01 -3.416941479220980682e+00
1.290516659617424011e+01 7.417174935340881348e+00 -1.041697338595980682e+00
1.005543515086174011e+01 5.680968880653381348e+00 -8.124035153537931819e-01
1.028932186961174011e+01 5.848205208778381348e+00 -8.271587643772306819e-01
1.053736874461174011e+01 6.025695443153381348e+00 -8.425701413303556819e-01
1.080177304148674011e+01 6.214782357215881348e+00 -8.589885983616056819e-01
1.108229061961174011e+01 6.415343880653381348e+00 -8.763988766819181819e-01
4.387623593211174011e+01 1.774957239627838135e+01 -2.675272778049105682e+00
2.369435116648674011e+01 1.109698450565338135e+01 -1.574549511447543182e+00
1.290675351023674011e+01 7.417907357215881348e+00 -9.834545407444181819e-01
1.005604550242424011e+01 5.681457161903381348e+00 -7.693737301975431819e-01
1.028993222117424011e+01 5.848693490028381348e+00 -7.826336178928556819e-01
1.053797909617424011e+01 6.026061654090881348e+00 -7.966869626194181819e-01
1.080238339304924011e+01 6.215148568153381348e+00 -8.116710934787931819e-01
1.108265683054924011e+01 6.415588021278381348e+00 -8.275554928928556819e-01
4.928712460398674011e+01 1.960198938846588135e+01 -2.736277416720980682e+00
2.356153866648674011e+01 1.105035364627838135e+01 -1.456965282931918182e+00
1.290834042429924011e+01 7.418517708778381348e+00 -9.255474362522306819e-01
1.005665585398674011e+01 5.681823372840881348e+00 -7.261303219944181819e-01
1.029054257273674011e+01 5.849181771278381348e+00 -7.383526120334806819e-01
1.053858944773674011e+01 6.026427865028381348e+00 -7.510784421116056819e-01
1.080287167429924011e+01 6.215514779090881348e+00 -7.646435055881681819e-01
1.108314511179924011e+01 6.415954232215881348e+00 -7.790172848850431819e-01
4.832569882273674011e+01 1.927362024784088135e+01 -2.458903149142855682e+00
5.321351620554924011e+01 2.153118860721588135e+01 -2.688914135470980682e+00
1.290992733836174011e+01 7.419128060340881348e+00 -8.673504147678556819e-01
1.005738827586174011e+01 5.682311654090881348e+00 -6.831310544162931819e-01
1.029115292429924011e+01 5.849547982215881348e+00 -6.938732419162931819e-01
1.053907772898674011e+01 6.026916146278381348e+00 -7.052410397678556819e-01
1.080335995554924011e+01 6.215880990028381348e+00 -7.173717770725431819e-01
1.108363339304924011e+01 6.416320443153381348e+00 -7.302349362522306819e-01
5.080555722117424011e+01 2.012298548221588135e+01 -2.328074291720980682e+00
6.563795468211174011e+01 2.592327845096588135e+01 -2.935160473361605682e+00
1.291151425242424011e+01 7.419860482215881348e+00 -8.094738278537931819e-01
1.005799862742424011e+01 5.682799935340881348e+00 -6.399334225803556819e-01
1.029176327586174011e+01 5.850036263465881348e+00 -6.494091305881681819e-01
1.053968808054924011e+01 6.027282357215881348e+00 -6.596935544162931819e-01
1.080384823679924011e+01 6.216247200965881348e+00 -6.703899655491056819e-01
1.108412167429924011e+01 6.416564583778381348e+00 -6.817425046116056819e-01
5.130970761179924011e+01 2.029620325565338135e+01 -2.104792431369418182e+00
4.857704159617424011e+01 1.989324915409088135e+01 -2.014384106174105682e+00
1.291310116648674011e+01 7.420470833778381348e+00 -7.513225827366056819e-01
1.009461972117424011e+01 5.693664193153381348e+00 -5.978344235569181819e-01
1.033058163523674011e+01 5.861877083778381348e+00 -6.063488278537931819e-01
1.058106991648674011e+01 6.040343880653381348e+00 -6.151378903537931819e-01
1.084803768992424011e+01 6.230529427528381348e+00 -6.245067868381681819e-01
4.154762265086174011e+01 1.650640833377838135e+01 -1.557047680392855682e+00
4.873048397898674011e+01 1.941400110721588135e+01 -1.781504467502230682e+00
4.848463436961174011e+01 1.986114466190338135e+01 -1.780634716525668182e+00
1.294117733836174011e+01 7.430724740028381348e+00 -6.939953122287931819e-01
8.203750580549240112e+00 5.702331185340881348e+00 -1.217982128635043182e+00
8.171890228986740112e+00 5.771911263465881348e+00 -1.217295483127230682e+00
8.137832611799240112e+00 5.840636849403381348e+00 -1.216517284885043182e+00
8.103774994611740112e+00 5.909484505653381348e+00 -1.215754345431918182e+00
8.067031830549240112e+00 5.976867318153381348e+00 -1.214625195041293182e+00
8.029922455549240112e+00 6.043761849403381348e+00 -1.213435009494418182e+00
7.992691010236740112e+00 6.110778450965881348e+00 -1.212244823947543182e+00
7.953262299299240112e+00 6.176330208778381348e+00 -1.210932568088168182e+00
8.660415619611740112e+00 5.868957161903381348e+00 -1.236903027072543182e+00
8.627944916486740112e+00 5.943420052528381348e+00 -1.236552074924105682e+00
8.598403900861740112e+00 6.019103646278381348e+00 -1.236353710666293182e+00
8.565811127424240112e+00 6.093810677528381348e+00 -1.236002758517855682e+00
8.533218353986740112e+00 6.168273568153381348e+00 -1.235636547580355682e+00
8.500747650861740112e+00 6.242614388465881348e+00 -1.235285595431918182e+00
8.465347260236740112e+00 6.315978646278381348e+00 -1.234782055392855682e+00
8.432876557111740112e+00 6.390197396278381348e+00 -1.234431103244418182e+00
9.243545502424240112e+00 6.081603646278381348e+00 -1.265742138400668182e+00
9.212173432111740112e+00 6.163146615028381348e+00 -1.265803173556918182e+00
9.180801361799240112e+00 6.244811654090881348e+00 -1.265848949924105682e+00
9.149307221174240112e+00 6.326598763465881348e+00 -1.265894726291293182e+00
9.117446869611740112e+00 6.408141732215881348e+00 -1.265894726291293182e+00
9.075576752424240112e+00 6.485290169715881348e+00 -1.264719799533480682e+00
9.031265228986740112e+00 6.561706185340881348e+00 -1.263270214572543182e+00
8.987319916486740112e+00 6.637511849403381348e+00 -1.261835888400668182e+00
9.859756439924240112e+00 6.306335091590881348e+00 -1.292704418674105682e+00
9.829727143049240112e+00 6.395446419715881348e+00 -1.292918041720980682e+00
9.787368744611740112e+00 6.479797005653381348e+00 -1.292017773166293182e+00
9.743911713361740112e+00 6.563903450965881348e+00 -1.290995434299105682e+00
9.700820893049240112e+00 6.647643685340881348e+00 -1.289988354220980682e+00
9.657730072736740112e+00 6.731261849403381348e+00 -1.288981274142855682e+00
9.614517182111740112e+00 6.814880013465881348e+00 -1.287974194064730682e+00
9.568374603986740112e+00 6.896667122840881348e+00 -1.286845043674105682e+00
1.047059628367424011e+01 6.529235482215881348e+00 -1.312815502658480682e+00
1.046363827586174011e+01 6.633849740028381348e+00 -1.315897778049105682e+00
1.045668026804924011e+01 6.739074349403381348e+00 -1.318995312228793182e+00
1.040382382273674011e+01 6.827209115028381348e+00 -1.317301586642855682e+00
1.033949276804924011e+01 6.909850716590881348e+00 -1.314356640353793182e+00
1.027540585398674011e+01 6.992126107215881348e+00 -1.311426952853793182e+00
1.021156308054924011e+01 7.074035286903381348e+00 -1.308512524142855682e+00
1.014820858836174011e+01 7.155334115028381348e+00 -1.305613354220980682e+00
1.184779354929924011e+01 7.031432747840881348e+00 -1.403376415744418182e+00
1.170716854929924011e+01 7.101501107215881348e+00 -1.393214062228793182e+00
1.109925839304924011e+01 6.988097786903381348e+00 -1.336436108127230682e+00
1.109388729929924011e+01 7.102599740028381348e+00 -1.339838818088168182e+00
1.108863827586174011e+01 7.217467904090881348e+00 -1.343256786838168182e+00
1.108326718211174011e+01 7.333190560340881348e+00 -1.346705273166293182e+00
1.104615780711174011e+01 7.436339974403381348e+00 -1.346964672580355682e+00
1.098194882273674011e+01 7.527160286903381348e+00 -1.344721630588168182e+00
1.277162167429924011e+01 7.368346810340881348e+00 -1.437266186252230682e+00
1.234059140086174011e+01 7.339660286903381348e+00 -1.400660351291293182e+00
1.203785702586174011e+01 7.351745247840881348e+00 -1.375971630588168182e+00
1.191395565867424011e+01 7.429748177528381348e+00 -1.368220165744418182e+00
1.188209530711174011e+01 7.543273568153381348e+00 -1.369227245822543182e+00
1.185023495554924011e+01 7.657043099403381348e+00 -1.370234325900668182e+00
1.181800839304924011e+01 7.771422982215881348e+00 -1.371241405978793182e+00
1.178602597117424011e+01 7.885802865028381348e+00 -1.372263744845980682e+00
1.289479061961174011e+01 7.413390755653381348e+00 -1.390681103244418182e+00
1.281202694773674011e+01 7.516906380653381348e+00 -1.387308910861605682e+00
1.274037167429924011e+01 7.623962044715881348e+00 -1.384623363986605682e+00
1.300892636179924011e+01 7.866759896278381348e+00 -1.413081005588168182e+00
1.326502987742424011e+01 8.111144661903381348e+00 -1.440607861056918182e+00
1.314881893992424011e+01 8.205505013465881348e+00 -1.434351757541293182e+00
1.301441952586174011e+01 8.290832161903381348e+00 -1.426707104220980682e+00
1.287648007273674011e+01 8.372130990028381348e+00 -1.418345287814730682e+00
1.289637753367424011e+01 7.414123177528381348e+00 -1.332300976291293182e+00
1.281349179148674011e+01 7.517516732215881348e+00 -1.329096630588168182e+00
1.274159237742424011e+01 7.624450325965881348e+00 -1.326823071017855682e+00
1.300880429148674011e+01 7.866637825965881348e+00 -1.353586987033480682e+00
1.338587948679924011e+01 8.160705208778381348e+00 -1.389994457736605682e+00
1.379090878367424011e+01 8.476623177528381348e+00 -1.429102734103793182e+00
1.400709530711174011e+01 8.721740365028381348e+00 -1.452174023166293182e+00
1.398426815867424011e+01 8.866149544715881348e+00 -1.454600170627230682e+00
1.289796444773674011e+01 7.414733529090881348e+00 -1.274241283908480682e+00
1.281483456492424011e+01 7.518127083778381348e+00 -1.271204784885043182e+00
1.274293515086174011e+01 7.624938607215881348e+00 -1.269053295627230682e+00
1.300868222117424011e+01 7.866515755653381348e+00 -1.294123486056918182e+00
1.338551327586174011e+01 8.160461068153381348e+00 -1.328409985080355682e+00
1.379042050242424011e+01 8.476256966590881348e+00 -1.365214184299105682e+00
1.891773983836174011e+01 1.085406458377838135e+01 -1.787836864963168182e+00
1.565150448679924011e+01 9.609801888465881348e+00 -1.525889233127230682e+00
1.289967343211174011e+01 7.415343880653381348e+00 -1.215906933322543182e+00
1.281629940867424011e+01 7.518615365028381348e+00 -1.213038280978793182e+00
1.274415585398674011e+01 7.625426888465881348e+00 -1.210993603244418182e+00
1.300843808054924011e+01 7.866271615028381348e+00 -1.234400585666293182e+00
1.338526913523674011e+01 8.160216927528381348e+00 -1.266535595431918182e+00
1.378993222117424011e+01 8.475890755653381348e+00 -1.301035717502230682e+00
1.983973690867424011e+01 1.125408899784088135e+01 -1.768153027072543182e+00
1.565321347117424011e+01 9.610168099403381348e+00 -1.451914623752230682e+00
1.290113827586174011e+01 7.416076302528381348e+00 -1.157908276095980682e+00
1.281764218211174011e+01 7.519225716590881348e+00 -1.155192211642855682e+00
1.274537655711174011e+01 7.625915169715881348e+00 -1.153269604220980682e+00
1.300831601023674011e+01 7.866149544715881348e+00 -1.175028637424105682e+00
1.338490292429924011e+01 8.159972786903381348e+00 -1.205027416720980682e+00
1.378944393992424011e+01 8.475524544715881348e+00 -1.237253979220980682e+00
2.127272030711174011e+01 1.187603724002838135e+01 -1.776316479220980682e+00
1.565492245554924011e+01 9.610656380653381348e+00 -1.378367260470980682e+00
1.290284726023674011e+01 7.416686654090881348e+00 -1.099619701877230682e+00
1.281910702586174011e+01 7.519713997840881348e+00 -1.097071484103793182e+00
1.274671933054924011e+01 7.626403450965881348e+00 -1.095560863986605682e+00
1.300807186961174011e+01 7.866027474403381348e+00 -1.115702465549105682e+00
1.338465878367424011e+01 8.159728646278381348e+00 -1.143580273166293182e+00
1.378895565867424011e+01 8.475158333778381348e+00 -1.173518017306918182e+00
3.279920956492424011e+01 1.688067591190338135e+01 -2.440974071994418182e+00
1.565663143992424011e+01 9.611144661903381348e+00 -1.304453686252230682e+00
1.290443417429924011e+01 7.417297005653381348e+00 -1.041666821017855682e+00
1.282044979929924011e+01 7.520324349403381348e+00 -1.039286449924105682e+00
1.274794003367424011e+01 7.626891732215881348e+00 -1.037577465549105682e+00
1.300794979929924011e+01 7.865905404090881348e+00 -1.056086376681918182e+00
1.338429257273674011e+01 8.159484505653381348e+00 -1.081843212619418182e+00
1.378858944773674011e+01 8.474792122840881348e+00 -1.109492138400668182e+00
3.281361386179924011e+01 1.688641321659088135e+01 -2.282648876681918182e+00
1.565834042429924011e+01 9.611632943153381348e+00 -1.230982616916293182e+00
1.290602108836174011e+01 7.418029427528381348e+00 -9.834240231662931819e-01
1.282191464304924011e+01 7.520934700965881348e+00 -9.815166745334806819e-01
1.274928280711174011e+01 7.627380013465881348e+00 -9.799297604709806819e-01
1.300782772898674011e+01 7.865783333778381348e+00 -9.968517575412931819e-01
1.338404843211174011e+01 8.159240365028381348e+00 -1.020472363010043182e+00
1.378810116648674011e+01 8.474425911903381348e+00 -1.045847729220980682e+00
3.284254452586174011e+01 1.689837610721588135e+01 -2.125086620822543182e+00
1.566004940867424011e+01 9.611999154090881348e+00 -1.157130077853793182e+00
1.290760800242424011e+01 7.418639779090881348e+00 -9.255169186741056819e-01
1.282337948679924011e+01 7.521422982215881348e+00 -9.234722409397306819e-01
1.275050351023674011e+01 7.627746224403381348e+00 -9.220073971897306819e-01
1.300758358836174011e+01 7.865661263465881348e+00 -9.373272214084806819e-01
1.338368222117424011e+01 8.158996224403381348e+00 -9.588268551975431819e-01
1.378761288523674011e+01 8.474059700965881348e+00 -9.819134030491056819e-01
3.287281796336174011e+01 1.691107141971588135e+01 -1.966563061252230682e+00
1.566175839304924011e+01 9.612487435340881348e+00 -1.083720043674105682e+00
1.290919491648674011e+01 7.419372200965881348e+00 -8.673198971897306819e-01
1.282472226023674011e+01 7.522033333778381348e+00 -8.657635007053556819e-01
1.275172421336174011e+01 7.628234505653381348e+00 -8.644054684787931819e-01
1.300746151804924011e+01 7.865539193153381348e+00 -8.781536374241056819e-01
1.338343808054924011e+01 8.158752083778381348e+00 -8.975475583225431819e-01
1.378712460398674011e+01 8.473693490028381348e+00 -9.183605466037931819e-01
3.290199276804924011e+01 1.692315638065338135e+01 -1.808649853244418182e+00
1.566346737742424011e+01 9.612975716590881348e+00 -1.009943798556918182e+00
1.291078183054924011e+01 7.419982552528381348e+00 -8.094433102756681819e-01
1.282618710398674011e+01 7.522521615028381348e+00 -8.077648434787931819e-01
1.275306698679924011e+01 7.628722786903381348e+00 -8.065288815647306819e-01
1.300733944773674011e+01 7.865417122840881348e+00 -8.187206540256681819e-01
1.338307186961174011e+01 8.158507943153381348e+00 -8.359783444553556819e-01
1.378663632273674011e+01 8.473327279090881348e+00 -8.545330319553556819e-01
3.292982479929924011e+01 1.693463099002838135e+01 -1.649653271213168182e+00
1.566517636179924011e+01 9.613341927528381348e+00 -9.365947995334806819e-01
1.291236874461174011e+01 7.420592904090881348e+00 -7.512920651584806819e-01
1.282752987742424011e+01 7.523131966590881348e+00 -7.497967038303556819e-01
1.275428768992424011e+01 7.629211068153381348e+00 -7.489879880100431819e-01
1.300709530711174011e+01 7.865295052528381348e+00 -7.596386227756681819e-01
1.338282772898674011e+01 8.158385872840881348e+00 -7.747906003147306819e-01
1.378614804148674011e+01 8.472961068153381348e+00 -7.910717282444181819e-01
2.467506405711174011e+01 1.335064661502838135e+01 -1.188898876681918182e+00
1.566688534617424011e+01 9.613830208778381348e+00 -8.628795895725431819e-01
1.293922421336174011e+01 7.430480599403381348e+00 -6.939495358616056819e-01
1.284681698679924011e+01 7.530334115028381348e+00 -6.926983151584806819e-01
1.277699276804924011e+01 7.638000130653381348e+00 -6.918285641819181819e-01
1.307118222117424011e+01 7.890807747840881348e+00 -7.022808346897306819e-01
1.344020077586174011e+01 8.181823372840881348e+00 -7.151287350803556819e-01
1.383607479929924011e+01 8.493835091590881348e+00 -7.289074216037931819e-01
3.298963925242424011e+01 1.695953333377838135e+01 -1.332102612033480682e+00
1.567530819773674011e+01 9.617370247840881348e+00 -7.894237790256681819e-01
7.952896088361740112e+00 6.176452279090881348e+00 -1.210917309299105682e+00
7.918960541486740112e+00 6.244201302528381348e+00 -1.210154369845980682e+00
7.897476166486740112e+00 6.317931771278381348e+00 -1.211176708713168182e+00
7.875747650861740112e+00 6.392150521278381348e+00 -1.212214306369418182e+00
7.848892182111740112e+00 6.463683724403381348e+00 -1.212580517306918182e+00
7.821060150861740112e+00 6.534972786903381348e+00 -1.212824657931918182e+00
7.792983978986740112e+00 6.606505990028381348e+00 -1.213053539767855682e+00
7.762954682111740112e+00 6.676940560340881348e+00 -1.213206127658480682e+00
8.432632416486740112e+00 6.390441536903381348e+00 -1.234415844455355682e+00
8.391006439924240112e+00 6.460509896278381348e+00 -1.233149364963168182e+00
8.350723236799240112e+00 6.531066536903381348e+00 -1.231852367892855682e+00
8.307632416486740112e+00 6.600402474403381348e+00 -1.230402782931918182e+00
8.274185150861740112e+00 6.674132943153381348e+00 -1.230143383517855682e+00
8.242080658674240112e+00 6.748473763465881348e+00 -1.230051830783480682e+00
8.207412689924240112e+00 6.821960091590881348e+00 -1.229853466525668182e+00
8.175308197736740112e+00 6.896545052528381348e+00 -1.229761913791293182e+00
8.987075775861740112e+00 6.637755990028381348e+00 -1.261820629611605682e+00
8.940200775861740112e+00 6.712096810340881348e+00 -1.260248974338168182e+00
8.893325775861740112e+00 6.786193490028381348e+00 -1.258662060275668182e+00
8.846572846174240112e+00 6.860412240028381348e+00 -1.257090405002230682e+00
8.799941986799240112e+00 6.934264779090881348e+00 -1.255534008517855682e+00
8.753433197736740112e+00 7.007873177528381348e+00 -1.253962353244418182e+00
8.713760346174240112e+00 7.085265755653381348e+00 -1.253229931369418182e+00
8.679702728986740112e+00 7.165099740028381348e+00 -1.253153637424105682e+00
9.568496674299240112e+00 6.897033333778381348e+00 -1.286860302463168182e+00
9.526138275861740112e+00 6.980407357215881348e+00 -1.285883739963168182e+00
9.476821869611740112e+00 7.060485482215881348e+00 -1.284357861056918182e+00
9.427871674299240112e+00 7.140807747840881348e+00 -1.282862499728793182e+00
9.379043549299240112e+00 7.220763802528381348e+00 -1.281367138400668182e+00
9.330459564924240112e+00 7.300597786903381348e+00 -1.279887035861605682e+00
9.281753510236740112e+00 7.380431771278381348e+00 -1.278391674533480682e+00
9.235610932111740112e+00 7.461242318153381348e+00 -1.277415112033480682e+00
1.014796444773674011e+01 7.155578255653381348e+00 -1.305598095431918182e+00
1.008534237742424011e+01 7.236510872840881348e+00 -1.302927807345980682e+00
1.003260800242424011e+01 7.321715950965881348e+00 -1.301325634494418182e+00
9.980117768049240112e+00 7.407287240028381348e+00 -1.299738720431918182e+00
9.936294525861740112e+00 7.496398568153381348e+00 -1.299082592502230682e+00
9.892471283674240112e+00 7.585631966590881348e+00 -1.298426464572543182e+00
9.848525971174240112e+00 7.675109505653381348e+00 -1.297770336642855682e+00
9.804702728986740112e+00 7.764220833778381348e+00 -1.297114208713168182e+00
1.098219296336174011e+01 7.527648568153381348e+00 -1.344752148166293182e+00
1.092030331492424011e+01 7.618957161903381348e+00 -1.342341259494418182e+00
1.085523983836174011e+01 7.708556771278381348e+00 -1.339869335666293182e+00
1.079005429148674011e+01 7.798034310340881348e+00 -1.337382153049105682e+00
1.072547909617424011e+01 7.886901497840881348e+00 -1.334910229220980682e+00
1.066114804148674011e+01 7.975402474403381348e+00 -1.332453564181918182e+00
1.059669491648674011e+01 8.064025521278381348e+00 -1.329996899142855682e+00
1.052882382273674011e+01 8.149840950965881348e+00 -1.327402905002230682e+00
1.178553768992424011e+01 7.886047005653381348e+00 -1.372233227267855682e+00
1.175135800242424011e+01 7.999694466590881348e+00 -1.373179272189730682e+00
1.169398495554924011e+01 8.102843880653381348e+00 -1.371882275119418182e+00
1.162184140086174011e+01 8.199279427528381348e+00 -1.369120434299105682e+00
1.155018612742424011e+01 8.294860482215881348e+00 -1.366389111056918182e+00
1.147877499461174011e+01 8.390197396278381348e+00 -1.363657787814730682e+00
1.141798397898674011e+01 8.490905404090881348e+00 -1.361994579806918182e+00
1.135951229929924011e+01 8.592223763465881348e+00 -1.360529736056918182e+00
1.287513729929924011e+01 8.372008919715881348e+00 -1.418223217502230682e+00
1.277919003367424011e+01 8.470519661903381348e+00 -1.413798168674105682e+00
1.271998593211174011e+01 8.585265755653381348e+00 -1.412409618869418182e+00
1.265431210398674011e+01 8.697326302528381348e+00 -1.410761669650668182e+00
1.258900448679924011e+01 8.808898568153381348e+00 -1.409128979220980682e+00
1.252381893992424011e+01 8.920226693153381348e+00 -1.407496288791293182e+00
1.245240780711174011e+01 9.028625130653381348e+00 -1.405604198947543182e+00
1.238746640086174011e+01 9.139709115028381348e+00 -1.403971508517855682e+00
1.398402401804924011e+01 8.866637825965881348e+00 -1.454600170627230682e+00
1.395924374461174011e+01 9.010924935340881348e+00 -1.456965282931918182e+00
1.393446347117424011e+01 9.156188607215881348e+00 -1.459345654025668182e+00
1.390931698679924011e+01 9.302795052528381348e+00 -1.461741283908480682e+00
1.385963436961174011e+01 9.437438607215881348e+00 -1.461985424533480682e+00
1.375160214304924011e+01 9.543029427528381348e+00 -1.457056835666293182e+00
1.364405819773674011e+01 9.648131966590881348e+00 -1.452143505588168182e+00
1.353761288523674011e+01 9.752135872840881348e+00 -1.447291210666293182e+00
1.565040585398674011e+01 9.609923958778381348e+00 -1.525828197970980682e+00
1.500843808054924011e+01 9.491393685340881348e+00 -1.477747753635043182e+00
1.498011776804924011e+01 9.647643685340881348e+00 -1.479990795627230682e+00
1.495899960398674011e+01 9.808898568153381348e+00 -1.482874706760043182e+00
1.493775936961174011e+01 9.970763802528381348e+00 -1.485773876681918182e+00
1.491651913523674011e+01 1.013372766971588135e+01 -1.488688305392855682e+00
1.489491268992424011e+01 1.029827845096588135e+01 -1.491633251681918182e+00
1.484547421336174011e+01 1.044854700565338135e+01 -1.492243603244418182e+00
1.565211483836174011e+01 9.610412240028381348e+00 -1.451853588595980682e+00
1.554139706492424011e+01 9.735290169715881348e+00 -1.447703197970980682e+00
1.557106015086174011e+01 9.925231575965881348e+00 -1.454386547580355682e+00
1.606434628367424011e+01 1.034197962284088135e+01 -1.497233227267855682e+00
1.759132382273674011e+01 1.128375208377838135e+01 -1.621149853244418182e+00
1.633595272898674011e+01 1.085345423221588135e+01 -1.527872875705355682e+00
1.625978085398674011e+01 1.100750696659088135e+01 -1.526728466525668182e+00
1.618385311961174011e+01 1.116107141971588135e+01 -1.525568798556918182e+00
1.565382382273674011e+01 9.610778450965881348e+00 -1.378306225314730682e+00
1.554286190867424011e+01 9.735534310340881348e+00 -1.374338940158480682e+00
1.556983944773674011e+01 9.924255013465881348e+00 -1.380335644260043182e+00
1.606300351023674011e+01 1.034075891971588135e+01 -1.420283154025668182e+00
2.144691464304924011e+01 1.319158899784088135e+01 -1.817377880588168182e+00
2.135377499461174011e+01 1.339923059940338135e+01 -1.816416576877230682e+00
1.821473690867424011e+01 1.202362024784088135e+01 -1.591486767306918182e+00
1.830189511179924011e+01 1.228887903690338135e+01 -1.602946117892855682e+00
1.565553280711174011e+01 9.611266732215881348e+00 -1.304407909885043182e+00
1.554432675242424011e+01 9.735900521278381348e+00 -1.300623730197543182e+00
1.556874081492424011e+01 9.923278450965881348e+00 -1.306345776095980682e+00
1.606153866648674011e+01 1.033953821659088135e+01 -1.343394115939730682e+00
2.210218808054924011e+01 1.351507532596588135e+01 -1.756998852267855682e+00
2.278443905711174011e+01 1.412432825565338135e+01 -1.808970287814730682e+00
1.821607968211174011e+01 1.202349817752838135e+01 -1.501993969455355682e+00
1.829945370554924011e+01 1.228668177127838135e+01 -1.512308910861605682e+00
1.565724179148674011e+01 9.611755013465881348e+00 -1.230921581760043182e+00
1.554579159617424011e+01 9.736144661903381348e+00 -1.227335766330355682e+00
1.556752011179924011e+01 9.922301888465881348e+00 -1.232020214572543182e+00
1.606007382273674011e+01 1.033843958377838135e+01 -1.266154125705355682e+00
2.266712948679924011e+01 1.379388391971588135e+01 -1.683710888400668182e+00
2.294276425242424011e+01 1.420379602909088135e+01 -1.706171825900668182e+00
1.821730038523674011e+01 1.202337610721588135e+01 -1.413035229220980682e+00
1.829713436961174011e+01 1.228448450565338135e+01 -1.422221020236605682e+00
1.565895077586174011e+01 9.612121224403381348e+00 -1.157084301486605682e+00
1.554713436961174011e+01 9.736388802528381348e+00 -1.154093578830355682e+00
1.556642147898674011e+01 9.921325325965881348e+00 -1.158167675510043182e+00
1.605873104929924011e+01 1.033721888065338135e+01 -1.189402416720980682e+00
2.261988827586174011e+01 1.376971399784088135e+01 -1.570063427463168182e+00
2.296607968211174011e+01 1.421466028690338135e+01 -1.594599560275668182e+00
1.821852108836174011e+01 1.202313196659088135e+01 -1.324122265353793182e+00
1.829469296336174011e+01 1.228228724002838135e+01 -1.331766918674105682e+00
1.566065976023674011e+01 9.612609505653381348e+00 -1.083674267306918182e+00
1.554859921336174011e+01 9.736755013465881348e+00 -1.080485180392855682e+00
1.556532284617424011e+01 9.920348763465881348e+00 -1.083964184299105682e+00
1.605726620554924011e+01 1.033599817752838135e+01 -1.112299755588168182e+00
1.658729550242424011e+01 1.078375208377838135e+01 -1.142832592502230682e+00
2.275196835398674011e+01 1.410504114627838135e+01 -1.469797924533480682e+00
1.821986386179924011e+01 1.202300989627838135e+01 -1.234782055392855682e+00
1.829225155711174011e+01 1.228008997440338135e+01 -1.241862133517855682e+00
1.566236874461174011e+01 9.613097786903381348e+00 -1.009913280978793182e+00
1.555006405711174011e+01 9.736999154090881348e+00 -1.007304028049105682e+00
1.556410214304924011e+01 9.919372200965881348e+00 -1.010218456760043182e+00
1.605592343211174011e+01 1.033477747440338135e+01 -1.035685375705355682e+00
1.658558651804924011e+01 1.078228724002838135e+01 -1.063105419650668182e+00
2.250282284617424011e+01 1.397772181034088135e+01 -1.346216991916293182e+00
1.822108456492424011e+01 1.202288782596588135e+01 -1.145960644260043182e+00
1.828981015086174011e+01 1.227789270877838135e+01 -1.151575878635043182e+00
1.566407772898674011e+01 9.613586068153381348e+00 -9.365642819553556819e-01
1.555152890086174011e+01 9.737243294715881348e+00 -9.337719235569181819e-01
1.556300351023674011e+01 9.918395638465881348e+00 -9.361522946506681819e-01
1.605445858836174011e+01 1.033355677127838135e+01 -9.587200436741056819e-01
1.658387753367424011e+01 1.078082239627838135e+01 -9.830272946506681819e-01
2.235609433054924011e+01 1.390240442752838135e+01 -1.229029491916293182e+00
1.822230526804924011e+01 1.202264368534088135e+01 -1.056711987033480682e+00
1.828749081492424011e+01 1.227581751346588135e+01 -1.061854198947543182e+00
1.566578671336174011e+01 9.613952279090881348e+00 -8.628643307834806819e-01
1.555287167429924011e+01 9.737609505653381348e+00 -8.602703366428556819e-01
1.556178280711174011e+01 9.917419075965881348e+00 -8.625438962131681819e-01
1.605311581492424011e+01 1.033245813846588135e+01 -8.822429928928556819e-01
1.658216854929924011e+01 1.077935755252838135e+01 -9.034527096897306819e-01
2.145057675242424011e+01 1.344219934940338135e+01 -1.085841015353793182e+00
1.822364804148674011e+01 1.202252161502838135e+01 -9.675243649631681819e-01
1.828504940867424011e+01 1.227362024784088135e+01 -9.717510495334806819e-01
1.567445370554924011e+01 9.617492318153381348e+00 -7.894085202366056819e-01
1.556275936961174011e+01 9.741759896278381348e+00 -7.874553952366056819e-01
1.559242245554924011e+01 9.931335091590881348e+00 -7.895916257053556819e-01
1.607630917429924011e+01 1.034307825565338135e+01 -8.061931882053556819e-01
2.158741757273674011e+01 1.325482141971588135e+01 -9.830578122287931819e-01
2.827235409617424011e+01 1.690093958377838135e+01 -1.198374584689730682e+00
1.822486874461174011e+01 1.202239954471588135e+01 -8.788555417209806819e-01
1.828260800242424011e+01 1.227142298221588135e+01 -8.817241940647306819e-01
7.763076752424240112e+00 6.677306771278381348e+00 -1.213236645236605682e+00
7.734634369611740112e+00 6.748717904090881348e+00 -1.213465527072543182e+00
7.703994721174240112e+00 6.819152474403381348e+00 -1.213602856174105682e+00
7.673233002424240112e+00 6.889953255653381348e+00 -1.213740185275668182e+00
7.642471283674240112e+00 6.960754036903381348e+00 -1.213892773166293182e+00
7.611587494611740112e+00 7.031676888465881348e+00 -1.214030102267855682e+00
7.580581635236740112e+00 7.102965950965881348e+00 -1.214182690158480682e+00
7.547622650861740112e+00 7.173034310340881348e+00 -1.214243725314730682e+00
8.175308197736740112e+00 6.896789193153381348e+00 -1.229777172580355682e+00
8.140396088361740112e+00 6.970031380653381348e+00 -1.229563549533480682e+00
8.107925385236740112e+00 7.044616341590881348e+00 -1.229471996799105682e+00
8.074844330549240112e+00 7.119567513465881348e+00 -1.229533031955355682e+00
8.042739838361740112e+00 7.194884896278381348e+00 -1.229700878635043182e+00
8.010513275861740112e+00 7.270324349403381348e+00 -1.229868725314730682e+00
7.975845307111740112e+00 7.344909310340881348e+00 -1.229945019260043182e+00
7.942275971174240112e+00 7.419982552528381348e+00 -1.229960278049105682e+00
8.679458588361740112e+00 7.165343880653381348e+00 -1.253138378635043182e+00
8.642471283674240112e+00 7.243957161903381348e+00 -1.252924755588168182e+00
