1.229135915637016296e+01 5.624290540814399719e+00 -1.409822781011456527e+00
1.222861501574516296e+01 5.731834486126899719e+00 -1.407640774175519027e+00
9.685035914182662964e+00 5.206077650189399719e+00 -1.167497951909894027e+00
9.627418726682662964e+00 5.286766126751899719e+00 -1.164934475347394027e+00
9.577980250120162964e+00 5.369163587689399719e+00 -1.163149197027081527e+00
9.715065211057662964e+00 5.504173353314399719e+00 -1.179643948003644027e+00
1.254380056262016296e+01 5.435447767376899719e+00 -1.370271999761456527e+00
1.299912282824516296e+01 5.660911634564399719e+00 -1.415041286870831527e+00
1.313340017199516296e+01 5.821556165814399719e+00 -1.431078274175519027e+00
1.327194997668266296e+01 5.987205579876899719e+00 -1.447603542730206527e+00
9.686256617307662964e+00 5.206810072064399719e+00 -1.124803860113019027e+00
9.628761500120162964e+00 5.287376478314399719e+00 -1.122408230230206527e+00
9.579200953245162964e+00 5.369773939251899719e+00 -1.120745022222394027e+00
9.715797632932662964e+00 5.504661634564399719e+00 -1.136186916753644027e+00
1.310068532824516296e+01 5.554466322064399719e+00 -1.361864406988019027e+00
1.322739431262016296e+01 5.712425306439399719e+00 -1.376436550542706527e+00
1.336862966418266296e+01 5.877098158001899719e+00 -1.392015774175519027e+00
1.351303884387016296e+01 6.046653822064399719e+00 -1.408312160894269027e+00
9.687477320432662964e+00 5.207420423626899719e+00 -1.081896145269269027e+00
9.629982203245162964e+00 5.288108900189399719e+00 -1.079668362066144027e+00
9.580299586057662964e+00 5.370384290814399719e+00 -1.078356106206769027e+00
9.716407984495162964e+00 5.505149915814399719e+00 -1.092989284917706527e+00
1.437009450793266296e+01 5.825218275189399719e+00 -1.405214626714581527e+00
1.430307790637016296e+01 5.953270033001899719e+00 -1.403765041753644027e+00
1.423654958605766296e+01 6.080589368939399719e+00 -1.402330715581769027e+00
1.417002126574516296e+01 6.207786634564399719e+00 -1.400896389409894027e+00
9.688698023557662964e+00 5.208152845501899719e+00 -1.039232571050519027e+00
9.631202906370162964e+00 5.288719251751899719e+00 -1.037172634527081527e+00
9.581520289182662964e+00 5.370994642376899719e+00 -1.035753567144269027e+00
9.717140406370162964e+00 5.505638197064399719e+00 -1.049578030034894027e+00
2.224802419543266296e+01 7.502586439251899719e+00 -1.937303860113019027e+00
2.371128103137016296e+01 8.054588392376899719e+00 -2.054476101323956527e+00
6.496567556262016296e+01 1.794094093143939972e+01 -5.207323391363019027e+00
6.408054372668266296e+01 1.840554054081439972e+01 -5.157671291753644027e+00
9.689918726682662964e+00 5.208885267376899719e+00 -9.965842556208315273e-01
9.632423609495162964e+00 5.289451673626899719e+00 -9.946921657770815273e-01
9.582740992307662964e+00 5.371727064251899719e+00 -9.933951687067690273e-01
9.717750757932662964e+00 5.506126478314399719e+00 -1.006426174566144027e+00
2.267868825793266296e+01 7.595481947064399719e+00 -1.865907986089581527e+00
2.374008962512016296e+01 8.062156751751899719e+00 -1.947374660894269027e+00
4.730539724230766296e+01 1.381447608768939972e+01 -3.638750393316144027e+00
4.845627614855766296e+01 1.458937843143939972e+01 -3.733934719488019027e+00
9.691139429807662964e+00 5.209495618939399719e+00 -9.537223171442690273e-01
9.633644312620162964e+00 5.290062025189399719e+00 -9.519980739802065273e-01
9.583839625120162964e+00 5.372337415814399719e+00 -9.508231472223940273e-01
9.718361109495162964e+00 5.506614759564399719e+00 -9.630606960505190273e-01
2.265891286730766296e+01 7.592430189251899719e+00 -1.761232693120831527e+00
1.344675466418266296e+01 5.764061048626899719e+00 -1.153932888433331527e+00
6.146140310168266296e+01 1.712746436893939972e+01 -4.363832790777081527e+00
4.707102224230766296e+01 1.425283057987689972e+01 -3.414720852300519027e+00
9.692360132932662964e+00 5.210228040814399719e+00 -9.111045192927065273e-01
9.634865015745162964e+00 5.290794447064399719e+00 -9.095481228083315273e-01
9.585060328245162964e+00 5.372947767376899719e+00 -9.085105251520815273e-01
9.719093531370162964e+00 5.507103040814399719e+00 -9.199546169489565273e-01
2.263901540637016296e+01 7.589378431439399719e+00 -1.656236965581769027e+00
1.343149587512016296e+01 5.761253431439399719e+00 -1.092623073980206527e+00
1.361374685168266296e+01 5.937522962689399719e+00 -1.107363064214581527e+00
4.854636403918266296e+01 1.461562354862689972e+01 -3.287020046636456527e+00
9.693580836057662964e+00 5.210960462689399719e+00 -8.685019802302065273e-01
9.636085718870162964e+00 5.291404798626899719e+00 -8.671134304255190273e-01
9.586281031370162964e+00 5.373558118939399719e+00 -8.659690212458315273e-01
9.719703882932662964e+00 5.507469251751899719e+00 -8.766349148005190273e-01
2.261924001574516296e+01 7.586448743939399719e+00 -1.552065212652081527e+00
1.341635915637016296e+01 5.758567884564399719e+00 -1.031816799566144027e+00
2.378574392199516296e+01 8.318138197064399719e+00 -1.629061062261456527e+00
1.321762868762016296e+01 5.977806165814399719e+00 -1.026308376714581527e+00
9.694801539182662964e+00 5.211570814251899719e+00 -8.256858181208315273e-01
9.637306421995162964e+00 5.292015150189399719e+00 -8.244651149958315273e-01
9.587379664182662964e+00 5.374168470501899719e+00 -8.236869167536440273e-01
9.720436304807662964e+00 5.507957533001899719e+00 -8.335746120661440273e-01
2.259946462512016296e+01 7.583396986126899719e+00 -1.447588283941144027e+00
1.340122243762016296e+01 5.755760267376899719e+00 -9.711936306208315273e-01
2.380112478137016296e+01 8.322776868939399719e+00 -1.520952541753644027e+00
1.320298025012016296e+01 5.974754408001899719e+00 -9.663413356989565273e-01
9.696022242307662964e+00 5.212303236126899719e+00 -7.831137966364565273e-01
9.638649195432662964e+00 5.292747572064399719e+00 -7.820609401911440273e-01
9.588600367307662964e+00 5.374900892376899719e+00 -7.814048122614565273e-01
9.721046656370162964e+00 5.508445814251899719e+00 -7.903006862848940273e-01
2.257993337512016296e+01 7.580345228314399719e+00 -1.343920071050519027e+00
1.338608571887016296e+01 5.753074720501899719e+00 -9.104331325739565273e-01
1.328684255480766296e+01 5.862815931439399719e+00 -9.083274196833315273e-01
1.318833181262016296e+01 5.971824720501899719e+00 -9.062217067927065273e-01
9.697242945432662964e+00 5.212913587689399719e+00 -7.403434108942690273e-01
9.639869898557662964e+00 5.293357923626899719e+00 -7.394584011286440273e-01
9.589699000120162964e+00 5.375511243939399719e+00 -7.389243435114565273e-01
9.721657007932662964e+00 5.508934095501899719e+00 -7.472709011286440273e-01
2.256015798449516296e+01 7.577415540814399719e+00 -1.239946682378644027e+00
1.351450368762016296e+01 5.782493665814399719e+00 -8.563407253473940273e-01
1.327207204699516296e+01 5.860008314251899719e+00 -8.483908962458315273e-01
4.843674489855766296e+01 1.459743507206439972e+01 -2.374819118902081527e+00
9.698585718870162964e+00 5.213646009564399719e+00 -6.978019069880190273e-01
9.641090601682662964e+00 5.294090345501899719e+00 -6.970847439020815273e-01
9.590919703245162964e+00 5.376121595501899719e+00 -6.966727565973940273e-01
9.722389429807662964e+00 5.509422376751899719e+00 -7.040427517145815273e-01
1.369138357043266296e+01 5.687156751751899719e+00 -8.002036403864565273e-01
1.335605642199516296e+01 5.747703626751899719e+00 -7.897818874567690273e-01
1.319077321887016296e+01 5.841575697064399719e+00 -7.857688259333315273e-01
4.854611989855766296e+01 1.462624366581439972e+01 -2.152468044683331527e+00
9.699806421995162964e+00 5.214378431439399719e+00 -6.550467800348940273e-01
9.642311304807662964e+00 5.294700697064399719e+00 -6.544974636286440273e-01
9.592140406370162964e+00 5.376731947064399719e+00 -6.542228054255190273e-01
9.722999781370162964e+00 5.509910658001899719e+00 -6.610587429255190273e-01
1.344077321887016296e+01 5.634422376751899719e+00 -7.306998562067690273e-01
3.877463552355766296e+01 1.143544776737689972e+01 -1.581560451909894027e+00
2.381333181262016296e+01 8.330101087689399719e+00 -1.084947903081769027e+00
6.272934743762016296e+01 1.810024268925189972e+01 -2.407121975347394027e+00
9.701027125120162964e+00 5.214988783001899719e+00 -6.125357937067690273e-01
9.643532007932662964e+00 5.295433118939399719e+00 -6.121543239802065273e-01
9.593239039182662964e+00 5.377342298626899719e+00 -6.117881130427065273e-01
9.723732203245162964e+00 5.510398939251899719e+00 -6.178611110895815273e-01
1.342563650012016296e+01 5.631980970501899719e+00 -6.703513454645815273e-01
1.288242360949516296e+01 5.642967298626899719e+00 -6.570609401911440273e-01
2.381113454699516296e+01 8.330711439251899719e+00 -9.756034206598940273e-01
6.386399099230766296e+01 1.838076026737689972e+01 -2.146120388433331527e+00
9.714576929807662964e+00 5.218895033001899719e+00 -5.701926540583315273e-01
9.657203882932662964e+00 5.299339368939399719e+00 -5.699637722223940273e-01
9.604103296995162964e+00 5.380638197064399719e+00 -5.698722194880190273e-01
9.760353296995162964e+00 5.521141126751899719e+00 -5.757773708552065273e-01
8.031715601682662964e+00 5.020042493939399719e+00 -1.193346340581769027e+00
8.024391382932662964e+00 5.097557142376899719e+00 -1.195436794683331527e+00
8.014625757932662964e+00 5.174583509564399719e+00 -1.197405178472394027e+00
7.999244898557662964e+00 5.250389173626899719e+00 -1.198732693120831527e+00
7.967750757932662964e+00 5.320823743939399719e+00 -1.198061306402081527e+00
7.936256617307662964e+00 5.391014173626899719e+00 -1.197389919683331527e+00
7.904762476682662964e+00 5.461326673626899719e+00 -1.196733791753644027e+00
7.871071070432662964e+00 5.530418470501899719e+00 -1.195970852300519027e+00
8.544044703245162964e+00 5.167381361126899719e+00 -1.217409450933331527e+00
8.529518336057662964e+00 5.248191908001899719e+00 -1.218950588628644027e+00
8.497902125120162964e+00 5.323997572064399719e+00 -1.218324978277081527e+00
8.463722437620162964e+00 5.399070814251899719e+00 -1.217592556402081527e+00
8.429542750120162964e+00 5.473777845501899719e+00 -1.216860134527081527e+00
8.395607203245162964e+00 5.548240736126899719e+00 -1.216127712652081527e+00
8.358986109495162964e+00 5.621849134564399719e+00 -1.215288479253644027e+00
8.327858179807662964e+00 5.697044447064399719e+00 -1.214891750738019027e+00
9.139869898557662964e+00 5.338646009564399719e+00 -1.245806057378644027e+00
9.097999781370162964e+00 5.417747572064399719e+00 -1.244493801519269027e+00
9.056251734495162964e+00 5.496604993939399719e+00 -1.243181545659894027e+00
9.024635523557662964e+00 5.578636243939399719e+00 -1.243028957769269027e+00
8.996315211057662964e+00 5.661399915814399719e+00 -1.243212063238019027e+00
8.967872828245162964e+00 5.744041517376899719e+00 -1.243379909917706527e+00
8.939430445432662964e+00 5.827049329876899719e+00 -1.243563015386456527e+00
8.910988062620162964e+00 5.909690931439399719e+00 -1.243746120855206527e+00
9.715431421995162964e+00 5.504051283001899719e+00 -1.266558010503644027e+00
9.949806421995162964e+00 5.671775892376899719e+00 -1.294847805425519027e+00
9.743873804807662964e+00 5.709129408001899719e+00 -1.276323635503644027e+00
9.697487086057662964e+00 5.793968275189399719e+00 -1.274843532964581527e+00
9.651344507932662964e+00 5.878318861126899719e+00 -1.273363430425519027e+00
9.605324000120162964e+00 5.962303236126899719e+00 -1.271913845464581527e+00
9.561622828245162964e+00 6.047020033001899719e+00 -1.270693142339581527e+00
9.527443140745162964e+00 6.134544447064399719e+00 -1.270723659917706527e+00
9.716041773557662964e+00 5.504539564251899719e+00 -1.223055202886456527e+00
9.950416773557662964e+00 5.672142103314399719e+00 -1.250307400152081527e+00
1.019895192980766296e+01 5.849876478314399719e+00 -1.279207546636456527e+00
1.046396657824516296e+01 6.039451673626899719e+00 -1.309999782964581527e+00
1.041306325793266296e+01 6.130516126751899719e+00 -1.308412868902081527e+00
1.026340505480766296e+01 6.187522962689399719e+00 -1.296572048589581527e+00
1.014267751574516296e+01 6.252342298626899719e+00 -1.287676174566144027e+00
1.013803884387016296e+01 6.357200697064399719e+00 -1.290804226323956527e+00
9.716774195432662964e+00 5.505027845501899719e+00 -1.179811794683331527e+00
9.951027125120162964e+00 5.672630384564399719e+00 -1.205538113042706527e+00
1.019956228137016296e+01 5.850364759564399719e+00 -1.233080227300519027e+00
1.046445485949516296e+01 6.039817884564399719e+00 -1.262438137456769027e+00
1.074546071887016296e+01 6.240745618939399719e+00 -1.293566067144269027e+00
1.188498708605766296e+01 6.742332533001899719e+00 -1.409670193120831527e+00
1.166294118762016296e+01 6.789695814251899719e+00 -1.391756374761456527e+00
1.151609060168266296e+01 6.859642103314399719e+00 -1.381441433355206527e+00
9.717384546995162964e+00 5.505516126751899719e+00 -1.136354763433331527e+00
9.951759546995162964e+00 5.672996595501899719e+00 -1.161043484136456527e+00
1.020017263293266296e+01 5.850730970501899719e+00 -1.187227566167706527e+00
1.046494314074516296e+01 6.040184095501899719e+00 -1.215135891363019027e+00
1.074594900012016296e+01 6.241111829876899719e+00 -1.244753200933331527e+00
1.287155935168266296e+01 7.079979017376899719e+00 -1.447634060308331527e+00
1.279331228137016296e+01 7.189109876751899719e+00 -1.444506008550519027e+00
1.244223806262016296e+01 7.197532728314399719e+00 -1.415560085698956527e+00
9.718116968870162964e+00 5.506004408001899719e+00 -1.093141872808331527e+00
9.952369898557662964e+00 5.673484876751899719e+00 -1.116564114019269027e+00
1.020078298449516296e+01 5.851097181439399719e+00 -1.141161281988019027e+00
1.046555349230766296e+01 6.040550306439399719e+00 -1.167620022222394027e+00
1.074643728137016296e+01 6.241355970501899719e+00 -1.195696194097394027e+00
1.417600271105766296e+01 7.526512220501899719e+00 -1.503923733159894027e+00
1.406674978137016296e+01 7.639305189251899719e+00 -1.499010403081769027e+00
1.256296560168266296e+01 7.241600111126899719e+00 -1.368730862066144027e+00
9.718727320432662964e+00 5.506370618939399719e+00 -1.049730617925519027e+00
9.952980250120162964e+00 5.673973158001899719e+00 -1.071871120855206527e+00
1.020127126574516296e+01 5.851585462689399719e+00 -1.095354397222394027e+00
1.046604177355766296e+01 6.040916517376899719e+00 -1.120378811284894027e+00
1.074680349230766296e+01 6.241722181439399719e+00 -1.146929104253644027e+00
1.437961599230766296e+01 7.596336439251899719e+00 -1.455339748784894027e+00
1.426889821887016296e+01 7.710838392376899719e+00 -1.450334865972394027e+00
1.256455251574516296e+01 7.242210462689399719e+00 -1.310335476323956527e+00
9.719337671995162964e+00 5.506858900189399719e+00 -1.006563503667706527e+00
9.953590601682662964e+00 5.674339368939399719e+00 -1.027437527105206527e+00
1.020188161730766296e+01 5.851951673626899719e+00 -1.049578030034894027e+00
1.046653005480766296e+01 6.041282728314399719e+00 -1.073168117925519027e+00
1.074729177355766296e+01 6.242088392376899719e+00 -1.098192531988019027e+00
1.770786306262016296e+01 8.735252454876899719e+00 -1.652162868902081527e+00
1.768845388293266296e+01 8.919334486126899719e+00 -1.655718166753644027e+00
1.256613942980766296e+01 7.242942884564399719e+00 -1.252291042730206527e+00
9.720070093870162964e+00 5.507347181439399719e+00 -9.631980251520815273e-01
9.954200953245162964e+00 5.674827650189399719e+00 -9.827903103083315273e-01
1.020249196887016296e+01 5.852317884564399719e+00 -1.003572781011456527e+00
1.046701833605766296e+01 6.041648939251899719e+00 -1.025728542730206527e+00
1.074778005480766296e+01 6.242332533001899719e+00 -1.049211819097394027e+00
4.783884450793266296e+01 1.904531104862689972e+01 -3.806505520269269027e+00
4.984226247668266296e+01 2.028249366581439972e+01 -3.969240505620831527e+00
1.256772634387016296e+01 7.243553236126899719e+00 -1.193956692144269027e+00
9.720680445432662964e+00 5.507835462689399719e+00 -9.200766872614565273e-01
9.954811304807662964e+00 5.675315931439399719e+00 -9.384024929255190273e-01
1.020298025012016296e+01 5.852806165814399719e+00 -9.578421901911440273e-01
1.046762868762016296e+01 6.042015150189399719e+00 -9.785636257380190273e-01
1.074826833605766296e+01 6.242698743939399719e+00 -1.000536281988019027e+00
4.359360525012016296e+01 1.759328468143939972e+01 -3.282503445073956527e+00
4.809018728137016296e+01 1.966384132206439972e+01 -3.607256252691144027e+00
1.256931325793266296e+01 7.244163587689399719e+00 -1.135942776128644027e+00
9.721412867307662964e+00 5.508323743939399719e+00 -8.767569851130190273e-01
9.955421656370162964e+00 5.675682142376899719e+00 -8.938010524958315273e-01
1.020359060168266296e+01 5.853172376751899719e+00 -9.121421169489565273e-01
1.046811696887016296e+01 6.042381361126899719e+00 -9.314139675348940273e-01
1.074863454699516296e+01 6.243064954876899719e+00 -9.518760036677065273e-01
4.352243825793266296e+01 1.756948097050189972e+01 -3.069307644292706527e+00
5.064292165637016296e+01 2.056642921268939972e+01 -3.540087063238019027e+00
1.257090017199516296e+01 7.244896009564399719e+00 -1.077654201909894027e+00
9.722023218870162964e+00 5.508812025189399719e+00 -8.336814235895815273e-01
9.956032007932662964e+00 5.676170423626899719e+00 -8.494590114802065273e-01
1.020420095324516296e+01 5.853538587689399719e+00 -8.662131618708315273e-01
1.046860525012016296e+01 6.042747572064399719e+00 -8.840506862848940273e-01
1.074912282824516296e+01 6.243309095501899719e+00 -9.029868435114565273e-01
4.348874685168266296e+01 1.755861671268939972e+01 -2.858080227300519027e+00
5.228562185168266296e+01 2.114748390018939972e+01 -3.394930202886456527e+00
1.257248708605766296e+01 7.245506361126899719e+00 -1.019686062261456527e+00
9.722755640745162964e+00 5.509300306439399719e+00 -7.903922390192690273e-01
9.956642359495162964e+00 5.676536634564399719e+00 -8.051474880427065273e-01
1.020468923449516296e+01 5.854026868939399719e+00 -8.205588649958315273e-01
1.046909353137016296e+01 6.043113783001899719e+00 -8.369773220270815273e-01
1.074961110949516296e+01 6.243675306439399719e+00 -8.543876003473940273e-01
4.354355642199516296e+01 1.757790382206439972e+01 -2.653261501714581527e+00
2.336167165637016296e+01 1.092531593143939972e+01 -1.552538235113019027e+00
1.257407400012016296e+01 7.246238783001899719e+00 -9.614432644098940273e-01
9.723365992307662964e+00 5.509788587689399719e+00 -7.473624538630190273e-01
9.957252711057662964e+00 5.677024915814399719e+00 -7.606223415583315273e-01
1.020529958605766296e+01 5.854393079876899719e+00 -7.746756862848940273e-01
1.046970388293266296e+01 6.043479993939399719e+00 -7.896598171442690273e-01
1.074997732043266296e+01 6.243919447064399719e+00 -8.055442165583315273e-01
4.895444509387016296e+01 1.943032081425189972e+01 -2.714266140386456527e+00
2.322885915637016296e+01 1.087868507206439972e+01 -1.434954006597394027e+00
1.257566091418266296e+01 7.246849134564399719e+00 -9.035361599177065273e-01
9.723976343870162964e+00 5.510154798626899719e+00 -7.041190456598940273e-01
9.957863062620162964e+00 5.677513197064399719e+00 -7.163413356989565273e-01
1.020590993762016296e+01 5.854759290814399719e+00 -7.290671657770815273e-01
1.047019216418266296e+01 6.043846204876899719e+00 -7.426322292536440273e-01
1.075046560168266296e+01 6.244285658001899719e+00 -7.570060085505190273e-01
4.799301931262016296e+01 1.910195167362689972e+01 -2.436891872808331527e+00
5.288083669543266296e+01 2.135952003300189972e+01 -2.666902859136456527e+00
1.257724782824516296e+01 7.247459486126899719e+00 -8.453391384333315273e-01
9.724708765745162964e+00 5.510643079876899719e+00 -6.611197780817690273e-01
9.958473414182662964e+00 5.677879408001899719e+00 -6.718619655817690273e-01
1.020639821887016296e+01 5.855247572064399719e+00 -6.832297634333315273e-01
1.047068044543266296e+01 6.044212415814399719e+00 -6.953605007380190273e-01
1.075095388293266296e+01 6.244651868939399719e+00 -7.082236599177065273e-01
5.047287771105766296e+01 1.995131690800189972e+01 -2.306063015386456527e+00
6.530527517199516296e+01 2.575160987675189972e+01 -2.913149197027081527e+00
1.257883474230766296e+01 7.248191908001899719e+00 -7.874625515192690273e-01
9.725319117307662964e+00 5.511131361126899719e+00 -6.179221462458315273e-01
9.959083765745162964e+00 5.678367689251899719e+00 -6.273978542536440273e-01
1.020700857043266296e+01 5.855613783001899719e+00 -6.376822780817690273e-01
1.047116872668266296e+01 6.044578626751899719e+00 -6.483786892145815273e-01
1.075144216418266296e+01 6.244896009564399719e+00 -6.597312282770815273e-01
5.097702810168266296e+01 2.012453468143939972e+01 -2.082781155034894027e+00
4.824436208605766296e+01 1.972158057987689972e+01 -1.992372829839581527e+00
1.258042165637016296e+01 7.248802259564399719e+00 -7.293113064020815273e-01
9.761940211057662964e+00 5.521995618939399719e+00 -5.758231472223940273e-01
9.997902125120162964e+00 5.690208509564399719e+00 -5.843375515192690273e-01
1.024839040637016296e+01 5.868675306439399719e+00 -5.931266140192690273e-01
1.051535817980766296e+01 6.058860853314399719e+00 -6.024955105036440273e-01
4.121494314074516296e+01 1.633473975956439972e+01 -1.535036404058331527e+00
4.839780446887016296e+01 1.924233253300189972e+01 -1.759493191167706527e+00
4.815195485949516296e+01 1.968947608768939972e+01 -1.758623440191144027e+00
1.260849782824516296e+01 7.259056165814399719e+00 -6.719840358942690273e-01
7.871071070432662964e+00 5.530662611126899719e+00 -1.195970852300519027e+00
7.839210718870162964e+00 5.600242689251899719e+00 -1.195284206792706527e+00
7.805153101682662964e+00 5.668968275189399719e+00 -1.194506008550519027e+00
7.771095484495162964e+00 5.737815931439399719e+00 -1.193743069097394027e+00
7.734352320432662964e+00 5.805198743939399719e+00 -1.192613918706769027e+00
7.697242945432662964e+00 5.872093275189399719e+00 -1.191423733159894027e+00
7.660011500120162964e+00 5.939109876751899719e+00 -1.190233547613019027e+00
7.620582789182662964e+00 6.004661634564399719e+00 -1.188921291753644027e+00
8.327736109495162964e+00 5.697288587689399719e+00 -1.214891750738019027e+00
8.295265406370162964e+00 5.771751478314399719e+00 -1.214540798589581527e+00
8.265724390745162964e+00 5.847435072064399719e+00 -1.214342434331769027e+00
8.233131617307662964e+00 5.922142103314399719e+00 -1.213991482183331527e+00
8.200538843870162964e+00 5.996604993939399719e+00 -1.213625271245831527e+00
8.168068140745162964e+00 6.070945814251899719e+00 -1.213274319097394027e+00
8.132667750120162964e+00 6.144310072064399719e+00 -1.212770779058331527e+00
8.100197046995162964e+00 6.218528822064399719e+00 -1.212419826909894027e+00
8.910865992307662964e+00 5.909935072064399719e+00 -1.243730862066144027e+00
8.879493921995162964e+00 5.991478040814399719e+00 -1.243791897222394027e+00
8.848121851682662964e+00 6.073143079876899719e+00 -1.243837673589581527e+00
8.816627711057662964e+00 6.154930189251899719e+00 -1.243883449956769027e+00
8.784767359495162964e+00 6.236473158001899719e+00 -1.243883449956769027e+00
8.742897242307662964e+00 6.313621595501899719e+00 -1.242708523198956527e+00
8.698585718870162964e+00 6.390037611126899719e+00 -1.241258938238019027e+00
8.654640406370162964e+00 6.465843275189399719e+00 -1.239824612066144027e+00
9.527076929807662964e+00 6.134666517376899719e+00 -1.270693142339581527e+00
9.497047632932662964e+00 6.223777845501899719e+00 -1.270906765386456527e+00
9.454689234495162964e+00 6.308128431439399719e+00 -1.270006496831769027e+00
9.411232203245162964e+00 6.392234876751899719e+00 -1.268984157964581527e+00
9.368141382932662964e+00 6.475975111126899719e+00 -1.267977077886456527e+00
9.325050562620162964e+00 6.559593275189399719e+00 -1.266969997808331527e+00
9.281837671995162964e+00 6.643211439251899719e+00 -1.265962917730206527e+00
9.235695093870162964e+00 6.724998548626899719e+00 -1.264833767339581527e+00
1.013791677355766296e+01 6.357566908001899719e+00 -1.290804226323956527e+00
1.013095876574516296e+01 6.462181165814399719e+00 -1.293886501714581527e+00
1.012400075793266296e+01 6.567405775189399719e+00 -1.296984035894269027e+00
1.007114431262016296e+01 6.655540540814399719e+00 -1.295290310308331527e+00
1.000681325793266296e+01 6.738182142376899719e+00 -1.292345364019269027e+00
9.942726343870162964e+00 6.820457533001899719e+00 -1.289415676519269027e+00
9.878883570432662964e+00 6.902366712689399719e+00 -1.286501247808331527e+00
9.815529078245162964e+00 6.983665540814399719e+00 -1.283602077886456527e+00
1.151511403918266296e+01 6.859764173626899719e+00 -1.381365139409894027e+00
1.137448903918266296e+01 6.929832533001899719e+00 -1.371202785894269027e+00
1.076657888293266296e+01 6.816429212689399719e+00 -1.314424831792706527e+00
1.076120778918266296e+01 6.930931165814399719e+00 -1.317827541753644027e+00
1.075595876574516296e+01 7.045799329876899719e+00 -1.321245510503644027e+00
1.075058767199516296e+01 7.161521986126899719e+00 -1.324693996831769027e+00
1.071347829699516296e+01 7.264671400189399719e+00 -1.324953396245831527e+00
1.064926931262016296e+01 7.355491712689399719e+00 -1.322710354253644027e+00
1.243894216418266296e+01 7.196678236126899719e+00 -1.415254909917706527e+00
1.200791189074516296e+01 7.167991712689399719e+00 -1.378649074956769027e+00
1.170517751574516296e+01 7.180076673626899719e+00 -1.353960354253644027e+00
1.158127614855766296e+01 7.258079603314399719e+00 -1.346208889409894027e+00
1.154941579699516296e+01 7.371604993939399719e+00 -1.347215969488019027e+00
1.151755544543266296e+01 7.485374525189399719e+00 -1.348223049566144027e+00
1.148532888293266296e+01 7.599754408001899719e+00 -1.349230129644269027e+00
1.145334646105766296e+01 7.714134290814399719e+00 -1.350252468511456527e+00
1.256211110949516296e+01 7.241722181439399719e+00 -1.368669826909894027e+00
1.247934743762016296e+01 7.345237806439399719e+00 -1.365297634527081527e+00
1.240769216418266296e+01 7.452293470501899719e+00 -1.362612087652081527e+00
1.267624685168266296e+01 7.695091322064399719e+00 -1.391069729253644027e+00
1.293235036730766296e+01 7.939476087689399719e+00 -1.418596584722394027e+00
1.281613942980766296e+01 8.033836439251899719e+00 -1.412340481206769027e+00
1.268174001574516296e+01 8.119163587689399719e+00 -1.404695827886456527e+00
1.254380056262016296e+01 8.200462415814399719e+00 -1.396334011480206527e+00
1.256369802355766296e+01 7.242454603314399719e+00 -1.310289699956769027e+00
1.248081228137016296e+01 7.345848158001899719e+00 -1.307085354253644027e+00
1.240891286730766296e+01 7.452781751751899719e+00 -1.304811794683331527e+00
1.267612478137016296e+01 7.694969251751899719e+00 -1.331575710698956527e+00
1.305319997668266296e+01 7.989036634564399719e+00 -1.367983181402081527e+00
1.345822927355766296e+01 8.304954603314399719e+00 -1.407091457769269027e+00
1.367441579699516296e+01 8.550071790814399719e+00 -1.430162746831769027e+00
1.365158864855766296e+01 8.694480970501899719e+00 -1.432588894292706527e+00
1.256528493762016296e+01 7.243064954876899719e+00 -1.252230007573956527e+00
1.248215505480766296e+01 7.346458509564399719e+00 -1.249193508550519027e+00
1.241025564074516296e+01 7.453270033001899719e+00 -1.247042019292706527e+00
1.267600271105766296e+01 7.694847181439399719e+00 -1.272112209722394027e+00
1.305283376574516296e+01 7.988792493939399719e+00 -1.306398708745831527e+00
1.345774099230766296e+01 8.304588392376899719e+00 -1.343202907964581527e+00
1.858506032824516296e+01 1.068239600956439972e+01 -1.765825588628644027e+00
1.531882497668266296e+01 9.438133314251899719e+00 -1.503877956792706527e+00
1.256699392199516296e+01 7.243675306439399719e+00 -1.193895656988019027e+00
1.248361989855766296e+01 7.346946790814399719e+00 -1.191027004644269027e+00
1.241147634387016296e+01 7.453758314251899719e+00 -1.188982326909894027e+00
1.267575857043266296e+01 7.694603040814399719e+00 -1.212389309331769027e+00
1.305258962512016296e+01 7.988548353314399719e+00 -1.244524319097394027e+00
1.345725271105766296e+01 8.304222181439399719e+00 -1.279024441167706527e+00
1.950705739855766296e+01 1.108242042362689972e+01 -1.746141750738019027e+00
1.532053396105766296e+01 9.438499525189399719e+00 -1.429903347417706527e+00
1.256845876574516296e+01 7.244407728314399719e+00 -1.135896999761456527e+00
1.248496267199516296e+01 7.347557142376899719e+00 -1.133180935308331527e+00
1.241269704699516296e+01 7.454246595501899719e+00 -1.131258327886456527e+00
1.267563650012016296e+01 7.694480970501899719e+00 -1.153017361089581527e+00
1.305222341418266296e+01 7.988304212689399719e+00 -1.183016140386456527e+00
1.345676442980766296e+01 8.303855970501899719e+00 -1.215242702886456527e+00
2.094004079699516296e+01 1.170436866581439972e+01 -1.754305202886456527e+00
1.532224294543266296e+01 9.438987806439399719e+00 -1.356355984136456527e+00
1.257016775012016296e+01 7.245018079876899719e+00 -1.077608425542706527e+00
1.248642751574516296e+01 7.348045423626899719e+00 -1.075060207769269027e+00
1.241403982043266296e+01 7.454734876751899719e+00 -1.073549587652081527e+00
1.267539235949516296e+01 7.694358900189399719e+00 -1.093691189214581527e+00
1.305197927355766296e+01 7.988060072064399719e+00 -1.121568996831769027e+00
1.345627614855766296e+01 8.303489759564399719e+00 -1.151506740972394027e+00
3.246653005480766296e+01 1.670900733768939972e+01 -2.418962795659894027e+00
1.532395192980766296e+01 9.439476087689399719e+00 -1.282442409917706527e+00
1.257175466418266296e+01 7.245628431439399719e+00 -1.019655544683331527e+00
1.248777028918266296e+01 7.348655775189399719e+00 -1.017275173589581527e+00
1.241526052355766296e+01 7.455223158001899719e+00 -1.015566189214581527e+00
1.267527028918266296e+01 7.694236829876899719e+00 -1.034075100347394027e+00
1.305161306262016296e+01 7.987815931439399719e+00 -1.059831936284894027e+00
1.345590993762016296e+01 8.303123548626899719e+00 -1.087480862066144027e+00
3.248093435168266296e+01 1.671474464237689972e+01 -2.260637600347394027e+00
1.532566091418266296e+01 9.439964368939399719e+00 -1.208971340581769027e+00
1.257334157824516296e+01 7.246360853314399719e+00 -9.614127468317690273e-01
1.248923513293266296e+01 7.349266126751899719e+00 -9.595053981989565273e-01
1.241660329699516296e+01 7.455711439251899719e+00 -9.579184841364565273e-01
1.267514821887016296e+01 7.694114759564399719e+00 -9.748404812067690273e-01
1.305136892199516296e+01 7.987571790814399719e+00 -9.984610866755190273e-01
1.345542165637016296e+01 8.302757337689399719e+00 -1.023836452886456527e+00
3.250986501574516296e+01 1.672670753300189972e+01 -2.103075344488019027e+00
1.532736989855766296e+01 9.440330579876899719e+00 -1.135118801519269027e+00
1.257492849230766296e+01 7.246971204876899719e+00 -9.035056423395815273e-01
1.249069997668266296e+01 7.349754408001899719e+00 -9.014609646052065273e-01
1.241782400012016296e+01 7.456077650189399719e+00 -8.999961208552065273e-01
1.267490407824516296e+01 7.693992689251899719e+00 -9.153159450739565273e-01
1.305100271105766296e+01 7.987327650189399719e+00 -9.368155788630190273e-01
1.345493337512016296e+01 8.302391126751899719e+00 -9.599021267145815273e-01
3.254013845324516296e+01 1.673940284550189972e+01 -1.944551784917706527e+00
1.532907888293266296e+01 9.440818861126899719e+00 -1.061708767339581527e+00
1.257651540637016296e+01 7.247703626751899719e+00 -8.453086208552065273e-01
1.249204275012016296e+01 7.350364759564399719e+00 -8.437522243708315273e-01
1.241904470324516296e+01 7.456565931439399719e+00 -8.423941921442690273e-01
1.267478200793266296e+01 7.693870618939399719e+00 -8.561423610895815273e-01
1.305075857043266296e+01 7.987083509564399719e+00 -8.755362819880190273e-01
1.345444509387016296e+01 8.302024915814399719e+00 -8.963492702692690273e-01
3.256931325793266296e+01 1.675148780643939972e+01 -1.786638576909894027e+00
1.533078786730766296e+01 9.441307142376899719e+00 -9.879325222223940273e-01
1.257810232043266296e+01 7.248313978314399719e+00 -7.874320339411440273e-01
1.249350759387016296e+01 7.350853040814399719e+00 -7.857535671442690273e-01
1.242038747668266296e+01 7.457054212689399719e+00 -7.845176052302065273e-01
1.267465993762016296e+01 7.693748548626899719e+00 -7.967093776911440273e-01
1.305039235949516296e+01 7.986839368939399719e+00 -8.139670681208315273e-01
1.345395681262016296e+01 8.301658704876899719e+00 -8.325217556208315273e-01
3.259714528918266296e+01 1.676296241581439972e+01 -1.627641994878644027e+00
1.533249685168266296e+01 9.441673353314399719e+00 -9.145835231989565273e-01
1.257968923449516296e+01 7.248924329876899719e+00 -7.292807888239565273e-01
1.249485036730766296e+01 7.351463392376899719e+00 -7.277854274958315273e-01
1.242160817980766296e+01 7.457542493939399719e+00 -7.269767116755190273e-01
1.267441579699516296e+01 7.693626478314399719e+00 -7.376273464411440273e-01
1.305014821887016296e+01 7.986717298626899719e+00 -7.527793239802065273e-01
1.345346853137016296e+01 8.301292493939399719e+00 -7.690604519098940273e-01
2.434238454699516296e+01 1.317897804081439972e+01 -1.166887600347394027e+00
1.533420583605766296e+01 9.442161634564399719e+00 -8.408683132380190273e-01
1.260654470324516296e+01 7.258812025189399719e+00 -6.719382595270815273e-01
1.251413747668266296e+01 7.358665540814399719e+00 -6.706870388239565273e-01
1.244431325793266296e+01 7.466331556439399719e+00 -6.698172878473940273e-01
1.273850271105766296e+01 7.719139173626899719e+00 -6.802695583552065273e-01
1.310752126574516296e+01 8.010154798626899719e+00 -6.931174587458315273e-01
1.350339528918266296e+01 8.322166517376899719e+00 -7.068961452692690273e-01
3.265695974230766296e+01 1.678786475956439972e+01 -1.310091335698956527e+00
1.534262868762016296e+01 9.445701673626899719e+00 -7.674125026911440273e-01
7.620216578245162964e+00 6.004783704876899719e+00 -1.188906032964581527e+00
7.586281031370162964e+00 6.072532728314399719e+00 -1.188143093511456527e+00
7.564796656370162964e+00 6.146263197064399719e+00 -1.189165432378644027e+00
7.543068140745162964e+00 6.220481947064399719e+00 -1.190203030034894027e+00
7.516212671995162964e+00 6.292015150189399719e+00 -1.190569240972394027e+00
7.488380640745162964e+00 6.363304212689399719e+00 -1.190813381597394027e+00
7.460304468870162964e+00 6.434837415814399719e+00 -1.191042263433331527e+00
7.430275171995162964e+00 6.505271986126899719e+00 -1.191194851323956527e+00
8.099952906370162964e+00 6.218772962689399719e+00 -1.212404568120831527e+00
8.058326929807662964e+00 6.288841322064399719e+00 -1.211138088628644027e+00
8.018043726682662964e+00 6.359397962689399719e+00 -1.209841091558331527e+00
7.974952906370162964e+00 6.428733900189399719e+00 -1.208391506597394027e+00
7.941505640745162964e+00 6.502464368939399719e+00 -1.208132107183331527e+00
7.909401148557662964e+00 6.576805189251899719e+00 -1.208040554448956527e+00
7.874733179807662964e+00 6.650291517376899719e+00 -1.207842190191144027e+00
7.842628687620162964e+00 6.724876478314399719e+00 -1.207750637456769027e+00
8.654396265745162964e+00 6.466087415814399719e+00 -1.239809353277081527e+00
8.607521265745162964e+00 6.540428236126899719e+00 -1.238237698003644027e+00
8.560646265745162964e+00 6.614524915814399719e+00 -1.236650783941144027e+00
8.513893336057662964e+00 6.688743665814399719e+00 -1.235079128667706527e+00
8.467262476682662964e+00 6.762596204876899719e+00 -1.233522732183331527e+00
8.420753687620162964e+00 6.836204603314399719e+00 -1.231951076909894027e+00
8.381080836057662964e+00 6.913597181439399719e+00 -1.231218655034894027e+00
8.347023218870162964e+00 6.993431165814399719e+00 -1.231142361089581527e+00
9.235817164182662964e+00 6.725364759564399719e+00 -1.264849026128644027e+00
9.193458765745162964e+00 6.808738783001899719e+00 -1.263872463628644027e+00
9.144142359495162964e+00 6.888816908001899719e+00 -1.262346584722394027e+00
9.095192164182662964e+00 6.969139173626899719e+00 -1.260851223394269027e+00
9.046364039182662964e+00 7.049095228314399719e+00 -1.259355862066144027e+00
8.997780054807662964e+00 7.128929212689399719e+00 -1.257875759527081527e+00
8.949074000120162964e+00 7.208763197064399719e+00 -1.256380398198956527e+00
8.902931421995162964e+00 7.289573743939399719e+00 -1.255403835698956527e+00
9.815284937620162964e+00 6.983909681439399719e+00 -1.283586819097394027e+00
9.752662867307662964e+00 7.064842298626899719e+00 -1.280916531011456527e+00
9.699928492307662964e+00 7.150047376751899719e+00 -1.279314358159894027e+00
9.647438257932662964e+00 7.235618665814399719e+00 -1.277727444097394027e+00
9.603615015745162964e+00 7.324729993939399719e+00 -1.277071316167706527e+00
9.559791773557662964e+00 7.413963392376899719e+00 -1.276415188238019027e+00
9.515846461057662964e+00 7.503440931439399719e+00 -1.275759060308331527e+00
9.472023218870162964e+00 7.592552259564399719e+00 -1.275102932378644027e+00
1.064951345324516296e+01 7.355979993939399719e+00 -1.322740871831769027e+00
1.058762380480766296e+01 7.447288587689399719e+00 -1.320329983159894027e+00
1.052256032824516296e+01 7.536888197064399719e+00 -1.317858059331769027e+00
1.045737478137016296e+01 7.626365736126899719e+00 -1.315370876714581527e+00
1.039279958605766296e+01 7.715232923626899719e+00 -1.312898952886456527e+00
1.032846853137016296e+01 7.803733900189399719e+00 -1.310442287847394027e+00
1.026401540637016296e+01 7.892356947064399719e+00 -1.307985622808331527e+00
1.019614431262016296e+01 7.978172376751899719e+00 -1.305391628667706527e+00
1.145285817980766296e+01 7.714378431439399719e+00 -1.350221950933331527e+00
1.141867849230766296e+01 7.828025892376899719e+00 -1.351167995855206527e+00
1.136130544543266296e+01 7.931175306439399719e+00 -1.349870998784894027e+00
1.128916189074516296e+01 8.027610853314399719e+00 -1.347109157964581527e+00
1.121750661730766296e+01 8.123191908001899719e+00 -1.344377834722394027e+00
1.114609548449516296e+01 8.218528822064399719e+00 -1.341646511480206527e+00
1.108530446887016296e+01 8.319236829876899719e+00 -1.339983303472394027e+00
1.102683278918266296e+01 8.420555189251899719e+00 -1.338518459722394027e+00
1.254245778918266296e+01 8.200340345501899719e+00 -1.396211941167706527e+00
1.244651052355766296e+01 8.298851087689399719e+00 -1.391786892339581527e+00
1.238730642199516296e+01 8.413597181439399719e+00 -1.390398342534894027e+00
1.232163259387016296e+01 8.525657728314399719e+00 -1.388750393316144027e+00
1.225632497668266296e+01 8.637229993939399719e+00 -1.387117702886456527e+00
1.219113942980766296e+01 8.748558118939399719e+00 -1.385485012456769027e+00
1.211972829699516296e+01 8.856956556439399719e+00 -1.383592922613019027e+00
1.205478689074516296e+01 8.968040540814399719e+00 -1.381960232183331527e+00
1.365134450793266296e+01 8.694969251751899719e+00 -1.432588894292706527e+00
1.362656423449516296e+01 8.839256361126899719e+00 -1.434954006597394027e+00
1.360178396105766296e+01 8.984520033001899719e+00 -1.437334377691144027e+00
1.357663747668266296e+01 9.131126478314399719e+00 -1.439730007573956527e+00
1.352695485949516296e+01 9.265770033001899719e+00 -1.439974148198956527e+00
1.341892263293266296e+01 9.371360853314399719e+00 -1.435045559331769027e+00
1.331137868762016296e+01 9.476463392376899719e+00 -1.430132229253644027e+00
1.320493337512016296e+01 9.580467298626899719e+00 -1.425279934331769027e+00
1.531772634387016296e+01 9.438255384564399719e+00 -1.503816921636456527e+00
1.467575857043266296e+01 9.319725111126899719e+00 -1.455736477300519027e+00
1.464743825793266296e+01 9.475975111126899719e+00 -1.457979519292706527e+00
1.462632009387016296e+01 9.637229993939399719e+00 -1.460863430425519027e+00
1.460507985949516296e+01 9.799095228314399719e+00 -1.463762600347394027e+00
1.458383962512016296e+01 9.962059095501899719e+00 -1.466677029058331527e+00
1.456223317980766296e+01 1.012660987675189972e+01 -1.469621975347394027e+00
1.451279470324516296e+01 1.027687843143939972e+01 -1.470232326909894027e+00
1.531943532824516296e+01 9.438743665814399719e+00 -1.429842312261456527e+00
1.520871755480766296e+01 9.563621595501899719e+00 -1.425691921636456527e+00
1.523838064074516296e+01 9.753563001751899719e+00 -1.432375271245831527e+00
1.573166677355766296e+01 1.017031104862689972e+01 -1.475221950933331527e+00
1.725864431262016296e+01 1.111208350956439972e+01 -1.599138576909894027e+00
1.600327321887016296e+01 1.068178565800189972e+01 -1.505861599370831527e+00
1.592710134387016296e+01 1.083583839237689972e+01 -1.504717190191144027e+00
1.585117360949516296e+01 1.098940284550189972e+01 -1.503557522222394027e+00
1.532114431262016296e+01 9.439109876751899719e+00 -1.356294948980206527e+00
1.521018239855766296e+01 9.563865736126899719e+00 -1.352327663823956527e+00
1.523715993762016296e+01 9.752586439251899719e+00 -1.358324367925519027e+00
1.573032400012016296e+01 1.016909034550189972e+01 -1.398271877691144027e+00
2.111423513293266296e+01 1.301992042362689972e+01 -1.795366604253644027e+00
2.102109548449516296e+01 1.322756202518939972e+01 -1.794405300542706527e+00
1.788205739855766296e+01 1.185195167362689972e+01 -1.569475490972394027e+00
1.796921560168266296e+01 1.211721046268939972e+01 -1.580934841558331527e+00
1.532285329699516296e+01 9.439598158001899719e+00 -1.282396633550519027e+00
1.521164724230766296e+01 9.564231947064399719e+00 -1.278612453863019027e+00
1.523606130480766296e+01 9.751609876751899719e+00 -1.284334499761456527e+00
1.572885915637016296e+01 1.016786964237689972e+01 -1.321382839605206527e+00
2.176950857043266296e+01 1.334340675175189972e+01 -1.734987575933331527e+00
2.245175954699516296e+01 1.395265968143939972e+01 -1.786959011480206527e+00
1.788340017199516296e+01 1.185182960331439972e+01 -1.479982693120831527e+00
1.796677419543266296e+01 1.211501319706439972e+01 -1.490297634527081527e+00
1.532456228137016296e+01 9.440086439251899719e+00 -1.208910305425519027e+00
1.521311208605766296e+01 9.564476087689399719e+00 -1.205324489995831527e+00
1.523484060168266296e+01 9.750633314251899719e+00 -1.210008938238019027e+00
1.572739431262016296e+01 1.016677100956439972e+01 -1.244142849370831527e+00
2.233444997668266296e+01 1.362221534550189972e+01 -1.661699612066144027e+00
2.261008474230766296e+01 1.403212745487689972e+01 -1.684160549566144027e+00
1.788462087512016296e+01 1.185170753300189972e+01 -1.391023952886456527e+00
1.796445485949516296e+01 1.211281593143939972e+01 -1.400209743902081527e+00
1.532627126574516296e+01 9.440452650189399719e+00 -1.135073025152081527e+00
1.521445485949516296e+01 9.564720228314399719e+00 -1.132082302495831527e+00
1.523374196887016296e+01 9.749656751751899719e+00 -1.136156399175519027e+00
1.572605153918266296e+01 1.016555030643939972e+01 -1.167391140386456527e+00
2.228720876574516296e+01 1.359804542362689972e+01 -1.548052151128644027e+00
2.263340017199516296e+01 1.404299171268939972e+01 -1.572588283941144027e+00
1.788584157824516296e+01 1.185146339237689972e+01 -1.302110989019269027e+00
1.796201345324516296e+01 1.211061866581439972e+01 -1.309755642339581527e+00
1.532798025012016296e+01 9.440940931439399719e+00 -1.061662990972394027e+00
1.521591970324516296e+01 9.565086439251899719e+00 -1.058473904058331527e+00
1.523264333605766296e+01 9.748680189251899719e+00 -1.061952907964581527e+00
1.572458669543266296e+01 1.016432960331439972e+01 -1.090288479253644027e+00
1.625461599230766296e+01 1.061208350956439972e+01 -1.120821316167706527e+00
2.241928884387016296e+01 1.393337257206439972e+01 -1.447786648198956527e+00
1.788718435168266296e+01 1.185134132206439972e+01 -1.212770779058331527e+00
1.795957204699516296e+01 1.210842140018939972e+01 -1.219850857183331527e+00
1.532968923449516296e+01 9.441429212689399719e+00 -9.879020046442690273e-01
1.521738454699516296e+01 9.565330579876899719e+00 -9.852927517145815273e-01
1.523142263293266296e+01 9.747703626751899719e+00 -9.882071804255190273e-01
1.572324392199516296e+01 1.016310890018939972e+01 -1.013674099370831527e+00
1.625290700793266296e+01 1.061061866581439972e+01 -1.041094143316144027e+00
2.217014333605766296e+01 1.380605323612689972e+01 -1.324205715581769027e+00
1.788840505480766296e+01 1.185121925175189972e+01 -1.123949367925519027e+00
1.795713064074516296e+01 1.210622413456439972e+01 -1.129564602300519027e+00
1.533139821887016296e+01 9.441917493939399719e+00 -9.145530056208315273e-01
1.521884939074516296e+01 9.565574720501899719e+00 -9.117606472223940273e-01
1.523032400012016296e+01 9.746727064251899719e+00 -9.141410183161440273e-01
1.572177907824516296e+01 1.016188819706439972e+01 -9.367087673395815273e-01
1.625119802355766296e+01 1.060915382206439972e+01 -9.610160183161440273e-01
2.202341482043266296e+01 1.373073585331439972e+01 -1.207018215581769027e+00
1.788962575793266296e+01 1.185097511112689972e+01 -1.034700710698956527e+00
1.795481130480766296e+01 1.210414893925189972e+01 -1.039842922613019027e+00
1.533310720324516296e+01 9.442283704876899719e+00 -8.408530544489565273e-01
1.522019216418266296e+01 9.565940931439399719e+00 -8.382590603083315273e-01
1.522910329699516296e+01 9.745750501751899719e+00 -8.405326198786440273e-01
1.572043630480766296e+01 1.016078956425189972e+01 -8.602317165583315273e-01
1.624948903918266296e+01 1.060768897831439972e+01 -8.814414333552065273e-01
2.111789724230766296e+01 1.327053077518939972e+01 -1.063829739019269027e+00
1.789096853137016296e+01 1.185085304081439972e+01 -9.455130886286440273e-01
1.795236989855766296e+01 1.210195167362689972e+01 -9.497397731989565273e-01
1.534177419543266296e+01 9.445823743939399719e+00 -7.673972439020815273e-01
1.523007985949516296e+01 9.570091322064399719e+00 -7.654441189020815273e-01
1.525974294543266296e+01 9.759666517376899719e+00 -7.675803493708315273e-01
1.574362966418266296e+01 1.017140968143939972e+01 -7.841819118708315273e-01
2.125473806262016296e+01 1.308315284550189972e+01 -9.610465358942690273e-01
2.793967458605766296e+01 1.672927100956439972e+01 -1.176363308355206527e+00
1.789218923449516296e+01 1.185073097050189972e+01 -8.568442653864565273e-01
1.794992849230766296e+01 1.209975440800189972e+01 -8.597129177302065273e-01
7.430397242307662964e+00 6.505638197064399719e+00 -1.191225368902081527e+00
7.401954859495162964e+00 6.577049329876899719e+00 -1.191454250738019027e+00
7.371315211057662964e+00 6.647483900189399719e+00 -1.191591579839581527e+00
7.340553492307662964e+00 6.718284681439399719e+00 -1.191728908941144027e+00
7.309791773557662964e+00 6.789085462689399719e+00 -1.191881496831769027e+00
7.278907984495162964e+00 6.860008314251899719e+00 -1.192018825933331527e+00
7.247902125120162964e+00 6.931297376751899719e+00 -1.192171413823956527e+00
7.214943140745162964e+00 7.001365736126899719e+00 -1.192232448980206527e+00
7.842628687620162964e+00 6.725120618939399719e+00 -1.207765896245831527e+00
7.807716578245162964e+00 6.798362806439399719e+00 -1.207552273198956527e+00
7.775245875120162964e+00 6.872947767376899719e+00 -1.207460720464581527e+00
7.742164820432662964e+00 6.947898939251899719e+00 -1.207521755620831527e+00
7.710060328245162964e+00 7.023216322064399719e+00 -1.207689602300519027e+00
7.677833765745162964e+00 7.098655775189399719e+00 -1.207857448980206527e+00
7.643165796995162964e+00 7.173240736126899719e+00 -1.207933742925519027e+00
7.609596461057662964e+00 7.248313978314399719e+00 -1.207949001714581527e+00
8.346779078245162964e+00 6.993675306439399719e+00 -1.231127102300519027e+00
8.309791773557662964e+00 7.072288587689399719e+00 -1.230913479253644027e+00
8.272804468870162964e+00 7.150901868939399719e+00 -1.230699856206769027e+00
8.235573023557662964e+00 7.230003431439399719e+00 -1.230486233159894027e+00
8.191261500120162964e+00 7.304710462689399719e+00 -1.229387600347394027e+00
8.146583765745162964e+00 7.379173353314399719e+00 -1.228258449956769027e+00
8.101906031370162964e+00 7.453880384564399719e+00 -1.227114040777081527e+00
8.057228296995162964e+00 7.528343275189399719e+00 -1.225984890386456527e+00
8.902565211057662964e+00 7.289695814251899719e+00 -1.255373318120831527e+00
8.862037867307662964e+00 7.373436048626899719e+00 -1.254778225347394027e+00
8.818580836057662964e+00 7.455711439251899719e+00 -1.254091579839581527e+00
8.775001734495162964e+00 7.538230970501899719e+00 -1.253389675542706527e+00
8.728126734495162964e+00 7.618675306439399719e+00 -1.252291042730206527e+00
8.680275171995162964e+00 7.698509290814399719e+00 -1.251070339605206527e+00
8.632179468870162964e+00 7.778465345501899719e+00 -1.249849636480206527e+00
8.581276148557662964e+00 7.856346204876899719e+00 -1.248506863042706527e+00
9.471779078245162964e+00 7.592796400189399719e+00 -1.275087673589581527e+00
