9.283726334571838379e+00 5.142392680048942566e+00 -9.214989807456674953e-01
9.251988053321838379e+00 5.222348734736442566e+00 -9.214379455894174953e-01
9.416905045509338379e+00 5.354550883173942566e+00 -9.355370666831674953e-01
9.623692154884338379e+00 5.502378031611442566e+00 -9.527794983237924953e-01
9.842808365821838379e+00 5.658994242548942566e+00 -9.710442688316049953e-01
1.007376539707183838e+01 5.824277445673942566e+00 -9.903161194175424953e-01
9.391880631446838379e+00 4.993222758173942566e+00 -8.853356506675424953e-01
9.338169693946838379e+00 5.068418070673942566e+00 -8.838708069175424953e-01
9.284824967384338379e+00 5.143125101923942566e+00 -8.824059631675424953e-01
9.252964615821838379e+00 5.222837015986442566e+00 -8.823601868003549953e-01
9.417637467384338379e+00 5.354917094111442566e+00 -8.955590393394174953e-01
9.624302506446838379e+00 5.502744242548942566e+00 -9.117028381675424953e-01
9.843418717384338379e+00 5.659482523798942566e+00 -9.288079407066049953e-01
1.007437574863433838e+01 5.824643656611442566e+00 -9.468438293784799953e-01
9.392979264259338379e+00 4.993833109736442566e+00 -8.457390930503549953e-01
9.339268326759338379e+00 5.069028422236442566e+00 -8.444115784019174953e-01
9.285923600196838379e+00 5.143735453486442566e+00 -8.433129455894174953e-01
9.253819108009338379e+00 5.223447367548942566e+00 -8.433129455894174953e-01
9.418247818946838379e+00 5.355405375361442566e+00 -8.555962707847299953e-01
9.624912858009338379e+00 5.503232523798942566e+00 -8.706414368003549953e-01
9.844029068946838379e+00 5.659848734736442566e+00 -8.863732483237924953e-01
1.007486402988433838e+01 5.825009867548942566e+00 -9.031731750816049953e-01
9.394077897071838379e+00 4.994443461298942566e+00 -8.063714172691049953e-01
9.340366959571838379e+00 5.069760844111442566e+00 -8.051964905112924953e-01
9.287144303321838379e+00 5.144345805048942566e+00 -8.040215637534799953e-01
9.254795670509338379e+00 5.224057719111442566e+00 -8.040520813316049953e-01
9.418980240821838379e+00 5.355893656611442566e+00 -8.154503967612924953e-01
9.625523209571838379e+00 5.503720805048942566e+00 -8.293969299644174953e-01
9.844517350196838379e+00 5.660337015986442566e+00 -8.441674377769174953e-01
1.007547438144683838e+01 5.825498148798942566e+00 -8.597619201987924953e-01
9.395176529884338379e+00 4.995175883173942566e+00 -7.667901184409799953e-01
9.341465592384338379e+00 5.070371195673942566e+00 -7.659814026206674953e-01
9.288242936134338379e+00 5.144956156611442566e+00 -7.649590637534799953e-01
9.255650162696838379e+00 5.224546000361442566e+00 -7.650353576987924953e-01
9.419590592384338379e+00 5.356381937861442566e+00 -7.755334045737924953e-01
9.626255631446838379e+00 5.504209086298942566e+00 -7.883813049644174953e-01
9.845127701759338379e+00 5.660703226923942566e+00 -8.020074035972299953e-01
1.007608473300933838e+01 5.825864359736442566e+00 -8.161370422691049953e-01
9.396397233009338379e+00 4.995786234736442566e+00 -7.274529602378549953e-01
9.342686295509338379e+00 5.070981547236442566e+00 -7.265679504722299953e-01
9.289341568946838379e+00 5.145566508173942566e+00 -7.257134582847299953e-01
9.256626725196838379e+00 5.225156351923942566e+00 -7.258202698081674953e-01
9.420323014259338379e+00 5.356870219111442566e+00 -7.354180481284799953e-01
9.626865983009338379e+00 5.504575297236442566e+00 -7.471673157066049953e-01
9.845738053321838379e+00 5.661191508173942566e+00 -7.596184875816049953e-01
1.007657301425933838e+01 5.826230570673942566e+00 -7.727563049644174953e-01
9.397495865821838379e+00 4.996518656611442566e+00 -6.879021789878549953e-01
9.343784928321838379e+00 5.071591898798942566e+00 -6.873986389487924953e-01
9.290440201759338379e+00 5.146176859736442566e+00 -6.866814758628549953e-01
9.257603287696838379e+00 5.225644633173942566e+00 -6.868340637534799953e-01
9.420933365821838379e+00 5.357358500361442566e+00 -6.955315735191049953e-01
9.627476334571838379e+00 5.505063578486442566e+00 -7.061974670737924953e-01
9.846348404884338379e+00 5.661679789423942566e+00 -7.174889709800424953e-01
1.007718336582183838e+01 5.826718851923942566e+00 -7.291772034019174953e-01
9.398594498634338379e+00 4.997129008173942566e+00 -6.485802795737924953e-01
9.344883561134338379e+00 5.072324320673942566e+00 -6.480157043784799953e-01
9.291660904884338379e+00 5.146787211298942566e+00 -6.474511291831674953e-01
9.258457779884338379e+00 5.226254984736442566e+00 -6.476494934409799953e-01
9.421665787696838379e+00 5.357846781611442566e+00 -6.554619934409799953e-01
9.628086686134338379e+00 5.505551859736442566e+00 -6.650292541831674953e-01
9.846958756446838379e+00 5.662046000361442566e+00 -6.751610901206674953e-01
1.007767164707183838e+01 5.827085062861442566e+00 -6.858422424644174953e-01
9.399693131446838379e+00 4.997861430048942566e+00 -6.090752746909799953e-01
9.345982193946838379e+00 5.072934672236442566e+00 -6.086480285972299953e-01
9.292759537696838379e+00 5.147519633173942566e+00 -6.084496643394174953e-01
9.259434342384338379e+00 5.226743265986442566e+00 -6.086938049644174953e-01
9.422276139259338379e+00 5.358335062861442566e+00 -6.156212951987924953e-01
9.628819108009338379e+00 5.506040140986442566e+00 -6.240899231284799953e-01
9.847569108009338379e+00 5.662534281611442566e+00 -6.328484680503549953e-01
1.007828199863433838e+01 5.827451273798942566e+00 -6.423089172691049953e-01
9.404453873634338379e+00 4.999326273798942566e+00 -5.696770813316049953e-01
9.350742936134338379e+00 5.074399515986442566e+00 -5.696160461753549953e-01
9.297520279884338379e+00 5.148984476923942566e+00 -5.693566467612924953e-01
9.263950943946838379e+00 5.228330180048942566e+00 -5.696465637534799953e-01
9.433994889259338379e+00 5.361753031611442566e+00 -5.759026672691049953e-01
9.641758561134338379e+00 5.509946390986442566e+00 -5.833184387534799953e-01
9.862095475196838379e+00 5.666928812861442566e+00 -5.911919739097299953e-01
1.009463942050933838e+01 5.832578226923942566e+00 -5.992638733237924953e-01
8.183872818946838379e+00 5.253964945673942566e+00 -1.198903765901917495e+00
8.155064225196838379e+00 5.323300883173942566e+00 -1.198339190706604995e+00
8.126621842384338379e+00 5.392758890986442566e+00 -1.197988238558167495e+00
8.099522233009338379e+00 5.462949320673942566e+00 -1.197820391878479995e+00
8.072666764259338379e+00 5.532651469111442566e+00 -1.197652545198792495e+00
8.045689225196838379e+00 5.602353617548942566e+00 -1.197484698519104995e+00
8.018711686134338379e+00 5.672299906611442566e+00 -1.197316851839417495e+00
7.989170670509338379e+00 5.740903422236442566e+00 -1.197011676058167495e+00
8.676304459571838379e+00 5.402158305048942566e+00 -1.221456256136292495e+00
8.650181412696838379e+00 5.477841898798942566e+00 -1.221608844026917495e+00
8.626743912696838379e+00 5.554379984736442566e+00 -1.221883502230042495e+00
8.600498795509338379e+00 5.630307719111442566e+00 -1.222051348909729995e+00
8.574375748634338379e+00 5.705869242548942566e+00 -1.222203936800354995e+00
8.548374772071838379e+00 5.781552836298942566e+00 -1.222371783480042495e+00
8.519444108009338379e+00 5.856504008173942566e+00 -1.222402301058167495e+00
8.493443131446838379e+00 5.932065531611442566e+00 -1.222570147737854995e+00
9.249546647071838379e+00 5.574887797236442566e+00 -1.248265948519104995e+00
9.208286881446838379e+00 5.652036234736442566e+00 -1.246953692659729995e+00
9.167271256446838379e+00 5.728940531611442566e+00 -1.245656695589417495e+00
9.132115006446838379e+00 5.807797953486442566e+00 -1.245031085237854995e+00
9.104160904884338379e+00 5.888730570673942566e+00 -1.245198931917542495e+00
9.076206803321838379e+00 5.969663187861442566e+00 -1.245366778597229995e+00
9.048130631446838379e+00 6.050839945673942566e+00 -1.245549884065979995e+00
9.012608170509338379e+00 6.128842875361442566e+00 -1.244847979769104995e+00
1.007156813144683838e+01 5.822324320673942566e+00 -1.296331134065979995e+00
1.002774488925933838e+01 5.907651469111442566e+00 -1.294896807894104995e+00
9.890049576759338379e+00 5.962461039423942566e+00 -1.283590045198792495e+00
9.755283951759338379e+00 6.016049906611442566e+00 -1.272527423128479995e+00
9.645908951759338379e+00 6.075864359736442566e+00 -1.264119830355042495e+00
9.640293717384338379e+00 6.170712992548942566e+00 -1.266942706331604995e+00
9.631870865821838379e+00 6.265439555048942566e+00 -1.269475665315979995e+00
9.573887467384338379e+00 6.341611430048942566e+00 -1.266820636019104995e+00
1.007217848300933838e+01 5.822812601923942566e+00 -1.252462115511292495e+00
1.031753981113433838e+01 5.998227640986442566e+00 -1.280919757112854995e+00
1.019852125644683838e+01 6.062192484736442566e+00 -1.272176470980042495e+00
1.019412672519683838e+01 6.162778422236442566e+00 -1.275182452425354995e+00
1.018985426425933838e+01 6.263608500361442566e+00 -1.278188433870667495e+00
1.018545973300933838e+01 6.365048930048942566e+00 -1.281224932894104995e+00
1.018094313144683838e+01 6.467465922236442566e+00 -1.284276690706604995e+00
1.017654860019683838e+01 6.570127055048942566e+00 -1.287358966097229995e+00
1.007266676425933838e+01 5.823178812861442566e+00 -1.208852496370667495e+00
1.031802809238433838e+01 5.998593851923942566e+00 -1.235738482698792495e+00
1.250857985019683838e+01 6.808042094111442566e+00 -1.453359332308167495e+00
1.206448805332183838e+01 6.787412211298942566e+00 -1.413884845003479995e+00
1.167117750644683838e+01 6.774961039423942566e+00 -1.379110064730042495e+00
1.138382399082183838e+01 6.792172953486442566e+00 -1.354558673128479995e+00
1.124673902988433838e+01 6.859311625361442566e+00 -1.344762530550354995e+00
1.111050856113433838e+01 6.924130961298942566e+00 -1.335210528597229995e+00
1.007327711582183838e+01 5.823545023798942566e+00 -1.165029254183167495e+00
1.031851637363433838e+01 5.998960062861442566e+00 -1.190801348909729995e+00
1.379666578769683838e+01 7.224057719111442566e+00 -1.517354693636292495e+00
1.369473707675933838e+01 7.332089945673942566e+00 -1.512227740511292495e+00
1.359402906894683838e+01 7.438657328486442566e+00 -1.507161822542542495e+00
1.221231520175933838e+01 7.087461039423942566e+00 -1.381612506136292495e+00
1.213541090488433838e+01 7.186093851923942566e+00 -1.378286090120667495e+00
1.207242262363433838e+01 7.288754984736442566e+00 -1.376226153597229995e+00
1.007388746738433838e+01 5.823911234736442566e+00 -1.121465411409729995e+00
1.031900465488433838e+01 5.999326273798942566e+00 -1.145909991487854995e+00
1.398978102207183838e+01 7.286679789423942566e+00 -1.472066607698792495e+00
1.388541090488433838e+01 7.395932719111442566e+00 -1.467076983675354995e+00
1.378238356113433838e+01 7.503720805048942566e+00 -1.462148394808167495e+00
1.221353590488433838e+01 7.087949320673942566e+00 -1.326589312776917495e+00
1.213675367832183838e+01 7.186704203486442566e+00 -1.323751178011292495e+00
1.207352125644683838e+01 7.289121195673942566e+00 -1.321798053011292495e+00
1.007437574863433838e+01 5.824399515986442566e+00 -1.077687945589417495e+00
1.031949293613433838e+01 5.999692484736442566e+00 -1.100789752230042495e+00
1.638113844394683838e+01 8.059018656611442566e+00 -1.608297076448792495e+00
1.713199293613433838e+01 8.480405375361442566e+00 -1.675786700472229995e+00
1.711319410800933838e+01 8.653501078486442566e+00 -1.679219928011292495e+00
1.221487867832183838e+01 7.088559672236442566e+00 -1.271886553987854995e+00
1.213809645175933838e+01 7.187192484736442566e+00 -1.268941607698792495e+00
1.207474195957183838e+01 7.289609476923942566e+00 -1.267095294222229995e+00
1.007498610019683838e+01 5.824765726923942566e+00 -1.034169879183167495e+00
1.032010328769683838e+01 6.000058695673942566e+00 -1.055928912386292495e+00
1.754642164707183838e+01 8.435605570673942566e+00 -1.625234332308167495e+00
1.743118727207183838e+01 8.580625101923942566e+00 -1.621022906526917495e+00
1.741287672519683838e+01 8.757016703486442566e+00 -1.624395098909729995e+00
1.221622145175933838e+01 7.089047953486442566e+00 -1.217199053987854995e+00
1.213943922519683838e+01 7.187680765986442566e+00 -1.214437213167542495e+00
1.207596266269683838e+01 7.290097758173942566e+00 -1.212712970003479995e+00
1.007547438144683838e+01 5.825131937861442566e+00 -9.904534485191049953e-01
1.032059156894683838e+01 6.000424906611442566e+00 -1.010869708284729995e+00
4.136954176425933838e+01 1.612859873473644257e+01 -3.296758380159729995e+00
4.920816481113433838e+01 1.919476084411144257e+01 -3.886556353792542495e+00
3.634817945957183838e+01 1.529278330504894257e+01 -2.947072711214417495e+00
1.221756422519683838e+01 7.089658305048942566e+00 -1.162252154573792495e+00
1.214078199863433838e+01 7.188291117548942566e+00 -1.159673419222229995e+00
1.207718336582183838e+01 7.290586039423942566e+00 -1.158071246370667495e+00
1.007608473300933838e+01 5.825498148798942566e+00 -9.469811584800424953e-01
1.032107985019683838e+01 6.000791117548942566e+00 -9.660546448081674953e-01
4.137527906894683838e+01 1.613128428161144257e+01 -3.101934161409729995e+00
4.950284254550933838e+01 1.929388193786144257e+01 -3.672918048128479995e+00
3.635355055332183838e+01 1.529510264098644257e+01 -2.775350299105042495e+00
1.221878492832183838e+01 7.090146586298942566e+00 -1.107610430940979995e+00
1.214212477207183838e+01 7.188779398798942566e+00 -1.105230059847229995e+00
1.207828199863433838e+01 7.290952250361442566e+00 -1.103734698519104995e+00
1.007657301425933838e+01 5.825986430048942566e+00 -9.032952453941049953e-01
1.032156813144683838e+01 6.001157328486442566e+00 -9.210412170737924953e-01
4.136880934238433838e+01 1.612994150817394257e+01 -2.906377520784729995e+00
4.938882887363433838e+01 1.925652842223644257e+01 -3.430379595980042495e+00
3.635879957675933838e+01 1.529729990661144257e+01 -2.603673663362854995e+00
1.222012770175933838e+01 7.090756937861442566e+00 -1.052999224886292495e+00
1.214334547519683838e+01 7.189267680048942566e+00 -1.050512042269104995e+00
1.207950270175933838e+01 7.291440531611442566e+00 -1.049138751253479995e+00
1.007718336582183838e+01 5.826352640986442566e+00 -8.598687317222299953e-01
1.032205641269683838e+01 6.001523539423942566e+00 -8.762871887534799953e-01
4.136050856113433838e+01 1.612798838317394257e+01 -2.709874835237854995e+00
4.761661207675933838e+01 1.866521982848644257e+01 -3.089620318636292495e+00
3.636417067050933838e+01 1.529949717223644257e+01 -2.431142535433167495e+00
1.222147047519683838e+01 7.091245219111442566e+00 -9.981133606284799953e-01
1.214468824863433838e+01 7.189878031611442566e+00 -9.961144592612924953e-01
1.208072340488433838e+01 7.291928812861442566e+00 -9.948479797691049953e-01
1.007779371738433838e+01 5.826718851923942566e+00 -8.162285950034799953e-01
1.032254469394683838e+01 6.001889750361442566e+00 -8.315484192222299953e-01
4.132767164707183838e+01 1.611810068786144257e+01 -2.513295855745667495e+00
4.328213942050933838e+01 1.721783213317394257e+01 -2.628087725862854995e+00
3.636941969394683838e+01 1.530169443786144257e+01 -2.259587970003479995e+00
1.222281324863433838e+01 7.091855570673942566e+00 -9.435479309409799953e-01
1.214603102207183838e+01 7.190366312861442566e+00 -9.417321350425424953e-01
1.208194410800933838e+01 7.292295023798942566e+00 -9.402978088706674953e-01
1.007828199863433838e+01 5.827085062861442566e+00 -7.728478576987924953e-01
1.032315504550933838e+01 6.002255961298942566e+00 -7.866112854331674953e-01
4.129922926425933838e+01 1.610967783629894257e+01 -2.316335406526917495e+00
4.320694410800933838e+01 1.719341807067394257e+01 -2.418630328401917495e+00
3.637479078769683838e+01 1.530401377379894257e+01 -2.087178912386292495e+00
1.222415602207183838e+01 7.092465922236442566e+00 -8.887078430503549953e-01
1.214737379550933838e+01 7.190854594111442566e+00 -8.870904114097299953e-01
1.208304274082183838e+01 7.292783305048942566e+00 -8.860680725425424953e-01
1.007889235019683838e+01 5.827573344111442566e+00 -7.292534973472299953e-01
1.032364332675933838e+01 6.002622172236442566e+00 -7.419182922691049953e-01
4.127725660800933838e+01 1.610333018004894257e+01 -2.121114459261292495e+00
4.320840895175933838e+01 1.719451670348644257e+01 -2.214544024690979995e+00
3.637051832675933838e+01 1.530291514098644257e+01 -1.915319171175354995e+00
1.222537672519683838e+01 7.092954203486442566e+00 -8.341881897300424953e-01
1.214871656894683838e+01 7.191464945673942566e+00 -8.327538635581674953e-01
1.208426344394683838e+01 7.293271586298942566e+00 -8.315636780112924953e-01
1.007938063144683838e+01 5.827939555048942566e+00 -6.859185364097299953e-01
1.032413160800933838e+01 6.002988383173942566e+00 -6.970269348472299953e-01
4.126163160800933838e+01 1.609893564879894257e+01 -1.925435748323792495e+00
4.809085524082183838e+01 1.882647471129894257e+01 -2.203862872347229995e+00
3.636453688144683838e+01 1.530120615661144257e+01 -1.742635455355042495e+00
1.222671949863433838e+01 7.093564555048942566e+00 -7.794091369956674953e-01
1.215005934238433838e+01 7.191953226923942566e+00 -7.781579162925424953e-01
1.208548414707183838e+01 7.293637797236442566e+00 -7.773797180503549953e-01
1.007999098300933838e+01 5.828305765986442566e+00 -6.423699524253549953e-01
1.032461988925933838e+01 6.003232523798942566e+00 -6.521508362144174953e-01
4.124234449863433838e+01 1.609344248473644257e+01 -1.730947222933167495e+00
4.811209547519683838e+01 1.883416514098644257e+01 -1.977117266878479995e+00
3.635342848300933838e+01 1.529778818786144257e+01 -1.570852008089417495e+00
1.222806227207183838e+01 7.094052836298942566e+00 -7.249352600425424953e-01
1.215140211582183838e+01 7.192441508173942566e+00 -7.235772278159799953e-01
1.208658277988433838e+01 7.294126078486442566e+00 -7.229210998862924953e-01
1.009634840488433838e+01 5.833554789423942566e+00 -5.993249084800424953e-01
1.034293043613433838e+01 6.009213969111442566e+00 -6.080681946128549953e-01
4.125259840488433838e+01 1.609759287536144257e+01 -1.536611285433167495e+00
4.866397535800933838e+01 1.901934580504894257e+01 -1.765096392855042495e+00
3.630264723300933838e+01 1.528069834411144257e+01 -1.397176470980042495e+00
1.223563063144683838e+01 7.096860453486442566e+00 -6.703698303550424953e-01
1.215921461582183838e+01 7.195371195673942566e+00 -6.695153381675424953e-01
1.209256422519683838e+01 7.296445414423942566e+00 -6.686455871909799953e-01
7.989048600196838379e+00 5.741147562861442566e+00 -1.196996417269104995e+00
7.961582779884338379e+00 5.810483500361442566e+00 -1.196798053011292495e+00
7.931553483009338379e+00 5.878842875361442566e+00 -1.196477618440979995e+00
7.901402115821838379e+00 5.947446390986442566e+00 -1.196141925081604995e+00
7.871494889259338379e+00 6.015683695673942566e+00 -1.195806231722229995e+00
7.839024186134338379e+00 6.082944437861442566e+00 -1.195165362581604995e+00
7.802281022071838379e+00 6.148374125361442566e+00 -1.193975177034729995e+00
7.763340592384338379e+00 6.212461039423942566e+00 -1.192693438753479995e+00
8.493198990821838379e+00 5.932309672236442566e+00 -1.222554888948792495e+00
8.464268326759338379e+00 6.006772562861442566e+00 -1.222585406526917495e+00
8.435581803321838379e+00 6.081479594111442566e+00 -1.222463336214417495e+00
8.395664811134338379e+00 6.151914164423942566e+00 -1.221196856722229995e+00
8.355625748634338379e+00 6.221738383173942566e+00 -1.219899859651917495e+00
8.315830826759338379e+00 6.291440531611442566e+00 -1.218602862581604995e+00
8.273228287696838379e+00 6.359921976923942566e+00 -1.217168536409729995e+00
8.233555436134338379e+00 6.429257914423942566e+00 -1.215871539339417495e+00
9.012486100196838379e+00 6.129087015986442566e+00 -1.244832720980042495e+00
8.973301529884338379e+00 6.205625101923942566e+00 -1.243932452425354995e+00
8.934239029884338379e+00 6.282041117548942566e+00 -1.243016925081604995e+00
8.895054459571838379e+00 6.358457133173942566e+00 -1.242101397737854995e+00
8.856114029884338379e+00 6.434629008173942566e+00 -1.241201129183167495e+00
8.817173600196838379e+00 6.510678812861442566e+00 -1.240285601839417495e+00
8.778233170509338379e+00 6.586850687861442566e+00 -1.239385333284729995e+00
8.739414811134338379e+00 6.662656351923942566e+00 -1.238469805940979995e+00
9.573643326759338379e+00 6.341855570673942566e+00 -1.266805377230042495e+00
9.520176529884338379e+00 6.419248148798942566e+00 -1.264363970980042495e+00
9.463413834571838379e+00 6.494809672236442566e+00 -1.261769976839417495e+00
9.411778092384338379e+00 6.572324320673942566e+00 -1.259725299105042495e+00
9.366245865821838379e+00 6.651670023798942566e+00 -1.258336749300354995e+00
9.320713639259338379e+00 6.730771586298942566e+00 -1.256948199495667495e+00
9.275181412696838379e+00 6.810117289423942566e+00 -1.255559649690979995e+00
9.227207779884338379e+00 6.887509867548942566e+00 -1.254094805940979995e+00
1.017654860019683838e+01 6.570493265986442566e+00 -1.287374224886292495e+00
1.016983473300933838e+01 6.672910258173942566e+00 -1.290395465120667495e+00
1.016312086582183838e+01 6.776059672236442566e+00 -1.293447222933167495e+00
1.010635817050933838e+01 6.859677836298942566e+00 -1.291234698519104995e+00
1.004361402988433838e+01 6.939878031611442566e+00 -1.288366046175354995e+00
9.981236100196838379e+00 7.019589945673942566e+00 -1.285512652620667495e+00
9.924107193946838379e+00 7.101621195673942566e+00 -1.283223834261292495e+00
9.872593522071838379e+00 7.185239359736442566e+00 -1.281499591097229995e+00
1.110965406894683838e+01 6.924253031611442566e+00 -1.335134234651917495e+00
1.097928297519683838e+01 6.989072367548942566e+00 -1.325734820589417495e+00
1.084891188144683838e+01 7.051816508173942566e+00 -1.316518511995667495e+00
1.080691969394683838e+01 7.149472758173942566e+00 -1.316167559847229995e+00
1.077725660800933838e+01 7.252011820673942566e+00 -1.317052569612854995e+00
1.074759352207183838e+01 7.354795023798942566e+00 -1.317937579378479995e+00
1.069034254550933838e+01 7.445859476923942566e+00 -1.316030230745667495e+00
1.062515699863433838e+01 7.532407328486442566e+00 -1.313543048128479995e+00
1.207230055332183838e+01 7.289121195673942566e+00 -1.376226153597229995e+00
1.225467360019683838e+01 7.487119242548942566e+00 -1.397618975862854995e+00
1.212930738925933838e+01 7.566587015986442566e+00 -1.389791217073792495e+00
1.200516188144683838e+01 7.645322367548942566e+00 -1.382055011019104995e+00
1.188333570957183838e+01 7.722592875361442566e+00 -1.374456134065979995e+00
1.176309645175933838e+01 7.798764750361442566e+00 -1.366948809847229995e+00
1.164407789707183838e+01 7.874204203486442566e+00 -1.359533038362854995e+00
1.141739332675933838e+01 7.897763773798942566e+00 -1.341558184847229995e+00
1.207352125644683838e+01 7.289609476923942566e+00 -1.321798053011292495e+00
1.234671461582183838e+01 7.523007914423942566e+00 -1.350240435823792495e+00
1.269327223300933838e+01 7.793271586298942566e+00 -1.385228839144104995e+00
1.274344313144683838e+01 7.950620219111442566e+00 -1.393895831331604995e+00
1.263211500644683838e+01 8.041074320673942566e+00 -1.387899127230042495e+00
1.257107985019683838e+01 8.152036234736442566e+00 -1.386480059847229995e+00
1.251883375644683838e+01 8.267148539423942566e+00 -1.386159625276917495e+00
1.247134840488433838e+01 8.383847758173942566e+00 -1.385961261019104995e+00
1.207461988925933838e+01 7.290097758173942566e+00 -1.267095294222229995e+00
1.234659254550933838e+01 7.522885844111442566e+00 -1.293843951448792495e+00
1.269302809238433838e+01 7.793149515986442566e+00 -1.327169146761292495e+00
1.306583082675933838e+01 8.083921000361442566e+00 -1.363027301058167495e+00
1.364029371738433838e+01 8.469907328486442566e+00 -1.416524615511292495e+00
1.362833082675933838e+01 8.614316508173942566e+00 -1.419728961214417495e+00
1.361636793613433838e+01 8.760068461298942566e+00 -1.422979083284729995e+00
1.360440504550933838e+01 8.906430765986442566e+00 -1.426229205355042495e+00
1.207584059238433838e+01 7.290463969111442566e+00 -1.212712970003479995e+00
1.234647047519683838e+01 7.522885844111442566e+00 -1.237783160433167495e+00
1.269278395175933838e+01 7.792905375361442566e+00 -1.269139971956604995e+00
1.306546461582183838e+01 8.083676859736442566e+00 -1.302892413362854995e+00
1.829605543613433838e+01 1.045098643004894257e+01 -1.730992999300354995e+00
1.843887770175933838e+01 1.071819834411144257e+01 -1.748067584261292495e+00
1.491507399082183838e+01 9.343442484736442566e+00 -1.465505328401917495e+00
1.462747633457183838e+01 9.378232523798942566e+00 -1.446340289339417495e+00
1.207706129550933838e+01 7.290952250361442566e+00 -1.158071246370667495e+00
1.234634840488433838e+01 7.522763773798942566e+00 -1.181462970003479995e+00
1.269253981113433838e+01 7.792783305048942566e+00 -1.210851397737854995e+00
1.306509840488433838e+01 8.083310648798942566e+00 -1.242467608675354995e+00
1.926578199863433838e+01 1.086346201598644257e+01 -1.717794146761292495e+00
1.918399488925933838e+01 1.104375986754894257e+01 -1.716893878206604995e+00
1.491653883457183838e+01 9.343808695673942566e+00 -1.395055499300354995e+00
1.482144606113433838e+01 9.467343851923942566e+00 -1.391881671175354995e+00
1.207828199863433838e+01 7.291440531611442566e+00 -1.103734698519104995e+00
1.234622633457183838e+01 7.522641703486442566e+00 -1.125478472933167495e+00
1.269229567050933838e+01 7.792539164423942566e+00 -1.152898516878479995e+00
1.306473219394683838e+01 8.083066508173942566e+00 -1.182409014925354995e+00
2.137247145175933838e+01 1.175958018004894257e+01 -1.776235308870667495e+00
2.058145582675933838e+01 1.165459971129894257e+01 -1.725331988558167495e+00
1.491788160800933838e+01 9.344052836298942566e+00 -1.325002398714417495e+00
1.482266676425933838e+01 9.467465922236442566e+00 -1.322011676058167495e+00
1.207950270175933838e+01 7.291806742548942566e+00 -1.049138751253479995e+00
1.234610426425933838e+01 7.522519633173942566e+00 -1.069234576448792495e+00
1.269205152988433838e+01 7.792417094111442566e+00 -1.095006671175354995e+00
1.306436598300933838e+01 8.082700297236442566e+00 -1.122396197542542495e+00
4.152847731113433838e+01 2.033587412536144257e+01 -3.006429400667542495e+00
3.206692945957183838e+01 1.667742685973644257e+01 -2.388967242464417495e+00
1.491922438144683838e+01 9.344296976923942566e+00 -1.254628863558167495e+00
1.482376539707183838e+01 9.467587992548942566e+00 -1.251790728792542495e+00
1.208060133457183838e+01 7.292295023798942566e+00 -9.948479797691049953e-01
1.234598219394683838e+01 7.522519633173942566e+00 -1.013341632112854995e+00
1.269180738925933838e+01 7.792172953486442566e+00 -1.036840167269104995e+00
1.306387770175933838e+01 8.082456156611442566e+00 -1.062108721956604995e+00
4.133768141269683838e+01 2.025408701598644257e+01 -2.791219439730042495e+00
3.207657301425933838e+01 1.668096689879894257e+01 -2.232885089144104995e+00
1.492056715488433838e+01 9.344541117548942566e+00 -1.184652056917542495e+00
1.482486402988433838e+01 9.467710062861442566e+00 -1.181997027620667495e+00
1.208182203769683838e+01 7.292783305048942566e+00 -9.403130676597299953e-01
1.234586012363433838e+01 7.522397562861442566e+00 -9.574639465659799953e-01
1.269156324863433838e+01 7.792050883173942566e+00 -9.790093567222299953e-01
1.306351149082183838e+01 8.082089945673942566e+00 -1.002187457308167495e+00
4.103995192050933838e+01 2.012676768004894257e+01 -2.573140826448792495e+00
3.208633863925933838e+01 1.668462900817394257e+01 -2.077657428011292495e+00
1.492190992832183838e+01 9.344907328486442566e+00 -1.114705767855042495e+00
1.482608473300933838e+01 9.467832133173942566e+00 -1.111852374300354995e+00
1.208304274082183838e+01 7.293149515986442566e+00 -8.860680725425424953e-01
1.234573805332183838e+01 7.522275492548942566e+00 -9.013421203941049953e-01
1.269131910800933838e+01 7.791806742548942566e+00 -9.209344055503549953e-01
1.306314527988433838e+01 8.081845805048942566e+00 -9.419915344566049953e-01
4.146304762363433838e+01 2.030621103942394257e+01 -2.393895831331604995e+00
3.209610426425933838e+01 1.668829111754894257e+01 -1.921590533480042495e+00
1.492337477207183838e+01 9.345151469111442566e+00 -1.044439044222229995e+00
1.482718336582183838e+01 9.467954203486442566e+00 -1.042119708284729995e+00
1.208414137363433838e+01 7.293637797236442566e+00 -8.315636780112924953e-01
1.234573805332183838e+01 7.522275492548942566e+00 -8.455559875816049953e-01
1.269107496738433838e+01 7.791684672236442566e+00 -8.631951477378549953e-01
1.306277906894683838e+01 8.081479594111442566e+00 -8.821618225425424953e-01
4.105936110019683838e+01 2.013384775817394257e+01 -2.173574176058167495e+00
3.212003004550933838e+01 1.669817881286144257e+01 -1.767034259065979995e+00
1.492471754550933838e+01 9.345395609736442566e+00 -9.745537903159799953e-01
1.482828199863433838e+01 9.468076273798942566e+00 -9.720513489097299953e-01
1.208536207675933838e+01 7.294126078486442566e+00 -7.773797180503549953e-01
1.234561598300933838e+01 7.522153422236442566e+00 -7.895104553550424953e-01
1.269083082675933838e+01 7.791440531611442566e+00 -8.051812317222299953e-01
1.306241285800933838e+01 8.081235453486442566e+00 -8.220574524253549953e-01
4.106009352207183838e+01 2.013348154723644257e+01 -1.972936358675354995e+00
3.215860426425933838e+01 1.671441416442394257e+01 -1.612111773714417495e+00
1.492606031894683838e+01 9.345761820673942566e+00 -9.043481018394174953e-01
1.482950270175933838e+01 9.468320414423942566e+00 -9.023949768394174953e-01
1.208658277988433838e+01 7.294492289423942566e+00 -7.229363586753549953e-01
1.234549391269683838e+01 7.522031351923942566e+00 -7.334954407066049953e-01
1.269058668613433838e+01 7.791318461298942566e+00 -7.475335266441049953e-01
1.306204664707183838e+01 8.080991312861442566e+00 -7.623040344566049953e-01
4.325455152988433838e+01 2.106634287536144257e+01 -1.852605548128479995e+00
3.220059645175933838e+01 1.673223643004894257e+01 -1.457860675081604995e+00
1.492740309238433838e+01 9.346005961298942566e+00 -8.341729309409799953e-01
1.483060133457183838e+01 9.468442484736442566e+00 -8.324029114097299953e-01
1.209244215488433838e+01 7.296811625361442566e+00 -6.686455871909799953e-01
1.236734449863433838e+01 7.530576273798942566e+00 -6.785027649253549953e-01
1.271207106113433838e+01 7.799863383173942566e+00 -6.902672912925424953e-01
1.308279860019683838e+01 8.089414164423942566e+00 -7.029473450034799953e-01
4.075198805332183838e+01 2.000115732848644257e+01 -1.563512530550354995e+00
3.224295485019683838e+01 1.675005869567394257e+01 -1.302465167269104995e+00
1.492935621738433838e+01 9.346616312861442566e+00 -7.644250061362924953e-01
1.483267652988433838e+01 9.469052836298942566e+00 -7.624718811362924953e-01
7.763340592384338379e+00 6.212705180048942566e+00 -1.192708697542542495e+00
7.726353287696838379e+00 6.277402445673942566e+00 -1.191503253206604995e+00
7.689610123634338379e+00 6.342099711298942566e+00 -1.190511431917542495e+00
7.659580826759338379e+00 6.410459086298942566e+00 -1.190404620394104995e+00
7.629673600196838379e+00 6.478574320673942566e+00 -1.190313067659729995e+00
7.599644303321838379e+00 6.546811625361442566e+00 -1.190206256136292495e+00
7.569615006446838379e+00 6.615415140986442566e+00 -1.190099444612854995e+00
7.537388443946838379e+00 6.682553812861442566e+00 -1.189901080355042495e+00
8.233677506446838379e+00 6.429624125361442566e+00 -1.215917315706604995e+00
8.191197037696838379e+00 6.497495219111442566e+00 -1.214482989534729995e+00
8.151402115821838379e+00 6.566464945673942566e+00 -1.213185992464417495e+00
8.108921647071838379e+00 6.634336039423942566e+00 -1.211751666292542495e+00
8.067417740821838379e+00 6.702207133173942566e+00 -1.210439410433167495e+00
8.035679459571838379e+00 6.774961039423942566e+00 -1.210347857698792495e+00
8.001377701759338379e+00 6.846860453486442566e+00 -1.210134234651917495e+00
7.969639420509338379e+00 6.919858500361442566e+00 -1.210027423128479995e+00
8.739903092384338379e+00 6.663144633173942566e+00 -1.238546099886292495e+00
8.698399186134338379e+00 6.737607523798942566e+00 -1.237523761019104995e+00
8.657017350196838379e+00 6.812070414423942566e+00 -1.236516680940979995e+00
8.614658951759338379e+00 6.886289164423942566e+00 -1.235402789339417495e+00
8.570591568946838379e+00 6.959043070673942566e+00 -1.234060015901917495e+00
8.526524186134338379e+00 7.031796976923942566e+00 -1.232717242464417495e+00
8.486363053321838379e+00 7.106870219111442566e+00 -1.231847491487854995e+00
8.448765397071838379e+00 7.182920023798942566e+00 -1.231282916292542495e+00
9.227085709571838379e+00 6.887876078486442566e+00 -1.254094805940979995e+00
9.182285904884338379e+00 6.966611430048942566e+00 -1.252736773714417495e+00
9.134922623634338379e+00 7.044126078486442566e+00 -1.251287188753479995e+00
9.093296647071838379e+00 7.124570414423942566e+00 -1.250508990511292495e+00
9.053501725196838379e+00 7.205625101923942566e+00 -1.249913897737854995e+00
9.013584733009338379e+00 7.286557719111442566e+00 -1.249318804964417495e+00
8.973423600196838379e+00 7.367856547236442566e+00 -1.248723712190979995e+00
8.930821061134338379e+00 7.447324320673942566e+00 -1.248021807894104995e+00
9.872349381446838379e+00 7.185483500361442566e+00 -1.281484332308167495e+00
9.818028092384338379e+00 7.267636820673942566e+00 -1.279622760042542495e+00
9.763950943946838379e+00 7.349546000361442566e+00 -1.277761187776917495e+00
9.709629654884338379e+00 7.431577250361442566e+00 -1.275914874300354995e+00
9.655796647071838379e+00 7.513120219111442566e+00 -1.274068560823792495e+00
9.602085709571838379e+00 7.594419047236442566e+00 -1.272222247347229995e+00
9.548252701759338379e+00 7.675839945673942566e+00 -1.270375933870667495e+00
9.494663834571838379e+00 7.756894633173942566e+00 -1.268544879183167495e+00
1.062491285800933838e+01 7.532651469111442566e+00 -1.313543048128479995e+00
1.056558668613433838e+01 7.621518656611442566e+00 -1.311269488558167495e+00
1.050247633457183838e+01 7.708188578486442566e+00 -1.308858599886292495e+00
1.043924391269683838e+01 7.794858500361442566e+00 -1.306447711214417495e+00
1.037649977207183838e+01 7.881040140986442566e+00 -1.304052081331604995e+00
1.031387770175933838e+01 7.966855570673942566e+00 -1.301671710237854995e+00
1.025137770175933838e+01 8.052793070673942566e+00 -1.299276080355042495e+00
1.019461500644683838e+01 8.141049906611442566e+00 -1.297734942659729995e+00
1.141751539707183838e+01 7.898252055048942566e+00 -1.341588702425354995e+00
1.138443434238433838e+01 8.009091898798942566e+00 -1.342519488558167495e+00
1.132022535800933838e+01 8.105405375361442566e+00 -1.340429034456604995e+00
1.126285231113433838e+01 8.205136820673942566e+00 -1.338994708284729995e+00
1.120572340488433838e+01 8.304379984736442566e+00 -1.337575640901917495e+00
1.114859449863433838e+01 8.403623148798942566e+00 -1.336156573519104995e+00
1.109146559238433838e+01 8.502988383173942566e+00 -1.334737506136292495e+00
1.103445875644683838e+01 8.601987406611442566e+00 -1.333318438753479995e+00
1.247098219394683838e+01 8.384091898798942566e+00 -1.385946002230042495e+00
1.241788160800933838e+01 8.498349711298942566e+00 -1.385320391878479995e+00
1.236038649082183838e+01 8.610532328486442566e+00 -1.383992877230042495e+00
1.229654371738433838e+01 8.719907328486442566e+00 -1.382390704378479995e+00
1.223294508457183838e+01 8.828916117548942566e+00 -1.380788531526917495e+00
1.216959059238433838e+01 8.937680765986442566e+00 -1.379216876253479995e+00
1.210013258457183838e+01 9.043637797236442566e+00 -1.377370562776917495e+00
1.203690016269683838e+01 9.152158305048942566e+00 -1.375783648714417495e+00
1.360489332675933838e+01 8.907163187861442566e+00 -1.426305499300354995e+00
1.359183180332183838e+01 9.054013773798942566e+00 -1.429570880159729995e+00
1.352725660800933838e+01 9.177182719111442566e+00 -1.428334918245667495e+00
1.345999586582183838e+01 9.299375101923942566e+00 -1.426885333284729995e+00
1.336868727207183838e+01 9.408628031611442566e+00 -1.423284259065979995e+00
1.326468336582183838e+01 9.510556742548942566e+00 -1.418538775667542495e+00
1.316104567050933838e+01 9.612119242548942566e+00 -1.413808551058167495e+00
1.305850660800933838e+01 9.712705180048942566e+00 -1.409124102815979995e+00
1.462845289707183838e+01 9.379209086298942566e+00 -1.446447100862854995e+00
1.461722242832183838e+01 9.539365336298942566e+00 -1.449926104769104995e+00
1.460586988925933838e+01 9.700864359736442566e+00 -1.453450885042542495e+00
1.459427320957183838e+01 9.864194437861442566e+00 -1.457006182894104995e+00
1.458267652988433838e+01 1.002837900817394257e+01 -1.460591998323792495e+00
1.452676832675933838e+01 1.017071299254894257e+01 -1.460485186800354995e+00
1.445938551425933838e+01 1.030792002379894257e+01 -1.459462847933167495e+00
1.437003004550933838e+01 1.043255381286144257e+01 -1.456548419222229995e+00
1.482132399082183838e+01 9.467832133173942566e+00 -1.391896929964417495e+00
1.516568434238433838e+01 9.798642680048942566e+00 -1.422628131136292495e+00
1.564957106113433838e+01 1.020745615661144257e+01 -1.464452471956604995e+00
1.684524977207183838e+01 1.098541025817394257e+01 -1.562062945589417495e+00
1.590897047519683838e+01 1.070525889098644257e+01 -1.493734088167542495e+00
1.583621656894683838e+01 1.085564951598644257e+01 -1.492665972933167495e+00
1.576334059238433838e+01 1.100652842223644257e+01 -1.491597857698792495e+00
1.567569410800933838e+01 1.114886240661144257e+01 -1.489354815706604995e+00
1.482254469394683838e+01 9.467954203486442566e+00 -1.322011676058167495e+00
1.516446363925933838e+01 9.797666117548942566e+00 -1.350484576448792495e+00
1.564798414707183838e+01 1.020623545348644257e+01 -1.389440264925354995e+00
2.079715406894683838e+01 1.295403818786144257e+01 -1.768117633089417495e+00
1.763443434238433838e+01 1.158611826598644257e+01 -1.542745318636292495e+00
1.750491774082183838e+01 1.172845225036144257e+01 -1.537984576448792495e+00
1.773025953769683838e+01 1.206072764098644257e+01 -1.559346881136292495e+00
1.744119703769683838e+01 1.211761240661144257e+01 -1.542836871370667495e+00
1.482364332675933838e+01 9.468076273798942566e+00 -1.251805987581604995e+00
1.516324293613433838e+01 9.796567484736442566e+00 -1.278005328401917495e+00
1.564651930332183838e+01 1.020489268004894257e+01 -1.314504351839417495e+00
2.222562086582183838e+01 1.366497568786144257e+01 -1.762975421175354995e+00
1.763565504550933838e+01 1.158587412536144257e+01 -1.456945147737854995e+00
1.750626051425933838e+01 1.172820810973644257e+01 -1.452443804964417495e+00
1.781509840488433838e+01 1.210528330504894257e+01 -1.477422442659729995e+00
1.841507399082183838e+01 1.265142588317394257e+01 -1.523030963167542495e+00
1.482486402988433838e+01 9.468198344111442566e+00 -1.181997027620667495e+00
1.516190016269683838e+01 9.795468851923942566e+00 -1.205983844026917495e+00
1.564505445957183838e+01 1.020367197692394257e+01 -1.239217486605042495e+00
2.467630445957183838e+01 1.488506846129894257e+01 -1.806432452425354995e+00
1.763687574863433838e+01 1.158575205504894257e+01 -1.370748248323792495e+00
1.750748121738433838e+01 1.172808603942394257e+01 -1.366475787386292495e+00
1.781265699863433838e+01 1.210296396911144257e+01 -1.389638629183167495e+00
1.841214430332183838e+01 1.264874033629894257e+01 -1.431615557894104995e+00
1.482596266269683838e+01 9.468320414423942566e+00 -1.111852374300354995e+00
1.516067945957183838e+01 9.794492289423942566e+00 -1.134023394808167495e+00
1.564358961582183838e+01 1.020245127379894257e+01 -1.164418902620667495e+00
2.199124586582183838e+01 1.354644541442394257e+01 -1.531087603792542495e+00
1.763809645175933838e+01 1.158562998473644257e+01 -1.285070147737854995e+00
1.750870192050933838e+01 1.172784189879894257e+01 -1.281026568636292495e+00
1.781009352207183838e+01 1.210076670348644257e+01 -1.301931109651917495e+00
1.840921461582183838e+01 1.264617685973644257e+01 -1.339818682894104995e+00
1.482706129550933838e+01 9.468564555048942566e+00 -1.042119708284729995e+00
1.515945875644683838e+01 9.793393656611442566e+00 -1.061727252230042495e+00
1.564200270175933838e+01 1.020110850036144257e+01 -1.089269366487854995e+00
2.278067457675933838e+01 1.393877939879894257e+01 -1.464055743440979995e+00
1.763931715488433838e+01 1.158550791442394257e+01 -1.198964801058167495e+00
1.750992262363433838e+01 1.172771982848644257e+01 -1.195165362581604995e+00
1.780765211582183838e+01 1.209844736754894257e+01 -1.213857379183167495e+00
1.840628492832183838e+01 1.264349131286144257e+01 -1.248586383089417495e+00
1.482828199863433838e+01 9.468686625361442566e+00 -9.720513489097299953e-01
1.515823805332183838e+01 9.792417094111442566e+00 -9.898888733237924953e-01
1.564053785800933838e+01 1.019988779723644257e+01 -1.014608111605042495e+00
2.215677320957183838e+01 1.362713389098644257e+01 -1.323140826448792495e+00
1.764053785800933838e+01 1.158538584411144257e+01 -1.113362994417542495e+00
1.751114332675933838e+01 1.172747568786144257e+01 -1.109807696565979995e+00
1.780521070957183838e+01 1.209625010192394257e+01 -1.126332965120667495e+00
1.840347731113433838e+01 1.264092783629894257e+01 -1.156987872347229995e+00
1.482938063144683838e+01 9.468808695673942566e+00 -9.023949768394174953e-01
1.515701735019683838e+01 9.791318461298942566e+00 -9.177300598472299953e-01
1.563907301425933838e+01 1.019854502379894257e+01 -9.395959045737924953e-01
2.419412672519683838e+01 1.464104990661144257e+01 -1.299520220980042495e+00
1.764175856113433838e+01 1.158514170348644257e+01 -1.027364459261292495e+00
1.751236402988433838e+01 1.172735361754894257e+01 -1.024038043245667495e+00
1.780264723300933838e+01 1.209393076598644257e+01 -1.038427081331604995e+00
1.840054762363433838e+01 1.263824228942394257e+01 -1.065953936800354995e+00
1.483047926425933838e+01 9.468930765986442566e+00 -8.324029114097299953e-01
1.515579664707183838e+01 9.790341898798942566e+00 -8.456322815269174953e-01
1.563760817050933838e+01 1.019732432067394257e+01 -8.650567200034799953e-01
2.059854567050933838e+01 1.284930185973644257e+01 -1.048757281526917495e+00
1.764285719394683838e+01 1.158501963317394257e+01 -9.418542053550424953e-01
1.751358473300933838e+01 1.172710947692394257e+01 -9.387719299644174953e-01
1.780020582675933838e+01 1.209161143004894257e+01 -9.506127502769174953e-01
1.839761793613433838e+01 1.263555674254894257e+01 -9.745232727378549953e-01
1.483267652988433838e+01 9.469541117548942566e+00 -7.624718811362924953e-01
1.515469801425933838e+01 9.789365336298942566e+00 -7.739770080894174953e-01
1.563602125644683838e+01 1.019610361754894257e+01 -7.901818420737924953e-01
2.092471754550933838e+01 1.301104502379894257e+01 -9.583336975425424953e-01
1.764407789707183838e+01 1.158489756286144257e+01 -8.559472229331674953e-01
1.751492750644683838e+01 1.172698740661144257e+01 -8.530938293784799953e-01
1.779776442050933838e+01 1.208941416442394257e+01 -8.633629944175424953e-01
1.839468824863433838e+01 1.263299326598644257e+01 -8.831994201987924953e-01
7.537144303321838379e+00 6.682797953486442566e+00 -1.189870562776917495e+00
7.506504654884338379e+00 6.750913187861442566e+00 -1.189748492464417495e+00
7.473667740821838379e+00 6.818051859736442566e+00 -1.189519610628479995e+00
7.440708756446838379e+00 6.885434672236442566e+00 -1.189290728792542495e+00
7.409824967384338379e+00 6.954038187861442566e+00 -1.189321246370667495e+00
7.379551529884338379e+00 7.023129984736442566e+00 -1.189458575472229995e+00
7.346470475196838379e+00 7.091001078486442566e+00 -1.189244952425354995e+00
7.308994889259338379e+00 7.155942484736442566e+00 -1.188604083284729995e+00
7.969395279884338379e+00 6.920102640986442566e+00 -1.210012164339417495e+00
7.934849381446838379e+00 6.991635844111442566e+00 -1.209783282503479995e+00
7.902256608009338379e+00 7.064511820673942566e+00 -1.209615435823792495e+00
7.861118912696838379e+00 7.132871195673942566e+00 -1.208562579378479995e+00
7.820103287696838379e+00 7.200986430048942566e+00 -1.207524981722229995e+00
7.779087662696838379e+00 7.269101664423942566e+00 -1.206472125276917495e+00
7.735752701759338379e+00 7.335996195673942566e+00 -1.205327716097229995e+00
7.694737076759338379e+00 7.404111430048942566e+00 -1.204290118440979995e+00
8.448521256446838379e+00 7.183042094111442566e+00 -1.231267657503479995e+00
8.406284928321838379e+00 7.256528422236442566e+00 -1.230336871370667495e+00
8.362461686134338379e+00 7.329160258173942566e+00 -1.229222979769104995e+00
8.318516373634338379e+00 7.402036234736442566e+00 -1.228093829378479995e+00
8.274815201759338379e+00 7.474668070673942566e+00 -1.226979937776917495e+00
8.230991959571838379e+00 7.547299906611442566e+00 -1.225866046175354995e+00
8.187168717384338379e+00 7.620175883173942566e+00 -1.224752154573792495e+00
8.143345475196838379e+00 7.692807719111442566e+00 -1.223638262972229995e+00
8.930454850196838379e+00 7.447568461298942566e+00 -1.248006549105042495e+00
8.891026139259338379e+00 7.528867289423942566e+00 -1.247426715120667495e+00
8.848667740821838379e+00 7.608701273798942566e+00 -1.246740069612854995e+00
8.806065201759338379e+00 7.688901469111442566e+00 -1.246053424105042495e+00
8.763706803321838379e+00 7.768979594111442566e+00 -1.245366778597229995e+00
8.721226334571838379e+00 7.849057719111442566e+00 -1.244680133089417495e+00
8.678501725196838379e+00 7.929502055048942566e+00 -1.243993487581604995e+00
8.633335709571838379e+00 8.007993265986442566e+00 -1.243215289339417495e+00
9.494297623634338379e+00 7.757016703486442566e+00 -1.268529620394104995e+00
9.438145279884338379e+00 7.836240336298942566e+00 -1.266545977815979995e+00
9.392246842384338379e+00 7.921323344111442566e+00 -1.265737261995667495e+00
9.347080826759338379e+00 8.007260844111442566e+00 -1.265004840120667495e+00
9.301914811134338379e+00 8.092954203486442566e+00 -1.264287677034729995e+00
9.256870865821838379e+00 8.178769633173942566e+00 -1.263570513948792495e+00
9.211460709571838379e+00 8.264951273798942566e+00 -1.262838092073792495e+00
9.168980240821838379e+00 8.352719828486442566e+00 -1.262426104769104995e+00
1.019437086582183838e+01 8.141294047236442566e+00 -1.297719683870667495e+00
1.014419996738433838e+01 8.233090922236442566e+00 -1.296498980745667495e+00
1.009012281894683838e+01 8.322568461298942566e+00 -1.295125689730042495e+00
1.003567945957183838e+01 8.412534281611442566e+00 -1.293737139925354995e+00
9.981602311134338379e+00 8.502011820673942566e+00 -1.292348590120667495e+00
9.931675553321838379e+00 8.594174906611442566e+00 -1.291417803987854995e+00
9.893345475196838379e+00 8.694150492548942566e+00 -1.291784014925354995e+00
9.851353287696838379e+00 8.791684672236442566e+00 -1.291982379183167495e+00
1.103409254550933838e+01 8.602109476923942566e+00 -1.333287921175354995e+00
1.097488844394683838e+01 8.699887797236442566e+00 -1.331777301058167495e+00
1.091580641269683838e+01 8.797544047236442566e+00 -1.330266680940979995e+00
1.085648024082183838e+01 8.895444437861442566e+00 -1.328756060823792495e+00
1.079739820957183838e+01 8.993100687861442566e+00 -1.327245440706604995e+00
1.073819410800933838e+01 9.090634867548942566e+00 -1.325734820589417495e+00
1.067886793613433838e+01 9.188535258173942566e+00 -1.324208941683167495e+00
1.062454664707183838e+01 9.289243265986442566e+00 -1.323201861605042495e+00
1.203628981113433838e+01 9.152280375361442566e+00 -1.375753131136292495e+00
1.197122633457183838e+01 9.259702250361442566e+00 -1.374089923128479995e+00
1.191190016269683838e+01 9.370297953486442566e+00 -1.372670855745667495e+00
1.184647047519683838e+01 9.478086039423942566e+00 -1.370992388948792495e+00
1.178128492832183838e+01 9.585385844111442566e+00 -1.369329180940979995e+00
1.171622145175933838e+01 9.692807719111442566e+00 -1.367665972933167495e+00
1.164517652988433838e+01 9.796811625361442566e+00 -1.365743365511292495e+00
1.158011305332183838e+01 9.904111430048942566e+00 -1.364080157503479995e+00
1.305765211582183838e+01 9.712827250361442566e+00 -1.409063067659729995e+00
1.295450270175933838e+01 9.812070414423942566e+00 -1.404378619417542495e+00
1.285208570957183838e+01 9.910825297236442566e+00 -1.399709429964417495e+00
1.274979078769683838e+01 1.000945810973644257e+01 -1.395055499300354995e+00
1.266287672519683838e+01 1.011590342223644257e+01 -1.391774859651917495e+00
1.259232008457183838e+01 1.023187021911144257e+01 -1.389974322542542495e+00
1.252151930332183838e+01 1.034832529723644257e+01 -1.388158526644104995e+00
1.245108473300933838e+01 1.046429209411144257e+01 -1.386357989534729995e+00
1.436917555332183838e+01 1.043267588317394257e+01 -1.456502642855042495e+00
