1.528537169098854065e+01 -3.530712299048900604e+00 -4.899304773658457179e-01
1.529367247223854065e+01 -3.362987689673900604e+00 -4.767621424049082179e-01
1.530197325348854065e+01 -3.196483783423900604e+00 -4.636701013892832179e-01
1.530075255036354065e+01 -3.026928119361400604e+00 -4.508374597877207179e-01
1.537082090973854065e+01 -2.885082416236400604e+00 -4.389813806861582179e-01
1.404464903473854065e+01 -3.510448627173900604e+00 -4.341443445533457179e-01
1.516562071442604065e+01 -3.832103900611400604e+00 -4.412244226783457179e-01
1.648019590973854065e+01 -4.209911517798900604e+00 -4.495709802955332179e-01
1.794369688630104065e+01 -4.618358783423900604e+00 -4.579480554908457179e-01
1.800399962067604065e+01 -4.440502338111400604e+00 -4.434369470924082179e-01
1.806430235505104065e+01 -4.262890033423900604e+00 -4.289258386939707179e-01
1.812472715973854065e+01 -4.084789447486400604e+00 -4.143994715064707179e-01
1.821859923005104065e+01 -3.919750384986400604e+00 -4.003461267799082179e-01
1.408822813630104065e+01 -3.535473041236400604e+00 -3.668683435767832179e-01
1.519589415192604065e+01 -3.851268939673900604e+00 -3.680585291236582179e-01
1.655282774567604065e+01 -4.246898822486400604e+00 -3.706220056861582179e-01
1.833859434723854065e+01 -4.786327533423900604e+00 -3.753827478736582179e-01
2.123739805817604065e+01 -5.727123431861400604e+00 -3.879712488502207179e-01
2.176010313630104065e+01 -5.690136127173900604e+00 -3.748334314674082179e-01
2.203610411286354065e+01 -5.550365619361400604e+00 -3.589185144752207179e-01
2.220565977692604065e+01 -5.368602924048900604e+00 -3.425610926002207179e-01
1.488546934723854065e+01 -3.894359759986400604e+00 -3.049176599830332179e-01
1.534091368317604065e+01 -3.919994525611400604e+00 -2.957929041236582179e-01
1.662570372223854065e+01 -4.284130267798900604e+00 -2.913373377174082179e-01
1.845163145661354065e+01 -4.839672259986400604e+00 -2.877667810767832179e-01
2.136593809723854065e+01 -5.786449603736400604e+00 -2.864545252174082179e-01
3.018600645661354065e+01 -8.940014056861400604e+00 -3.034680750220957179e-01
3.039669981598854065e+01 -8.679882220923900604e+00 -2.794354822486582179e-01
3.077194395661354065e+01 -8.478344134986400604e+00 -2.556928064674082179e-01
3.420016661286354065e+01 -1.246235292404890060e+01 -2.937482263892832179e-01
3.500961485505104065e+01 -1.241267030686140060e+01 -2.663129236549082179e-01
3.540768614411354065e+01 -1.217451112717390060e+01 -2.380536463111582179e-01
2.119992247223854065e+01 -5.968578509986400604e+00 -2.001660730689707179e-01
2.286581602692604065e+01 -6.389721088111400604e+00 -1.827863123267832179e-01
3.342270079255104065e+01 -1.213178651779890060e+01 -1.256726648658457179e-01
3.485568419098854065e+01 -1.236066835373640060e+01 -9.474309943615821794e-02
3.550802794098854065e+01 -1.223102968186140060e+01 -6.443914435803321794e-02
3.574472227692604065e+01 -1.191840761154890060e+01 -3.497442267834571794e-02
4.618991270661354065e+01 -1.565705507248640060e+01 4.673639275134178206e-02
3.337118712067604065e+01 -1.212275331467390060e+01 3.878656364977928206e-02
3.327939024567604065e+01 -1.169355409592390060e+01 6.446710564196678206e-02
3.535800352692604065e+01 -1.218256776779890060e+01 1.090685460716542821e-01
3.584323301911354065e+01 -1.197321718186140060e+01 1.411882970482167821e-01
3.306930723786354065e+01 -1.200251405686140060e+01 2.007128331810292821e-01
3.313022032380104065e+01 -1.164289491623640060e+01 2.269732091575917821e-01
3.525070372223854065e+01 -1.215180604904890060e+01 2.808062169700917821e-01
4.112289610505104065e+01 -1.414863222092390060e+01 3.911425206810292821e-01
3.284713926911354065e+01 -1.191755311936140060e+01 3.601671788841542821e-01
4.121457090973854065e+01 -1.515827577561140060e+01 5.325609777122792821e-01
3.486654844880104065e+01 -1.200434511154890060e+01 4.464708898216542821e-01
4.601425352692604065e+01 -1.616938417404890060e+01 6.859423253685292821e-01
3.988144102692604065e+01 -1.506440370529890060e+01 6.774431798607167821e-01
3.354330626130104065e+01 -1.184943788498640060e+01 5.630022618919667821e-01
4.165829649567604065e+01 -1.488361757248640060e+01 7.772356603294667821e-01
4.153866758942604065e+01 -1.435261171311140060e+01 8.045031163841542821e-01
3.336227598786354065e+01 -1.217463319748640060e+01 6.993395421654042821e-01
4.104696837067604065e+01 -1.511970155686140060e+01 9.355913732200917821e-01
8.505612364411354065e+01 -3.322455995529890060e+01 2.213133487477904282e+00
8.703109923005104065e+01 -3.204426210373640060e+01 2.391707095876341782e+00
4.117099180817604065e+01 -1.567341249436140060e+01 1.114775333181029282e+00
4.068564024567604065e+01 -1.497980897873640060e+01 1.127455386891966782e+00
4.131845274567604065e+01 -1.477412050217390060e+01 1.175459537282591782e+00
4.105893126130104065e+01 -1.564057558029890060e+01 1.314772281423216782e+00
4.141085997223854065e+01 -1.531208436936140060e+01 1.355665836110716782e+00
4.110556212067604065e+01 -1.567878358811140060e+01 1.521483096852904282e+00
4.171725645661354065e+01 -1.546259706467390060e+01 1.573332462087279282e+00
8.566537657380104065e+01 -3.358808534592390060e+01 3.503874454274779282e+00
4.128036680817604065e+01 -1.577424257248640060e+01 1.733702335134154282e+00
8.679904356598854065e+01 -3.512067811936140060e+01 3.930220279470091782e+00
8.557345762848854065e+01 -3.358466737717390060e+01 3.925841007009154282e+00
8.567099180817604065e+01 -3.262751405686140060e+01 3.984419498220091782e+00
8.668661680817604065e+01 -3.204731386154890060e+01 4.088026675954466782e+00
8.696054258942604065e+01 -3.116303651779890060e+01 4.155241641774779282e+00
4.040683165192604065e+01 -1.540034120529890060e+01 1.894270572438841782e+00
8.510556212067604065e+01 -3.441840761154890060e+01 4.272703799977904282e+00
8.557968321442604065e+01 -3.362263124436140060e+01 4.350050601735716782e+00
8.419210997223854065e+01 -3.205244081467390060e+01 4.327376041188841782e+00
8.356149473786354065e+01 -3.082917421311140060e+01 4.343672427907591782e+00
8.416879454255104065e+01 -3.011030214279890060e+01 4.427046451345091782e+00
4.020150938630104065e+01 -1.532526796311140060e+01 2.083220157399779282e+00
8.643393126130104065e+01 -3.503400819748640060e+01 4.775068912282591782e+00
8.457870665192604065e+01 -3.323310487717390060e+01 4.718062076345091782e+00
8.438180723786354065e+01 -3.216535585373640060e+01 4.756285342946654282e+00
8.343222227692604065e+01 -3.081122987717390060e+01 4.748945865407591782e+00
8.367611876130104065e+01 -2.995222108811140060e+01 4.811796817556029282e+00
8.842904844880104065e+01 -3.079829042404890060e+01 5.148131046071654282e+00
4.048080626130104065e+01 -1.546760194748640060e+01 2.301405582204466782e+00
8.639401426911354065e+01 -3.505280702561140060e+01 5.205153140798216782e+00
8.613510313630104065e+01 -3.392976015061140060e+01 5.235884341970091782e+00
8.372934141755104065e+01 -3.193012636154890060e+01 5.131285342946654282e+00
8.668246641755104065e+01 -3.115913026779890060e+01 5.417051944509154282e+00
3.989560118317604065e+01 -1.522187440842390060e+01 2.464384708181029282e+00
8.172067442536354065e+01 -3.304511659592390060e+01 5.318861636891966782e+00
8.260568419098854065e+01 -3.246369569748640060e+01 5.424391422048216782e+00
9.112912169098854065e+01 -3.397492616623640060e+01 6.106123599782591782e+00
8.659042540192604065e+01 -3.115803163498640060e+01 5.837797794118529282e+00
1.376339903473854065e+01 -2.299266986548900604e+00 -4.767316248267832179e-01
1.382309141755104065e+01 -2.171459369361400604e+00 -4.662030603736582179e-01
1.387521544098854065e+01 -2.040722064673900604e+00 -4.558270838111582179e-01
1.390597715973854065e+01 -1.902172259986400604e+00 -4.449933435767832179e-01
1.393454161286354065e+01 -1.763744525611400604e+00 -4.341901209205332179e-01
1.396298399567604065e+01 -1.625560931861400604e+00 -4.233868982642832179e-01
1.399154844880104065e+01 -1.487255267798900604e+00 -4.125836756080332179e-01
1.401181212067604065e+01 -1.347484759986400604e+00 -4.020551111549082179e-01
1.537106505036354065e+01 -2.884594134986400604e+00 -4.389356043189707179e-01
1.543063536286354065e+01 -2.738720111548900604e+00 -4.273084070533457179e-01
1.549984923005104065e+01 -2.595897845923900604e+00 -4.154218103736582179e-01
1.557589903473854065e+01 -2.454174213111400604e+00 -4.039319422095957179e-01
1.564987364411354065e+01 -2.311718158423900604e+00 -3.924268152564707179e-01
1.572421446442604065e+01 -2.168895892798900604e+00 -3.808759119361582179e-01
1.578878965973854065e+01 -2.022045306861400604e+00 -3.695081140845957179e-01
1.589572325348854065e+01 -1.887523822486400604e+00 -3.582471277564707179e-01
1.821908751130104065e+01 -3.919262103736400604e+00 -4.003003504127207179e-01
1.831149473786354065e+01 -3.752880267798900604e+00 -3.866132166236582179e-01
1.840426817536354065e+01 -3.586010150611400604e+00 -3.728803064674082179e-01
1.849777403473854065e+01 -3.417797259986400604e+00 -3.590558435767832179e-01
1.859127989411354065e+01 -3.249584369361400604e+00 -3.452161218970957179e-01
1.868527403473854065e+01 -3.080761127173900604e+00 -3.313306238502207179e-01
1.881112852692604065e+01 -2.919872455298900604e+00 -3.175519373267832179e-01
1.895065489411354065e+01 -2.762035541236400604e+00 -3.038037683814707179e-01
2.220663633942604065e+01 -5.368114642798900604e+00 -3.425000574439707179e-01
2.240609923005104065e+01 -5.194774799048900604e+00 -3.255170252174082179e-01
2.259115782380104065e+01 -5.013622455298900604e+00 -3.088239099830332179e-01
2.277890196442604065e+01 -4.830028705298900604e+00 -2.918866541236582179e-01
2.296811094880104065e+01 -4.645092181861400604e+00 -2.748425867408457179e-01
2.315915098786354065e+01 -4.458324603736400604e+00 -2.576154138892832179e-01
2.335299864411354065e+01 -4.268871478736400604e+00 -2.401441004127207179e-01
2.350802794098854065e+01 -4.066478900611400604e+00 -2.230695154517832179e-01
3.077377501130104065e+01 -8.477855853736400604e+00 -2.556165125220957179e-01
3.110153380036354065e+01 -8.253734759986400604e+00 -2.319348718970957179e-01
3.144149962067604065e+01 -8.028515033423900604e+00 -2.079022791236582179e-01
3.251144590973854065e+01 -8.036815814673900604e+00 -1.833203699439707179e-01
3.361947813630104065e+01 -8.037059955298900604e+00 -1.572736170142832179e-01
3.424264708161354065e+01 -7.866649799048900604e+00 -1.304791834205332179e-01
9.314462462067604065e+01 -2.492780702561140060e+01 4.019037224352928206e-02
6.111984434723854065e+01 -1.813373964279890060e+01 6.667963005602928206e-02
5.731686583161354065e+01 -1.621015565842390060e+01 9.474054314196678206e-02
5.741122618317604065e+01 -1.561616151779890060e+01 1.388384435325917821e-01
5.773800840973854065e+01 -1.509540956467390060e+01 1.843096349388417821e-01
7.090976133942604065e+01 -1.837495058029890060e+01 3.231798741966542821e-01
7.172848692536354065e+01 -1.785004823654890060e+01 3.808580968529042821e-01
5.750338926911354065e+01 -1.629328554123640060e+01 3.702684972435292821e-01
5.756930723786354065e+01 -1.568793886154890060e+01 4.137865636497792821e-01
5.794980040192604065e+01 -1.518195741623640060e+01 4.606768224388417821e-01
7.033529844880104065e+01 -1.747809999436140060e+01 7.036425206810292821e-01
5.788607969880104065e+01 -1.644123475998640060e+01 6.520372960716542821e-01
5.813070860505104065e+01 -1.588862245529890060e+01 6.980272863060292821e-01
5.858505430817604065e+01 -1.539912050217390060e+01 7.474657628685292821e-01
7.140133848786354065e+01 -1.780878847092390060e+01 1.054579410329466782e+00
5.953109923005104065e+01 -1.700629823654890060e+01 9.606920812279042821e-01
5.945089903473854065e+01 -1.568769472092390060e+01 1.043821964040404282e+00
7.147152891755104065e+01 -1.785505311936140060e+01 1.395430240407591782e+00
5.919345274567604065e+01 -1.691718690842390060e+01 1.237242374196654282e+00
6.017160215973854065e+01 -1.658430116623640060e+01 1.303038272634154282e+00
7.275302305817604065e+01 -1.824885194748640060e+01 1.768065128102904282e+00
7.207431212067604065e+01 -1.813312929123640060e+01 2.776808414235716782e+00
1.401230040192604065e+01 -1.347118549048900604e+00 -4.020398523658457179e-01
1.403866758942604065e+01 -1.209301166236400604e+00 -3.913587000220957179e-01
1.405685606598854065e+01 -1.069530658423900604e+00 -3.809369470924082179e-01
1.409237852692604065e+01 -9.339105412364006042e-01 -3.707288172095957179e-01
1.413473692536354065e+01 -8.003656193614006042e-01 -3.606427576392832179e-01
1.417709532380104065e+01 -6.666986271739006042e-01 -3.505261804908457179e-01
1.421969786286354065e+01 -5.324212834239006042e-01 -3.403790857642832179e-01
1.425424376130104065e+01 -3.966790959239006042e-01 -3.305219080299082179e-01
1.589682188630104065e+01 -1.887279681861400604e+00 -3.582166101783457179e-01
1.599167051911354065e+01 -1.747997455298900604e+00 -3.471539881080332179e-01
1.609909239411354065e+01 -1.610912494361400604e+00 -3.357404138892832179e-01
1.619589415192604065e+01 -1.468944720923900604e+00 -3.244794275611582179e-01
1.629306212067604065e+01 -1.326488666236400604e+00 -3.131574060767832179e-01
1.639096251130104065e+01 -1.183056049048900604e+00 -3.017590906470957179e-01
1.647458067536354065e+01 -1.034496478736400604e+00 -2.905438806861582179e-01
1.672885313630104065e+01 -9.215814396739006042e-01 -2.798779871314707179e-01
1.895236387848854065e+01 -2.761791400611400604e+00 -3.037732508033457179e-01
1.907724180817604065e+01 -2.598095111548900604e+00 -2.902539636939707179e-01
1.920309630036354065e+01 -2.432933978736400604e+00 -2.766431238502207179e-01
1.933041563630104065e+01 -2.265697650611400604e+00 -2.628491785377207179e-01
1.945846739411354065e+01 -2.097728900611400604e+00 -2.489941980689707179e-01
1.967636290192604065e+01 -1.948803119361400604e+00 -2.352460291236582179e-01
1.995883360505104065e+01 -1.809765033423900604e+00 -2.212842371314707179e-01
2.024740782380104065e+01 -1.667919330298900604e+00 -2.070477869361582179e-01
2.350924864411354065e+01 -4.065990619361400604e+00 -2.230084802955332179e-01
2.378512755036354065e+01 -3.894970111548900604e+00 -2.052167322486582179e-01
2.404525938630104065e+01 -3.715038470923900604e+00 -1.876691248267832179e-01
2.431088438630104065e+01 -3.531322650611400604e+00 -1.697553064674082179e-01
2.458017149567604065e+01 -3.345043353736400604e+00 -1.515973474830332179e-01
2.620895567536354065e+01 -3.469310931861400604e+00 -1.301129724830332179e-01
2.682724180817604065e+01 -3.336254291236400604e+00 -1.092236902564707179e-01
6.598239317536354065e+01 -1.131879823654890060e+01 5.297723747790428206e-02
6.833688536286354065e+01 -1.612800233811140060e+01 8.202997185290428206e-02
6.396872130036354065e+01 -1.425312440842390060e+01 1.117235753685292821e-01
6.935885801911354065e+01 -1.494208925217390060e+01 1.880327794700917821e-01
6.586606016755104065e+01 -1.268183534592390060e+01 2.646624181419667821e-01
6.650998106598854065e+01 -1.213911073654890060e+01 3.172289464622792821e-01
6.619247618317604065e+01 -1.138569276779890060e+01 3.622881505638417821e-01
7.354782286286354065e+01 -1.758454530686140060e+01 4.509264562279042821e-01
7.108261290192604065e+01 -1.615485780686140060e+01 4.808794591575917821e-01
5.954330626130104065e+01 -1.247871034592390060e+01 4.147173497825917821e-01
5.658346739411354065e+01 -1.113642518967390060e+01 4.250780675560292821e-01
5.360714903473854065e+01 -9.855419330298900604e+00 4.307848546654042821e-01
5.120492735505104065e+01 -8.765209369361400604e+00 4.392382238060292821e-01
4.911862364411354065e+01 -7.796215228736400604e+00 4.468828771263417821e-01
7.033273497223854065e+01 -1.747480409592390060e+01 7.037951085716542821e-01
7.356894102692604065e+01 -1.761689393967390060e+01 7.977434728294667821e-01
7.333542051911354065e+01 -1.677595155686140060e+01 8.468615148216542821e-01
7.015866270661354065e+01 -1.519416444748640060e+01 8.517138097435292821e-01
6.663412657380104065e+01 -1.360126893967390060e+01 8.461748693138417821e-01
7.488376036286354065e+01 -1.482673280686140060e+01 1.027571353688841782e+00
6.530282774567604065e+01 -1.191669862717390060e+01 9.169756505638417821e-01
4.904623594880104065e+01 -7.797680072486400604e+00 6.742083165794667821e-01
7.139962950348854065e+01 -1.780573671311140060e+01 1.054716739431029282e+00
7.364621153473854065e+01 -1.766462343186140060e+01 1.145933780446654282e+00
7.090158262848854065e+01 -1.540803163498640060e+01 1.197065982595091782e+00
6.734713926911354065e+01 -1.379853456467390060e+01 1.173964175954466782e+00
7.362008848786354065e+01 -1.455842225998640060e+01 1.352461490407591782e+00
6.522287169098854065e+01 -1.192133729904890060e+01 1.219114932790404282e+00
6.476803770661354065e+01 -1.115119569748640060e+01 1.253523502126341782e+00
7.147287169098854065e+01 -1.785285585373640060e+01 1.395628604665404282e+00
7.027206602692604065e+01 -1.676057069748640060e+01 1.417555484548216782e+00
7.310727110505104065e+01 -1.676801698654890060e+01 1.533140811696654282e+00
7.063632383942604065e+01 -1.536567323654890060e+01 1.523268375173216782e+00
7.029232969880104065e+01 -1.454072206467390060e+01 1.562880191579466782e+00
6.748471251130104065e+01 -1.315143983811140060e+01 1.538359317556029282e+00
6.698959532380104065e+01 -1.233784120529890060e+01 1.571058902516966782e+00
6.756625548005104065e+01 -1.176826112717390060e+01 1.631727847829466782e+00
7.257260313630104065e+01 -1.819440858811140060e+01 1.763350162282591782e+00
6.970187559723854065e+01 -1.662849061936140060e+01 1.733198795095091782e+00
7.315927305817604065e+01 -1.680805604904890060e+01 1.878691348806029282e+00
7.017306700348854065e+01 -1.527253358811140060e+01 1.841353091970091782e+00
7.310690489411354065e+01 -1.525312440842390060e+01 1.975798282399779282e+00
6.725058165192604065e+01 -1.312018983811140060e+01 1.846373233571654282e+00
6.568600645661354065e+01 -1.206977479904890060e+01 1.842543277516966782e+00
6.588620176911354065e+01 -1.143366640061140060e+01 1.892347965016966782e+00
6.995981016755104065e+01 -1.672504823654890060e+01 2.072233829274779282e+00
7.341305723786354065e+01 -1.690180604904890060e+01 2.233427676931029282e+00
7.018210020661354065e+01 -1.529987733811140060e+01 2.172941837087279282e+00
7.228903380036354065e+01 -1.507880800217390060e+01 2.291960391774779282e+00
6.766256895661354065e+01 -1.253474061936140060e+01 2.221083316579466782e+00
7.297104063630104065e+01 -1.758430116623640060e+01 2.514692935720091782e+00
7.129550352692604065e+01 -1.636420839279890060e+01 2.498976382985716782e+00
7.217624083161354065e+01 -1.583442323654890060e+01 2.579573306813841782e+00
6.730294981598854065e+01 -1.317939393967390060e+01 2.478651675954466782e+00
6.674911680817604065e+01 -1.235334413498640060e+01 2.499556216970091782e+00
7.207541075348854065e+01 -1.813080995529890060e+01 2.777006778493529282e+00
7.072335997223854065e+01 -1.698749940842390060e+01 2.766783389821654282e+00
7.150070372223854065e+01 -1.568720643967390060e+01 2.889601382985716782e+00
7.255832090973854065e+01 -1.519562929123640060e+01 2.981642398610716782e+00
6.657419005036354065e+01 -1.233735292404890060e+01 2.804655704274779282e+00
7.269137755036354065e+01 -1.755952089279890060e+01 3.193068179860716782e+00
7.177743712067604065e+01 -1.654414003342390060e+01 3.195662174001341782e+00
7.203097715973854065e+01 -1.584858339279890060e+01 3.253142032399779282e+00
7.268637266755104065e+01 -1.525275819748640060e+01 3.330122623220091782e+00
7.273214903473854065e+01 -1.759711854904890060e+01 3.538893375173216782e+00
7.254355040192604065e+01 -1.677460878342390060e+01 3.574171695485716782e+00
7.201242247223854065e+01 -1.586945741623640060e+01 3.591063174977904282e+00
4.989315977692604065e+01 -8.130565814673900604e+00 2.777968082204466782e+00
4.982345762848854065e+01 -8.149730853736400604e+00 3.238569888845091782e+00
5.381344786286354065e+01 -1.014704530686140060e+01 3.705671939626341782e+00
5.362216368317604065e+01 -9.542308978736400604e+00 3.723265323415404282e+00
5.139328184723854065e+01 -8.506054095923900604e+00 3.588072452321654282e+00
5.352279844880104065e+01 -1.009699647873640060e+01 3.936430606618529282e+00
5.366623106598854065e+01 -9.570873431861400604e+00 3.977202090993529282e+00
5.131918516755104065e+01 -8.507641009986400604e+00 3.822920474782591782e+00
1.425436583161354065e+01 -3.963128849864006042e-01 -3.304761316627207179e-01
1.429501524567604065e+01 -2.616693302989006042e-01 -3.204053308814707179e-01
1.432773008942604065e+01 -1.251947209239006042e-01 -3.105786707252207179e-01
1.441134825348854065e+01 2.857036888599395752e-03 -3.011182215064707179e-01
1.477939024567604065e+01 8.366758376359939575e-02 -2.937177088111582179e-01
1.527572813630104065e+01 1.510503962635993958e-01 -2.866681482642832179e-01
1.561569395661354065e+01 2.518804743885993958e-01 -2.779858972877207179e-01
1.603183165192604065e+01 3.479498103260993958e-01 -2.696698572486582179e-01
1.672995176911354065e+01 -9.212152287364006042e-01 -2.798474695533457179e-01
1.698324766755104065e+01 -8.035394474864006042e-01 -2.692883875220957179e-01
1.725387755036354065e+01 -6.843988224864006042e-01 -2.580579187720957179e-01
1.752975645661354065e+01 -5.607415959239006042e-01 -2.468732263892832179e-01
1.787155333161354065e+01 -4.436761662364006042e-01 -2.355664636939707179e-01
1.836044493317604065e+01 -3.435785099864006042e-01 -2.241071131080332179e-01
1.887118712067604065e+01 -2.367669865489006042e-01 -2.124341394752207179e-01
1.869088926911354065e+01 -2.521913498640060425e-02 -1.992200281470957179e-01
2.024899473786354065e+01 -1.667553119361400604e+00 -2.070020105689707179e-01
2.054037657380104065e+01 -1.521068744361400604e+00 -1.928723718970957179e-01
2.111471739411354065e+01 -1.423046283423900604e+00 -1.782697107642832179e-01
2.237350645661354065e+01 -1.436107806861400604e+00 -1.620496179908457179e-01
2.353708067536354065e+01 -1.408641986548900604e+00 -1.443189051002207179e-01
2.109787169098854065e+01 -7.849847599864006042e-01 -1.342328455299082179e-01
1.856833067536354065e+01 -1.423280686140060425e-02 -1.151746179908457179e-01
6.597799864411354065e+01 -1.131550233811140060e+01 5.312982536852928206e-02
4.520358458161354065e+01 -6.011303119361400604e+00 4.142633415759178206e-02
4.963510313630104065e+01 -6.347118549048900604e+00 9.882989861071678206e-02
2.127743712067604065e+01 -1.033031634986400604e+00 -5.146917365490821794e-02
2.100265684723854065e+01 -7.766839787364006042e-01 -3.886541388928321794e-02
1.851461973786354065e+01 -1.252382248640060425e-02 -3.207525275647071794e-02
6.619186583161354065e+01 -1.138325136154890060e+01 3.624407384544667821e-01
4.522580137848854065e+01 -6.030590228736400604e+00 2.498461339622792821e-01
2.130526915192604065e+01 -1.044628314673900604e+00 4.542413689196678206e-02
2.030954161286354065e+01 -6.726800724864006042e-01 4.806390739977928206e-02
1.929257383942604065e+01 -3.179437443614006042e-01 4.905572868884178206e-02
1.849569883942604065e+01 -1.581972092390060425e-02 5.146661736071678206e-02
4.910458555817604065e+01 -7.791454486548900604e+00 4.468065831810292821e-01
5.345334044098854065e+01 -7.616161517798900604e+00 5.781694982200917821e-01
2.135373106598854065e+01 -1.059887103736400604e+00 1.434618566185292821e-01
2.030282774567604065e+01 -6.781732365489006042e-01 1.404253575950917821e-01
1.929220762848854065e+01 -3.240472599864006042e-01 1.366259191185292821e-01
1.849911680817604065e+01 -2.204530686140060425e-02 1.348253820091542821e-01
4.903000059723854065e+01 -7.792553119361400604e+00 6.740252111107167821e-01
4.697567930817604065e+01 -6.875560931861400604e+00 6.695086095482167821e-01
4.516244688630104065e+01 -6.048778705298900604e+00 6.666552159935292821e-01
4.351156798005104065e+01 -5.288891009986400604e+00 6.645495031029042821e-01
2.134762755036354065e+01 -1.065746478736400604e+00 2.403551671654042821e-01
2.025265684723854065e+01 -6.767083927989006042e-01 2.313524816185292821e-01
1.928805723786354065e+01 -3.295404240489006042e-01 2.236925695091542821e-01
1.844943419098854065e+01 -2.094667404890060425e-02 2.174975011497792821e-01
6.476828184723854065e+01 -1.114899843186140060e+01 1.253660831227904282e+00
5.344223204255104065e+01 -7.649852924048900604e+00 1.072950992360716782e+00
2.151901426911354065e+01 -1.102001361548900604e+00 3.422228429466542821e-01
2.024276915192604065e+01 -6.815912052989006042e-01 3.233782384544667821e-01
1.932834044098854065e+01 -3.417474552989006042e-01 3.119341466575917821e-01
1.846432676911354065e+01 -2.888124436140060425e-02 3.010546300560292821e-01
6.757089415192604065e+01 -1.176691835373640060e+01 1.632002506032591782e+00
5.341806212067604065e+01 -7.663158588111400604e+00 1.319227847829466782e+00
2.145419493317604065e+01 -1.097850970923900604e+00 4.381548497825917821e-01
2.030209532380104065e+01 -6.977044865489006042e-01 4.169756505638417821e-01
1.937851133942604065e+01 -3.555414006114006042e-01 4.013659093529042821e-01
1.850851622223854065e+01 -4.096620529890060425e-02 3.861681554466542821e-01
6.588693419098854065e+01 -1.143146913498640060e+01 1.892515811696654282e+00
5.347348204255104065e+01 -7.691723041236400604e+00 1.568037662282591782e+00
4.958371153473854065e+01 -5.932811908423900604e+00 1.503813419118529282e+00
2.037191954255104065e+01 -7.155267521739006042e-01 5.115191075950917821e-01
1.944369688630104065e+01 -3.715326115489006042e-01 4.913622472435292821e-01
1.858908262848854065e+01 -5.817811936140060425e-02 4.725939366966542821e-01
5.371261778473854065e+01 -7.755687884986400604e+00 1.825728091970091782e+00
4.953085508942604065e+01 -5.940136127173900604e+00 1.731382999196654282e+00
2.053048887848854065e+01 -7.477533146739006042e-01 6.107927892357167821e-01
1.956454649567604065e+01 -3.960687443614006042e-01 5.847307775169667821e-01
1.875412169098854065e+01 -8.747499436140060425e-02 5.637194249779042821e-01
4.952267637848854065e+01 -5.955028705298900604e+00 1.959303531423216782e+00
2.085202208161354065e+01 -8.064691349864006042e-01 7.183062169700917821e-01
1.983346739411354065e+01 -4.431878849864006042e-01 6.854387853294667821e-01
1.926681700348854065e+01 -1.659662052989006042e-01 6.718432042747792821e-01
5.414328184723854065e+01 -7.320141009986400604e+00 2.377348575368529282e+00
4.947958555817604065e+01 -5.963939838111400604e+00 2.185545596852904282e+00
2.121969786286354065e+01 -8.728753849864006042e-01 8.311144445091542821e-01
1.939633360505104065e+01 -3.830072209239006042e-01 7.541185948997792821e-01
1.940133848786354065e+01 -1.912347599864006042e-01 7.661882970482167821e-01
4.611728087067604065e+01 -5.398754291236400604e+00 2.236555728688841782e+00
4.775924864411354065e+01 -5.198681049048900604e+00 2.353056583181029282e+00
2.026205626130104065e+01 -5.213128849864006042e-01 8.890368077904042821e-01
1.951376524567604065e+01 -2.134515568614006042e-01 8.601519200950917821e-01
4.603390684723854065e+01 -5.867626361548900604e+00 2.416395816579466782e+00
4.607577696442604065e+01 -5.406810931861400604e+00 2.446837100759154282e+00
4.783700743317604065e+01 -5.227001361548900604e+00 2.577543887868529282e+00
5.474435606598854065e+01 -5.797802142798900604e+00 3.013762149587279282e+00
1.966806212067604065e+01 -2.416497990489006042e-01 9.581591222435292821e-01
4.988961973786354065e+01 -8.128002338111400604e+00 2.777846011891966782e+00
4.813144102692604065e+01 -6.761913470923900604e+00 2.730787906423216782e+00
5.304965391755104065e+01 -7.173290424048900604e+00 3.063872012868529282e+00
5.047043028473854065e+01 -6.185131244361400604e+00 2.934813174977904282e+00
4.799081602692604065e+01 -5.267894916236400604e+00 2.808821353688841782e+00
4.430063048005104065e+01 -4.216137103736400604e+00 2.602797183766966782e+00
1.985006895661354065e+01 -2.738763615489006042e-01 1.058943424001341782e+00
4.987521544098854065e+01 -7.628734759986400604e+00 3.038847598806029282e+00
4.566928282380104065e+01 -6.299022845923900604e+00 2.791624698415404282e+00
5.292990294098854065e+01 -7.168895892798900604e+00 3.301497134938841782e+00
5.057785215973854065e+01 -6.220409564673900604e+00 3.175169620290404282e+00
4.984860411286354065e+01 -5.587841205298900604e+00 3.155745181813841782e+00
4.443869200348854065e+01 -4.251659564673900604e+00 2.815931949391966782e+00
4.405099669098854065e+01 -3.748851947486400604e+00 2.816374454274779282e+00
4.982284727692604065e+01 -8.147777728736400604e+00 3.238630924001341782e+00
4.985348692536354065e+01 -7.641308002173900604e+00 3.270247134938841782e+00
4.530807676911354065e+01 -6.243969134986400604e+00 2.978865299001341782e+00
4.520773497223854065e+01 -5.761303119361400604e+00 2.998396549001341782e+00
4.591159239411354065e+01 -5.423900775611400604e+00 3.075346622243529282e+00
4.913815489411354065e+01 -5.487621478736400604e+00 3.335539493337279282e+00
4.458432188630104065e+01 -4.288524799048900604e+00 3.032072696462279282e+00
4.385055723786354065e+01 -3.734203509986400604e+00 3.003920230641966782e+00
5.139547911286354065e+01 -8.504589252173900604e+00 3.588331851735716782e+00
4.984079161286354065e+01 -7.655712299048900604e+00 3.502211246266966782e+00
4.539230528473854065e+01 -6.275707416236400604e+00 3.195189151540404282e+00
4.544442930817604065e+01 -5.820018939673900604e+00 3.225508365407591782e+00
4.807199278473854065e+01 -5.816356830298900604e+00 3.452543887868529282e+00
4.579660215973854065e+01 -4.954418353736400604e+00 3.304991397634154282e+00
4.442965880036354065e+01 -4.279247455298900604e+00 3.226362857595091782e+00
4.400204649567604065e+01 -3.770214252173900604e+00 3.218290958181029282e+00
5.132199278473854065e+01 -8.506420306861400604e+00 3.823240909352904282e+00
4.708346739411354065e+01 -7.104686908423900604e+00 3.515043887868529282e+00
4.706210508942604065e+01 -6.617626361548900604e+00 3.540312442556029282e+00
4.773349180817604065e+01 -6.259349994361400604e+00 3.621367130056029282e+00
4.589047423005104065e+01 -5.450634174048900604e+00 3.499052676931029282e+00
4.577328673005104065e+01 -4.965648822486400604e+00 3.515501651540404282e+00
4.452231016755104065e+01 -4.307933978736400604e+00 3.438566837087279282e+00
4.389303770661354065e+01 -3.768749408423900604e+00 3.412581119313841782e+00
1.603537169098854065e+01 3.480718806385993958e-01 -2.696393396705332179e-01
1.643893614411354065e+01 4.537847712635993958e-01 -2.604230310767832179e-01
1.699093809723854065e+01 5.498541072010993958e-01 -2.516187097877207179e-01
1.757357969880104065e+01 6.539800837635993958e-01 -2.421430017799082179e-01
1.803317442536354065e+01 7.809332087635993958e-01 -2.316296961158457179e-01
1.851706114411354065e+01 9.146002009510993958e-01 -2.205670740455332179e-01
1.905587950348854065e+01 1.053882427513599396e+00 -2.088788416236582179e-01
1.928988829255104065e+01 1.223682232201099396e+00 -1.968549158424082179e-01
1.869101133942604065e+01 -2.460878342390060425e-02 -1.991742517799082179e-01
2.025277891755104065e+01 -4.072206467390060425e-02 -1.867078211158457179e-01
2.174899473786354065e+01 -1.801698654890060425e-02 -1.716626551002207179e-01
2.323373594880104065e+01 3.642637282609939575e-02 -1.550763513892832179e-01
2.155539122223854065e+01 4.297369197010993958e-01 -1.431439783424082179e-01
2.949337950348854065e+01 -5.805604904890060425e-02 -1.069501306861582179e-01
1.927060118317604065e+01 1.219165630638599396e+00 -1.102612879127207179e-01
1.856869688630104065e+01 -1.362245529890060425e-02 -1.151288416236582179e-01
2.147250548005104065e+01 4.313238337635993958e-01 -4.679998420178321794e-02
3.173166075348854065e+01 -2.649652287364006042e-01 4.270807243884178206e-02
1.847885313630104065e+01 1.267627544701099396e+00 -3.053411506115821794e-02
1.851486387848854065e+01 -1.191347092390060425e-02 -3.202947638928321794e-02
1.823947325348854065e+01 2.061041072010993958e-01 -2.200445197522071794e-02
1.820199766755104065e+01 3.900640681385993958e-01 -1.045354865490821794e-02
1.820065489411354065e+01 5.695074275135993958e-01 1.463565602904282059e-03
1.821969786286354065e+01 7.458990290760993958e-01 1.353326775134178206e-02
1.827267637848854065e+01 9.193609431385993958e-01 2.601495720446678206e-02
1.835373106598854065e+01 1.091968365013599396e+00 3.893915154040428206e-02
1.849667540192604065e+01 1.260913677513599396e+00 5.227533318102928206e-02
1.849472227692604065e+01 -1.496522873640060425e-02 5.149713493884178206e-02
1.827597227692604065e+01 1.957281306385993958e-01 6.049982048571678206e-02
1.824838438630104065e+01 3.788335993885993958e-01 7.197442986071678206e-02
1.822250548005104065e+01 5.614507868885993958e-01 8.344903923571678206e-02
1.822690001130104065e+01 7.396734431385993958e-01 9.530511833727928206e-02
1.827816954255104065e+01 9.133794978260993958e-01 1.079241368919667821e-01
1.834115782380104065e+01 1.087329693138599396e+00 1.208330724388417821e-01
1.865976133942604065e+01 1.244067974388599396e+00 1.383196447044667821e-01
1.849826231598854065e+01 -2.131288498640060425e-02 1.348406407982167821e-01
1.826901426911354065e+01 1.908453181385993958e-01 1.430040929466542821e-01
1.825668516755104065e+01 3.721197322010993958e-01 1.545549962669667821e-01
1.820492735505104065e+01 5.577886775135993958e-01 1.653277013450917821e-01
1.820273008942604065e+01 7.364996150135993958e-01 1.769701573997792821e-01
1.825009337067604065e+01 9.103277400135993958e-01 1.896502111107167821e-01
1.831906309723854065e+01 1.083545513451099396e+00 2.028795812279042821e-01
1.843771544098854065e+01 1.253955669701099396e+00 2.167955968529042821e-01
1.844699278473854065e+01 -1.997011154890060425e-02 2.174822423607167821e-01
1.824398985505104065e+01 1.884039118885993958e-01 2.246233556419667821e-01
1.819821348786354065e+01 3.734625056385993958e-01 2.352282140404042821e-01
1.818808165192604065e+01 5.540044978260993958e-01 2.466570470482167821e-01
1.819699278473854065e+01 7.314947322010993958e-01 2.584826085716542821e-01
1.824594298005104065e+01 9.050787165760993958e-01 2.713305089622792821e-01
1.831625548005104065e+01 1.078296490013599396e+00 2.848345372825917821e-01
1.847775450348854065e+01 1.245532818138599396e+00 3.008104894310292821e-01
1.846188536286354065e+01 -2.790468186140060425e-02 3.010241124779042821e-01
1.828708067536354065e+01 1.770513728260993958e-01 3.079516027122792821e-01
1.824826231598854065e+01 3.618658259510993958e-01 3.189226720482167821e-01
1.824106016755104065e+01 5.425298884510993958e-01 3.303362462669667821e-01
1.822848692536354065e+01 7.227056697010993958e-01 3.415209386497792821e-01
1.828805723786354065e+01 8.958013728260993958e-01 3.548571202904042821e-01
1.835263243317604065e+01 1.069873638451099396e+00 3.680101964622792821e-01
1.852865782380104065e+01 1.236499615013599396e+00 3.851305577904042821e-01
1.850656309723854065e+01 -4.011171311140060425e-02 3.861376378685292821e-01
1.831247130036354065e+01 1.680181697010993958e-01 3.915697667747792821e-01
1.832406798005104065e+01 3.469732478260993958e-01 4.035326573997792821e-01
1.827365294098854065e+01 5.333746150135993958e-01 4.134203527122792821e-01
1.827597227692604065e+01 7.124517634510993958e-01 4.250017736107167821e-01
1.834127989411354065e+01 8.854253962635993958e-01 4.387652013450917821e-01
1.843820372223854065e+01 1.057422466576099396e+00 4.537493322044667821e-01
1.860202208161354065e+01 1.225757427513599396e+00 4.712206456810292821e-01
1.858615294098854065e+01 -5.707948654890060425e-02 4.725329015404042821e-01
1.835678282380104065e+01 1.564214900135993958e-01 4.757219884544667821e-01
1.833041563630104065e+01 3.405035212635993958e-01 4.862505529075917821e-01
1.840085020661354065e+01 5.135992243885993958e-01 5.004564855247792821e-01
1.847152891755104065e+01 6.870611384510993958e-01 5.147081945091542821e-01
1.858651915192604065e+01 8.575933650135993958e-01 5.307756993919667821e-01
1.873459044098854065e+01 1.028003521263599396e+00 5.483538243919667821e-01
1.890561094880104065e+01 1.198779888451099396e+00 5.669695470482167821e-01
1.875070372223854065e+01 -8.625429123640060425e-02 5.636278722435292821e-01
1.852243223786354065e+01 1.289556697010993958e-01 5.658251378685292821e-01
1.865585508942604065e+01 2.954595759510993958e-01 5.830065343529042821e-01
1.877926817536354065e+01 4.658697322010993958e-01 5.999437902122792821e-01
1.896237364411354065e+01 6.318853572010993958e-01 6.195818517357167821e-01
1.920358458161354065e+01 7.958257868885993958e-01 6.419817540794667821e-01
1.957199278473854065e+01 9.546392634510993958e-01 6.704241368919667821e-01
1.978122130036354065e+01 1.131152935326099396e+00 6.920305822044667821e-01
1.926657286286354065e+01 -1.653558537364006042e-01 6.718584630638417821e-01
1.921286192536354065e+01 3.227598220109939575e-02 6.813341710716542821e-01
1.928524962067604065e+01 2.131841853260993958e-01 6.966234777122792821e-01
1.932065001130104065e+01 3.998296931385993958e-01 7.102648351341542821e-01
2.061618223786354065e+01 4.586675837635993958e-01 7.845903966575917821e-01
1.940634337067604065e+01 -1.912347599864006042e-01 7.664782140404042821e-01
1.966232481598854065e+01 -3.303163498640060425e-02 7.914721105247792821e-01
2.062143126130104065e+01 4.517095759510993958e-01 8.778673741966542821e-01
1.951278868317604065e+01 -2.125970646739006042e-01 8.601366613060292821e-01
4.646127501130104065e+01 -3.581493549048900604e+00 2.369169864431029282e+00
4.653170958161354065e+01 -3.124950580298900604e+00 2.401854190602904282e+00
2.147836485505104065e+01 3.580816462635993958e-01 1.020628604665404282e+00
2.008481016755104065e+01 8.949468806385993958e-01 9.649950597435292821e-01
1.966696348786354065e+01 -2.407953068614006042e-01 9.581286046654042821e-01
4.643698301911354065e+01 -3.593090228736400604e+00 2.580671939626341782e+00
4.599740782380104065e+01 -3.074291400611400604e+00 2.582457217946654282e+00
1.995944395661354065e+01 3.102300837635993958e-01 1.011412296071654282e+00
2.128244200348854065e+01 3.715093806385993958e-01 1.105528507009154282e+00
2.068380919098854065e+01 6.360357478260993958e-01 1.080870303884154282e+00
3.763315001130104065e+01 -5.514642521739006042e-01 2.165785465016966782e+00
1.984616270661354065e+01 -2.726556584239006042e-01 1.058729800954466782e+00
1.988815489411354065e+01 -8.161561936140060425e-02 1.073408756032591782e+00
1.992721739411354065e+01 1.102789118885993958e-01 1.087935123220091782e+00
1.998568907380104065e+01 3.010748103260993958e-01 1.103804263845091782e+00
2.009543028473854065e+01 4.866216853260993958e-01 1.123091373220091782e+00
3.772458067536354065e+01 -5.706292912364006042e-01 2.344237003102904282e+00
4.405099669098854065e+01 -3.747265033423900604e+00 2.816466007009154282e+00
4.446432676911354065e+01 -3.360180072486400604e+00 2.870772037282591782e+00
4.601291075348854065e+01 -3.105297259986400604e+00 3.006178531423216782e+00
4.594662657380104065e+01 -2.636181049048900604e+00 3.029356632009154282e+00
4.615048399567604065e+01 -2.198681049048900604e+00 3.071547183766966782e+00
3.753354063630104065e+01 -9.397699162364006042e-01 2.479689273610716782e+00
3.763449278473854065e+01 -5.746576115489006042e-01 2.509535465016966782e+00
4.384762755036354065e+01 -3.732250384986400604e+00 3.003798160329466782e+00
4.425827208161354065e+01 -3.346874408423900604e+00 3.060591373220091782e+00
4.658688536286354065e+01 -3.190746478736400604e+00 3.261168155446654282e+00
4.627621641755104065e+01 -2.688060931861400604e+00 3.265761050954466782e+00
4.614499083161354065e+01 -2.212597064673900604e+00 3.283445987477904282e+00
4.712350645661354065e+01 -1.844066791236400604e+00 3.385862979665404282e+00
4.400180235505104065e+01 -3.768627338111400604e+00 3.218367252126341782e+00
4.431527891755104065e+01 -3.368724994361400604e+00 3.269301090016966782e+00
4.589755430817604065e+01 -3.120311908423900604e+00 3.420179996266966782e+00
4.583493223786354065e+01 -2.652416400611400604e+00 3.442534122243529282e+00
4.632138243317604065e+01 -2.245189838111400604e+00 3.508909854665404282e+00
4.724533262848854065e+01 -1.870067767798900604e+00 3.611311588063841782e+00
4.736471739411354065e+01 -1.408641986548900604e+00 3.650236758962279282e+00
3.884958067536354065e+01 -3.142816349864006042e-01 2.976652774587279282e+00
4.388083067536354065e+01 -3.765331439673900604e+00 3.411665591970091782e+00
4.399240294098854065e+01 -3.339550189673900604e+00 3.445860538259154282e+00
4.639389219880104065e+01 -3.196483783423900604e+00 3.673628482595091782e+00
4.574814024567604065e+01 -2.657055072486400604e+00 3.646437320485716782e+00
4.932516661286354065e+01 -2.571483783423900604e+00 3.978163394704466782e+00
3.698532286286354065e+01 -9.231683537364006042e-01 2.948271426931029282e+00
3.907357969880104065e+01 -7.296869084239006042e-01 3.150404605641966782e+00
3.751559630036354065e+01 -1.010814838111400604e+00 2.439695987477904282e+00
3.761691465973854065e+01 -6.394769474864006042e-01 2.470396671071654282e+00
3.775009337067604065e+01 -2.678949162364006042e-01 2.503523502126341782e+00
4.398483458161354065e+01 -3.444896869361400604e+00 2.988981876149779282e+00
4.613180723786354065e+01 -3.270336322486400604e+00 3.173048648610716782e+00
4.589462462067604065e+01 -2.772899799048900604e+00 3.184462222829466782e+00
4.619113340973854065e+01 -2.336864642798900604e+00 3.235182437673216782e+00
4.713205137848854065e+01 -1.960277728736400604e+00 3.334303531423216782e+00
3.767599669098854065e+01 -6.566888615489006042e-01 2.650877628102904282e+00
4.024337950348854065e+01 -4.728509709239006042e-01 2.869459781423216782e+00
3.879330626130104065e+01 3.093320876359939575e-02 2.783323917165404282e+00
4.398605528473854065e+01 -3.459667377173900604e+00 3.195692691579466782e+00
4.427353087067604065e+01 -3.047558002173900604e+00 3.245360049977904282e+00
4.583102598786354065e+01 -2.780346088111400604e+00 3.393461856618529282e+00
4.606796446442604065e+01 -2.338573627173900604e+00 3.440626773610716782e+00
4.722751036286354065e+01 -1.984691791236400604e+00 3.561155948415404282e+00
4.735409727692604065e+01 -1.517772845923900604e+00 3.600432071462279282e+00
3.995810118317604065e+01 -4.634515568614006042e-01 3.034575137868529282e+00
3.563327208161354065e+01 2.325933650135993958e-01 2.707838687673216782e+00
4.397409239411354065e+01 -3.472728900611400604e+00 3.401426944509154282e+00
4.632052794098854065e+01 -3.325023822486400604e+00 3.620344791188841782e+00
4.578341856598854065e+01 -2.789745502173900604e+00 3.604429874196654282e+00
4.938046446442604065e+01 -2.711864642798900604e+00 3.932722720876341782e+00
3.696786680817604065e+01 -9.934808537364006042e-01 2.920134219899779282e+00
4.725277891755104065e+01 -1.524120502173900604e+00 3.813231143727904282e+00
3.992465391755104065e+01 -4.735833927989006042e-01 3.217604312673216782e+00
3.547445860505104065e+01 2.321050837635993958e-01 2.860869083181029282e+00
3.574313536286354065e+01 1.718023493885993958e-01 2.733732852712279282e+00
3.542502012848854065e+01 5.601080134510993958e-01 2.730818424001341782e+00
3.608212462067604065e+01 4.810064509510993958e-01 2.436064395681029282e+00
3.857785215973854065e+01 7.239263728260993958e-01 2.640654239431029282e+00
3.816073790192604065e+01 1.155566997826099396e+00 2.638228091970091782e+00
4.968161192536354065e+01 -3.096874408423900604e+00 3.465513858571654282e+00
4.613986387848854065e+01 -2.183910541236400604e+00 3.243086490407591782e+00
3.753830137848854065e+01 -8.427240177989006042e-01 2.643263492360716782e+00
4.000180235505104065e+01 -6.563226506114006042e-01 2.852873477712279282e+00
3.607455626130104065e+01 4.685552790760993958e-01 2.613875064626341782e+00
3.862289610505104065e+01 7.074468806385993958e-01 2.834807071462279282e+00
3.853305235505104065e+01 1.123950786888599396e+00 2.855467471852904282e+00
4.584591856598854065e+01 -2.657421283423900604e+00 3.414427432790404282e+00
4.627316465973854065e+01 -2.215160541236400604e+00 3.478819522634154282e+00
4.721188536286354065e+01 -1.815868549048900604e+00 3.584837589040404282e+00
4.017025938630104065e+01 -6.858636662364006042e-01 3.063978824391966782e+00
3.597799864411354065e+01 7.524473220109939575e-02 2.759733829274779282e+00
3.538168516755104065e+01 5.034673884510993958e-01 2.737745914235716782e+00
3.541574278473854065e+01 8.831060603260993958e-01 2.765898380056029282e+00
3.563815489411354065e+01 1.252246685326099396e+00 2.810240421071654282e+00
1.283566465973854065e+01 6.356006450951099396e+00 1.881453189626341782e+00
1.572287169098854065e+01 6.822192974388599396e+00 2.178190860524779282e+00
1.735641661286354065e+01 7.258472271263599396e+00 2.359694156423216782e+00
9.968110948801040649e+00 7.010425396263599396e+00 1.674910220876341782e+00
1.010898008942604065e+01 7.289844341576099396e+00 1.709639224782591782e+00
8.950654894113540649e+00 7.442066021263599396e+00 1.617979678884154282e+00
8.976411730051040649e+00 7.323535747826099396e+00 1.716322574391966782e+00
8.888643175363540649e+00 7.585498638451099396e+00 1.729078922048216782e+00
9.236055284738540649e+00 7.893970318138599396e+00 1.785475406423216782e+00
1.074008360505104065e+01 8.345142193138599396e+00 1.960112247243529282e+00
1.189840880036354065e+01 9.271900005638599396e+00 2.221312198415404282e+00
1.054879942536354065e+01 8.262866802513599396e+00 1.926436099782591782e+00
9.804902940988540649e+00 7.274463482201099396e+00 1.921263370290404282e+00
8.898042589426040649e+00 7.495899029076099396e+00 1.853499088063841782e+00
8.735200792551040649e+00 7.770801372826099396e+00 1.860365543141966782e+00
9.924898058176040649e+00 8.187061138451099396e+00 2.005034122243529282e+00
1.222506895661354065e+01 8.755542583763599396e+00 2.265791568532591782e+00
1.181906309723854065e+01 9.030689068138599396e+00 2.249922427907591782e+00
1.188241758942604065e+01 9.363208599388599396e+00 2.282545718923216782e+00
1.365817442536354065e+01 9.518604107201099396e+00 2.079573306813841782e+00
6.662813097238540649e+00 9.515918560326099396e+00 1.512419376149779282e+00
3.737275987863540649e+00 9.323291607201099396e+00 1.260435733571654282e+00
6.766450792551040649e+00 9.523486919701099396e+00 1.656370792165404282e+00
3.986665636301040649e+00 9.357105083763599396e+00 1.406035098806029282e+00
3.478242784738540649e+00 9.534595318138599396e+00 1.376326236501341782e+00
9.820039659738540649e+00 8.371997661888599396e+00 1.977919254079466782e+00
9.737398058176040649e+00 8.684131450951099396e+00 1.994215640798216782e+00
1.189242735505104065e+01 9.275562115013599396e+00 2.235167178884154282e+00
6.225801378488540649e+00 9.721118755638599396e+00 1.758879337087279282e+00
3.975801378488540649e+00 9.614673443138599396e+00 1.548155460134154282e+00
3.733003526926040649e+00 9.420947857201099396e+00 1.329970035329466782e+00
3.097139269113540649e+00 9.581226177513599396e+00 1.290709171071654282e+00
2.837129503488540649e+00 9.798633404076099396e+00 1.286360416188841782e+00
1.189132872223854065e+01 9.356494732201099396e+00 2.161482486501341782e+00
6.577730089426040649e+00 9.585620708763599396e+00 1.716108951345091782e+00
3.864961534738540649e+00 9.434863872826099396e+00 1.467421207204466782e+00
3.134492784738540649e+00 9.580005474388599396e+00 1.415251407399779282e+00
3.160615831613540649e+00 9.851245708763599396e+00 1.439772281423216782e+00
2.042329698801040649e+00 1.004167539626359940e+01 9.743944738060292821e-01
1.396981993317604065e+01 9.714526958763599396e+00 1.979536685720091782e+00
6.527559190988540649e+00 9.689136333763599396e+00 1.409163150563841782e+00
3.688569933176040649e+00 9.521411724388599396e+00 1.179197940602904282e+00
3.481660753488540649e+00 9.762988872826099396e+00 1.182341251149779282e+00
2.742158800363540649e+00 9.902271099388599396e+00 1.136793765798216782e+00
2.054414659738540649e+00 1.003642637282609940e+01 1.094801578298216782e+00
1.392062559723854065e+01 9.696582622826099396e+00 2.149183902516966782e+00
4.040132433176040649e+00 9.290698833763599396e+00 1.316435489431029282e+00
3.782686144113540649e+00 9.528858013451099396e+00 1.314467105641966782e+00
3.097139269113540649e+00 9.686816997826099396e+00 1.271498355641966782e+00
2.960542589426040649e+00 9.935230083763599396e+00 1.280775699391966782e+00
2.066621690988540649e+00 1.003117734938859940e+01 1.216017398610716782e+00
4.015230089426040649e+00 9.278369732201099396e+00 1.442564639821654282e+00
3.703950792551040649e+00 9.507373638451099396e+00 1.434263858571654282e+00
3.042573839426040649e+00 9.668994732201099396e+00 1.390623721852904282e+00
2.853364855051040649e+00 9.907153911888599396e+00 1.393492374196654282e+00
2.078828722238540649e+00 1.002592832595109940e+01 1.337401065602904282e+00
2.424898058176040649e+00 1.016899473220109940e+01 1.569746646657591782e+00
