1.306264144182205200e+01 -2.851808466017246246e+00 -5.429669016972127338e-01
1.312392073869705200e+01 -2.725099481642246246e+00 -5.324230784550252338e-01
1.318507796525955200e+01 -2.598512567579746246e+00 -5.218945140019002338e-01
1.324635726213455200e+01 -2.471803583204746246e+00 -5.113659495487752338e-01
1.330788069963455200e+01 -2.344484247267246246e+00 -5.007763499394002338e-01
1.336159163713455200e+01 -2.214723505079746246e+00 -4.904003733769002338e-01
1.359938460588455200e+01 -3.400392450392246246e+00 -5.149212474003377338e-01
1.467360335588455200e+01 -3.702028192579746246e+00 -5.263348216190877338e-01
1.487538558244705200e+01 -3.615114130079746246e+00 -5.168743724003377338e-01
1.488380843400955200e+01 -3.445680536329746246e+00 -5.035534495487752338e-01
1.489210921525955200e+01 -3.277955926954746246e+00 -4.903851145878377338e-01
1.490040999650955200e+01 -3.111452020704746246e+00 -4.772930735722127338e-01
1.489918929338455200e+01 -2.941896356642246246e+00 -4.644604319706502338e-01
1.496925765275955200e+01 -2.800050653517246246e+00 -4.526043528690877338e-01
1.364308577775955200e+01 -3.425416864454746246e+00 -4.477673167362752338e-01
1.476405745744705200e+01 -3.747072137892246246e+00 -4.548473948612752338e-01
1.607863265275955200e+01 -4.124879755079746246e+00 -4.631939524784627338e-01
1.754213362932205200e+01 -4.533327020704746246e+00 -4.715710276737752338e-01
1.760243636369705200e+01 -4.355470575392246246e+00 -4.570599192753377338e-01
1.766273909807205200e+01 -4.177858270704746246e+00 -4.425488108769002338e-01
1.772316390275955200e+01 -3.999757684767246246e+00 -4.280224436894002338e-01
1.781703597307205200e+01 -3.834718622267246246e+00 -4.139690989628377338e-01
1.368666487932205200e+01 -3.450441278517246246e+00 -3.804913157597127338e-01
1.479433089494705200e+01 -3.766237176954746246e+00 -3.816815013065877338e-01
1.615126448869705200e+01 -4.161867059767246246e+00 -3.842449778690877338e-01
1.793703109025955200e+01 -4.701295770704746246e+00 -3.890057200565877338e-01
2.083583480119705200e+01 -5.642091669142246246e+00 -4.015942210331502338e-01
2.135853987932205200e+01 -5.605104364454746246e+00 -3.884564036503377338e-01
2.163454085588455200e+01 -5.465333856642246246e+00 -3.725414866581502338e-01
2.180409651994705200e+01 -5.283571161329746246e+00 -3.561840647831502338e-01
1.448390609025955200e+01 -3.809327997267246246e+00 -3.185406321659627338e-01
1.493935042619705200e+01 -3.834962762892246246e+00 -3.094158763065877338e-01
1.622414046525955200e+01 -4.199098505079746246e+00 -3.049603099003377338e-01
1.805006819963455200e+01 -4.754640497267246246e+00 -3.013897532597127338e-01
2.096437484025955200e+01 -5.701417841017246246e+00 -3.000774974003377338e-01
2.978444319963455200e+01 -8.854982294142246246e+00 -3.170910472050252338e-01
2.999513655900955200e+01 -8.594850458204746246e+00 -2.930584544315877338e-01
3.037038069963455200e+01 -8.393312372267246246e+00 -2.693157786503377338e-01
3.379860335588455200e+01 -1.237732116132974625e+01 -3.073711985722127338e-01
3.460805159807205200e+01 -1.232763854414224625e+01 -2.799358958378377338e-01
3.500612288713455200e+01 -1.208947936445474625e+01 -2.516766184940877338e-01
2.079835921525955200e+01 -5.883546747267246246e+00 -2.137890452519002338e-01
2.246425276994705200e+01 -6.304689325392246246e+00 -1.964092845097127338e-01
3.302113753557205200e+01 -1.204675475507974625e+01 -1.392956370487752338e-01
3.445412093400955200e+01 -1.227563659101724625e+01 -1.083660716190877338e-01
3.510646468400955200e+01 -1.214599791914224625e+01 -7.806211654096273378e-02
3.534315901994705200e+01 -1.183337584882974625e+01 -4.859739486127523378e-02
4.578834944963455200e+01 -1.557202330976724625e+01 3.311342056841226622e-02
3.296962386369705200e+01 -1.203772155195474625e+01 2.516359146684976622e-02
3.287782698869705200e+01 -1.160852233320474625e+01 5.084413345903726622e-02
3.495644026994705200e+01 -1.209753600507974625e+01 9.544557388872476622e-02
3.544166976213455200e+01 -1.188818541914224625e+01 1.275653248652872662e-01
3.266774398088455200e+01 -1.191748229414224625e+01 1.870898609980997662e-01
3.272865706682205200e+01 -1.155786315351724625e+01 2.133502369746622662e-01
3.484914046525955200e+01 -1.206677428632974625e+01 2.671832447871622662e-01
4.072133284807205200e+01 -1.406360045820474625e+01 3.775195484980997662e-01
3.244557601213455200e+01 -1.183252135664224625e+01 3.465442067012247662e-01
4.081300765275955200e+01 -1.507324401289224625e+01 5.189380055293497662e-01
3.446498519182205200e+01 -1.191931334882974625e+01 4.328479176387247662e-01
4.561269026994705200e+01 -1.608435241132974625e+01 6.723193531855997662e-01
3.947987776994705200e+01 -1.497937194257974625e+01 6.638202076777872662e-01
3.314174300432205200e+01 -1.176440612226724625e+01 5.493792897090372662e-01
4.125673323869705200e+01 -1.479858580976724625e+01 7.636126881465372662e-01
4.113710433244705200e+01 -1.426757995039224625e+01 7.908801442012247662e-01
3.296071273088455200e+01 -1.208960143476724625e+01 6.857165699824747662e-01
4.064540511369705200e+01 -1.503466979414224625e+01 9.219684010371622662e-01
8.465456038713455200e+01 -3.313952819257974625e+01 2.199510515294974766e+00
8.662953597307205200e+01 -3.195923034101724625e+01 2.378084123693412266e+00
4.076942855119705200e+01 -1.558838073164224625e+01 1.101152360998099766e+00
4.028407698869705200e+01 -1.489477721601724625e+01 1.113832414709037266e+00
4.091688948869705200e+01 -1.468908873945474625e+01 1.161836565099662266e+00
4.065736800432205200e+01 -1.555554381757974625e+01 1.301149309240287266e+00
4.100929671525955200e+01 -1.522705260664224625e+01 1.342042863927787266e+00
4.070399886369705200e+01 -1.559375182539224625e+01 1.507860124669974766e+00
4.131569319963455200e+01 -1.537756530195474625e+01 1.559709489904349766e+00
8.526381331682205200e+01 -3.350305358320474625e+01 3.490251482091849766e+00
4.087880355119705200e+01 -1.568921080976724625e+01 1.720079362951224766e+00
8.639748030900955200e+01 -3.503564635664224625e+01 3.916597307287162266e+00
8.517189437150955200e+01 -3.349963561445474625e+01 3.912218034826224766e+00
8.526942855119705200e+01 -3.254248229414224625e+01 3.970796526037162266e+00
8.628505355119705200e+01 -3.196228209882974625e+01 4.074403703771537266e+00
8.655897933244705200e+01 -3.107800475507974625e+01 4.141618669591849766e+00
4.000526839494705200e+01 -1.531530944257974625e+01 1.880647600255912266e+00
8.470399886369705200e+01 -3.433337584882974625e+01 4.259080827794974766e+00
8.517811995744705200e+01 -3.353759948164224625e+01 4.336427629552787266e+00
8.379054671525955200e+01 -3.196740905195474625e+01 4.313753069005912266e+00
8.315993148088455200e+01 -3.074414245039224625e+01 4.330049455724662266e+00
8.376723128557205200e+01 -3.002527038007974625e+01 4.413423479162162266e+00
3.979994612932205200e+01 -1.524023620039224625e+01 2.069597185216849766e+00
8.603236800432205200e+01 -3.494897643476724625e+01 4.761445940099662266e+00
8.417714339494705200e+01 -3.314807311445474625e+01 4.704439104162162266e+00
8.398024398088455200e+01 -3.208032409101724625e+01 4.742662370763724766e+00
8.303065901994705200e+01 -3.072619811445474625e+01 4.735322893224662266e+00
8.327455550432205200e+01 -2.986718932539224625e+01 4.798173845373099766e+00
8.802748519182205200e+01 -3.071325866132974625e+01 5.134508073888724766e+00
4.007924300432205200e+01 -1.538257018476724625e+01 2.287782610021537266e+00
8.599245101213455200e+01 -3.496777526289224625e+01 5.191530168615287266e+00
8.573353987932205200e+01 -3.384472838789224625e+01 5.222261369787162266e+00
8.332777816057205200e+01 -3.184509459882974625e+01 5.117662370763724766e+00
8.628090316057205200e+01 -3.107409850507974625e+01 5.403428972326224766e+00
3.949403792619705200e+01 -1.513684264570474625e+01 2.450761735998099766e+00
8.131911116838455200e+01 -3.296008483320474625e+01 5.305238664709037266e+00
8.220412093400955200e+01 -3.237866393476724625e+01 5.410768449865287266e+00
9.072755843400955200e+01 -3.388989440351724625e+01 6.092500627599662266e+00
8.618886214494705200e+01 -3.107299987226724625e+01 5.824174821935599766e+00
1.336183577775955200e+01 -2.214235223829746246e+00 -4.903545970097127338e-01
1.342152816057205200e+01 -2.086427606642246246e+00 -4.798260325565877338e-01
1.347365218400955200e+01 -1.955690301954746246e+00 -4.694500559940877338e-01
1.350441390275955200e+01 -1.817140497267246246e+00 -4.586163157597127338e-01
1.353297835588455200e+01 -1.678712762892246246e+00 -4.478130931034627338e-01
1.356142073869705200e+01 -1.540529169142246246e+00 -4.370098704472127338e-01
1.358998519182205200e+01 -1.402223505079746246e+00 -4.262066477909627338e-01
1.361024886369705200e+01 -1.262452997267246246e+00 -4.156780833378377338e-01
1.496950179338455200e+01 -2.799562372267246246e+00 -4.525585765019002338e-01
1.502907210588455200e+01 -2.653688348829746246e+00 -4.409313792362752338e-01
1.509828597307205200e+01 -2.510866083204746246e+00 -4.290447825565877338e-01
1.517433577775955200e+01 -2.369142450392246246e+00 -4.175549143925252338e-01
1.524831038713455200e+01 -2.226686395704746246e+00 -4.060497874394002338e-01
1.532265120744705200e+01 -2.083864130079746246e+00 -3.944988841190877338e-01
1.538722640275955200e+01 -1.937013544142246246e+00 -3.831310862675252338e-01
1.549415999650955200e+01 -1.802492059767246246e+00 -3.718700999394002338e-01
1.781752425432205200e+01 -3.834230341017246246e+00 -4.139233225956502338e-01
1.790993148088455200e+01 -3.667848505079746246e+00 -4.002361888065877338e-01
1.800270491838455200e+01 -3.500978387892246246e+00 -3.865032786503377338e-01
1.809621077775955200e+01 -3.332765497267246246e+00 -3.726788157597127338e-01
1.818971663713455200e+01 -3.164552606642246246e+00 -3.588390940800252338e-01
1.828371077775955200e+01 -2.995729364454746246e+00 -3.449535960331502338e-01
1.840956526994705200e+01 -2.834840692579746246e+00 -3.311749095097127338e-01
1.854909163713455200e+01 -2.677003778517246246e+00 -3.174267405644002338e-01
2.180507308244705200e+01 -5.283082880079746246e+00 -3.561230296269002338e-01
2.200453597307205200e+01 -5.109743036329746246e+00 -3.391399974003377338e-01
2.218959456682205200e+01 -4.928590692579746246e+00 -3.224468821659627338e-01
2.237733870744705200e+01 -4.744996942579746246e+00 -3.055096263065877338e-01
2.256654769182205200e+01 -4.560060419142246246e+00 -2.884655589237752338e-01
2.275758773088455200e+01 -4.373292841017246246e+00 -2.712383860722127338e-01
2.295143538713455200e+01 -4.183839716017246246e+00 -2.537670725956502338e-01
2.310646468400955200e+01 -3.981447137892246246e+00 -2.366924876347127338e-01
3.037221175432205200e+01 -8.392824091017246246e+00 -2.692394847050252338e-01
3.069997054338455200e+01 -8.168702997267246246e+00 -2.455578440800252338e-01
3.103993636369705200e+01 -7.943483270704746246e+00 -2.215252513065877338e-01
3.210988265275955200e+01 -7.951784051954746246e+00 -1.969433421269002338e-01
3.321791487932205200e+01 -7.952028192579746246e+00 -1.708965891972127338e-01
3.384108382463455200e+01 -7.781618036329746246e+00 -1.441021556034627338e-01
9.274306136369705200e+01 -2.484277526289224625e+01 2.656740006059976622e-02
6.071828109025955200e+01 -1.804870788007974625e+01 5.305665787309976622e-02
5.691530257463455200e+01 -1.612512389570474625e+01 8.111757095903726622e-02
5.700966292619705200e+01 -1.553112975507974625e+01 1.252154713496622662e-01
5.733644515275955200e+01 -1.501037780195474625e+01 1.706866627559122662e-01
7.050819808244705200e+01 -1.828991881757974625e+01 3.095569020137247662e-01
7.132692366838455200e+01 -1.776501647382974625e+01 3.672351246699747662e-01
5.710182601213455200e+01 -1.620825377851724625e+01 3.566455250605997662e-01
5.716774398088455200e+01 -1.560290709882974625e+01 4.001635914668497662e-01
5.754823714494705200e+01 -1.509692565351724625e+01 4.470538502559122662e-01
6.993373519182205200e+01 -1.739306823164224625e+01 6.900195484980997662e-01
5.748451644182205200e+01 -1.635620299726724625e+01 6.384143238887247662e-01
5.772914534807205200e+01 -1.580359069257974625e+01 6.844043141230997662e-01
5.818349105119705200e+01 -1.531408873945474625e+01 7.338427906855997662e-01
7.099977523088455200e+01 -1.772375670820474625e+01 1.040956438146537266e+00
5.912953597307205200e+01 -1.692126647382974625e+01 9.470691090449747662e-01
5.904933577775955200e+01 -1.560266295820474625e+01 1.030198991857474766e+00
7.106996566057205200e+01 -1.777002135664224625e+01 1.381807268224662266e+00
5.879188948869705200e+01 -1.683215514570474625e+01 1.223619402013724766e+00
5.977003890275955200e+01 -1.649926940351724625e+01 1.289415300451224766e+00
7.235145980119705200e+01 -1.816382018476724625e+01 1.754442155919974766e+00
7.167274886369705200e+01 -1.804809752851724625e+01 2.763185442052787266e+00
1.361073714494705200e+01 -1.262086786329746246e+00 -4.156628245487752338e-01
1.363710433244705200e+01 -1.124269403517246246e+00 -4.049816722050252338e-01
1.365529280900955200e+01 -9.844988957047462463e-01 -3.945599192753377338e-01
1.369081526994705200e+01 -8.488787785172462463e-01 -3.843517893925252338e-01
1.373317366838455200e+01 -7.153338566422462463e-01 -3.742657298222127338e-01
1.377553206682205200e+01 -5.816668644547462463e-01 -3.641491526737752338e-01
1.381813460588455200e+01 -4.473895207047462463e-01 -3.540020579472127338e-01
1.385268050432205200e+01 -3.116473332047462463e-01 -3.441448802128377338e-01
1.549525862932205200e+01 -1.802247919142246246e+00 -3.718395823612752338e-01
1.559010726213455200e+01 -1.662965692579746246e+00 -3.607769602909627338e-01
1.569752913713455200e+01 -1.525880731642246246e+00 -3.493633860722127338e-01
1.579433089494705200e+01 -1.383912958204746246e+00 -3.381023997440877338e-01
1.589149886369705200e+01 -1.241456903517246246e+00 -3.267803782597127338e-01
1.598939925432205200e+01 -1.098024286329746246e+00 -3.153820628300252338e-01
1.607301741838455200e+01 -9.494647160172462463e-01 -3.041668528690877338e-01
1.632728987932205200e+01 -8.365496769547462463e-01 -2.935009593144002338e-01
1.855080062150955200e+01 -2.676759637892246246e+00 -3.173962229862752338e-01
1.867567855119705200e+01 -2.513063348829746246e+00 -3.038769358769002338e-01
1.880153304338455200e+01 -2.347902216017246246e+00 -2.902660960331502338e-01
1.892885237932205200e+01 -2.180665887892246246e+00 -2.764721507206502338e-01
1.905690413713455200e+01 -2.012697137892246246e+00 -2.626171702519002338e-01
1.927479964494705200e+01 -1.863771356642246246e+00 -2.488690013065877338e-01
1.955727034807205200e+01 -1.724733270704746246e+00 -2.349072093144002338e-01
1.984584456682205200e+01 -1.582887567579746246e+00 -2.206707591190877338e-01
2.310768538713455200e+01 -3.980958856642246246e+00 -2.366314524784627338e-01
2.338356429338455200e+01 -3.809938348829746246e+00 -2.188397044315877338e-01
2.364369612932205200e+01 -3.630006708204746246e+00 -2.012920970097127338e-01
2.390932112932205200e+01 -3.446290887892246246e+00 -1.833782786503377338e-01
2.417860823869705200e+01 -3.260011591017246246e+00 -1.652203196659627338e-01
2.580739241838455200e+01 -3.384279169142246246e+00 -1.437359446659627338e-01
2.642567855119705200e+01 -3.251222528517246246e+00 -1.228466624394002338e-01
6.558082991838455200e+01 -1.123376647382974625e+01 3.935426529497476622e-02
6.793532210588455200e+01 -1.604297057539224625e+01 6.840699966997476622e-02
6.356715804338455200e+01 -1.416809264570474625e+01 9.810060318559976622e-02
6.895729476213455200e+01 -1.485705748945474625e+01 1.744098072871622662e-01
6.546449691057205200e+01 -1.259680358320474625e+01 2.510394459590372662e-01
6.610841780900955200e+01 -1.205407897382974625e+01 3.036059742793497662e-01
6.579091292619705200e+01 -1.130066100507974625e+01 3.486651783809122662e-01
7.314625960588455200e+01 -1.749951354414224625e+01 4.373034840449747662e-01
7.068104964494705200e+01 -1.606982604414224625e+01 4.672564869746622662e-01
5.914174300432205200e+01 -1.239367858320474625e+01 4.010943775996622662e-01
5.618190413713455200e+01 -1.105139342695474625e+01 4.114550953730997662e-01
5.320558577775955200e+01 -9.770387567579746246e+00 4.171618824824747662e-01
5.080336409807205200e+01 -8.680177606642246246e+00 4.256152516230997662e-01
4.871706038713455200e+01 -7.711183466017246246e+00 4.332599049434122662e-01
6.993117171525955200e+01 -1.738977233320474625e+01 6.901721363887247662e-01
7.316737776994705200e+01 -1.753186217695474625e+01 7.841205006465372662e-01
7.293385726213455200e+01 -1.669091979414224625e+01 8.332385426387247662e-01
6.975709944963455200e+01 -1.510913268476724625e+01 8.380908375605997662e-01
6.623256331682205200e+01 -1.351623717695474625e+01 8.325518971309122662e-01
7.448219710588455200e+01 -1.474170104414224625e+01 1.013948381505912266e+00
6.490126448869705200e+01 -1.183166686445474625e+01 9.033526783809122662e-01
4.864467269182205200e+01 -7.712648309767246246e+00 6.605853443965372662e-01
7.099806624650955200e+01 -1.772070495039224625e+01 1.041093767248099766e+00
7.324464827775955200e+01 -1.757959166914224625e+01 1.132310808263724766e+00
7.050001937150955200e+01 -1.532299987226724625e+01 1.183443010412162266e+00
6.694557601213455200e+01 -1.371350280195474625e+01 1.160341203771537266e+00
7.321852523088455200e+01 -1.447339049726724625e+01 1.338838518224662266e+00
6.482130843400955200e+01 -1.183630553632974625e+01 1.205491960607474766e+00
6.436647444963455200e+01 -1.106616393476724625e+01 1.239900529943412266e+00
7.107130843400955200e+01 -1.776782409101724625e+01 1.382005632482474766e+00
6.987050276994705200e+01 -1.667553893476724625e+01 1.403932512365287266e+00
7.270570784807205200e+01 -1.668298522382974625e+01 1.519517839513724766e+00
7.023476058244705200e+01 -1.528064147382974625e+01 1.509645402990287266e+00
6.989076644182205200e+01 -1.445569030195474625e+01 1.549257219396537266e+00
6.708314925432205200e+01 -1.306640807539224625e+01 1.524736345373099766e+00
6.658803206682205200e+01 -1.225280944257974625e+01 1.557435930334037266e+00
6.716469222307205200e+01 -1.168322936445474625e+01 1.618104875646537266e+00
7.217103987932205200e+01 -1.810937682539224625e+01 1.749727190099662266e+00
6.930031234025955200e+01 -1.654345885664224625e+01 1.719575822912162266e+00
7.275770980119705200e+01 -1.672302428632974625e+01 1.865068376623099766e+00
6.977150374650955200e+01 -1.518750182539224625e+01 1.827730119787162266e+00
7.270534163713455200e+01 -1.516809264570474625e+01 1.962175310216849766e+00
6.684901839494705200e+01 -1.303515807539224625e+01 1.832750261388724766e+00
6.528444319963455200e+01 -1.198474303632974625e+01 1.828920305334037266e+00
6.548463851213455200e+01 -1.134863463789224625e+01 1.878724992834037266e+00
6.955824691057205200e+01 -1.664001647382974625e+01 2.058610857091849766e+00
7.301149398088455200e+01 -1.681677428632974625e+01 2.219804704748099766e+00
6.978053694963455200e+01 -1.521484557539224625e+01 2.159318864904349766e+00
7.188747054338455200e+01 -1.499377623945474625e+01 2.278337419591849766e+00
6.726100569963455200e+01 -1.244970885664224625e+01 2.207460344396537266e+00
7.256947737932205200e+01 -1.749926940351724625e+01 2.501069963537162266e+00
7.089394026994705200e+01 -1.627917663007974625e+01 2.485353410802787266e+00
7.177467757463455200e+01 -1.574939147382974625e+01 2.565950334630912266e+00
6.690138655900955200e+01 -1.309436217695474625e+01 2.465028703771537266e+00
6.634755355119705200e+01 -1.226831237226724625e+01 2.485933244787162266e+00
7.167384749650955200e+01 -1.804577819257974625e+01 2.763383806310599766e+00
7.032179671525955200e+01 -1.690246764570474625e+01 2.753160417638724766e+00
7.109914046525955200e+01 -1.560217467695474625e+01 2.875978410802787266e+00
7.215675765275955200e+01 -1.511059752851724625e+01 2.968019426427787266e+00
6.617262679338455200e+01 -1.225232116132974625e+01 2.791032732091849766e+00
7.228981429338455200e+01 -1.747448913007974625e+01 3.179445207677787266e+00
7.137587386369705200e+01 -1.645910827070474625e+01 3.182039201818412266e+00
7.162941390275955200e+01 -1.576355163007974625e+01 3.239519060216849766e+00
7.228480941057205200e+01 -1.516772643476724625e+01 3.316499651037162266e+00
7.233058577775955200e+01 -1.751208678632974625e+01 3.525270402990287266e+00
7.214198714494705200e+01 -1.668957702070474625e+01 3.560548723302787266e+00
7.161085921525955200e+01 -1.578442565351724625e+01 3.577440202794974766e+00
4.949159651994705200e+01 -8.045534051954746246e+00 2.764345110021537266e+00
4.942189437150955200e+01 -8.064699091017246246e+00 3.224946916662162266e+00
5.341188460588455200e+01 -1.006201354414224625e+01 3.692048967443412266e+00
5.322060042619705200e+01 -9.457277216017246246e+00 3.709642351232474766e+00
5.099171859025955200e+01 -8.421022333204746246e+00 3.574449480138724766e+00
5.312123519182205200e+01 -1.001196471601724625e+01 3.922807634435599766e+00
5.326466780900955200e+01 -9.485841669142246246e+00 3.963579118810599766e+00
5.091762191057205200e+01 -8.422609247267246246e+00 3.809297502599662266e+00
1.385280257463455200e+01 -3.112811222672462463e-01 -3.440991038456502338e-01
1.389345198869705200e+01 -1.766375675797462463e-01 -3.340283030644002338e-01
1.392616683244705200e+01 -4.016295820474624634e-02 -3.242016429081502338e-01
1.400978499650955200e+01 8.788879960775375366e-02 -3.147411936894002338e-01
1.437782698869705200e+01 1.686993464827537537e-01 -3.073406809940877338e-01
1.487416487932205200e+01 2.360821589827537537e-01 -3.002911204472127338e-01
1.521413069963455200e+01 3.369122371077537537e-01 -2.916088694706502338e-01
1.563026839494705200e+01 4.329815730452537537e-01 -2.832928294315877338e-01
1.632838851213455200e+01 -8.361834660172462463e-01 -2.934704417362752338e-01
1.658168441057205200e+01 -7.185076847672462463e-01 -2.829113597050252338e-01
1.685231429338455200e+01 -5.993670597672462463e-01 -2.716808909550252338e-01
1.712819319963455200e+01 -4.757098332047462463e-01 -2.604961985722127338e-01
1.746999007463455200e+01 -3.586444035172462463e-01 -2.491894358769002338e-01
1.795888167619705200e+01 -2.585467472672462463e-01 -2.377300852909627338e-01
1.846962386369705200e+01 -1.517352238297462463e-01 -2.260571116581502338e-01
1.828932601213455200e+01 5.981262773275375366e-02 -2.128430003300252338e-01
1.984743148088455200e+01 -1.582521356642246246e+00 -2.206249827519002338e-01
2.013881331682205200e+01 -1.436036981642246246e+00 -2.064953440800252338e-01
2.071315413713455200e+01 -1.338014520704746246e+00 -1.918926829472127338e-01
2.197194319963455200e+01 -1.351076044142246246e+00 -1.756725901737752338e-01
2.313551741838455200e+01 -1.323610223829746246e+00 -1.579418772831502338e-01
2.069630843400955200e+01 -6.999529972672462463e-01 -1.478558177128377338e-01
1.816676741838455200e+01 7.079895585775375366e-02 -1.287975901737752338e-01
6.557643538713455200e+01 -1.123047057539224625e+01 3.950685318559976622e-02
4.480202132463455200e+01 -5.926271356642246246e+00 2.780336197466226622e-02
4.923353987932205200e+01 -6.262086786329746246e+00 8.520692642778726622e-02
2.087587386369705200e+01 -9.479998722672462463e-01 -6.509214583783773378e-02
2.060109359025955200e+01 -6.916522160172462463e-01 -5.248838607221273378e-02
1.811305648088455200e+01 7.250794023275375366e-02 -4.569822493940023378e-02
6.579030257463455200e+01 -1.129821959882974625e+01 3.488177662715372662e-01
4.482423812150955200e+01 -5.945558466017246246e+00 2.362231617793497662e-01
2.090370589494705200e+01 -9.595965519547462463e-01 3.180116470903726622e-02
1.990797835588455200e+01 -5.876483097672462463e-01 3.444093521684976622e-02
1.889101058244705200e+01 -2.329119816422462463e-01 3.543275650591226622e-02
1.809413558244705200e+01 6.921204179525375366e-02 3.784364517778726622e-02
4.870302230119705200e+01 -7.706422723829746246e+00 4.331836109980997662e-01
5.305177718400955200e+01 -7.531129755079746246e+00 5.645465260371622662e-01
2.095216780900955200e+01 -9.748553410172462463e-01 1.298388844355997662e-01
1.990126448869705200e+01 -5.931414738297462463e-01 1.268023854121622662e-01
1.889064437150955200e+01 -2.390154972672462463e-01 1.230029469355997662e-01
1.809755355119705200e+01 6.298645585775375366e-02 1.212024098262247662e-01
4.862843734025955200e+01 -7.707521356642246246e+00 6.604022389277872662e-01
4.657411605119705200e+01 -6.790529169142246246e+00 6.558856373652872662e-01
4.476088362932205200e+01 -5.963746942579746246e+00 6.530322438105997662e-01
4.311000472307205200e+01 -5.203859247267246246e+00 6.509265309199747662e-01
2.094606429338455200e+01 -9.807147160172462463e-01 2.267321949824747662e-01
1.985109359025955200e+01 -5.916766300797462463e-01 2.177295094355997662e-01
1.888649398088455200e+01 -2.445086613297462463e-01 2.100695973262247662e-01
1.804787093400955200e+01 6.408508867025375366e-02 2.038745289668497662e-01
6.436671859025955200e+01 -1.106396666914224625e+01 1.240037859044974766e+00
5.304066878557205200e+01 -7.564821161329746246e+00 1.059328020177787266e+00
2.111745101213455200e+01 -1.016969598829746246e+00 3.285998707637247662e-01
1.984120589494705200e+01 -5.965594425797462463e-01 3.097552662715372662e-01
1.892677718400955200e+01 -2.567156925797462463e-01 2.983111744746622662e-01
1.806276351213455200e+01 5.615051835775375366e-02 2.874316578730997662e-01
6.716933089494705200e+01 -1.168188659101724625e+01 1.618379533849662266e+00
5.301649886369705200e+01 -7.578126825392246246e+00 1.305604875646537266e+00
2.105263167619705200e+01 -1.012819208204746246e+00 4.245318775996622662e-01
1.990053206682205200e+01 -6.126727238297462463e-01 4.033526783809122662e-01
1.897694808244705200e+01 -2.705096378922462463e-01 3.877429371699747662e-01
1.810695296525955200e+01 4.406555742025375366e-02 3.725451832637247662e-01
6.548537093400955200e+01 -1.134643737226724625e+01 1.878892839513724766e+00
5.307191878557205200e+01 -7.606691278517246246e+00 1.554414690099662266e+00
4.918214827775955200e+01 -5.847780145704746246e+00 1.490190446935599766e+00
1.997035628557205200e+01 -6.304949894547462463e-01 4.978961354121622662e-01
1.904213362932205200e+01 -2.865008488297462463e-01 4.777392750605997662e-01
1.818751937150955200e+01 2.685364335775375366e-02 4.589709645137247662e-01
5.331105452775955200e+01 -7.670656122267246246e+00 1.812105119787162266e+00
4.912929183244705200e+01 -5.855104364454746246e+00 1.717760027013724766e+00
2.012892562150955200e+01 -6.627215519547462463e-01 5.971698170527872662e-01
1.916298323869705200e+01 -3.110369816422462463e-01 5.711078053340372662e-01
1.835255843400955200e+01 -2.443231642246246338e-03 5.500964527949747662e-01
4.912111312150955200e+01 -5.869996942579746246e+00 1.945680559240287266e+00
2.045045882463455200e+01 -7.214373722672462463e-01 7.046832447871622662e-01
1.943190413713455200e+01 -3.581561222672462463e-01 6.718158131465372662e-01
1.886525374650955200e+01 -8.093444257974624634e-02 6.582202320918497662e-01
5.374171859025955200e+01 -7.235109247267246246e+00 2.363725603185599766e+00
4.907802230119705200e+01 -5.878908075392246246e+00 2.171922624669974766e+00
2.081813460588455200e+01 -7.878436222672462463e-01 8.174914723262247662e-01
1.899477034807205200e+01 -2.979754582047462463e-01 7.404956227168497662e-01
1.899977523088455200e+01 -1.062029972672462463e-01 7.525653248652872662e-01
4.571571761369705200e+01 -5.313722528517246246e+00 2.222932756505912266e+00
4.735768538713455200e+01 -5.113649286329746246e+00 2.339433610998099766e+00
1.986049300432205200e+01 -4.362811222672462463e-01 8.754138356074747662e-01
1.911220198869705200e+01 -1.284197941422462463e-01 8.465289479121622662e-01
4.563234359025955200e+01 -5.782594598829746246e+00 2.402772844396537266e+00
4.567421370744705200e+01 -5.321779169142246246e+00 2.433214128576224766e+00
4.743544417619705200e+01 -5.141969598829746246e+00 2.563920915685599766e+00
5.434279280900955200e+01 -5.712770380079746246e+00 3.000139177404349766e+00
1.926649886369705200e+01 -1.566180363297462463e-01 9.445361500605997662e-01
4.948805648088455200e+01 -8.042970575392246246e+00 2.764223039709037266e+00
4.772987776994705200e+01 -6.676881708204746246e+00 2.717164934240287266e+00
5.264809066057205200e+01 -7.088258661329746246e+00 3.050249040685599766e+00
5.006886702775955200e+01 -6.100099481642246246e+00 2.921190202794974766e+00
4.758925276994705200e+01 -5.182863153517246246e+00 2.795198381505912266e+00
4.389906722307205200e+01 -4.131105341017246246e+00 2.589174211584037266e+00
1.944850569963455200e+01 -1.888445988297462463e-01 1.045320451818412266e+00
4.947365218400955200e+01 -7.543702997267246246e+00 3.025224626623099766e+00
4.526771956682205200e+01 -6.213991083204746246e+00 2.778001726232474766e+00
5.252833968400955200e+01 -7.083864130079746246e+00 3.287874162755912266e+00
5.017628890275955200e+01 -6.135377801954746246e+00 3.161546648107474766e+00
4.944704085588455200e+01 -5.502809442579746246e+00 3.142122209630912266e+00
4.403712874650955200e+01 -4.166627801954746246e+00 2.802308977209037266e+00
4.364943343400955200e+01 -3.663820184767246246e+00 2.802751482091849766e+00
4.942128401994705200e+01 -8.062745966017246246e+00 3.225007951818412266e+00
4.945192366838455200e+01 -7.556276239454746246e+00 3.256624162755912266e+00
4.490651351213455200e+01 -6.158937372267246246e+00 2.965242326818412266e+00
4.480617171525955200e+01 -5.676271356642246246e+00 2.984773576818412266e+00
4.551002913713455200e+01 -5.338869012892246246e+00 3.061723650060599766e+00
4.873659163713455200e+01 -5.402589716017246246e+00 3.321916521154349766e+00
4.418275862932205200e+01 -4.203493036329746246e+00 3.018449724279349766e+00
4.344899398088455200e+01 -3.649171747267246246e+00 2.990297258459037266e+00
5.099391585588455200e+01 -8.419557489454746246e+00 3.574708879552787266e+00
4.943922835588455200e+01 -7.570680536329746246e+00 3.488588274084037266e+00
4.499074202775955200e+01 -6.190675653517246246e+00 3.181566179357474766e+00
4.504286605119705200e+01 -5.734987176954746246e+00 3.211885393224662266e+00
4.767042952775955200e+01 -5.731325067579746246e+00 3.438920915685599766e+00
4.539503890275955200e+01 -4.869386591017246246e+00 3.291368425451224766e+00
4.402809554338455200e+01 -4.194215692579746246e+00 3.212739885412162266e+00
4.360048323869705200e+01 -3.685182489454746246e+00 3.204667985998099766e+00
5.092042952775955200e+01 -8.421388544142246246e+00 3.809617937169974766e+00
4.668190413713455200e+01 -7.019655145704746246e+00 3.501420915685599766e+00
4.666054183244705200e+01 -6.532594598829746246e+00 3.526689470373099766e+00
4.733192855119705200e+01 -6.174318231642246246e+00 3.607744157873099766e+00
4.548891097307205200e+01 -5.365602411329746246e+00 3.485429704748099766e+00
4.537172347307205200e+01 -4.880617059767246246e+00 3.501878679357474766e+00
4.412074691057205200e+01 -4.222902216017246246e+00 3.424943864904349766e+00
4.349147444963455200e+01 -3.683717645704746246e+00 3.398958147130912266e+00
1.563380843400955200e+01 4.331036433577537537e-01 -2.832623118534627338e-01
1.603737288713455200e+01 5.388165339827537537e-01 -2.740460032597127338e-01
1.658937484025955200e+01 6.348858699202537537e-01 -2.652416819706502338e-01
1.717201644182205200e+01 7.390118464827537537e-01 -2.557659739628377338e-01
1.763161116838455200e+01 8.659649714827537537e-01 -2.452526682987752338e-01
1.811549788713455200e+01 9.996319636702537537e-01 -2.341900462284627338e-01
1.865431624650955200e+01 1.138914190232753754e+00 -2.225018138065877338e-01
1.888832503557205200e+01 1.308713994920253754e+00 -2.104778880253377338e-01
1.828944808244705200e+01 6.042297929525375366e-02 -2.127972239628377338e-01
1.985121566057205200e+01 4.430969804525375366e-02 -2.003307932987752338e-01
2.134743148088455200e+01 6.701477617025375366e-02 -1.852856272831502338e-01
2.283217269182205200e+01 1.214581355452537537e-01 -1.686993235722127338e-01
2.115382796525955200e+01 5.147686824202537537e-01 -1.567669505253377338e-01
2.909181624650955200e+01 2.697571367025375366e-02 -1.205731028690877338e-01
1.886903792619705200e+01 1.304197393357753754e+00 -1.238842600956502338e-01
1.816713362932205200e+01 7.140930742025375366e-02 -1.287518138065877338e-01
2.107094222307205200e+01 5.163555964827537537e-01 -6.042295638471273378e-02
3.133009749650955200e+01 -1.799334660172462463e-01 2.908510025591226622e-02
1.807728987932205200e+01 1.352659307420253754e+00 -4.415708724408773378e-02
1.811330062150955200e+01 7.311829179525375366e-02 -4.565244857221273378e-02
1.783790999650955200e+01 2.911358699202537537e-01 -3.562742415815023378e-02
1.780043441057205200e+01 4.750958308577537537e-01 -2.407652083783773378e-02
1.779909163713455200e+01 6.545391902327537537e-01 -1.215940658002523378e-02
1.781813460588455200e+01 8.309307917952537537e-01 -8.970443158773377945e-05
1.787111312150955200e+01 1.004392705857753754e+00 1.239198502153726622e-02
1.795216780900955200e+01 1.177000127732753754e+00 2.531617935747476622e-02
1.809511214494705200e+01 1.345945440232753754e+00 3.865236099809976622e-02
1.809315901994705200e+01 7.006653398275375366e-02 3.787416275591226622e-02
1.787440901994705200e+01 2.807598933577537537e-01 4.687684830278726622e-02
1.784682112932205200e+01 4.638653621077537537e-01 5.835145767778726622e-02
1.782094222307205200e+01 6.464825496077537537e-01 6.982606705278726622e-02
1.782533675432205200e+01 8.247052058577537537e-01 8.168214615434976622e-02
1.787660628557205200e+01 9.984112605452537537e-01 9.430116470903726622e-02
1.793959456682205200e+01 1.172361455857753754e+00 1.072101002559122662e-01
1.825819808244705200e+01 1.329099737107753754e+00 1.246966725215372662e-01
1.809669905900955200e+01 6.371887773275375366e-02 1.212176686152872662e-01
1.786745101213455200e+01 2.758770808577537537e-01 1.293811207637247662e-01
1.785512191057205200e+01 4.571514949202537537e-01 1.409320240840372662e-01
1.780336409807205200e+01 6.428204402327537537e-01 1.517047291621622662e-01
1.780116683244705200e+01 8.215313777327537537e-01 1.633471852168497662e-01
1.784853011369705200e+01 9.953595027327537537e-01 1.760272389277872662e-01
1.791749984025955200e+01 1.168577276170253754e+00 1.892566090449747662e-01
1.803615218400955200e+01 1.338987432420253754e+00 2.031726246699747662e-01
1.804542952775955200e+01 6.506165117025375366e-02 2.038592701777872662e-01
1.784242659807205200e+01 2.734356746077537537e-01 2.110003834590372662e-01
1.779665023088455200e+01 4.584942683577537537e-01 2.216052418574747662e-01
1.778651839494705200e+01 6.390362605452537537e-01 2.330340748652872662e-01
1.779542952775955200e+01 8.165264949202537537e-01 2.448596363887247662e-01
1.784437972307205200e+01 9.901104792952537537e-01 2.577075367793497662e-01
1.791469222307205200e+01 1.163328252732753754e+00 2.712115650996622662e-01
1.807619124650955200e+01 1.330564580857753754e+00 2.871875172480997662e-01
1.806032210588455200e+01 5.712708085775375366e-02 2.874011402949747662e-01
1.788551741838455200e+01 2.620831355452537537e-01 2.943286305293497662e-01
1.784669905900955200e+01 4.468975886702537537e-01 3.052996998652872662e-01
1.783949691057205200e+01 6.275616511702537537e-01 3.167132740840372662e-01
1.782692366838455200e+01 8.077374324202537537e-01 3.278979664668497662e-01
1.788649398088455200e+01 9.808331355452537537e-01 3.412341481074747662e-01
1.795106917619705200e+01 1.154905401170253754e+00 3.543872242793497662e-01
1.812709456682205200e+01 1.321531377732753754e+00 3.715075856074747662e-01
1.810499984025955200e+01 4.492004960775375366e-02 3.725146656855997662e-01
1.791090804338455200e+01 2.530499324202537537e-01 3.779467945918497662e-01
1.792250472307205200e+01 4.320050105452537537e-01 3.899096852168497662e-01
1.787208968400955200e+01 6.184063777327537537e-01 3.997973805293497662e-01
1.787440901994705200e+01 7.974835261702537537e-01 4.113788014277872662e-01
1.793971663713455200e+01 9.704571589827537537e-01 4.251422291621622662e-01
1.803664046525955200e+01 1.142454229295253754e+00 4.401263600215372662e-01
1.820045882463455200e+01 1.310789190232753754e+00 4.575976734980997662e-01
1.818458968400955200e+01 2.795227617025375366e-02 4.589099293574747662e-01
1.795521956682205200e+01 2.414532527327537537e-01 4.620990162715372662e-01
1.792885237932205200e+01 4.255352839827537537e-01 4.726275807246622662e-01
1.799928694963455200e+01 5.986309871077537537e-01 4.868335133418497662e-01
1.806996566057205200e+01 7.720929011702537537e-01 5.010852223262247662e-01
1.818495589494705200e+01 9.426251277327537537e-01 5.171527272090372662e-01
1.833302718400955200e+01 1.113035283982753754e+00 5.347308522090372662e-01
1.850404769182205200e+01 1.283811651170253754e+00 5.533465748652872662e-01
1.834914046525955200e+01 -1.222528517246246338e-03 5.500049000605997662e-01
1.812086898088455200e+01 2.139874324202537537e-01 5.522021656855997662e-01
1.825429183244705200e+01 3.804913386702537537e-01 5.693835621699747662e-01
1.837770491838455200e+01 5.509014949202537537e-01 5.863208180293497662e-01
1.856081038713455200e+01 7.169171199202537537e-01 6.059588795527872662e-01
1.880202132463455200e+01 8.808575496077537537e-01 6.283587818965372662e-01
1.917042952775955200e+01 1.039671026170253754e+00 6.568011647090372662e-01
1.937965804338455200e+01 1.216184698045253754e+00 6.784076100215372662e-01
1.886500960588455200e+01 -8.032409101724624634e-02 6.582354908809122662e-01
1.881129866838455200e+01 1.173077449202537537e-01 6.677111988887247662e-01
1.888368636369705200e+01 2.982159480452537537e-01 6.830005055293497662e-01
1.891908675432205200e+01 4.848614558577537537e-01 6.966418629512247662e-01
2.021461898088455200e+01 5.436993464827537537e-01 7.709674244746622662e-01
1.900478011369705200e+01 -1.062029972672462463e-01 7.528552418574747662e-01
1.926076155900955200e+01 5.200012773275375366e-02 7.778491383418497662e-01
2.021986800432205200e+01 5.367413386702537537e-01 8.642444020137247662e-01
1.911122542619705200e+01 -1.275653019547462463e-01 8.465136891230997662e-01
4.605971175432205200e+01 -3.496461786329746246e+00 2.355546892248099766e+00
4.613014632463455200e+01 -3.039918817579746246e+00 2.388231218419974766e+00
2.107680159807205200e+01 4.431134089827537537e-01 1.007005632482474766e+00
1.968324691057205200e+01 9.799786433577537537e-01 9.513720875605997662e-01
1.926540023088455200e+01 -1.557635441422462463e-01 9.445056324824747662e-01
4.603541976213455200e+01 -3.508058466017246246e+00 2.567048967443412266e+00
4.559584456682205200e+01 -2.989259637892246246e+00 2.568834245763724766e+00
1.955788069963455200e+01 3.952618464827537537e-01 9.977893238887247662e-01
2.088087874650955200e+01 4.565411433577537537e-01 1.091905534826224766e+00
2.028224593400955200e+01 7.210675105452537537e-01 1.067247331701224766e+00
3.723158675432205200e+01 -4.664324894547462463e-01 2.152162492834037266e+00
1.944459944963455200e+01 -1.876238957047462463e-01 1.045106828771537266e+00
1.948659163713455200e+01 3.416143357753753662e-03 1.059785783849662266e+00
1.952565413713455200e+01 1.953106746077537537e-01 1.074312151037162266e+00
1.958412581682205200e+01 3.861065730452537537e-01 1.090181291662162266e+00
1.969386702775955200e+01 5.716534480452537537e-01 1.109468401037162266e+00
3.732301741838455200e+01 -4.855975285172462463e-01 2.330614030919974766e+00
4.364943343400955200e+01 -3.662233270704746246e+00 2.802843034826224766e+00
4.406276351213455200e+01 -3.275148309767246246e+00 2.857149065099662266e+00
4.561134749650955200e+01 -3.020265497267246246e+00 2.992555559240287266e+00
4.554506331682205200e+01 -2.551149286329746246e+00 3.015733659826224766e+00
4.574892073869705200e+01 -2.113649286329746246e+00 3.057924211584037266e+00
3.713197737932205200e+01 -8.547381535172462463e-01 2.466066301427787266e+00
3.723292952775955200e+01 -4.896258488297462463e-01 2.495912492834037266e+00
4.344606429338455200e+01 -3.647218622267246246e+00 2.990175188146537266e+00
4.385670882463455200e+01 -3.261842645704746246e+00 3.046968401037162266e+00
4.618532210588455200e+01 -3.105714716017246246e+00 3.247545183263724766e+00
4.587465316057205200e+01 -2.603029169142246246e+00 3.252138078771537266e+00
4.574342757463455200e+01 -2.127565301954746246e+00 3.269823015294974766e+00
4.672194319963455200e+01 -1.759035028517246246e+00 3.372240007482474766e+00
4.360023909807205200e+01 -3.683595575392246246e+00 3.204744279943412266e+00
4.391371566057205200e+01 -3.283693231642246246e+00 3.255678117834037266e+00
4.549599105119705200e+01 -3.035280145704746246e+00 3.406557024084037266e+00
4.543336898088455200e+01 -2.567384637892246246e+00 3.428911150060599766e+00
4.591981917619705200e+01 -2.160158075392246246e+00 3.495286882482474766e+00
4.684376937150955200e+01 -1.785036005079746246e+00 3.597688615880912266e+00
4.696315413713455200e+01 -1.323610223829746246e+00 3.636613786779349766e+00
3.844801741838455200e+01 -2.292498722672462463e-01 2.963029802404349766e+00
4.347926741838455200e+01 -3.680299676954746246e+00 3.398042619787162266e+00
4.359083968400955200e+01 -3.254518426954746246e+00 3.432237566076224766e+00
4.599232894182205200e+01 -3.111452020704746246e+00 3.660005510412162266e+00
4.534657698869705200e+01 -2.572023309767246246e+00 3.632814348302787266e+00
4.892360335588455200e+01 -2.486452020704746246e+00 3.964540422521537266e+00
3.658375960588455200e+01 -8.381365910172462463e-01 2.934648454748099766e+00
3.867201644182205200e+01 -6.446551457047462463e-01 3.136781633459037266e+00
3.711403304338455200e+01 -9.257830753922462463e-01 2.426073015294974766e+00
3.721535140275955200e+01 -5.544451847672462463e-01 2.456773698888724766e+00
3.734853011369705200e+01 -1.828631535172462463e-01 2.489900529943412266e+00
4.358327132463455200e+01 -3.359865106642246246e+00 2.975358903966849766e+00
4.573024398088455200e+01 -3.185304559767246246e+00 3.159425676427787266e+00
4.549306136369705200e+01 -2.687868036329746246e+00 3.170839250646537266e+00
4.578957015275955200e+01 -2.251832880079746246e+00 3.221559465490287266e+00
4.673048812150955200e+01 -1.875245966017246246e+00 3.320680559240287266e+00
3.727443343400955200e+01 -5.716570988297462463e-01 2.637254655919974766e+00
3.984181624650955200e+01 -3.878192082047462463e-01 2.855836809240287266e+00
3.839174300432205200e+01 1.159649714827537537e-01 2.769700944982474766e+00
4.358449202775955200e+01 -3.374635614454746246e+00 3.182069719396537266e+00
4.387196761369705200e+01 -2.962526239454746246e+00 3.231737077794974766e+00
4.542946273088455200e+01 -2.695314325392246246e+00 3.379838884435599766e+00
4.566640120744705200e+01 -2.253541864454746246e+00 3.427003801427787266e+00
4.682594710588455200e+01 -1.899660028517246246e+00 3.547532976232474766e+00
4.695253401994705200e+01 -1.432741083204746246e+00 3.586809099279349766e+00
3.955653792619705200e+01 -3.784197941422462463e-01 3.020952165685599766e+00
3.523170882463455200e+01 3.176251277327537537e-01 2.694215715490287266e+00
4.357252913713455200e+01 -3.387697137892246246e+00 3.387803972326224766e+00
4.591896468400955200e+01 -3.239992059767246246e+00 3.606721819005912266e+00
4.538185530900955200e+01 -2.704713739454746246e+00 3.590806902013724766e+00
4.897890120744705200e+01 -2.626832880079746246e+00 3.919099748693412266e+00
3.656630355119705200e+01 -9.084490910172462463e-01 2.906511247716849766e+00
4.685121566057205200e+01 -1.439088739454746246e+00 3.799608171544974766e+00
3.952309066057205200e+01 -3.885516300797462463e-01 3.203981340490287266e+00
3.507289534807205200e+01 3.171368464827537537e-01 2.847246110998099766e+00
3.534157210588455200e+01 2.568341121077537537e-01 2.720109880529349766e+00
3.502345687150955200e+01 6.451397761702537537e-01 2.717195451818412266e+00
3.568056136369705200e+01 5.660382136702537537e-01 2.422441423498099766e+00
3.817628890275955200e+01 8.089581355452537537e-01 2.627031267248099766e+00
3.775917464494705200e+01 1.240598760545253754e+00 2.624605119787162266e+00
4.928004866838455200e+01 -3.011842645704746246e+00 3.451890886388724766e+00
4.573830062150955200e+01 -2.098878778517246246e+00 3.229463518224662266e+00
3.713673812150955200e+01 -7.576922550797462463e-01 2.629640520177787266e+00
3.960023909807205200e+01 -5.712908878922462463e-01 2.839250505529349766e+00
3.567299300432205200e+01 5.535870417952537537e-01 2.600252092443412266e+00
3.822133284807205200e+01 7.924786433577537537e-01 2.821184099279349766e+00
3.813148909807205200e+01 1.208982549607753754e+00 2.841844499669974766e+00
4.544435530900955200e+01 -2.572389520704746246e+00 3.400804460607474766e+00
4.587160140275955200e+01 -2.130128778517246246e+00 3.465196550451224766e+00
4.681032210588455200e+01 -1.730836786329746246e+00 3.571214616857474766e+00
3.976869612932205200e+01 -6.008319035172462463e-01 3.050355852209037266e+00
3.557643538713455200e+01 1.602764949202537537e-01 2.746110857091849766e+00
3.498012191057205200e+01 5.884991511702537537e-01 2.724122942052787266e+00
3.501417952775955200e+01 9.681378230452537537e-01 2.752275407873099766e+00
3.523659163713455200e+01 1.337278448045253754e+00 2.796617448888724766e+00
1.243410140275955200e+01 6.441038213670253754e+00 1.867830217443412266e+00
1.532130843400955200e+01 6.907224737107753754e+00 2.164567888341849766e+00
1.695485335588455200e+01 7.343504033982753754e+00 2.346071184240287266e+00
9.566547691822052002e+00 7.095457158982753754e+00 1.661287248693412266e+00
9.707416832447052002e+00 7.374876104295253754e+00 1.696016252599662266e+00
8.549091637134552002e+00 7.527097783982753754e+00 1.604356706701224766e+00
8.574848473072052002e+00 7.408567510545253754e+00 1.702699602209037266e+00
8.487079918384552002e+00 7.670530401170253754e+00 1.715455949865287266e+00
8.834492027759552002e+00 7.979002080857753754e+00 1.771852434240287266e+00
1.033852034807205200e+01 8.430173955857753754e+00 1.946489275060599766e+00
1.149684554338455200e+01 9.356931768357753754e+00 2.207689226232474766e+00
1.014723616838455200e+01 8.347898565232753754e+00 1.912813127599662266e+00
9.403339684009552002e+00 7.359495244920253754e+00 1.907640398107474766e+00
8.496479332447052002e+00 7.580930791795253754e+00 1.839876115880912266e+00
8.333637535572052002e+00 7.855833135545253754e+00 1.846742570959037266e+00
9.523334801197052002e+00 8.272092901170253754e+00 1.991411150060599766e+00
1.182350569963455200e+01 8.840574346482753754e+00 2.252168596349662266e+00
1.141749984025955200e+01 9.115720830857753754e+00 2.236299455724662266e+00
1.148085433244705200e+01 9.448240362107753754e+00 2.268922746740287266e+00
1.325661116838455200e+01 9.603635869920253754e+00 2.065950334630912266e+00
6.261249840259552002e+00 9.600950323045253754e+00 1.498796403966849766e+00
3.335712730884552002e+00 9.408323369920253754e+00 1.246812761388724766e+00
6.364887535572052002e+00 9.608518682420253754e+00 1.642747819982474766e+00
3.585102379322052002e+00 9.442136846482753754e+00 1.392412126623099766e+00
3.076679527759552002e+00 9.619627080857753754e+00 1.362703264318412266e+00
9.418476402759552002e+00 8.457029424607753754e+00 1.964296281896537266e+00
9.335834801197052002e+00 8.769163213670253754e+00 1.980592668615287266e+00
1.149086409807205200e+01 9.360593877732753754e+00 2.221544206701224766e+00
5.824238121509552002e+00 9.806150518357753754e+00 1.745256364904349766e+00
3.574238121509552002e+00 9.699705205857753754e+00 1.534532487951224766e+00
3.331440269947052002e+00 9.505979619920253754e+00 1.316347063146537266e+00
2.695576012134552002e+00 9.666257940232753754e+00 1.277086198888724766e+00
2.435566246509552002e+00 9.883665166795253754e+00 1.272737444005912266e+00
1.148976546525955200e+01 9.441526494920253754e+00 2.147859514318412266e+00
6.176166832447052002e+00 9.670652471482753754e+00 1.702485979162162266e+00
3.463398277759552002e+00 9.519895635545253754e+00 1.453798235021537266e+00
2.732929527759552002e+00 9.665037237107753754e+00 1.401628435216849766e+00
2.759052574634552002e+00 9.936277471482753754e+00 1.426149309240287266e+00
1.356825667619705200e+01 9.799558721482753754e+00 1.965913713537162266e+00
6.125995934009552002e+00 9.774168096482753754e+00 1.395540178380912266e+00
3.287006676197052002e+00 9.606443487107753754e+00 1.165574968419974766e+00
3.080097496509552002e+00 9.848020635545253754e+00 1.168718278966849766e+00
2.340595543384552002e+00 9.987302862107753754e+00 1.123170793615287266e+00
1.351906234025955200e+01 9.781614385545253754e+00 2.135560930334037266e+00
3.638569176197052002e+00 9.375730596482753754e+00 1.302812517248099766e+00
3.381122887134552002e+00 9.613889776170253754e+00 1.300844133459037266e+00
2.695576012134552002e+00 9.771848760545253754e+00 1.257875383459037266e+00
2.558979332447052002e+00 1.002026184648275375e+01 1.267152727209037266e+00
