1.278212544322013855e+01 -3.395528256893157959e+00 -5.100004965439381976e-01
1.356178852915763855e+01 -3.627339780330657959e+00 -5.214140707626881976e-01
1.449611470103263855e+01 -3.913838803768157959e+00 -5.361082846298756976e-01
1.566957661509513855e+01 -4.287373960018157959e+00 -5.555937582626881976e-01
1.582533833384513855e+01 -4.183858335018157959e+00 -5.467284018173756976e-01
1.587074849009513855e+01 -4.030415952205657959e+00 -5.349486166611256976e-01
1.593520161509513855e+01 -3.884908139705657959e+00 -5.236113363876881976e-01
1.598854634165763855e+01 -3.735494077205657959e+00 -5.124571615830006976e-01
1.281618306040763855e+01 -3.417012631893157959e+00 -4.516661459580006976e-01
1.360048481822013855e+01 -3.650899350643157959e+00 -4.597838217392506976e-01
1.454775044322013855e+01 -3.943379819393157959e+00 -4.699461752548756976e-01
1.573085591197013855e+01 -4.321065366268157959e+00 -4.839842611923756976e-01
1.720046040415763855e+01 -4.799703061580657959e+00 -5.020964438095631976e-01
1.842470356822013855e+01 -5.139180600643157959e+00 -5.128844076767506976e-01
1.850478169322013855e+01 -4.970113217830657959e+00 -5.001128012314381976e-01
1.860390278697013855e+01 -4.809468686580657959e+00 -4.872801596298756976e-01
1.309303852915763855e+01 -3.558125913143157959e+00 -3.976500326767506976e-01
1.363966938853263855e+01 -3.674703061580657959e+00 -3.974058920517506976e-01
1.459963032603263855e+01 -3.972920835018157959e+00 -4.036009604111256976e-01
1.579237934947013855e+01 -4.354878842830657959e+00 -4.121153647080006976e-01
1.726564595103263855e+01 -4.834859311580657959e+00 -4.232237631455006976e-01
1.933168599009513855e+01 -5.537862241268157959e+00 -4.409086996689381976e-01
2.229884907603263855e+01 -6.572163999080657959e+00 -4.680693442001881976e-01
2.239003559947013855e+01 -6.364034116268157959e+00 -4.518797690048756976e-01
2.895534321665763855e+01 -1.138307708501815796e+01 -5.636503988876881976e-01
3.178871724009513855e+01 -1.240443938970565796e+01 -5.773527914658131976e-01
1.595192524790763855e+01 -4.611836850643157959e+00 -3.526823813095631976e-01
1.644411274790763855e+01 -4.658101499080657959e+00 -3.461363608017506976e-01
1.735671040415763855e+01 -4.881612241268157959e+00 -3.435118490830006976e-01
1.944765278697013855e+01 -5.594991147518157959e+00 -3.514006430283131976e-01
2.288881489634513855e+01 -6.828389585018157959e+00 -3.684752279892506976e-01
3.105885884165763855e+01 -9.919698178768157959e+00 -4.210570150986256976e-01
2.960854145884513855e+01 -1.171669524908065796e+01 -4.276182943955006976e-01
3.107277485728263855e+01 -1.207228606939315796e+01 -4.163878256455006976e-01
3.055678364634513855e+01 -1.146669524908065796e+01 -3.880980307236256976e-01
3.083717915415763855e+01 -1.123952239751815796e+01 -3.661253744736256976e-01
3.142214009165763855e+01 -1.114552825689315796e+01 -3.457854086533131976e-01
3.158107563853263855e+01 -1.085634368658065796e+01 -3.225615317001881976e-01
2.730824849009513855e+01 -8.698384702205657959e+00 -2.800810629501881976e-01
2.935024067759513855e+01 -1.160072845220565796e+01 -2.818968588486256976e-01
2.944093891978263855e+01 -1.129860442876815796e+01 -2.588560873642506976e-01
3.016396138072013855e+01 -1.129408782720565796e+01 -2.381804281845631976e-01
3.041591450572013855e+01 -1.105861419439315796e+01 -2.157194906845631976e-01
3.150356099009513855e+01 -1.119362396001815796e+01 -1.938841635361256976e-01
3.165883442759513855e+01 -1.090175384283065796e+01 -1.704619223251881976e-01
3.725319477915763855e+01 -1.290163177251815796e+01 -1.433165365830006976e-01
2.909267231822013855e+01 -1.148500579595565796e+01 -1.379759604111256976e-01
2.876662251353263855e+01 -1.098500579595565796e+01 -1.168425375595631976e-01
2.920534321665763855e+01 -1.085536712408065796e+01 -9.442737642675069765e-02
3.139711567759513855e+01 -1.151918548345565796e+01 -6.555774752050069765e-02
3.731264302134513855e+01 -1.379433196783065796e+01 -1.824024263768819765e-02
3.173671528697013855e+01 -1.094728606939315796e+01 -1.833179537206319765e-02
3.729579731822013855e+01 -1.293337005376815796e+01 3.576061185449930235e-02
2.904323384165763855e+01 -1.147182220220565796e+01 3.900260291999302353e-03
2.868080708384513855e+01 -1.095473235845565796e+01 2.243968900293680235e-02
2.907741352915763855e+01 -1.080641692876815796e+01 4.680797513574930235e-02
3.083766743540763855e+01 -1.127492278814315796e+01 8.240673001856180235e-02
3.133156391978263855e+01 -1.114052337408065796e+01 1.087281411513743024e-01
3.702687641978263855e+01 -1.325612396001815796e+01 1.870362466201243024e-01
3.770021626353263855e+01 -1.311781829595565796e+01 2.191865151748118024e-01
4.241957661509513855e+01 -1.463112396001815796e+01 2.986848061904368024e-01
2.887428852915763855e+01 -1.139967864751815796e+01 1.447541421279368024e-01
2.890712544322013855e+01 -1.107509368658065796e+01 1.654298013076243024e-01
2.900624653697013855e+01 -1.078395599126815796e+01 1.868073647841868024e-01
3.067580220103263855e+01 -1.121230071783065796e+01 2.293488686904368024e-01
3.156435200572013855e+01 -1.125612396001815796e+01 2.629639809951243024e-01
3.739882466197013855e+01 -1.343153899908065796e+01 3.712403481826243024e-01
3.740797993540763855e+01 -1.300832122564315796e+01 3.968293374404368024e-01
3.056581684947013855e+01 -1.224892181158065796e+01 3.136689370498118024e-01
3.106288716197013855e+01 -1.212770599126815796e+01 3.429963296279368024e-01
2.941188618540763855e+01 -1.098610442876815796e+01 3.346192544326243024e-01
3.719789692759513855e+01 -1.421645110845565796e+01 4.983460610732493024e-01
3.754726216197013855e+01 -1.394142669439315796e+01 5.299164956435618024e-01
3.767885395884513855e+01 -1.356728118658065796e+01 5.574128335341868024e-01
3.723940083384513855e+01 -1.295070403814315796e+01 5.732209390029368024e-01
3.059560200572013855e+01 -1.227577728033065796e+01 4.650056069716868024e-01
3.095131489634513855e+01 -1.208595794439315796e+01 4.930970376357493024e-01
2.912734028697013855e+01 -1.086330169439315796e+01 4.715974038466868024e-01
3.724184224009513855e+01 -1.425087493658065796e+01 6.816498940810618024e-01
3.759181782603263855e+01 -1.397560638189315796e+01 7.142121499404368024e-01
3.778383442759513855e+01 -1.362709563970565796e+01 7.430970376357493024e-01
3.755776020884513855e+01 -1.309938567876815796e+01 7.614075845107493024e-01
8.262734028697013855e+01 -3.123878997564315796e+01 1.965768546424811802e+00
3.063026997447013855e+01 -1.230507415533065796e+01 6.160676186904368024e-01
3.080202290415763855e+01 -1.202577728033065796e+01 6.402833169326243024e-01
3.587550923228263855e+01 -1.405788177251815796e+01 8.015076821669993024e-01
3.728566548228263855e+01 -1.428517669439315796e+01 8.645112222060618024e-01
8.225246235728263855e+01 -3.398097747564315796e+01 2.202752799354499302e+00
9.035439106822013855e+01 -3.654848235845565796e+01 2.496728629432624302e+00
3.024770161509513855e+01 -1.212709563970565796e+01 7.550904458388743024e-01
3.081740376353263855e+01 -1.204518646001815796e+01 7.921540444716868024e-01
3.682143208384513855e+01 -1.451833099126815796e+01 1.008325309120124302e+00
8.004408833384513855e+01 -3.396852630376815796e+01 2.484735221229499302e+00
3.052052876353263855e+01 -1.227455657720565796e+01 9.136445229873118024e-01
5.383437153697013855e+01 -2.321486419439315796e+01 1.805749625526374302e+00
3.647731587290763855e+01 -1.437001556158065796e+01 1.176645011268561802e+00
3.737013813853263855e+01 -1.435268157720565796e+01 1.232660025916999302e+00
3.754372212290763855e+01 -1.399660247564315796e+01 1.261209220252936802e+00
9.045119282603263855e+01 -3.665968841314315796e+01 3.394143790565436802e+00
3.054945942759513855e+01 -1.230104583501815796e+01 1.065622062049811802e+00
3.757448384165763855e+01 -1.534743255376815796e+01 1.381402701698249302e+00
3.719667622447013855e+01 -1.472438567876815796e+01 1.386514396034186802e+00
3.771974751353263855e+01 -1.452797454595565796e+01 1.430474967323249302e+00
7.873561665415763855e+01 -3.249757903814315796e+01 3.269967765174811802e+00
8.178615376353263855e+01 -3.290834563970565796e+01 3.451394767127936802e+00
8.139809224009513855e+01 -3.179030364751815796e+01 3.479684562049811802e+00
7.988136860728263855e+01 -3.022658294439315796e+01 3.457086295448249302e+00
5.508095356822013855e+01 -2.452748626470565796e+01 2.372018546424811802e+00
3.722328755259513855e+01 -1.519167083501815796e+01 1.550927848182624302e+00
3.721059224009513855e+01 -1.474538177251815796e+01 1.570687980018561802e+00
8.042397114634513855e+01 -3.423744720220565796e+01 3.701104850135749302e+00
7.880617329478263855e+01 -3.255983489751815796e+01 3.665231437049811802e+00
8.168080708384513855e+01 -3.289357513189315796e+01 3.851510733924811802e+00
9.075954243540763855e+01 -3.580397552251815796e+01 4.353936881385749302e+00
7.981532856822013855e+01 -3.022890228033065796e+01 3.843942374549811802e+00
3.752602192759513855e+01 -1.580165618658065796e+01 1.731591910682624302e+00
5.395693013072013855e+01 -2.333839935064315796e+01 2.618036002479499302e+00
5.279591938853263855e+01 -2.214333099126815796e+01 2.584756583534186802e+00
5.372316548228263855e+01 -2.194399017095565796e+01 2.662561148963874302e+00
8.096950337290763855e+01 -3.356264251470565796e+01 4.173166007362311802e+00
8.199721333384513855e+01 -3.306313079595565796e+01 4.271798819862311802e+00
8.316957661509513855e+01 -3.260597747564315796e+01 4.379281730018561802e+00
7.952589985728263855e+01 -3.013881438970565796e+01 4.219903678260749302e+00
5.200673481822013855e+01 -2.303847259283065796e+01 2.748864859901374302e+00
3.587489888072013855e+01 -1.456508392095565796e+01 1.841073722206061802e+00
3.606874653697013855e+01 -1.423280853033065796e+01 1.870416373573249302e+00
5.354433247447013855e+01 -2.188222259283065796e+01 2.918847770057624302e+00
8.234718891978263855e+01 -3.421388763189315796e+01 4.658548087440436802e+00
8.034657856822013855e+01 -3.237135833501815796e+01 4.579614371620124302e+00
7.953127095103263855e+01 -3.108681243658065796e+01 4.570138663612311802e+00
7.938832661509513855e+01 -3.011147063970565796e+01 4.600351065956061802e+00
5.296974751353263855e+01 -2.354018157720565796e+01 3.070871085487311802e+00
3.563405415415763855e+01 -1.446193450689315796e+01 2.003717154823249302e+00
3.610988423228263855e+01 -1.426637786626815796e+01 2.050119132362311802e+00
8.050649067759513855e+01 -3.436977142095565796e+01 4.909555167518561802e+00
7.822304341197013855e+01 -3.238832610845565796e+01 4.800958365760749302e+00
7.779042622447013855e+01 -3.128114837408065796e+01 4.810083121620124302e+00
8.202016255259513855e+01 -3.217860931158065796e+01 5.125985831581061802e+00
8.037160298228263855e+01 -3.054909271001815796e+01 5.055612296424811802e+00
3.529384419322013855e+01 -1.473146575689315796e+01 2.140908927284186802e+00
3.517250630259513855e+01 -1.425111907720565796e+01 2.148004264198249302e+00
3.522499653697013855e+01 -1.386012786626815796e+01 2.167703360877936802e+00
7.827455708384513855e+01 -3.336842864751815796e+01 5.158593863807624302e+00
7.769765278697013855e+01 -3.218178313970565796e+01 5.154321402870124302e+00
8.557021138072013855e+01 -3.472511810064315796e+01 5.740899772010749302e+00
7.964735981822013855e+01 -3.119630950689315796e+01 5.362100333534186802e+00
8.692384907603263855e+01 -3.330019134283065796e+01 5.916116446815436802e+00
1.598879048228263855e+01 -3.735005795955657959e+00 -5.124113852158131976e-01
1.605031391978263855e+01 -3.589009702205657959e+00 -5.011503988876881976e-01
1.610109516978263855e+01 -3.438619077205657959e+00 -4.900267416611256976e-01
1.615199849009513855e+01 -3.287862241268157959e+00 -4.788878256455006976e-01
1.620277974009513855e+01 -3.137593686580657959e+00 -4.677794272080006976e-01
1.627431294322013855e+01 -2.994893491268157959e+00 -4.570830160751881976e-01
1.635524556040763855e+01 -2.854268491268157959e+00 -4.464934164658131976e-01
1.642592427134513855e+01 -2.710347592830657959e+00 -4.361174399033131976e-01
1.860512349009513855e+01 -4.809224545955657959e+00 -4.872649008408131976e-01
1.868324849009513855e+01 -4.639546811580657959e+00 -4.745238119736256976e-01
1.878102681040763855e+01 -4.477193295955657959e+00 -4.616301352158131976e-01
1.885964009165763855e+01 -4.306050717830657959e+00 -4.487974936142506976e-01
1.893800923228263855e+01 -4.135396420955657959e+00 -4.359801108017506976e-01
1.901650044322013855e+01 -3.964375913143157959e+00 -4.231474692001881976e-01
1.907533833384513855e+01 -3.785664975643157959e+00 -4.104368979111256976e-01
1.915395161509513855e+01 -3.614278256893157959e+00 -3.975889975205006976e-01
2.239101216197013855e+01 -6.363545835018157959e+00 -4.518339926376881976e-01
2.247145649790763855e+01 -6.151021420955657959e+00 -4.360564047470631976e-01
2.262343403697013855e+01 -5.966206967830657959e+00 -4.211333090439381976e-01
2.279677388072013855e+01 -5.786763608455657959e+00 -4.062559897080006976e-01
2.297096821665763855e+01 -5.606343686580657959e+00 -3.913176352158131976e-01
2.314674946665763855e+01 -5.424336850643157959e+00 -3.762419516220631976e-01
2.332460591197013855e+01 -5.240132749080657959e+00 -3.609679037705006976e-01
2.345631977915763855e+01 -5.039327085018157959e+00 -3.452513510361256976e-01
3.106044575572013855e+01 -9.919087827205657959e+00 -4.209807211533131976e-01
3.138588520884513855e+01 -9.703999936580657959e+00 -3.995726400986256976e-01
3.184779927134513855e+01 -9.536641538143157959e+00 -3.795683676376881976e-01
3.237953755259513855e+01 -9.386250913143157959e+00 -3.593809897080006976e-01
3.292482563853263855e+01 -9.232564389705657959e+00 -3.387205893173756976e-01
3.348537251353263855e+01 -9.074605405330657959e+00 -3.174650961533131976e-01
3.585463520884513855e+01 -9.522481381893157959e+00 -3.025267416611256976e-01
4.125160786509513855e+01 -1.092140716314315796e+01 -2.949431234970631976e-01
5.219228169322013855e+01 -1.511403411626815796e+01 -1.201231772080006976e-01
4.870424458384513855e+01 -1.339809173345565796e+01 -8.896472994237569765e-02
5.229836079478263855e+01 -1.516835540533065796e+01 1.280762856826243024e-01
4.857143208384513855e+01 -1.337074798345565796e+01 1.387726968154368024e-01
4.877040669322013855e+01 -1.345314544439315796e+01 3.702943032607493024e-01
4.242311665415763855e+01 -1.463087981939315796e+01 2.988221352919993024e-01
4.917348286509513855e+01 -1.360329192876815796e+01 6.059205239638743024e-01
4.970082661509513855e+01 -1.379506438970565796e+01 8.493745034560618024e-01
5.066103169322013855e+01 -1.413100188970565796e+01 1.107949942909186802e+00
8.263258931040763855e+01 -3.123769134283065796e+01 1.966088980995124302e+00
8.246388813853263855e+01 -3.119875091314315796e+01 2.363931388221686802e+00
7.987648579478263855e+01 -3.022133392095565796e+01 3.457010001502936802e+00
7.981581684947013855e+01 -3.022597259283065796e+01 3.844110221229499302e+00
8.386379048228263855e+01 -3.094276946783065796e+01 4.096597403846686802e+00
7.953310200572013855e+01 -3.013869231939315796e+01 4.220437735877936802e+00
7.956728169322013855e+01 -2.924416106939315796e+01 4.262368888221686802e+00
8.378590962290763855e+01 -2.999184173345565796e+01 4.544885367713874302e+00
7.939162251353263855e+01 -3.010963958501815796e+01 4.600671500526374302e+00
7.965468403697013855e+01 -2.930873626470565796e+01 4.657418937049811802e+00
8.326454731822013855e+01 -2.981837981939315796e+01 4.921670646034186802e+00
8.036879536509513855e+01 -3.054469817876815796e+01 5.055551261268561802e+00
8.362904927134513855e+01 -3.094093841314315796e+01 5.311883658729499302e+00
8.287270161509513855e+01 -2.969521087408065796e+01 5.300012320838874302e+00
8.692531391978263855e+01 -3.329738372564315796e+01 5.916330069862311802e+00
8.260390278697013855e+01 -3.055788177251815796e+01 5.646722525916999302e+00
8.315407368540763855e+01 -2.983595794439315796e+01 5.725228995643561802e+00
1.642629048228263855e+01 -2.709859311580657959e+00 -4.360869223251881976e-01
1.650502583384513855e+01 -2.568135678768157959e+00 -4.255125815048756976e-01
1.657375141978263855e+01 -2.422383725643157959e+00 -4.151060873642506976e-01
1.664284321665763855e+01 -2.275777280330657959e+00 -4.046385580673756976e-01
1.671193501353263855e+01 -2.129170835018157959e+00 -3.941862875595631976e-01
1.678127095103263855e+01 -1.982198178768157959e+00 -3.836882406845631976e-01
1.685109516978263855e+01 -1.834126889705657959e+00 -3.731138998642506976e-01
1.691017720103263855e+01 -1.683370053768157959e+00 -3.628142172470631976e-01
1.915370747447013855e+01 -3.613545835018157959e+00 -3.975432211533131976e-01
1.921022602915763855e+01 -3.434712827205657959e+00 -3.848936850205006976e-01
1.928676411509513855e+01 -3.261983335018157959e+00 -3.720152670517506976e-01
1.934364888072013855e+01 -3.082173764705657959e+00 -3.593046957626881976e-01
1.935793110728263855e+01 -2.890767514705657959e+00 -3.462126547470631976e-01
1.935133931040763855e+01 -2.694478452205657959e+00 -3.329832846298756976e-01
1.932851216197013855e+01 -2.494405210018157959e+00 -3.201201254501881976e-01
1.932204243540763855e+01 -2.300801694393157959e+00 -3.070738608017506976e-01
2.345546528697013855e+01 -5.038228452205657959e+00 -3.451903158798756976e-01
2.343202778697013855e+01 -4.786641538143157959e+00 -3.288023764267506976e-01
2.340883442759513855e+01 -4.537007749080657959e+00 -3.125517660751881976e-01
2.338576313853263855e+01 -4.288594663143157959e+00 -2.963774496689381976e-01
2.340187641978263855e+01 -4.054219663143157959e+00 -2.805846029892506976e-01
2.369936177134513855e+01 -3.898213803768157959e+00 -2.660887533798756976e-01
2.404323384165763855e+01 -3.748799741268157959e+00 -2.513792807236256976e-01
2.519081684947013855e+01 -3.798482358455657959e+00 -2.387297445908131976e-01
4.125734516978263855e+01 -1.092165130376815796e+01 -2.948668295517506976e-01
9.061147114634513855e+01 -2.623097747564315796e+01 -3.858092123642506976e-01
4.994692036509513855e+01 -1.272328704595565796e+01 -2.518217856064381976e-01
4.922670552134513855e+01 -1.197878021001815796e+01 -2.165434652939381976e-01
6.939540669322013855e+01 -1.723976653814315796e+01 -1.893370443955006976e-01
5.992397114634513855e+01 -1.326845306158065796e+01 -1.044066244736256976e-01
4.870448872447013855e+01 -1.339638274908065796e+01 -8.885791841893819765e-02
4.860512349009513855e+01 -1.284328216314315796e+01 -5.582264009862569765e-02
4.895570942759513855e+01 -1.243410247564315796e+01 -2.173450533300069765e-02
4.912453266978263855e+01 -1.196449798345565796e+01 1.207897122949930235e-02
8.862111470103263855e+01 -2.277760833501815796e+01 2.201478188857493024e-01
6.397426411509513855e+01 -1.503432220220565796e+01 1.538483804091868024e-01
5.916261860728263855e+01 -1.308559173345565796e+01 1.688172524794993024e-01
5.554323384165763855e+01 -1.154897063970565796e+01 1.845795815810618024e-01
4.856972309947013855e+01 -1.336830657720565796e+01 1.388642495498118024e-01
4.886733052134513855e+01 -1.294350188970565796e+01 1.747376626357493024e-01
4.907485005259513855e+01 -1.248732513189315796e+01 2.089020913466868024e-01
4.926527974009513855e+01 -1.202272552251815796e+01 2.431275552138743024e-01
6.616664692759513855e+01 -1.635817474126815796e+01 4.312989419326243024e-01
6.679323384165763855e+01 -1.583449310064315796e+01 4.810731118544993024e-01
6.692336079478263855e+01 -1.516725677251815796e+01 5.263459390029368024e-01
6.224770161509513855e+01 -1.327724212408065796e+01 5.159241860732493024e-01
4.876869770884513855e+01 -1.345070403814315796e+01 3.703858559951243024e-01
4.878944966197013855e+01 -1.293495696783065796e+01 4.026276772841868024e-01
4.903175923228263855e+01 -1.249025481939315796e+01 4.375092690810618024e-01
4.949379536509513855e+01 -1.210719817876815796e+01 4.755799477919993024e-01
6.690907856822013855e+01 -1.659328216314315796e+01 7.508637612685618024e-01
6.678944966197013855e+01 -1.585524505376815796e+01 7.922913735732493024e-01
6.967616841197013855e+01 -1.592128509283065796e+01 8.794190591201243024e-01
4.917201802134513855e+01 -1.360097259283065796e+01 6.059968179091868024e-01
4.927809712290763855e+01 -1.310793060064315796e+01 6.393677895888743024e-01
4.958437153697013855e+01 -1.267775481939315796e+01 6.774384682998118024e-01
5.014784809947013855e+01 -1.231886810064315796e+01 7.192475503310618024e-01
6.586122700572013855e+01 -1.631374114751815796e+01 1.045724601112311802e+00
6.746523091197013855e+01 -1.606435149908065796e+01 1.118463248573249302e+00
6.907411763072013855e+01 -1.578322356939315796e+01 1.191537589393561802e+00
6.712087056040763855e+01 -1.456349700689315796e+01 1.194360465370124302e+00
4.970888325572013855e+01 -1.379591888189315796e+01 8.496491616591868024e-01
5.112245747447013855e+01 -1.317091888189315796e+01 9.434601968154368024e-01
6.901161763072013855e+01 -1.578896087408065796e+01 1.513162345252936802e+00
6.624696919322013855e+01 -1.436122649908065796e+01 1.485147208534186802e+00
5.066213032603263855e+01 -1.412941497564315796e+01 1.108072013221686802e+00
5.036305806040763855e+01 -1.348964446783065796e+01 1.131372184120124302e+00
5.065907856822013855e+01 -1.304420989751815796e+01 1.170205802284186802e+00
6.749574849009513855e+01 -1.682863372564315796e+01 1.708108634315436802e+00
6.912465474009513855e+01 -1.656911224126815796e+01 1.796045035682624302e+00
6.934694477915763855e+01 -1.590077728033065796e+01 1.844369620643561802e+00
6.599294087290763855e+01 -1.431715911626815796e+01 1.784814566932624302e+00
6.759547993540763855e+01 -1.687978118658065796e+01 2.029184073768561802e+00
6.623537251353263855e+01 -1.578822845220565796e+01 2.023355216346686802e+00
6.633510395884513855e+01 -1.442616790533065796e+01 2.104654044471686802e+00
6.716078755259513855e+01 -1.677626556158065796e+01 2.329416007362311802e+00
6.813429829478263855e+01 -1.490993255376815796e+01 2.483941764198249302e+00
6.805324360728263855e+01 -1.705678313970565796e+01 2.682214469276374302e+00
6.776955220103263855e+01 -1.625905364751815796e+01 2.708398551307624302e+00
6.743715474009513855e+01 -1.475233978033065796e+01 2.771386832557624302e+00
6.865187641978263855e+01 -1.652748626470565796e+01 3.069329947791999302e+00
6.783070942759513855e+01 -1.558351653814315796e+01 3.067239493690436802e+00
6.896864888072013855e+01 -1.516859954595565796e+01 3.160089225135749302e+00
6.774159809947013855e+01 -1.701125091314315796e+01 3.306115836463874302e+00
6.866139790415763855e+01 -1.655263274908065796e+01 3.391076773963874302e+00
6.787611958384513855e+01 -1.561769622564315796e+01 3.386087149940436802e+00
6.795204731822013855e+01 -1.492836517095565796e+01 3.427957267127936802e+00
6.834242817759513855e+01 -1.576515716314315796e+01 3.731622428260749302e+00
1.691017720103263855e+01 -1.682881772518157959e+00 -3.627836996689381976e-01
1.697438618540763855e+01 -1.532979428768157959e+00 -3.522093588486256976e-01
1.700441548228263855e+01 -1.374532163143157959e+00 -3.416197592392506976e-01
1.703456684947013855e+01 -1.215596616268157959e+00 -3.309996420517506976e-01
1.710170552134513855e+01 -1.065205991268157959e+00 -3.207762533798756976e-01
1.733901020884513855e+01 -9.482626318931579590e-01 -3.120329672470631976e-01
1.783766743540763855e+01 -8.766073584556579590e-01 -3.051512533798756976e-01
1.831300923228263855e+01 -7.916464209556579590e-01 -2.979185873642506976e-01
1.932143208384513855e+01 -2.300069272518157959e+00 -3.070128256455006976e-01
1.929714009165763855e+01 -2.103169858455657959e+00 -2.944243246689381976e-01
1.968202778697013855e+01 -2.002950131893157959e+00 -2.840636068955006976e-01
2.026320454478263855e+01 -1.938374936580657959e+00 -2.747252279892506976e-01
2.127968403697013855e+01 -1.955586850643157959e+00 -2.668669516220631976e-01
2.203395649790763855e+01 -1.899678647518157959e+00 -2.565825277939381976e-01
2.364235493540763855e+01 -1.991597592830657959e+00 -2.489226156845631976e-01
2.506191059947013855e+01 -2.017964780330657959e+00 -2.381499106064381976e-01
2.519423481822013855e+01 -3.798482358455657959e+00 -2.386839682236256976e-01
2.650234028697013855e+01 -3.864278256893157959e+00 -2.254851156845631976e-01
6.323085591197013855e+01 -1.216066497564315796e+01 -2.681792074814381976e-01
6.707045552134513855e+01 -1.236501067876815796e+01 -2.301695639267506976e-01
6.218324849009513855e+01 -1.064247649908065796e+01 -1.848509604111256976e-01
6.171327778697013855e+01 -9.915791928768157959e+00 -1.445524984970631976e-01
4.929921528697013855e+01 -6.912007749080657959e+00 -1.173308188095631976e-01
7.006252095103263855e+01 -1.522414153814315796e+01 -4.759815279393819765e-02
6.923427388072013855e+01 -1.358180755376815796e+01 4.299327787012430235e-02
6.233730122447013855e+01 -1.133058685064315796e+01 6.212779935449930235e-02
6.214223286509513855e+01 -1.065285247564315796e+01 1.014039224013743024e-01
6.206593891978263855e+01 -1.000587981939315796e+01 1.408631509169993024e-01
4.932582661509513855e+01 -6.931905210018157959e+00 1.077820962294993024e-01
5.551845356822013855e+01 -1.154066985845565796e+01 1.845490640029368024e-01
5.246559712290763855e+01 -1.022206634283065796e+01 1.983430093154368024e-01
5.009963032603263855e+01 -9.130757749080657959e+00 2.133729165419993024e-01
6.233388325572013855e+01 -1.134914153814315796e+01 3.484589761123118024e-01
6.269606587290763855e+01 -1.078969329595565796e+01 3.912751382216868024e-01
4.937306782603263855e+01 -6.955708920955657959e+00 3.322541421279368024e-01
6.224831196665763855e+01 -1.327528899908065796e+01 5.160615151748118024e-01
6.261562153697013855e+01 -1.272108978033065796e+01 5.613343423232493024e-01
5.007192036509513855e+01 -9.139913022518157959e+00 4.438874429091868024e-01
4.774513813853263855e+01 -8.106709897518157959e+00 4.446351235732493024e-01
4.582143208384513855e+01 -7.211934506893157959e+00 4.477479165419993024e-01
4.377223774790763855e+01 -6.333760678768157959e+00 4.464814370498118024e-01
4.217165181040763855e+01 -5.584737241268157959e+00 4.493500893935618024e-01
4.050600239634513855e+01 -4.860127866268157959e+00 4.479920571669993024e-01
6.253346821665763855e+01 -1.272072356939315796e+01 8.491303628310618024e-01
7.027553364634513855e+01 -1.389088958501815796e+01 1.021112174354499302e+00
6.120839497447013855e+01 -1.113576263189315796e+01 9.029938882216868024e-01
6.063783833384513855e+01 -1.038881438970565796e+01 9.300629800185618024e-01
6.183608052134513855e+01 -1.001576751470565796e+01 9.900147622451243024e-01
4.071974751353263855e+01 -4.911153256893157959e+00 6.360261147841868024e-01
6.612856099009513855e+01 -1.430739349126815796e+01 1.173989981971686802e+00
6.637819477915763855e+01 -1.368324798345565796e+01 1.219873160682624302e+00
6.286623188853263855e+01 -1.217397063970565796e+01 1.185022086463874302e+00
6.709450337290763855e+01 -1.247438567876815796e+01 1.318704337440436802e+00
6.092970845103263855e+01 -1.046986907720565796e+01 1.216485709510749302e+00
4.948122212290763855e+01 -6.524312436580657959e+00 1.038675040565436802e+00
6.624416157603263855e+01 -1.435817474126815796e+01 1.485208243690436802e+00
6.611403462290763855e+01 -1.363942474126815796e+01 1.521783561073249302e+00
6.329482075572013855e+01 -1.229433196783065796e+01 1.486413688026374302e+00
6.287734028697013855e+01 -1.154836028814315796e+01 1.512994498573249302e+00
6.167262837290763855e+01 -1.064760345220565796e+01 1.516854972206061802e+00
6.189906880259513855e+01 -1.006618255376815796e+01 1.559823722206061802e+00
4.942445942759513855e+01 -6.528706967830657959e+00 1.262811393104499302e+00
6.598927876353263855e+01 -1.431398528814315796e+01 1.784845084510749302e+00
6.991689106822013855e+01 -1.459523528814315796e+01 1.944711417518561802e+00
6.301784321665763855e+01 -1.224892181158065796e+01 1.769860953651374302e+00
6.256154438853263855e+01 -1.149684661626815796e+01 1.792443961463874302e+00
6.393935200572013855e+01 -1.115248626470565796e+01 1.873880118690436802e+00
4.935390278697013855e+01 -6.530415952205657959e+00 1.484857291541999302e+00
6.633412739634513855e+01 -1.442360442876815796e+01 2.104745597206061802e+00
6.824355122447013855e+01 -1.420558685064315796e+01 2.211190909706061802e+00
6.322731587290763855e+01 -1.231813567876815796e+01 2.069909781776374302e+00
6.264589497447013855e+01 -1.153529876470565796e+01 2.085260123573249302e+00
4.927821919322013855e+01 -6.531148374080657959e+00 1.707330436073249302e+00
6.969301411509513855e+01 -1.530824798345565796e+01 2.545816153846686802e+00
6.850148579478263855e+01 -1.429066985845565796e+01 2.537927359901374302e+00
6.337856099009513855e+01 -1.237355560064315796e+01 2.368142814002936802e+00
6.322939106822013855e+01 -1.168629974126815796e+01 2.398095816932624302e+00
4.924440571665763855e+01 -6.539571225643157959e+00 1.929818839393561802e+00
6.743922993540763855e+01 -1.475050872564315796e+01 2.771585196815436802e+00
6.856020161509513855e+01 -1.432692474126815796e+01 2.859979361854499302e+00
6.293617817759513855e+01 -1.228883880376815796e+01 2.640924186073249302e+00
6.271327778697013855e+01 -1.158937591314315796e+01 2.665902823768561802e+00
4.923525044322013855e+01 -6.552632749080657959e+00 2.154504508338874302e+00
6.895522114634513855e+01 -1.516274017095565796e+01 3.159555167518561802e+00
6.855763813853263855e+01 -1.434804290533065796e+01 3.177987784706061802e+00
6.274379536509513855e+01 -1.161574310064315796e+01 2.958276480995124302e+00
4.920729634165763855e+01 -6.562032163143157959e+00 2.376992911659186802e+00
6.795400044322013855e+01 -1.492653411626815796e+01 3.428170890174811802e+00
5.005885884165763855e+01 -6.734151303768157959e+00 2.651254386268561802e+00
5.019191548228263855e+01 -6.773702085018157959e+00 2.887567252479499302e+00
4.577846333384513855e+01 -6.892842710018157959e+00 2.773996085487311802e+00
4.424892231822013855e+01 -5.686299741268157959e+00 2.719018668495124302e+00
4.954872700572013855e+01 -9.202779233455657959e+00 3.175866813026374302e+00
4.572585102915763855e+01 -7.359151303768157959e+00 2.957635611854499302e+00
4.148500630259513855e+01 -5.601338803768157959e+00 2.701348990760749302e+00
4.130263325572013855e+01 -5.151875913143157959e+00 2.708780021034186802e+00
4.979884907603263855e+01 -8.765889585018157959e+00 3.447488517127936802e+00
4.591213032603263855e+01 -6.948262631893157959e+00 3.203515738807624302e+00
4.995754048228263855e+01 -7.278096616268157959e+00 3.534249991737311802e+00
4.105043599009513855e+01 -5.117330014705657959e+00 2.877893180213874302e+00
4.948464009165763855e+01 -9.218526303768157959e+00 3.628885001502936802e+00
4.744179341197013855e+01 -7.760518491268157959e+00 3.514276236854499302e+00
4.759950825572013855e+01 -7.311788022518157959e+00 3.549737662635749302e+00
4.147707173228263855e+01 -5.624654233455657959e+00 3.079095572791999302e+00
4.123891255259513855e+01 -5.164693295955657959e+00 3.080484122596686802e+00
1.831618306040763855e+01 -7.916464209556579590e-01 -2.979033285751881976e-01
1.883315083384513855e+01 -7.046102881431579590e-01 -2.900450522080006976e-01
1.935976216197013855e+01 -6.091513037681579590e-01 -2.820341879501881976e-01
1.991823384165763855e+01 -5.075888037681579590e-01 -2.735197836533131976e-01
2.073573872447013855e+01 -4.320272803306579590e-01 -2.656767660751881976e-01
2.221877095103263855e+01 -4.269003272056579590e-01 -2.597410971298756976e-01
2.339992329478263855e+01 -3.554891943931579590e-01 -2.507841879501881976e-01
2.566811177134513855e+01 -3.806356787681579590e-01 -2.444060141220631976e-01
2.507143208384513855e+01 -2.018941342830657959e+00 -2.381193930283131976e-01
2.732509419322013855e+01 -2.159200131893157959e+00 -2.281401449814381976e-01
4.276271626353263855e+01 -3.103658139705657959e+00 -1.576292807236256976e-01
3.310646626353263855e+01 -1.525411069393157959e+00 -1.405394369736256976e-01
4.551552388072013855e+01 -5.277120053768157959e+00 -6.403186861425069765e-02
4.278066059947013855e+01 -3.118062436580657959e+00 3.394481595606180235e-02
3.310329243540763855e+01 -1.534200131893157959e+00 7.028312049811802353e-03
4.554274556040763855e+01 -5.295186460018157959e+00 1.426942056044993024e-01
4.278944966197013855e+01 -3.131246030330657959e+00 2.267243569716868024e-01
3.309999653697013855e+01 -1.542989194393157959e+00 1.546113198623118024e-01
4.558778950572013855e+01 -5.316182553768157959e+00 3.488557046279368024e-01
4.254128071665763855e+01 -3.110860288143157959e+00 4.150178140029368024e-01
3.309670063853263855e+01 -1.551778256893157959e+00 3.014619057998118024e-01
4.049464985728263855e+01 -4.856709897518157959e+00 4.479005044326243024e-01
3.896462056040763855e+01 -4.191304624080657959e+00 4.479767983779368024e-01
3.762355610728263855e+01 -3.588765561580657959e+00 4.483430093154368024e-01
3.635194966197013855e+01 -3.023946225643157959e+00 4.482972329482493024e-01
3.514296528697013855e+01 -2.496236264705657959e+00 4.477021401748118024e-01
3.400478169322013855e+01 -2.003194272518157959e+00 4.469086831435618024e-01
3.309352681040763855e+01 -1.560567319393157959e+00 4.491212075576243024e-01
3.192506977915763855e+01 -1.109883725643157959e+00 4.442536538466868024e-01
4.070815083384513855e+01 -4.907613217830657959e+00 6.358735268935618024e-01
3.910964009165763855e+01 -4.227559506893157959e+00 6.263062661513743024e-01
3.764345356822013855e+01 -3.602803647518157959e+00 6.175934975966868024e-01
3.633876606822013855e+01 -3.032369077205657959e+00 6.106965249404368024e-01
3.514052388072013855e+01 -2.505757749080657959e+00 6.045167153701243024e-01
3.401320454478263855e+01 -2.013814389705657959e+00 5.985047524794993024e-01
3.309023091197013855e+01 -1.569356381893157959e+00 5.960480874404368024e-01
3.195180317759513855e+01 -1.121602475643157959e+00 5.870759194716868024e-01
4.948647114634513855e+01 -6.523580014705657959e+00 1.038903922401374302e+00
4.240334126353263855e+01 -3.128804624080657959e+00 9.856202309951243024e-01
4.252956196665763855e+01 -2.310079038143157959e+00 1.036889762245124302e+00
4.942653462290763855e+01 -6.527364194393157959e+00 1.262979239784186802e+00
4.562819477915763855e+01 -4.922627866268157959e+00 1.202813834510749302e+00
4.236513325572013855e+01 -3.135640561580657959e+00 1.174707145057624302e+00
4.271986958384513855e+01 -2.761495053768157959e+00 1.210565299354499302e+00
4.935585591197013855e+01 -6.529073178768157959e+00 1.485025138221686802e+00
4.556044575572013855e+01 -4.924825131893157959e+00 1.406610221229499302e+00
4.628627583384513855e+01 -4.123433530330657959e+00 1.484842032752936802e+00
4.113576313853263855e+01 -2.984883725643157959e+00 1.319177359901374302e+00
4.272658345103263855e+01 -2.774312436580657959e+00 1.402429313026374302e+00
4.928017231822013855e+01 -6.529927670955657959e+00 1.707498282752936802e+00
4.549245259165763855e+01 -4.927022397518157959e+00 1.610955924354499302e+00
4.630812641978263855e+01 -4.139913022518157959e+00 1.695611686073249302e+00
4.144728657603263855e+01 -3.037984311580657959e+00 1.517862052284186802e+00
4.294594380259513855e+01 -2.813252866268157959e+00 1.604486197791999302e+00
4.255812641978263855e+01 -2.348775327205657959e+00 1.611535758338874302e+00
4.924318501353263855e+01 -6.537740170955657959e+00 1.929864615760749302e+00
4.543715474009513855e+01 -4.931172788143157959e+00 1.814233512245124302e+00
4.832607075572013855e+01 -4.921040952205657959e+00 1.970529288612311802e+00
4.476344868540763855e+01 -3.932149350643157959e+00 1.833596915565436802e+00
4.093276020884513855e+01 -2.981221616268157959e+00 1.680093497596686802e+00
4.299269673228263855e+01 -2.830953061580657959e+00 1.799508780799811802e+00
4.923415181040763855e+01 -6.550679624080657959e+00 2.154535025916999302e+00
4.539748188853263855e+01 -4.937886655330657959e+00 2.017846793495124302e+00
4.624452778697013855e+01 -4.615498960018157959e+00 2.085138053260749302e+00
4.465883442759513855e+01 -3.929952085018157959e+00 2.030175895057624302e+00
4.059840962290763855e+01 -2.948262631893157959e+00 1.846856803260749302e+00
4.304811665415763855e+01 -2.849873960018157959e+00 1.996530265174811802e+00
4.270485493540763855e+01 -2.389058530330657959e+00 2.001840323768561802e+00
4.920595356822013855e+01 -6.560079038143157959e+00 2.377008170448249302e+00
4.200905415415763855e+01 -4.813008725643157959e+00 2.018335074745124302e+00
4.206032368540763855e+01 -4.403706967830657959e+00 2.043832511268561802e+00
4.376735493540763855e+01 -4.247823178768157959e+00 2.159936637245124302e+00
5.086733052134513855e+01 -4.834493100643157959e+00 2.575631827674811802e+00
4.053481099009513855e+01 -2.951314389705657959e+00 2.026681632362311802e+00
4.237648579478263855e+01 -2.779073178768157959e+00 2.152154654823249302e+00
4.252321431040763855e+01 -2.380391538143157959e+00 2.183114737831061802e+00
5.007192036509513855e+01 -6.734883725643157959e+00 2.652093619666999302e+00
5.014552876353263855e+01 -6.245870053768157959e+00 2.682138175331061802e+00
4.203969380259513855e+01 -4.412496030330657959e+00 2.232675284706061802e+00
4.378908345103263855e+01 -4.263814389705657959e+00 2.358941764198249302e+00
5.073097798228263855e+01 -4.829488217830657959e+00 2.797830314002936802e+00
4.311940571665763855e+01 -3.308492124080657959e+00 2.365014762245124302e+00
4.237331196665763855e+01 -2.790547788143157959e+00 2.342401236854499302e+00
4.210439106822013855e+01 -2.344624936580657959e+00 2.349206656776374302e+00
5.020070454478263855e+01 -6.773580014705657959e+00 2.888192862831061802e+00
4.198586079478263855e+01 -4.833638608455657959e+00 2.398156852088874302e+00
4.643666645884513855e+01 -5.148824155330657959e+00 2.702722281776374302e+00
4.377040669322013855e+01 -4.273580014705657959e+00 2.556695670448249302e+00
4.632448384165763855e+01 -4.208516538143157959e+00 2.744531363807624302e+00
4.187917134165763855e+01 -3.154439389705657959e+00 2.479577750526374302e+00
4.235683247447013855e+01 -2.800435483455657959e+00 2.532846183143561802e+00
4.245119282603263855e+01 -2.395772397518157959e+00 2.561135978065436802e+00
4.425172993540763855e+01 -5.685323178768157959e+00 2.719293326698249302e+00
4.214882466197013855e+01 -4.874532163143157959e+00 2.599313468299811802e+00
4.182143208384513855e+01 -4.401021420955657959e+00 2.599008292518561802e+00
4.519301411509513855e+01 -4.506368100643157959e+00 2.852243155799811802e+00
4.329396626353263855e+01 -3.783833920955657959e+00 2.744363517127936802e+00
4.036159321665763855e+01 -2.962422788143157959e+00 2.562356681190436802e+00
4.112904927134513855e+01 -2.659932553768157959e+00 2.637124747596686802e+00
4.250514790415763855e+01 -2.413838803768157959e+00 2.756662101112311802e+00
4.130068013072013855e+01 -5.150166928768157959e+00 2.708718985877936802e+00
4.133022114634513855e+01 -4.743306577205657959e+00 2.732171744666999302e+00
4.180275532603263855e+01 -4.410176694393157959e+00 2.787835807166999302e+00
4.579482075572013855e+01 -4.612691342830657959e+00 3.102075309120124302e+00
4.072633931040763855e+01 -3.424458920955657959e+00 2.751291007362311802e+00
4.091078755259513855e+01 -3.047872006893157959e+00 2.785791129432624302e+00
4.003883931040763855e+01 -2.535787045955657959e+00 2.741372794471686802e+00
4.046022602915763855e+01 -2.191792905330657959e+00 2.793451041541999302e+00
4.104579731822013855e+01 -5.115010678768157959e+00 2.877618522010749302e+00
4.223219868540763855e+01 -4.914082944393157959e+00 2.989831656776374302e+00
4.176308247447013855e+01 -4.415791928768157959e+00 2.973962516151374302e+00
4.508217427134513855e+01 -4.515279233455657959e+00 3.254007071815436802e+00
4.052504536509513855e+01 -3.406880795955657959e+00 2.919152945838874302e+00
4.034108540415763855e+01 -2.982564389705657959e+00 2.925012320838874302e+00
3.999843403697013855e+01 -2.542012631893157959e+00 2.919061393104499302e+00
4.038771626353263855e+01 -2.194722592830657959e+00 2.970239371620124302e+00
4.123866841197013855e+01 -5.163228452205657959e+00 3.080529898963874302e+00
4.142275044322013855e+01 -4.783833920955657959e+00 3.115304679237311802e+00
4.178432270884513855e+01 -4.431538999080657959e+00 3.165796012245124302e+00
4.275758931040763855e+01 -4.166768491268157959e+00 3.267236441932624302e+00
4.048305317759513855e+01 -3.412496030330657959e+00 3.099420279823249302e+00
4.001051899790763855e+01 -2.949361264705657959e+00 3.080011100135749302e+00
3.991213032603263855e+01 -2.542378842830657959e+00 3.091623038612311802e+00
4.055873677134513855e+01 -2.225606381893157959e+00 3.167077750526374302e+00
4.177260395884513855e+01 -4.467427670955657959e+00 2.976175040565436802e+00
4.285426899790763855e+01 -4.215474545955657959e+00 3.080804557166999302e+00
4.056386372447013855e+01 -3.441670835018157959e+00 2.925836295448249302e+00
4.034108540415763855e+01 -3.002339780330657959e+00 2.929910392127936802e+00
3.999770161509513855e+01 -2.553365170955657959e+00 2.924203605018561802e+00
4.353761860728263855e+01 -2.567891538143157959e+00 3.226922721229499302e+00
4.182204243540763855e+01 -1.948140561580657959e+00 3.112924308143561802e+00
4.141054341197013855e+01 -4.839742124080657959e+00 3.118890494666999302e+00
4.185219380259513855e+01 -4.493550717830657959e+00 3.175622672401374302e+00
4.172841450572013855e+01 -4.049703061580657959e+00 3.187539786659186802e+00
4.266701313853263855e+01 -3.765889585018157959e+00 3.286782950721686802e+00
4.051235005259513855e+01 -3.037984311580657959e+00 3.130639762245124302e+00
3.990895649790763855e+01 -2.553731381893157959e+00 3.101480216346686802e+00
4.055678364634513855e+01 -2.228902280330657959e+00 3.176690787635749302e+00
4.177675434947013855e+01 -1.955342710018157959e+00 3.301767081581061802e+00
4.198903462290763855e+01 -1.912740170955657959e+00 2.579049796424811802e+00
1.386305806040763855e+01 1.297831118106842041e+00 7.260834878310618024e-01
4.646230122447013855e+01 -5.274068295955657959e+00 2.928292960487311802e+00
4.640334126353263855e+01 -4.785542905330657959e+00 2.951867789588874302e+00
4.015871235728263855e+01 -3.372212827205657959e+00 2.551583976112311802e+00
4.029384419322013855e+01 -2.977071225643157959e+00 2.584756583534186802e+00
4.167006489634513855e+01 -2.742696225643157959e+00 2.704385489784186802e+00
4.201296040415763855e+01 -2.357930600643157959e+00 2.752984732948249302e+00
1.455617329478263855e+01 1.073954164981842041e+00 8.328187173232493024e-01
1.384889790415763855e+01 1.294901430606842041e+00 7.909943765029368024e-01
4.168080708384513855e+01 -4.473287045955657959e+00 2.803491324745124302e+00
4.509096333384513855e+01 -4.590108335018157959e+00 3.075540274940436802e+00
4.326906391978263855e+01 -3.852315366268157959e+00 2.967584342323249302e+00
3.998354145884513855e+01 -2.946431577205657959e+00 2.750756949745124302e+00
4.146071431040763855e+01 -2.728536069393157959e+00 2.883859366737311802e+00
4.235194966197013855e+01 -2.411641538143157959e+00 2.974725455604499302e+00
4.188210102915763855e+01 -1.927144467830657959e+00 2.964990348182624302e+00
1.390077778697013855e+01 1.285379946231842041e+00 8.611695474013743024e-01
4.177736470103263855e+01 -4.503438413143157959e+00 3.008096427284186802e+00
4.165614888072013855e+01 -4.052510678768157959e+00 3.021997184120124302e+00
4.470851704478263855e+01 -4.082906186580657959e+00 3.283700675331061802e+00
3.999220845103263855e+01 -2.960469663143157959e+00 2.939950675331061802e+00
3.997804829478263855e+01 -2.548726499080657959e+00 2.961938590370124302e+00
4.028420063853263855e+01 -2.176656186580657959e+00 3.009332389198249302e+00
4.180824849009513855e+01 -1.932027280330657959e+00 3.154657096229499302e+00
1.414284321665763855e+01 1.256815493106842041e+00 9.471986001357493024e-01
4.013930317759513855e+01 -2.565083920955657959e+00 2.641336173377936802e+00
1.510561177134513855e+01 9.120889306068420410e-01 8.925568765029368024e-01
4.194350239634513855e+01 -1.931172788143157959e+00 2.818872184120124302e+00
4.174648091197013855e+01 -1.474996030330657959e+00 2.831155509315436802e+00
4.251796528697013855e+01 -1.114278256893157959e+00 2.912301749549811802e+00
4.169447895884513855e+01 -4.095479428768157959e+00 2.875970572791999302e+00
4.332314106822013855e+01 -3.907002866268157959e+00 3.020211905799811802e+00
4.076454731822013855e+01 -3.088521420955657959e+00 2.856195182166999302e+00
4.003835102915763855e+01 -2.564717710018157959e+00 2.826455802284186802e+00
4.233547016978263855e+01 -2.428487241268157959e+00 3.023935050331061802e+00
1.440309712290763855e+01 1.150858461856842041e+00 9.246155923232493024e-01
1.400649067759513855e+01 1.349344789981842041e+00 9.033295815810618024e-01
1.402309224009513855e+01 1.500834047794342041e+00 9.138123696669993024e-01
4.030531880259513855e+01 -2.235372006893157959e+00 2.958871573768561802e+00
4.183339497447013855e+01 -1.984395444393157959e+00 3.100732535682624302e+00
4.279921528697013855e+01 -1.644063413143157959e+00 3.200479239784186802e+00
4.206447407603263855e+01 -1.121358335018157959e+00 3.168054313026374302e+00
3.346425434947013855e+01 5.686432123184204102e-02 2.514581412635749302e+00
3.191615864634513855e+01 1.013529360294342041e+00 2.623681754432624302e+00
3.131984516978263855e+01 1.441752016544342041e+00 2.601693839393561802e+00
3.135390278697013855e+01 1.821390688419342041e+00 2.629846305213874302e+00
3.157631489634513855e+01 2.190531313419342041e+00 2.674188346229499302e+00
8.773824661970138550e+00 7.294291079044342041e+00 1.745401114784186802e+00
1.166103169322013855e+01 7.760477602481842041e+00 2.042138785682624302e+00
1.329457661509513855e+01 8.196756899356842041e+00 2.223642081581061802e+00
5.906270951032638550e+00 7.948710024356842041e+00 1.538858146034186802e+00
6.047140091657638550e+00 8.228128969669342041e+00 1.573587149940436802e+00
4.888814896345138550e+00 8.380350649356842041e+00 1.481927604041999302e+00
4.914571732282638550e+00 8.261820375919342041e+00 1.580270499549811802e+00
4.826803177595138550e+00 8.523783266544342041e+00 1.593026847206061802e+00
5.174215286970138550e+00 8.832254946231842041e+00 1.649423331581061802e+00
6.678243607282638550e+00 9.283426821231842041e+00 1.824060172401374302e+00
7.836568802595138550e+00 1.021018463373184204e+01 2.085260123573249302e+00
6.486959427595138550e+00 9.201151430606842041e+00 1.790384024940436802e+00
5.743062943220138550e+00 8.212748110294342041e+00 1.785211295448249302e+00
4.836202591657638550e+00 8.434183657169342041e+00 1.717447013221686802e+00
4.673360794782638550e+00 8.709086000919342041e+00 1.724313468299811802e+00
5.863058060407638550e+00 9.125345766544342041e+00 1.868982047401374302e+00
8.163228958845138550e+00 9.693827211856842041e+00 2.129739493690436802e+00
7.757223099470138550e+00 9.968973696231842041e+00 2.113870353065436802e+00
7.820577591657638550e+00 1.030149322748184204e+01 2.146493644081061802e+00
9.596334427595138550e+00 1.045688873529434204e+01 1.943521231971686802e+00
2.600973099470138550e+00 1.045420318841934204e+01 1.376367301307624302e+00
2.704610794782638550e+00 1.046177154779434204e+01 1.520318717323249302e+00
5.758199661970138550e+00 9.310282289981842041e+00 1.841867179237311802e+00
5.675558060407638550e+00 9.622416079044342041e+00 1.858163565956061802e+00
7.830587357282638550e+00 1.021384674310684204e+01 2.099115104041999302e+00
7.829488724470138550e+00 1.029477936029434204e+01 2.025430411659186802e+00
2.515890091657638550e+00 1.052390533685684204e+01 1.580056876502936802e+00
9.907979935407638550e+00 1.065281158685684204e+01 1.843484610877936802e+00
9.858785599470138550e+00 1.063486725091934204e+01 2.013131827674811802e+00
