1.216190725564956665e+01 -3.239139080047607422e+00 -5.304264616221132655e-01
1.294157034158706665e+01 -3.470950603485107422e+00 -5.418400358408632655e-01
1.387589651346206665e+01 -3.757449626922607422e+00 -5.565342497080507655e-01
1.504935842752456665e+01 -4.130984783172607422e+00 -5.760197233408632655e-01
1.520512014627456665e+01 -4.027469158172607422e+00 -5.671543668955507655e-01
1.525053030252456665e+01 -3.874026775360107422e+00 -5.553745817393007655e-01
1.531498342752456665e+01 -3.728518962860107422e+00 -5.440373014658632655e-01
1.536832815408706665e+01 -3.579104900360107422e+00 -5.328831266611757655e-01
1.219596487283706665e+01 -3.260623455047607422e+00 -4.720921110361757655e-01
1.298026663064956665e+01 -3.494510173797607422e+00 -4.802097868174257655e-01
1.392753225564956665e+01 -3.786990642547607422e+00 -4.903721403330507655e-01
1.511063772439956665e+01 -4.164676189422607422e+00 -5.044102262705507655e-01
1.658024221658706665e+01 -4.643313884735107422e+00 -5.225224088877382655e-01
1.780448538064956665e+01 -4.982791423797607422e+00 -5.333103727549257655e-01
1.788456350564956665e+01 -4.813724040985107422e+00 -5.205387663096132655e-01
1.798368459939956665e+01 -4.653079509735107422e+00 -5.077061247080507655e-01
1.247282034158706665e+01 -3.401736736297607422e+00 -4.180759977549257655e-01
1.301945120096206665e+01 -3.518313884735107422e+00 -4.178318571299257655e-01
1.397941213846206665e+01 -3.816531658172607422e+00 -4.240269254893007655e-01
1.517216116189956665e+01 -4.198489665985107422e+00 -4.325413297861757655e-01
1.664542776346206665e+01 -4.678470134735107422e+00 -4.436497282236757655e-01
1.871146780252456665e+01 -5.381473064422607422e+00 -4.613346647471132655e-01
2.167863088846206665e+01 -6.415774822235107422e+00 -4.884953092783632655e-01
2.176981741189956665e+01 -6.207644939422607422e+00 -4.723057340830507655e-01
2.833512502908706665e+01 -1.122668790817260742e+01 -5.840763639658632655e-01
3.116849905252456665e+01 -1.224805021286010742e+01 -5.977787565439882655e-01
1.533170706033706665e+01 -4.455447673797607422e+00 -3.731083463877382655e-01
1.582389456033706665e+01 -4.501712322235107422e+00 -3.665623258799257655e-01
1.673649221658706665e+01 -4.725223064422607422e+00 -3.639378141611757655e-01
1.882743459939956665e+01 -5.438601970672607422e+00 -3.718266081064882655e-01
2.226859670877456665e+01 -6.672000408172607422e+00 -3.889011930674257655e-01
3.043864065408706665e+01 -9.763309001922607422e+00 -4.414829801768007655e-01
2.898832327127456665e+01 -1.156030607223510742e+01 -4.480442594736757655e-01
3.045255666971206665e+01 -1.191589689254760742e+01 -4.368137907236757655e-01
2.993656545877456665e+01 -1.131030607223510742e+01 -4.085239958018007655e-01
3.021696096658706665e+01 -1.108313322067260742e+01 -3.865513395518007655e-01
3.080192190408706665e+01 -1.098913908004760742e+01 -3.662113737314882655e-01
3.096085745096206665e+01 -1.069995450973510742e+01 -3.429874967783632655e-01
2.668803030252456665e+01 -8.541995525360107422e+00 -3.005070280283632655e-01
2.873002249002456665e+01 -1.144433927536010742e+01 -3.023228239268007655e-01
2.882072073221206665e+01 -1.114221525192260742e+01 -2.792820524424257655e-01
2.954374319314956665e+01 -1.113769865036010742e+01 -2.586063932627382655e-01
2.979569631814956665e+01 -1.090222501754760742e+01 -2.361454557627382655e-01
3.088334280252456665e+01 -1.103723478317260742e+01 -2.143101286143007655e-01
3.103861624002456665e+01 -1.074536466598510742e+01 -1.908878874033632655e-01
3.663297659158706665e+01 -1.274524259567260742e+01 -1.637425016611757655e-01
2.847245413064956665e+01 -1.132861661911010742e+01 -1.584019254893007655e-01
2.814640432596206665e+01 -1.082861661911010742e+01 -1.372685026377382655e-01
2.858512502908706665e+01 -1.069897794723510742e+01 -1.148533415049257655e-01
3.077689749002456665e+01 -1.136279630661010742e+01 -8.598371259867576555e-02
3.669242483377456665e+01 -1.363794279098510742e+01 -3.866620771586326555e-02
3.111649709939956665e+01 -1.079089689254760742e+01 -3.875776045023826555e-02
3.667557913064956665e+01 -1.277698087692260742e+01 1.533464677632423445e-02
2.842301565408706665e+01 -1.131543302536010742e+01 -1.652570478617576555e-02
2.806058889627456665e+01 -1.079834318161010742e+01 2.013723924761734452e-03
2.845719534158706665e+01 -1.065002775192260742e+01 2.638201005757423445e-02
3.021744924783706665e+01 -1.111853361129760742e+01 6.198076494038673445e-02
3.071134573221206665e+01 -1.098413419723510742e+01 8.830217607319923445e-02
3.640665823221206665e+01 -1.309973478317260742e+01 1.666102815419492345e-01
3.707999807596206665e+01 -1.296142911911010742e+01 1.987605500966367345e-01
4.179935842752456665e+01 -1.447473478317260742e+01 2.782588411122617345e-01
2.825407034158706665e+01 -1.124328947067260742e+01 1.243281770497617345e-01
2.828690725564956665e+01 -1.091870450973510742e+01 1.450038362294492345e-01
2.838602834939956665e+01 -1.062756681442260742e+01 1.663813997060117345e-01
3.005558401346206665e+01 -1.105591154098510742e+01 2.089229036122617345e-01
3.094413381814956665e+01 -1.109973478317260742e+01 2.425380159169492345e-01
3.677860647439956665e+01 -1.327514982223510742e+01 3.508143831044492345e-01
3.678776174783706665e+01 -1.285193204879760742e+01 3.764033723622617345e-01
2.994559866189956665e+01 -1.209253263473510742e+01 2.932429719716367345e-01
3.044266897439956665e+01 -1.197131681442260742e+01 3.225703645497617345e-01
2.879166799783706665e+01 -1.082971525192260742e+01 3.141932893544492345e-01
3.657767874002456665e+01 -1.406006193161010742e+01 4.779200959950742345e-01
3.692704397439956665e+01 -1.378503751754760742e+01 5.094905305653867345e-01
3.705863577127456665e+01 -1.341089200973510742e+01 5.369868684560117345e-01
3.661918264627456665e+01 -1.279431486129760742e+01 5.527949739247617345e-01
2.997538381814956665e+01 -1.211938810348510742e+01 4.445796418935117345e-01
3.033109670877456665e+01 -1.192956876754760742e+01 4.726710725575742345e-01
2.850712209939956665e+01 -1.070691251754760742e+01 4.511714387685117345e-01
3.662162405252456665e+01 -1.409448575973510742e+01 6.612239290028867345e-01
3.697159963846206665e+01 -1.381921720504760742e+01 6.937861848622617345e-01
3.716361624002456665e+01 -1.347070646286010742e+01 7.226710725575742345e-01
3.693754202127456665e+01 -1.294299650192260742e+01 7.409816194325742345e-01
8.200712209939956665e+01 -3.108240079879760742e+01 1.945342581346636734e+00
3.001005178689956665e+01 -1.214868497848510742e+01 5.956416536122617345e-01
3.018180471658706665e+01 -1.186938810348510742e+01 6.198573518544492345e-01
3.525529104471206665e+01 -1.390149259567260742e+01 7.810817170888242345e-01
3.666544729471206665e+01 -1.412878751754760742e+01 8.440852571278867345e-01
8.163224416971206665e+01 -3.382458829879760742e+01 2.182326834276324234e+00
8.973417288064956665e+01 -3.639209318161010742e+01 2.476302664354449234e+00
2.962748342752456665e+01 -1.197070646286010742e+01 7.346644807606992345e-01
3.019718557596206665e+01 -1.188879728317260742e+01 7.717280793935117345e-01
3.620121389627456665e+01 -1.436194181442260742e+01 9.878993440419492345e-01
7.942387014627456665e+01 -3.381213712692260742e+01 2.464309256151324234e+00
2.990031057596206665e+01 -1.211816740036010742e+01 8.932185579091367345e-01
5.321415334939956665e+01 -2.305847501754760742e+01 1.785323660448199234e+00
3.585709768533706665e+01 -1.421362638473510742e+01 1.156219046190386734e+00
3.674991995096206665e+01 -1.419629240036010742e+01 1.212234060838824234e+00
3.692350393533706665e+01 -1.384021329879760742e+01 1.240783255174761734e+00
8.983097463846206665e+01 -3.650329923629760742e+01 3.373717825487261734e+00
2.992924124002456665e+01 -1.214465665817260742e+01 1.045196096971636734e+00
3.695426565408706665e+01 -1.519104337692260742e+01 1.360976736620074234e+00
3.657645803689956665e+01 -1.456799650192260742e+01 1.366088430956011734e+00
3.709952932596206665e+01 -1.437158536911010742e+01 1.410049002245074234e+00
7.811539846658706665e+01 -3.234118986129760742e+01 3.249541800096636734e+00
8.116593557596206665e+01 -3.275195646286010742e+01 3.430968802049761734e+00
8.077787405252456665e+01 -3.163391447067260742e+01 3.459258596971636734e+00
7.926115041971206665e+01 -3.007019376754760742e+01 3.436660330370074234e+00
5.446073538064956665e+01 -2.437109708786010742e+01 2.351592581346636734e+00
3.660306936502456665e+01 -1.503528165817260742e+01 1.530501883104449234e+00
3.659037405252456665e+01 -1.458899259567260742e+01 1.550262014940386734e+00
7.980375295877456665e+01 -3.408105802536010742e+01 3.680678885057574234e+00
7.818595510721206665e+01 -3.240344572067260742e+01 3.644805471971636734e+00
8.106058889627456665e+01 -3.273718595504760742e+01 3.831084768846636734e+00
9.013932424783706665e+01 -3.564758634567260742e+01 4.333510916307574234e+00
7.919511038064956665e+01 -3.007251310348510742e+01 3.823516409471636734e+00
3.690580374002456665e+01 -1.564526700973510742e+01 1.711165945604449234e+00
5.333671194314956665e+01 -2.318201017379760742e+01 2.597610037401324234e+00
5.217570120096206665e+01 -2.198694181442260742e+01 2.564330618456011734e+00
5.310294729471206665e+01 -2.178760099411010742e+01 2.642135183885699234e+00
8.034928518533706665e+01 -3.340625333786010742e+01 4.152740042284136734e+00
8.137699514627456665e+01 -3.290674161911010742e+01 4.251372854784136734e+00
8.254935842752456665e+01 -3.244958829879760742e+01 4.358855764940386734e+00
7.890568166971206665e+01 -2.998242521286010742e+01 4.199477713182574234e+00
5.138651663064956665e+01 -2.288208341598510742e+01 2.728438894823199234e+00
3.525468069314956665e+01 -1.440869474411010742e+01 1.820647757127886734e+00
3.544852834939956665e+01 -1.407641935348510742e+01 1.849990408495074234e+00
5.292411428689956665e+01 -2.172583341598510742e+01 2.898421804979449234e+00
8.172697073221206665e+01 -3.405749845504760742e+01 4.638122122362261734e+00
7.972636038064956665e+01 -3.221496915817260742e+01 4.559188406541949234e+00
7.891105276346206665e+01 -3.093042325973510742e+01 4.549712698534136734e+00
7.876810842752456665e+01 -2.995508146286010742e+01 4.579925100877886734e+00
5.234952932596206665e+01 -2.338379240036010742e+01 3.050445120409136734e+00
3.501383596658706665e+01 -1.430554533004760742e+01 1.983291189745074234e+00
3.548966604471206665e+01 -1.410998868942260742e+01 2.029693167284136734e+00
7.988627249002456665e+01 -3.421338224411010742e+01 4.889129202440386734e+00
7.760282522439956665e+01 -3.223193693161010742e+01 4.780532400682574234e+00
7.717020803689956665e+01 -3.112475919723510742e+01 4.789657156541949234e+00
8.139994436502456665e+01 -3.202222013473510742e+01 5.105559866502886734e+00
7.975138479471206665e+01 -3.039270353317260742e+01 5.035186331346636734e+00
3.467362600564956665e+01 -1.457507658004760742e+01 2.120482962206011734e+00
3.455228811502456665e+01 -1.409472990036010742e+01 2.127578299120074234e+00
3.460477834939956665e+01 -1.370373868942260742e+01 2.147277395799761734e+00
7.765433889627456665e+01 -3.321203947067260742e+01 5.138167898729449234e+00
7.707743459939956665e+01 -3.202539396286010742e+01 5.133895437791949234e+00
8.494999319314956665e+01 -3.456872892379760742e+01 5.720473806932574234e+00
7.902714163064956665e+01 -3.103992033004760742e+01 5.341674368456011734e+00
8.630363088846206665e+01 -3.314380216598510742e+01 5.895690481737261734e+00
1.536857229471206665e+01 -3.578616619110107422e+00 -5.328373502939882655e-01
1.543009573221206665e+01 -3.432620525360107422e+00 -5.215763639658632655e-01
1.548087698221206665e+01 -3.282229900360107422e+00 -5.104527067393007655e-01
1.553178030252456665e+01 -3.131473064422607422e+00 -4.993137907236757655e-01
1.558256155252456665e+01 -2.981204509735107422e+00 -4.882053922861757655e-01
1.565409475564956665e+01 -2.838504314422607422e+00 -4.775089811533632655e-01
1.573502737283706665e+01 -2.697879314422607422e+00 -4.669193815439882655e-01
1.580570608377456665e+01 -2.553958415985107422e+00 -4.565434049814882655e-01
1.798490530252456665e+01 -4.652835369110107422e+00 -5.076908659189882655e-01
1.806303030252456665e+01 -4.483157634735107422e+00 -4.949497770518007655e-01
1.816080862283706665e+01 -4.320804119110107422e+00 -4.820561002939882655e-01
1.823942190408706665e+01 -4.149661540985107422e+00 -4.692234586924257655e-01
1.831779104471206665e+01 -3.979007244110107422e+00 -4.564060758799257655e-01
1.839628225564956665e+01 -3.807986736297607422e+00 -4.435734342783632655e-01
1.845512014627456665e+01 -3.629275798797607422e+00 -4.308628629893007655e-01
1.853373342752456665e+01 -3.457889080047607422e+00 -4.180149625986757655e-01
2.177079397439956665e+01 -6.207156658172607422e+00 -4.722599577158632655e-01
2.185123831033706665e+01 -5.994632244110107422e+00 -4.564823698252382655e-01
2.200321584939956665e+01 -5.809817790985107422e+00 -4.415592741221132655e-01
2.217655569314956665e+01 -5.630374431610107422e+00 -4.266819547861757655e-01
2.235075002908706665e+01 -5.449954509735107422e+00 -4.117436002939882655e-01
2.252653127908706665e+01 -5.267947673797607422e+00 -3.966679167002382655e-01
2.270438772439956665e+01 -5.083743572235107422e+00 -3.813938688486757655e-01
2.283610159158706665e+01 -4.882937908172607422e+00 -3.656773161143007655e-01
3.044022756814956665e+01 -9.762698650360107422e+00 -4.414066862314882655e-01
3.076566702127456665e+01 -9.547610759735107422e+00 -4.199986051768007655e-01
3.122758108377456665e+01 -9.380252361297607422e+00 -3.999943327158632655e-01
3.175931936502456665e+01 -9.229861736297607422e+00 -3.798069547861757655e-01
3.230460745096206665e+01 -9.076175212860107422e+00 -3.591465543955507655e-01
3.286515432596206665e+01 -8.918216228485107422e+00 -3.378910612314882655e-01
3.523441702127456665e+01 -9.366092205047607422e+00 -3.229527067393007655e-01
4.063138967752456665e+01 -1.076501798629760742e+01 -3.153690885752382655e-01
5.157206350564956665e+01 -1.495764493942260742e+01 -1.405491422861757655e-01
4.808402639627456665e+01 -1.324170255661010742e+01 -1.093906950205507655e-01
5.167814260721206665e+01 -1.501196622848510742e+01 1.076503206044492345e-01
4.795121389627456665e+01 -1.321435880661010742e+01 1.183467317372617345e-01
4.815018850564956665e+01 -1.329675626754760742e+01 3.498683381825742345e-01
4.180289846658706665e+01 -1.447449064254760742e+01 2.783961702138242345e-01
4.855326467752456665e+01 -1.344690275192260742e+01 5.854945588856992345e-01
4.908060842752456665e+01 -1.363867521286010742e+01 8.289485383778867345e-01
5.004081350564956665e+01 -1.397461271286010742e+01 1.087523977831011734e+00
8.201237112283706665e+01 -3.108130216598510742e+01 1.945663015916949234e+00
8.184366995096206665e+01 -3.104236173629760742e+01 2.343505423143511734e+00
7.925626760721206665e+01 -3.006494474411010742e+01 3.436584036424761734e+00
7.919559866189956665e+01 -3.006958341598510742e+01 3.823684256151324234e+00
8.324357229471206665e+01 -3.078638029098510742e+01 4.076171438768511734e+00
7.891288381814956665e+01 -2.998230314254760742e+01 4.200011770799761734e+00
7.894706350564956665e+01 -2.908777189254760742e+01 4.241942923143511734e+00
8.316569143533706665e+01 -2.983545255661010742e+01 4.524459402635699234e+00
7.877140432596206665e+01 -2.995325040817260742e+01 4.580245535448199234e+00
7.903446584939956665e+01 -2.915234708786010742e+01 4.636992971971636734e+00
8.264432913064956665e+01 -2.966199064254760742e+01 4.901244680956011734e+00
7.974857717752456665e+01 -3.038830900192260742e+01 5.035125296190386734e+00
8.300883108377456665e+01 -3.078454923629760742e+01 5.291457693651324234e+00
8.225248342752456665e+01 -2.953882169723510742e+01 5.279586355760699234e+00
8.630509573221206665e+01 -3.314099454879760742e+01 5.895904104784136734e+00
8.198368459939956665e+01 -3.040149259567260742e+01 5.626296560838824234e+00
8.253385549783706665e+01 -2.967956876754760742e+01 5.704803030565386734e+00
1.580607229471206665e+01 -2.553470134735107422e+00 -4.565128874033632655e-01
1.588480764627456665e+01 -2.411746501922607422e+00 -4.459385465830507655e-01
1.595353323221206665e+01 -2.265994548797607422e+00 -4.355320524424257655e-01
1.602262502908706665e+01 -2.119388103485107422e+00 -4.250645231455507655e-01
1.609171682596206665e+01 -1.972781658172607422e+00 -4.146122526377382655e-01
1.616105276346206665e+01 -1.825809001922607422e+00 -4.041142057627382655e-01
1.623087698221206665e+01 -1.677737712860107422e+00 -3.935398649424257655e-01
1.628995901346206665e+01 -1.526980876922607422e+00 -3.832401823252382655e-01
1.853348928689956665e+01 -3.457156658172607422e+00 -4.179691862314882655e-01
1.859000784158706665e+01 -3.278323650360107422e+00 -4.053196500986757655e-01
1.866654592752456665e+01 -3.105594158172607422e+00 -3.924412321299257655e-01
1.872343069314956665e+01 -2.925784587860107422e+00 -3.797306608408632655e-01
1.873771291971206665e+01 -2.734378337860107422e+00 -3.666386198252382655e-01
1.873112112283706665e+01 -2.538089275360107422e+00 -3.534092497080507655e-01
1.870829397439956665e+01 -2.338016033172607422e+00 -3.405460905283632655e-01
1.870182424783706665e+01 -2.144412517547607422e+00 -3.274998258799257655e-01
2.283524709939956665e+01 -4.881839275360107422e+00 -3.656162809580507655e-01
2.281180959939956665e+01 -4.630252361297607422e+00 -3.492283415049257655e-01
2.278861624002456665e+01 -4.380618572235107422e+00 -3.329777311533632655e-01
2.276554495096206665e+01 -4.132205486297607422e+00 -3.168034147471132655e-01
2.278165823221206665e+01 -3.897830486297607422e+00 -3.010105680674257655e-01
2.307914358377456665e+01 -3.741824626922607422e+00 -2.865147184580507655e-01
2.342301565408706665e+01 -3.592410564422607422e+00 -2.718052458018007655e-01
2.457059866189956665e+01 -3.642093181610107422e+00 -2.591557096689882655e-01
4.063712698221206665e+01 -1.076526212692260742e+01 -3.152927946299257655e-01
8.999125295877456665e+01 -2.607458829879760742e+01 -4.062351774424257655e-01
4.932670217752456665e+01 -1.256689786911010742e+01 -2.722477506846132655e-01
4.860648733377456665e+01 -1.182239103317260742e+01 -2.369694303721132655e-01
6.877518850564956665e+01 -1.708337736129760742e+01 -2.097630094736757655e-01
5.930375295877456665e+01 -1.311206388473510742e+01 -1.248325895518007655e-01
4.808427053689956665e+01 -1.323999357223510742e+01 -1.092838834971132655e-01
4.798490530252456665e+01 -1.268689298629760742e+01 -7.624860517680076555e-02
4.833549124002456665e+01 -1.227771329879760742e+01 -4.216047041117576555e-02
4.850431448221206665e+01 -1.180810880661010742e+01 -8.346993848675765548e-03
8.800089651346206665e+01 -2.262121915817260742e+01 1.997218538075742345e-01
6.335404592752456665e+01 -1.487793302536010742e+01 1.334224153310117345e-01
5.854240041971206665e+01 -1.292920255661010742e+01 1.483912874013242345e-01
5.492301565408706665e+01 -1.139258146286010742e+01 1.641536165028867345e-01
4.794950491189956665e+01 -1.321191740036010742e+01 1.184382844716367345e-01
4.824711233377456665e+01 -1.278711271286010742e+01 1.543116975575742345e-01
4.845463186502456665e+01 -1.233093595504760742e+01 1.884761262685117345e-01
4.864506155252456665e+01 -1.186633634567260742e+01 2.227015901356992345e-01
6.554642874002456665e+01 -1.620178556442260742e+01 4.108729768544492345e-01
6.617301565408706665e+01 -1.567810392379760742e+01 4.606471467763242345e-01
6.630314260721206665e+01 -1.501086759567260742e+01 5.059199739247617345e-01
6.162748342752456665e+01 -1.312085294723510742e+01 4.954982209950742345e-01
4.814847952127456665e+01 -1.329431486129760742e+01 3.499598909169492345e-01
4.816923147439956665e+01 -1.277856779098510742e+01 3.822017122060117345e-01
4.841154104471206665e+01 -1.233386564254760742e+01 4.170833040028867345e-01
4.887357717752456665e+01 -1.195080900192260742e+01 4.551539827138242345e-01
6.628886038064956665e+01 -1.643689298629760742e+01 7.304377961903867345e-01
6.616923147439956665e+01 -1.569885587692260742e+01 7.718654084950742345e-01
6.905595022439956665e+01 -1.576489591598510742e+01 8.589930940419492345e-01
4.855179983377456665e+01 -1.344458341598510742e+01 5.855708528310117345e-01
4.865787893533706665e+01 -1.295154142379760742e+01 6.189418245106992345e-01
4.896415334939956665e+01 -1.252136564254760742e+01 6.570125032216367345e-01
4.952762991189956665e+01 -1.216247892379760742e+01 6.988215852528867345e-01
6.524100881814956665e+01 -1.615735197067260742e+01 1.025298636034136734e+00
6.684501272439956665e+01 -1.590796232223510742e+01 1.098037283495074234e+00
6.845389944314956665e+01 -1.562683439254760742e+01 1.171111624315386734e+00
6.650065237283706665e+01 -1.440710783004760742e+01 1.173934500291949234e+00
4.908866506814956665e+01 -1.363952970504760742e+01 8.292231965810117345e-01
5.050223928689956665e+01 -1.301452970504760742e+01 9.230342317372617345e-01
6.839139944314956665e+01 -1.563257169723510742e+01 1.492736380174761734e+00
6.562675100564956665e+01 -1.420483732223510742e+01 1.464721243456011734e+00
5.004191213846206665e+01 -1.397302579879760742e+01 1.087646048143511734e+00
4.974283987283706665e+01 -1.333325529098510742e+01 1.110946219041949234e+00
5.003886038064956665e+01 -1.288782072067260742e+01 1.149779837206011734e+00
6.687553030252456665e+01 -1.667224454879760742e+01 1.687682669237261734e+00
6.850443655252456665e+01 -1.641272306442260742e+01 1.775619070604449234e+00
6.872672659158706665e+01 -1.574438810348510742e+01 1.823943655565386734e+00
6.537272268533706665e+01 -1.416076993942260742e+01 1.764388601854449234e+00
6.697526174783706665e+01 -1.672339200973510742e+01 2.008758108690386734e+00
6.561515432596206665e+01 -1.563183927536010742e+01 2.002929251268511734e+00
6.571488577127456665e+01 -1.426977872848510742e+01 2.084228079393511734e+00
6.654056936502456665e+01 -1.661987638473510742e+01 2.308990042284136734e+00
6.751408010721206665e+01 -1.475354337692260742e+01 2.463515799120074234e+00
6.743302541971206665e+01 -1.690039396286010742e+01 2.661788504198199234e+00
6.714933401346206665e+01 -1.610266447067260742e+01 2.687972586229449234e+00
6.681693655252456665e+01 -1.459595060348510742e+01 2.750960867479449234e+00
6.803165823221206665e+01 -1.637109708786010742e+01 3.048903982713824234e+00
6.721049124002456665e+01 -1.542712736129760742e+01 3.046813528612261734e+00
6.834843069314956665e+01 -1.501221036911010742e+01 3.139663260057574234e+00
6.712137991189956665e+01 -1.685486173629760742e+01 3.285689871385699234e+00
6.804117971658706665e+01 -1.639624357223510742e+01 3.370650808885699234e+00
6.725590139627456665e+01 -1.546130704879760742e+01 3.365661184862261734e+00
6.733182913064956665e+01 -1.477197599411010742e+01 3.407531302049761734e+00
6.772220999002456665e+01 -1.560876798629760742e+01 3.711196463182574234e+00
1.628995901346206665e+01 -1.526492595672607422e+00 -3.832096647471132655e-01
1.635416799783706665e+01 -1.376590251922607422e+00 -3.726353239268007655e-01
1.638419729471206665e+01 -1.218142986297607422e+00 -3.620457243174257655e-01
1.641434866189956665e+01 -1.059207439422607422e+00 -3.514256071299257655e-01
1.648148733377456665e+01 -9.088168144226074219e-01 -3.412022184580507655e-01
1.671879202127456665e+01 -7.918734550476074219e-01 -3.324589323252382655e-01
1.721744924783706665e+01 -7.202181816101074219e-01 -3.255772184580507655e-01
1.769279104471206665e+01 -6.352572441101074219e-01 -3.183445524424257655e-01
1.870121389627456665e+01 -2.143680095672607422e+00 -3.274387907236757655e-01
1.867692190408706665e+01 -1.946780681610107422e+00 -3.148502897471132655e-01
1.906180959939956665e+01 -1.846560955047607422e+00 -3.044895719736757655e-01
1.964298635721206665e+01 -1.781985759735107422e+00 -2.951511930674257655e-01
2.065946584939956665e+01 -1.799197673797607422e+00 -2.872929167002382655e-01
2.141373831033706665e+01 -1.743289470672607422e+00 -2.770084928721132655e-01
2.302213674783706665e+01 -1.835208415985107422e+00 -2.693485807627382655e-01
2.444169241189956665e+01 -1.861575603485107422e+00 -2.585758756846132655e-01
2.457401663064956665e+01 -3.642093181610107422e+00 -2.591099333018007655e-01
2.588212209939956665e+01 -3.707889080047607422e+00 -2.459110807627382655e-01
6.261063772439956665e+01 -1.200427579879760742e+01 -2.886051725596132655e-01
6.645023733377456665e+01 -1.220862150192260742e+01 -2.505955290049257655e-01
6.156303030252456665e+01 -1.048608732223510742e+01 -2.052769254893007655e-01
6.109305959939956665e+01 -9.759402751922607422e+00 -1.649784635752382655e-01
4.867899709939956665e+01 -6.755618572235107422e+00 -1.377567838877382655e-01
6.944230276346206665e+01 -1.506775236129760742e+01 -6.802411787211326555e-02
6.861405569314956665e+01 -1.342541837692260742e+01 2.256731279194923445e-02
6.171708303689956665e+01 -1.117419767379760742e+01 4.170183427632423445e-02
6.152201467752456665e+01 -1.049646329879760742e+01 8.097795732319923445e-02
6.144572073221206665e+01 -9.849490642547607422e+00 1.204371858388242345e-01
4.870560842752456665e+01 -6.775516033172607422e+00 8.735613115132423445e-02
5.489823538064956665e+01 -1.138428068161010742e+01 1.641230989247617345e-01
5.184537893533706665e+01 -1.006567716598510742e+01 1.779170442372617345e-01
4.947941213846206665e+01 -8.974368572235107422e+00 1.929469514638242345e-01
6.171366506814956665e+01 -1.119275236129760742e+01 3.280330110341367345e-01
6.207584768533706665e+01 -1.063330411911010742e+01 3.708491731435117345e-01
4.875284963846206665e+01 -6.799319744110107422e+00 3.118281770497617345e-01
6.162809377908706665e+01 -1.311889982223510742e+01 4.956355500966367345e-01
6.199540334939956665e+01 -1.256470060348510742e+01 5.409083772450742345e-01
4.945170217752456665e+01 -8.983523845672607422e+00 4.234614778310117345e-01
4.712491995096206665e+01 -7.950320720672607422e+00 4.242091584950742345e-01
4.520121389627456665e+01 -7.055545330047607422e+00 4.273219514638242345e-01
4.315201956033706665e+01 -6.177371501922607422e+00 4.260554719716367345e-01
4.155143362283706665e+01 -5.428348064422607422e+00 4.289241243153867345e-01
3.988578420877456665e+01 -4.703738689422607422e+00 4.275660920888242345e-01
6.191325002908706665e+01 -1.256433439254760742e+01 8.287043977528867345e-01
6.965531545877456665e+01 -1.373450040817260742e+01 1.000686209276324234e+00
6.058817678689956665e+01 -1.097937345504760742e+01 8.825679231435117345e-01
6.001762014627456665e+01 -1.023242521286010742e+01 9.096370149403867345e-01
6.121586233377456665e+01 -9.859378337860107422e+00 9.695887971669492345e-01
4.009952932596206665e+01 -4.754764080047607422e+00 6.156001497060117345e-01
6.550834280252456665e+01 -1.415100431442260742e+01 1.153564016893511734e+00
6.575797659158706665e+01 -1.352685880661010742e+01 1.199447195604449234e+00
6.224601370096206665e+01 -1.201758146286010742e+01 1.164596121385699234e+00
6.647428518533706665e+01 -1.231799650192260742e+01 1.298278372362261734e+00
6.030949026346206665e+01 -1.031347990036010742e+01 1.196059744432574234e+00
4.886100393533706665e+01 -6.367923259735107422e+00 1.018249075487261734e+00
6.562394338846206665e+01 -1.420178556442260742e+01 1.464782278612261734e+00
6.549381643533706665e+01 -1.348303556442260742e+01 1.501357595995074234e+00
6.267460256814956665e+01 -1.213794279098510742e+01 1.465987722948199234e+00
6.225712209939956665e+01 -1.139197111129760742e+01 1.492568533495074234e+00
6.105241018533706665e+01 -1.049121427536010742e+01 1.496429007127886734e+00
6.127885061502456665e+01 -9.909793376922607422e+00 1.539397757127886734e+00
4.880424124002456665e+01 -6.372317790985107422e+00 1.242385428026324234e+00
6.536906057596206665e+01 -1.415759611129760742e+01 1.764419119432574234e+00
6.929667288064956665e+01 -1.443884611129760742e+01 1.924285452440386734e+00
6.239762502908706665e+01 -1.209253263473510742e+01 1.749434988573199234e+00
6.194132620096206665e+01 -1.134045743942260742e+01 1.772017996385699234e+00
6.331913381814956665e+01 -1.099609708786010742e+01 1.853454153612261734e+00
4.873368459939956665e+01 -6.374026775360107422e+00 1.464431326463824234e+00
6.571390920877456665e+01 -1.426721525192260742e+01 2.084319632127886734e+00
6.762333303689956665e+01 -1.404919767379760742e+01 2.190764944627886734e+00
6.260709768533706665e+01 -1.216174650192260742e+01 2.049483816698199234e+00
6.202567678689956665e+01 -1.137890958786010742e+01 2.064834158495074234e+00
4.865800100564956665e+01 -6.374759197235107422e+00 1.686904470995074234e+00
6.907279592752456665e+01 -1.515185880661010742e+01 2.525390188768511734e+00
6.788126760721206665e+01 -1.413428068161010742e+01 2.517501394823199234e+00
6.275834280252456665e+01 -1.221716642379760742e+01 2.347716848924761734e+00
6.260917288064956665e+01 -1.152991056442260742e+01 2.377669851854449234e+00
4.862418752908706665e+01 -6.383182048797607422e+00 1.909392874315386734e+00
6.681901174783706665e+01 -1.459411954879760742e+01 2.751159231737261734e+00
6.793998342752456665e+01 -1.417053556442260742e+01 2.839553396776324234e+00
6.231595999002456665e+01 -1.213244962692260742e+01 2.620498220995074234e+00
6.209305959939956665e+01 -1.143298673629760742e+01 2.645476858690386734e+00
4.861503225564956665e+01 -6.396243572235107422e+00 2.134078543260699234e+00
6.833500295877456665e+01 -1.500635099411010742e+01 3.139129202440386734e+00
6.793741995096206665e+01 -1.419165372848510742e+01 3.157561819627886734e+00
6.212357717752456665e+01 -1.145935392379760742e+01 2.937850515916949234e+00
4.858707815408706665e+01 -6.405642986297607422e+00 2.356566946581011734e+00
6.733378225564956665e+01 -1.477014493942260742e+01 3.407744925096636734e+00
4.943864065408706665e+01 -6.577762126922607422e+00 2.630828421190386734e+00
4.957169729471206665e+01 -6.617312908172607422e+00 2.867141287401324234e+00
4.515824514627456665e+01 -6.736453533172607422e+00 2.753570120409136734e+00
4.362870413064956665e+01 -5.529910564422607422e+00 2.698592703416949234e+00
4.892850881814956665e+01 -9.046390056610107422e+00 3.155440847948199234e+00
4.510563284158706665e+01 -7.202762126922607422e+00 2.937209646776324234e+00
4.086478811502456665e+01 -5.444949626922607422e+00 2.680923025682574234e+00
4.068241506814956665e+01 -4.995486736297607422e+00 2.688354055956011734e+00
4.917863088846206665e+01 -8.609500408172607422e+00 3.427062552049761734e+00
4.529191213846206665e+01 -6.791873455047607422e+00 3.183089773729449234e+00
4.933732229471206665e+01 -7.121707439422607422e+00 3.513824026659136734e+00
4.043021780252456665e+01 -4.960940837860107422e+00 2.857467215135699234e+00
4.886442190408706665e+01 -9.062137126922607422e+00 3.608459036424761734e+00
4.682157522439956665e+01 -7.604129314422607422e+00 3.493850271776324234e+00
4.697929006814956665e+01 -7.155398845672607422e+00 3.529311697557574234e+00
4.085685354471206665e+01 -5.468265056610107422e+00 3.058669607713824234e+00
4.061869436502456665e+01 -5.008304119110107422e+00 3.060058157518511734e+00
1.769596487283706665e+01 -6.352572441101074219e-01 -3.183292936533632655e-01
1.821293264627456665e+01 -5.482211112976074219e-01 -3.104710172861757655e-01
1.873954397439956665e+01 -4.527621269226074219e-01 -3.024601530283632655e-01
1.929801565408706665e+01 -3.511996269226074219e-01 -2.939457487314882655e-01
2.011552053689956665e+01 -2.756381034851074219e-01 -2.861027311533632655e-01
2.159855276346206665e+01 -2.705111503601074219e-01 -2.801670622080507655e-01
2.277970510721206665e+01 -1.991000175476074219e-01 -2.712101530283632655e-01
2.504789358377456665e+01 -2.242465019226074219e-01 -2.648319792002382655e-01
2.445121389627456665e+01 -1.862552165985107422e+00 -2.585453581064882655e-01
2.670487600564956665e+01 -2.002810955047607422e+00 -2.485661100596132655e-01
4.214249807596206665e+01 -2.947268962860107422e+00 -1.780552458018007655e-01
3.248624807596206665e+01 -1.369021892547607422e+00 -1.609654020518007655e-01
4.489530569314956665e+01 -5.120730876922607422e+00 -8.445783369242576555e-02
4.216044241189956665e+01 -2.961673259735107422e+00 1.351885087788673445e-02
3.248307424783706665e+01 -1.377810955047607422e+00 -1.339765302836326555e-02
4.492252737283706665e+01 -5.138797283172607422e+00 1.222682405263242345e-01
4.216923147439956665e+01 -2.974856853485107422e+00 2.062983918935117345e-01
3.247977834939956665e+01 -1.386600017547607422e+00 1.341853547841367345e-01
4.496757131814956665e+01 -5.159793376922607422e+00 3.284297395497617345e-01
4.192106252908706665e+01 -2.954471111297607422e+00 3.945918489247617345e-01
3.247648245096206665e+01 -1.395389080047607422e+00 2.810359407216367345e-01
3.987443166971206665e+01 -4.700320720672607422e+00 4.274745393544492345e-01
3.834440237283706665e+01 -4.034915447235107422e+00 4.275508332997617345e-01
3.700333791971206665e+01 -3.432376384735107422e+00 4.279170442372617345e-01
3.573173147439956665e+01 -2.867557048797607422e+00 4.278712678700742345e-01
3.452274709939956665e+01 -2.339847087860107422e+00 4.272761750966367345e-01
3.338456350564956665e+01 -1.846805095672607422e+00 4.264827180653867345e-01
3.247330862283706665e+01 -1.404178142547607422e+00 4.286952424794492345e-01
3.130485159158706665e+01 -9.534945487976074219e-01 4.238276887685117345e-01
4.008793264627456665e+01 -4.751224040985107422e+00 6.154475618153867345e-01
3.848942190408706665e+01 -4.071170330047607422e+00 6.058803010731992345e-01
3.702323538064956665e+01 -3.446414470672607422e+00 5.971675325185117345e-01
3.571854788064956665e+01 -2.875979900360107422e+00 5.902705598622617345e-01
3.452030569314956665e+01 -2.349368572235107422e+00 5.840907502919492345e-01
3.339298635721206665e+01 -1.857425212860107422e+00 5.780787874013242345e-01
3.247001272439956665e+01 -1.412967205047607422e+00 5.756221223622617345e-01
3.133158499002456665e+01 -9.652132987976074219e-01 5.666499543935117345e-01
4.886625295877456665e+01 -6.367190837860107422e+00 1.018477957323199234e+00
4.178312307596206665e+01 -2.972415447235107422e+00 9.651942659169492345e-01
4.190934377908706665e+01 -2.153689861297607422e+00 1.016463797166949234e+00
4.880631643533706665e+01 -6.370975017547607422e+00 1.242553274706011734e+00
4.500797659158706665e+01 -4.766238689422607422e+00 1.182387869432574234e+00
4.174491506814956665e+01 -2.979251384735107422e+00 1.154281179979449234e+00
4.209965139627456665e+01 -2.605105876922607422e+00 1.190139334276324234e+00
4.873563772439956665e+01 -6.372684001922607422e+00 1.464599173143511734e+00
4.494022756814956665e+01 -4.768435955047607422e+00 1.386184256151324234e+00
4.566605764627456665e+01 -3.967044353485107422e+00 1.464416067674761734e+00
4.051554495096206665e+01 -2.828494548797607422e+00 1.298751394823199234e+00
4.210636526346206665e+01 -2.617923259735107422e+00 1.382003347948199234e+00
4.865995413064956665e+01 -6.373538494110107422e+00 1.687072317674761734e+00
4.487223440408706665e+01 -4.770633220672607422e+00 1.590529959276324234e+00
4.568790823221206665e+01 -3.983523845672607422e+00 1.675185720995074234e+00
4.082706838846206665e+01 -2.881595134735107422e+00 1.497436087206011734e+00
4.232572561502456665e+01 -2.656863689422607422e+00 1.584060232713824234e+00
4.193790823221206665e+01 -2.192386150360107422e+00 1.591109793260699234e+00
4.862296682596206665e+01 -6.381350994110107422e+00 1.909438650682574234e+00
4.481693655252456665e+01 -4.774783611297607422e+00 1.793807547166949234e+00
4.770585256814956665e+01 -4.764651775360107422e+00 1.950103323534136734e+00
4.414323049783706665e+01 -3.775760173797607422e+00 1.813170950487261734e+00
4.031254202127456665e+01 -2.824832439422607422e+00 1.659667532518511734e+00
4.237247854471206665e+01 -2.674563884735107422e+00 1.779082815721636734e+00
4.861393362283706665e+01 -6.394290447235107422e+00 2.134109060838824234e+00
4.477726370096206665e+01 -4.781497478485107422e+00 1.997420828416949234e+00
4.562430959939956665e+01 -4.459109783172607422e+00 2.064712088182574234e+00
4.403861624002456665e+01 -3.773562908172607422e+00 2.009749929979449234e+00
3.997819143533706665e+01 -2.791873455047607422e+00 1.826430838182574234e+00
4.242789846658706665e+01 -2.693484783172607422e+00 1.976104300096636734e+00
4.208463674783706665e+01 -2.232669353485107422e+00 1.981414358690386734e+00
4.858573538064956665e+01 -6.403689861297607422e+00 2.356582205370074234e+00
4.138883596658706665e+01 -4.656619548797607422e+00 1.997909109666949234e+00
4.144010549783706665e+01 -4.247317790985107422e+00 2.023406546190386734e+00
4.314713674783706665e+01 -4.091434001922607422e+00 2.139510672166949234e+00
5.024711233377456665e+01 -4.678103923797607422e+00 2.555205862596636734e+00
3.991459280252456665e+01 -2.794925212860107422e+00 2.006255667284136734e+00
4.175626760721206665e+01 -2.622684001922607422e+00 2.131728689745074234e+00
4.190299612283706665e+01 -2.224002361297607422e+00 2.162688772752886734e+00
4.945170217752456665e+01 -6.578494548797607422e+00 2.631667654588824234e+00
4.952531057596206665e+01 -6.089480876922607422e+00 2.661712210252886734e+00
4.141947561502456665e+01 -4.256106853485107422e+00 2.212249319627886734e+00
4.316886526346206665e+01 -4.107425212860107422e+00 2.338515799120074234e+00
5.011075979471206665e+01 -4.673099040985107422e+00 2.777404348924761734e+00
4.249918752908706665e+01 -3.152102947235107422e+00 2.344588797166949234e+00
4.175309377908706665e+01 -2.634158611297607422e+00 2.321975271776324234e+00
4.148417288064956665e+01 -2.188235759735107422e+00 2.328780691698199234e+00
4.958048635721206665e+01 -6.617190837860107422e+00 2.867766897752886734e+00
4.136564260721206665e+01 -4.677249431610107422e+00 2.377730887010699234e+00
4.581644827127456665e+01 -4.992434978485107422e+00 2.682296316698199234e+00
4.315018850564956665e+01 -4.117190837860107422e+00 2.536269705370074234e+00
4.570426565408706665e+01 -4.052127361297607422e+00 2.724105398729449234e+00
4.125895315408706665e+01 -2.998050212860107422e+00 2.459151785448199234e+00
4.173661428689956665e+01 -2.644046306610107422e+00 2.512420218065386734e+00
4.183097463846206665e+01 -2.239383220672607422e+00 2.540710012987261734e+00
4.363151174783706665e+01 -5.528934001922607422e+00 2.698867361620074234e+00
4.152860647439956665e+01 -4.718142986297607422e+00 2.578887503221636734e+00
4.120121389627456665e+01 -4.244632244110107422e+00 2.578582327440386734e+00
4.457279592752456665e+01 -4.349978923797607422e+00 2.831817190721636734e+00
4.267374807596206665e+01 -3.627444744110107422e+00 2.723937552049761734e+00
3.974137502908706665e+01 -2.806033611297607422e+00 2.541930716112261734e+00
4.050883108377456665e+01 -2.503543376922607422e+00 2.616698782518511734e+00
4.188492971658706665e+01 -2.257449626922607422e+00 2.736236136034136734e+00
4.068046194314956665e+01 -4.993777751922607422e+00 2.688293020799761734e+00
4.071000295877456665e+01 -4.586917400360107422e+00 2.711745779588824234e+00
4.118253713846206665e+01 -4.253787517547607422e+00 2.767409842088824234e+00
4.517460256814956665e+01 -4.456302165985107422e+00 3.081649344041949234e+00
4.010612112283706665e+01 -3.268069744110107422e+00 2.730865042284136734e+00
4.029056936502456665e+01 -2.891482830047607422e+00 2.765365164354449234e+00
3.941862112283706665e+01 -2.379397869110107422e+00 2.720946829393511734e+00
3.984000784158706665e+01 -2.035403728485107422e+00 2.773025076463824234e+00
4.042557913064956665e+01 -4.958621501922607422e+00 2.857192556932574234e+00
4.161198049783706665e+01 -4.757693767547607422e+00 2.969405691698199234e+00
4.114286428689956665e+01 -4.259402751922607422e+00 2.953536551073199234e+00
4.446195608377456665e+01 -4.358890056610107422e+00 3.233581106737261734e+00
3.990482717752456665e+01 -3.250491619110107422e+00 2.898726980760699234e+00
3.972086721658706665e+01 -2.826175212860107422e+00 2.904586355760699234e+00
3.937821584939956665e+01 -2.385623455047607422e+00 2.898635428026324234e+00
3.976749807596206665e+01 -2.038333415985107422e+00 2.949813406541949234e+00
4.061845022439956665e+01 -5.006839275360107422e+00 3.060103933885699234e+00
4.080253225564956665e+01 -4.627444744110107422e+00 3.094878714159136734e+00
4.116410452127456665e+01 -4.275149822235107422e+00 3.145370047166949234e+00
4.213737112283706665e+01 -4.010379314422607422e+00 3.246810476854449234e+00
3.986283499002456665e+01 -3.256106853485107422e+00 3.078994314745074234e+00
3.939030081033706665e+01 -2.792972087860107422e+00 3.059585135057574234e+00
3.929191213846206665e+01 -2.385989665985107422e+00 3.071197073534136734e+00
3.993851858377456665e+01 -2.069217205047607422e+00 3.146651785448199234e+00
4.115238577127456665e+01 -4.311038494110107422e+00 2.955749075487261734e+00
4.223405081033706665e+01 -4.059085369110107422e+00 3.060378592088824234e+00
3.994364553689956665e+01 -3.285281658172607422e+00 2.905410330370074234e+00
3.972086721658706665e+01 -2.845950603485107422e+00 2.909484427049761734e+00
3.937748342752456665e+01 -2.396975994110107422e+00 2.903777639940386734e+00
4.291740041971206665e+01 -2.411502361297607422e+00 3.206496756151324234e+00
4.120182424783706665e+01 -1.791751384735107422e+00 3.092498343065386734e+00
4.079032522439956665e+01 -4.683352947235107422e+00 3.098464529588824234e+00
4.123197561502456665e+01 -4.337161540985107422e+00 3.155196707323199234e+00
4.110819631814956665e+01 -3.893313884735107422e+00 3.167113821581011734e+00
4.204679495096206665e+01 -3.609500408172607422e+00 3.266356985643511734e+00
3.989213186502456665e+01 -2.881595134735107422e+00 3.110213797166949234e+00
3.928873831033706665e+01 -2.397342205047607422e+00 3.081054251268511734e+00
3.993656545877456665e+01 -2.072513103485107422e+00 3.156264822557574234e+00
4.115653616189956665e+01 -1.798953533172607422e+00 3.281341116502886734e+00
4.136881643533706665e+01 -1.756350994110107422e+00 2.558623831346636734e+00
1.324283987283706665e+01 1.454220294952392578e+00 7.056575227528867345e-01
4.584208303689956665e+01 -5.117679119110107422e+00 2.907866995409136734e+00
4.578312307596206665e+01 -4.629153728485107422e+00 2.931441824510699234e+00
3.953849416971206665e+01 -3.215823650360107422e+00 2.531158011034136734e+00
3.967362600564956665e+01 -2.820682048797607422e+00 2.564330618456011734e+00
4.104984670877456665e+01 -2.586307048797607422e+00 2.683959524706011734e+00
4.139274221658706665e+01 -2.201541423797607422e+00 2.732558767870074234e+00
1.393595510721206665e+01 1.230343341827392578e+00 8.123927522450742345e-01
1.322867971658706665e+01 1.451290607452392578e+00 7.705684114247617345e-01
4.106058889627456665e+01 -4.316897869110107422e+00 2.783065359666949234e+00
4.447074514627456665e+01 -4.433719158172607422e+00 3.055114309862261734e+00
4.264884573221206665e+01 -3.695926189422607422e+00 2.947158377245074234e+00
3.936332327127456665e+01 -2.790042400360107422e+00 2.730330984666949234e+00
4.084049612283706665e+01 -2.572146892547607422e+00 2.863433401659136734e+00
4.173173147439956665e+01 -2.255252361297607422e+00 2.954299490526324234e+00
4.126188284158706665e+01 -1.770755290985107422e+00 2.944564383104449234e+00
1.328055959939956665e+01 1.441769123077392578e+00 8.407435823231992345e-01
4.115714651346206665e+01 -4.347049236297607422e+00 2.987670462206011734e+00
4.103593069314956665e+01 -3.896121501922607422e+00 3.001571219041949234e+00
4.408829885721206665e+01 -3.926517009735107422e+00 3.263274710252886734e+00
3.937199026346206665e+01 -2.804080486297607422e+00 2.919524710252886734e+00
3.935783010721206665e+01 -2.392337322235107422e+00 2.941512625291949234e+00
3.966398245096206665e+01 -2.020267009735107422e+00 2.988906424120074234e+00
4.118803030252456665e+01 -1.775638103485107422e+00 3.134231131151324234e+00
1.352262502908706665e+01 1.413204669952392578e+00 9.267726350575742345e-01
3.951908499002456665e+01 -2.408694744110107422e+00 2.620910208299761734e+00
1.448539358377456665e+01 1.068478107452392578e+00 8.721309114247617345e-01
4.132328420877456665e+01 -1.774783611297607422e+00 2.798446219041949234e+00
4.112626272439956665e+01 -1.318606853485107422e+00 2.810729544237261734e+00
4.189774709939956665e+01 -9.578890800476074219e-01 2.891875784471636734e+00
4.107426077127456665e+01 -3.939090251922607422e+00 2.855544607713824234e+00
4.270292288064956665e+01 -3.750613689422607422e+00 2.999785940721636734e+00
4.014432913064956665e+01 -2.932132244110107422e+00 2.835769217088824234e+00
3.941813284158706665e+01 -2.408328533172607422e+00 2.806029837206011734e+00
4.171525198221206665e+01 -2.272098064422607422e+00 3.003509085252886734e+00
1.378287893533706665e+01 1.307247638702392578e+00 9.041896272450742345e-01
1.338627249002456665e+01 1.505733966827392578e+00 8.829036165028867345e-01
1.340287405252456665e+01 1.657223224639892578e+00 8.933864045888242345e-01
3.968510061502456665e+01 -2.078982830047607422e+00 2.938445608690386734e+00
4.121317678689956665e+01 -1.828006267547607422e+00 3.080306570604449234e+00
4.217899709939956665e+01 -1.487674236297607422e+00 3.180053274706011734e+00
4.144425588846206665e+01 -9.649691581726074219e-01 3.147628347948199234e+00
3.284403616189956665e+01 2.132534980773925781e-01 2.494155447557574234e+00
3.129594045877456665e+01 1.169918537139892578e+00 2.603255789354449234e+00
3.069962698221206665e+01 1.598141193389892578e+00 2.581267874315386734e+00
3.073368459939956665e+01 1.977779865264892578e+00 2.609420340135699234e+00
3.095609670877456665e+01 2.346920490264892578e+00 2.653762381151324234e+00
8.153606474399566650e+00 7.450680255889892578e+00 1.724975149706011734e+00
1.104081350564956665e+01 7.916866779327392578e+00 2.021712820604449234e+00
1.267435842752456665e+01 8.353146076202392578e+00 2.203216116502886734e+00
5.286052763462066650e+00 8.105099201202392578e+00 1.518432180956011734e+00
5.426921904087066650e+00 8.384518146514892578e+00 1.553161184862261734e+00
4.268596708774566650e+00 8.536739826202392578e+00 1.461501638963824234e+00
4.294353544712066650e+00 8.418209552764892578e+00 1.559844534471636734e+00
4.206584990024566650e+00 8.680172443389892578e+00 1.572600882127886734e+00
4.553997099399566650e+00 8.988644123077392578e+00 1.628997366502886734e+00
6.058025419712066650e+00 9.439815998077392578e+00 1.803634207323199234e+00
7.216350615024566650e+00 1.036657381057739258e+01 2.064834158495074234e+00
5.866741240024566650e+00 9.357540607452392578e+00 1.769958059862261734e+00
5.122844755649566650e+00 8.369137287139892578e+00 1.764785330370074234e+00
4.215984404087066650e+00 8.590572834014892578e+00 1.697021048143511734e+00
4.053142607212066650e+00 8.865475177764892578e+00 1.703887503221636734e+00
5.242839872837066650e+00 9.281734943389892578e+00 1.848556082323199234e+00
7.543010771274566650e+00 9.850216388702392578e+00 2.109313528612261734e+00
7.137004911899566650e+00 1.012536287307739258e+01 2.093444387987261734e+00
7.200359404087066650e+00 1.045788240432739258e+01 2.126067679002886734e+00
8.976116240024566650e+00 1.061327791213989258e+01 1.923095266893511734e+00
5.137981474399566650e+00 9.466671466827392578e+00 1.821441214159136734e+00
5.055339872837066650e+00 9.778805255889892578e+00 1.837737600877886734e+00
7.210369169712066650e+00 1.037023591995239258e+01 2.078689138963824234e+00
7.209270536899566650e+00 1.045116853713989258e+01 2.005004446581011734e+00
9.287761747837066650e+00 1.080920076370239258e+01 1.823058645799761734e+00
9.238567411899566650e+00 1.079125642776489258e+01 1.992705862596636734e+00
