1.202564996480941772e+01 -3.225013464689254761e+00 -5.532548505812826534e-01
1.280958551168441772e+01 -3.468543738126754761e+00 -5.669114667922201534e-01
1.367286676168441772e+01 -3.731849402189254761e+00 -5.819261152297201534e-01
1.455067437887191772e+01 -3.981727331876754761e+00 -5.957810956984701534e-01
1.459669488668441772e+01 -3.837196081876754761e+00 -5.840928632765951534e-01
1.465882867574691772e+01 -3.700111120939254761e+00 -5.728929121047201534e-01
1.473316949605941772e+01 -3.567664831876754761e+00 -5.619676191359701534e-01
1.479774469137191772e+01 -3.431434363126754761e+00 -5.511949140578451534e-01
1.205628961324691772e+01 -3.245277136564254761e+00 -4.964463789015951534e-01
1.285426324605941772e+01 -3.495399206876754761e+00 -5.070512373000326534e-01
1.371888726949691772e+01 -3.759193152189254761e+00 -5.176103193312826534e-01
1.480641168355941772e+01 -4.105994910001754761e+00 -5.324723798781576534e-01
1.615809625387191772e+01 -4.548011511564254761e+00 -5.517900068312826534e-01
1.685035699605941772e+01 -4.669471472501754761e+00 -5.536210615187826534e-01
1.694740289449691772e+01 -4.520667761564254761e+00 -5.415818769484701534e-01
1.706068414449691772e+01 -4.378822058439254761e+00 -5.294816572219076534e-01
1.208729547262191772e+01 -3.265540808439254761e+00 -4.393022138625326534e-01
1.287928766012191772e+01 -3.512855261564254761e+00 -4.459397871047201534e-01
1.376502984762191772e+01 -3.786536902189254761e+00 -4.531571943312826534e-01
1.486061090230941772e+01 -4.136878699064254761e+00 -4.629685956984701534e-01
1.623536676168441772e+01 -4.589271277189254761e+00 -4.762132246047201534e-01
1.807032769918441772e+01 -5.212806433439254761e+00 -4.953935224562826534e-01
2.032923883199691772e+01 -5.975623816251754761e+00 -5.186479169875326534e-01
2.043861383199691772e+01 -5.792640417814254761e+00 -5.032975751906576534e-01
2.750050348043441772e+01 -1.099625369906425476e+01 -6.497972089797201534e-01
1.400770562887191772e+01 -4.069617956876754761e+00 -4.027268964797201534e-01
1.441749566793441772e+01 -4.103065222501754761e+00 -3.972947675734701534e-01
1.491554254293441772e+01 -4.168372839689254761e+00 -3.925035078078451534e-01
1.631398004293441772e+01 -4.631141394376754761e+00 -3.994309980422201534e-01
1.816871637105941772e+01 -5.263221472501754761e+00 -4.099443037062826534e-01
2.096974176168441772e+01 -6.258094519376754761e+00 -4.287583906203451534e-01
2.608668512105941772e+01 -8.155677527189254761e+00 -4.696672040969076534e-01
2.833692926168441772e+01 -1.142740604281425476e+01 -5.228898603469076534e-01
2.872828668355941772e+01 -1.127823612093925476e+01 -5.031602460890951534e-01
2.916212457418441772e+01 -1.114298221468925476e+01 -4.834153730422201534e-01
2.947987359762191772e+01 -1.094510623812675476e+01 -4.619309980422201534e-01
3.010328668355941772e+01 -1.088224002718925476e+01 -4.429032880812826534e-01
2.009095758199691772e+01 -6.117835730314254761e+00 -3.384416181594076534e-01
2.130934137105941772e+01 -6.411903113126754761e+00 -3.308579999953451534e-01
2.756080621480941772e+01 -8.781043738126754761e+00 -3.530747968703451534e-01
2.865785211324691772e+01 -1.160025760531425476e+01 -3.844163496047201534e-01
2.826979058980941772e+01 -1.106558963656425476e+01 -3.573930341750326534e-01
2.825257867574691772e+01 -1.072061893343925476e+01 -3.340318281203451534e-01
2.972853082418441772e+01 -1.107266971468925476e+01 -3.176896650344076534e-01
3.617616266012191772e+01 -1.364701053500175476e+01 -3.178575117140951534e-01
3.621974176168441772e+01 -1.324442264437675476e+01 -2.888352949172201534e-01
3.637623590230941772e+01 -1.289151737093925476e+01 -2.601487714797201534e-01
4.085353082418441772e+01 -1.434537479281425476e+01 -2.382676679640951534e-01
2.784608453512191772e+01 -1.120438358187675476e+01 -2.395341474562826534e-01
2.762599176168441772e+01 -1.076163455843925476e+01 -2.167680341750326534e-01
2.822242730855941772e+01 -1.071756717562675476e+01 -1.948869306594076534e-01
2.909925836324691772e+01 -1.079154178500175476e+01 -1.720292646437826534e-01
3.017469781637191772e+01 -1.093863651156425476e+01 -1.477830488234701534e-01
3.046937555074691772e+01 -1.071842166781425476e+01 -1.236283857375326534e-01
3.606190484762191772e+01 -1.277066776156425476e+01 -8.400131054222015337e-02
2.927430719137191772e+01 -1.193424198031425476e+01 -9.671188183128265337e-02
2.799732965230941772e+01 -1.095523807406425476e+01 -7.867599315940765337e-02
2.787257379293441772e+01 -1.056192752718925476e+01 -5.674911327659515337e-02
3.596388238668441772e+01 -1.400321170687675476e+01 9.474031254654846634e-03
3.027394098043441772e+01 -1.099588748812675476e+01 1.219026371842346634e-03
3.599806207418441772e+01 -1.317508670687675476e+01 6.474136523902984663e-02
3.621998590230941772e+01 -1.285269901156425476e+01 9.278701953590484663e-02
4.092799371480941772e+01 -1.440836307406425476e+01 1.603529375046548466e-01
2.897450250387191772e+01 -1.179569217562675476e+01 4.737686328590484663e-02
2.798976129293441772e+01 -1.096305057406425476e+01 6.060623340309234663e-02
2.775709527730941772e+01 -1.051786014437675476e+01 7.945083789527984663e-02
2.942774957418441772e+01 -1.096842166781425476e+01 1.179487626999673466e-01
2.998182672262191772e+01 -1.087515994906425476e+01 1.460707109421548466e-01
3.064186090230941772e+01 -1.081876346468925476e+01 1.761152666062173466e-01
3.611451715230941772e+01 -1.282157108187675476e+01 2.688124101609048466e-01
2.927198785543441772e+01 -1.195767948031425476e+01 1.956465166062173466e-01
2.798231500387191772e+01 -1.097086307406425476e+01 1.991255205124673466e-01
3.013673394918441772e+01 -1.166947147250175476e+01 2.516462724655923466e-01
2.927186578512191772e+01 -1.090738651156425476e+01 2.601454179734048466e-01
3.038307183980941772e+01 -1.106974002718925476e+01 2.993910234421548466e-01
3.595118707418441772e+01 -1.318289920687675476e+01 4.162428300827798466e-01
3.592787164449691772e+01 -1.234317752718925476e+01 4.667646806687173466e-01
2.956813043355941772e+01 -1.211930057406425476e+01 3.478071611374673466e-01
2.954335016012191772e+01 -1.175040408968925476e+01 3.685591142624673466e-01
2.814527887105941772e+01 -1.072672244906425476e+01 3.616468828171548466e-01
3.608692926168441772e+01 -1.410453006625175476e+01 5.458357255905923466e-01
3.620326226949691772e+01 -1.373197147250175476e+01 5.736372392624673466e-01
7.951539605855941772e+01 -3.251309940218925476e+01 1.556822053715592347e+00
3.647608941793441772e+01 -1.300601932406425476e+01 6.300489824265298466e-01
3.611964410543441772e+01 -1.243765994906425476e+01 6.465589921921548466e-01
2.932752984762191772e+01 -1.201016971468925476e+01 4.896223466843423466e-01
2.955873101949691772e+01 -1.177005741000175476e+01 5.156080644577798466e-01
2.816346734762191772e+01 -1.074698612093925476e+01 5.010054033249673466e-01
3.490431207418441772e+01 -1.356595584750175476e+01 6.938002031296548466e-01
3.624574273824691772e+01 -1.376590701937675476e+01 7.529432695359048466e-01
3.645692437887191772e+01 -1.343582889437675476e+01 7.830641191452798466e-01
3.646498101949691772e+01 -1.301554080843925476e+01 8.076765459030923466e-01
2.899842828512191772e+01 -1.185623905062675476e+01 6.272566240280923466e-01
2.957374566793441772e+01 -1.178983280062675476e+01 6.636640947312173466e-01
3.600575250387191772e+01 -1.452616092562675476e+01 8.762953203171548466e-01
3.474476617574691772e+01 -1.350540897250175476e+01 8.614027421921548466e-01
3.588868707418441772e+01 -1.361746951937675476e+01 9.201948564499673466e-01
7.965309137105941772e+01 -3.263809940218925476e+01 2.349958650395279847e+00
7.991725152730941772e+01 -3.181510135531425476e+01 2.412885896489029847e+00
2.926710504293441772e+01 -1.200418826937675476e+01 7.810652177780923466e-01
2.958876031637191772e+01 -1.180948612093925476e+01 8.111708085984048466e-01
3.583827203512191772e+01 -1.446048709750175476e+01 1.050337068364029847e+00
3.650526422262191772e+01 -1.434464237093925476e+01 1.097288362309342347e+00
3.580702203512191772e+01 -1.359476444125175476e+01 1.094923250004654847e+00
8.130531305074691772e+01 -3.340494510531425476e+01 2.808805696293717347e+00
8.000477594137191772e+01 -3.188480350375175476e+01 2.811048738285904847e+00
8.740126031637191772e+01 -3.406827518343925476e+01 3.145353547856217347e+00
2.925428766012191772e+01 -1.201004764437675476e+01 9.275038164109048466e-01
5.378871148824691772e+01 -2.376590701937675476e+01 1.918424836918717347e+00
3.582215875387191772e+01 -1.446744510531425476e+01 1.227918855473404847e+00
3.613185113668441772e+01 -1.418424198031425476e+01 1.262769929692154847e+00
8.155372613668441772e+01 -3.451432010531425476e+01 3.173048250004654847e+00
8.014149469137191772e+01 -3.291971561312675476e+01 3.163496248051529847e+00
7.921595758199691772e+01 -3.065372440218925476e+01 3.222547761723404847e+00
3.635902398824691772e+01 -1.562015506625175476e+01 1.387632600590592347e+00
5.192201226949691772e+01 -2.286649295687675476e+01 2.107053987309342347e+00
3.559986871480941772e+01 -1.437515994906425476e+01 1.396986238285904847e+00
3.640284723043441772e+01 -1.432633182406425476e+01 1.455183259770279847e+00
7.908839410543441772e+01 -3.341995975375175476e+01 3.467313997074967347e+00
8.011805719137191772e+01 -3.294156619906425476e+01 3.562650911137467347e+00
8.031446832418441772e+01 -3.208280155062675476e+01 3.619108430668717347e+00
8.750685113668441772e+01 -3.418180057406425476e+01 4.013899080082779847e+00
3.637574762105941772e+01 -1.564408084750175476e+01 1.572141877934342347e+00
5.312501519918441772e+01 -2.348294803500175476e+01 2.428526155278092347e+00
3.580970758199691772e+01 -1.449088260531425476e+01 1.584760896489029847e+00
5.213221734762191772e+01 -2.173197147250175476e+01 2.439359895512467347e+00
7.724293512105941772e+01 -3.260733768343925476e+01 3.766767732426529847e+00
8.007814019918441772e+01 -3.295609256625175476e+01 3.958769075199967347e+00
8.033460992574691772e+01 -3.212345096468925476e+01 4.017561189457779847e+00
8.100770562887191772e+01 -3.147269412875175476e+01 4.100446931645279847e+00
3.637257379293441772e+01 -1.565775272250175476e+01 1.754865876957779847e+00
3.574964898824691772e+01 -1.490726444125175476e+01 1.740888826176529847e+00
3.507264703512191772e+01 -1.415006229281425476e+01 1.723036042973404847e+00
5.162623590230941772e+01 -2.151554080843925476e+01 2.672529451176529847e+00
7.938966363668441772e+01 -3.362259647250175476e+01 4.276350251957779847e+00
7.694227594137191772e+01 -3.158902713656425476e+01 4.179411165043717347e+00
8.481581109762191772e+01 -3.410196658968925476e+01 4.676588289067154847e+00
8.063966363668441772e+01 -3.134891483187675476e+01 4.478193513676529847e+00
3.584303277730941772e+01 -1.540433475375175476e+01 1.907194368168717347e+00
3.448170465230941772e+01 -1.429422733187675476e+01 1.844434968754654847e+00
3.489125055074691772e+01 -1.407694217562675476e+01 1.886686555668717347e+00
5.208424371480941772e+01 -2.175223514437675476e+01 2.958372346684342347e+00
7.932814019918441772e+01 -3.362674686312675476e+01 4.669248811528092347e+00
7.634925836324691772e+01 -3.135514041781425476e+01 4.525068513676529847e+00
7.834840387105941772e+01 -3.132425662875175476e+01 4.692457429692154847e+00
7.920411676168441772e+01 -3.077371951937675476e+01 4.786909333989029847e+00
5.184608453512191772e+01 -2.355118533968925476e+01 3.125944368168717347e+00
3.427210992574691772e+01 -1.420462772250175476e+01 2.003263704106217347e+00
3.473194879293441772e+01 -1.401432010531425476e+01 2.050932161137467347e+00
7.903297418355941772e+01 -3.447013065218925476e+01 5.008329622074967347e+00
7.934791558980941772e+01 -3.366825076937675476e+01 5.069273225590592347e+00
7.664356988668441772e+01 -3.151761600375175476e+01 4.926740876957779847e+00
7.642005914449691772e+01 -3.051639530062675476e+01 4.949674836918717347e+00
7.896705621480941772e+01 -3.070462772250175476e+01 5.163419954106217347e+00
1.479750055074691772e+01 -3.430824011564254761e+00 -5.511491376906576534e-01
1.486952203512191772e+01 -3.297401160001754761e+00 -5.402543623000326534e-01
1.493202203512191772e+01 -3.159949988126754761e+00 -5.294816572219076534e-01
1.499476617574691772e+01 -3.021766394376754761e+00 -5.186479169875326534e-01
1.505738824605941772e+01 -2.883826941251754761e+00 -5.078446943312826534e-01
1.512574762105941772e+01 -2.747718542814254761e+00 -4.971482831984701534e-01
1.521498101949691772e+01 -2.618079870939254761e+00 -4.868180830031576534e-01
1.529505914449691772e+01 -2.485023230314254761e+00 -4.766557294875326534e-01
1.706068414449691772e+01 -4.378211706876754761e+00 -5.294206220656576534e-01
1.715650933980941772e+01 -4.228187292814254761e+00 -5.173509199172201534e-01
1.726942437887191772e+01 -4.084144324064254761e+00 -5.051133710890951534e-01
1.736634820699691772e+01 -3.932288855314254761e+00 -4.928910810500326534e-01
1.746327203512191772e+01 -3.780067175626754761e+00 -4.806382734328451534e-01
1.756068414449691772e+01 -3.627357214689254761e+00 -4.683549482375326534e-01
1.764161676168441772e+01 -3.467445105314254761e+00 -4.561173994094076534e-01
1.773976129293441772e+01 -3.313636511564254761e+00 -4.437425214797201534e-01
2.043861383199691772e+01 -5.791785925626754761e+00 -5.032365400344076534e-01
2.053065484762191772e+01 -5.601112097501754761e+00 -4.880845624953451534e-01
2.062281793355941772e+01 -5.410072058439254761e+00 -4.729173261672201534e-01
2.074281305074691772e+01 -5.228431433439254761e+00 -4.580400068312826534e-01
2.092762750387191772e+01 -5.070594519376754761e+00 -4.439714033156576534e-01
2.111451715230941772e+01 -4.910926550626754761e+00 -4.297502119094076534e-01
2.129322808980941772e+01 -4.745277136564254761e+00 -4.151933271437826534e-01
2.142286676168441772e+01 -4.561561316251754761e+00 -4.000260908156576534e-01
2.608619683980941772e+01 -8.154456824064254761e+00 -4.695909101515951534e-01
2.640809625387191772e+01 -7.991370886564254761e+00 -4.514176923781576534e-01
2.675904840230941772e+01 -7.834510535001754761e+00 -4.338243085890951534e-01
2.711817926168441772e+01 -7.673988074064254761e+00 -4.158189374953451534e-01
2.748231500387191772e+01 -7.510413855314254761e+00 -3.975083906203451534e-01
2.776502984762191772e+01 -7.311439245939254761e+00 -3.781907636672201534e-01
2.805689996480941772e+01 -7.110633581876754761e+00 -3.585527021437826534e-01
2.844654840230941772e+01 -6.939613074064254761e+00 -3.399674970656576534e-01
2.758509820699691772e+01 -8.790076941251754761e+00 -3.531510908156576534e-01
4.897267144918441772e+01 -1.388468143343925476e+01 -2.215745527297201534e-01
4.085060113668441772e+01 -1.434256717562675476e+01 -2.381608564406576534e-01
4.847084039449691772e+01 -1.373270389437675476e+01 8.772126957779846634e-03
4.837257379293441772e+01 -1.371707889437675476e+01 2.391951005905923466e-01
4.093446344137191772e+01 -1.440946170687675476e+01 1.605207841843423466e-01
4.873487848043441772e+01 -1.385733768343925476e+01 4.738600175827798466e-01
4.755067437887191772e+01 -1.347318241000175476e+01 6.846296709030923466e-01
3.592652887105941772e+01 -1.234122440218925476e+01 4.668257158249673466e-01
3.612232965230941772e+01 -1.243741580843925476e+01 6.467115800827798466e-01
8.739918512105941772e+01 -3.406400272250175476e+01 3.145460359379654847e+00
7.920643609762191772e+01 -3.064652225375175476e+01 3.222303621098404847e+00
8.158106988668441772e+01 -3.070584842562675476e+01 3.373304597660904847e+00
8.750416558980941772e+01 -3.417716190218925476e+01 4.013929597660904847e+00
8.760768121480941772e+01 -3.320914432406425476e+01 4.071027986332779847e+00
8.172425836324691772e+01 -2.986051151156425476e+01 3.830854646489029847e+00
8.770753473043441772e+01 -3.429764530062675476e+01 4.458463899418717347e+00
7.895826715230941772e+01 -2.969290897250175476e+01 4.034498445317154847e+00
7.888233941793441772e+01 -2.875833866000175476e+01 4.075437776371842347e+00
8.063758844137191772e+01 -3.134488651156425476e+01 4.478224031254654847e+00
7.806983941793441772e+01 -2.935880252718925476e+01 4.371763459965592347e+00
7.880775445699691772e+01 -2.875907108187675476e+01 4.458799592778092347e+00
7.901612848043441772e+01 -3.069107791781425476e+01 4.775129548832779847e+00
7.856642144918441772e+01 -2.959354373812675476e+01 4.788908235356217347e+00
7.883705133199691772e+01 -2.880106326937675476e+01 4.846235505864029847e+00
7.896449273824691772e+01 -3.070047733187675476e+01 5.163374177739029847e+00
8.155763238668441772e+01 -3.085550662875175476e+01 5.380979768559342347e+00
8.138893121480941772e+01 -2.985257694125175476e+01 5.411329500004654847e+00
1.529627984762191772e+01 -2.484901160001754761e+00 -4.766404706984701534e-01
1.538380426168441772e+01 -2.353553503751754761e+00 -4.662950117140951534e-01
1.546241754293441772e+01 -2.218543738126754761e+00 -4.560716230422201534e-01
1.554164117574691772e+01 -2.082313269376754761e+00 -4.457871992140951534e-01
1.562098687887191772e+01 -1.945838660001754761e+00 -4.354722578078451534e-01
1.570069879293441772e+01 -1.808875769376754761e+00 -4.251115400344076534e-01
1.578114312887191772e+01 -1.670692175626754761e+00 -4.146592695265951534e-01
1.585182183980941772e+01 -1.529700964689254761e+00 -4.044358808547201534e-01
1.774073785543441772e+01 -3.313270300626754761e+00 -4.436967451125326534e-01
1.781983941793441772e+01 -3.152381628751754761e+00 -4.314591962844076534e-01
1.791700738668441772e+01 -2.996375769376754761e+00 -4.189927656203451534e-01
1.799720758199691772e+01 -2.833656042814254761e+00 -4.066026289015951534e-01
1.807728570699691772e+01 -2.670936316251754761e+00 -3.942277509719076534e-01
1.809706109762191772e+01 -2.490516394376754761e+00 -3.811204511672201534e-01
1.810096734762191772e+01 -2.305824011564254761e+00 -3.682878095656576534e-01
1.811927789449691772e+01 -2.126502722501754761e+00 -3.552873212844076534e-01
2.142408746480941772e+01 -4.561195105314254761e+00 -3.999803144484701534e-01
2.152894586324691772e+01 -4.367957800626754761e+00 -3.849961835890951534e-01
2.162013238668441772e+01 -4.169471472501754761e+00 -3.698136884719076534e-01
2.163502496480941772e+01 -3.946449011564254761e+00 -3.539292890578451534e-01
2.168727105855941772e+01 -3.736121863126754761e+00 -3.384416181594076534e-01
2.186134332418441772e+01 -3.560462683439254761e+00 -3.237626630812826534e-01
2.203773492574691772e+01 -3.382240027189254761e+00 -3.088853437453451534e-01
2.223756402730941772e+01 -3.208533972501754761e+00 -2.940080244094076534e-01
2.844874566793441772e+01 -6.939246863126754761e+00 -3.399064619094076534e-01
2.865492242574691772e+01 -6.701698035001754761e+00 -3.191392499953451534e-01
2.900782769918441772e+01 -6.507728308439254761e+00 -2.995011884719076534e-01
3.081959527730941772e+01 -6.751136511564254761e+00 -2.842118818312826534e-01
3.191395562887191772e+01 -6.747474402189254761e+00 -2.645738203078451534e-01
6.815687555074691772e+01 -1.666861698031425476e+01 -3.074052412062826534e-01
6.137464898824691772e+01 -1.409915897250175476e+01 -2.501695234328451534e-01
6.846852105855941772e+01 -1.531070682406425476e+01 -2.098710615187826534e-01
4.893470758199691772e+01 -1.387003299593925476e+01 -2.214067060500326534e-01
4.658009332418441772e+01 -1.256986209750175476e+01 -1.854417402297201534e-01
4.669093316793441772e+01 -1.210306522250175476e+01 -1.513841230422201534e-01
4.735487359762191772e+01 -1.180374881625175476e+01 -1.164414960890951534e-01
4.731703180074691772e+01 -1.128849002718925476e+01 -8.238387890159515337e-02
6.500404351949691772e+01 -1.579886600375175476e+01 3.339998051529846634e-03
6.101515191793441772e+01 -1.402213260531425476e+01 3.542923144996734663e-02
5.642372125387191772e+01 -1.217874881625175476e+01 5.871414355934234663e-02
4.843434137105941772e+01 -1.371854373812675476e+01 8.741609379654846634e-03
4.653273004293441772e+01 -1.257108280062675476e+01 3.568863086402984663e-02
4.658973687887191772e+01 -1.208768436312675476e+01 6.930374316871734663e-02
4.682325738668441772e+01 -1.165824100375175476e+01 1.040022294968423466e-01
4.726295465230941772e+01 -1.128910037875175476e+01 1.401808183640298466e-01
6.544203180074691772e+01 -1.594571658968925476e+01 3.134748857468423466e-01
6.594215387105941772e+01 -1.469449588656425476e+01 4.081556718796548466e-01
4.833741754293441772e+01 -1.370328494906425476e+01 2.389967363327798466e-01
4.672645562887191772e+01 -1.265116092562675476e+01 2.576124589890298466e-01
4.672254937887191772e+01 -1.214627811312675476e+01 2.903425615280923466e-01
4.696376031637191772e+01 -1.171756717562675476e+01 3.256971757859048466e-01
4.744532769918441772e+01 -1.135916873812675476e+01 3.639204423874673466e-01
6.497340387105941772e+01 -1.583524295687675476e+01 6.149885576218423466e-01
6.610365289449691772e+01 -1.545462772250175476e+01 6.747267168015298466e-01
6.850770562887191772e+01 -1.539090701937675476e+01 7.532484453171548466e-01
4.869825738668441772e+01 -1.384305545687675476e+01 4.734632890671548466e-01
4.692408746480941772e+01 -1.273270389437675476e+01 4.815504472702798466e-01
4.705812066793441772e+01 -1.226920291781425476e+01 5.170271318405923466e-01
4.738246148824691772e+01 -1.186222049593925476e+01 5.544416826218423466e-01
4.804579156637191772e+01 -1.155301639437675476e+01 5.976087968796548466e-01
6.592359918355941772e+01 -1.612808963656425476e+01 9.382612626999673466e-01
6.532948297262191772e+01 -1.457828494906425476e+01 1.014402620121842347e+00
4.755030816793441772e+01 -1.347122928500175476e+01 6.847212236374673466e-01
4.766908258199691772e+01 -1.299417850375175476e+01 7.192366044968423466e-01
4.757142633199691772e+01 -1.244876834750175476e+01 7.494032304734048466e-01
4.915748590230941772e+01 -1.242264530062675476e+01 8.141157548874673466e-01
6.469642633199691772e+01 -1.580142948031425476e+01 1.221189729496842347e+00
6.621839898824691772e+01 -1.553140994906425476e+01 1.298567048832779847e+00
6.554627984762191772e+01 -1.465763065218925476e+01 1.326383821293717347e+00
4.832496637105941772e+01 -1.270499393343925476e+01 9.927503984421548466e-01
5.015541070699691772e+01 -1.274600955843925476e+01 1.071104280278092347e+00
6.430177301168441772e+01 -1.571134158968925476e+01 1.514829866215592347e+00
6.560987848043441772e+01 -1.538724491000175476e+01 1.592420808598404847e+00
6.704896539449691772e+01 -1.507608768343925476e+01 1.675001375004654847e+00
4.866542047262191772e+01 -1.335611698031425476e+01 1.201032869145279847e+00
6.446681207418441772e+01 -1.578079959750175476e+01 1.824125520512467347e+00
6.579530328512191772e+01 -1.546073123812675476e+01 1.907835237309342347e+00
6.527296441793441772e+01 -1.463004276156425476e+01 1.932096711918717347e+00
6.558473199605941772e+01 -1.612259647250175476e+01 2.168089143559342347e+00
6.582789605855941772e+01 -1.549222537875175476e+01 2.217832795903092347e+00
6.545838922262191772e+01 -1.610916873812675476e+01 2.471754304692154847e+00
6.491615289449691772e+01 -1.526395389437675476e+01 2.490553132817154847e+00
6.592481988668441772e+01 -1.484708377718925476e+01 2.572309724614029847e+00
6.780751031637191772e+01 -1.608341190218925476e+01 2.929807893559342347e+00
6.581263726949691772e+01 -1.483975955843925476e+01 2.875822297856217347e+00
6.668397516012191772e+01 -1.650626346468925476e+01 3.152372590824967347e+00
6.587550348043441772e+01 -1.557328006625175476e+01 3.149626008793717347e+00
6.605531305074691772e+01 -1.492667362093925476e+01 3.198438875004654847e+00
6.731605523824691772e+01 -1.671097537875175476e+01 3.503584138676529847e+00
6.702552789449691772e+01 -1.591397830843925476e+01 3.525419465824967347e+00
6.753260797262191772e+01 -1.534171268343925476e+01 3.591688386723404847e+00
6.760694879293441772e+01 -1.538468143343925476e+01 3.914777986332779847e+00
1.585218805074691772e+01 -1.529212683439254761e+00 -4.044053632765951534e-01
1.593080133199691772e+01 -1.389564245939254761e+00 -3.939530927687826534e-01
1.599977105855941772e+01 -1.246741980314254761e+00 -3.836991865187826534e-01
1.606935113668441772e+01 -1.102699011564254761e+00 -3.733537275344076534e-01
1.613893121480941772e+01 -9.584119021892547607e-01 -3.629930097609701534e-01
1.620887750387191772e+01 -8.135144412517547607e-01 -3.525865156203451534e-01
1.659071344137191772e+01 -7.290417850017547607e-01 -3.452470380812826534e-01
1.703675836324691772e+01 -6.499402225017547607e-01 -3.384721357375326534e-01
1.811927789449691772e+01 -2.125892370939254761e+00 -3.552415449172201534e-01
1.812135308980941772e+01 -1.943153113126754761e+00 -3.426072675734701534e-01
1.815357965230941772e+01 -1.768348425626754761e+00 -3.298356611281576534e-01
1.864796441793441772e+01 -1.699012488126754761e+00 -3.210008222609701534e-01
1.920680230855941772e+01 -1.634925574064254761e+00 -3.119981367140951534e-01
2.023170465230941772e+01 -1.657264441251754761e+00 -3.051316816359701534e-01
2.088002008199691772e+01 -1.583900183439254761e+00 -2.952439863234701534e-01
2.245948785543441772e+01 -1.673621863126754761e+00 -2.885148603469076534e-01
2.223939508199691772e+01 -3.208167761564254761e+00 -2.939622480422201534e-01
2.285621637105941772e+01 -3.135902136564254761e+00 -2.812211591750326534e-01
2.428419488668441772e+01 -3.246375769376754761e+00 -2.706315595656576534e-01
2.645033258199691772e+01 -3.496619910001754761e+00 -2.601792890578451534e-01
6.103761285543441772e+01 -1.080985233187675476e+01 -3.189866621047201534e-01
6.085621637105941772e+01 -1.014615604281425476e+01 -2.761399824172201534e-01
4.259278863668441772e+01 -5.898841589689254761e+00 -2.188584882765951534e-01
4.803102105855941772e+01 -6.491370886564254761e+00 -1.902024824172201534e-01
6.846656793355941772e+01 -1.530777713656425476e+01 -2.096879560500326534e-01
6.465589898824691772e+01 -1.296280643343925476e+01 -1.163346845656576534e-01
6.280628961324691772e+01 -1.186551639437675476e+01 -7.460189647972015337e-02
6.318690484762191772e+01 -1.130167362093925476e+01 -3.029037304222015337e-02
6.126063531637191772e+01 -1.025040408968925476e+01 7.047883793717346634e-03
4.259034723043441772e+01 -5.911903113126754761e+00 -2.308822460472015337e-02
4.803480523824691772e+01 -6.507362097501754761e+00 2.938675098121734663e-02
5.640016168355941772e+01 -1.217057010531425476e+01 5.874466113746734663e-02
5.336598199605941772e+01 -1.081949588656425476e+01 8.218216113746734663e-02
6.325135797262191772e+01 -1.198868533968925476e+01 2.191755693405923466e-01
6.264430230855941772e+01 -1.120304080843925476e+01 2.578718584030923466e-01
6.172840875387191772e+01 -1.036820194125175476e+01 2.931349199265298466e-01
4.258790582418441772e+01 -5.924964636564254761e+00 1.716902177780923466e-01
4.807765191793441772e+01 -6.530677527189254761e+00 2.506544511765298466e-01
6.594447320699691772e+01 -1.469278690218925476e+01 4.083387773484048466e-01
5.356092828512191772e+01 -1.088639041781425476e+01 3.332655351609048466e-01
5.048719781637191772e+01 -9.589027136564254761e+00 3.371260087937173466e-01
4.820838922262191772e+01 -8.540321081876754761e+00 3.456404130905923466e-01
4.617591851949691772e+01 -7.597572058439254761e+00 3.537123125046548466e-01
4.407789605855941772e+01 -6.685462683439254761e+00 3.580915849655923466e-01
4.219886773824691772e+01 -5.861121863126754761e+00 3.624861162155923466e-01
4.054603570699691772e+01 -5.121741980314254761e+00 3.662855546921548466e-01
6.850868219137191772e+01 -1.538870975375175476e+01 7.534315507859048466e-01
6.161170953512191772e+01 -1.293338748812675476e+01 6.990950029343423466e-01
6.135560601949691772e+01 -1.223038455843925476e+01 7.362196367234048466e-01
6.175367730855941772e+01 -1.168460819125175476e+01 7.833387773484048466e-01
5.997889703512191772e+01 -1.065628787875175476e+01 7.947218339890298466e-01
5.992262262105941772e+01 -1.002884647250175476e+01 8.331434648484048466e-01
4.249366754293441772e+01 -5.933387488126754761e+00 5.608961503952798466e-01
4.068177789449691772e+01 -5.160316199064254761e+00 5.548231523484048466e-01
6.532972711324691772e+01 -1.457596561312675476e+01 1.014555208012467347e+00
6.169093316793441772e+01 -1.297403690218925476e+01 9.875624101609048466e-01
6.458961480855941772e+01 -1.303299686312675476e+01 1.087324373051529847e+00
6.475392144918441772e+01 -1.239896366000175476e+01 1.133024446293717347e+00
6.016529840230941772e+01 -1.071720096468925476e+01 1.077574006840592347e+00
5.978236383199691772e+01 -1.001883670687675476e+01 1.108076326176529847e+00
4.834144586324691772e+01 -6.626502722501754761e+00 9.181959550827798466e-01
6.554762262105941772e+01 -1.465567752718925476e+01 1.326566926762467347e+00
6.488136285543441772e+01 -1.380118533968925476e+01 1.353086702153092347e+00
6.679481500387191772e+01 -1.358853885531425476e+01 1.442121736332779847e+00
6.108876031637191772e+01 -1.157144901156425476e+01 1.340864412114029847e+00
6.167835992574691772e+01 -1.107144901156425476e+01 1.395216218754654847e+00
6.047145074605941772e+01 -1.018350955843925476e+01 1.402387849614029847e+00
4.842347711324691772e+01 -6.657508581876754761e+00 1.143171541020279847e+00
6.704689019918441772e+01 -1.507315799593925476e+01 1.675092927739029847e+00
6.495594781637191772e+01 -1.384183475375175476e+01 1.657865754887467347e+00
6.203810113668441772e+01 -1.245731326937675476e+01 1.613477937504654847e+00
6.199574273824691772e+01 -1.180191776156425476e+01 1.651548616215592347e+00
6.037831109762191772e+01 -1.080374881625175476e+01 1.641004792973404847e+00
6.055335992574691772e+01 -1.022037479281425476e+01 1.684278718754654847e+00
6.526966851949691772e+01 -1.462686893343925476e+01 1.932127229496842347e+00
6.809315484762191772e+01 -1.465872928500175476e+01 2.067579500004654847e+00
6.695301812887191772e+01 -1.367154666781425476e+01 2.071272126957779847e+00
6.296681207418441772e+01 -1.204813358187675476e+01 1.974668733403092347e+00
6.082972711324691772e+01 -1.092362186312675476e+01 1.938093416020279847e+00
6.824122613668441772e+01 -1.471927616000175476e+01 2.391309968754654847e+00
6.699537652730941772e+01 -1.370426151156425476e+01 2.384916536137467347e+00
6.204957574605941772e+01 -1.185550662875175476e+01 2.231046907231217347e+00
6.121595758199691772e+01 -1.102945682406425476e+01 2.235441438481217347e+00
6.592689508199691772e+01 -1.484525272250175476e+01 2.572538606449967347e+00
6.822071832418441772e+01 -1.473722049593925476e+01 2.711042634770279847e+00
6.709535211324691772e+01 -1.375089237093925476e+01 2.701597444340592347e+00
6.179689019918441772e+01 -1.181717655062675476e+01 2.508268586918717347e+00
6.145924371480941772e+01 -1.110355350375175476e+01 2.530134431645279847e+00
6.581654351949691772e+01 -1.483841678500175476e+01 2.876142732426529847e+00
6.684754937887191772e+01 -1.441080448031425476e+01 2.964552156254654847e+00
6.709596246480941772e+01 -1.377359744906425476e+01 3.016233674809342347e+00
6.167652887105941772e+01 -1.180960819125175476e+01 2.791212312504654847e+00
6.183216851949691772e+01 -1.120694705843925476e+01 2.835188142582779847e+00
6.606324762105941772e+01 -1.492642948031425476e+01 3.198988191410904847e+00
6.692738336324691772e+01 -1.445365116000175476e+01 3.281324617192154847e+00
6.716773980855941772e+01 -1.381363651156425476e+01 3.333128206059342347e+00
6.746449273824691772e+01 -1.532120487093925476e+01 3.587980500981217347e+00
6.761244195699691772e+01 -1.538370487093925476e+01 3.915235750004654847e+00
4.262611383199691772e+01 -5.663978308439254761e+00 2.547895662114029847e+00
4.819239801168441772e+01 -8.727454870939254761e+00 3.028623811528092347e+00
4.446022027730941772e+01 -6.938270300626754761e+00 2.823957673832779847e+00
4.464649957418441772e+01 -6.520911902189254761e+00 2.860960237309342347e+00
4.031349176168441772e+01 -5.231239050626754761e+00 2.581724397465592347e+00
4.826905816793441772e+01 -8.761390417814254761e+00 3.257917634770279847e+00
4.603163141012191772e+01 -7.289100378751754761e+00 3.144788972660904847e+00
4.469435113668441772e+01 -6.545081824064254761e+00 3.071241609379654847e+00
4.032508844137191772e+01 -5.246253699064254761e+00 2.768491975590592347e+00
4.848487848043441772e+01 -8.828162878751754761e+00 3.499967805668717347e+00
4.832069391012191772e+01 -8.291053503751754761e+00 3.512632600590592347e+00
4.449391168355941772e+01 -6.974403113126754761e+00 3.238203279301529847e+00
4.456678766012191772e+01 -6.533363074064254761e+00 3.267133943364029847e+00
4.027198785543441772e+01 -5.248817175626754761e+00 2.950315706059342347e+00
1.703956598043441772e+01 -6.498181521892547607e-01 -3.384568769484701534e-01
1.752284234762191772e+01 -5.687634646892547607e-01 -3.311021406203451534e-01
1.801564019918441772e+01 -4.798962771892547607e-01 -3.235948164015951534e-01
1.853858941793441772e+01 -3.856579959392547607e-01 -3.156297285109701534e-01
1.909022516012191772e+01 -2.860486209392547607e-01 -3.072221357375326534e-01
2.021925348043441772e+01 -2.546765506267547607e-01 -3.015763837844076534e-01
2.154920953512191772e+01 -2.256238162517547607e-01 -2.954576093703451534e-01
2.301612848043441772e+01 -1.870495975017547607e-01 -2.888200361281576534e-01
2.246839898824691772e+01 -1.674476355314254761e+00 -2.885148603469076534e-01
2.372975152730941772e+01 -1.675941199064254761e+00 -2.789323408156576534e-01
2.587538141012191772e+01 -1.800330847501754761e+00 -2.700822431594076534e-01
4.152088922262191772e+01 -2.761146277189254761e+00 -2.143724042922201534e-01
3.185536187887191772e+01 -1.224158972501754761e+00 -1.866014081984701534e-01
4.803285211324691772e+01 -6.490150183439254761e+00 -1.900956708937826534e-01
4.427564996480941772e+01 -4.892371863126754761e+00 -1.311814863234701534e-01
4.154200738668441772e+01 -2.776405066251754761e+00 -2.572799511253265337e-02
3.185206598043441772e+01 -1.233314245939254761e+00 -4.298568554222015337e-02
4.803651422262191772e+01 -6.506019324064254761e+00 2.950882129371734663e-02
4.427772516012191772e+01 -4.906532019376754761e+00 7.143997363746734663e-02
4.155348199605941772e+01 -2.790321081876754761e+00 1.631300371140298466e-01
3.184864801168441772e+01 -1.242225378751754761e+00 9.989761523902984663e-02
4.807594293355941772e+01 -6.528724402189254761e+00 2.507460039109048466e-01
4.430226129293441772e+01 -4.924354285001754761e+00 2.733290117234048466e-01
4.131739801168441772e+01 -2.772742956876754761e+00 3.478987138718423466e-01
3.184523004293441772e+01 -1.251380652189254761e+00 2.435591142624673466e-01
4.053541558980941772e+01 -5.118324011564254761e+00 3.662245195359048466e-01
3.906239312887191772e+01 -4.446815222501754761e+00 3.717482011765298466e-01
3.767543023824691772e+01 -3.821204870939254761e+00 3.755934160202798466e-01
3.636537164449691772e+01 -3.235999792814254761e+00 3.788587968796548466e-01
3.513282769918441772e+01 -2.691322058439254761e+00 3.815443437546548466e-01
3.395777887105941772e+01 -2.180824011564254761e+00 3.835585039109048466e-01
3.284669488668441772e+01 -1.702064245939254761e+00 3.852217119187173466e-01
3.181629937887191772e+01 -1.257362097501754761e+00 3.860304277390298466e-01
4.066981500387191772e+01 -5.156654089689254761e+00 5.547010820359048466e-01
3.903700250387191772e+01 -4.454505652189254761e+00 5.491316240280923466e-01
3.763490289449691772e+01 -3.826087683439254761e+00 5.459577959030923466e-01
3.633729547262191772e+01 -3.242713660001754761e+00 5.431196611374673466e-01
3.511695855855941772e+01 -2.699744910001754761e+00 5.401136796921548466e-01
3.395350641012191772e+01 -2.190467566251754761e+00 5.367109697312173466e-01
3.285426324605941772e+01 -1.712806433439254761e+00 5.332777421921548466e-01
3.180702203512191772e+01 -1.265784949064254761e+00 5.295088212937173466e-01
4.833583062887191772e+01 -6.623695105314254761e+00 9.181806962937173466e-01
4.453590387105941772e+01 -5.005408972501754761e+00 8.869459550827798466e-01
4.116627496480941772e+01 -2.790565222501754761e+00 9.056837480515298466e-01
4.841700738668441772e+01 -6.654578894376754761e+00 1.143095247074967347e+00
4.464405816793441772e+01 -5.037635535001754761e+00 1.093275300785904847e+00
4.113661187887191772e+01 -2.799110144376754761e+00 1.092161409184342347e+00
4.818995660543441772e+01 -6.139442175626754761e+00 1.387281648442154847e+00
4.916273492574691772e+01 -4.830238074064254761e+00 1.509779207035904847e+00
4.509803766012191772e+01 -3.772987097501754761e+00 1.394773713871842347e+00
3.979615777730941772e+01 -2.638465613126754761e+00 1.229917756840592347e+00
4.147718805074691772e+01 -2.444740027189254761e+00 1.315839998051529847e+00
4.811476129293441772e+01 -6.141151160001754761e+00 1.606275789067154847e+00
4.433863824605941772e+01 -4.566932410001754761e+00 1.517072908207779847e+00
4.501417535543441772e+01 -3.775062292814254761e+00 1.597547761723404847e+00
4.000477594137191772e+01 -2.677528113126754761e+00 1.419660798832779847e+00
4.171070855855941772e+01 -2.485023230314254761e+00 1.514265291020279847e+00
4.804017633199691772e+01 -6.142738074064254761e+00 1.823499910160904847e+00
4.426258844137191772e+01 -4.568397253751754761e+00 1.715955964848404847e+00
4.507618707418441772e+01 -4.247474402189254761e+00 1.778333894535904847e+00
4.529664605855941772e+01 -3.828284949064254761e+00 1.814970247074967347e+00
4.006214898824691772e+01 -2.696937292814254761e+00 1.603559724614029847e+00
4.174879449605941772e+01 -2.501991003751754761e+00 1.704923860356217347e+00
4.797352594137191772e+01 -6.145911902189254761e+00 2.041700593754654847e+00
4.897218316793441772e+01 -5.832435339689254761e+00 2.116621248051529847e+00
4.416029351949691772e+01 -4.565711706876754761e+00 1.912962190434342347e+00
4.501271051168441772e+01 -4.251746863126754761e+00 1.980650178715592347e+00
4.339942926168441772e+01 -3.576087683439254761e+00 1.927107087895279847e+00
3.939759820699691772e+01 -2.622718542814254761e+00 1.752821199223404847e+00
4.177272027730941772e+01 -2.517493933439254761e+00 1.896299592778092347e+00
4.796168512105941772e+01 -6.158851355314254761e+00 2.261015168949967347e+00
4.076844781637191772e+01 -4.444129675626754761e+00 1.911939851567154847e+00
4.408888238668441772e+01 -4.567908972501754761e+00 2.111814729496842347e+00
4.246778863668441772e+01 -3.882240027189254761e+00 2.050520173832779847e+00
4.345350641012191772e+01 -3.596961706876754761e+00 2.128538362309342347e+00
3.930628961324691772e+01 -2.622596472501754761e+00 1.926450959965592347e+00
4.111109918355941772e+01 -2.450355261564254761e+00 2.048994294926529847e+00
4.789051812887191772e+01 -6.161048620939254761e+00 2.476972810551529847e+00
4.889137262105941772e+01 -5.849281042814254761e+00 2.561811677739029847e+00
4.402320855855941772e+01 -4.570960730314254761e+00 2.309355012699967347e+00
4.279615777730941772e+01 -3.944740027189254761e+00 2.263136140629654847e+00
4.157081598043441772e+01 -3.345130652189254761e+00 2.215528718754654847e+00
3.949317926168441772e+01 -2.658851355314254761e+00 2.115843049809342347e+00
4.113490289449691772e+01 -2.465614050626754761e+00 2.237776033207779847e+00
4.782118219137191772e+01 -6.163612097501754761e+00 2.693632356449967347e+00
4.075636285543441772e+01 -4.467567175626754761e+00 2.284589998051529847e+00
4.076600641012191772e+01 -4.058753699064254761e+00 2.308439485356217347e+00
4.249696344137191772e+01 -3.912757605314254761e+00 2.440458528324967347e+00
4.356947320699691772e+01 -3.639808386564254761e+00 2.532591096684342347e+00
4.075135797262191772e+01 -2.835487097501754761e+00 2.376661531254654847e+00
4.111341851949691772e+01 -2.475257605314254761e+00 2.422941438481217347e+00
4.262892144918441772e+01 -5.663001745939254761e+00 2.548170320317154847e+00
4.307276910543441772e+01 -5.313026160001754761e+00 2.600446931645279847e+00
4.071974176168441772e+01 -4.474036902189254761e+00 2.468427888676529847e+00
4.461293023824691772e+01 -4.246497839689254761e+00 2.777235261723404847e+00
3.900465387105941772e+01 -3.007606238126754761e+00 2.420027009770279847e+00
3.890028375387191772e+01 -2.604896277189254761e+00 2.434599153324967347e+00
4.111280816793441772e+01 -2.487586706876754761e+00 2.610441438481217347e+00
4.031385797262191772e+01 -5.229896277189254761e+00 2.581831208989029847e+00
4.064491266012191772e+01 -4.883216589689254761e+00 2.627668611332779847e+00
4.010145562887191772e+01 -4.380164831876754761e+00 2.611631624028092347e+00
4.057508844137191772e+01 -4.053016394376754761e+00 2.667890779301529847e+00
4.392933648824691772e+01 -4.156409949064254761e+00 2.932646028324967347e+00
4.028309625387191772e+01 -3.200599402189254761e+00 2.691435090824967347e+00
3.899098199605941772e+01 -2.628577917814254761e+00 2.618849031254654847e+00
3.888502496480941772e+01 -2.229285925626754761e+00 2.632353059574967347e+00
4.032716363668441772e+01 -5.245277136564254761e+00 2.768720857426529847e+00
3.984913629293441772e+01 -4.750404089689254761e+00 2.754972688481217347e+00
4.013075250387191772e+01 -4.397742956876754761e+00 2.797224275395279847e+00
4.079518121480941772e+01 -4.101356238126754761e+00 2.869993440434342347e+00
4.457386773824691772e+01 -4.268104285001754761e+00 3.182829133793717347e+00
4.030982965230941772e+01 -3.216712683439254761e+00 2.876905671879654847e+00
3.872315973043441772e+01 -2.605018347501754761e+00 2.776029817387467347e+00
3.911134332418441772e+01 -2.268470495939254761e+00 2.827467195317154847e+00
4.027333062887191772e+01 -5.247718542814254761e+00 2.950498811528092347e+00
3.989503473043441772e+01 -4.771400183439254761e+00 2.941190950199967347e+00
4.017823785543441772e+01 -4.418494910001754761e+00 2.985609285160904847e+00
4.051039117574691772e+01 -4.067664831876754761e+00 3.034330598637467347e+00
4.154725641012191772e+01 -3.820228308439254761e+00 3.140760652348404847e+00
4.343714898824691772e+01 -3.674232214689254761e+00 3.318296663090592347e+00
3.880555719137191772e+01 -2.627601355314254761e+00 2.958799592778092347e+00
3.929542535543441772e+01 -2.302772253751754761e+00 3.021238557621842347e+00
4.515882867574691772e+01 -4.469154089689254761e+00 2.911802522465592347e+00
3.891419976949691772e+01 -3.055824011564254761e+00 2.511518708989029847e+00
3.904933160543441772e+01 -2.660682410001754761e+00 2.544691316410904847e+00
4.042555230855941772e+01 -2.426307410001754761e+00 2.664320222660904847e+00
4.076844781637191772e+01 -2.041541785001754761e+00 2.712919465824967347e+00
1.331166070699691772e+01 1.390342980623245239e+00 7.927534501999673466e-01
1.260438531637191772e+01 1.611290246248245239e+00 7.509291093796548466e-01
4.043629449605941772e+01 -4.156898230314254761e+00 2.763426057621842347e+00
4.384645074605941772e+01 -4.273719519376754761e+00 3.035475007817154847e+00
4.202455133199691772e+01 -3.535926550626754761e+00 2.927519075199967347e+00
3.873902887105941772e+01 -2.630042761564254761e+00 2.710691682621842347e+00
4.021620172262191772e+01 -2.412147253751754761e+00 2.843794099614029847e+00
4.110743707418441772e+01 -2.095252722501754761e+00 2.934660188481217347e+00
4.063758844137191772e+01 -1.610755652189254761e+00 2.924925081059342347e+00
1.265626519918441772e+01 1.601768761873245239e+00 8.211042802780923466e-01
4.053285211324691772e+01 -4.187049597501754761e+00 2.968031160160904847e+00
4.041163629293441772e+01 -3.736121863126754761e+00 2.981931916996842347e+00
4.346400445699691772e+01 -3.766517370939254761e+00 3.243635408207779847e+00
3.874769586324691772e+01 -2.644080847501754761e+00 2.899885408207779847e+00
3.873353570699691772e+01 -2.232337683439254761e+00 2.921873323246842347e+00
3.903968805074691772e+01 -1.860267370939254761e+00 2.969267122074967347e+00
4.056373590230941772e+01 -1.615638464689254761e+00 3.114591829106217347e+00
1.289833062887191772e+01 1.573204308748245239e+00 9.071333330124673466e-01
3.889479058980941772e+01 -2.248695105314254761e+00 2.601270906254654847e+00
1.386109918355941772e+01 1.228477746248245239e+00 8.524916093796548466e-01
4.069898980855941772e+01 -1.614783972501754761e+00 2.778806916996842347e+00
4.050196832418441772e+01 -1.158607214689254761e+00 2.791090242192154847e+00
4.127345269918441772e+01 -7.978894412517547607e-01 2.872236482426529847e+00
4.044996637105941772e+01 -3.779090613126754761e+00 2.835905305668717347e+00
4.207862848043441772e+01 -3.590614050626754761e+00 2.980146638676529847e+00
3.952003473043441772e+01 -2.772132605314254761e+00 2.816129915043717347e+00
3.879383844137191772e+01 -2.248328894376754761e+00 2.786390535160904847e+00
4.109095758199691772e+01 -2.112098425626754761e+00 2.983869783207779847e+00
1.315858453512191772e+01 1.467247277498245239e+00 8.845503251999673466e-01
1.276197808980941772e+01 1.665733605623245239e+00 8.632643144577798466e-01
1.277857965230941772e+01 1.817222863435745239e+00 8.737471025437173466e-01
3.906080621480941772e+01 -1.918983191251754761e+00 2.918806306645279847e+00
4.058888238668441772e+01 -1.668006628751754761e+00 3.060667268559342347e+00
4.155470269918441772e+01 -1.327674597501754761e+00 3.160413972660904847e+00
4.081996148824691772e+01 -8.049695193767547607e-01 3.127989045903092347e+00
3.221974176168441772e+01 3.732531368732452393e-01 2.474516145512467347e+00
3.067164605855941772e+01 1.329918175935745239e+00 2.583616487309342347e+00
3.007533258199691772e+01 1.758140832185745239e+00 2.561628572270279847e+00
3.010939019918441772e+01 2.137779504060745239e+00 2.589781038090592347e+00
3.033180230855941772e+01 2.506920129060745239e+00 2.634123079106217347e+00
7.529312074184417725e+00 7.610679894685745239e+00 1.705335847660904847e+00
1.041651910543441772e+01 8.076866418123245239e+00 2.002073518559342347e+00
1.205006402730941772e+01 8.513145714998245239e+00 2.183576814457779847e+00
4.661758363246917725e+00 8.265098839998245239e+00 1.498792878910904847e+00
4.802627503871917725e+00 8.544517785310745239e+00 1.533521882817154847e+00
3.644302308559417725e+00 8.696739464998245239e+00 1.441862336918717347e+00
3.670059144496917725e+00 8.578209191560745239e+00 1.540205232426529847e+00
3.582290589809417725e+00 8.840172082185745239e+00 1.552961580082779847e+00
3.929702699184417725e+00 9.148643761873245239e+00 1.609358064457779847e+00
5.433731019496917725e+00 9.599815636873245239e+00 1.783994905278092347e+00
6.592056214809417725e+00 1.052657344937324524e+01 2.045194856449967347e+00
5.242446839809417725e+00 9.517540246248245239e+00 1.750318757817154847e+00
4.498550355434417725e+00 8.529136925935745239e+00 1.745146028324967347e+00
3.591690003871917725e+00 8.750572472810745239e+00 1.677381746098404847e+00
3.428848206996917725e+00 9.025474816560745239e+00 1.684248201176529847e+00
4.618545472621917725e+00 9.441734582185745239e+00 1.828916780278092347e+00
6.918716371059417725e+00 1.001021602749824524e+01 2.089674226567154847e+00
6.512710511684417725e+00 1.028536251187324524e+01 2.073805085942154847e+00
6.576065003871917725e+00 1.061788204312324524e+01 2.106428376957779847e+00
8.351821839809417725e+00 1.077327755093574524e+01 1.903455964848404847e+00
4.513687074184417725e+00 9.626671105623245239e+00 1.801801912114029847e+00
4.431045472621917725e+00 9.938804894685745239e+00 1.818098298832779847e+00
6.586074769496917725e+00 1.053023555874824524e+01 2.059049836918717347e+00
6.584976136684417725e+00 1.061116817593574524e+01 1.985365144535904847e+00
8.663467347621917725e+00 1.096920040249824524e+01 1.803419343754654847e+00
8.614273011684417725e+00 1.095125606656074524e+01 1.973066560551529847e+00
