1.139729350805282593e+01 -3.060919880867004395e+00 -5.711325783282461543e-01
1.218122905492782593e+01 -3.304450154304504395e+00 -5.847891945391836543e-01
1.304451030492782593e+01 -3.567755818367004395e+00 -5.998038429766836543e-01
1.392231792211532593e+01 -3.817633748054504395e+00 -6.136588234454336543e-01
1.396833842992782593e+01 -3.673102498054504395e+00 -6.019705910235586543e-01
1.403047221899032593e+01 -3.536017537117004395e+00 -5.907706398516836543e-01
1.410481303930282593e+01 -3.403571248054504395e+00 -5.798453468829336543e-01
1.416938823461532593e+01 -3.267340779304504395e+00 -5.690726418048086543e-01
1.142793315649032593e+01 -3.081183552742004395e+00 -5.143241066485586543e-01
1.222590678930282593e+01 -3.331305623054504395e+00 -5.249289650469961543e-01
1.309053081274032593e+01 -3.595099568367004395e+00 -5.354880470782461543e-01
1.417805522680282593e+01 -3.941901326179504395e+00 -5.503501076251211543e-01
1.552973979711532593e+01 -4.383917927742004395e+00 -5.696677345782461543e-01
1.622200053930282593e+01 -4.505377888679504395e+00 -5.714987892657461543e-01
1.631904643774032593e+01 -4.356574177742004395e+00 -5.594596046954336543e-01
1.643232768774032593e+01 -4.214728474617004395e+00 -5.473593849688711543e-01
1.145893901586532593e+01 -3.101447224617004395e+00 -4.571799416094961543e-01
1.225093120336532593e+01 -3.348761677742004395e+00 -4.638175148516836543e-01
1.313667339086532593e+01 -3.622443318367004395e+00 -4.710349220782461543e-01
1.423225444555282593e+01 -3.972785115242004395e+00 -4.808463234454336543e-01
1.560701030492782593e+01 -4.425177693367004395e+00 -4.940909523516836543e-01
1.744197124242782593e+01 -5.048712849617004395e+00 -5.132712502032461543e-01
1.970088237524032593e+01 -5.811530232429504395e+00 -5.365256447344961543e-01
1.981025737524032593e+01 -5.628546833992004395e+00 -5.211753029376211543e-01
2.687214702367782593e+01 -1.083216011524200439e+01 -6.676749367266836543e-01
1.337934917211532593e+01 -3.905524373054504395e+00 -4.206046242266836543e-01
1.378913921117782593e+01 -3.938971638679504395e+00 -4.151724953204336543e-01
1.428718608617782593e+01 -4.004279255867004395e+00 -4.103812355548086543e-01
1.568562358617782593e+01 -4.467047810554504395e+00 -4.173087257891836543e-01
1.754035991430282593e+01 -5.099127888679504395e+00 -4.278220314532461543e-01
2.034138530492782593e+01 -6.094000935554504395e+00 -4.466361183673086543e-01
2.545832866430282593e+01 -7.991583943367004395e+00 -4.875449318438711543e-01
2.770857280492782593e+01 -1.126331245899200439e+01 -5.407675880938711543e-01
2.809993022680282593e+01 -1.111414253711700439e+01 -5.210379738360586543e-01
2.853376811742782593e+01 -1.097888863086700439e+01 -5.012931007891836543e-01
2.885151714086532593e+01 -1.078101265430450439e+01 -4.798087257891836543e-01
2.947493022680282593e+01 -1.071814644336700439e+01 -4.607810158282461543e-01
1.946260112524032593e+01 -5.953742146492004395e+00 -3.563193459063711543e-01
2.068098491430282593e+01 -6.247809529304504395e+00 -3.487357277423086543e-01
2.693244975805282593e+01 -8.616950154304504395e+00 -3.709525246173086543e-01
2.802949565649032593e+01 -1.143616402149200439e+01 -4.022940773516836543e-01
2.764143413305282593e+01 -1.090149605274200439e+01 -3.752707619219961543e-01
2.762422221899032593e+01 -1.055652534961700439e+01 -3.519095558673086543e-01
2.910017436742782593e+01 -1.090857613086700439e+01 -3.355673927813711543e-01
3.554780620336532593e+01 -1.348291695117950439e+01 -3.357352394610586543e-01
3.559138530492782593e+01 -1.308032906055450439e+01 -3.067130226641836543e-01
3.574787944555282593e+01 -1.272742378711700439e+01 -2.780264992266836543e-01
4.022517436742782593e+01 -1.418128120899200439e+01 -2.561453957110586543e-01
2.721772807836532593e+01 -1.104028999805450439e+01 -2.574118752032461543e-01
2.699763530492782593e+01 -1.059754097461700439e+01 -2.346457619219961543e-01
2.759407085180282593e+01 -1.055347359180450439e+01 -2.127646584063711543e-01
2.847090190649032593e+01 -1.062744820117950439e+01 -1.899069923907461543e-01
2.954634135961532593e+01 -1.077454292774200439e+01 -1.656607765704336543e-01
2.984101909399032593e+01 -1.055432808399200439e+01 -1.415061134844961543e-01
3.543354839086532593e+01 -1.260657417774200439e+01 -1.018790382891836543e-01
2.864595073461532593e+01 -1.177014839649200439e+01 -1.145896095782461543e-01
2.736897319555282593e+01 -1.079114449024200439e+01 -9.655372090637115434e-02
2.724421733617782593e+01 -1.039783394336700439e+01 -7.462684102355865434e-02
3.533552592992782593e+01 -1.383911812305450439e+01 -8.403696492308654342e-03
2.964558452367782593e+01 -1.083179390430450439e+01 -1.665870137512115434e-02
3.536970561742782593e+01 -1.301099312305450439e+01 4.686363749206634566e-02
3.559162944555282593e+01 -1.268860542774200439e+01 7.490929178894134566e-02
4.029963725805282593e+01 -1.424426949024200439e+01 1.424752097576913457e-01
2.834614604711532593e+01 -1.163159859180450439e+01 2.949913553894134566e-02
2.736140483617782593e+01 -1.079895699024200439e+01 4.272850565612884566e-02
2.712873882055282593e+01 -1.035376656055450439e+01 6.157311014831634566e-02
2.879939311742782593e+01 -1.080432808399200439e+01 1.000710349530038457e-01
2.935347026586532593e+01 -1.071106636524200439e+01 1.281929831951913457e-01
3.001350444555282593e+01 -1.065466988086700439e+01 1.582375388592538457e-01
3.548616069555282593e+01 -1.265747749805450439e+01 2.509346824139413457e-01
2.864363139867782593e+01 -1.179358589649200439e+01 1.777687888592538457e-01
2.735395854711532593e+01 -1.080676949024200439e+01 1.812477927655038457e-01
2.950837749242782593e+01 -1.150537788867950439e+01 2.337685447186288457e-01
2.864350932836532593e+01 -1.074329292774200439e+01 2.422676902264413457e-01
2.975471538305282593e+01 -1.090564644336700439e+01 2.815132956951913457e-01
3.532283061742782593e+01 -1.301880562305450439e+01 3.983651023358163457e-01
3.529951518774032593e+01 -1.217908394336700439e+01 4.488869529217538457e-01
2.893977397680282593e+01 -1.195520699024200439e+01 3.299294333905038457e-01
2.891499370336532593e+01 -1.158631050586700439e+01 3.506813865155038457e-01
2.751692241430282593e+01 -1.056262886524200439e+01 3.437691550701913457e-01
3.545857280492782593e+01 -1.394043648242950439e+01 5.279579978436288457e-01
3.557490581274032593e+01 -1.356787788867950439e+01 5.557595115155038457e-01
7.888703960180282593e+01 -3.234900581836700439e+01 1.538944325968628846e+00
3.584773296117782593e+01 -1.284192574024200439e+01 6.121712546795663457e-01
3.549128764867782593e+01 -1.227356636524200439e+01 6.286812644451913457e-01
2.869917339086532593e+01 -1.184607613086700439e+01 4.717446189373788457e-01
2.893037456274032593e+01 -1.160596382617950439e+01 4.977303367108163457e-01
2.753511089086532593e+01 -1.058289253711700439e+01 4.831276755780038457e-01
3.427595561742782593e+01 -1.340186226367950439e+01 6.759224753826913457e-01
3.561738628149032593e+01 -1.360181343555450439e+01 7.350655417889413457e-01
3.582856792211532593e+01 -1.327173531055450439e+01 7.651863913983163457e-01
3.583662456274032593e+01 -1.285144722461700439e+01 7.897988181561288457e-01
2.837007182836532593e+01 -1.169214546680450439e+01 6.093788962811288457e-01
2.894538921117782593e+01 -1.162573921680450439e+01 6.457863669842538457e-01
3.537739604711532593e+01 -1.436206734180450439e+01 8.584175925701913457e-01
3.411640971899032593e+01 -1.334131538867950439e+01 8.435250144451913457e-01
3.526033061742782593e+01 -1.345337593555450439e+01 9.023171287030038457e-01
7.902473491430282593e+01 -3.247400581836700439e+01 2.332080922648316346e+00
7.928889507055282593e+01 -3.165100777149200439e+01 2.395008168742066346e+00
2.863874858617782593e+01 -1.184009468555450439e+01 7.631874900311288457e-01
2.896040385961532593e+01 -1.164539253711700439e+01 7.932930808514413457e-01
3.520991557836532593e+01 -1.429639351367950439e+01 1.032459340617066346e+00
3.587690776586532593e+01 -1.418054878711700439e+01 1.079410634562378846e+00
3.517866557836532593e+01 -1.343067085742950439e+01 1.077045522257691346e+00
8.067695659399032593e+01 -3.324085152149200439e+01 2.790927968546753846e+00
7.937641948461532593e+01 -3.172070991992950439e+01 2.793171010538941346e+00
8.677290385961532593e+01 -3.390418159961700439e+01 3.127475820109253846e+00
2.862593120336532593e+01 -1.184595406055450439e+01 9.096260886639413457e-01
5.316035503149032593e+01 -2.360181343555450439e+01 1.900547109171753846e+00
3.519380229711532593e+01 -1.430335152149200439e+01 1.210041127726441346e+00
3.550349467992782593e+01 -1.402014839649200439e+01 1.244892201945191346e+00
8.092536967992782593e+01 -3.435022652149200439e+01 3.155170522257691346e+00
7.951313823461532593e+01 -3.275562202930450439e+01 3.145618520304566346e+00
7.858760112524032593e+01 -3.048963081836700439e+01 3.204670033976441346e+00
3.573066753149032593e+01 -1.545606148242950439e+01 1.369754872843628846e+00
5.129365581274032593e+01 -2.270239937305450439e+01 2.089176259562378846e+00
3.497151225805282593e+01 -1.421106636524200439e+01 1.379108510538941346e+00
3.577449077367782593e+01 -1.416223824024200439e+01 1.437305532023316346e+00
7.846003764867782593e+01 -3.325586616992950439e+01 3.449436269328003846e+00
7.948970073461532593e+01 -3.277747261524200439e+01 3.544773183390503846e+00
7.968611186742782593e+01 -3.191870796680450439e+01 3.601230702921753846e+00
8.687849467992782593e+01 -3.401770699024200439e+01 3.996021352335816346e+00
3.574739116430282593e+01 -1.547998726367950439e+01 1.554264150187378846e+00
5.249665874242782593e+01 -2.331885445117950439e+01 2.410648427531128846e+00
3.518135112524032593e+01 -1.432678902149200439e+01 1.566883168742066346e+00
5.150386089086532593e+01 -2.156787788867950439e+01 2.421482167765503846e+00
7.661457866430282593e+01 -3.244324409961700439e+01 3.748890004679566346e+00
7.944978374242782593e+01 -3.279199898242950439e+01 3.940891347453003846e+00
7.970625346899032593e+01 -3.195935738086700439e+01 3.999683461710816346e+00
8.037934917211532593e+01 -3.130860054492950439e+01 4.082569203898316346e+00
3.574421733617782593e+01 -1.549365913867950439e+01 1.736988149210816346e+00
3.512129253149032593e+01 -1.474317085742950439e+01 1.723011098429566346e+00
3.444429057836532593e+01 -1.398596870899200439e+01 1.705158315226441346e+00
5.099787944555282593e+01 -2.135144722461700439e+01 2.654651723429566346e+00
7.876130717992782593e+01 -3.345850288867950439e+01 4.258472524210816346e+00
7.631391948461532593e+01 -3.142493355274200439e+01 4.161533437296753846e+00
8.418745464086532593e+01 -3.393787300586700439e+01 4.658710561320191346e+00
8.001130717992782593e+01 -3.118482124805450439e+01 4.460315785929566346e+00
3.521467632055282593e+01 -1.524024116992950439e+01 1.889316640421753846e+00
3.385334819555282593e+01 -1.413013374805450439e+01 1.826557241007691346e+00
3.426289409399032593e+01 -1.391284859180450439e+01 1.868808827921753846e+00
5.145588725805282593e+01 -2.158814156055450439e+01 2.940494618937378846e+00
7.869978374242782593e+01 -3.346265327930450439e+01 4.651371083781128846e+00
7.572090190649032593e+01 -3.119104683399200439e+01 4.507190785929566346e+00
7.772004741430282593e+01 -3.116016304492950439e+01 4.674579701945191346e+00
7.857576030492782593e+01 -3.060962593555450439e+01 4.769031606242066346e+00
5.121772807836532593e+01 -2.338709175586700439e+01 3.108066640421753846e+00
3.364375346899032593e+01 -1.404053413867950439e+01 1.985385976359253846e+00
3.410359233617782593e+01 -1.385022652149200439e+01 2.033054433390503846e+00
7.840461772680282593e+01 -3.430603706836700439e+01 4.990451894328003846e+00
7.871955913305282593e+01 -3.350415718555450439e+01 5.051395497843628846e+00
7.601521342992782593e+01 -3.135352241992950439e+01 4.908863149210816346e+00
7.579170268774032593e+01 -3.035230171680450439e+01 4.931797109171753846e+00
7.833869975805282593e+01 -3.054053413867950439e+01 5.145542226359253846e+00
1.416914409399032593e+01 -3.266730427742004395e+00 -5.690268654376211543e-01
1.424116557836532593e+01 -3.133307576179504395e+00 -5.581320900469961543e-01
1.430366557836532593e+01 -2.995856404304504395e+00 -5.473593849688711543e-01
1.436640971899032593e+01 -2.857672810554504395e+00 -5.365256447344961543e-01
1.442903178930282593e+01 -2.719733357429504395e+00 -5.257224220782461543e-01
1.449739116430282593e+01 -2.583624958992004395e+00 -5.150260109454336543e-01
1.458662456274032593e+01 -2.453986287117004395e+00 -5.046958107501211543e-01
1.466670268774032593e+01 -2.320929646492004395e+00 -4.945334572344961543e-01
1.643232768774032593e+01 -4.214118123054504395e+00 -5.472983498126211543e-01
1.652815288305282593e+01 -4.064093708992004395e+00 -5.352286476641836543e-01
1.664106792211532593e+01 -3.920050740242004395e+00 -5.229910988360586543e-01
1.673799175024032593e+01 -3.768195271492004395e+00 -5.107688087969961543e-01
1.683491557836532593e+01 -3.615973591804504395e+00 -4.985160011798086543e-01
1.693232768774032593e+01 -3.463263630867004395e+00 -4.862326759844961543e-01
1.701326030492782593e+01 -3.303351521492004395e+00 -4.739951271563711543e-01
1.711140483617782593e+01 -3.149542927742004395e+00 -4.616202492266836543e-01
1.981025737524032593e+01 -5.627692341804504395e+00 -5.211142677813711543e-01
1.990229839086532593e+01 -5.437018513679504395e+00 -5.059622902423086543e-01
1.999446147680282593e+01 -5.245978474617004395e+00 -4.907950539141836543e-01
2.011445659399032593e+01 -5.064337849617004395e+00 -4.759177345782461543e-01
2.029927104711532593e+01 -4.906500935554504395e+00 -4.618491310626211543e-01
2.048616069555282593e+01 -4.746832966804504395e+00 -4.476279396563711543e-01
2.066487163305282593e+01 -4.581183552742004395e+00 -4.330710548907461543e-01
2.079451030492782593e+01 -4.397467732429504395e+00 -4.179038185626211543e-01
2.545784038305282593e+01 -7.990363240242004395e+00 -4.874686378985586543e-01
2.577973979711532593e+01 -7.827277302742004395e+00 -4.692954201251211543e-01
2.613069194555282593e+01 -7.670416951179504395e+00 -4.517020363360586543e-01
2.648982280492782593e+01 -7.509894490242004395e+00 -4.336966652423086543e-01
2.685395854711532593e+01 -7.346320271492004395e+00 -4.153861183673086543e-01
2.713667339086532593e+01 -7.147345662117004395e+00 -3.960684914141836543e-01
2.742854350805282593e+01 -6.946539998054504395e+00 -3.764304298907461543e-01
2.781819194555282593e+01 -6.775519490242004395e+00 -3.578452248126211543e-01
2.695674175024032593e+01 -8.625983357429504395e+00 -3.710288185626211543e-01
4.834431499242782593e+01 -1.372058784961700439e+01 -2.394522804766836543e-01
4.022224467992782593e+01 -1.417847359180450439e+01 -2.560385841876211543e-01
4.784248393774032593e+01 -1.356861031055450439e+01 -9.105600789183654342e-03
4.774421733617782593e+01 -1.355298531055450439e+01 2.213173728436288457e-01
4.030610698461532593e+01 -1.424536812305450439e+01 1.426430564373788457e-01
4.810652202367782593e+01 -1.369324409961700439e+01 4.559822898358163457e-01
4.692231792211532593e+01 -1.330908882617950439e+01 6.667519431561288457e-01
3.529817241430282593e+01 -1.217713081836700439e+01 4.489479880780038457e-01
3.549397319555282593e+01 -1.227332222461700439e+01 6.288338523358163457e-01
8.677082866430282593e+01 -3.389990913867950439e+01 3.127582631632691346e+00
7.857807964086532593e+01 -3.048242866992950439e+01 3.204425893351441346e+00
8.095271342992782593e+01 -3.054175484180450439e+01 3.355426869913941346e+00
8.687580913305282593e+01 -3.401306831836700439e+01 3.996051869913941346e+00
8.697932475805282593e+01 -3.304505074024200439e+01 4.053150258585816346e+00
8.109590190649032593e+01 -2.969641792774200439e+01 3.812976918742066346e+00
8.707917827367782593e+01 -3.413355171680450439e+01 4.440586171671753846e+00
7.832991069555282593e+01 -2.952881538867950439e+01 4.016620717570191346e+00
7.825398296117782593e+01 -2.859424507617950439e+01 4.057560048624878846e+00
8.000923198461532593e+01 -3.118079292774200439e+01 4.460346303507691346e+00
7.744148296117782593e+01 -2.919470894336700439e+01 4.353885732218628846e+00
7.817939800024032593e+01 -2.859497749805450439e+01 4.440921865031128846e+00
7.838777202367782593e+01 -3.052698433399200439e+01 4.757251821085816346e+00
7.793806499242782593e+01 -2.942945015430450439e+01 4.771030507609253846e+00
7.820869487524032593e+01 -2.863696968555450439e+01 4.828357778117066346e+00
7.833613628149032593e+01 -3.053638374805450439e+01 5.145496449992066346e+00
8.092927592992782593e+01 -3.069141304492950439e+01 5.363102040812378846e+00
8.076057475805282593e+01 -2.968848335742950439e+01 5.393451772257691346e+00
1.466792339086532593e+01 -2.320807576179504395e+00 -4.945181984454336543e-01
1.475544780492782593e+01 -2.189459919929504395e+00 -4.841727394610586543e-01
1.483406108617782593e+01 -2.054450154304504395e+00 -4.739493507891836543e-01
1.491328471899032593e+01 -1.918219685554504395e+00 -4.636649269610586543e-01
1.499263042211532593e+01 -1.781745076179504395e+00 -4.533499855548086543e-01
1.507234233617782593e+01 -1.644782185554504395e+00 -4.429892677813711543e-01
1.515278667211532593e+01 -1.506598591804504395e+00 -4.325369972735586543e-01
1.522346538305282593e+01 -1.365607380867004395e+00 -4.223136086016836543e-01
1.711238139867782593e+01 -3.149176716804504395e+00 -4.615744728594961543e-01
1.719148296117782593e+01 -2.988288044929504395e+00 -4.493369240313711543e-01
1.728865092992782593e+01 -2.832282185554504395e+00 -4.368704933673086543e-01
1.736885112524032593e+01 -2.669562458992004395e+00 -4.244803566485586543e-01
1.744892925024032593e+01 -2.506842732429504395e+00 -4.121054787188711543e-01
1.746870464086532593e+01 -2.326422810554504395e+00 -3.989981789141836543e-01
1.747261089086532593e+01 -2.141730427742004395e+00 -3.861655373126211543e-01
1.749092143774032593e+01 -1.962409138679504395e+00 -3.731650490313711543e-01
2.079573100805282593e+01 -4.397101521492004395e+00 -4.178580421954336543e-01
2.090058940649032593e+01 -4.203864216804504395e+00 -4.028739113360586543e-01
2.099177592992782593e+01 -4.005377888679504395e+00 -3.876914162188711543e-01
2.100666850805282593e+01 -3.782355427742004395e+00 -3.718070168048086543e-01
2.105891460180282593e+01 -3.572028279304504395e+00 -3.563193459063711543e-01
2.123298686742782593e+01 -3.396369099617004395e+00 -3.416403908282461543e-01
2.140937846899032593e+01 -3.218146443367004395e+00 -3.267630714923086543e-01
2.160920757055282593e+01 -3.044440388679504395e+00 -3.118857521563711543e-01
2.782038921117782593e+01 -6.775153279304504395e+00 -3.577841896563711543e-01
2.802656596899032593e+01 -6.537604451179504395e+00 -3.370169777423086543e-01
2.837947124242782593e+01 -6.343634724617004395e+00 -3.173789162188711543e-01
3.019123882055282593e+01 -6.587042927742004395e+00 -3.020896095782461543e-01
3.128559917211532593e+01 -6.583380818367004395e+00 -2.824515480548086543e-01
6.752851909399032593e+01 -1.650452339649200439e+01 -3.252829689532461543e-01
6.074629253149032593e+01 -1.393506538867950439e+01 -2.680472511798086543e-01
6.784016460180282593e+01 -1.514661324024200439e+01 -2.277487892657461543e-01
4.830635112524032593e+01 -1.370593941211700439e+01 -2.392844337969961543e-01
4.595173686742782593e+01 -1.240576851367950439e+01 -2.033194679766836543e-01
4.606257671117782593e+01 -1.193897163867950439e+01 -1.692618507891836543e-01
4.672651714086532593e+01 -1.163965523242950439e+01 -1.343192238360586543e-01
4.668867534399032593e+01 -1.112439644336700439e+01 -1.002616066485586543e-01
6.437568706274032593e+01 -1.563477241992950439e+01 -1.453772969543365434e-02
6.038679546117782593e+01 -1.385803902149200439e+01 1.755150370300384566e-02
5.579536479711532593e+01 -1.201465523242950439e+01 4.083641581237884566e-02
4.780598491430282593e+01 -1.355445015430450439e+01 -9.136118367308654342e-03
4.590437358617782593e+01 -1.240698921680450439e+01 1.781090311706634566e-02
4.596138042211532593e+01 -1.192359077930450439e+01 5.142601542175384566e-02
4.619490092992782593e+01 -1.149414741992950439e+01 8.612450174987884566e-02
4.663459819555282593e+01 -1.112500679492950439e+01 1.223030906170663457e-01
6.481367534399032593e+01 -1.578162300586700439e+01 2.955971579998788457e-01
6.531379741430282593e+01 -1.453040230274200439e+01 3.902779441326913457e-01
4.770906108617782593e+01 -1.353919136524200439e+01 2.211190085858163457e-01
4.609809917211532593e+01 -1.248706734180450439e+01 2.397347312420663457e-01
4.609419292211532593e+01 -1.198218452930450439e+01 2.724648337811288457e-01
4.633540385961532593e+01 -1.155347359180450439e+01 3.078194480389413457e-01
4.681697124242782593e+01 -1.119507515430450439e+01 3.460427146405038457e-01
6.434504741430282593e+01 -1.567114937305450439e+01 5.971108298748788457e-01
6.547529643774032593e+01 -1.529053413867950439e+01 6.568489890545663457e-01
6.787934917211532593e+01 -1.522681343555450439e+01 7.353707175701913457e-01
4.806990092992782593e+01 -1.367896187305450439e+01 4.555855613201913457e-01
4.629573100805282593e+01 -1.256861031055450439e+01 4.636727195233163457e-01
4.642976421117782593e+01 -1.210510933399200439e+01 4.991494040936288457e-01
4.675410503149032593e+01 -1.169812691211700439e+01 5.365639548748788457e-01
4.741743510961532593e+01 -1.138892281055450439e+01 5.797310691326913457e-01
6.529524272680282593e+01 -1.596399605274200439e+01 9.203835349530038457e-01
6.470112651586532593e+01 -1.441419136524200439e+01 9.965248923748788457e-01
4.692195171117782593e+01 -1.330713570117950439e+01 6.668434958905038457e-01
4.704072612524032593e+01 -1.283008491992950439e+01 7.013588767498788457e-01
4.694306987524032593e+01 -1.228467476367950439e+01 7.315255027264413457e-01
4.852912944555282593e+01 -1.225855171680450439e+01 7.962380271405038457e-01
6.406806987524032593e+01 -1.563733589649200439e+01 1.203312001749878846e+00
6.559004253149032593e+01 -1.536731636524200439e+01 1.280689321085816346e+00
6.491792339086532593e+01 -1.449353706836700439e+01 1.308506093546753846e+00
4.769660991430282593e+01 -1.254090034961700439e+01 9.748726706951913457e-01
4.952705425024032593e+01 -1.258191597461700439e+01 1.053226552531128846e+00
6.367341655492782593e+01 -1.554724800586700439e+01 1.496952138468628846e+00
6.498152202367782593e+01 -1.522315132617950439e+01 1.574543080851441346e+00
6.642060893774032593e+01 -1.491199409961700439e+01 1.657123647257691346e+00
4.803706401586532593e+01 -1.319202339649200439e+01 1.183155141398316346e+00
6.383845561742782593e+01 -1.561670601367950439e+01 1.806247792765503846e+00
6.516694682836532593e+01 -1.529663765430450439e+01 1.889957509562378846e+00
6.464460796117782593e+01 -1.446594917774200439e+01 1.914218984171753846e+00
6.495637553930282593e+01 -1.595850288867950439e+01 2.150211415812378846e+00
6.519953960180282593e+01 -1.532813179492950439e+01 2.199955068156128846e+00
6.483003276586532593e+01 -1.594507515430450439e+01 2.453876576945191346e+00
6.428779643774032593e+01 -1.509986031055450439e+01 2.472675405070191346e+00
6.529646342992782593e+01 -1.468299019336700439e+01 2.554431996867066346e+00
6.717915385961532593e+01 -1.591931831836700439e+01 2.911930165812378846e+00
6.518428081274032593e+01 -1.467566597461700439e+01 2.857944570109253846e+00
6.605561870336532593e+01 -1.634216988086700439e+01 3.134494863078003846e+00
6.524714702367782593e+01 -1.540918648242950439e+01 3.131748281046753846e+00
6.542695659399032593e+01 -1.476258003711700439e+01 3.180561147257691346e+00
6.668769878149032593e+01 -1.654688179492950439e+01 3.485706410929566346e+00
6.639717143774032593e+01 -1.574988472461700439e+01 3.507541738078003846e+00
6.690425151586532593e+01 -1.517761909961700439e+01 3.573810658976441346e+00
6.697859233617782593e+01 -1.522058784961700439e+01 3.896900258585816346e+00
1.522383159399032593e+01 -1.365119099617004395e+00 -4.222830910235586543e-01
1.530244487524032593e+01 -1.225470662117004395e+00 -4.118308205157461543e-01
1.537141460180282593e+01 -1.082648396492004395e+00 -4.015769142657461543e-01
1.544099467992782593e+01 -9.386054277420043945e-01 -3.912314552813711543e-01
1.551057475805282593e+01 -7.943183183670043945e-01 -3.808707375079336543e-01
1.558052104711532593e+01 -6.494208574295043945e-01 -3.704642433673086543e-01
1.596235698461532593e+01 -5.649482011795043945e-01 -3.631247658282461543e-01
1.640840190649032593e+01 -4.858466386795043945e-01 -3.563498634844961543e-01
1.749092143774032593e+01 -1.961798787117004395e+00 -3.731192726641836543e-01
1.749299663305282593e+01 -1.779059529304504395e+00 -3.604849953204336543e-01
1.752522319555282593e+01 -1.604254841804504395e+00 -3.477133888751211543e-01
1.801960796117782593e+01 -1.534918904304504395e+00 -3.388785500079336543e-01
1.857844585180282593e+01 -1.470831990242004395e+00 -3.298758644610586543e-01
1.960334819555282593e+01 -1.493170857429504395e+00 -3.230094093829336543e-01
2.025166362524032593e+01 -1.419806599617004395e+00 -3.131217140704336543e-01
2.183113139867782593e+01 -1.509528279304504395e+00 -3.063925880938711543e-01
2.161103862524032593e+01 -3.044074177742004395e+00 -3.118399757891836543e-01
2.222785991430282593e+01 -2.971808552742004395e+00 -2.990988869219961543e-01
2.365583842992782593e+01 -3.082282185554504395e+00 -2.885092873126211543e-01
2.582197612524032593e+01 -3.332526326179504395e+00 -2.780570168048086543e-01
6.040925639867782593e+01 -1.064575874805450439e+01 -3.368643898516836543e-01
6.022785991430282593e+01 -9.982062458992004395e+00 -2.940177101641836543e-01
4.196443217992782593e+01 -5.734748005867004395e+00 -2.367362160235586543e-01
4.740266460180282593e+01 -6.327277302742004395e+00 -2.080802101641836543e-01
6.783821147680282593e+01 -1.514368355274200439e+01 -2.275656837969961543e-01
6.402754253149032593e+01 -1.279871284961700439e+01 -1.342124123126211543e-01
6.217793315649032593e+01 -1.170142281055450439e+01 -9.247962422668365434e-02
6.255854839086532593e+01 -1.113758003711700439e+01 -4.816810078918365434e-02
6.063227885961532593e+01 -1.008631050586700439e+01 -1.082984395324615434e-02
4.196199077367782593e+01 -5.747809529304504395e+00 -4.096595235168365434e-02
4.740644878149032593e+01 -6.343268513679504395e+00 1.150902323425384566e-02
5.577180522680282593e+01 -1.200647652149200439e+01 4.086693339050384566e-02
5.273762553930282593e+01 -1.065540230274200439e+01 6.430443339050384566e-02
6.262300151586532593e+01 -1.182459175586700439e+01 2.012978415936288457e-01
6.201594585180282593e+01 -1.103894722461700439e+01 2.399941306561288457e-01
6.110005229711532593e+01 -1.020410835742950439e+01 2.752571921795663457e-01
4.195954936742782593e+01 -5.760871052742004395e+00 1.538124900311288457e-01
4.744929546117782593e+01 -6.366583943367004395e+00 2.327767234295663457e-01
6.531611675024032593e+01 -1.452869331836700439e+01 3.904610496014413457e-01
5.293257182836532593e+01 -1.072229683399200439e+01 3.153878074139413457e-01
4.985884135961532593e+01 -9.424933552742004395e+00 3.192482810467538457e-01
4.758003276586532593e+01 -8.376227498054504395e+00 3.277626853436288457e-01
4.554756206274032593e+01 -7.433478474617004395e+00 3.358345847576913457e-01
4.344953960180282593e+01 -6.521369099617004395e+00 3.402138572186288457e-01
4.157051128149032593e+01 -5.697028279304504395e+00 3.446083884686288457e-01
3.991767925024032593e+01 -4.957648396492004395e+00 3.484078269451913457e-01
6.788032573461532593e+01 -1.522461616992950439e+01 7.355538230389413457e-01
6.098335307836532593e+01 -1.276929390430450439e+01 6.812172751873788457e-01
6.072724956274032593e+01 -1.206629097461700439e+01 7.183419089764413457e-01
6.112532085180282593e+01 -1.152051460742950439e+01 7.654610496014413457e-01
5.935054057836532593e+01 -1.049219429492950439e+01 7.768441062420663457e-01
5.929426616430282593e+01 -9.864752888679504395e+00 8.152657371014413457e-01
4.186531108617782593e+01 -5.769293904304504395e+00 5.430184226483163457e-01
4.005342143774032593e+01 -4.996222615242004395e+00 5.369454246014413457e-01
6.470137065649032593e+01 -1.441187202930450439e+01 9.966774802655038457e-01
6.106257671117782593e+01 -1.280994331836700439e+01 9.696846824139413457e-01
6.396125835180282593e+01 -1.286890327930450439e+01 1.069446645304566346e+00
6.412556499242782593e+01 -1.223487007617950439e+01 1.115146718546753846e+00
5.953694194555282593e+01 -1.055310738086700439e+01 1.059696279093628846e+00
5.915400737524032593e+01 -9.854743123054504395e+00 1.090198598429566346e+00
4.771308940649032593e+01 -6.462409138679504395e+00 9.003182273358163457e-01
6.491926616430282593e+01 -1.449158394336700439e+01 1.308689199015503846e+00
6.425300639867782593e+01 -1.363709175586700439e+01 1.335208974406128846e+00
6.616645854711532593e+01 -1.342444527149200439e+01 1.424244008585816346e+00
6.046040385961532593e+01 -1.140735542774200439e+01 1.322986684367066346e+00
6.105000346899032593e+01 -1.090735542774200439e+01 1.377338491007691346e+00
5.984309428930282593e+01 -1.001941597461700439e+01 1.384510121867066346e+00
4.779512065649032593e+01 -6.493414998054504395e+00 1.125293813273316346e+00
6.641853374242782593e+01 -1.490906441211700439e+01 1.657215199992066346e+00
6.432759135961532593e+01 -1.367774116992950439e+01 1.639988027140503846e+00
6.140974467992782593e+01 -1.229321968555450439e+01 1.595600209757691346e+00
6.136738628149032593e+01 -1.163782417774200439e+01 1.633670888468628846e+00
5.974995464086532593e+01 -1.063965523242950439e+01 1.623127065226441346e+00
5.992500346899032593e+01 -1.005628120899200439e+01 1.666400991007691346e+00
6.464131206274032593e+01 -1.446277534961700439e+01 1.914249501749878846e+00
6.746479839086532593e+01 -1.449463570117950439e+01 2.049701772257691346e+00
6.632466167211532593e+01 -1.350745308399200439e+01 2.053394399210816346e+00
6.233845561742782593e+01 -1.188403999805450439e+01 1.956791005656128846e+00
6.020137065649032593e+01 -1.075952827930450439e+01 1.920215688273316346e+00
6.761286967992782593e+01 -1.455518257617950439e+01 2.373432241007691346e+00
6.636702007055282593e+01 -1.354016792774200439e+01 2.367038808390503846e+00
6.142121928930282593e+01 -1.169141304492950439e+01 2.213169179484253846e+00
6.058760112524032593e+01 -1.086536324024200439e+01 2.217563710734253846e+00
6.529853862524032593e+01 -1.468115913867950439e+01 2.554660878703003846e+00
6.759236186742782593e+01 -1.457312691211700439e+01 2.693164907023316346e+00
6.646699565649032593e+01 -1.358679878711700439e+01 2.683719716593628846e+00
6.116853374242782593e+01 -1.165308296680450439e+01 2.490390859171753846e+00
6.083088725805282593e+01 -1.093945991992950439e+01 2.512256703898316346e+00
6.518818706274032593e+01 -1.467432320117950439e+01 2.858265004679566346e+00
6.621919292211532593e+01 -1.424671089649200439e+01 2.946674428507691346e+00
6.646760600805282593e+01 -1.360950386524200439e+01 2.998355947062378846e+00
6.104817241430282593e+01 -1.164551460742950439e+01 2.773334584757691346e+00
6.120381206274032593e+01 -1.104285347461700439e+01 2.817310414835816346e+00
6.543489116430282593e+01 -1.476233589649200439e+01 3.181110463663941346e+00
6.629902690649032593e+01 -1.428955757617950439e+01 3.263446889445191346e+00
6.653938335180282593e+01 -1.364954292774200439e+01 3.315250478312378846e+00
6.683613628149032593e+01 -1.515711128711700439e+01 3.570102773234253846e+00
6.698408550024032593e+01 -1.521961128711700439e+01 3.897358022257691346e+00
4.199775737524032593e+01 -5.499884724617004395e+00 2.530017934367066346e+00
4.756404155492782593e+01 -8.563361287117004395e+00 3.010746083781128846e+00
4.383186382055282593e+01 -6.774176716804504395e+00 2.806079946085816346e+00
4.401814311742782593e+01 -6.356818318367004395e+00 2.843082509562378846e+00
3.968513530492782593e+01 -5.067145466804504395e+00 2.563846669718628846e+00
4.764070171117782593e+01 -8.597296833992004395e+00 3.240039907023316346e+00
4.540327495336532593e+01 -7.125006794929504395e+00 3.126911244913941346e+00
4.406599467992782593e+01 -6.380988240242004395e+00 3.053363881632691346e+00
3.969673198461532593e+01 -5.082160115242004395e+00 2.750614247843628846e+00
4.785652202367782593e+01 -8.664069294929504395e+00 3.482090077921753846e+00
4.769233745336532593e+01 -8.126959919929504395e+00 3.494754872843628846e+00
4.386555522680282593e+01 -6.810309529304504395e+00 3.220325551554566346e+00
4.393843120336532593e+01 -6.369269490242004395e+00 3.249256215617066346e+00
3.964363139867782593e+01 -5.084723591804504395e+00 2.932437978312378846e+00
1.641120952367782593e+01 -4.857245683670043945e-01 -3.563346046954336543e-01
1.689448589086532593e+01 -4.046698808670043945e-01 -3.489798683673086543e-01
1.738728374242782593e+01 -3.158026933670043945e-01 -3.414725441485586543e-01
1.791023296117782593e+01 -2.215644121170043945e-01 -3.335074562579336543e-01
1.846186870336532593e+01 -1.219550371170043945e-01 -3.250998634844961543e-01
1.959089702367782593e+01 -9.058296680450439453e-02 -3.194541115313711543e-01
2.092085307836532593e+01 -6.153023242950439453e-02 -3.133353371173086543e-01
2.238777202367782593e+01 -2.295601367950439453e-02 -3.066977638751211543e-01
2.184004253149032593e+01 -1.510382771492004395e+00 -3.063925880938711543e-01
2.310139507055282593e+01 -1.511847615242004395e+00 -2.968100685626211543e-01
2.524702495336532593e+01 -1.636237263679504395e+00 -2.879599709063711543e-01
4.089253276586532593e+01 -2.597052693367004395e+00 -2.322501320391836543e-01
3.122700542211532593e+01 -1.060065388679504395e+00 -2.044791359454336543e-01
4.740449565649032593e+01 -6.326056599617004395e+00 -2.079733986407461543e-01
4.364729350805282593e+01 -4.728278279304504395e+00 -1.490592140704336543e-01
4.091365092992782593e+01 -2.612311482429504395e+00 -4.360572285949615434e-02
3.122370952367782593e+01 -1.069220662117004395e+00 -6.086341328918365434e-02
4.740815776586532593e+01 -6.341925740242004395e+00 1.163109354675384566e-02
4.364936870336532593e+01 -4.742438435554504395e+00 5.356224589050384566e-02
4.092512553930282593e+01 -2.626227498054504395e+00 1.452523093670663457e-01
3.122029155492782593e+01 -1.078131794929504395e+00 8.201988749206634566e-02
4.744758647680282593e+01 -6.364630818367004395e+00 2.328682761639413457e-01
4.367390483617782593e+01 -4.760260701179504395e+00 2.554512839764413457e-01
4.068904155492782593e+01 -2.608649373054504395e+00 3.300209861248788457e-01
3.121687358617782593e+01 -1.087287068367004395e+00 2.256813865155038457e-01
3.990705913305282593e+01 -4.954230427742004395e+00 3.483467917889413457e-01
3.843403667211532593e+01 -4.282721638679504395e+00 3.538704734295663457e-01
3.704707378149032593e+01 -3.657111287117004395e+00 3.577156882733163457e-01
3.573701518774032593e+01 -3.071906208992004395e+00 3.609810691326913457e-01
3.450447124242782593e+01 -2.527228474617004395e+00 3.636666160076913457e-01
3.332942241430282593e+01 -2.016730427742004395e+00 3.656807761639413457e-01
3.221833842992782593e+01 -1.537970662117004395e+00 3.673439841717538457e-01
3.118794292211532593e+01 -1.093268513679504395e+00 3.681526999920663457e-01
4.004145854711532593e+01 -4.992560505867004395e+00 5.368233542889413457e-01
3.840864604711532593e+01 -4.290412068367004395e+00 5.312538962811288457e-01
3.700654643774032593e+01 -3.661994099617004395e+00 5.280800681561288457e-01
3.570893901586532593e+01 -3.078620076179504395e+00 5.252419333905038457e-01
3.448860210180282593e+01 -2.535651326179504395e+00 5.222359519451913457e-01
3.332514995336532593e+01 -2.026373982429504395e+00 5.188332419842538457e-01
3.222590678930282593e+01 -1.548712849617004395e+00 5.154000144451913457e-01
3.117866557836532593e+01 -1.101691365242004395e+00 5.116310935467538457e-01
4.770747417211532593e+01 -6.459601521492004395e+00 9.003029685467538457e-01
4.390754741430282593e+01 -4.841315388679504395e+00 8.690682273358163457e-01
4.053791850805282593e+01 -2.626471638679504395e+00 8.878060203045663457e-01
4.778865092992782593e+01 -6.490485310554504395e+00 1.125217519328003846e+00
4.401570171117782593e+01 -4.873541951179504395e+00 1.075397573038941346e+00
4.050825542211532593e+01 -2.635016560554504395e+00 1.074283681437378846e+00
4.756160014867782593e+01 -5.975348591804504395e+00 1.369403920695191346e+00
4.853437846899032593e+01 -4.666144490242004395e+00 1.491901479288941346e+00
4.446968120336532593e+01 -3.608893513679504395e+00 1.376895986124878846e+00
3.916780132055282593e+01 -2.474372029304504395e+00 1.212040029093628846e+00
4.084883159399032593e+01 -2.280646443367004395e+00 1.297962270304566346e+00
4.748640483617782593e+01 -5.977057576179504395e+00 1.588398061320191346e+00
4.371028178930282593e+01 -4.402838826179504395e+00 1.499195180460816346e+00
4.438581889867782593e+01 -3.610968708992004395e+00 1.579670033976441346e+00
3.937641948461532593e+01 -2.513434529304504395e+00 1.401783071085816346e+00
4.108235210180282593e+01 -2.320929646492004395e+00 1.496387563273316346e+00
4.741181987524032593e+01 -5.978644490242004395e+00 1.805622182413941346e+00
4.363423198461532593e+01 -4.404303669929504395e+00 1.698078237101441346e+00
4.444783061742782593e+01 -4.083380818367004395e+00 1.760456166788941346e+00
4.466828960180282593e+01 -3.664191365242004395e+00 1.797092519328003846e+00
3.943379253149032593e+01 -2.532843708992004395e+00 1.585681996867066346e+00
4.112043803930282593e+01 -2.337897419929504395e+00 1.687046132609253846e+00
4.734516948461532593e+01 -5.981818318367004395e+00 2.023822866007691346e+00
4.834382671117782593e+01 -5.668341755867004395e+00 2.098743520304566346e+00
4.353193706274032593e+01 -4.401618123054504395e+00 1.895084462687378846e+00
4.438435405492782593e+01 -4.087653279304504395e+00 1.962772450968628846e+00
4.277107280492782593e+01 -3.411994099617004395e+00 1.909229360148316346e+00
3.876924175024032593e+01 -2.458624958992004395e+00 1.734943471476441346e+00
4.114436382055282593e+01 -2.353400349617004395e+00 1.878421865031128846e+00
4.733332866430282593e+01 -5.994757771492004395e+00 2.243137441203003846e+00
4.014009135961532593e+01 -4.280036091804504395e+00 1.894062123820191346e+00
4.346052592992782593e+01 -4.403815388679504395e+00 2.093937001749878846e+00
4.183943217992782593e+01 -3.718146443367004395e+00 2.032642446085816346e+00
4.282514995336532593e+01 -3.432868123054504395e+00 2.110660634562378846e+00
3.867793315649032593e+01 -2.458502888679504395e+00 1.908573232218628846e+00
4.048274272680282593e+01 -2.286261677742004395e+00 2.031116567179566346e+00
4.726216167211532593e+01 -5.996955037117004395e+00 2.459095082804566346e+00
4.826301616430282593e+01 -5.685187458992004395e+00 2.543933949992066346e+00
4.339485210180282593e+01 -4.406867146492004395e+00 2.291477284953003846e+00
4.216780132055282593e+01 -3.780646443367004395e+00 2.245258412882691346e+00
4.094245952367782593e+01 -3.181037068367004395e+00 2.197650991007691346e+00
3.886482280492782593e+01 -2.494757771492004395e+00 2.097965322062378846e+00
4.050654643774032593e+01 -2.301520466804504395e+00 2.219898305460816346e+00
4.719282573461532593e+01 -5.999518513679504395e+00 2.675754628703003846e+00
4.012800639867782593e+01 -4.303473591804504395e+00 2.266712270304566346e+00
4.013764995336532593e+01 -3.894660115242004395e+00 2.290561757609253846e+00
4.186860698461532593e+01 -3.748664021492004395e+00 2.422580800578003846e+00
4.294111675024032593e+01 -3.475714802742004395e+00 2.514713368937378846e+00
4.012300151586532593e+01 -2.671393513679504395e+00 2.358783803507691346e+00
4.048506206274032593e+01 -2.311164021492004395e+00 2.405063710734253846e+00
4.200056499242782593e+01 -5.498908162117004395e+00 2.530292592570191346e+00
4.244441264867782593e+01 -5.148932576179504395e+00 2.582569203898316346e+00
4.009138530492782593e+01 -4.309943318367004395e+00 2.450550160929566346e+00
4.398457378149032593e+01 -4.082404255867004395e+00 2.759357533976441346e+00
3.837629741430282593e+01 -2.843512654304504395e+00 2.402149282023316346e+00
3.827192729711532593e+01 -2.440802693367004395e+00 2.416721425578003846e+00
4.048445171117782593e+01 -2.323493123054504395e+00 2.592563710734253846e+00
3.968550151586532593e+01 -5.065802693367004395e+00 2.563953481242066346e+00
4.001655620336532593e+01 -4.719123005867004395e+00 2.609790883585816346e+00
3.947309917211532593e+01 -4.216071248054504395e+00 2.593753896281128846e+00
3.994673198461532593e+01 -3.888922810554504395e+00 2.650013051554566346e+00
4.330098003149032593e+01 -3.992316365242004395e+00 2.914768300578003846e+00
3.965473979711532593e+01 -3.036505818367004395e+00 2.673557363078003846e+00
3.836262553930282593e+01 -2.464484333992004395e+00 2.600971303507691346e+00
3.825666850805282593e+01 -2.065192341804504395e+00 2.614475331828003846e+00
3.969880717992782593e+01 -5.081183552742004395e+00 2.750843129679566346e+00
3.922077983617782593e+01 -4.586310505867004395e+00 2.737094960734253846e+00
3.950239604711532593e+01 -4.233649373054504395e+00 2.779346547648316346e+00
4.016682475805282593e+01 -3.937262654304504395e+00 2.852115712687378846e+00
4.394551128149032593e+01 -4.104010701179504395e+00 3.164951406046753846e+00
3.968147319555282593e+01 -3.052619099617004395e+00 2.859027944132691346e+00
3.809480327367782593e+01 -2.440924763679504395e+00 2.758152089640503846e+00
3.848298686742782593e+01 -2.104376912117004395e+00 2.809589467570191346e+00
3.964497417211532593e+01 -5.083624958992004395e+00 2.932621083781128846e+00
3.926667827367782593e+01 -4.607306599617004395e+00 2.923313222453003846e+00
3.954988139867782593e+01 -4.254401326179504395e+00 2.967731557413941346e+00
3.988203471899032593e+01 -3.903571248054504395e+00 3.016452870890503846e+00
4.091889995336532593e+01 -3.656134724617004395e+00 3.122882924601441346e+00
4.280879253149032593e+01 -3.510138630867004395e+00 3.300418935343628846e+00
3.817720073461532593e+01 -2.463507771492004395e+00 2.940921865031128846e+00
3.866706889867782593e+01 -2.138678669929504395e+00 3.003360829874878846e+00
4.453047221899032593e+01 -4.305060505867004395e+00 2.893924794718628846e+00
3.828584331274032593e+01 -2.891730427742004395e+00 2.493640981242066346e+00
3.842097514867782593e+01 -2.496588826179504395e+00 2.526813588663941346e+00
3.979719585180282593e+01 -2.262213826179504395e+00 2.646442494913941346e+00
4.014009135961532593e+01 -1.877448201179504395e+00 2.695041738078003846e+00
1.268330425024032593e+01 1.554436564445495605e+00 7.748757224530038457e-01
1.197602885961532593e+01 1.775383830070495605e+00 7.330513816326913457e-01
3.980793803930282593e+01 -3.992804646492004395e+00 2.745548329874878846e+00
4.321809428930282593e+01 -4.109625935554504395e+00 3.017597280070191346e+00
4.139619487524032593e+01 -3.371832966804504395e+00 2.909641347453003846e+00
3.811067241430282593e+01 -2.465949177742004395e+00 2.692813954874878846e+00
3.958784526586532593e+01 -2.248053669929504395e+00 2.825916371867066346e+00
4.047908061742782593e+01 -1.931159138679504395e+00 2.916782460734253846e+00
4.000923198461532593e+01 -1.446662068367004395e+00 2.907047353312378846e+00
1.202790874242782593e+01 1.765862345695495605e+00 8.032265525311288457e-01
3.990449565649032593e+01 -4.022956013679504395e+00 2.950153432413941346e+00
3.978327983617782593e+01 -3.572028279304504395e+00 2.964054189249878846e+00
4.283564800024032593e+01 -3.602423787117004395e+00 3.225757680460816346e+00
3.811933940649032593e+01 -2.479987263679504395e+00 2.882007680460816346e+00
3.810517925024032593e+01 -2.068244099617004395e+00 2.903995595499878846e+00
3.841133159399032593e+01 -1.696173787117004395e+00 2.951389394328003846e+00
3.993537944555282593e+01 -1.451544880867004395e+00 3.096714101359253846e+00
1.226997417211532593e+01 1.737297892570495605e+00 8.892556052655038457e-01
3.826643413305282593e+01 -2.084601521492004395e+00 2.583393178507691346e+00
1.323274272680282593e+01 1.392571330070495605e+00 8.346138816326913457e-01
4.007063335180282593e+01 -1.450690388679504395e+00 2.760929189249878846e+00
3.987361186742782593e+01 -9.945136308670043945e-01 2.773212514445191346e+00
4.064509624242782593e+01 -6.337958574295043945e-01 2.854358754679566346e+00
3.982160991430282593e+01 -3.614997029304504395e+00 2.818027577921753846e+00
4.145027202367782593e+01 -3.426520466804504395e+00 2.962268910929566346e+00
3.889167827367782593e+01 -2.608039021492004395e+00 2.798252187296753846e+00
3.816548198461532593e+01 -2.084235310554504395e+00 2.768512807413941346e+00
4.046260112524032593e+01 -1.948004841804504395e+00 2.965992055460816346e+00
1.253022807836532593e+01 1.631340861320495605e+00 8.666725974530038457e-01
1.213362163305282593e+01 1.829827189445495605e+00 8.453865867108163457e-01
1.215022319555282593e+01 1.981316447257995605e+00 8.558693747967538457e-01
3.843244975805282593e+01 -1.754889607429504395e+00 2.900928578898316346e+00
3.996052592992782593e+01 -1.503913044929504395e+00 3.042789540812378846e+00
4.092634624242782593e+01 -1.163581013679504395e+00 3.142536244913941346e+00
4.019160503149032593e+01 -6.408759355545043945e-01 3.110111318156128846e+00
3.159138530492782593e+01 5.373467206954956055e-01 2.456638417765503846e+00
3.004328960180282593e+01 1.494011759757995605e+00 2.565738759562378846e+00
2.944697612524032593e+01 1.922234416007995605e+00 2.543750844523316346e+00
2.948103374242782593e+01 2.301873087882995605e+00 2.571903310343628846e+00
2.970344585180282593e+01 2.671013712882995605e+00 2.616245351359253846e+00
6.900955617427825928e+00 7.774773478507995605e+00 1.687458119913941346e+00
9.788162648677825928e+00 8.240960001945495605e+00 1.984195790812378846e+00
1.142170757055282593e+01 8.677239298820495605e+00 2.165699086710816346e+00
4.033401906490325928e+00 8.429192423820495605e+00 1.480915151163941346e+00
4.174271047115325928e+00 8.708611369132995605e+00 1.515644155070191346e+00
3.015945851802825928e+00 8.860833048820495605e+00 1.423984609171753846e+00
3.041702687740325928e+00 8.742302775382995605e+00 1.522327504679566346e+00
2.953934133052825928e+00 9.004265666007995605e+00 1.535083852335816346e+00
3.301346242427825928e+00 9.312737345695495605e+00 1.591480336710816346e+00
4.805374562740325928e+00 9.763909220695495605e+00 1.766117177531128846e+00
5.963699758052825928e+00 1.069066703319549561e+01 2.027317128703003846e+00
4.614090383052825928e+00 9.681633830070495605e+00 1.732441030070191346e+00
3.870193898677825928e+00 8.693230509757995605e+00 1.727268300578003846e+00
2.963333547115325928e+00 8.914666056632995605e+00 1.659504018351441346e+00
2.800491750240325928e+00 9.189568400382995605e+00 1.666370473429566346e+00
3.990189015865325928e+00 9.605828166007995605e+00 1.811039052531128846e+00
6.290359914302825928e+00 1.017430961132049561e+01 2.071796498820191346e+00
5.884354054927825928e+00 1.044945609569549561e+01 2.055927358195191346e+00
5.947708547115325928e+00 1.078197562694549561e+01 2.088550649210816346e+00
7.723465383052825928e+00 1.093737113475799561e+01 1.885578237101441346e+00
3.885330617427825928e+00 9.790764689445495605e+00 1.783924184367066346e+00
3.802689015865325928e+00 1.010289847850799561e+01 1.800220571085816346e+00
5.957718312740325928e+00 1.069432914257049561e+01 2.041172109171753846e+00
5.956619679927825928e+00 1.077526175975799561e+01 1.967487416788941346e+00
8.035110890865325928e+00 1.113329398632049561e+01 1.785541616007691346e+00
7.985916554927825928e+00 1.111534965038299561e+01 1.955188832804566346e+00
