1.227344712615013123e+01 -2.578091703355312347e+00 -5.629998607560935397e-01
1.231397446990013123e+01 -2.464810453355312347e+00 -5.542413158342185397e-01
1.235450181365013123e+01 -2.351285062730312347e+00 -5.454522533342185397e-01
1.239490708708763123e+01 -2.238247953355312347e+00 -5.367089672014060397e-01
1.243531236052513123e+01 -2.125332914292812347e+00 -5.279656810685935397e-01
1.246582993865013123e+01 -2.008389554917812347e+00 -5.189019603654685397e-01
1.248572739958763123e+01 -1.888150297105312347e+00 -5.098992748185935397e-01
1.350977525115013123e+01 -3.278409086167812347e+00 -5.556146068498435397e-01
1.350757798552513123e+01 -3.130826078355312347e+00 -5.444451732560935397e-01
1.351343736052513123e+01 -2.988003812730312347e+00 -5.332757396623435397e-01
1.351636704802513123e+01 -2.844449125230312347e+00 -5.223962230607810397e-01
1.356043443083763123e+01 -2.719327054917812347e+00 -5.127526683732810397e-01
1.360437974333763123e+01 -2.594327054917812347e+00 -5.031091136857810397e-01
1.364148911833763123e+01 -2.466397367417812347e+00 -4.936028880998435397e-01
1.368531236052513123e+01 -2.341763578355312347e+00 -4.839898509904685397e-01
1.418396958708763123e+01 -3.591275297105312347e+00 -5.108605785295310397e-01
1.518396958708763123e+01 -3.881192289292812347e+00 -5.240594310685935397e-01
1.533570298552513123e+01 -3.781582914292812347e+00 -5.154534740373435397e-01
1.532203111052513123e+01 -3.609585843980312347e+00 -5.028344554826560397e-01
1.530860337615013123e+01 -3.439908109605312347e+00 -4.903985423967185397e-01
1.529529771208763123e+01 -3.271939359605312347e+00 -4.780999584123435397e-01
1.528199204802513123e+01 -3.104947172105312347e+00 -4.658624095842185397e-01
1.526880845427513123e+01 -2.940274320542812347e+00 -4.537927074357810397e-01
1.424268540740013123e+01 -3.623257718980312347e+00 -4.470330638810935397e-01
1.523816880583763123e+01 -3.910855375230312347e+00 -4.549981517717185397e-01
1.646973618865013123e+01 -4.278531156480312347e+00 -4.661218089982810397e-01
1.771790513396263123e+01 -4.624844633042812347e+00 -4.755059642717185397e-01
1.774268540740013123e+01 -4.442837797105312347e+00 -4.620629711076560397e-01
1.776734361052513123e+01 -4.261807523667812347e+00 -4.486962718889060397e-01
1.779187974333763123e+01 -4.081143461167812347e+00 -4.353448314592185397e-01
1.780018052458763123e+01 -3.895840726792812347e+00 -4.223138255998435397e-01
1.431055650115013123e+01 -3.659512601792812347e+00 -3.823815746232810397e-01
1.529236802458763123e+01 -3.940518461167812347e+00 -3.857232494279685397e-01
1.653406724333763123e+01 -4.312344633042812347e+00 -3.911096019670310397e-01
1.814686021208763123e+01 -4.812222562730312347e+00 -3.992883129045310397e-01
2.045252427458763123e+01 -5.560879789292812347e+00 -4.133874339982810397e-01
2.098975571990013123e+01 -5.552701078355312347e+00 -4.038201732560935397e-01
2.104676255583763123e+01 -5.347500883042812347e+00 -3.884240550920310397e-01
2.110364732146263123e+01 -5.143399320542812347e+00 -3.731042308732810397e-01
1.466297349333763123e+01 -3.826016508042812347e+00 -3.203393382951560397e-01
1.534754380583763123e+01 -3.970669828355312347e+00 -3.155175609514060397e-01
1.659925279021263123e+01 -4.346646390855312347e+00 -3.150292797014060397e-01
1.824329575896263123e+01 -4.859463773667812347e+00 -3.156854076310935397e-01
2.057129868865013123e+01 -5.617032133042812347e+00 -3.187524242326560397e-01
2.500989732146263123e+01 -7.164517484605312347e+00 -3.317071361467185397e-01
2.781702622771263123e+01 -7.978726468980312347e+00 -3.286096019670310397e-01
2.794593247771263123e+01 -7.724698148667812347e+00 -3.091699047014060397e-01
3.325452622771263123e+01 -1.235152920335531235e+01 -3.526116771623435397e-01
3.481128892302513123e+01 -1.266329678148031235e+01 -3.341638011857810397e-01
1.895435532927513123e+01 -5.375821195542812347e+00 -2.473565502092185397e-01
1.979444321990013123e+01 -5.521573148667812347e+00 -2.358971996232810397e-01
2.078223618865013123e+01 -5.711026273667812347e+00 -2.236138744279685397e-01
2.536524400115013123e+01 -7.315396390855312347e+00 -2.151605052873435397e-01
3.275428208708763123e+01 -1.213485439866781235e+01 -1.914483470842185397e-01
3.264698228240013123e+01 -1.170968350023031235e+01 -1.669579906389060397e-01
4.065601548552513123e+01 -1.481966885179281235e+01 -1.321221752092185397e-01
3.479981431365013123e+01 -1.187679775804281235e+01 -1.134454173967185397e-01
4.517859849333763123e+01 -1.575484951585531235e+01 -5.949033927171853975e-02
4.518457993865013123e+01 -1.524862392991781235e+01 -2.637876700609353975e-02
3.210230454802513123e+01 -1.184811123460531235e+01 -3.512205313890603975e-02
3.247815904021263123e+01 -1.164657314866781235e+01 -9.685651771718539749e-03
3.405323228240013123e+01 -1.196127041429281235e+01 2.354799080640646025e-02
4.057081040740013123e+01 -1.433334072679281235e+01 9.338746834546896025e-02
4.046741685271263123e+01 -1.383163174241781235e+01 1.216620044782814603e-01
4.535804185271263123e+01 -1.533456142991781235e+01 1.915930347517189603e-01
3.249585923552513123e+01 -1.204122646898031235e+01 1.240271167829689603e-01
3.315955552458763123e+01 -1.196383389085531235e+01 1.539953785017189603e-01
4.030298814177513123e+01 -1.469662197679281235e+01 2.572668628767189603e-01
4.051099595427513123e+01 -1.432320889085531235e+01 2.881506519392189603e-01
4.074244126677513123e+01 -1.396004971116781235e+01 3.192938404157814603e-01
4.556421861052513123e+01 -1.543392666429281235e+01 4.117926197126564603e-01
3.218750962615013123e+01 -1.191195400804281235e+01 2.776678638532814603e-01
3.225599107146263123e+01 -1.157174404710531235e+01 3.008917408064064603e-01
4.141126450896263123e+01 -1.519527920335531235e+01 4.712866382673439603e-01
3.465357407927513123e+01 -1.185372646898031235e+01 3.853643970564064603e-01
4.047352036833763123e+01 -1.340963467210531235e+01 5.383490161970314603e-01
3.403321275115013123e+01 -1.277377041429281235e+01 4.701269702985939603e-01
3.266431626677513123e+01 -1.176705654710531235e+01 4.648321704939064603e-01
4.061109361052513123e+01 -1.486166103929281235e+01 6.549566822126564603e-01
4.535010728240013123e+01 -1.640829189866781235e+01 7.856634693220314603e-01
4.084082993865013123e+01 -1.403085049241781235e+01 7.138098316267189603e-01
3.404993638396263123e+01 -1.279452236741781235e+01 6.366613941267189603e-01
3.235010728240013123e+01 -1.163851650804281235e+01 6.153296070173439603e-01
4.065931138396263123e+01 -1.489803799241781235e+01 8.529394702985939603e-01
4.093653306365013123e+01 -1.454964932054281235e+01 8.866003589704689603e-01
4.094483384490013123e+01 -1.408895596116781235e+01 9.129065113142189603e-01
3.397425279021263123e+01 -1.277267178148031235e+01 7.997778492048439603e-01
3.916517075896263123e+01 -1.471139248460531235e+01 9.798468189314064603e-01
4.030494126677513123e+01 -1.475863369554281235e+01 1.039966447837656460e+00
8.424244126677513123e+01 -3.298592861741781235e+01 2.465061052329843960e+00
4.025440415740013123e+01 -1.568392666429281235e+01 1.185459001548593960e+00
6.480079087615013123e+01 -2.624886807054281235e+01 2.082660539634531460e+00
4.021399888396263123e+01 -1.473409756273031235e+01 1.232028825767343960e+00
9.191272935271263123e+01 -3.522323330491781235e+01 3.216724260337656460e+00
4.029712876677513123e+01 -1.571932705491781235e+01 1.383975847251718960e+00
4.089893540740013123e+01 -1.552132900804281235e+01 1.432269914634531460e+00
8.373243150115013123e+01 -3.380953701585531235e+01 3.222904069907968960e+00
8.519910630583763123e+01 -3.345797451585531235e+01 3.333957536704843960e+00
8.521912583708763123e+01 -3.248397549241781235e+01 3.384799821861093960e+00
5.684632310271263123e+01 -2.338509853929281235e+01 2.328494890220468960e+00
4.045057114958763123e+01 -1.533504971116781235e+01 1.611102922447031460e+00
8.358008775115013123e+01 -3.377499111741781235e+01 3.628604753501718960e+00
8.478736314177513123e+01 -3.331478603929281235e+01 3.733020647056406460e+00
9.163697251677513123e+01 -3.517843350023031235e+01 4.105731828697031460e+00
8.667969712615013123e+01 -3.114339932054281235e+01 3.967914445884531460e+00
8.481971177458763123e+01 -3.634969814866781235e+01 4.011951311118906460e+00
5.667225083708763123e+01 -2.266122158616781235e+01 2.631946428306406460e+00
8.533326157927513123e+01 -3.457650478929281235e+01 4.132861955650156460e+00
8.475269517302513123e+01 -3.333248623460531235e+01 4.149921281822031460e+00
8.496595200896263123e+01 -3.244332607835531235e+01 4.207355363853281460e+00
8.304895982146263123e+01 -3.069747646898031235e+01 4.151889665611093960e+00
8.323707017302513123e+01 -2.982589443773031235e+01 4.206683977134531460e+00
3.942408189177513123e+01 -1.536190517991781235e+01 1.929401262290781460e+00
5.684498032927513123e+01 -2.276107510179281235e+01 2.921832902915781460e+00
8.499317368865013123e+01 -3.446004971116781235e+01 4.534824235923593960e+00
8.531299790740013123e+01 -3.360421475023031235e+01 4.598209245689218960e+00
8.292933091521263123e+01 -3.162899502366781235e+01 4.506336076743906460e+00
8.259864243865013123e+01 -3.054659756273031235e+01 4.530429704673593960e+00
8.324585923552513123e+01 -2.986031826585531235e+01 4.613239152915781460e+00
3.887488755583763123e+01 -1.512264736741781235e+01 2.090244157798593960e+00
3.946033677458763123e+01 -1.493465908616781235e+01 2.144626482017343960e+00
8.159717759490013123e+01 -3.300033291429281235e+01 4.748370988853281460e+00
8.288306626677513123e+01 -3.259774502366781235e+01 4.869602067954843960e+00
8.352039536833763123e+01 -3.190633877366781235e+01 4.951206071861093960e+00
8.255213364958763123e+01 -3.055880459398031235e+01 4.932193620689218960e+00
8.352845200896263123e+01 -3.000204189866781235e+01 5.035220964439218960e+00
1.248584946990013123e+01 -1.887784086167812347e+00 -5.098687572404685397e-01
1.252613267302513123e+01 -1.775479398667812347e+00 -5.012475414201560397e-01
1.255298814177513123e+01 -1.658413968980312347e+00 -4.925500316545310397e-01
1.256824693083763123e+01 -1.537076078355312347e+00 -4.835168285295310397e-01
1.258338364958763123e+01 -1.416836820542812347e+00 -4.745599193498435397e-01
1.259839829802513123e+01 -1.296963773667812347e+00 -4.656335277482810397e-01
1.261341294646263123e+01 -1.177212797105312347e+00 -4.567223949357810397e-01
1.262244614958763123e+01 -1.056485258042812347e+00 -4.480096263810935397e-01
1.368543443083763123e+01 -2.341397367417812347e+00 -4.839593334123435397e-01
1.372156724333763123e+01 -2.213955961167812347e+00 -4.745294017717185397e-01
1.376465806365013123e+01 -2.089200101792812347e+00 -4.649468822404685397e-01
1.380079087615013123e+01 -1.961514554917812347e+00 -4.555016918107810397e-01
1.383277329802513123e+01 -1.833096586167812347e+00 -4.460107250139060397e-01
1.384668931365013123e+01 -1.699185453355312347e+00 -4.361688060685935397e-01
1.385328111052513123e+01 -1.563077054917812347e+00 -4.265252513810935397e-01
1.386707505583763123e+01 -1.430386625230312347e+00 -4.167748851701560397e-01
1.526832017302513123e+01 -2.939663968980312347e+00 -4.537469310685935397e-01
1.528150376677513123e+01 -2.785977445542812347e+00 -4.426385326310935397e-01
1.533008775115013123e+01 -2.645596586167812347e+00 -4.322167797014060397e-01
1.537879380583763123e+01 -2.504727445542812347e+00 -4.217645091935935397e-01
1.542749986052513123e+01 -2.364346586167812347e+00 -4.113427562639060397e-01
1.547608384490013123e+01 -2.223965726792812347e+00 -4.009210033342185397e-01
1.552491196990013123e+01 -2.082974515855312347e+00 -3.904534740373435397e-01
1.557349595427513123e+01 -1.942471586167812347e+00 -3.800317211076560397e-01
1.780005845427513123e+01 -3.895108304917812347e+00 -4.222680492326560397e-01
1.786341294646263123e+01 -3.731289945542812347e+00 -4.095879955217185397e-01
1.792115220427513123e+01 -3.565152250230312347e+00 -3.972436351701560397e-01
1.797913560271263123e+01 -3.398526273667812347e+00 -3.848534984514060397e-01
1.803687486052513123e+01 -3.232266508042812347e+00 -3.725091380998435397e-01
1.809473618865013123e+01 -3.066128812730312347e+00 -3.601647777482810397e-01
1.815271958708763123e+01 -2.899380765855312347e+00 -3.477746410295310397e-01
1.822718247771263123e+01 -2.738003812730312347e+00 -3.360101146623435397e-01
2.110352525115013123e+01 -5.142666898667812347e+00 -3.730584545060935397e-01
2.110499009490013123e+01 -4.918789945542812347e+00 -3.576470775529685397e-01
2.131324204802513123e+01 -4.769497953355312347e+00 -3.440362377092185397e-01
2.154419907927513123e+01 -4.624112211167812347e+00 -3.303185863420310397e-01
2.164649400115013123e+01 -4.433194242417812347e+00 -3.155480785295310397e-01
2.174903306365013123e+01 -4.241665922105312347e+00 -3.007317943498435397e-01
2.185230454802513123e+01 -4.048794828355312347e+00 -2.858086986467185397e-01
2.195557603240013123e+01 -3.855923734605312347e+00 -2.708856029435935397e-01
2.794886216521263123e+01 -7.724820218980312347e+00 -3.091088695451560397e-01
2.815882310271263123e+01 -7.499722562730312347e+00 -2.889672679826560397e-01
2.854639634490013123e+01 -7.334683500230312347e+00 -2.699395580217185397e-01
2.891480454802513123e+01 -7.155606351792812347e+00 -2.503320140764060397e-01
2.920594224333763123e+01 -6.945645414292812347e+00 -2.302514476701560397e-01
2.941736802458763123e+01 -6.705899320542812347e+00 -2.097894115373435397e-01
2.980140122771263123e+01 -6.515835843980312347e+00 -1.891442699357810397e-01
3.005262193083763123e+01 -6.280972562730312347e+00 -1.689263744279685397e-01
5.509827622771263123e+01 -1.554537685960531235e+01 -1.719297599046853975e-02
5.524146470427513123e+01 -1.499911221116781235e+01 2.229677010328146025e-02
5.522840318083763123e+01 -1.440316494554281235e+01 6.119142342359396025e-02
7.051673325896263123e+01 -1.838778408616781235e+01 1.789282398298439603e-01
5.502649888396263123e+01 -1.554086025804281235e+01 2.432135181501564603e-01
5.529480943083763123e+01 -1.503536709398031235e+01 2.835730152204689603e-01
5.558997544646263123e+01 -1.453414639085531235e+01 3.230322437360939603e-01
5.526172837615013123e+01 -1.563827236741781235e+01 5.055426197126564603e-01
5.532093247771263123e+01 -1.506283291429281235e+01 5.436895923689064603e-01
5.566224107146263123e+01 -1.457577236741781235e+01 5.857733326032814603e-01
5.586866196990013123e+01 -1.585946377366781235e+01 7.767523365095314603e-01
5.831519517302513123e+01 -1.604549892991781235e+01 8.581427173689064603e-01
5.757264146208763123e+01 -1.518856533616781235e+01 8.825720386579689603e-01
5.639527329802513123e+01 -1.605453213304281235e+01 1.053531511314218960e+00
5.931153306365013123e+01 -1.638680752366781235e+01 1.157047136314218960e+00
5.855115708708763123e+01 -1.551290615648031235e+01 1.177203996665781460e+00
1.262195786833763123e+01 -1.055874906480312347e+00 -4.479791088029685397e-01
1.263550767302513123e+01 -9.371004924178123474e-01 -4.391900463029685397e-01
1.264917954802513123e+01 -8.185702189803123474e-01 -4.307366771623435397e-01
1.267481431365013123e+01 -7.032137736678123474e-01 -4.225274486467185397e-01
1.270032700896263123e+01 -5.883456096053123474e-01 -4.143487377092185397e-01
1.272571763396263123e+01 -4.735995158553123474e-01 -4.061700267717185397e-01
1.275135239958763123e+01 -3.584872111678123474e-01 -3.979760570451560397e-01
1.277100571990013123e+01 -2.425204142928123474e-01 -3.899957103654685397e-01
1.386646470427513123e+01 -1.429654203355312347e+00 -4.167291088029685397e-01
1.387220200896263123e+01 -1.295254789292812347e+00 -4.072381420060935397e-01
1.388526353240013123e+01 -1.163296781480312347e+00 -3.975793285295310397e-01
1.389783677458763123e+01 -1.031216703355312347e+00 -3.882409496232810397e-01
1.393103989958763123e+01 -9.053622111678123474e-01 -3.792840404435935397e-01
1.400513657927513123e+01 -7.893954142928123474e-01 -3.709374828264060397e-01
1.409803208708763123e+01 -6.764803752303123474e-01 -3.630944652482810397e-01
1.419898423552513123e+01 -5.645418986678123474e-01 -3.549767894670310397e-01
1.557337388396263123e+01 -1.941983304917812347e+00 -3.799859447404685397e-01
1.562403306365013123e+01 -1.801846586167812347e+00 -3.699304027482810397e-01
1.569275864958763123e+01 -1.666592679917812347e+00 -3.600884838029685397e-01
1.578272446990013123e+01 -1.535611234605312347e+00 -3.504144115373435397e-01
1.587122544646263123e+01 -1.403775297105312347e+00 -3.406640453264060397e-01
1.596045884490013123e+01 -1.271084867417812347e+00 -3.308679027482810397e-01
1.603101548552513123e+01 -1.132290922105312347e+00 -3.207665843889060397e-01
1.606971177458763123e+01 -9.862948283553123474e-01 -3.103906078264060397e-01
1.822742661833763123e+01 -2.737515531480312347e+00 -3.359643382951560397e-01
1.832813462615013123e+01 -2.583218656480312347e+00 -3.238946361467185397e-01
1.841541489958763123e+01 -2.423916898667812347e+00 -3.120538158342185397e-01
1.850342759490013123e+01 -2.263394437730312347e+00 -3.001214427873435397e-01
1.859156236052513123e+01 -2.102627836167812347e+00 -2.881738109514060397e-01
1.868018540740013123e+01 -1.941006742417812347e+00 -2.761651439592185397e-01
1.883472642302513123e+01 -1.793301664292812347e+00 -2.643701000139060397e-01
1.904749497771263123e+01 -1.656827054917812347e+00 -2.531396312639060397e-01
2.195520982146263123e+01 -3.855069242417812347e+00 -2.708398265764060397e-01
2.203577622771263123e+01 -3.654751859605312347e+00 -2.561456127092185397e-01
2.211646470427513123e+01 -3.453946195542812347e+00 -2.414361400529685397e-01
2.215894517302513123e+01 -3.241665922105312347e+00 -2.265283031389060397e-01
2.214258775115013123e+01 -3.015347562730312347e+00 -2.116204662248435397e-01
2.223963364958763123e+01 -2.818326078355312347e+00 -1.968957347795310397e-01
2.260096177458763123e+01 -2.681485258042812347e+00 -1.820794505998435397e-01
2.346338853240013123e+01 -2.651211820542812347e+00 -1.665917797014060397e-01
3.005262193083763123e+01 -6.279873929917812347e+00 -1.688500804826560397e-01
3.038208970427513123e+01 -6.063931547105312347e+00 -1.472741527482810397e-01
3.069251450896263123e+01 -5.837246976792812347e+00 -1.261102123185935397e-01
6.888892564177513123e+01 -1.497726162523031235e+01 3.883729744703146025e-02
7.041407212615013123e+01 -1.463680752366781235e+01 9.189210701734396025e-02
7.012525376677513123e+01 -1.383968838304281235e+01 1.385992603376564603e-01
6.591810044646263123e+01 -1.217635830491781235e+01 1.620520191267189603e-01
7.020228013396263123e+01 -1.829110439866781235e+01 1.774786548689064603e-01
7.126893052458763123e+01 -1.785458096116781235e+01 2.318762378767189603e-01
7.282581529021263123e+01 -1.753500088304281235e+01 2.907446460798439603e-01
6.310291489958763123e+01 -1.417525967210531235e+01 2.696875171735939603e-01
5.938135728240013123e+01 -1.256527432054281235e+01 2.825811939314064603e-01
5.608704575896263123e+01 -1.114230068773031235e+01 2.938726978376564603e-01
5.353321275115013123e+01 -9.963711820542812347e+00 3.074987964704689603e-01
6.558191880583763123e+01 -1.212203701585531235e+01 4.633368091657814603e-01
6.952930650115013123e+01 -1.737679775804281235e+01 5.466803150251564603e-01
6.955872544646263123e+01 -1.665218838304281235e+01 5.953253345564064603e-01
7.276966294646263123e+01 -1.677755459398031235e+01 6.804541187360939603e-01
6.891346177458763123e+01 -1.502901943773031235e+01 6.797522144392189603e-01
6.584900864958763123e+01 -1.356051357835531235e+01 6.842077808454689603e-01
5.347400864958763123e+01 -9.967007718980312347e+00 5.524023609235939603e-01
5.098316392302513123e+01 -8.860684476792812347e+00 5.505560474470314603e-01
7.060108384490013123e+01 -1.770992764085531235e+01 8.901098804548439603e-01
7.286451157927513123e+01 -1.759469326585531235e+01 9.729956226423439603e-01
7.071192368865013123e+01 -1.625155361741781235e+01 9.847906665876564603e-01
7.074500474333763123e+01 -1.552193935960531235e+01 1.031421525962656460e+00
6.578394517302513123e+01 -1.356588467210531235e+01 9.875219898298439603e-01
6.615613755583763123e+01 -1.297262295335531235e+01 1.036975725181406460e+00
6.447303208708763123e+01 -1.191451748460531235e+01 1.046695573814218960e+00
7.169410142302513123e+01 -1.804989346116781235e+01 1.242557390220468960e+00
7.091858872771263123e+01 -1.707735928148031235e+01 1.272708757407968960e+00
7.166858872771263123e+01 -1.653109463304281235e+01 1.334567888267343960e+00
6.952002915740013123e+01 -1.523031338304281235e+01 1.332797868736093960e+00
6.959290513396263123e+01 -1.452633389085531235e+01 1.378665788657968960e+00
6.683851060271263123e+01 -1.315499600023031235e+01 1.358249528892343960e+00
6.999244126677513123e+01 -1.317977627366781235e+01 1.476245744712656460e+00
7.158667954802513123e+01 -1.804317959398031235e+01 1.577396257407968960e+00
6.909473618865013123e+01 -1.659274014085531235e+01 1.558917863853281460e+00
7.239490708708763123e+01 -1.674972256273031235e+01 1.689304216392343960e+00
6.955726060271263123e+01 -1.526290615648031235e+01 1.658389909751718960e+00
6.988526353240013123e+01 -1.462130459398031235e+01 1.710803850181406460e+00
6.918616685271263123e+01 -1.373141201585531235e+01 1.734638078697031460e+00
6.611683091521263123e+01 -1.232711514085531235e+01 1.688938005454843960e+00
6.915906724333763123e+01 -1.736373623460531235e+01 1.840518816001718960e+00
6.935938462615013123e+01 -1.668978603929281235e+01 1.889591081626718960e+00
7.064771470427513123e+01 -1.630489834398031235e+01 1.972568376548593960e+00
6.937024888396263123e+01 -1.523763760179281235e+01 1.975620134361093960e+00
7.223169907927513123e+01 -1.522408779710531235e+01 2.110370500572031460e+00
6.638208970427513123e+01 -1.309029873460531235e+01 1.962192399986093960e+00
6.575940904021263123e+01 -1.226742275804281235e+01 1.981510026939218960e+00
7.036036118865013123e+01 -1.773580654710531235e+01 2.207630022056406460e+00
7.142383775115013123e+01 -1.729000576585531235e+01 2.286121232993906460e+00
7.003248032927513123e+01 -1.616305264085531235e+01 2.279849870689218960e+00
6.959632310271263123e+01 -1.531881435960531235e+01 2.306232316978281460e+00
7.281910142302513123e+01 -1.539315517991781235e+01 2.467166765220468960e+00
6.672986802458763123e+01 -1.319430264085531235e+01 2.283588274009531460e+00
6.584668931365013123e+01 -1.230843838304281235e+01 2.289432390220468960e+00
7.085474595427513123e+01 -1.790328701585531235e+01 2.556812150962656460e+00
7.047413071990013123e+01 -1.704830654710531235e+01 2.583957536704843960e+00
7.045496568083763123e+01 -1.630013760179281235e+01 2.625202043540781460e+00
6.970557603240013123e+01 -1.537008389085531235e+01 2.636051042564218960e+00
7.161707505583763123e+01 -1.511922939866781235e+01 2.756793840415781460e+00
6.617225083708763123e+01 -1.308358486741781235e+01 2.568424089439218960e+00
6.593750962615013123e+01 -1.235018642991781235e+01 2.596835954673593960e+00
7.200000962615013123e+01 -1.673983486741781235e+01 3.023761613853281460e+00
7.062769517302513123e+01 -1.563168057054281235e+01 3.002551897056406460e+00
7.107093247771263123e+01 -1.500704678148031235e+01 3.063846452720468960e+00
6.599061021208763123e+01 -1.238351162523031235e+01 2.905032976157968960e+00
7.054273423552513123e+01 -1.637081631273031235e+01 3.288715227134531460e+00
7.115381821990013123e+01 -1.579147060960531235e+01 3.359653337486093960e+00
7.167457017302513123e+01 -1.518038662523031235e+01 3.426471574790781460e+00
7.165589341521263123e+01 -1.669503506273031235e+01 3.678989274986093960e+00
7.136829575896263123e+01 -1.587057217210531235e+01 3.702869279868906460e+00
5.279920396208763123e+01 -9.995816312730312347e+00 3.221988542564218960e+00
5.278553208708763123e+01 -9.468838773667812347e+00 3.492526872642343960e+00
1.277137193083763123e+01 -2.421542033553123474e-01 -3.899804515764060397e-01
1.279554185271263123e+01 -1.272860392928123474e-01 -3.818627757951560397e-01
1.281385239958763123e+01 -1.119717210531234741e-02 -3.739434642717185397e-01
1.283216294646263123e+01 1.052579060196876526e-01 -3.659936351701560397e-01
1.293665513396263123e+01 2.055997028946876526e-01 -3.594018382951560397e-01
1.308509263396263123e+01 3.002041950821876526e-01 -3.533288402482810397e-01
1.323731431365013123e+01 3.971280232071876526e-01 -3.471032543107810397e-01
1.338733872771263123e+01 4.966153278946876526e-01 -3.409997386857810397e-01
1.420008286833763123e+01 -5.642977580428123474e-01 -3.549615306779685397e-01
1.429371079802513123e+01 -4.493075236678123474e-01 -3.469964427873435397e-01
1.439624986052513123e+01 -3.346835002303123474e-01 -3.387261791154685397e-01
1.449231919646263123e+01 -2.167635783553123474e-01 -3.305627269670310397e-01
1.458912095427513123e+01 -9.798916429281234741e-02 -3.223382396623435397e-01
1.468702134490013123e+01 2.212802320718765259e-02 -3.140374584123435397e-01
1.483094224333763123e+01 1.368741169571876526e-01 -3.063470287248435397e-01
1.512354478240013123e+01 2.309903278946876526e-01 -2.994805736467185397e-01
1.606995591521263123e+01 -9.858065471053123474e-01 -3.103600902482810397e-01
1.612244614958763123e+01 -8.427401408553123474e-01 -3.004418773576560397e-01
1.633094224333763123e+01 -7.305575236678123474e-01 -2.916375560685935397e-01
1.654529771208763123e+01 -6.153231486678123474e-01 -2.825890941545310397e-01
1.678089341521263123e+01 -5.005770549178123474e-01 -2.734490795060935397e-01
1.705506333708763123e+01 -3.882723674178123474e-01 -2.642327709123435397e-01
1.740491685271263123e+01 -2.825594767928123474e-01 -2.549859447404685397e-01
1.781604966521263123e+01 -1.802645549178123474e-01 -2.455865306779685397e-01
1.904993638396263123e+01 -1.656704984605312347e+00 -2.531091136857810397e-01
1.928113755583763123e+01 -1.520596586167812347e+00 -2.411767406389060397e-01
1.950477036833763123e+01 -1.378872953355312347e+00 -2.293969554826560397e-01
1.974585923552513123e+01 -1.235928617417812347e+00 -2.173577709123435397e-01
2.033118638396263123e+01 -1.152066312730312347e+00 -2.055474681779685397e-01
2.131971177458763123e+01 -1.126187406480312347e+00 -1.932488841935935397e-01
2.221534165740013123e+01 -1.065030179917812347e+00 -1.796075267717185397e-01
1.916529282927513123e+01 -3.896151408553123474e-01 -1.680413646623435397e-01
2.347278794646263123e+01 -2.652554593980312347e+00 -1.665307445451560397e-01
2.521949204802513123e+01 -2.793789945542812347e+00 -1.491662425920310397e-01
2.837037095427513123e+01 -3.185025297105312347e+00 -1.267358226701560397e-01
5.254212388396263123e+01 -7.561612211167812347e+00 -4.453672599046853975e-02
4.172864732146263123e+01 -4.646084867417812347e+00 -1.877989005296853975e-02
1.922205552458763123e+01 -4.037752971053123474e-01 -8.439268302171853975e-02
6.591126450896263123e+01 -1.217245205491781235e+01 1.621588306501564603e-01
6.540247544646263123e+01 -1.139071377366781235e+01 2.041205005720314603e-01
4.708936509490013123e+01 -7.000821195542812347e+00 1.251410083845314603e-01
5.254517564177513123e+01 -7.578579984605312347e+00 1.957281665876564603e-01
4.172535142302513123e+01 -4.658291898667812347e+00 1.701239185407814603e-01
1.920398911833763123e+01 -4.065829142928123474e-01 -1.384870521718539749e-03
6.558655747771263123e+01 -1.212069424241781235e+01 4.635351734235939603e-01
6.532312974333763123e+01 -1.139449795335531235e+01 5.033300952985939603e-01
4.708667954802513123e+01 -7.014981351792812347e+00 3.391607837751564603e-01
5.257984361052513123e+01 -7.601651273667812347e+00 4.351996021345314603e-01
4.175794419646263123e+01 -4.676602445542812347e+00 3.585241870954689603e-01
1.922620591521263123e+01 -4.156161174178123474e-01 8.252321053296896025e-02
5.096827134490013123e+01 -8.855435453355312347e+00 5.504492359235939603e-01
4.890967759490013123e+01 -7.896206937730312347e+00 5.513800220564064603e-01
4.692322739958763123e+01 -6.996426664292812347e+00 5.517920093610939603e-01
4.490137681365013123e+01 -6.131070218980312347e+00 5.478399829939064603e-01
4.312708482146263123e+01 -5.356167875230312347e+00 5.453375415876564603e-01
4.885547837615013123e+01 -5.918057523667812347e+00 6.751593189314064603e-01
4.013807114958763123e+01 -4.009976468980312347e+00 5.427130298689064603e-01
1.924830064177513123e+01 -4.245272502303123474e-01 1.662329273298439603e-01
6.447327622771263123e+01 -1.191219814866781235e+01 1.046848161704843960e+00
6.392371568083763123e+01 -1.113558682054281235e+01 1.076602800376718960e+00
5.277308091521263123e+01 -7.671963773667812347e+00 9.193304615095314603e-01
4.336463364958763123e+01 -5.413052640855312347e+00 7.455328540876564603e-01
4.164148911833763123e+01 -4.681973539292812347e+00 7.333563404157814603e-01
4.007117661833763123e+01 -4.011197172105312347e+00 7.225378589704689603e-01
1.925782212615013123e+01 -4.316073283553123474e-01 2.503088550642189603e-01
6.999378404021263123e+01 -1.317745693773031235e+01 1.476413591392343960e+00
6.657178696990013123e+01 -1.172543057054281235e+01 1.435550554282968960e+00
6.516919907927513123e+01 -1.076022060960531235e+01 1.441394670493906460e+00
5.284876450896263123e+01 -7.703091703355312347e+00 1.161685808189218960e+00
4.886561021208763123e+01 -5.949673734605312347e+00 1.117984636314218960e+00
1.930506333708763123e+01 -4.444247111678123474e-01 3.351477222517189603e-01
6.611585435271263123e+01 -1.232455166429281235e+01 1.689060075767343960e+00
6.484217271208763123e+01 -1.137411221116781235e+01 1.692279680259531460e+00
5.294788560271263123e+01 -7.738980375230312347e+00 1.406864030845468960e+00
4.891626939177513123e+01 -5.973599515855312347e+00 1.342227800376718960e+00
1.944104966521263123e+01 -4.709139689803123474e-01 4.238318042829689603e-01
6.575354966521263123e+01 -1.226376064866781235e+01 1.981448991782968960e+00
6.719520005583763123e+01 -1.190231045335531235e+01 2.070545061118906460e+00
5.270874986052513123e+01 -7.178311429917812347e+00 1.671298845298593960e+00
4.915979966521263123e+01 -6.030972562730312347e+00 1.572894914634531460e+00
1.942481431365013123e+01 -4.739657267928123474e-01 5.076178150251564603e-01
6.640662583708763123e+01 -1.243282803148031235e+01 2.310962541587656460e+00
6.641333970427513123e+01 -1.175497158616781235e+01 2.350986345298593960e+00
5.261292466521263123e+01 -7.176968656480312347e+00 1.907321794517343960e+00
5.363184556365013123e+01 -6.289395414292812347e+00 2.012988908775156460e+00
5.368543443083763123e+01 -5.763516508042812347e+00 2.046527727134531460e+00
6.593665513396263123e+01 -1.234762295335531235e+01 2.596927507407968960e+00
6.664124497771263123e+01 -1.182540615648031235e+01 2.666492326743906460e+00
5.252283677458763123e+01 -7.176602445542812347e+00 2.144092424400156460e+00
4.939039048552513123e+01 -5.607022367417812347e+00 2.059223039634531460e+00
6.598829087615013123e+01 -1.238058193773031235e+01 2.905048234947031460e+00
5.245423325896263123e+01 -7.180142484605312347e+00 2.379901750572031460e+00
5.350757798552513123e+01 -6.838467679917812347e+00 2.463046892173593960e+00
5.388099107146263123e+01 -6.363125883042812347e+00 2.512668474204843960e+00
4.543335923552513123e+01 -4.518277250230312347e+00 2.107379777915781460e+00
5.237745103240013123e+01 -7.182217679917812347e+00 2.615985734947031460e+00
4.529139146208763123e+01 -5.412076078355312347e+00 2.254001482017343960e+00
4.532923325896263123e+01 -4.965664945542812347e+00 2.281452043540781460e+00
4.682459458708763123e+01 -4.747769437730312347e+00 2.390949113853281460e+00
5.230005845427513123e+01 -7.184048734605312347e+00 2.850131853111093960e+00
4.525586900115013123e+01 -5.419644437730312347e+00 2.457172258384531460e+00
4.846399888396263123e+01 -5.498746000230312347e+00 2.676074846275156460e+00
4.680689439177513123e+01 -4.759244047105312347e+00 2.602649553306406460e+00
4.903296861052513123e+01 -7.581143461167812347e+00 2.826969011314218960e+00
4.716810044646263123e+01 -6.717129789292812347e+00 2.735584123618906460e+00
4.765430650115013123e+01 -6.333706937730312347e+00 2.792453630454843960e+00
4.530542954802513123e+01 -5.442349515855312347e+00 2.666660173423593960e+00
4.835901841521263123e+01 -5.496182523667812347e+00 2.890155656822031460e+00
4.826563462615013123e+01 -5.000577054917812347e+00 2.910114152915781460e+00
4.897168931365013123e+01 -8.080411039292812347e+00 3.021625383384531460e+00
4.906226548552513123e+01 -7.602627836167812347e+00 3.053073747642343960e+00
4.504871568083763123e+01 -6.313931547105312347e+00 2.806156023032968960e+00
4.438758286833763123e+01 -5.738003812730312347e+00 2.784900529868906460e+00
4.502442368865013123e+01 -5.406582914292812347e+00 2.852710588462656460e+00
4.489527329802513123e+01 -4.934903226792812347e+00 2.868839128501718960e+00
4.604578599333763123e+01 -4.668789945542812347e+00 2.973605974204843960e+00
5.278565415740013123e+01 -9.467007718980312347e+00 3.492618425376718960e+00
5.051868638396263123e+01 -8.433682523667812347e+00 3.356967790611093960e+00
4.916639146208763123e+01 -7.639737211167812347e+00 3.286136491782968960e+00
4.453919419646263123e+01 -6.227383695542812347e+00 2.975284441001718960e+00
4.446180161833763123e+01 -5.765713773667812347e+00 2.993106706626718960e+00
4.471241196990013123e+01 -5.365323148667812347e+00 3.035022600181406460e+00
4.497205552458763123e+01 -4.961392484605312347e+00 3.077854021079843960e+00
4.382630357146263123e+01 -4.335660062730312347e+00 3.016452653892343960e+00
1.338794907927513123e+01 4.969815388321876526e-01 -3.409844798967185397e-01
1.354529771208763123e+01 5.981778278946876526e-01 -3.345605297014060397e-01
1.371912583708763123e+01 7.001065388321876526e-01 -3.284417552873435397e-01
1.405225571990013123e+01 7.865323200821876526e-01 -3.238641185685935397e-01
1.423877915740013123e+01 8.950528278946876526e-01 -3.173638744279685397e-01
1.443042954802513123e+01 1.006625093519687653e+00 -3.106805248185935397e-01
1.462793931365013123e+01 1.121615327894687653e+00 -3.037835521623435397e-01
1.493958482146263123e+01 1.230746187269687653e+00 -2.979852123185935397e-01
1.512476548552513123e+01 2.313565388321876526e-01 -2.994500560685935397e-01
1.542298325896263123e+01 3.302334919571876526e-01 -2.926446361467185397e-01
1.576551255583763123e+01 4.291104450821876526e-01 -2.854119701310935397e-01
1.620533189177513123e+01 5.233487263321876526e-01 -2.787286205217185397e-01
1.666993150115013123e+01 6.229581013321876526e-01 -2.716638011857810397e-01
1.703382310271263123e+01 7.416104450821876526e-01 -2.634698314592185397e-01
1.739624986052513123e+01 8.678311482071876526e-01 -2.551843089982810397e-01
1.778858384490013123e+01 9.980801716446876526e-01 -2.462273998185935397e-01
1.781836900115013123e+01 -1.800204142928123474e-01 -2.455560130998435397e-01
1.823414048552513123e+01 -7.027920335531234741e-02 -2.360497875139060397e-01
1.867017564177513123e+01 4.471103101968765259e-02 -2.260857982560935397e-01
1.674122056365013123e+01 4.541348591446876526e-01 -2.108422679826560397e-01
1.664295396208763123e+01 6.212491169571876526e-01 -2.006188793107810397e-01
2.136023911833763123e+01 3.016690388321876526e-01 -1.938439769670310397e-01
2.275586900115013123e+01 3.777188435196876526e-01 -1.808129711076560397e-01
2.386158189177513123e+01 5.040616169571876526e-01 -1.662255687639060397e-01
1.915894517302513123e+01 -3.880282267928123474e-01 -1.680108470842185397e-01
1.909937486052513123e+01 -1.978426799178123474e-01 -1.559869213029685397e-01
3.636780747771263123e+01 -2.281582914292812347e+00 -1.099511547014060397e-01
1.673755845427513123e+01 4.499844685196876526e-01 -1.390496654435935397e-01
1.658118638396263123e+01 6.235684528946876526e-01 -1.295434398576560397e-01
3.093445786833763123e+01 -7.430752366781234741e-02 -2.573789786546853975e-02
1.922217759490013123e+01 -4.031649455428123474e-01 -8.436216544359353975e-02
1.902662095427513123e+01 -1.929598674178123474e-01 -7.392515372484353975e-02
1.763575181365013123e+01 1.700772419571876526e-01 -7.166685294359353975e-02
1.676453599333763123e+01 4.419278278946876526e-01 -6.740965079515603975e-02
1.636658677458763123e+01 6.427334919571876526e-01 -6.060423087328103975e-02
1.625000962615013123e+01 8.067959919571876526e-01 -5.192197989671853975e-02
1.623707017302513123e+01 9.591397419571876526e-01 -4.243101309984353975e-02
1.623645982146263123e+01 1.109408296644687653e+00 -3.289426993578103975e-02
1.919751939177513123e+01 -4.049960002303123474e-01 -1.400129310781039749e-03
1.838697251677513123e+01 -1.076327189803123474e-01 1.926286704843960251e-03
1.756714829802513123e+01 1.741055622696876526e-01 3.665788657968960251e-03
1.678113755583763123e+01 4.352139607071876526e-01 4.764421470468960251e-03
1.636976060271263123e+01 6.378506794571876526e-01 9.494646079843960251e-03
1.628528794646263123e+01 7.987393513321876526e-01 1.797853279859396025e-02
1.626685532927513123e+01 9.519375935196876526e-01 2.727113533765646025e-02
1.626270493865013123e+01 1.102816499769687653e+00 3.633485604078146025e-02
1.921961411833763123e+01 -4.139071330428123474e-01 8.247743416578146025e-02
1.838624009490013123e+01 -1.128817424178123474e-01 8.119569588453146025e-02
1.756934556365013123e+01 1.687344685196876526e-01 7.910524178296896025e-02
1.679761704802513123e+01 4.285000935196876526e-01 7.672487068921896025e-02
1.636268052458763123e+01 6.341885700821876526e-01 7.908998299390646025e-02
1.628663071990013123e+01 7.941006794571876526e-01 8.725343514234396025e-02
1.627124986052513123e+01 9.470547810196876526e-01 9.643922615796896025e-02
1.623621568083763123e+01 1.100619234144687653e+00 1.051977710798439603e-01
1.924170884490013123e+01 -4.228182658553123474e-01 1.661413745954689603e-01
1.834144029021263123e+01 -1.116610392928123474e-01 1.596106128767189603e-01
1.755494126677513123e+01 1.656827107071876526e-01 1.546515064314064603e-01
1.681128892302513123e+01 4.221524372696876526e-01 1.492041187360939603e-01
1.636377915740013123e+01 6.294278278946876526e-01 1.492041187360939603e-01
1.624329575896263123e+01 7.939786091446876526e-01 1.559332447126564603e-01
1.621277818083763123e+01 9.480313435196876526e-01 1.642340259626564603e-01
1.620350083708763123e+01 1.098788179457187653e+00 1.733130054548439603e-01
1.925672349333763123e+01 -4.307528361678123474e-01 2.503241138532814603e-01
1.831897935271263123e+01 -1.137362346053123474e-01 2.386053638532814603e-01
1.755079087615013123e+01 1.612881794571876526e-01 2.299536304548439603e-01
1.681653794646263123e+01 4.167813435196876526e-01 2.212256031110939603e-01
1.637598618865013123e+01 6.235684528946876526e-01 2.192724781110939603e-01
1.626343736052513123e+01 7.875088825821876526e-01 2.255896167829689603e-01
1.623914536833763123e+01 9.411954060196876526e-01 2.342260913923439603e-01
1.623523911833763123e+01 1.091830171644687653e+00 2.433508472517189603e-01
1.929834946990013123e+01 -4.427157267928123474e-01 3.349951343610939603e-01
1.835328111052513123e+01 -1.239901408553123474e-01 3.186529712751564603e-01
1.758973130583763123e+01 1.511563435196876526e-01 3.065222339704689603e-01
1.685730943083763123e+01 4.070157185196876526e-01 2.943914966657814603e-01
1.641651353240013123e+01 6.144131794571876526e-01 2.903479175642189603e-01
1.635840806365013123e+01 7.732266560196876526e-01 2.978247242048439603e-01
1.633863267302513123e+01 9.275235310196876526e-01 3.064764576032814603e-01
1.627771958708763123e+01 1.083895601332187653e+00 3.136938648298439603e-01
1.946314439177513123e+01 -4.735995158553123474e-01 4.245947437360939603e-01
1.838587388396263123e+01 -1.338778361678123474e-01 3.994024829939064603e-01
1.761756333708763123e+01 1.423672810196876526e-01 3.835028247907814603e-01
1.700940904021263123e+01 3.835782185196876526e-01 3.722570972517189603e-01
1.644898423552513123e+01 6.061123982071876526e-01 3.619116382673439603e-01
1.634571275115013123e+01 7.700528278946876526e-01 3.674353199079689603e-01
1.631165513396263123e+01 9.255704060196876526e-01 3.753698902204689603e-01
1.630457505583763123e+01 1.077181734144687653e+00 3.842352466657814603e-01
1.940955552458763123e+01 -4.710360392928123474e-01 5.070684986189064603e-01
1.845765122771263123e+01 -1.495028361678123474e-01 4.815863208845314603e-01
1.767383775115013123e+01 1.299161091446876526e-01 4.614752369001564603e-01
1.688941392302513123e+01 3.935879841446876526e-01 4.403875904157814603e-01
1.650391587615013123e+01 5.953702107071876526e-01 4.343451099470314603e-01
1.636756333708763123e+01 7.632168903946876526e-01 4.379767017439064603e-01
1.637720689177513123e+01 9.149502888321876526e-01 4.475134449079689603e-01
1.644703111052513123e+01 1.060946382582187653e+00 4.595373706892189603e-01
5.368641099333763123e+01 -5.761685453355312347e+00 2.046665056236093960e+00
1.859546861052513123e+01 -1.746493205428123474e-01 5.677221851423439603e-01
1.778113755583763123e+01 1.105069294571876526e-01 5.422094898298439603e-01
1.707227525115013123e+01 3.662442341446876526e-01 5.208319263532814603e-01
1.659119614958763123e+01 5.808438435196876526e-01 5.087469654157814603e-01
1.655420884490013123e+01 7.394131794571876526e-01 5.162542896345314603e-01
1.666651353240013123e+01 8.833340778946876526e-01 5.309637622907814603e-01
1.677771958708763123e+01 1.028841890394687653e+00 5.453222827985939603e-01
1.881775864958763123e+01 -2.120028361678123474e-01 6.587713794782814603e-01
1.798658189177513123e+01 7.791415601968765259e-02 6.291235523298439603e-01
1.730970200896263123e+01 3.319424763321876526e-01 6.060522632673439603e-01
1.714747056365013123e+01 5.128506794571876526e-01 6.075628833845314603e-01
1.727906236052513123e+01 6.594571247696876526e-01 6.235846119001564603e-01
1.732435044646263123e+01 8.170498982071876526e-01 6.353949146345314603e-01
1.734620103240013123e+01 9.767178669571876526e-01 6.459845142439064603e-01
4.543702134490013123e+01 -4.517178617417812347e+00 2.107669694907968960e+00
1.912415513396263123e+01 -2.618075236678123474e-01 7.563055591657814603e-01
1.741651353240013123e+01 1.494473591446876526e-01 6.765326099470314603e-01
1.743067368865013123e+01 3.120450153946876526e-01 6.868780689314064603e-01
1.839270982146263123e+01 3.657559528946876526e-01 7.484320240095314603e-01
1.757398423552513123e+01 6.239346638321876526e-01 7.137487964704689603e-01
4.682129868865013123e+01 -4.745572172105312347e+00 2.390842302329843960e+00
4.523975571990013123e+01 -4.052823148667812347e+00 2.327503068931406460e+00
1.744458970427513123e+01 1.406582966446876526e-01 7.535132007673439603e-01
4.605896958708763123e+01 -3.261319242417812347e+00 2.426715715415781460e+00
1.839954575896263123e+01 3.597745075821876526e-01 8.285559253767189603e-01
4.515784654021263123e+01 -2.262784086167812347e+00 2.425464494712656460e+00
4.680384263396263123e+01 -4.757168851792812347e+00 2.602542741782968960e+00
4.633338364958763123e+01 -4.225186429917812347e+00 2.598941667564218960e+00
4.564722642302513123e+01 -3.674771390855312347e+00 2.582446916587656460e+00
4.535401353240013123e+01 -3.186856351792812347e+00 2.589847429282968960e+00
1.841590318083763123e+01 3.528164997696876526e-01 9.089544849470314603e-01
4.550965318083763123e+01 -2.312832914292812347e+00 2.650714738853281460e+00
4.826294907927513123e+01 -4.998501859605312347e+00 2.910022600181406460e+00
4.337452134490013123e+01 -3.808438383042812347e+00 2.613193376548593960e+00
1.896570786833763123e+01 -7.528408616781234741e-02 1.005847795493906460e+00
4.574744614958763123e+01 -3.249600492417812347e+00 2.821674211509531460e+00
4.564185532927513123e+01 -2.787686429917812347e+00 2.839984758384531460e+00
4.507190904021263123e+01 -2.280118070542812347e+00 2.826267107017343960e+00
4.528809556365013123e+01 -1.858243070542812347e+00 2.866275651939218960e+00
1.798462876677513123e+01 9.033536091446876526e-01 9.881933765485939603e-01
4.605188950896263123e+01 -4.668057523667812347e+00 2.974109514243906460e+00
4.390516099333763123e+01 -3.898770414292812347e+00 2.847431047447031460e+00
4.370618638396263123e+01 -3.438565336167812347e+00 2.856479509361093960e+00
1.821485337615013123e+01 1.938809528946876526e-01 1.044086320884531460e+00
1.786585435271263123e+01 4.059170857071876526e-01 1.028385026939218960e+00
1.789649400115013123e+01 5.704678669571876526e-01 1.040042741782968960e+00
1.796009263396263123e+01 7.325772419571876526e-01 1.054584367759531460e+00
1.802906236052513123e+01 8.946866169571876526e-01 1.069141252525156460e+00
4.382618150115013123e+01 -4.334073148667812347e+00 3.016528947837656460e+00
4.480445298552513123e+01 -4.043423734605312347e+00 3.113498552329843960e+00
4.326233872771263123e+01 -3.391202054917812347e+00 3.020679338462656460e+00
4.356238755583763123e+01 -3.001675687730312347e+00 3.067447526939218960e+00
4.509046372771263123e+01 -2.750699125230312347e+00 3.209308488853281460e+00
4.605628404021263123e+01 -2.410367093980312347e+00 3.309055192954843960e+00
4.532154282927513123e+01 -1.887662015855312347e+00 3.276630266197031460e+00
3.672132310271263123e+01 -7.094393596053123474e-01 2.623157365806406460e+00
3.517322739958763123e+01 2.472256794571876526e-01 2.732257707603281460e+00
3.457691392302513123e+01 6.754483357071876526e-01 2.710269792564218960e+00
3.461097154021263123e+01 1.055087007582187653e+00 2.738422258384531460e+00
3.483338364958763123e+01 1.424227632582187653e+00 2.782764299400156460e+00
1.203089341521263123e+01 6.527987398207187653e+00 1.853977067954843960e+00
1.491810044646263123e+01 6.994173921644687653e+00 2.150714738853281460e+00
1.655164536833763123e+01 7.430453218519687653e+00 2.332218034751718960e+00
9.163339704275131226e+00 7.182406343519687653e+00 1.647434099204843960e+00
9.304208844900131226e+00 7.461825288832187653e+00 1.682163103111093960e+00
8.145883649587631226e+00 7.614046968519687653e+00 1.590503557212656460e+00
8.171640485525131226e+00 7.495516695082187653e+00 1.688846452720468960e+00
8.083871930837631226e+00 7.757479585707187653e+00 1.701602800376718960e+00
8.431284040212631226e+00 8.065951265394687653e+00 1.757999284751718960e+00
9.935312360525131226e+00 8.517123140394687653e+00 1.932636125572031460e+00
1.109363755583763123e+01 9.443880952894687653e+00 2.193836076743906460e+00
9.744028180837631226e+00 8.434847749769687653e+00 1.898959978111093960e+00
9.000131696462631226e+00 7.446444429457187653e+00 1.893787248618906460e+00
8.093271344900131226e+00 7.667879976332187653e+00 1.826022966392343960e+00
7.930429548025131226e+00 7.942782320082187653e+00 1.832889421470468960e+00
9.120126813650131226e+00 8.359042085707187653e+00 1.977558000572031460e+00
1.142029771208763123e+01 8.927523531019687653e+00 2.238315446861093960e+00
1.101429185271263123e+01 9.202670015394687653e+00 2.222446306236093960e+00
1.107764634490013123e+01 9.535189546644687653e+00 2.255069597251718960e+00
1.285340318083763123e+01 9.690585054457187653e+00 2.052097185142343960e+00
5.858041852712631226e+00 9.687899507582187653e+00 1.484943254478281460e+00
2.932504743337631226e+00 9.495272554457187653e+00 1.232959611900156460e+00
5.961679548025131226e+00 9.695467866957187653e+00 1.628894670493906460e+00
3.181894391775131226e+00 9.529086031019687653e+00 1.378558977134531460e+00
2.673471540212631226e+00 9.706576265394687653e+00 1.348850114829843960e+00
9.015268415212631226e+00 8.543978609144687653e+00 1.950443132407968960e+00
8.932626813650131226e+00 8.856112398207187653e+00 1.966739519126718960e+00
1.108765611052513123e+01 9.447543062269687653e+00 2.207691057212656460e+00
5.421030133962631226e+00 9.893099702894687653e+00 1.731403215415781460e+00
3.171030133962631226e+00 9.786654390394687653e+00 1.520679338462656460e+00
2.928232282400131226e+00 9.592928804457187653e+00 1.302493913657968960e+00
2.292368024587631226e+00 9.753207124769687653e+00 1.263233049400156460e+00
2.032358258962631226e+00 9.970614351332187653e+00 1.258884294517343960e+00
1.108655747771263123e+01 9.528475679457187653e+00 2.134006364829843960e+00
5.772958844900131226e+00 9.757601656019687653e+00 1.688632829673593960e+00
3.060190290212631226e+00 9.606844820082187653e+00 1.439945085532968960e+00
2.329721540212631226e+00 9.751986421644687653e+00 1.387775285728281460e+00
2.355844587087631226e+00 1.002322665601968765e+01 1.412296159751718960e+00
1.316504868865013123e+01 9.886507906019687653e+00 1.952060564048593960e+00
5.722787946462631226e+00 9.861117281019687653e+00 1.381687028892343960e+00
2.883798688650131226e+00 9.693392671644687653e+00 1.151721818931406460e+00
2.676889508962631226e+00 9.934969820082187653e+00 1.154865129478281460e+00
1.311585435271263123e+01 9.868563570082187653e+00 2.121707780845468960e+00
3.235361188650131226e+00 9.462679781019687653e+00 1.288959367759531460e+00
2.977914899587631226e+00 9.700838960707187653e+00 1.286990983970468960e+00
2.292368024587631226e+00 9.858797945082187653e+00 1.244022233970468960e+00
