1.182879388332366943e+01 -2.600893795490264893e+00 -5.862803956493678470e-01
1.187481439113616943e+01 -2.490053951740264893e+00 -5.774150392040553470e-01
1.191534173488616943e+01 -2.376772701740264893e+00 -5.686564942821803470e-01
1.195586907863616943e+01 -2.263247311115264893e+00 -5.598674317821803470e-01
1.199627435207366943e+01 -2.150210201740264893e+00 -5.511241456493678470e-01
1.203667962551116943e+01 -2.037295162677764893e+00 -5.423808595165553470e-01
1.206719720363616943e+01 -1.920351803302764893e+00 -5.333171388134303470e-01
1.208709466457366943e+01 -1.800112545490264893e+00 -5.243144532665553470e-01
1.311114251613616943e+01 -3.190371334552764893e+00 -5.700297852978053470e-01
1.310894525051116943e+01 -3.042788326740264893e+00 -5.588603517040553470e-01
1.311480462551116943e+01 -2.899966061115264893e+00 -5.476909181103053470e-01
1.311773431301116943e+01 -2.756411373615264893e+00 -5.368114015087428470e-01
1.316180169582366943e+01 -2.631289303302764893e+00 -5.271678468212428470e-01
1.320574700832366943e+01 -2.506289303302764893e+00 -5.175242921337428470e-01
1.324285638332366943e+01 -2.378359615802764893e+00 -5.080180665478053470e-01
1.328667962551116943e+01 -2.253725826740264893e+00 -4.984050294384303470e-01
1.378533685207366943e+01 -3.503237545490264893e+00 -5.252757569774928470e-01
1.478533685207366943e+01 -3.793154537677764893e+00 -5.384746095165553470e-01
1.493707025051116943e+01 -3.693545162677764893e+00 -5.298686524853053470e-01
1.492339837551116943e+01 -3.521548092365264893e+00 -5.172496339306178470e-01
1.490997064113616943e+01 -3.351870357990264893e+00 -5.048137208446803470e-01
1.489666497707366943e+01 -3.183901607990264893e+00 -4.925151368603053470e-01
1.488335931301116943e+01 -3.016909420490264893e+00 -4.802775880321803470e-01
1.487017571926116943e+01 -2.852236568927764893e+00 -4.682078858837428470e-01
1.384405267238616943e+01 -3.535219967365264893e+00 -4.614482423290553470e-01
1.483953607082366943e+01 -3.822817623615264893e+00 -4.694133302196803470e-01
1.607110345363616943e+01 -4.190493404865264893e+00 -4.805369874462428470e-01
1.731927239894866943e+01 -4.536806881427764893e+00 -4.899211427196803470e-01
1.734405267238616943e+01 -4.354800045490264893e+00 -4.764781495556178470e-01
1.736871087551116943e+01 -4.173769772052764893e+00 -4.631114503368678470e-01
1.739324700832366943e+01 -3.993105709552764893e+00 -4.497600099071803470e-01
1.740154778957366943e+01 -3.807802975177764893e+00 -4.367290040478053470e-01
1.391192376613616943e+01 -3.571474850177764893e+00 -3.967967530712428470e-01
1.489373528957366943e+01 -3.852480709552764893e+00 -4.001384278759303470e-01
1.613543450832366943e+01 -4.224306881427764893e+00 -4.055247804149928470e-01
1.774822747707366943e+01 -4.724184811115264893e+00 -4.137034913524928470e-01
2.005389153957366943e+01 -5.472842037677764893e+00 -4.278026124462428470e-01
2.059112298488616943e+01 -5.464663326740264893e+00 -4.182353517040553470e-01
2.064812982082366943e+01 -5.259463131427764893e+00 -4.028392335399928470e-01
2.070501458644866943e+01 -5.055361568927764893e+00 -3.875194093212428470e-01
1.426434075832366943e+01 -3.737978756427764893e+00 -3.347545167431178470e-01
1.494891107082366943e+01 -3.882632076740264893e+00 -3.299327393993678470e-01
1.620062005519866943e+01 -4.258608639240264893e+00 -3.294444581493678470e-01
1.784466302394866943e+01 -4.771426022052764893e+00 -3.301005860790553470e-01
2.017266595363616943e+01 -5.528994381427764893e+00 -3.331676026806178470e-01
2.461126458644866943e+01 -7.076479732990264893e+00 -3.461223145946803470e-01
2.741839349269866943e+01 -7.890688717365264893e+00 -3.430247804149928470e-01
2.754729974269866943e+01 -7.636660397052764893e+00 -3.235850831493678470e-01
3.285589349269866943e+01 -1.226349145174026489e+01 -3.670268556103053470e-01
3.441265618801116943e+01 -1.257525902986526489e+01 -3.485789796337428470e-01
1.855572259426116943e+01 -5.287783443927764893e+00 -2.617717286571803470e-01
1.939581048488616943e+01 -5.433535397052764893e+00 -2.503123780712428470e-01
2.038360345363616943e+01 -5.622988522052764893e+00 -2.380290528759303470e-01
2.496661126613616943e+01 -7.227358639240264893e+00 -2.295756837353053470e-01
3.235564935207366943e+01 -1.204681664705276489e+01 -2.058635255321803470e-01
3.224834954738616943e+01 -1.162164574861526489e+01 -1.813731690868678470e-01
4.025738275051116943e+01 -1.473163110017776489e+01 -1.465373536571803470e-01
3.440118157863616943e+01 -1.178876000642776489e+01 -1.278605958446803470e-01
4.477996575832366943e+01 -1.566681176424026489e+01 -7.390551771968034700e-02
4.478594720363616943e+01 -1.516058617830276489e+01 -4.079394545405534700e-02
3.170367181301116943e+01 -1.176007348299026489e+01 -4.953723158686784700e-02
3.207952630519866943e+01 -1.155853539705276489e+01 -2.410083021968034700e-02
3.365459954738616943e+01 -1.187323266267776489e+01 9.132812358444653000e-03
4.017217767238616943e+01 -1.424530297517776489e+01 7.897228989750715300e-02
4.006878411769866943e+01 -1.374359399080276489e+01 1.072468260303196530e-01
4.495940911769866943e+01 -1.524652367830276489e+01 1.771778563037571530e-01
3.209722650051116943e+01 -1.195318871736526489e+01 1.096119383350071530e-01
3.276092278957366943e+01 -1.187579613924026489e+01 1.395802000537571530e-01
3.990435540676116943e+01 -1.460858422517776489e+01 2.428516844287571530e-01
4.011236321926116943e+01 -1.423517113924026489e+01 2.737354734912571530e-01
4.034380853176116943e+01 -1.387201195955276489e+01 3.048786619678196530e-01
4.516558587551116943e+01 -1.534588891267776489e+01 3.973774412646946530e-01
3.178887689113616943e+01 -1.182391625642776489e+01 2.632526854053196530e-01
3.185735833644866943e+01 -1.148370629549026489e+01 2.864765623584446530e-01
4.101263177394866943e+01 -1.510724145174026489e+01 4.568714598193821530e-01
3.425494134426116943e+01 -1.176568871736526489e+01 3.709492186084446530e-01
4.007488763332366943e+01 -1.332159692049026489e+01 5.239338377490696530e-01
3.363458001613616943e+01 -1.268573266267776489e+01 4.557117918506321530e-01
3.226568353176116943e+01 -1.167901879549026489e+01 4.504169920459446530e-01
4.021246087551116943e+01 -1.477362328767776489e+01 6.405415037646946530e-01
4.495147454738616943e+01 -1.632025414705276489e+01 7.712482908740696530e-01
4.044219720363616943e+01 -1.394281274080276489e+01 6.993946531787571530e-01
3.365130364894866943e+01 -1.270648461580276489e+01 6.222462156787571530e-01
3.195147454738616943e+01 -1.155047875642776489e+01 6.009144285693821530e-01
4.026067864894866943e+01 -1.481000024080276489e+01 8.385242918506321530e-01
4.053790032863616943e+01 -1.446161156892776489e+01 8.721851805225071530e-01
4.054620110988616943e+01 -1.400091820955276489e+01 8.984913328662571530e-01
3.357562005519866943e+01 -1.268463402986526489e+01 7.853626707568821530e-01
3.876653802394866943e+01 -1.462335473299026489e+01 9.654316404834446530e-01
3.990630853176116943e+01 -1.467059594392776489e+01 1.025551269389694653e+00
8.384380853176116943e+01 -3.289789086580276489e+01 2.450645873881882153e+00
3.985577142238616943e+01 -1.559588891267776489e+01 1.171043823100632153e+00
6.440215814113616943e+01 -2.616083031892776489e+01 2.068245361186569653e+00
3.981536614894866943e+01 -1.464605981111526489e+01 1.217613647319382153e+00
9.151409661769866943e+01 -3.513519555330276489e+01 3.202309081889694653e+00
3.989849603176116943e+01 -1.563128930330276489e+01 1.369560668803757153e+00
4.050030267238616943e+01 -1.543329125642776489e+01 1.417854736186569653e+00
8.333379876613616943e+01 -3.372149926424026489e+01 3.208488891460007153e+00
8.480047357082366943e+01 -3.336993676424026489e+01 3.319542358256882153e+00
8.482049310207366943e+01 -3.239593774080276489e+01 3.370384643413132153e+00
5.644769036769866943e+01 -2.329706078767776489e+01 2.314079711772507153e+00
4.005193841457366943e+01 -1.524701195955276489e+01 1.596687743999069653e+00
8.318145501613616943e+01 -3.368695336580276489e+01 3.614189575053757153e+00
8.438873040676116943e+01 -3.322674828767776489e+01 3.718605468608444653e+00
9.123833978176116943e+01 -3.509039574861526489e+01 4.091316650249069653e+00
8.628106439113616943e+01 -3.105536156892776489e+01 3.953499267436569653e+00
8.442107903957366943e+01 -3.626166039705276489e+01 3.997536132670944653e+00
5.627361810207366943e+01 -2.257318383455276489e+01 2.617531249858444653e+00
8.493462884426116943e+01 -3.448846703767776489e+01 4.118446777202194653e+00
8.435406243801116943e+01 -3.324444848299026489e+01 4.135506103374069653e+00
8.456731927394866943e+01 -3.235528832674026489e+01 4.192940185405319653e+00
8.265032708644866943e+01 -3.060943871736526489e+01 4.137474487163132153e+00
8.283843743801116943e+01 -2.973785668611526489e+01 4.192268798686569653e+00
3.902544915676116943e+01 -1.527386742830276489e+01 1.914986083842819653e+00
5.644634759426116943e+01 -2.267303735017776489e+01 2.907417724467819653e+00
8.459454095363616943e+01 -3.437201195955276489e+01 4.520409057475632153e+00
8.491436517238616943e+01 -3.351617699861526489e+01 4.583794067241257153e+00
8.253069818019866943e+01 -3.154095727205276489e+01 4.491920898295944653e+00
8.220000970363616943e+01 -3.045855981111526489e+01 4.516014526225632153e+00
8.284722650051116943e+01 -2.977228051424026489e+01 4.598823974467819653e+00
3.847625482082366943e+01 -1.503460961580276489e+01 2.075828979350632153e+00
3.906170403957366943e+01 -1.484662133455276489e+01 2.130211303569382153e+00
8.119854485988616943e+01 -3.291229516267776489e+01 4.733955810405319653e+00
8.248443353176116943e+01 -3.250970727205276489e+01 4.855186889506882153e+00
8.312176263332366943e+01 -3.181830102205276489e+01 4.936790893413132153e+00
8.215350091457366943e+01 -3.047076684236526489e+01 4.917778442241257153e+00
8.312981927394866943e+01 -2.991400414705276489e+01 5.020805785991257153e+00
1.208721673488616943e+01 -1.799746334552764893e+00 -5.242839356884303470e-01
1.212749993801116943e+01 -1.687441647052764893e+00 -5.156627198681178470e-01
1.215435540676116943e+01 -1.570376217365264893e+00 -5.069652101024928470e-01
1.216961419582366943e+01 -1.449038326740264893e+00 -4.979320069774928470e-01
1.218475091457366943e+01 -1.328799068927764893e+00 -4.889750977978053470e-01
1.219976556301116943e+01 -1.208926022052764893e+00 -4.800487061962428470e-01
1.221478021144866943e+01 -1.089175045490264893e+00 -4.711375733837428470e-01
1.222381341457366943e+01 -9.684475064277648926e-01 -4.624248048290553470e-01
1.328680169582366943e+01 -2.253359615802764893e+00 -4.983745118603053470e-01
1.332293450832366943e+01 -2.125918209552764893e+00 -4.889445802196803470e-01
1.336602532863616943e+01 -2.001162350177764893e+00 -4.793620606884303470e-01
1.340215814113616943e+01 -1.873476803302764893e+00 -4.699168702587428470e-01
1.343414056301116943e+01 -1.745058834552764893e+00 -4.604259034618678470e-01
1.344805657863616943e+01 -1.611147701740264893e+00 -4.505839845165553470e-01
1.345464837551116943e+01 -1.475039303302764893e+00 -4.409404298290553470e-01
1.346844232082366943e+01 -1.342348873615264893e+00 -4.311900636181178470e-01
1.486968743801116943e+01 -2.851626217365264893e+00 -4.681621095165553470e-01
1.488287103176116943e+01 -2.697939693927764893e+00 -4.570537110790553470e-01
1.493145501613616943e+01 -2.557558834552764893e+00 -4.466319581493678470e-01
1.498016107082366943e+01 -2.416689693927764893e+00 -4.361796876415553470e-01
1.502886712551116943e+01 -2.276308834552764893e+00 -4.257579347118678470e-01
1.507745110988616943e+01 -2.135927975177764893e+00 -4.153361817821803470e-01
1.512627923488616943e+01 -1.994936764240264893e+00 -4.048686524853053470e-01
1.517486321926116943e+01 -1.854433834552764893e+00 -3.944468995556178470e-01
1.740142571926116943e+01 -3.807070553302764893e+00 -4.366832276806178470e-01
1.746478021144866943e+01 -3.643252193927764893e+00 -4.240031739696803470e-01
1.752251946926116943e+01 -3.477114498615264893e+00 -4.116588136181178470e-01
1.758050286769866943e+01 -3.310488522052764893e+00 -3.992686768993678470e-01
1.763824212551116943e+01 -3.144228756427764893e+00 -3.869243165478053470e-01
1.769610345363616943e+01 -2.978091061115264893e+00 -3.745799561962428470e-01
1.775408685207366943e+01 -2.811343014240264893e+00 -3.621898194774928470e-01
1.782854974269866943e+01 -2.649966061115264893e+00 -3.504252931103053470e-01
2.070489251613616943e+01 -5.054629147052764893e+00 -3.874736329540553470e-01
2.070635735988616943e+01 -4.830752193927764893e+00 -3.720622560009303470e-01
2.091460931301116943e+01 -4.681460201740264893e+00 -3.584514161571803470e-01
2.114556634426116943e+01 -4.536074459552764893e+00 -3.447337647899928470e-01
2.124786126613616943e+01 -4.345156490802764893e+00 -3.299632569774928470e-01
2.135040032863616943e+01 -4.153628170490264893e+00 -3.151469727978053470e-01
2.145367181301116943e+01 -3.960757076740264893e+00 -3.002238770946803470e-01
2.155694329738616943e+01 -3.767885982990264893e+00 -2.853007813915553470e-01
2.755022943019866943e+01 -7.636782467365264893e+00 -3.235240479931178470e-01
2.776019036769866943e+01 -7.411684811115264893e+00 -3.033824464306178470e-01
2.814776360988616943e+01 -7.246645748615264893e+00 -2.843547364696803470e-01
2.851617181301116943e+01 -7.067568600177764893e+00 -2.647471925243678470e-01
2.880730950832366943e+01 -6.857607662677764893e+00 -2.446666261181178470e-01
2.901873528957366943e+01 -6.617861568927764893e+00 -2.242045899853053470e-01
2.940276849269866943e+01 -6.427798092365264893e+00 -2.035594483837428470e-01
2.965398919582366943e+01 -6.192934811115264893e+00 -1.833415528759303470e-01
5.469964349269866943e+01 -1.545733910799026489e+01 -3.160815443843034700e-02
5.484283196926116943e+01 -1.491107445955276489e+01 7.881591655319653000e-03
5.482977044582366943e+01 -1.431512719392776489e+01 4.677624497563215300e-02
7.011810052394866943e+01 -1.829974633455276489e+01 1.645130613818821530e-01
5.462786614894866943e+01 -1.545282250642776489e+01 2.287983397021946530e-01
5.489617669582366943e+01 -1.494732934236526489e+01 2.691578367725071530e-01
5.519134271144866943e+01 -1.444610863924026489e+01 3.086170652881321530e-01
5.486309564113616943e+01 -1.555023461580276489e+01 4.911274412646946530e-01
5.492229974269866943e+01 -1.497479516267776489e+01 5.292744139209446530e-01
5.526360833644866943e+01 -1.448773461580276489e+01 5.713581541553196530e-01
5.547002923488616943e+01 -1.577142602205276489e+01 7.623371580615696530e-01
5.791656243801116943e+01 -1.595746117830276489e+01 8.437275389209446530e-01
5.717400872707366943e+01 -1.510052758455276489e+01 8.681568602100071530e-01
5.599664056301116943e+01 -1.596649438142776489e+01 1.039116332866257153e+00
5.891290032863616943e+01 -1.629876977205276489e+01 1.142631957866257153e+00
5.815252435207366943e+01 -1.542486840486526489e+01 1.162788818217819653e+00
1.222332513332366943e+01 -9.678371548652648926e-01 -4.623942872509303470e-01
1.223687493801116943e+01 -8.490627408027648926e-01 -4.536052247509303470e-01
1.225054681301116943e+01 -7.305324673652648926e-01 -4.451518556103053470e-01
1.227618157863616943e+01 -6.151760220527648926e-01 -4.369426270946803470e-01
1.230169427394866943e+01 -5.003078579902648926e-01 -4.287639161571803470e-01
1.232708489894866943e+01 -3.855617642402648926e-01 -4.205852052196803470e-01
1.235271966457366943e+01 -2.704494595527648926e-01 -4.123912354931178470e-01
1.237237298488616943e+01 -1.544826626777648926e-01 -4.044108888134303470e-01
1.346783196926116943e+01 -1.341616451740264893e+00 -4.311442872509303470e-01
1.347356927394866943e+01 -1.207217037677764893e+00 -4.216533204540553470e-01
1.348663079738616943e+01 -1.075259029865264893e+00 -4.119945069774928470e-01
1.349920403957366943e+01 -9.431789517402648926e-01 -4.026561280712428470e-01
1.353240716457366943e+01 -8.173244595527648926e-01 -3.936992188915553470e-01
1.360650384426116943e+01 -7.013576626777648926e-01 -3.853526612743678470e-01
1.369939935207366943e+01 -5.884426236152648926e-01 -3.775096436962428470e-01
1.380035150051116943e+01 -4.765041470527648926e-01 -3.693919679149928470e-01
1.517474114894866943e+01 -1.853945553302764893e+00 -3.944011231884303470e-01
1.522540032863616943e+01 -1.713808834552764893e+00 -3.843455811962428470e-01
1.529412591457366943e+01 -1.578554928302764893e+00 -3.745036622509303470e-01
1.538409173488616943e+01 -1.447573482990264893e+00 -3.648295899853053470e-01
1.547259271144866943e+01 -1.315737545490264893e+00 -3.550792237743678470e-01
1.556182610988616943e+01 -1.183047115802764893e+00 -3.452830811962428470e-01
1.563238275051116943e+01 -1.044253170490264893e+00 -3.351817628368678470e-01
1.567107903957366943e+01 -8.982570767402648926e-01 -3.248057862743678470e-01
1.782879388332366943e+01 -2.649477779865264893e+00 -3.503795167431178470e-01
1.792950189113616943e+01 -2.495180904865264893e+00 -3.383098145946803470e-01
1.801678216457366943e+01 -2.335879147052764893e+00 -3.264689942821803470e-01
1.810479485988616943e+01 -2.175356686115264893e+00 -3.145366212353053470e-01
1.819292962551116943e+01 -2.014590084552764893e+00 -3.025889893993678470e-01
1.828155267238616943e+01 -1.852968990802764893e+00 -2.905803224071803470e-01
1.843609368801116943e+01 -1.705263912677764893e+00 -2.787852784618678470e-01
1.864886224269866943e+01 -1.568789303302764893e+00 -2.675548097118678470e-01
2.155657708644866943e+01 -3.767031490802764893e+00 -2.852550050243678470e-01
2.163714349269866943e+01 -3.566714107990264893e+00 -2.705607911571803470e-01
2.171783196926116943e+01 -3.365908443927764893e+00 -2.558513185009303470e-01
2.176031243801116943e+01 -3.153628170490264893e+00 -2.409434815868678470e-01
2.174395501613616943e+01 -2.927309811115264893e+00 -2.260356446728053470e-01
2.184100091457366943e+01 -2.730288326740264893e+00 -2.113109132274928470e-01
2.220232903957366943e+01 -2.593447506427764893e+00 -1.964946290478053470e-01
2.306475579738616943e+01 -2.563174068927764893e+00 -1.810069581493678470e-01
2.965398919582366943e+01 -6.191836178302764893e+00 -1.832652589306178470e-01
2.998345696926116943e+01 -5.975893795490264893e+00 -1.616893311962428470e-01
3.029388177394866943e+01 -5.749209225177764893e+00 -1.405253907665553470e-01
6.849029290676116943e+01 -1.488922387361526489e+01 2.442211899906965300e-02
7.001543939113616943e+01 -1.454876977205276489e+01 7.747692856938215300e-02
6.972662103176116943e+01 -1.375165063142776489e+01 1.241840818896946530e-01
6.551946771144866943e+01 -1.208832055330276489e+01 1.476368406787571530e-01
6.980364739894866943e+01 -1.820306664705276489e+01 1.630634764209446530e-01
7.087029778957366943e+01 -1.776654320955276489e+01 2.174610594287571530e-01
7.242718255519866943e+01 -1.744696313142776489e+01 2.763294676318821530e-01
6.270428216457366943e+01 -1.408722192049026489e+01 2.552723387256321530e-01
5.898272454738616943e+01 -1.247723656892776489e+01 2.681660154834446530e-01
5.568841302394866943e+01 -1.105426293611526489e+01 2.794575193896946530e-01
5.313458001613616943e+01 -9.875674068927764893e+00 2.930836180225071530e-01
6.518328607082366943e+01 -1.203399926424026489e+01 4.489216307178196530e-01
6.913067376613616943e+01 -1.728876000642776489e+01 5.322651365771946530e-01
6.916009271144866943e+01 -1.656415063142776489e+01 5.809101561084446530e-01
7.237103021144866943e+01 -1.668951684236526489e+01 6.660389402881321530e-01
6.851482903957366943e+01 -1.494098168611526489e+01 6.653370359912571530e-01
6.545037591457366943e+01 -1.347247582674026489e+01 6.697926023975071530e-01
5.307537591457366943e+01 -9.878969967365264893e+00 5.379871824756321530e-01
5.058453118801116943e+01 -8.772646725177764893e+00 5.361408689990696530e-01
7.020245110988616943e+01 -1.762188988924026489e+01 8.756947020068821530e-01
7.246587884426116943e+01 -1.750665551424026489e+01 9.585804441943821530e-01
7.031329095363616943e+01 -1.616351586580276489e+01 9.703754881396946530e-01
7.034637200832366943e+01 -1.543390160799026489e+01 1.017006347514694653e+00
6.538531243801116943e+01 -1.347784692049026489e+01 9.731068113818821530e-01
6.575750482082366943e+01 -1.288458520174026489e+01 1.022560546733444653e+00
6.407439935207366943e+01 -1.182647973299026489e+01 1.032280395366257153e+00
7.129546868801116943e+01 -1.796185570955276489e+01 1.228142211772507153e+00
7.051995599269866943e+01 -1.698932152986526489e+01 1.258293578960007153e+00
7.126995599269866943e+01 -1.644305688142776489e+01 1.320152709819382153e+00
6.912139642238616943e+01 -1.514227563142776489e+01 1.318382690288132153e+00
6.919427239894866943e+01 -1.443829613924026489e+01 1.364250610210007153e+00
6.643987786769866943e+01 -1.306695824861526489e+01 1.343834350444382153e+00
6.959380853176116943e+01 -1.309173852205276489e+01 1.461830566264694653e+00
7.118804681301116943e+01 -1.795514184236526489e+01 1.562981078960007153e+00
6.869610345363616943e+01 -1.650470238924026489e+01 1.544502685405319653e+00
7.199627435207366943e+01 -1.666168481111526489e+01 1.674889037944382153e+00
6.915862786769866943e+01 -1.517486840486526489e+01 1.643974731303757153e+00
6.948663079738616943e+01 -1.453326684236526489e+01 1.696388671733444653e+00
6.878753411769866943e+01 -1.364337426424026489e+01 1.720222900249069653e+00
6.571819818019866943e+01 -1.223907738924026489e+01 1.674522827006882153e+00
6.876043450832366943e+01 -1.727569848299026489e+01 1.826103637553757153e+00
6.896075189113616943e+01 -1.660174828767776489e+01 1.875175903178757153e+00
7.024908196926116943e+01 -1.621686059236526489e+01 1.958153198100632153e+00
6.897161614894866943e+01 -1.514959985017776489e+01 1.961204955913132153e+00
7.183306634426116943e+01 -1.513605004549026489e+01 2.095955322124069653e+00
6.598345696926116943e+01 -1.300226098299026489e+01 1.947777221538132153e+00
6.536077630519866943e+01 -1.217938500642776489e+01 1.967094848491257153e+00
6.996172845363616943e+01 -1.764776879549026489e+01 2.193214843608444653e+00
7.102520501613616943e+01 -1.720196801424026489e+01 2.271706054545944653e+00
6.963384759426116943e+01 -1.607501488924026489e+01 2.265434692241257153e+00
6.919769036769866943e+01 -1.523077660799026489e+01 2.291817138530319653e+00
7.242046868801116943e+01 -1.530511742830276489e+01 2.452751586772507153e+00
6.633123528957366943e+01 -1.310626488924026489e+01 2.269173095561569653e+00
6.544805657863616943e+01 -1.222040063142776489e+01 2.275017211772507153e+00
7.045611321926116943e+01 -1.781524926424026489e+01 2.542396972514694653e+00
7.007549798488616943e+01 -1.696026879549026489e+01 2.569542358256882153e+00
7.005633294582366943e+01 -1.621209985017776489e+01 2.610786865092819653e+00
6.930694329738616943e+01 -1.528204613924026489e+01 2.621635864116257153e+00
7.121844232082366943e+01 -1.503119164705276489e+01 2.742378661967819653e+00
6.577361810207366943e+01 -1.299554711580276489e+01 2.554008910991257153e+00
6.553887689113616943e+01 -1.226214867830276489e+01 2.582420776225632153e+00
7.160137689113616943e+01 -1.665179711580276489e+01 3.009346435405319653e+00
7.022906243801116943e+01 -1.554364281892776489e+01 2.988136718608444653e+00
7.067229974269866943e+01 -1.491900902986526489e+01 3.049431274272507153e+00
6.559197747707366943e+01 -1.229547387361526489e+01 2.890617797710007153e+00
7.014410150051116943e+01 -1.628277856111526489e+01 3.274300048686569653e+00
7.075518548488616943e+01 -1.570343285799026489e+01 3.345238159038132153e+00
7.127593743801116943e+01 -1.509234887361526489e+01 3.412056396342819653e+00
7.125726068019866943e+01 -1.660699731111526489e+01 3.664574096538132153e+00
7.096966302394866943e+01 -1.578253442049026489e+01 3.688454101420944653e+00
5.240057122707366943e+01 -9.907778561115264893e+00 3.207573364116257153e+00
5.238689935207366943e+01 -9.380801022052764893e+00 3.478111694194382153e+00
1.237273919582366943e+01 -1.541164517402648926e-01 -4.043956300243678470e-01
1.239690911769866943e+01 -3.924828767776489258e-02 -3.962779542431178470e-01
1.241521966457366943e+01 7.684057950973510742e-02 -3.883586427196803470e-01
1.243353021144866943e+01 1.932956576347351074e-01 -3.804088136181178470e-01
1.253802239894866943e+01 2.936374545097351074e-01 -3.738170167431178470e-01
1.268645989894866943e+01 3.882419466972351074e-01 -3.677440186962428470e-01
1.283868157863616943e+01 4.851657748222351074e-01 -3.615184327587428470e-01
1.298870599269866943e+01 5.846530795097351074e-01 -3.554149171337428470e-01
1.380145013332366943e+01 -4.762600064277648926e-01 -3.693767091259303470e-01
1.389507806301116943e+01 -3.612697720527648926e-01 -3.614116212353053470e-01
1.399761712551116943e+01 -2.466457486152648926e-01 -3.531413575634303470e-01
1.409368646144866943e+01 -1.287258267402648926e-01 -3.449779054149928470e-01
1.419048821926116943e+01 -9.951412677764892578e-03 -3.367534181103053470e-01
1.428838860988616943e+01 1.101657748222351074e-01 -3.284526368603053470e-01
1.443230950832366943e+01 2.249118685722351074e-01 -3.207622071728053470e-01
1.472491204738616943e+01 3.190280795097351074e-01 -3.138957520946803470e-01
1.567132318019866943e+01 -8.977687954902648926e-01 -3.247752686962428470e-01
1.572381341457366943e+01 -7.547023892402648926e-01 -3.148570558056178470e-01
1.593230950832366943e+01 -6.425197720527648926e-01 -3.060527345165553470e-01
1.614666497707366943e+01 -5.272853970527648926e-01 -2.970042726024928470e-01
1.638226068019866943e+01 -4.125393033027648926e-01 -2.878642579540553470e-01
1.665643060207366943e+01 -3.002346158027648926e-01 -2.786479493603053470e-01
1.700628411769866943e+01 -1.945217251777648926e-01 -2.694011231884303470e-01
1.741741693019866943e+01 -9.222680330276489258e-02 -2.600017091259303470e-01
1.865130364894866943e+01 -1.568667232990264893e+00 -2.675242921337428470e-01
1.888250482082366943e+01 -1.432558834552764893e+00 -2.555919190868678470e-01
1.910613763332366943e+01 -1.290835201740264893e+00 -2.438121339306178470e-01
1.934722650051116943e+01 -1.147890865802764893e+00 -2.317729493603053470e-01
1.993255364894866943e+01 -1.064028561115264893e+00 -2.199626466259303470e-01
2.092107903957366943e+01 -1.038149654865264893e+00 -2.076640626415553470e-01
2.181670892238616943e+01 -9.769924283027648926e-01 -1.940227052196803470e-01
1.876666009426116943e+01 -3.015773892402648926e-01 -1.824565431103053470e-01
2.307415521144866943e+01 -2.564516842365264893e+00 -1.809459229931178470e-01
2.482085931301116943e+01 -2.705752193927764893e+00 -1.635814210399928470e-01
2.797173821926116943e+01 -3.096987545490264893e+00 -1.411510011181178470e-01
5.214349114894866943e+01 -7.473574459552764893e+00 -5.895190443843034700e-02
4.133001458644866943e+01 -4.558047115802764893e+00 -3.319506850093034700e-02
1.882342278957366943e+01 -3.157375454902648926e-01 -9.880786146968034700e-02
6.551263177394866943e+01 -1.208441430330276489e+01 1.477436522021946530e-01
6.500384271144866943e+01 -1.130267602205276489e+01 1.897053221240696530e-01
4.669073235988616943e+01 -6.912783443927764893e+00 1.107258299365696530e-01
5.214654290676116943e+01 -7.490542232990264893e+00 1.813129881396946530e-01
4.132671868801116943e+01 -4.570254147052764893e+00 1.557087400928196530e-01
1.880535638332366943e+01 -3.185451626777648926e-01 -1.580004896968034700e-02
6.518792474269866943e+01 -1.203265649080276489e+01 4.491199949756321530e-01
6.492449700832366943e+01 -1.130646020174026489e+01 4.889149168506321530e-01
4.668804681301116943e+01 -6.926943600177764893e+00 3.247456053271946530e-01
5.218121087551116943e+01 -7.513613522052764893e+00 4.207844236865696530e-01
4.135931146144866943e+01 -4.588564693927764893e+00 3.441090086475071530e-01
1.882757318019866943e+01 -3.275783658027648926e-01 6.810803208500715300e-02
5.056963860988616943e+01 -8.767397701740264893e+00 5.360340574756321530e-01
4.851104485988616943e+01 -7.808169186115264893e+00 5.369648436084446530e-01
4.652459466457366943e+01 -6.908388912677764893e+00 5.373768309131321530e-01
4.450274407863616943e+01 -6.043032467365264893e+00 5.334248045459446530e-01
4.272845208644866943e+01 -5.268130123615264893e+00 5.309223631396946530e-01
4.845684564113616943e+01 -5.830019772052764893e+00 6.607441404834446530e-01
3.973943841457366943e+01 -3.921938717365264893e+00 5.282978514209446530e-01
1.884966790676116943e+01 -3.364894986152648926e-01 1.518177488818821530e-01
6.407464349269866943e+01 -1.182416039705276489e+01 1.032432983256882153e+00
6.352508294582366943e+01 -1.104754906892776489e+01 1.062187621928757153e+00
5.237444818019866943e+01 -7.583926022052764893e+00 9.049152830615696530e-01
4.296600091457366943e+01 -5.325014889240264893e+00 7.311176756396946530e-01
4.124285638332366943e+01 -4.593935787677764893e+00 7.189411619678196530e-01
3.967254388332366943e+01 -3.923159420490264893e+00 7.081226805225071530e-01
1.885918939113616943e+01 -3.435695767402648926e-01 2.358936766162571530e-01
6.959515130519866943e+01 -1.308941918611526489e+01 1.461998412944382153e+00
6.617315423488616943e+01 -1.163739281892776489e+01 1.421135375835007153e+00
6.477056634426116943e+01 -1.067218285799026489e+01 1.426979492045944653e+00
5.245013177394866943e+01 -7.615053951740264893e+00 1.147270629741257153e+00
4.846697747707366943e+01 -5.861635982990264893e+00 1.103569457866257153e+00
1.890643060207366943e+01 -3.563869595527648926e-01 3.207325438037571530e-01
6.571722161769866943e+01 -1.223651391267776489e+01 1.674644897319382153e+00
6.444353997707366943e+01 -1.128607445955276489e+01 1.677864501811569653e+00
5.254925286769866943e+01 -7.650942623615264893e+00 1.392448852397507153e+00
4.851763665676116943e+01 -5.885561764240264893e+00 1.327812621928757153e+00
1.904241693019866943e+01 -3.828762173652648926e-01 4.094166258350071530e-01
6.535491693019866943e+01 -1.217572289705276489e+01 1.967033813335007153e+00
6.679656732082366943e+01 -1.181427270174026489e+01 2.056129882670944653e+00
5.231011712551116943e+01 -7.090273678302764893e+00 1.656883666850632153e+00
4.876116693019866943e+01 -5.942934811115264893e+00 1.558479736186569653e+00
1.902618157863616943e+01 -3.859279751777648926e-01 4.932026365771946530e-01
6.600799310207366943e+01 -1.234479027986526489e+01 2.296547363139694653e+00
6.601470696926116943e+01 -1.166693383455276489e+01 2.336571166850632153e+00
5.221429193019866943e+01 -7.088930904865264893e+00 1.892906616069382153e+00
5.323321282863616943e+01 -6.201357662677764893e+00 1.998573730327194653e+00
5.328680169582366943e+01 -5.675478756427764893e+00 2.032112548686569653e+00
6.553802239894866943e+01 -1.225958520174026489e+01 2.582512328960007153e+00
6.624261224269866943e+01 -1.173736840486526489e+01 2.652077148295944653e+00
5.212420403957366943e+01 -7.088564693927764893e+00 2.129677245952194653e+00
4.899175775051116943e+01 -5.518984615802764893e+00 2.044807861186569653e+00
6.558965814113616943e+01 -1.229254418611526489e+01 2.890633056499069653e+00
5.205560052394866943e+01 -7.092104732990264893e+00 2.365486572124069653e+00
5.310894525051116943e+01 -6.750429928302764893e+00 2.448631713725632153e+00
5.348235833644866943e+01 -6.275088131427764893e+00 2.498253295756882153e+00
4.503472650051116943e+01 -4.430239498615264893e+00 2.092964599467819653e+00
5.197881829738616943e+01 -7.094179928302764893e+00 2.601570556499069653e+00
4.489275872707366943e+01 -5.324038326740264893e+00 2.239586303569382153e+00
4.493060052394866943e+01 -4.877627193927764893e+00 2.267036865092819653e+00
4.642596185207366943e+01 -4.659731686115264893e+00 2.376533935405319653e+00
5.190142571926116943e+01 -7.096010982990264893e+00 2.835716674663132153e+00
4.485723626613616943e+01 -5.331606686115264893e+00 2.442757079936569653e+00
4.806536614894866943e+01 -5.410708248615264893e+00 2.661659667827194653e+00
4.640826165676116943e+01 -4.671206295490264893e+00 2.588234374858444653e+00
4.863433587551116943e+01 -7.493105709552764893e+00 2.812553832866257153e+00
4.676946771144866943e+01 -6.629092037677764893e+00 2.721168945170944653e+00
4.725567376613616943e+01 -6.245669186115264893e+00 2.778038452006882153e+00
4.490679681301116943e+01 -5.354311764240264893e+00 2.652244994975632153e+00
4.796038568019866943e+01 -5.408144772052764893e+00 2.875740478374069653e+00
4.786700189113616943e+01 -4.912539303302764893e+00 2.895698974467819653e+00
4.857305657863616943e+01 -7.992373287677764893e+00 3.007210204936569653e+00
4.866363275051116943e+01 -7.514590084552764893e+00 3.038658569194382153e+00
4.465008294582366943e+01 -6.225893795490264893e+00 2.791740844585007153e+00
4.398895013332366943e+01 -5.649966061115264893e+00 2.770485351420944653e+00
4.462579095363616943e+01 -5.318545162677764893e+00 2.838295410014694653e+00
4.449664056301116943e+01 -4.846865475177764893e+00 2.854423950053757153e+00
4.564715325832366943e+01 -4.580752193927764893e+00 2.959190795756882153e+00
5.238702142238616943e+01 -9.378969967365264893e+00 3.478203246928757153e+00
5.012005364894866943e+01 -8.345644772052764893e+00 3.342552612163132153e+00
4.876775872707366943e+01 -7.551699459552764893e+00 3.271721313335007153e+00
4.414056146144866943e+01 -6.139345943927764893e+00 2.960869262553757153e+00
4.406316888332366943e+01 -5.677676022052764893e+00 2.978691528178757153e+00
4.431377923488616943e+01 -5.277285397052764893e+00 3.020607421733444653e+00
4.457342278957366943e+01 -4.873354732990264893e+00 3.063438842631882153e+00
4.342767083644866943e+01 -4.247622311115264893e+00 3.002037475444382153e+00
1.298931634426116943e+01 5.850192904472351074e-01 -3.553996583446803470e-01
1.314666497707366943e+01 6.862155795097351074e-01 -3.489757081493678470e-01
1.332049310207366943e+01 7.881442904472351074e-01 -3.428569337353053470e-01
1.365362298488616943e+01 8.745700716972351074e-01 -3.382792970165553470e-01
1.384014642238616943e+01 9.830905795097351074e-01 -3.317790528759303470e-01
1.403179681301116943e+01 1.094662845134735107e+00 -3.250957032665553470e-01
1.422930657863616943e+01 1.209653079509735107e+00 -3.181987306103053470e-01
1.454095208644866943e+01 1.318783938884735107e+00 -3.124003907665553470e-01
1.472613275051116943e+01 3.193942904472351074e-01 -3.138652345165553470e-01
1.502435052394866943e+01 4.182712435722351074e-01 -3.070598145946803470e-01
1.536687982082366943e+01 5.171481966972351074e-01 -2.998271485790553470e-01
1.580669915676116943e+01 6.113864779472351074e-01 -2.931437989696803470e-01
1.627129876613616943e+01 7.109958529472351074e-01 -2.860789796337428470e-01
1.663519036769866943e+01 8.296481966972351074e-01 -2.778850099071803470e-01
1.699761712551116943e+01 9.558688998222351074e-01 -2.695994874462428470e-01
1.738995110988616943e+01 1.086117923259735107e+00 -2.606425782665553470e-01
1.741973626613616943e+01 -9.198266267776489258e-02 -2.599711915478053470e-01
1.783550775051116943e+01 1.775854825973510742e-02 -2.504649659618678470e-01
1.827154290676116943e+01 1.327487826347351074e-01 -2.405009767040553470e-01
1.634258782863616943e+01 5.421726107597351074e-01 -2.252574464306178470e-01
1.624432122707366943e+01 7.092868685722351074e-01 -2.150340577587428470e-01
2.096160638332366943e+01 3.897067904472351074e-01 -2.082591554149928470e-01
2.235723626613616943e+01 4.657565951347351074e-01 -1.952281495556178470e-01
2.346294915676116943e+01 5.920993685722351074e-01 -1.806407472118678470e-01
1.876031243801116943e+01 -2.999904751777648926e-01 -1.824260255321803470e-01
1.870074212551116943e+01 -1.098049283027648926e-01 -1.704020997509303470e-01
3.596917474269866943e+01 -2.193545162677764893e+00 -1.243663331493678470e-01
1.633892571926116943e+01 5.380222201347351074e-01 -1.534648438915553470e-01
1.618255364894866943e+01 7.116062045097351074e-01 -1.439586183056178470e-01
3.053582513332366943e+01 1.373022794723510742e-02 -4.015307631343034700e-02
1.882354485988616943e+01 -3.151271939277648926e-01 -9.877734389155534700e-02
1.862798821926116943e+01 -1.049221158027648926e-01 -8.834033217280534700e-02
1.723711907863616943e+01 2.581149935722351074e-01 -8.608203139155534700e-02
1.636590325832366943e+01 5.299655795097351074e-01 -8.182482924311784700e-02
1.596795403957366943e+01 7.307712435722351074e-01 -7.501940932124284700e-02
1.585137689113616943e+01 8.948337435722351074e-01 -6.633715834468034700e-02
1.583843743801116943e+01 1.047177493572235107e+00 -5.684619154780534700e-02
1.583782708644866943e+01 1.197446048259735107e+00 -4.730944838374284700e-02
1.879888665676116943e+01 -3.169582486152648926e-01 -1.581530775874284700e-02
1.798833978176116943e+01 -1.959496736526489258e-02 -1.248889174311784700e-02
1.716851556301116943e+01 2.621433138847351074e-01 -1.074938978999284700e-02
1.638250482082366943e+01 5.232517123222351074e-01 -9.650756977492847000e-03
1.597112786769866943e+01 7.258884310722351074e-01 -4.920532368117847000e-03
1.588665521144866943e+01 8.867771029472351074e-01 3.563354350632153000e-03
1.586822259426116943e+01 1.039975345134735107e+00 1.285595688969465300e-02
1.586407220363616943e+01 1.190854251384735107e+00 2.191967759281965300e-02
1.882098138332366943e+01 -3.258693814277648926e-01 6.806225571781965300e-02
1.798760735988616943e+01 -2.484399080276489258e-02 6.678051743656965300e-02
1.717071282863616943e+01 2.567722201347351074e-01 6.469006333500715300e-02
1.639898431301116943e+01 5.165378451347351074e-01 6.230969224125715300e-02
1.596404778957366943e+01 7.222263216972351074e-01 6.467480454594465300e-02
1.588799798488616943e+01 8.821384310722351074e-01 7.283825669438215300e-02
1.587261712551116943e+01 1.035092532634735107e+00 8.202404771000715300e-02
1.583758294582366943e+01 1.188656985759735107e+00 9.078259263188215300e-02
1.884307610988616943e+01 -3.347805142402648926e-01 1.517261961475071530e-01
1.794280755519866943e+01 -2.362328767776489258e-02 1.451954344287571530e-01
1.715630853176116943e+01 2.537204623222351074e-01 1.402363279834446530e-01
1.641265618801116943e+01 5.101901888847351074e-01 1.347889402881321530e-01
1.596514642238616943e+01 7.174655795097351074e-01 1.347889402881321530e-01
1.584466302394866943e+01 8.820163607597351074e-01 1.415180662646946530e-01
1.581414544582366943e+01 1.036069095134735107e+00 1.498188475146946530e-01
1.580486810207366943e+01 1.186825931072235107e+00 1.588978270068821530e-01
1.885809075832366943e+01 -3.427150845527648926e-01 2.359089354053196530e-01
1.792034661769866943e+01 -2.569848299026489258e-02 2.241901854053196530e-01
1.715215814113616943e+01 2.493259310722351074e-01 2.155384520068821530e-01
1.641790521144866943e+01 5.048190951347351074e-01 2.068104246631321530e-01
1.597735345363616943e+01 7.116062045097351074e-01 2.048572996631321530e-01
1.586480462551116943e+01 8.755466341972351074e-01 2.111744383350071530e-01
1.584051263332366943e+01 1.029233157634735107e+00 2.198109129443821530e-01
1.583660638332366943e+01 1.179867923259735107e+00 2.289356688037571530e-01
1.889971673488616943e+01 -3.546779751777648926e-01 3.205799559131321530e-01
1.795464837551116943e+01 -3.595238924026489258e-02 3.042377928271946530e-01
1.719109857082366943e+01 2.391940951347351074e-01 2.921070555225071530e-01
1.645867669582366943e+01 4.950534701347351074e-01 2.799763182178196530e-01
1.601788079738616943e+01 7.024509310722351074e-01 2.759327391162571530e-01
1.595977532863616943e+01 8.612644076347351074e-01 2.834095457568821530e-01
1.593999993801116943e+01 1.015561282634735107e+00 2.920612791553196530e-01
1.587908685207366943e+01 1.171933352947235107e+00 2.992786863818821530e-01
1.906451165676116943e+01 -3.855617642402648926e-01 4.101795652881321530e-01
1.798724114894866943e+01 -4.584008455276489258e-02 3.849873045459446530e-01
1.721893060207366943e+01 2.304050326347351074e-01 3.690876463428196530e-01
1.661077630519866943e+01 4.716159701347351074e-01 3.578419188037571530e-01
1.605035150051116943e+01 6.941501498222351074e-01 3.474964598193821530e-01
1.594708001613616943e+01 8.580905795097351074e-01 3.530201414600071530e-01
1.591302239894866943e+01 1.013608157634735107e+00 3.609547117725071530e-01
1.590594232082366943e+01 1.165219485759735107e+00 3.698200682178196530e-01
1.901092278957366943e+01 -3.829982876777648926e-01 4.926533201709446530e-01
1.805901849269866943e+01 -6.146508455276489258e-02 4.671711424365696530e-01
1.727520501613616943e+01 2.179538607597351074e-01 4.470600584521946530e-01
1.649078118801116943e+01 4.816257357597351074e-01 4.259724119678196530e-01
1.610528314113616943e+01 6.834079623222351074e-01 4.199299314990696530e-01
1.596893060207366943e+01 8.512546420097351074e-01 4.235615232959446530e-01
1.597857415676116943e+01 1.002988040447235107e+00 4.330982664600071530e-01
1.604839837551116943e+01 1.148984134197235107e+00 4.451221922412571530e-01
5.328777825832366943e+01 -5.673647701740264893e+00 2.032249877788132153e+00
1.819683587551116943e+01 -8.661156892776489258e-02 5.533070066943821530e-01
1.738250482082366943e+01 1.985446810722351074e-01 5.277943113818821530e-01
1.667364251613616943e+01 4.542819857597351074e-01 5.064167479053196530e-01
1.619256341457366943e+01 6.688815951347351074e-01 4.943317869678196530e-01
1.615557610988616943e+01 8.274509310722351074e-01 5.018391111865696530e-01
1.626788079738616943e+01 9.713718295097351074e-01 5.165485838428196530e-01
1.637908685207366943e+01 1.116879642009735107e+00 5.309071043506321530e-01
1.841912591457366943e+01 -1.239650845527648926e-01 6.443562010303196530e-01
1.758794915676116943e+01 1.659519076347351074e-01 6.147083738818821530e-01
1.691106927394866943e+01 4.199802279472351074e-01 5.916370848193821530e-01
1.674883782863616943e+01 6.008884310722351074e-01 5.931477049365696530e-01
1.688042962551116943e+01 7.474948763847351074e-01 6.091694334521946530e-01
1.692571771144866943e+01 9.050876498222351074e-01 6.209797361865696530e-01
1.694756829738616943e+01 1.064755618572235107e+00 6.315693357959446530e-01
4.503838860988616943e+01 -4.429140865802764893e+00 2.093254516460007153e+00
1.872552239894866943e+01 -1.737697720527648926e-01 7.418903807178196530e-01
1.701788079738616943e+01 2.374851107597351074e-01 6.621174314990696530e-01
1.703204095363616943e+01 4.000827670097351074e-01 6.724628904834446530e-01
1.799407708644866943e+01 4.537937045097351074e-01 7.340168455615696530e-01
1.717535150051116943e+01 7.119724154472351074e-01 6.993336180225071530e-01
4.642266595363616943e+01 -4.657534420490264893e+00 2.376427123881882153e+00
4.484112298488616943e+01 -3.964785397052764893e+00 2.313087890483444653e+00
1.704595696926116943e+01 2.286960482597351074e-01 7.390980223193821530e-01
4.566033685207366943e+01 -3.173281490802764893e+00 2.412300536967819653e+00
1.800091302394866943e+01 4.478122591972351074e-01 8.141407469287571530e-01
4.475921380519866943e+01 -2.174746334552764893e+00 2.411049316264694653e+00
4.640520989894866943e+01 -4.669131100177764893e+00 2.588127563335007153e+00
4.593475091457366943e+01 -4.137148678302764893e+00 2.584526489116257153e+00
4.524859368801116943e+01 -3.586733639240264893e+00 2.568031738139694653e+00
4.495538079738616943e+01 -3.098818600177764893e+00 2.575432250835007153e+00
1.801727044582366943e+01 4.408542513847351074e-01 8.945393064990696530e-01
4.511102044582366943e+01 -2.224795162677764893e+00 2.636299560405319653e+00
4.786431634426116943e+01 -4.910464107990264893e+00 2.895607421733444653e+00
4.297588860988616943e+01 -3.720400631427764893e+00 2.598778198100632153e+00
1.856707513332366943e+01 1.275366544723510742e-02 9.914326170459446530e-01
4.534881341457366943e+01 -3.161562740802764893e+00 2.807259033061569653e+00
4.524322259426116943e+01 -2.699648678302764893e+00 2.825569579936569653e+00
4.467327630519866943e+01 -2.192080318927764893e+00 2.811851928569382153e+00
4.488946282863616943e+01 -1.770205318927764893e+00 2.851860473491257153e+00
1.758599603176116943e+01 9.913913607597351074e-01 9.737781981006321530e-01
4.565325677394866943e+01 -4.580019772052764893e+00 2.959694335795944653e+00
4.350652825832366943e+01 -3.810732662677764893e+00 2.833015868999069653e+00
4.330755364894866943e+01 -3.350527584552764893e+00 2.842064330913132153e+00
1.781622064113616943e+01 2.819187045097351074e-01 1.029671142436569653e+00
1.746722161769866943e+01 4.939548373222351074e-01 1.013969848491257153e+00
1.749786126613616943e+01 6.585056185722351074e-01 1.025627563335007153e+00
1.756145989894866943e+01 8.206149935722351074e-01 1.040169189311569653e+00
1.763042962551116943e+01 9.827243685722351074e-01 1.054726074077194653e+00
4.342754876613616943e+01 -4.246035397052764893e+00 3.002113769389694653e+00
4.440582025051116943e+01 -3.955385982990264893e+00 3.099083373881882153e+00
4.286370599269866943e+01 -3.303164303302764893e+00 3.006264160014694653e+00
4.316375482082366943e+01 -2.913637936115264893e+00 3.053032348491257153e+00
4.469183099269866943e+01 -2.662661373615264893e+00 3.194893310405319653e+00
4.565765130519866943e+01 -2.322329342365264893e+00 3.294640014506882153e+00
4.492291009426116943e+01 -1.799624264240264893e+00 3.262215087749069653e+00
3.632269036769866943e+01 -6.214016079902648926e-01 2.608742187358444653e+00
3.477459466457366943e+01 3.352634310722351074e-01 2.717842529155319653e+00
3.417828118801116943e+01 7.634860873222351074e-01 2.695854614116257153e+00
3.421233880519866943e+01 1.143124759197235107e+00 2.724007079936569653e+00
3.443475091457366943e+01 1.512265384197235107e+00 2.768349120952194653e+00
1.163226068019866943e+01 6.616025149822235107e+00 1.839561889506882153e+00
1.451946771144866943e+01 7.082211673259735107e+00 2.136299560405319653e+00
1.615301263332366943e+01 7.518490970134735107e+00 2.317802856303757153e+00
8.764706969261169434e+00 7.270444095134735107e+00 1.633018920756882153e+00
8.905576109886169434e+00 7.549863040447235107e+00 1.667747924663132153e+00
7.747250914573669434e+00 7.702084720134735107e+00 1.576088378764694653e+00
7.773007750511169434e+00 7.583554446697235107e+00 1.674431274272507153e+00
7.685239195823669434e+00 7.845517337322235107e+00 1.687187621928757153e+00
8.032651305198669434e+00 8.153989017009735107e+00 1.743584106303757153e+00
9.536679625511169434e+00 8.605160892009735107e+00 1.918220947124069653e+00
1.069500482082366943e+01 9.531918704509735107e+00 2.179420898295944653e+00
9.345395445823669434e+00 8.522885501384735107e+00 1.884544799663132153e+00
8.601498961448669434e+00 7.534482181072235107e+00 1.879372070170944653e+00
7.694638609886169434e+00 7.755917727947235107e+00 1.811607787944382153e+00
7.531796813011169434e+00 8.030820071697235107e+00 1.818474243022507153e+00
8.721494078636169434e+00 8.447079837322235107e+00 1.963142822124069653e+00
1.102166497707366943e+01 9.015561282634735107e+00 2.223900268413132153e+00
1.061565911769866943e+01 9.290707767009735107e+00 2.208031127788132153e+00
1.067901360988616943e+01 9.623227298259735107e+00 2.240654418803757153e+00
1.245477044582366943e+01 9.778622806072235107e+00 2.037682006694382153e+00
5.459409117698669434e+00 9.775937259197235107e+00 1.470528076030319653e+00
2.533872008323669434e+00 9.583310306072235107e+00 1.218544433452194653e+00
5.563046813011169434e+00 9.783505618572235107e+00 1.614479492045944653e+00
2.783261656761169434e+00 9.617123782634735107e+00 1.364143798686569653e+00
2.274838805198669434e+00 9.794614017009735107e+00 1.334434936381882153e+00
8.616635680198669434e+00 8.632016360759735107e+00 1.936027953960007153e+00
8.533994078636169434e+00 8.944150149822235107e+00 1.952324340678757153e+00
1.068902337551116943e+01 9.535580813884735107e+00 2.193275878764694653e+00
5.022397398948669434e+00 9.981137454509735107e+00 1.716988036967819653e+00
2.772397398948669434e+00 9.874692142009735107e+00 1.506264160014694653e+00
2.529599547386169434e+00 9.680966556072235107e+00 1.288078735210007153e+00
1.068792474269866943e+01 9.616513431072235107e+00 2.119591186381882153e+00
5.374326109886169434e+00 9.845639407634735107e+00 1.674217651225632153e+00
2.661557555198669434e+00 9.694882571697235107e+00 1.425529907085007153e+00
1.276641595363616943e+01 9.974545657634735107e+00 1.937645385600632153e+00
5.324155211448669434e+00 9.949155032634735107e+00 1.367271850444382153e+00
2.485165953636169434e+00 9.781430423259735107e+00 1.137306640483444653e+00
2.278256773948669434e+00 1.002300757169723511e+01 1.140449951030319653e+00
1.271722161769866943e+01 9.956601321697235107e+00 2.107292602397507153e+00
2.836728453636169434e+00 9.550717532634735107e+00 1.274544189311569653e+00
2.579282164573669434e+00 9.788876712322235107e+00 1.272575805522507153e+00
2.811826109886169434e+00 9.538388431072235107e+00 1.400673339702194653e+00
2.500546813011169434e+00 9.767392337322235107e+00 1.392372558452194653e+00
