1.310037434101104736e+01 -3.438580997288227081e+00 -5.254212277010026355e-01
1.393509113788604736e+01 -3.686749942600727081e+00 -5.384217159822526355e-01
1.496097004413604736e+01 -4.003644473850727081e+00 -5.556946652010026355e-01
1.530472004413604736e+01 -3.991925723850727081e+00 -5.525666134431901355e-01
1.533853352069854736e+01 -3.839459903538227081e+00 -5.408020870760026355e-01
1.537234699726104736e+01 -3.687604434788227081e+00 -5.290833370760026355e-01
1.540603840351104736e+01 -3.535748966038227081e+00 -5.173645870760026355e-01
1.542862141132354736e+01 -3.380597598850727081e+00 -5.058594601228776355e-01
1.313675129413604736e+01 -3.461041934788227081e+00 -4.657441036775651355e-01
1.397659504413604736e+01 -3.711408145725727081e+00 -4.752045528963151355e-01
1.499002277851104736e+01 -4.022443301975727081e+00 -4.869080441072526355e-01
1.622830402851104736e+01 -4.410504825413227081e+00 -5.022278683260026355e-01
1.743643391132354736e+01 -4.758039005100727081e+00 -5.148774044588151355e-01
1.746280109882354736e+01 -4.578351505100727081e+00 -5.013275997713151355e-01
1.747757160663604736e+01 -4.394147403538227081e+00 -4.880066769197526355e-01
1.753152668476104736e+01 -4.227643497288227081e+00 -4.751282589510026355e-01
1.317337238788604736e+01 -3.483747012913227081e+00 -4.056702511385026355e-01
1.401858723163604736e+01 -3.736432559788227081e+00 -4.112091915681901355e-01
1.502627766132354736e+01 -4.044660098850727081e+00 -4.183045284822526355e-01
1.629544270038604736e+01 -4.446515567600727081e+00 -4.282380001619401355e-01
1.795315754413604736e+01 -4.989484317600727081e+00 -4.425049679353776355e-01
2.022159016132354736e+01 -5.754010684788227081e+00 -4.635773556306901355e-01
2.100137531757354736e+01 -5.852765567600727081e+00 -4.590302364900651355e-01
2.109219563007354736e+01 -5.660260684788227081e+00 -4.438172237947526355e-01
1.436172688007354736e+01 -4.063947208225727081e+00 -3.625336544588151355e-01
1.490396320819854736e+01 -4.159528262913227081e+00 -3.584748165681901355e-01
1.517276203632354736e+01 -4.117536075413227081e+00 -3.503723995760026355e-01
1.636368000507354736e+01 -4.483014591038227081e+00 -3.531494991853776355e-01
1.801053059101104736e+01 -5.021100528538227081e+00 -3.592682735994401355e-01
2.035415852069854736e+01 -5.817609317600727081e+00 -3.701325314119401355e-01
2.446231281757354736e+01 -7.288190372288227081e+00 -3.943940060213151355e-01
2.707107746601104736e+01 -8.065167911350727081e+00 -3.995057003572526355e-01
3.052127277851104736e+01 -1.190049505978822708e+01 -4.518738644197526355e-01
3.094046223163604736e+01 -1.174082709103822708e+01 -4.311829464510026355e-01
3.135525715351104736e+01 -1.157224798947572708e+01 -4.099732296541276355e-01
3.165738117694854736e+01 -1.134507513791322708e+01 -3.874207394197526355e-01
2.003018391132354736e+01 -5.909039981663227081e+00 -2.884064571931901355e-01
2.112185871601104736e+01 -6.150983341038227081e+00 -2.793885128572526355e-01
2.483169758319854736e+01 -7.449567325413227081e+00 -2.812348263338151355e-01
3.038064777851104736e+01 -1.184422064572572708e+01 -3.024292843416276355e-01
3.019241535663604736e+01 -1.139927435666322708e+01 -2.772980587556901355e-01
3.141458332538604736e+01 -1.161167670041322708e+01 -2.576599972322526355e-01
3.172659504413604736e+01 -1.138828802853822708e+01 -2.342224972322526355e-01
3.235879719257354736e+01 -1.130174017697572708e+01 -2.110291378572526355e-01
3.815860188007354736e+01 -1.339988470822572708e+01 -1.901551144197526355e-01
4.304214680194854736e+01 -1.498533392697572708e+01 -1.605530636385026355e-01
3.054776203632354736e+01 -1.193736029416322708e+01 -1.534119503572526355e-01
3.006997883319854736e+01 -1.135300970822572708e+01 -1.309204952791276355e-01
3.008352863788604736e+01 -1.100999213010072708e+01 -1.083680050447526355e-01
3.198404133319854736e+01 -1.151597357541322708e+01 -8.055123258381513551e-02
3.244864094257354736e+01 -1.135313177853822708e+01 -5.526741910725263551e-02
3.946780598163604736e+01 -1.397117377072572708e+01 -8.698360994401355129e-04
4.271304523944854736e+01 -1.486521673947572708e+01 4.469290804118486449e-02
2.990725910663604736e+01 -1.163816595822572708e+01 -7.919396646315135513e-03
3.009842121601104736e+01 -1.137815619260072708e+01 1.525870393962236449e-02
3.032559406757354736e+01 -1.113328314572572708e+01 3.955069612712236449e-02
3.226895344257354736e+01 -1.165623236447572708e+01 7.682791780680986449e-02
3.809305012226104736e+01 -1.383543158322572708e+01 1.502074344083723645e-01
3.818728840351104736e+01 -1.344065619260072708e+01 1.783141238614973645e-01
4.309756672382354736e+01 -1.504026556760072708e+01 2.539519412443098645e-01
3.105728352069854736e+01 -1.220921088010072708e+01 1.510314090177473645e-01
2.974124348163604736e+01 -1.122056341916322708e+01 1.581572635099348645e-01
3.029593098163604736e+01 -1.113120795041322708e+01 1.858977420255598645e-01
3.162491047382354736e+01 -1.137876654416322708e+01 2.243346316739973645e-01
3.222635090351104736e+01 -1.128037787228822708e+01 2.545165164396223645e-01
3.795120441913604736e+01 -1.335435248166322708e+01 3.588255984708723645e-01
3.856009113788604736e+01 -1.317576361447572708e+01 3.941649539396223645e-01
2.993997395038604736e+01 -1.167771673947572708e+01 2.852172000333723645e-01
2.968094074726104736e+01 -1.120359564572572708e+01 3.016356570646223645e-01
3.055996906757354736e+01 -1.126499701291322708e+01 3.370665652677473645e-01
3.811819660663604736e+01 -1.431455755978822708e+01 4.933013064786848645e-01
8.154617512226104736e+01 -3.291319037228822708e+01 1.327636633627122364e+00
3.840677082538604736e+01 -1.356297064572572708e+01 5.504149539396223645e-01
3.172720539569854736e+01 -1.256004095822572708e+01 4.695128543302473645e-01
2.982742512226104736e+01 -1.128477240353822708e+01 4.497984988614973645e-01
3.028421223163604736e+01 -1.114915228635072708e+01 4.797515017911848645e-01
3.816324055194854736e+01 -1.434959173947572708e+01 6.806487185880598645e-01
3.845511066913604736e+01 -1.403770209103822708e+01 7.126463992521223645e-01
3.846475422382354736e+01 -1.360215521603822708e+01 7.379607303068098645e-01
3.149160969257354736e+01 -1.245774603635072708e+01 6.187438113614973645e-01
3.160232746601104736e+01 -1.213987494260072708e+01 6.421355349943098645e-01
3.370767414569854736e+01 -1.274632025510072708e+01 7.199858767911848645e-01
3.802810871601104736e+01 -1.430332709103822708e+01 8.625029666349348645e-01
3.856241047382354736e+01 -1.409934759885072708e+01 9.020079715177473645e-01
3.112063801288604736e+01 -1.228916693478822708e+01 7.622679812833723645e-01
3.808780109882354736e+01 -1.523704291135072708e+01 1.002944861166184864e+00
3.795376789569854736e+01 -1.472752142697572708e+01 1.021453772298997364e+00
3.778457844257354736e+01 -1.420799017697572708e+01 1.039504919759934864e+00
3.821072590351104736e+01 -1.395945502072572708e+01 1.077072058431809864e+00
8.204055988788604736e+01 -3.227036810666322708e+01 2.602569494955247364e+00
3.842080891132354736e+01 -1.586619330197572708e+01 1.178848181478684864e+00
3.783621418476104736e+01 -1.513230658322572708e+01 1.180770788900559864e+00
3.829544270038604736e+01 -1.490098334103822708e+01 1.220809851400559864e+00
3.722476398944854736e+01 -1.396958685666322708e+01 1.203079138509934864e+00
8.241861164569854736e+01 -3.342320013791322708e+01 2.973068152181809864e+00
8.208072102069854736e+01 -3.231895209103822708e+01 3.009139929525559864e+00
8.363369953632354736e+01 -3.105833197385072708e+01 3.169189368002122364e+00
5.529934895038604736e+01 -2.413035345822572708e+01 2.066848669759934864e+00
5.975638020038604736e+01 -2.559141302853822708e+01 2.284927283041184864e+00
5.457242023944854736e+01 -2.247373724728822708e+01 2.099868689291184864e+00
7.946206867694854736e+01 -3.308616400510072708e+01 3.204345618002122364e+00
8.126297199726104736e+01 -3.294614935666322708e+01 3.329269324056809864e+00
8.970083820819854736e+01 -3.561570502072572708e+01 3.749694739095872364e+00
8.944583332538604736e+01 -3.446909857541322708e+01 3.789825354330247364e+00
3.760562336444854736e+01 -1.549815130978822708e+01 1.521499548666184864e+00
3.838369953632354736e+01 -1.542320013791322708e+01 1.579330359213059864e+00
3.801980793476104736e+01 -1.480271673947572708e+01 1.583557043783372364e+00
7.940054523944854736e+01 -3.308958197385072708e+01 3.597274695150559864e+00
8.281045734882354736e+01 -3.365977240353822708e+01 3.807891760580247364e+00
8.365225422382354736e+01 -3.305601263791322708e+01 3.895400915853684864e+00
8.925735676288604736e+01 -3.442454291135072708e+01 4.221023474447434864e+00
8.973428547382354736e+01 -3.359495306760072708e+01 4.293853674642747364e+00
3.830081379413604736e+01 -1.585349798947572708e+01 1.744033728353684864e+00
3.704739582538604736e+01 -1.480051947385072708e+01 1.698593054525559864e+00
5.417691242694854736e+01 -2.233274603635072708e+01 2.620086584798997364e+00
8.115616047382354736e+01 -3.391599798947572708e+01 4.084304724447434864e+00
8.234207355976104736e+01 -3.348508978635072708e+01 4.191741858236497364e+00
8.337405598163604736e+01 -3.296848822385072708e+01 4.291747961752122364e+00
8.109939777851104736e+01 -3.105210638791322708e+01 4.211364660970872364e+00
8.013589680194854736e+01 -2.973252630978822708e+01 4.202682409994309864e+00
3.631057941913604736e+01 -1.489365912228822708e+01 1.820648108236497364e+00
3.680056965351104736e+01 -1.469724798947572708e+01 1.867584143392747364e+00
5.407766926288604736e+01 -2.230796576291322708e+01 2.883788977377122364e+00
8.140774738788604736e+01 -3.406199408322572708e+01 4.503799353353684864e+00
8.050320637226104736e+01 -3.270530463010072708e+01 4.492721472494309864e+00
8.089309895038604736e+01 -3.193455267697572708e+01 4.557083044759934864e+00
8.133658039569854736e+01 -3.118198920041322708e+01 4.624832068197434864e+00
8.029202473163604736e+01 -2.982603216916322708e+01 4.602783118002122364e+00
3.624551594257354736e+01 -1.487620306760072708e+01 1.996856604330247364e+00
3.643997395038604736e+01 -1.453941107541322708e+01 2.027069006673997364e+00
3.677908527851104736e+01 -1.426902533322572708e+01 2.065414343588059864e+00
8.147525227069854736e+01 -3.412449408322572708e+01 4.912216101400559864e+00
8.274075520038604736e+01 -3.372520209103822708e+01 5.033294592611497364e+00
8.039065754413604736e+01 -3.174937201291322708e+01 4.922836218588059864e+00
8.057657063007354736e+01 -3.089500189572572708e+01 4.976226721517747364e+00
8.372647297382354736e+01 -3.125278998166322708e+01 5.220764075033372364e+00
3.655557453632354736e+01 -1.504295111447572708e+01 2.197601233236497364e+00
3.601785480976104736e+01 -1.435178900510072708e+01 2.177841101400559864e+00
3.689908039569854736e+01 -1.433933783322572708e+01 2.254669104330247364e+00
8.339151203632354736e+01 -3.502708197385072708e+01 5.450042639486497364e+00
7.992947590351104736e+01 -3.251402045041322708e+01 5.251220618002122364e+00
7.853714191913604736e+01 -3.098240423947572708e+01 5.192199621908372364e+00
8.787027180194854736e+01 -3.397935248166322708e+01 5.880157385580247364e+00
9.014297688007354736e+01 -3.389622259885072708e+01 6.082733069173997364e+00
1.542825520038604736e+01 -3.379987247288227081e+00 -5.057984249666276355e-01
1.547244465351104736e+01 -3.233991153538227081e+00 -4.945679562166276355e-01
1.552408039569854736e+01 -3.091046817600727081e+00 -4.838715450838151355e-01
1.557583820819854736e+01 -2.947614200413227081e+00 -4.731446163728776355e-01
1.562747395038604736e+01 -2.804669864475727081e+00 -4.624482052400651355e-01
1.567910969257354736e+01 -2.661725528538227081e+00 -4.517670528963151355e-01
1.573086750507354736e+01 -2.518292911350727081e+00 -4.410248653963151355e-01
1.577212727069854736e+01 -2.372052676975727081e+00 -4.305268185213151355e-01
1.753213703632354736e+01 -4.227277286350727081e+00 -4.750977413728776355e-01
1.761001789569854736e+01 -4.070294864475727081e+00 -4.631501095369401355e-01
1.769815266132354736e+01 -3.916730411350727081e+00 -4.509125607088151355e-01
1.777395832538604736e+01 -3.757428653538227081e+00 -4.388275997713151355e-01
1.783328449726104736e+01 -3.592511661350727081e+00 -4.264984982088151355e-01
1.789273273944854736e+01 -3.427716739475727081e+00 -4.141693966463151355e-01
1.794693195819854736e+01 -3.260358341038227081e+00 -4.021454708650651355e-01
1.804324543476104736e+01 -3.107404239475727081e+00 -3.903046505525651355e-01
2.109305012226104736e+01 -5.659772403538227081e+00 -4.437714474275651355e-01
2.116519367694854736e+01 -5.459699161350727081e+00 -4.288025753572526355e-01
2.123721516132354736e+01 -5.259625919163227081e+00 -4.138337032869401355e-01
2.133023273944854736e+01 -5.066388614475727081e+00 -3.990631954744401355e-01
2.143033039569854736e+01 -4.875958926975727081e+00 -3.843842403963151355e-01
2.153079426288604736e+01 -4.685040958225727081e+00 -3.696595089510026355e-01
2.163199055194854736e+01 -4.493024356663227081e+00 -3.548432247713151355e-01
2.173123371601104736e+01 -4.300519473850727081e+00 -3.400269405916276355e-01
2.707266438007354736e+01 -8.064801700413227081e+00 -3.994446652010026355e-01
2.726077473163604736e+01 -7.841290958225727081e+00 -3.800660030916276355e-01
2.740347492694854736e+01 -7.598371036350727081e+00 -3.608857052400651355e-01
2.754702961444854736e+01 -7.353620059788227081e+00 -3.415680782869401355e-01
2.777456867694854736e+01 -7.138654239475727081e+00 -3.227387325838151355e-01
2.811197102069854736e+01 -6.958600528538227081e+00 -3.042450802400651355e-01
2.851455891132354736e+01 -6.793927676975727081e+00 -2.856140987947526355e-01
2.882571613788604736e+01 -6.593976505100727081e+00 -2.669831173494401355e-01
5.039383137226104736e+01 -1.410239935666322708e+01 -1.429291622713151355e-01
5.019424641132354736e+01 -1.349717474728822708e+01 -1.071625607088151355e-01
5.033975422382354736e+01 -1.410191107541322708e+01 9.504691194743486449e-02
5.015591633319854736e+01 -1.350205755978822708e+01 1.278075320646223645e-01
5.050259602069854736e+01 -1.417368841916322708e+01 3.335417849943098645e-01
5.030789387226104736e+01 -1.356834173947572708e+01 3.658446414396223645e-01
5.089895832538604736e+01 -1.432383490353822708e+01 5.772246463224348645e-01
5.072085773944854736e+01 -1.371934271603822708e+01 6.082762820646223645e-01
5.220364582538604736e+01 -1.477866888791322708e+01 8.441466433927473645e-01
5.433438313007354736e+01 -1.490757513791322708e+01 9.217223269864973645e-01
5.394058430194854736e+01 -1.537925482541322708e+01 1.133163367025559864e+00
5.429641926288604736e+01 -1.491392279416322708e+01 1.176299963705247364e+00
8.363699543476104736e+01 -3.105637884885072708e+01 3.169479284994309864e+00
8.959646809101104736e+01 -3.353562689572572708e+01 4.287078772298997364e+00
8.388101398944854736e+01 -3.026524115353822708e+01 4.046020422689622364e+00
8.013443195819854736e+01 -2.972886420041322708e+01 4.202758703939622364e+00
8.091934406757354736e+01 -2.912827826291322708e+01 4.288009558431809864e+00
8.029275715351104736e+01 -2.982310248166322708e+01 4.602966223470872364e+00
8.361746418476104736e+01 -3.022337103635072708e+01 4.847427283041184864e+00
8.348806965351104736e+01 -3.115257025510072708e+01 5.205337439291184864e+00
8.439822590351104736e+01 -3.056309271603822708e+01 5.307601843588059864e+00
8.081851398944854736e+01 -3.009751654416322708e+01 5.427535925619309864e+00
1.577261555194854736e+01 -2.371686466038227081e+00 -4.304963009431901355e-01
1.583474934101104736e+01 -2.232038028538227081e+00 -4.200745480135026355e-01
1.590274250507354736e+01 -2.093610294163227081e+00 -4.100952999666276355e-01
1.597110188007354736e+01 -1.954205997288227081e+00 -4.000397579744401355e-01
1.603958332538604736e+01 -1.814801700413227081e+00 -3.899842159822526355e-01
1.610830891132354736e+01 -1.674787051975727081e+00 -3.798981564119401355e-01
1.617740070819854736e+01 -1.533917911350727081e+00 -3.697358028963151355e-01
1.623660480976104736e+01 -1.390485294163227081e+00 -3.598175900056901355e-01
1.804361164569854736e+01 -3.106915958225727081e+00 -3.902741329744401355e-01
1.812625324726104736e+01 -2.948834903538227081e+00 -3.786774532869401355e-01
1.822207844257354736e+01 -2.793927676975727081e+00 -3.667450802400651355e-01
1.830581867694854736e+01 -2.633771426975727081e+00 -3.550110714510026355e-01
1.838955891132354736e+01 -2.473493106663227081e+00 -3.432618038728776355e-01
1.847354328632354736e+01 -2.312604434788227081e+00 -3.314515011385026355e-01
1.854495441913604736e+01 -2.146955020725727081e+00 -3.198853390291276355e-01
1.862942707538604736e+01 -1.984845645725727081e+00 -3.079987423494401355e-01
2.173282063007354736e+01 -4.300275333225727081e+00 -3.399964230135026355e-01
2.187845051288604736e+01 -4.121442325413227081e+00 -3.259888546541276355e-01
2.202542316913604736e+01 -3.941022403538227081e+00 -3.118744747713151355e-01
2.217410480976104736e+01 -3.758527286350727081e+00 -2.975922482088151355e-01
2.232364094257354736e+01 -3.575055606663227081e+00 -2.832337277010026355e-01
2.247464191913604736e+01 -3.389997012913227081e+00 -2.687531368806901355e-01
2.274283039569854736e+01 -3.232404239475727081e+00 -2.545472042635026355e-01
2.313784992694854736e+01 -3.102521426975727081e+00 -2.405243771150651355e-01
2.882791340351104736e+01 -6.593610294163227081e+00 -2.669220821931901355e-01
2.918765461444854736e+01 -6.403913028538227081e+00 -2.472687618806901355e-01
2.973367512226104736e+01 -6.264020450413227081e+00 -2.283173458650651355e-01
3.044876301288604736e+01 -6.161969669163227081e+00 -2.088623898103776355e-01
7.066092121601104736e+01 -1.706162787228822708e+01 -2.156678097322526355e-01
5.805044758319854736e+01 -1.233237982541322708e+01 -1.268006222322526355e-01
5.019449055194854736e+01 -1.349546576291322708e+01 -1.070404903963151355e-01
5.096145832538604736e+01 -1.319920111447572708e+01 -7.080086637287763551e-02
5.084134113788604736e+01 -1.262254095822572708e+01 -3.604134488850263551e-02
6.855777180194854736e+01 -1.722117377072572708e+01 5.844107698649736449e-02
6.624698078632354736e+01 -1.585264349728822708e+01 9.600821565837236449e-02
6.131350910663604736e+01 -1.383311224728822708e+01 1.176451785489973645e-01
5.721914875507354736e+01 -1.213682318478822708e+01 1.369322879239973645e-01
5.430374348163604736e+01 -1.082420111447572708e+01 1.574553592130598645e-01
5.015591633319854736e+01 -1.350022650510072708e+01 1.279296023771223645e-01
5.034695637226104736e+01 -1.302488470822572708e+01 1.645201785489973645e-01
5.072622883319854736e+01 -1.260508490353822708e+01 2.013396365568098645e-01
6.721389973163604736e+01 -1.685410834103822708e+01 3.698424441739973645e-01
6.698770344257354736e+01 -1.608164740353822708e+01 4.129790408536848645e-01
7.013577473163604736e+01 -1.622520209103822708e+01 4.876555545255598645e-01
6.636697590351104736e+01 -1.451731634885072708e+01 4.960021121427473645e-01
5.429422199726104736e+01 -1.083921576291322708e+01 4.073332889005598645e-01
5.030764973163604736e+01 -1.356651068478822708e+01 3.659667117521223645e-01
5.050992023944854736e+01 -1.309287787228822708e+01 4.017790896818098645e-01
5.091665852069854736e+01 -1.267942572385072708e+01 4.402007205411848645e-01
6.910586750507354736e+01 -1.742649603635072708e+01 7.086638553068098645e-01
6.969290363788604736e+01 -1.686094427853822708e+01 7.621611697599348645e-01
6.821927082538604736e+01 -1.573228216916322708e+01 7.868193728849348645e-01
6.665042316913604736e+01 -1.461216498166322708e+01 8.079985721036848645e-01
6.417312824726104736e+01 -1.330625677853822708e+01 8.125609500333723645e-01
5.072171223163604736e+01 -1.371763373166322708e+01 6.084136111661848645e-01
5.101028645038604736e+01 -1.326646185666322708e+01 6.462248904630598645e-01
5.152542316913604736e+01 -1.288035345822572708e+01 6.893767459318098645e-01
6.814480793476104736e+01 -1.645042181760072708e+01 1.060913000814622364e+00
7.024222004413604736e+01 -1.630003119260072708e+01 1.144515906088059864e+00
6.707693684101104736e+01 -1.474412298947572708e+01 1.125625525228684864e+00
5.433560383319854736e+01 -1.490598822385072708e+01 9.218596560880598645e-01
5.268423664569854736e+01 -1.380784369260072708e+01 9.217070681974348645e-01
5.206302082538604736e+01 -1.306016302853822708e+01 9.416655642911848645e-01
6.670865070819854736e+01 -1.607005072385072708e+01 1.345931921713059864e+00
6.930386555194854736e+01 -1.606992865353822708e+01 1.449508581869309864e+00
6.972574055194854736e+01 -1.472800970822572708e+01 1.546661291830247364e+00
5.429715168476104736e+01 -1.491221380978822708e+01 1.176437292806809864e+00
5.213528645038604736e+01 -1.365366888791322708e+01 1.154357825033372364e+00
6.967434895038604736e+01 -1.692515326291322708e+01 1.740096960775559864e+00
6.982083332538604736e+01 -1.623228216916322708e+01 1.787200842611497364e+00
6.696402180194854736e+01 -1.475852728635072708e+01 1.746932898275559864e+00
6.699563801288604736e+01 -1.407090521603822708e+01 1.788619909994309864e+00
6.863369953632354736e+01 -1.738133002072572708e+01 1.992034826986497364e+00
6.677749836444854736e+01 -1.613377142697572708e+01 1.973037634603684864e+00
6.825369465351104736e+01 -1.583140326291322708e+01 2.062362585775559864e+00
7.035086262226104736e+01 -1.566050482541322708e+01 2.174453650228684864e+00
7.022805988788604736e+01 -1.489829779416322708e+01 2.212173376791184864e+00
6.774258625507354736e+01 -1.642759466916322708e+01 2.321273718588059864e+00
6.780838215351104736e+01 -1.573325873166322708e+01 2.363708410970872364e+00
6.716079914569854736e+01 -1.485337591916322708e+01 2.378600989095872364e+00
6.743387043476104736e+01 -1.636314154416322708e+01 2.625106726400559864e+00
6.824368488788604736e+01 -1.587351752072572708e+01 2.698608313314622364e+00
6.857840168476104736e+01 -1.453135443478822708e+01 2.793182287923997364e+00
6.938723957538604736e+01 -1.693687201291322708e+01 3.034072790853684864e+00
6.745816242694854736e+01 -1.568284369260072708e+01 2.981475744955247364e+00
6.812137043476104736e+01 -1.514780951291322708e+01 3.051299963705247364e+00
6.925247395038604736e+01 -1.472215033322572708e+01 3.144302283041184864e+00
6.949429523944854736e+01 -1.699021673947572708e+01 3.364578161947434864e+00
6.849063313007354736e+01 -1.598570013791322708e+01 3.350372229330247364e+00
6.845218098163604736e+01 -1.525645209103822708e+01 3.385955725423997364e+00
6.906070148944854736e+01 -1.469663763791322708e+01 3.457412634603684864e+00
6.934988605976104736e+01 -1.624229193478822708e+01 3.721069250814622364e+00
6.893033039569854736e+01 -1.542637396603822708e+01 4.055374060384934864e+00
1.623648273944854736e+01 -1.389874942600727081e+00 -3.597718136385026355e-01
1.633474934101104736e+01 -1.255231387913227081e+00 -3.500061886385026355e-01
1.649222004413604736e+01 -1.132428653538227081e+00 -3.412018673494401355e-01
1.665274250507354736e+01 -1.007184512913227081e+00 -3.322144405916276355e-01
1.681546223163604736e+01 -8.802313879132270813e-01 -3.231049435213151355e-01
1.698098957538604736e+01 -7.512030676007270813e-01 -3.138428585603776355e-01
1.714993488788604736e+01 -6.193671301007270813e-01 -3.043824093416276355e-01
1.732510578632354736e+01 -4.864325597882270813e-01 -2.952271359041276355e-01
1.862942707538604736e+01 -1.984235294163227081e+00 -3.079529659822526355e-01
1.869973957538604736e+01 -1.817731387913227081e+00 -2.963868038728776355e-01
1.904678547382354736e+01 -1.712995059788227081e+00 -2.861786739900651355e-01
1.949991047382354736e+01 -1.624005801975727081e+00 -2.765503780916276355e-01
1.997305500507354736e+01 -1.530988223850727081e+00 -2.665100948885026355e-01
2.029458820819854736e+01 -1.399518497288227081e+00 -2.551728146150651355e-01
2.091641438007354736e+01 -1.316876895725727081e+00 -2.450714962556901355e-01
2.252762043476104736e+01 -1.394635684788227081e+00 -2.369538204744401355e-01
2.314016926288604736e+01 -3.102277286350727081e+00 -2.404786007478776355e-01
2.352932941913604736e+01 -2.963727481663227081e+00 -2.265015499666276355e-01
2.446951496601104736e+01 -2.942365176975727081e+00 -2.131348507478776355e-01
2.670974934101104736e+01 -3.181256778538227081e+00 -2.001343624666276355e-01
6.247220051288604736e+01 -1.024155951291322708e+01 -2.037812130525651355e-01
5.015786945819854736e+01 -7.213605411350727081e+00 -1.636811153963151355e-01
4.199234211444854736e+01 -5.204450137913227081e+00 -1.370087521150651355e-01
4.636660969257354736e+01 -5.547467716038227081e+00 -1.035767452791276355e-01
6.792630207538604736e+01 -1.346775580197572708e+01 -2.792366910725263551e-02
6.302774250507354736e+01 -1.166270209103822708e+01 3.265295736497364487e-03
4.732534992694854736e+01 -7.632306583225727081e+00 -9.307946451002635513e-03
6.284524738788604736e+01 -1.033750677853822708e+01 8.511344026774736449e-02
5.017459309101104736e+01 -7.232160098850727081e+00 6.552115511149736449e-02
4.198965656757354736e+01 -5.216657169163227081e+00 5.349722933024736449e-02
4.638455402851104736e+01 -5.564313419163227081e+00 1.059264285489973645e-01
5.428494465351104736e+01 -1.081760931760072708e+01 1.574553592130598645e-01
6.776248371601104736e+01 -1.345066595822572708e+01 2.843016726896223645e-01
6.298135578632354736e+01 -1.167210150510072708e+01 2.926634890958723645e-01
4.732327473163604736e+01 -7.646588809788227081e+00 2.063750369474348645e-01
4.198684895038604736e+01 -5.228742130100727081e+00 2.430419070646223645e-01
4.646487629413604736e+01 -5.592267520725727081e+00 3.174742801114973645e-01
5.427139484882354736e+01 -1.083164740353822708e+01 4.072112185880598645e-01
5.144217121601104736e+01 -9.603131778538227081e+00 4.106749637052473645e-01
4.923745930194854736e+01 -8.577497012913227081e+00 4.165801150724348645e-01
4.705044758319854736e+01 -7.602277286350727081e+00 4.197997195646223645e-01
4.497867023944854736e+01 -6.700055606663227081e+00 4.215239627286848645e-01
4.318338215351104736e+01 -5.896588809788227081e+00 4.243620974943098645e-01
4.160464680194854736e+01 -5.170636661350727081e+00 4.280547244474348645e-01
4.011306965351104736e+01 -4.495587833225727081e+00 4.299010379239973645e-01
6.412576496601104736e+01 -1.329221869260072708e+01 8.119658572599348645e-01
6.373013508319854736e+01 -1.253660345822572708e+01 8.460997683927473645e-01
6.197329914569854736e+01 -1.148313666135072708e+01 8.566130740568098645e-01
6.145108234882354736e+01 -1.073411322385072708e+01 8.864440066739973645e-01
4.337307941913604736e+01 -5.946881778538227081e+00 6.236113650724348645e-01
4.158450520038604736e+01 -5.179425723850727081e+00 6.156157596036848645e-01
4.003787434101104736e+01 -4.494367130100727081e+00 6.100005252286848645e-01
6.413797199726104736e+01 -1.331590033322572708e+01 1.108703528158372364e+00
6.356399738788604736e+01 -1.251731634885072708e+01 1.136642370931809864e+00
6.445047199726104736e+01 -1.206565619260072708e+01 1.196761999838059864e+00
6.171536457538604736e+01 -1.081077338010072708e+01 1.175949011556809864e+00
6.262808430194854736e+01 -1.037058783322572708e+01 1.234725867025559864e+00
5.024270832538604736e+01 -6.799909122288227081e+00 1.011855993978684864e+00
6.973379719257354736e+01 -1.472752142697572708e+01 1.546996985189622364e+00
6.433291828632354736e+01 -1.272080755978822708e+01 1.451293860189622364e+00
6.239627277851104736e+01 -1.161851263791322708e+01 1.439697180502122364e+00
6.244888508319854736e+01 -1.098924017697572708e+01 1.479171667806809864e+00
6.270376789569854736e+01 -1.040562201291322708e+01 1.523971472494309864e+00
5.019326984882354736e+01 -6.806012637913227081e+00 1.239990149252122364e+00
6.699502766132354736e+01 -1.406834173947572708e+01 1.788741980306809864e+00
6.374673664569854736e+01 -1.260154486447572708e+01 1.730605993978684864e+00
6.355179035663604736e+01 -1.190159369260072708e+01 1.762878332845872364e+00
6.246682941913604736e+01 -1.101267767697572708e+01 1.766784582845872364e+00
6.473135578632354736e+01 -1.084483099728822708e+01 1.876892004720872364e+00
5.012735188007354736e+01 -6.808942325413227081e+00 1.465972815267747364e+00
7.022378742694854736e+01 -1.489463568478822708e+01 2.212158118002122364e+00
6.411856281757354736e+01 -1.271067572385072708e+01 2.039703284017747364e+00
6.347281086444854736e+01 -1.190366888791322708e+01 2.054580603353684864e+00
6.348880207538604736e+01 -1.125486517697572708e+01 2.092666540853684864e+00
5.009610188007354736e+01 -6.818341739475727081e+00 1.694000159017747364e+00
6.328323566913604736e+01 -1.188047552853822708e+01 2.339645300619309864e+00
6.337539875507354736e+01 -1.124998236447572708e+01 2.380203161947434864e+00
5.008694660663604736e+01 -6.831769473850727081e+00 1.921539221517747364e+00
5.093582355976104736e+01 -6.479718692600727081e+00 1.986709509603684864e+00
6.857693684101104736e+01 -1.452854681760072708e+01 2.793243323080247364e+00
6.356741535663604736e+01 -1.196543646603822708e+01 2.644409094564622364e+00
6.360916340351104736e+01 -1.132090521603822708e+01 2.682662878744309864e+00
5.007998859882354736e+01 -6.845807559788227081e+00 2.150436316244309864e+00
6.925076496601104736e+01 -1.471922064572572708e+01 3.144348059408372364e+00
5.002261555194854736e+01 -6.850202091038227081e+00 2.375503454916184864e+00
5.092618000507354736e+01 -6.508771426975727081e+00 2.450515661947434864e+00
6.906753742694854736e+01 -1.469578314572572708e+01 3.457900915853684864e+00
4.994839680194854736e+01 -6.851422794163227081e+00 2.599182043783372364e+00
5.097012531757354736e+01 -7.058942325413227081e+00 2.890853796713059864e+00
4.986697590351104736e+01 -6.350934512913227081e+00 2.849441443197434864e+00
4.639785969257354736e+01 -7.149518497288227081e+00 2.772445593588059864e+00
4.464700520038604736e+01 -6.332501895725727081e+00 2.681869421713059864e+00
5.107315266132354736e+01 -7.093854434788227081e+00 3.130187903158372364e+00
4.692801105976104736e+01 -5.842145450413227081e+00 2.881545935384934864e+00
5.030435383319854736e+01 -9.009381778538227081e+00 3.206069861166184864e+00
4.651541340351104736e+01 -7.660504825413227081e+00 2.969894324056809864e+00
4.660440266132354736e+01 -7.207135684788227081e+00 3.000121985189622364e+00
4.665286457538604736e+01 -6.745831973850727081e+00 3.027465735189622364e+00
4.215396320819854736e+01 -5.425153262913227081e+00 2.732757483236497364e+00
4.298782551288604736e+01 -5.152814395725727081e+00 2.813674841634934864e+00
5.033682453632354736e+01 -9.032819278538227081e+00 3.439971838705247364e+00
5.040542805194854736e+01 -8.531964786350727081e+00 3.470794592611497364e+00
4.658206379413604736e+01 -7.216901309788227081e+00 3.211639319173997364e+00
4.661844074726104736e+01 -6.753278262913227081e+00 3.237869177572434864e+00
4.196634113788604736e+01 -5.402448184788227081e+00 2.911102209798997364e+00
4.213821613788604736e+01 -5.013776309788227081e+00 2.945098791830247364e+00
5.027835285663604736e+01 -9.551007755100727081e+00 3.643157873861497364e+00
4.822683918476104736e+01 -7.577008731663227081e+00 3.556213293783372364e+00
5.061783039569854736e+01 -7.566754825413227081e+00 3.770675574056809864e+00
4.425772297382354736e+01 -5.849347598850727081e+00 3.285598669759934864e+00
4.223062336444854736e+01 -5.043073184788227081e+00 3.144699011556809864e+00
1.732669270038604736e+01 -4.861884191632270813e-01 -2.951966183260026355e-01
1.788369953632354736e+01 -4.124579504132270813e-01 -2.882996456697526355e-01
1.851138508319854736e+01 -3.387274816632270813e-01 -2.815552609041276355e-01
1.904495441913604736e+01 -2.385077551007270813e-01 -2.734375851228776355e-01
1.966580402851104736e+01 -1.402411535382270813e-01 -2.651520626619401355e-01
2.030764973163604736e+01 -3.257513791322708130e-02 -2.561951534822526355e-01
1.506692707538604736e+01 7.494072839617729187e-01 -2.230530636385026355e-01
1.478799641132354736e+01 9.171318933367729187e-01 -2.135620968416276355e-01
2.253701984882354736e+01 -1.395490176975727081e+00 -2.369385616853776355e-01
2.389041340351104736e+01 -1.398908145725727081e+00 -2.266388790681901355e-01
2.557156574726104736e+01 -1.425519473850727081e+00 -2.146759884431901355e-01
4.357193195819854736e+01 -3.322614200413227081e+00 -1.946411984041276355e-01
3.393350422382354736e+01 -1.711286075413227081e+00 -1.676636593416276355e-01
1.508645832538604736e+01 7.431816980242729187e-01 -1.593323605135026355e-01
1.461953938007354736e+01 9.305596277117729187e-01 -1.510926144197526355e-01
4.636490070819854736e+01 -5.545514591038227081e+00 -1.034851925447526355e-01
4.358926594257354736e+01 -3.337384708225727081e+00 7.323367521223644871e-04
3.393008625507354736e+01 -1.720441348850727081e+00 -1.701363492756513551e-02
1.510769855976104736e+01 7.367119714617729187e-01 -9.504708219319013551e-02
1.456643879413604736e+01 9.321465417742729187e-01 -8.947762418537763551e-02
4.638272297382354736e+01 -5.562482364475727081e+00 1.060179812833723645e-01
4.359793293476104736e+01 -3.351178653538227081e+00 1.973113162443098645e-01
3.392666828632354736e+01 -1.729718692600727081e+00 1.344908816739973645e-01
1.511990559101104736e+01 7.313408777117729187e-01 -3.063973356037763551e-02
1.456277668476104736e+01 9.286065027117729187e-01 -2.813729215412763551e-02
4.645901691913604736e+01 -5.589704044163227081e+00 3.175047976896223645e-01
4.337124836444854736e+01 -3.333356387913227081e+00 3.898924930021223645e-01
3.392325031757354736e+01 -1.738873966038227081e+00 2.852019412443098645e-01
1.514578449726104736e+01 7.242607995867729187e-01 3.376761507243486449e-02
1.453299152851104736e+01 9.278740808367729187e-01 3.312674593180986449e-02
4.010293781757354736e+01 -4.492414005100727081e+00 4.298247439786848645e-01
3.870767414569854736e+01 -3.865338809788227081e+00 4.326171023771223645e-01
3.738418781757354736e+01 -3.278790958225727081e+00 4.338378055021223645e-01
3.612466633319854736e+01 -2.728253848850727081e+00 4.345397097989973645e-01
3.493728840351104736e+01 -2.215192325413227081e+00 4.348448855802473645e-01
3.391983234882354736e+01 -1.748151309788227081e+00 4.367674930021223645e-01
1.513553059101104736e+01 7.214531823992729187e-01 9.809866975993486449e-02
1.451187336444854736e+01 9.261650964617729187e-01 9.399405550212236449e-02
4.002798664569854736e+01 -4.491315372288227081e+00 6.098784549161848645e-01
3.864785969257354736e+01 -3.866925723850727081e+00 6.052703006193098645e-01
3.733804523944854736e+01 -3.282575137913227081e+00 6.003722293302473645e-01
3.609024250507354736e+01 -2.733747012913227081e+00 5.952605349943098645e-01
3.491592609882354736e+01 -2.222272403538227081e+00 5.901335818693098645e-01
3.382486164569854736e+01 -1.745954044163227081e+00 5.854338748380598645e-01
1.516324055194854736e+01 7.142510339617729187e-01 1.629180056974348645e-01
1.450369465351104736e+01 9.232354089617729187e-01 1.553343875333723645e-01
4.647574055194854736e+01 -5.171491153538227081e+00 9.768981082364973645e-01
4.323733723163604736e+01 -3.353009708225727081e+00 9.724730594083723645e-01
1.530264484882354736e+01 6.942315027117729187e-01 2.311858279630598645e-01
1.452835285663604736e+01 9.167656823992729187e-01 2.172392947599348645e-01
4.642410480976104736e+01 -5.176740176975727081e+00 1.186553869955247364e+00
4.318704426288604736e+01 -3.358624942600727081e+00 1.165145788900559864e+00
1.523733723163604736e+01 6.975274011492729187e-01 2.943724734708723645e-01
1.455752766132354736e+01 9.098076745867729187e-01 2.798918826505598645e-01
4.635501301288604736e+01 -5.179059512913227081e+00 1.394088659994309864e+00
5.121145832538604736e+01 -5.474225528538227081e+00 1.591827307455247364e+00
4.715603840351104736e+01 -4.374127872288227081e+00 1.476455603353684864e+00
4.193094074726104736e+01 -3.201154239475727081e+00 1.313552771322434864e+00
4.353482258319854736e+01 -2.989850528538227081e+00 1.396865759603684864e+00
1.461050617694854736e+01 9.004082605242729187e-01 3.433989627286848645e-01
4.628579914569854736e+01 -5.181378848850727081e+00 1.602172766439622364e+00
4.705679523944854736e+01 -4.841657169163227081e+00 1.659423743002122364e+00
4.712991535663604736e+01 -4.384137637913227081e+00 1.689376745931809864e+00
4.232950031757354736e+01 -3.267316348850727081e+00 1.519302283041184864e+00
4.373794758319854736e+01 -3.027936466038227081e+00 1.601898108236497364e+00
4.338992512226104736e+01 -2.556989200413227081e+00 1.612045202963059864e+00
1.467178547382354736e+01 8.901543542742729187e-01 4.081267459318098645e-01
5.093728840351104736e+01 -6.478253848850727081e+00 1.986862097494309864e+00
4.627591145038604736e+01 -5.193463809788227081e+00 1.811202917806809864e+00
5.101162922382354736e+01 -5.473248966038227081e+00 2.048156653158372364e+00
4.733279621601104736e+01 -4.427472598850727081e+00 1.911331091634934864e+00
4.191153156757354736e+01 -3.222760684788227081e+00 1.690521155111497364e+00
4.380081379413604736e+01 -3.048322208225727081e+00 1.801376257650559864e+00
1.478909504413604736e+01 8.737969323992729187e-01 4.757536990568098645e-01
4.624759113788604736e+01 -5.202619083225727081e+00 2.020461951009934864e+00
4.717288410663604736e+01 -4.887555606663227081e+00 2.090743933431809864e+00
4.553384602069854736e+01 -4.178082950413227081e+00 2.035751257650559864e+00
4.142373859882354736e+01 -3.168439395725727081e+00 1.854461584798997364e+00
4.386514484882354736e+01 -3.068952091038227081e+00 2.001571570150559864e+00
4.354190266132354736e+01 -2.599347598850727081e+00 2.010375891439622364e+00
1.493972980976104736e+01 8.538994714617729187e-01 5.465697390958723645e-01
5.092776691913604736e+01 -6.507184512913227081e+00 2.450683508627122364e+00
4.619082844257354736e+01 -5.206891544163227081e+00 2.226913367025559864e+00
4.455374348163604736e+01 -4.490705020725727081e+00 2.164443884603684864e+00
4.726895344257354736e+01 -4.445905216038227081e+00 2.336776648275559864e+00
4.135733234882354736e+01 -3.171369083225727081e+00 2.038085852377122364e+00
4.315298664569854736e+01 -2.991559512913227081e+00 2.160430823080247364e+00
4.334463703632354736e+01 -2.588727481663227081e+00 2.194885168783372364e+00
4.286050617694854736e+01 -4.663312442600727081e+00 2.243408118002122364e+00
4.439273273944854736e+01 -4.478620059788227081e+00 2.356429968588059864e+00
4.421341145038604736e+01 -4.010846622288227081e+00 2.370193396322434864e+00
4.281900227069854736e+01 -3.383283145725727081e+00 2.311218176595872364e+00
4.326870930194854736e+01 -3.018659122288227081e+00 2.361495886556809864e+00
4.355850422382354736e+01 -2.625958926975727081e+00 2.402587805502122364e+00
4.276700031757354736e+01 -2.115094669163227081e+00 2.378662024252122364e+00
4.986685383319854736e+01 -6.349225528538227081e+00 2.849517737142747364e+00
4.719595539569854736e+01 -5.402936466038227081e+00 2.709579382650559864e+00
4.464090168476104736e+01 -4.530744083225727081e+00 2.573913489095872364e+00
4.424624836444854736e+01 -4.028546817600727081e+00 2.572982702963059864e+00
4.271414387226104736e+01 -3.381330020725727081e+00 2.498413000814622364e+00
4.317740070819854736e+01 -3.019513614475727081e+00 2.551345740072434864e+00
4.326931965351104736e+01 -2.604596622288227081e+00 2.580551062338059864e+00
4.282888996601104736e+01 -2.133771426975727081e+00 2.574630652181809864e+00
4.548538410663604736e+01 -5.583478458225727081e+00 2.785415564291184864e+00
4.728946125507354736e+01 -5.432599551975727081e+00 2.930023108236497364e+00
4.640139973163604736e+01 -4.821637637913227081e+00 2.895217810384934864e+00
4.100503742694854736e+01 -3.563458926975727081e+00 2.551406775228684864e+00
4.092007648944854736e+01 -3.147199161350727081e+00 2.567352209798997364e+00
4.195462238788604736e+01 -2.876325137913227081e+00 2.660858069173997364e+00
4.332425129413604736e+01 -2.623395450413227081e+00 2.778945837728684864e+00
4.263308918476104736e+01 -2.124982364475727081e+00 2.754104529134934864e+00
4.298819172382354736e+01 -5.151349551975727081e+00 2.813766394369309864e+00
4.234634602069854736e+01 -4.615094669163227081e+00 2.790420447103684864e+00
4.593777668476104736e+01 -4.762067325413227081e+00 3.073013220541184864e+00
4.156363117694854736e+01 -3.657941348850727081e+00 2.778076086752122364e+00
4.081192219257354736e+01 -3.144269473850727081e+00 2.744644079916184864e+00
4.083938801288604736e+01 -2.746198184788227081e+00 2.768051062338059864e+00
4.422122395038604736e+01 -2.741071231663227081e+00 3.041808996908372364e+00
4.322854816913604736e+01 -2.200788028538227081e+00 2.990280066244309864e+00
4.203714191913604736e+01 -4.994245059788227081e+00 2.937484656088059864e+00
4.259292805194854736e+01 -4.669293887913227081e+00 3.002075110189622364e+00
4.367459309101104736e+01 -4.417340762913227081e+00 3.106704626791184864e+00
4.138418781757354736e+01 -3.643537051975727081e+00 2.951736365072434864e+00
4.116140949726104736e+01 -3.204205997288227081e+00 2.955810461752122364e+00
4.081802570819854736e+01 -2.755231387913227081e+00 2.950103674642747364e+00
4.435794270038604736e+01 -2.769757755100727081e+00 3.252822790853684864e+00
4.264236652851104736e+01 -2.150006778538227081e+00 3.138824377767747364e+00
4.223086750507354736e+01 -5.041608341038227081e+00 3.144790564291184864e+00
4.267251789569854736e+01 -4.695416934788227081e+00 3.201522742025559864e+00
4.254873859882354736e+01 -4.251569278538227081e+00 3.213439856283372364e+00
4.348733723163604736e+01 -3.967755801975727081e+00 3.312683020345872364e+00
4.133267414569854736e+01 -3.239850528538227081e+00 3.156539831869309864e+00
4.072928059101104736e+01 -2.755597598850727081e+00 3.127380285970872364e+00
4.137710773944854736e+01 -2.430768497288227081e+00 3.202590857259934864e+00
4.259707844257354736e+01 -2.157208926975727081e+00 3.327667151205247364e+00
4.280935871601104736e+01 -2.114606387913227081e+00 2.604949866048997364e+00
1.468338215351104736e+01 1.095964901149272919e+00 7.519835574552473645e-01
4.728262531757354736e+01 -5.475934512913227081e+00 2.954193030111497364e+00
4.722366535663604736e+01 -4.987409122288227081e+00 2.977767859213059864e+00
4.097903645038604736e+01 -3.574079044163227081e+00 2.577484045736497364e+00
4.111416828632354736e+01 -3.178937442600727081e+00 2.610656653158372364e+00
4.249038898944854736e+01 -2.944562442600727081e+00 2.730285559408372364e+00
4.283328449726104736e+01 -2.559796817600727081e+00 2.778884802572434864e+00
1.537649738788604736e+01 8.720879480242729187e-01 8.587187869474348645e-01
1.466922199726104736e+01 1.093035213649272919e+00 8.168944461271223645e-01
4.250113117694854736e+01 -4.675153262913227081e+00 2.829391394369309864e+00
4.591128742694854736e+01 -4.791974551975727081e+00 3.101440344564622364e+00
4.408938801288604736e+01 -4.054181583225727081e+00 2.993484411947434864e+00
4.080386555194854736e+01 -3.148297794163227081e+00 2.776657019369309864e+00
4.228103840351104736e+01 -2.930402286350727081e+00 2.909759436361497364e+00
4.317227375507354736e+01 -2.613507755100727081e+00 3.000625525228684864e+00
4.270242512226104736e+01 -2.129010684788227081e+00 2.990890417806809864e+00
1.472110188007354736e+01 1.083513729274272919e+00 8.870696170255598645e-01
4.259768879413604736e+01 -4.705304630100727081e+00 3.033996496908372364e+00
4.247647297382354736e+01 -4.254376895725727081e+00 3.047897253744309864e+00
4.552884113788604736e+01 -4.284772403538227081e+00 3.309600744955247364e+00
4.081253254413604736e+01 -3.162335880100727081e+00 2.965850744955247364e+00
4.079837238788604736e+01 -2.750592716038227081e+00 2.987838659994309864e+00
4.110452473163604736e+01 -2.378522403538227081e+00 3.035232458822434864e+00
4.262857258319854736e+01 -2.133893497288227081e+00 3.180557165853684864e+00
1.496316730976104736e+01 1.054949276149272919e+00 9.730986697599348645e-01
4.095962727069854736e+01 -2.766950137913227081e+00 2.667236243002122364e+00
1.592593586444854736e+01 7.102227136492729187e-01 9.184569461271223645e-01
4.276382648944854736e+01 -2.133039005100727081e+00 2.844772253744309864e+00
4.256680500507354736e+01 -1.676862247288227081e+00 2.857055578939622364e+00
4.333828938007354736e+01 -1.316144473850727081e+00 2.938201819173997364e+00
4.251480305194854736e+01 -4.297345645725727081e+00 2.901870642416184864e+00
4.414346516132354736e+01 -4.108869083225727081e+00 3.046111975423997364e+00
4.158487141132354736e+01 -3.290387637913227081e+00 2.882095251791184864e+00
4.085867512226104736e+01 -2.766583926975727081e+00 2.852355871908372364e+00
4.315579426288604736e+01 -2.630353458225727081e+00 3.049835119955247364e+00
1.522342121601104736e+01 9.489922448992729187e-01 9.505156619474348645e-01
1.482681477069854736e+01 1.147478573024272919e+00 9.292296512052473645e-01
1.484341633319854736e+01 1.298967830836772919e+00 9.397124392911848645e-01
4.112564289569854736e+01 -2.437238223850727081e+00 2.984771643392747364e+00
4.265371906757354736e+01 -2.186261661350727081e+00 3.126632605306809864e+00
4.361953938007354736e+01 -1.845929630100727081e+00 3.226379309408372364e+00
4.288479816913604736e+01 -1.323224551975727081e+00 3.193954382650559864e+00
3.428457844257354736e+01 -1.450018957257270813e-01 2.540481482259934864e+00
3.273648273944854736e+01 8.116631433367729187e-01 2.649581824056809864e+00
3.214016926288604736e+01 1.239885799586772919e+00 2.627593909017747364e+00
3.217422688007354736e+01 1.619524471461772919e+00 2.655746374838059864e+00
3.239663898944854736e+01 1.988665096461772919e+00 2.700088415853684864e+00
9.594148755073547363e+00 7.092424862086772919e+00 1.771301184408372364e+00
1.248135578632354736e+01 7.558611385524272919e+00 2.068038855306809864e+00
1.411490070819854736e+01 7.994890682399272919e+00 2.249542151205247364e+00
6.726595044136047363e+00 7.746843807399272919e+00 1.564758215658372364e+00
6.867464184761047363e+00 8.026262752711772919e+00 1.599487219564622364e+00
5.709138989448547363e+00 8.178484432399272919e+00 1.507827673666184864e+00
5.734895825386047363e+00 8.059954158961772919e+00 1.606170569173997364e+00
5.647127270698547363e+00 8.321917049586772919e+00 1.618926916830247364e+00
5.994539380073547363e+00 8.630388729274272919e+00 1.675323401205247364e+00
7.498567700386047363e+00 9.081560604274272919e+00 1.849960242025559864e+00
8.656892895698547363e+00 1.000831841677427292e+01 2.111160193197434864e+00
7.307283520698547363e+00 8.999285213649272919e+00 1.816284094564622364e+00
6.563387036323547363e+00 8.010881893336772919e+00 1.811111365072434864e+00
5.656526684761047363e+00 8.232317440211772919e+00 1.743347082845872364e+00
5.493684887886047363e+00 8.507219783961772919e+00 1.750213537923997364e+00
6.683382153511047363e+00 8.923479549586772919e+00 1.894882117025559864e+00
8.983553051948547363e+00 9.491960994899272919e+00 2.155639563314622364e+00
8.577547192573547363e+00 9.767107479274272919e+00 2.139770422689622364e+00
8.640901684761047363e+00 1.009962701052427292e+01 2.172393713705247364e+00
1.041665852069854736e+01 1.025502251833677292e+01 1.969421301595872364e+00
3.421297192573547363e+00 1.025233697146177292e+01 1.402267370931809864e+00
3.524934887886047363e+00 1.025990533083677292e+01 1.546218786947434864e+00
6.578523755073547363e+00 9.108416073024272919e+00 1.867767248861497364e+00
6.495882153511047363e+00 9.420549862086772919e+00 1.884063635580247364e+00
8.650911450386047363e+00 1.001198052614927292e+01 2.125015173666184864e+00
2.984285473823547363e+00 1.045753716677427292e+01 1.648727331869309864e+00
8.649812817573547363e+00 1.009291314333677292e+01 2.051330481283372364e+00
3.336214184761047363e+00 1.032203911989927292e+01 1.605956946127122364e+00
1.072830402851104736e+01 1.045094536989927292e+01 1.869384680502122364e+00
3.286043286323547363e+00 1.042555474489927292e+01 1.299011145345872364e+00
1.067910969257354736e+01 1.043300103396177292e+01 2.039031897298997364e+00
