1.269384357333183289e+01 -3.339292943477630615e+00 -5.378739623352828403e-01
1.352856037020683289e+01 -3.587461888790130615e+00 -5.508744506165328403e-01
1.455443927645683289e+01 -3.904356420040130615e+00 -5.681473998352828403e-01
1.489818927645683289e+01 -3.892637670040130615e+00 -5.650193480774703403e-01
1.493200275301933289e+01 -3.740171849727630615e+00 -5.532548217102828403e-01
1.496581622958183289e+01 -3.588316380977630615e+00 -5.415360717102828403e-01
1.499950763583183289e+01 -3.436460912227630615e+00 -5.298173217102828403e-01
1.502209064364433289e+01 -3.281309545040130615e+00 -5.183121947571578403e-01
1.273022052645683289e+01 -3.361753880977630615e+00 -4.781968383118453403e-01
1.357006427645683289e+01 -3.612120091915130615e+00 -4.876572875305953403e-01
1.458349201083183289e+01 -3.923155248165130615e+00 -4.993607787415328403e-01
1.582177326083183289e+01 -4.311216771602630615e+00 -5.146806029602828403e-01
1.702990314364433289e+01 -4.658750951290130615e+00 -5.273301390930953403e-01
1.705627033114433289e+01 -4.479063451290130615e+00 -5.137803344055953403e-01
1.707104083895683289e+01 -4.294859349727630615e+00 -5.004594115540328403e-01
1.712499591708183289e+01 -4.128355443477630615e+00 -4.875809935852828403e-01
1.276684162020683289e+01 -3.384458959102630615e+00 -4.181229857727828403e-01
1.361205646395683289e+01 -3.637144505977630615e+00 -4.236619262024703403e-01
1.461974689364433289e+01 -3.945372045040130615e+00 -4.307572631165328403e-01
1.588891193270683289e+01 -4.347227513790130615e+00 -4.406907347962203403e-01
1.754662677645683289e+01 -4.890196263790130615e+00 -4.549577025696578403e-01
1.981505939364433289e+01 -5.654722630977630615e+00 -4.760300902649703403e-01
2.059484454989433289e+01 -5.753477513790130615e+00 -4.714829711243453403e-01
2.068566486239433289e+01 -5.560972630977630615e+00 -4.562699584290328403e-01
1.395519611239433289e+01 -3.964659154415130615e+00 -3.749863890930953403e-01
1.449743244051933289e+01 -4.060240209102630615e+00 -3.709275512024703403e-01
1.476623126864433289e+01 -4.018248021602630615e+00 -3.628251342102828403e-01
1.595714923739433289e+01 -4.383726537227630615e+00 -3.656022338196578403e-01
1.760399982333183289e+01 -4.921812474727630615e+00 -3.717210082337203403e-01
1.994762775301933289e+01 -5.718321263790130615e+00 -3.825852660462203403e-01
2.405578204989433289e+01 -7.188902318477630615e+00 -4.068467406555953403e-01
2.666454669833183289e+01 -7.965879857540130615e+00 -4.119584349915328403e-01
3.011474201083183289e+01 -1.180120700597763062e+01 -4.643265990540328403e-01
3.053393146395683289e+01 -1.164153903722763062e+01 -4.436356810852828403e-01
3.094872638583183289e+01 -1.147295993566513062e+01 -4.224259642884078403e-01
3.125085040926933289e+01 -1.124578708410263062e+01 -3.998734740540328403e-01
1.962365314364433289e+01 -5.809751927852630615e+00 -3.008591918274703403e-01
2.071532794833183289e+01 -6.051695287227630615e+00 -2.918412474915328403e-01
2.442516681551933289e+01 -7.350279271602630615e+00 -2.936875609680953403e-01
2.997411701083183289e+01 -1.174493259191513062e+01 -3.148820189759078403e-01
2.978588458895683289e+01 -1.129998630285263062e+01 -2.897507933899703403e-01
3.100805255770683289e+01 -1.151238864660263062e+01 -2.701127318665328403e-01
3.132006427645683289e+01 -1.128899997472763062e+01 -2.466752318665328403e-01
3.195226642489433289e+01 -1.120245212316513062e+01 -2.234818724915328403e-01
3.775207111239433289e+01 -1.330059665441513062e+01 -2.026078490540328403e-01
4.263561603426933289e+01 -1.488604587316513062e+01 -1.730057982727828403e-01
3.014123126864433289e+01 -1.183807224035263062e+01 -1.658646849915328403e-01
2.966344806551933289e+01 -1.125372165441513062e+01 -1.433732299134078403e-01
2.967699787020683289e+01 -1.091070407629013062e+01 -1.208207396790328403e-01
3.157751056551933289e+01 -1.141668552160263062e+01 -9.300396721809534029e-02
3.204211017489433289e+01 -1.125384372472763062e+01 -6.772015374153284029e-02
3.906127521395683289e+01 -1.387188571691513062e+01 -1.332257073372034029e-02
4.230651447176933289e+01 -1.476592868566513062e+01 3.224017340690465971e-02
2.950072833895683289e+01 -1.153887790441513062e+01 -2.037213128059534029e-02
2.969189044833183289e+01 -1.127886813879013062e+01 2.805969305342159714e-03
2.991906329989433289e+01 -1.103399509191513062e+01 2.709796149284215971e-02
3.186242267489433289e+01 -1.155694431066513062e+01 6.437518317252965971e-02
3.768651935458183289e+01 -1.373614352941513062e+01 1.377546997740921597e-01
3.778075763583183289e+01 -1.334136813879013062e+01 1.658613892272171597e-01
4.269103595614433289e+01 -1.494097751379013062e+01 2.414992066100296597e-01
3.065075275301933289e+01 -1.210992282629013062e+01 1.385786743834671597e-01
2.933471271395683289e+01 -1.112127536535263062e+01 1.457045288756546597e-01
2.988940021395683289e+01 -1.103191989660263062e+01 1.734450073912796597e-01
3.121837970614433289e+01 -1.127947849035263062e+01 2.118818970397171597e-01
3.181982013583183289e+01 -1.118108981847763062e+01 2.420637818053421597e-01
3.754467365145683289e+01 -1.325506442785263062e+01 3.463728638365921597e-01
3.815356037020683289e+01 -1.307647556066513062e+01 3.817122193053421597e-01
2.953344318270683289e+01 -1.157842868566513062e+01 2.727644653990921597e-01
2.927440997958183289e+01 -1.110430759191513062e+01 2.891829224303421597e-01
3.015343829989433289e+01 -1.116570895910263062e+01 3.246138306334671597e-01
3.771166583895683289e+01 -1.421526950597763062e+01 4.808485718444046597e-01
8.113964435458183289e+01 -3.281390231847763062e+01 1.315183898992842160e+00
3.800024005770683289e+01 -1.346368259191513062e+01 5.379622193053421597e-01
3.132067462801933289e+01 -1.246075290441513062e+01 4.570601196959671597e-01
2.942089435458183289e+01 -1.118548434972763062e+01 4.373457642272171597e-01
2.987768146395683289e+01 -1.104986423254013062e+01 4.672987671569046597e-01
3.775670978426933289e+01 -1.425030368566513062e+01 6.681959839537796597e-01
3.804857990145683289e+01 -1.393841403722763062e+01 7.001936646178421597e-01
3.805822345614433289e+01 -1.350286716222763062e+01 7.255079956725296597e-01
3.108507892489433289e+01 -1.235845798254013062e+01 6.062910767272171597e-01
3.119579669833183289e+01 -1.204058688879013062e+01 6.296828003600296597e-01
3.330114337801933289e+01 -1.264703220129013062e+01 7.075331421569046597e-01
3.762157794833183289e+01 -1.420403903722763062e+01 8.500502320006546597e-01
3.815587970614433289e+01 -1.400005954504013062e+01 8.895552368834671597e-01
3.071410724520683289e+01 -1.218987888097763062e+01 7.498152466490921597e-01
3.768127033114433289e+01 -1.513775485754013062e+01 9.904921265319046597e-01
3.754723712801933289e+01 -1.462823337316513062e+01 1.009001037664717160e+00
3.737804767489433289e+01 -1.410870212316513062e+01 1.027052185125654660e+00
3.780419513583183289e+01 -1.386016696691513062e+01 1.064619323797529660e+00
8.163402912020683289e+01 -3.217108005285263062e+01 2.590116760320967160e+00
3.801427814364433289e+01 -1.576690524816513062e+01 1.166395446844404660e+00
3.742968341708183289e+01 -1.503301852941513062e+01 1.168318054266279660e+00
3.788891193270683289e+01 -1.480169528722763062e+01 1.208357116766279660e+00
3.681823322176933289e+01 -1.387029880285263062e+01 1.190626403875654660e+00
8.201208087801933289e+01 -3.332391208410263062e+01 2.960615417547529660e+00
8.167419025301933289e+01 -3.221966403722763062e+01 2.996687194891279660e+00
8.322716876864433289e+01 -3.095904392004013062e+01 3.156736633367842160e+00
5.489281818270683289e+01 -2.403106540441513062e+01 2.054395935125654660e+00
5.934984943270683289e+01 -2.549212497472763062e+01 2.272474548406904660e+00
5.416588947176933289e+01 -2.237444919347763062e+01 2.087415954656904660e+00
7.905553790926933289e+01 -3.298687595129013062e+01 3.191892883367842160e+00
8.085644122958183289e+01 -3.284686130285263062e+01 3.316816589422529660e+00
8.929430744051933289e+01 -3.551641696691513062e+01 3.737242004461592160e+00
8.903930255770683289e+01 -3.436981052160263062e+01 3.777372619695967160e+00
3.719909259676933289e+01 -1.539886325597763062e+01 1.509046814031904660e+00
3.797716876864433289e+01 -1.532391208410263062e+01 1.566877624578779660e+00
3.761327716708183289e+01 -1.470342868566513062e+01 1.571104309149092160e+00
7.899401447176933289e+01 -3.299029392004013062e+01 3.584821960516279660e+00
8.240392658114433289e+01 -3.356048434972763062e+01 3.795439025945967160e+00
8.324572345614433289e+01 -3.295672458410263062e+01 3.882948181219404660e+00
8.885082599520683289e+01 -3.432525485754013062e+01 4.208570739813154660e+00
8.932775470614433289e+01 -3.349566501379013062e+01 4.281400940008467160e+00
3.789428302645683289e+01 -1.575420993566513062e+01 1.731580993719404660e+00
3.664086505770683289e+01 -1.470123142004013062e+01 1.686140319891279660e+00
5.377038165926933289e+01 -2.223345798254013062e+01 2.607633850164717160e+00
8.074962970614433289e+01 -3.381670993566513062e+01 4.071851989813154660e+00
8.193554279208183289e+01 -3.338580173254013062e+01 4.179289123602217160e+00
8.296752521395683289e+01 -3.286920017004013062e+01 4.279295227117842160e+00
8.069286701083183289e+01 -3.095281833410263062e+01 4.198911926336592160e+00
7.972936603426933289e+01 -2.963323825597763062e+01 4.190229675360029660e+00
3.590404865145683289e+01 -1.479437106847763062e+01 1.808195373602217160e+00
3.639403888583183289e+01 -1.459795993566513062e+01 1.855131408758467160e+00
5.367113849520683289e+01 -2.220867770910263062e+01 2.871336242742842160e+00
8.100121662020683289e+01 -3.396270602941513062e+01 4.491346618719404660e+00
8.009667560458183289e+01 -3.260601657629013062e+01 4.480268737860029660e+00
8.048656818270683289e+01 -3.183526462316513062e+01 4.544630310125654660e+00
8.093004962801933289e+01 -3.108270114660263062e+01 4.612379333563154660e+00
7.988549396395683289e+01 -2.972674411535263062e+01 4.590330383367842160e+00
3.583898517489433289e+01 -1.477691501379013062e+01 1.984403869695967160e+00
3.603344318270683289e+01 -1.444012302160263062e+01 2.014616272039717160e+00
3.637255451083183289e+01 -1.416973727941513062e+01 2.052961608953779660e+00
8.106872150301933289e+01 -3.402520602941513062e+01 4.899763366766279660e+00
8.233422443270683289e+01 -3.362591403722763062e+01 5.020841857977217160e+00
7.998412677645683289e+01 -3.165008395910263062e+01 4.910383483953779660e+00
8.017003986239433289e+01 -3.079571384191513062e+01 4.963773986883467160e+00
8.331994220614433289e+01 -3.115350192785263062e+01 5.208311340399092160e+00
3.614904376864433289e+01 -1.494366306066513062e+01 2.185148498602217160e+00
3.561132404208183289e+01 -1.425250095129013062e+01 2.165388366766279660e+00
3.649254962801933289e+01 -1.424004977941513062e+01 2.242216369695967160e+00
8.298498126864433289e+01 -3.492779392004013062e+01 5.437589904852217160e+00
7.952294513583183289e+01 -3.241473239660263062e+01 5.238767883367842160e+00
7.813061115145683289e+01 -3.088311618566513062e+01 5.179746887274092160e+00
8.746374103426933289e+01 -3.388006442785263062e+01 5.867704650945967160e+00
8.973644611239433289e+01 -3.379693454504013062e+01 6.070280334539717160e+00
1.502172443270683289e+01 -3.280699193477630615e+00 -5.182511596009078403e-01
1.506591388583183289e+01 -3.134703099727630615e+00 -5.070206908509078403e-01
1.511754962801933289e+01 -2.991758763790130615e+00 -4.963242797180953403e-01
1.516930744051933289e+01 -2.848326146602630615e+00 -4.855973510071578403e-01
1.522094318270683289e+01 -2.705381810665130615e+00 -4.749009398743453403e-01
1.527257892489433289e+01 -2.562437474727630615e+00 -4.642197875305953403e-01
1.532433673739433289e+01 -2.419004857540130615e+00 -4.534776000305953403e-01
1.536559650301933289e+01 -2.272764623165130615e+00 -4.429795531555953403e-01
1.712560626864433289e+01 -4.127989232540130615e+00 -4.875504760071578403e-01
1.720348712801933289e+01 -3.971006810665130615e+00 -4.756028441712203403e-01
1.729162189364433289e+01 -3.817442357540130615e+00 -4.633652953430953403e-01
1.736742755770683289e+01 -3.658140599727630615e+00 -4.512803344055953403e-01
1.742675372958183289e+01 -3.493223607540130615e+00 -4.389512328430953403e-01
1.748620197176933289e+01 -3.328428685665130615e+00 -4.266221312805953403e-01
1.754040119051933289e+01 -3.161070287227630615e+00 -4.145982054993453403e-01
1.763671466708183289e+01 -3.008116185665130615e+00 -4.027573851868453403e-01
2.068651935458183289e+01 -5.560484349727630615e+00 -4.562241820618453403e-01
2.075866290926933289e+01 -5.360411107540130615e+00 -4.412553099915328403e-01
2.083068439364433289e+01 -5.160337865352630615e+00 -4.262864379212203403e-01
2.092370197176933289e+01 -4.967100560665130615e+00 -4.115159301087203403e-01
2.102379962801933289e+01 -4.776670873165130615e+00 -3.968369750305953403e-01
2.112426349520683289e+01 -4.585752904415130615e+00 -3.821122435852828403e-01
2.122545978426933289e+01 -4.393736302852630615e+00 -3.672959594055953403e-01
2.132470294833183289e+01 -4.201231420040130615e+00 -3.524796752259078403e-01
2.666613361239433289e+01 -7.965513646602630615e+00 -4.118973998352828403e-01
2.685424396395683289e+01 -7.742002904415130615e+00 -3.925187377259078403e-01
2.699694415926933289e+01 -7.499082982540130615e+00 -3.733384398743453403e-01
2.714049884676933289e+01 -7.254332005977630615e+00 -3.540208129212203403e-01
2.736803790926933289e+01 -7.039366185665130615e+00 -3.351914672180953403e-01
2.770544025301933289e+01 -6.859312474727630615e+00 -3.166978148743453403e-01
2.810802814364433289e+01 -6.694639623165130615e+00 -2.980668334290328403e-01
2.841918537020683289e+01 -6.494688451290130615e+00 -2.794358519837203403e-01
4.998730060458183289e+01 -1.400311130285263062e+01 -1.553818969055953403e-01
4.978771564364433289e+01 -1.339788669347763062e+01 -1.196152953430953403e-01
4.993322345614433289e+01 -1.400262302160263062e+01 8.259417731315465971e-02
4.974938556551933289e+01 -1.340276950597763062e+01 1.153547974303421597e-01
5.009606525301933289e+01 -1.407440036535263062e+01 3.210890503600296597e-01
4.990136310458183289e+01 -1.346905368566513062e+01 3.533919068053421597e-01
5.049242755770683289e+01 -1.422454684972763062e+01 5.647719116881546597e-01
5.031432697176933289e+01 -1.362005466222763062e+01 5.958235474303421597e-01
5.179711505770683289e+01 -1.467938083410263062e+01 8.316939087584671597e-01
5.392785236239433289e+01 -1.480828708410263062e+01 9.092695923522171597e-01
5.353405353426933289e+01 -1.527996677160263062e+01 1.120710632391279660e+00
5.388988849520683289e+01 -1.481463474035263062e+01 1.163847229070967160e+00
8.323046466708183289e+01 -3.095709079504013062e+01 3.157026550360029660e+00
8.918993732333183289e+01 -3.343633884191513062e+01 4.274626037664717160e+00
8.347448322176933289e+01 -3.016595309972763062e+01 4.033567688055342160e+00
7.972790119051933289e+01 -2.962957614660263062e+01 4.190305969305342160e+00
8.051281329989433289e+01 -2.902899020910263062e+01 4.275556823797529660e+00
7.988622638583183289e+01 -2.972381442785263062e+01 4.590513488836592160e+00
8.321093341708183289e+01 -3.012408298254013062e+01 4.834974548406904660e+00
8.308153888583183289e+01 -3.105328220129013062e+01 5.192884704656904660e+00
8.399169513583183289e+01 -3.046380466222763062e+01 5.295149108953779660e+00
8.041198322176933289e+01 -2.999822849035263062e+01 5.415083190985029660e+00
1.536608478426933289e+01 -2.272398412227630615e+00 -4.429490355774703403e-01
1.542821857333183289e+01 -2.132749974727630615e+00 -4.325272826477828403e-01
1.549621173739433289e+01 -1.994322240352630615e+00 -4.225480346009078403e-01
1.556457111239433289e+01 -1.854917943477630615e+00 -4.124924926087203403e-01
1.563305255770683289e+01 -1.715513646602630615e+00 -4.024369506165328403e-01
1.570177814364433289e+01 -1.575498998165130615e+00 -3.923508910462203403e-01
1.577086994051933289e+01 -1.434629857540130615e+00 -3.821885375305953403e-01
1.583007404208183289e+01 -1.291197240352630615e+00 -3.722703246399703403e-01
1.763708087801933289e+01 -3.007627904415130615e+00 -4.027268676087203403e-01
1.771972247958183289e+01 -2.849546849727630615e+00 -3.911301879212203403e-01
1.781554767489433289e+01 -2.694639623165130615e+00 -3.791978148743453403e-01
1.789928790926933289e+01 -2.534483373165130615e+00 -3.674638060852828403e-01
1.798302814364433289e+01 -2.374205052852630615e+00 -3.557145385071578403e-01
1.806701251864433289e+01 -2.213316380977630615e+00 -3.439042357727828403e-01
1.813842365145683289e+01 -2.047666966915130615e+00 -3.323380736634078403e-01
1.822289630770683289e+01 -1.885557591915130615e+00 -3.204514769837203403e-01
2.132628986239433289e+01 -4.200987279415130615e+00 -3.524491576477828403e-01
2.147191974520683289e+01 -4.022154271602630615e+00 -3.384415892884078403e-01
2.161889240145683289e+01 -3.841734349727630615e+00 -3.243272094055953403e-01
2.176757404208183289e+01 -3.659239232540130615e+00 -3.100449828430953403e-01
2.191711017489433289e+01 -3.475767552852630615e+00 -2.956864623352828403e-01
2.206811115145683289e+01 -3.290708959102630615e+00 -2.812058715149703403e-01
2.233629962801933289e+01 -3.133116185665130615e+00 -2.669999388977828403e-01
2.273131915926933289e+01 -3.003233373165130615e+00 -2.529771117493453403e-01
2.842138263583183289e+01 -6.494322240352630615e+00 -2.793748168274703403e-01
2.878112384676933289e+01 -6.304624974727630615e+00 -2.597214965149703403e-01
2.932714435458183289e+01 -6.164732396602630615e+00 -2.407700804993453403e-01
3.004223224520683289e+01 -6.062681615352630615e+00 -2.213151244446578403e-01
7.025439044833183289e+01 -1.696233981847763062e+01 -2.281205443665328403e-01
5.764391681551933289e+01 -1.223309177160263062e+01 -1.392533568665328403e-01
4.978795978426933289e+01 -1.339617770910263062e+01 -1.194932250305953403e-01
5.055492755770683289e+01 -1.309991306066513062e+01 -8.325360100715784029e-02
5.043481037020683289e+01 -1.252325290441513062e+01 -4.849407952278284029e-02
6.815124103426933289e+01 -1.712188571691513062e+01 4.598834235221715971e-02
6.584045001864433289e+01 -1.575335544347763062e+01 8.355548102409215971e-02
6.090697833895683289e+01 -1.373382419347763062e+01 1.051924439147171597e-01
5.681261798739433289e+01 -1.203753513097763062e+01 1.244795532897171597e-01
5.389721271395683289e+01 -1.072491306066513062e+01 1.450026245787796597e-01
4.974938556551933289e+01 -1.340093845129013062e+01 1.154768677428421597e-01
4.994042560458183289e+01 -1.292559665441513062e+01 1.520674439147171597e-01
5.031969806551933289e+01 -1.250579684972763062e+01 1.888869019225296597e-01
6.680736896395683289e+01 -1.675482028722763062e+01 3.573897095397171597e-01
6.658117267489433289e+01 -1.598235934972763062e+01 4.005263062194046597e-01
6.972924396395683289e+01 -1.612591403722763062e+01 4.752028198912796597e-01
6.596044513583183289e+01 -1.441802829504013062e+01 4.835493775084671597e-01
5.388769122958183289e+01 -1.073992770910263062e+01 3.948805542662796597e-01
4.990111896395683289e+01 -1.346722263097763062e+01 3.535139771178421597e-01
5.010338947176933289e+01 -1.299358981847763062e+01 3.893263550475296597e-01
5.051012775301933289e+01 -1.258013767004013062e+01 4.277479859069046597e-01
6.869933673739433289e+01 -1.732720798254013062e+01 6.962111206725296597e-01
6.928637287020683289e+01 -1.676165622472763062e+01 7.497084351256546597e-01
6.781274005770683289e+01 -1.563299411535263062e+01 7.743666382506546597e-01
6.624389240145683289e+01 -1.451287692785263062e+01 7.955458374694046597e-01
6.376659747958183289e+01 -1.320696872472763062e+01 8.001082153990921597e-01
5.031518146395683289e+01 -1.361834567785263062e+01 5.959608765319046597e-01
5.060375568270683289e+01 -1.316717380285263062e+01 6.337721558287796597e-01
5.111889240145683289e+01 -1.278106540441513062e+01 6.769240112975296597e-01
6.773827716708183289e+01 -1.635113376379013062e+01 1.048460266180342160e+00
6.983568927645683289e+01 -1.620074313879013062e+01 1.132063171453779660e+00
6.667040607333183289e+01 -1.464483493566513062e+01 1.113172790594404660e+00
5.392907306551933289e+01 -1.480670017004013062e+01 9.094069214537796597e-01
5.227770587801933289e+01 -1.370855563879013062e+01 9.092543335631546597e-01
5.165649005770683289e+01 -1.296087497472763062e+01 9.292128296569046597e-01
6.630211994051933289e+01 -1.597076267004013062e+01 1.333479187078779660e+00
6.889733478426933289e+01 -1.597064059972763062e+01 1.437055847235029660e+00
6.931920978426933289e+01 -1.462872165441513062e+01 1.534208557195967160e+00
5.389062091708183289e+01 -1.481292575597763062e+01 1.163984558172529660e+00
5.172875568270683289e+01 -1.355438083410263062e+01 1.141905090399092160e+00
6.926781818270683289e+01 -1.682586520910263062e+01 1.727644226141279660e+00
6.941430255770683289e+01 -1.613299411535263062e+01 1.774748107977217160e+00
6.655749103426933289e+01 -1.465923923254013062e+01 1.734480163641279660e+00
6.658910724520683289e+01 -1.397161716222763062e+01 1.776167175360029660e+00
6.822716876864433289e+01 -1.728204196691513062e+01 1.979582092352217160e+00
6.637096759676933289e+01 -1.603448337316513062e+01 1.960584899969404660e+00
6.784716388583183289e+01 -1.573211520910263062e+01 2.049909851141279660e+00
6.994433185458183289e+01 -1.556121677160263062e+01 2.162000915594404660e+00
6.982152912020683289e+01 -1.479900974035263062e+01 2.199720642156904660e+00
6.733605548739433289e+01 -1.632830661535263062e+01 2.308820983953779660e+00
6.740185138583183289e+01 -1.563397067785263062e+01 2.351255676336592160e+00
6.675426837801933289e+01 -1.475408786535263062e+01 2.366148254461592160e+00
6.702733966708183289e+01 -1.626385349035263062e+01 2.612653991766279660e+00
6.783715412020683289e+01 -1.577422946691513062e+01 2.686155578680342160e+00
6.817187091708183289e+01 -1.443206638097763062e+01 2.780729553289717160e+00
6.898070880770683289e+01 -1.683758395910263062e+01 3.021620056219404660e+00
6.705163165926933289e+01 -1.558355563879013062e+01 2.969023010320967160e+00
6.771483966708183289e+01 -1.504852145910263062e+01 3.038847229070967160e+00
6.884594318270683289e+01 -1.462286227941513062e+01 3.131849548406904660e+00
6.908776447176933289e+01 -1.689092868566513062e+01 3.352125427313154660e+00
6.808410236239433289e+01 -1.588641208410263062e+01 3.337919494695967160e+00
6.804565021395683289e+01 -1.515716403722763062e+01 3.373502990789717160e+00
6.865417072176933289e+01 -1.459734958410263062e+01 3.444959899969404660e+00
6.894335529208183289e+01 -1.614300388097763062e+01 3.708616516180342160e+00
6.852379962801933289e+01 -1.532708591222763062e+01 4.042921325750654660e+00
1.582995197176933289e+01 -1.290586888790130615e+00 -3.722245482727828403e-01
1.592821857333183289e+01 -1.155943334102630615e+00 -3.624589232727828403e-01
1.608568927645683289e+01 -1.033140599727630615e+00 -3.536546019837203403e-01
1.624621173739433289e+01 -9.078964591026306152e-01 -3.446671752259078403e-01
1.640893146395683289e+01 -7.809433341026306152e-01 -3.355576781555953403e-01
1.657445880770683289e+01 -6.519150137901306152e-01 -3.262955931946578403e-01
1.674340412020683289e+01 -5.200790762901306152e-01 -3.168351439759078403e-01
1.691857501864433289e+01 -3.871445059776306152e-01 -3.076798705384078403e-01
1.822289630770683289e+01 -1.884947240352630615e+00 -3.204057006165328403e-01
1.829320880770683289e+01 -1.718443334102630615e+00 -3.088395385071578403e-01
1.864025470614433289e+01 -1.613707005977630615e+00 -2.986314086243453403e-01
1.909337970614433289e+01 -1.524717748165130615e+00 -2.890031127259078403e-01
1.956652423739433289e+01 -1.431700170040130615e+00 -2.789628295227828403e-01
1.988805744051933289e+01 -1.300230443477630615e+00 -2.676255492493453403e-01
2.050988361239433289e+01 -1.217588841915130615e+00 -2.575242308899703403e-01
2.212108966708183289e+01 -1.295347630977630615e+00 -2.494065551087203403e-01
2.273363849520683289e+01 -3.002989232540130615e+00 -2.529313353821578403e-01
2.312279865145683289e+01 -2.864439427852630615e+00 -2.389542846009078403e-01
2.406298419833183289e+01 -2.843077123165130615e+00 -2.255875853821578403e-01
2.630321857333183289e+01 -3.081968724727630615e+00 -2.125870971009078403e-01
6.206566974520683289e+01 -1.014227145910263062e+01 -2.162339476868453403e-01
4.975133869051933289e+01 -7.114317357540130615e+00 -1.761338500305953403e-01
4.158581134676933289e+01 -5.105162084102630615e+00 -1.494614867493453403e-01
4.596007892489433289e+01 -5.448179662227630615e+00 -1.160294799134078403e-01
6.751977130770683289e+01 -1.336846774816513062e+01 -4.037640374153284029e-02
6.262121173739433289e+01 -1.156341403722763062e+01 -9.187438897782840286e-03
4.691881915926933289e+01 -7.533018529415130615e+00 -2.176068108528284029e-02
6.243871662020683289e+01 -1.023821872472763062e+01 7.266070563346715971e-02
4.976806232333183289e+01 -7.132872045040130615e+00 5.306842047721715971e-02
4.158312579989433289e+01 -5.117369115352630615e+00 4.104449469596715971e-02
4.597802326083183289e+01 -5.465025365352630615e+00 9.347369391471715971e-02
5.387841388583183289e+01 -1.071832126379013062e+01 1.450026245787796597e-01
6.735595294833183289e+01 -1.335137790441513062e+01 2.718489380553421597e-01
6.257482501864433289e+01 -1.157281345129013062e+01 2.802107544615921597e-01
4.691674396395683289e+01 -7.547300755977630615e+00 1.939223023131546597e-01
4.158031818270683289e+01 -5.129454076290130615e+00 2.305891724303421597e-01
4.605834552645683289e+01 -5.492979466915130615e+00 3.050215454772171597e-01
5.386486408114433289e+01 -1.073235934972763062e+01 3.947584839537796597e-01
5.103564044833183289e+01 -9.503843724727630615e+00 3.982222290709671597e-01
4.883092853426933289e+01 -8.478208959102630615e+00 4.041273804381546597e-01
4.664391681551933289e+01 -7.502989232540130615e+00 4.073469849303421597e-01
4.457213947176933289e+01 -6.600767552852630615e+00 4.090712280944046597e-01
4.277685138583183289e+01 -5.797300755977630615e+00 4.119093628600296597e-01
4.119811603426933289e+01 -5.071348607540130615e+00 4.156019898131546597e-01
3.970653888583183289e+01 -4.396299779415130615e+00 4.174483032897171597e-01
6.371923419833183289e+01 -1.319293063879013062e+01 7.995131226256546597e-01
6.332360431551933289e+01 -1.243731540441513062e+01 8.336470337584671597e-01
6.156676837801933289e+01 -1.138384860754013062e+01 8.441603394225296597e-01
6.104455158114433289e+01 -1.063482517004013062e+01 8.739912720397171597e-01
4.296654865145683289e+01 -5.847593724727630615e+00 6.111586304381546597e-01
4.117797443270683289e+01 -5.080137670040130615e+00 6.031630249694046597e-01
3.963134357333183289e+01 -4.395079076290130615e+00 5.975477905944046597e-01
6.373144122958183289e+01 -1.321661227941513062e+01 1.096250793524092160e+00
6.315746662020683289e+01 -1.241802829504013062e+01 1.124189636297529660e+00
6.404394122958183289e+01 -1.196636813879013062e+01 1.184309265203779660e+00
6.130883380770683289e+01 -1.071148532629013062e+01 1.163496276922529660e+00
6.222155353426933289e+01 -1.027129977941513062e+01 1.222273132391279660e+00
4.983617755770683289e+01 -6.700621068477630615e+00 9.994032593444046597e-01
6.932726642489433289e+01 -1.462823337316513062e+01 1.534544250555342160e+00
6.392638751864433289e+01 -1.262151950597763062e+01 1.438841125555342160e+00
6.198974201083183289e+01 -1.151922458410263062e+01 1.427244445867842160e+00
6.204235431551933289e+01 -1.088995212316513062e+01 1.466718933172529660e+00
6.229723712801933289e+01 -1.030633395910263062e+01 1.511518737860029660e+00
4.978673908114433289e+01 -6.706724584102630615e+00 1.227537414617842160e+00
6.658849689364433289e+01 -1.396905368566513062e+01 1.776289245672529660e+00
6.334020587801933289e+01 -1.250225681066513062e+01 1.718153259344404660e+00
6.314525958895683289e+01 -1.180230563879013062e+01 1.750425598211592160e+00
6.206029865145683289e+01 -1.091338962316513062e+01 1.754331848211592160e+00
6.432482501864433289e+01 -1.074554294347763062e+01 1.864439270086592160e+00
4.972082111239433289e+01 -6.709654271602630615e+00 1.453520080633467160e+00
6.981725665926933289e+01 -1.479534763097763062e+01 2.199705383367842160e+00
6.371203204989433289e+01 -1.261138767004013062e+01 2.027250549383467160e+00
6.306628009676933289e+01 -1.180438083410263062e+01 2.042127868719404660e+00
6.308227130770683289e+01 -1.115557712316513062e+01 2.080213806219404660e+00
4.968957111239433289e+01 -6.719053685665130615e+00 1.681547424383467160e+00
6.287670490145683289e+01 -1.178118747472763062e+01 2.327192565985029660e+00
6.296886798739433289e+01 -1.115069431066513062e+01 2.367750427313154660e+00
4.968041583895683289e+01 -6.732481420040130615e+00 1.909086486883467160e+00
5.052929279208183289e+01 -6.380430638790130615e+00 1.974256774969404660e+00
6.817040607333183289e+01 -1.442925876379013062e+01 2.780790588445967160e+00
6.316088458895683289e+01 -1.186614841222763062e+01 2.631956359930342160e+00
6.320263263583183289e+01 -1.122161716222763062e+01 2.670210144110029660e+00
4.967345783114433289e+01 -6.746519505977630615e+00 2.137983581610029660e+00
6.884423419833183289e+01 -1.461993259191513062e+01 3.131895324774092160e+00
4.961608478426933289e+01 -6.750914037227630615e+00 2.363050720281904660e+00
5.051964923739433289e+01 -6.409483373165130615e+00 2.438062927313154660e+00
6.866100665926933289e+01 -1.459649509191513062e+01 3.445448181219404660e+00
4.954186603426933289e+01 -6.752134740352630615e+00 2.586729309149092160e+00
5.056359454989433289e+01 -6.959654271602630615e+00 2.878401062078779660e+00
4.946044513583183289e+01 -6.251646459102630615e+00 2.836988708563154660e+00
4.599132892489433289e+01 -7.050230443477630615e+00 2.759992858953779660e+00
4.424047443270683289e+01 -6.233213841915130615e+00 2.669416687078779660e+00
5.066662189364433289e+01 -6.994566380977630615e+00 3.117735168524092160e+00
4.652148029208183289e+01 -5.742857396602630615e+00 2.869093200750654660e+00
4.989782306551933289e+01 -8.910093724727630615e+00 3.193617126531904660e+00
4.610888263583183289e+01 -7.561216771602630615e+00 2.957441589422529660e+00
4.619787189364433289e+01 -7.107847630977630615e+00 2.987669250555342160e+00
4.624633380770683289e+01 -6.646543920040130615e+00 3.015013000555342160e+00
4.174743244051933289e+01 -5.325865209102630615e+00 2.720304748602217160e+00
4.258129474520683289e+01 -5.053526341915130615e+00 2.801222107000654660e+00
4.993029376864433289e+01 -8.933531224727630615e+00 3.427519104070967160e+00
4.999889728426933289e+01 -8.432676732540130615e+00 3.458341857977217160e+00
4.617553302645683289e+01 -7.117613255977630615e+00 3.199186584539717160e+00
4.621190997958183289e+01 -6.653990209102630615e+00 3.225416442938154660e+00
4.155981037020683289e+01 -5.303160130977630615e+00 2.898649475164717160e+00
4.173168537020683289e+01 -4.914488255977630615e+00 2.932646057195967160e+00
4.987182208895683289e+01 -9.451719701290130615e+00 3.630705139227217160e+00
4.782030841708183289e+01 -7.477720677852630615e+00 3.543760559149092160e+00
5.021129962801933289e+01 -7.467466771602630615e+00 3.758222839422529660e+00
4.385119220614433289e+01 -5.750059545040130615e+00 3.273145935125654660e+00
4.182409259676933289e+01 -4.943785130977630615e+00 3.132246276922529660e+00
1.692016193270683289e+01 -3.869003653526306152e-01 -3.076493529602828403e-01
1.747716876864433289e+01 -3.131698966026306152e-01 -3.007523803040328403e-01
1.810485431551933289e+01 -2.394394278526306152e-01 -2.940079955384078403e-01
1.863842365145683289e+01 -1.392197012901306152e-01 -2.858903197571578403e-01
1.925927326083183289e+01 -4.095309972763061523e-02 -2.776047972962203403e-01
1.990111896395683289e+01 6.671291589736938477e-02 -2.686478881165328403e-01
1.466039630770683289e+01 8.486953377723693848e-01 -2.355057982727828403e-01
1.438146564364433289e+01 1.016419947147369385e+00 -2.260148314759078403e-01
2.213048908114433289e+01 -1.296202123165130615e+00 -2.493912963196578403e-01
2.348388263583183289e+01 -1.299620091915130615e+00 -2.390916137024703403e-01
2.516503497958183289e+01 -1.326231420040130615e+00 -2.271287230774703403e-01
4.316540119051933289e+01 -3.223326146602630615e+00 -2.070939330384078403e-01
3.352697345614433289e+01 -1.611998021602630615e+00 -1.801163939759078403e-01
1.467992755770683289e+01 8.424697518348693848e-01 -1.717850951477828403e-01
1.421300861239433289e+01 1.029847681522369385e+00 -1.635453490540328403e-01
4.595836994051933289e+01 -5.446226537227630615e+00 -1.159379271790328403e-01
4.318273517489433289e+01 -3.238096654415130615e+00 -1.172039788215784029e-02
3.352355548739433289e+01 -1.621153295040130615e+00 -2.946636956184534029e-02
1.470116779208183289e+01 8.360000252723693848e-01 -1.074998168274703403e-01
1.415990802645683289e+01 1.031434595584869385e+00 -1.019303588196578403e-01
4.597619220614433289e+01 -5.463194310665130615e+00 9.356524664909215971e-02
4.319140216708183289e+01 -3.251890599727630615e+00 1.848585816100296597e-01
3.352013751864433289e+01 -1.630430638790130615e+00 1.220381470397171597e-01
1.471337482333183289e+01 8.306289315223693848e-01 -4.309246819465784029e-02
1.415624591708183289e+01 1.027894556522369385e+00 -4.059002678840784029e-02
4.605248615145683289e+01 -5.490415990352630615e+00 3.050520630553421597e-01
4.296471759676933289e+01 -3.234068334102630615e+00 3.774397583678421597e-01
3.351671954989433289e+01 -1.639585912227630615e+00 2.727492066100296597e-01
1.473925372958183289e+01 8.235488533973693848e-01 2.131488043815465971e-02
1.412646076083183289e+01 1.027162134647369385e+00 2.067401129752965971e-02
3.969640704989433289e+01 -4.393125951290130615e+00 4.173720093444046597e-01
3.830114337801933289e+01 -3.766050755977630615e+00 4.201643677428421597e-01
3.697765704989433289e+01 -3.179502904415130615e+00 4.213850708678421597e-01
3.571813556551933289e+01 -2.628965795040130615e+00 4.220869751647171597e-01
3.453075763583183289e+01 -2.115904271602630615e+00 4.223921509459671597e-01
3.351330158114433289e+01 -1.648863255977630615e+00 4.243147583678421597e-01
1.472899982333183289e+01 8.207412362098693848e-01 8.564593512565465971e-02
1.410534259676933289e+01 1.025453150272369385e+00 8.154132086784215971e-02
3.962145587801933289e+01 -4.392027318477630615e+00 5.974257202819046597e-01
3.824132892489433289e+01 -3.767637670040130615e+00 5.928175659850296597e-01
3.693151447176933289e+01 -3.183287084102630615e+00 5.879194946959671597e-01
3.568371173739433289e+01 -2.634458959102630615e+00 5.828078003600296597e-01
3.450939533114433289e+01 -2.122984349727630615e+00 5.776808472350296597e-01
3.341833087801933289e+01 -1.646665990352630615e+00 5.729811402037796597e-01
1.475670978426933289e+01 8.135390877723693848e-01 1.504652710631546597e-01
1.409716388583183289e+01 1.022523462772369385e+00 1.428816528990921597e-01
4.606920978426933289e+01 -5.072203099727630615e+00 9.644453736022171597e-01
4.283080646395683289e+01 -3.253721654415130615e+00 9.600203247740921597e-01
1.489611408114433289e+01 7.935195565223693848e-01 2.187330933287796597e-01
1.412182208895683289e+01 1.016053736209869385e+00 2.047865601256546597e-01
4.601757404208183289e+01 -5.077452123165130615e+00 1.174101135320967160e+00
4.278051349520683289e+01 -3.259336888790130615e+00 1.152693054266279660e+00
1.483080646395683289e+01 7.968154549598693848e-01 2.819197388365921597e-01
1.415099689364433289e+01 1.009095728397369385e+00 2.674391480162796597e-01
4.594848224520683289e+01 -5.079771459102630615e+00 1.381635925360029660e+00
5.080492755770683289e+01 -5.374937474727630615e+00 1.579374572820967160e+00
4.674950763583183289e+01 -4.274839818477630615e+00 1.464002868719404660e+00
4.152440997958183289e+01 -3.101866185665130615e+00 1.301100036688154660e+00
4.312829181551933289e+01 -2.890562474727630615e+00 1.384413024969404660e+00
1.420397540926933289e+01 9.996963143348693848e-01 3.309462280944046597e-01
4.587926837801933289e+01 -5.082090795040130615e+00 1.589720031805342160e+00
4.665026447176933289e+01 -4.742369115352630615e+00 1.646971008367842160e+00
4.672338458895683289e+01 -4.284849584102630615e+00 1.676924011297529660e+00
4.192296954989433289e+01 -3.168028295040130615e+00 1.506849548406904660e+00
4.333141681551933289e+01 -2.928648412227630615e+00 1.589445373602217160e+00
4.298339435458183289e+01 -2.457701146602630615e+00 1.599592468328779660e+00
1.426525470614433289e+01 9.894424080848693848e-01 3.956740112975296597e-01
5.053075763583183289e+01 -6.378965795040130615e+00 1.974409362860029660e+00
4.586938068270683289e+01 -5.094175755977630615e+00 1.798750183172529660e+00
5.060509845614433289e+01 -5.373960912227630615e+00 2.035703918524092160e+00
4.692626544833183289e+01 -4.328184545040130615e+00 1.898878357000654660e+00
4.150500079989433289e+01 -3.123472630977630615e+00 1.678068420477217160e+00
4.339428302645683289e+01 -2.949034154415130615e+00 1.788923523016279660e+00
1.438256427645683289e+01 9.730849862098693848e-01 4.633009644225296597e-01
4.584106037020683289e+01 -5.103331029415130615e+00 2.008009216375654660e+00
4.676635333895683289e+01 -4.788267552852630615e+00 2.078291198797529660e+00
4.512731525301933289e+01 -4.078794896602630615e+00 2.023298523016279660e+00
4.101720783114433289e+01 -3.069151341915130615e+00 1.842008850164717160e+00
4.345861408114433289e+01 -2.969664037227630615e+00 1.989118835516279660e+00
4.313537189364433289e+01 -2.500059545040130615e+00 1.997923156805342160e+00
1.453319904208183289e+01 9.531875252723693848e-01 5.341170044615921597e-01
5.052123615145683289e+01 -6.407896459102630615e+00 2.438230773992842160e+00
4.578429767489433289e+01 -5.107603490352630615e+00 2.214460632391279660e+00
4.414721271395683289e+01 -4.391416966915130615e+00 2.151991149969404660e+00
4.686242267489433289e+01 -4.346617162227630615e+00 2.324323913641279660e+00
4.095080158114433289e+01 -3.072081029415130615e+00 2.025633117742842160e+00
4.274645587801933289e+01 -2.892271459102630615e+00 2.147978088445967160e+00
4.293810626864433289e+01 -2.489439427852630615e+00 2.182432434149092160e+00
4.245397540926933289e+01 -4.564024388790130615e+00 2.230955383367842160e+00
4.398620197176933289e+01 -4.379332005977630615e+00 2.343977233953779660e+00
4.380688068270683289e+01 -3.911558568477630615e+00 2.357740661688154660e+00
4.241247150301933289e+01 -3.283995091915130615e+00 2.298765441961592160e+00
4.286217853426933289e+01 -2.919371068477630615e+00 2.349043151922529660e+00
4.315197345614433289e+01 -2.526670873165130615e+00 2.390135070867842160e+00
4.236046954989433289e+01 -2.015806615352630615e+00 2.366209289617842160e+00
4.946032306551933289e+01 -6.249937474727630615e+00 2.837065002508467160e+00
4.678942462801933289e+01 -5.303648412227630615e+00 2.697126648016279660e+00
4.423437091708183289e+01 -4.431456029415130615e+00 2.561460754461592160e+00
4.383971759676933289e+01 -3.929258763790130615e+00 2.560529968328779660e+00
4.230761310458183289e+01 -3.282041966915130615e+00 2.485960266180342160e+00
4.277086994051933289e+01 -2.920225560665130615e+00 2.538893005438154660e+00
4.286278888583183289e+01 -2.505308568477630615e+00 2.568098327703779660e+00
4.242235919833183289e+01 -2.034483373165130615e+00 2.562177917547529660e+00
4.507885333895683289e+01 -5.484190404415130615e+00 2.772962829656904660e+00
4.688293048739433289e+01 -5.333311498165130615e+00 2.917570373602217160e+00
4.599486896395683289e+01 -4.722349584102630615e+00 2.882765075750654660e+00
4.059850665926933289e+01 -3.464170873165130615e+00 2.538954040594404660e+00
4.051354572176933289e+01 -3.047911107540130615e+00 2.554899475164717160e+00
4.154809162020683289e+01 -2.777037084102630615e+00 2.648405334539717160e+00
4.291772052645683289e+01 -2.524107396602630615e+00 2.766493103094404660e+00
4.222655841708183289e+01 -2.025694310665130615e+00 2.741651794500654660e+00
4.258166095614433289e+01 -5.052061498165130615e+00 2.801313659735029660e+00
4.193981525301933289e+01 -4.515806615352630615e+00 2.777967712469404660e+00
4.553124591708183289e+01 -4.662779271602630615e+00 3.060560485906904660e+00
4.115710040926933289e+01 -3.558653295040130615e+00 2.765623352117842160e+00
4.040539142489433289e+01 -3.044981420040130615e+00 2.732191345281904660e+00
4.043285724520683289e+01 -2.646910130977630615e+00 2.755598327703779660e+00
4.381469318270683289e+01 -2.641783177852630615e+00 3.029356262274092160e+00
4.282201740145683289e+01 -2.101499974727630615e+00 2.977827331610029660e+00
4.163061115145683289e+01 -4.894957005977630615e+00 2.925031921453779660e+00
4.218639728426933289e+01 -4.570005834102630615e+00 2.989622375555342160e+00
4.326806232333183289e+01 -4.318052709102630615e+00 3.094251892156904660e+00
4.097765704989433289e+01 -3.544248998165130615e+00 2.939283630438154660e+00
4.075487872958183289e+01 -3.104917943477630615e+00 2.943357727117842160e+00
4.041149494051933289e+01 -2.655943334102630615e+00 2.937650940008467160e+00
4.395141193270683289e+01 -2.670469701290130615e+00 3.240370056219404660e+00
4.223583576083183289e+01 -2.050718724727630615e+00 3.126371643133467160e+00
4.182433673739433289e+01 -4.942320287227630615e+00 3.132337829656904660e+00
4.226598712801933289e+01 -4.596128880977630615e+00 3.189070007391279660e+00
4.214220783114433289e+01 -4.152281224727630615e+00 3.200987121649092160e+00
4.308080646395683289e+01 -3.868467748165130615e+00 3.300230285711592160e+00
4.092614337801933289e+01 -3.140562474727630615e+00 3.144087097235029660e+00
4.032274982333183289e+01 -2.656309545040130615e+00 3.114927551336592160e+00
4.097057697176933289e+01 -2.331480443477630615e+00 3.190138122625654660e+00
4.219054767489433289e+01 -2.057920873165130615e+00 3.315214416570967160e+00
4.240282794833183289e+01 -2.015318334102630615e+00 2.592497131414717160e+00
1.427685138583183289e+01 1.195252954959869385e+00 7.395308228209671597e-01
4.687609454989433289e+01 -5.376646459102630615e+00 2.941740295477217160e+00
4.681713458895683289e+01 -4.888121068477630615e+00 2.965315124578779660e+00
4.057250568270683289e+01 -3.474790990352630615e+00 2.565031311102217160e+00
4.070763751864433289e+01 -3.079649388790130615e+00 2.598203918524092160e+00
4.208385822176933289e+01 -2.845274388790130615e+00 2.717832824774092160e+00
4.242675372958183289e+01 -2.460508763790130615e+00 2.766432067938154660e+00
1.496996662020683289e+01 9.713760018348693848e-01 8.462660523131546597e-01
1.426269122958183289e+01 1.192323267459869385e+00 8.044417114928421597e-01
4.209460040926933289e+01 -4.575865209102630615e+00 2.816938659735029660e+00
4.550475665926933289e+01 -4.692686498165130615e+00 3.088987609930342160e+00
4.368285724520683289e+01 -3.954893529415130615e+00 2.981031677313154660e+00
4.039733478426933289e+01 -3.049009740352630615e+00 2.764204284735029660e+00
4.187450763583183289e+01 -2.831114232540130615e+00 2.897306701727217160e+00
4.276574298739433289e+01 -2.514219701290130615e+00 2.988172790594404660e+00
4.229589435458183289e+01 -2.029722630977630615e+00 2.978437683172529660e+00
1.431457111239433289e+01 1.182801783084869385e+00 8.746168823912796597e-01
4.219115802645683289e+01 -4.606016576290130615e+00 3.021543762274092160e+00
4.206994220614433289e+01 -4.155088841915130615e+00 3.035444519110029660e+00
4.512231037020683289e+01 -4.185484349727630615e+00 3.297148010320967160e+00
4.040600177645683289e+01 -3.063047826290130615e+00 2.953398010320967160e+00
4.039184162020683289e+01 -2.651304662227630615e+00 2.975385925360029660e+00
4.069799396395683289e+01 -2.279234349727630615e+00 3.022779724188154660e+00
4.222204181551933289e+01 -2.034605443477630615e+00 3.168104431219404660e+00
1.455663654208183289e+01 1.154237329959869385e+00 9.606459351256546597e-01
4.055309650301933289e+01 -2.667662084102630615e+00 2.654783508367842160e+00
1.551940509676933289e+01 8.095107674598693848e-01 9.060042114928421597e-01
4.235729572176933289e+01 -2.033750951290130615e+00 2.832319519110029660e+00
4.216027423739433289e+01 -1.577574193477630615e+00 2.844602844305342160e+00
4.293175861239433289e+01 -1.216856420040130615e+00 2.925749084539717160e+00
4.210827228426933289e+01 -4.198057591915130615e+00 2.889417907781904660e+00
4.373693439364433289e+01 -4.009581029415130615e+00 3.033659240789717160e+00
4.117834064364433289e+01 -3.191099584102630615e+00 2.869642517156904660e+00
4.045214435458183289e+01 -2.667295873165130615e+00 2.839903137274092160e+00
4.274926349520683289e+01 -2.531065404415130615e+00 3.037382385320967160e+00
1.481689044833183289e+01 1.048280298709869385e+00 9.380629273131546597e-01
1.442028400301933289e+01 1.246766626834869385e+00 9.167769165709671597e-01
1.443688556551933289e+01 1.398255884647369385e+00 9.272597046569046597e-01
4.071911212801933289e+01 -2.337950170040130615e+00 2.972318908758467160e+00
4.224718829989433289e+01 -2.086973607540130615e+00 3.114179870672529660e+00
4.321300861239433289e+01 -1.746641576290130615e+00 3.213926574774092160e+00
4.247826740145683289e+01 -1.223936498165130615e+00 3.181501648016279660e+00
3.387804767489433289e+01 -4.571384191513061523e-02 2.528028747625654660e+00
3.232995197176933289e+01 9.109511971473693848e-01 2.637129089422529660e+00
3.173363849520683289e+01 1.339173853397369385e+00 2.615141174383467160e+00
3.176769611239433289e+01 1.718812525272369385e+00 2.643293640203779660e+00
3.199010822176933289e+01 2.087953150272369385e+00 2.687635681219404660e+00
9.187617987394332886e+00 7.191712915897369385e+00 1.758848449774092160e+00
1.207482501864433289e+01 7.657899439334869385e+00 2.055586120672529660e+00
1.370836994051933289e+01 8.094178736209869385e+00 2.237089416570967160e+00
6.320064276456832886e+00 7.846131861209869385e+00 1.552305481024092160e+00
6.460933417081832886e+00 8.125550806522369385e+00 1.587034484930342160e+00
5.302608221769332886e+00 8.277772486209869385e+00 1.495374939031904660e+00
5.328365057706832886e+00 8.159242212772369385e+00 1.593717834539717160e+00
5.240596503019332886e+00 8.421205103397369385e+00 1.606474182195967160e+00
5.588008612394332886e+00 8.729676783084869385e+00 1.662870666570967160e+00
7.092036932706832886e+00 9.180848658084869385e+00 1.837507507391279660e+00
8.250362128019332886e+00 1.010760647058486938e+01 2.098707458563154660e+00
6.900752753019332886e+00 9.098573267459869385e+00 1.803831359930342160e+00
6.156856268644332886e+00 8.110169947147369385e+00 1.798658630438154660e+00
5.249995917081832886e+00 8.331605494022369385e+00 1.730894348211592160e+00
5.087154120206832886e+00 8.606507837772369385e+00 1.737760803289717160e+00
6.276851385831832886e+00 9.022767603397369385e+00 1.882429382391279660e+00
8.577022284269332886e+00 9.591249048709869385e+00 2.143186828680342160e+00
8.171016424894332886e+00 9.866395533084869385e+00 2.127317688055342160e+00
8.234370917081832886e+00 1.019891506433486938e+01 2.159940979070967160e+00
1.001012775301933289e+01 1.035431057214736938e+01 1.956968566961592160e+00
3.014766424894332886e+00 1.035162502527236938e+01 1.389814636297529660e+00
3.118404120206832886e+00 1.035919338464736938e+01 1.533766052313154660e+00
6.171992987394332886e+00 9.207704126834869385e+00 1.855314514227217160e+00
6.089351385831832886e+00 9.519837915897369385e+00 1.871610900945967160e+00
8.244380682706832886e+00 1.011126857995986938e+01 2.112562439031904660e+00
2.577754706144332886e+00 1.055682522058486938e+01 1.636274597235029660e+00
8.243282049894332886e+00 1.019220119714736938e+01 2.038877746649092160e+00
2.929683417081832886e+00 1.042132717370986938e+01 1.593504211492842160e+00
1.032177326083183289e+01 1.055023342370986938e+01 1.856931945867842160e+00
2.879512518644332886e+00 1.052484279870986938e+01 1.286558410711592160e+00
1.027257892489433289e+01 1.053228908777236938e+01 2.026579162664717160e+00
