-8.864268362522125244e+00 2.879990395158529282e+00 -2.050493782386126895e-01
-9.060557425022125244e+00 2.813950356096029282e+00 -2.015398567542376895e-01
-9.266612112522125244e+00 2.744736488908529282e+00 -1.978624885901751895e-01
-9.481455862522125244e+00 2.672470863908529282e+00 -1.940325325354876895e-01
-9.687510550022125244e+00 2.595444496721029282e+00 -1.901262825354876895e-01
-9.897105276584625244e+00 2.514389809221029282e+00 -1.860521858558001895e-01
-1.011463457345962524e+01 2.429917152971029282e+00 -1.815966194495501895e-01
-8.694834768772125244e+00 2.946640785783529282e+00 -1.697710579261126895e-01
-8.862559378147125244e+00 2.881089027971029282e+00 -1.657427376136126895e-01
-9.036875784397125244e+00 2.812851723283529282e+00 -1.615618294104876895e-01
-9.218882620334625244e+00 2.741806801408529282e+00 -1.572130745276751895e-01
-9.407725393772125244e+00 2.667954262346029282e+00 -1.526812141761126895e-01
-9.604380667209625244e+00 2.591172035783529282e+00 -1.479662483558001895e-01
-9.810191214084625244e+00 2.510727699846029282e+00 -1.430376594886126895e-01
-1.002430254220962524e+01 2.426987465471029282e+00 -1.379107063636126895e-01
-8.628184378147125244e+00 2.939804848283529282e+00 -1.320818489417376895e-01
-8.793223440647125244e+00 2.874741371721029282e+00 -1.273668831214251895e-01
-8.965098440647125244e+00 2.806992348283529282e+00 -1.226824348792376895e-01
-9.144175589084625244e+00 2.736435707658529282e+00 -1.175859993323626895e-01
-9.345469534397125244e+00 2.664414223283529282e+00 -1.120775764808001895e-01
-9.574473440647125244e+00 2.590439613908529282e+00 -1.060503548011126895e-01
-9.816416800022125244e+00 2.512436684221029282e+00 -9.944329913705018953e-02
-1.006959062814712524e+01 2.430649574846029282e+00 -9.277520831673768953e-02
-8.610117971897125244e+00 2.938828285783529282e+00 -9.416375812142518953e-02
-8.803477346897125244e+00 2.877060707658529282e+00 -8.842645343392518953e-02
-9.006236135959625244e+00 2.812363442033529282e+00 -8.220086749642518953e-02
-9.219492971897125244e+00 2.744370277971029282e+00 -7.567010577767518953e-02
-9.442271292209625244e+00 2.673325356096029282e+00 -6.883416827767518953e-02
-9.676280081272125244e+00 2.598740395158529282e+00 -6.166253741830018953e-02
-9.922984182834625244e+00 2.520127113908529282e+00 -5.409417804330018953e-02
-1.537000566720962524e+01 2.692734535783529282e+00 5.650152508169981047e-02
-1.118628984689712524e+01 2.456040199846029282e+00 -9.716661995276751895e-01
-1.125220781564712524e+01 2.350571449846029282e+00 -9.721697395667376895e-01
-1.131446367502212524e+01 2.243637856096029282e+00 -9.726427620276751895e-01
-1.137757402658462524e+01 2.135117348283529282e+00 -9.731310432776751895e-01
-1.144129472970962524e+01 2.025742348283529282e+00 -9.736193245276751895e-01
-1.150562578439712524e+01 1.915146645158529282e+00 -9.741076057776751895e-01
-1.190284258127212524e+01 1.798447426408529282e+00 -9.963854378089251895e-01
-1.185389238595962524e+01 1.684677895158529282e+00 -9.895647590979876895e-01
-1.469739824533462524e+01 2.620835121721029282e+00 -1.143113953433925190e+00
-1.477430254220962524e+01 2.480698402971029282e+00 -1.143083435855800190e+00
-1.486951738595962524e+01 2.339585121721029282e+00 -1.143800598941737690e+00
-1.496546465158462524e+01 2.196030434221029282e+00 -1.144822937808925190e+00
-1.506226640939712524e+01 2.051132973283529282e+00 -1.145845276676112690e+00
-1.302234941720962524e+01 1.911728676408529282e+00 -1.015748841129237690e+00
-1.297107988595962524e+01 1.785874184221029282e+00 -1.008622986637050190e+00
-1.292615801095962524e+01 1.661484535783529282e+00 -1.001634461246425190e+00
-1.485779863595962524e+01 2.630478676408529282e+00 -1.086320740543300190e+00
-1.493531328439712524e+01 2.488755043596029282e+00 -1.085924012027675190e+00
-1.503174883127212524e+01 2.346054848283529282e+00 -1.086564881168300190e+00
-1.512989336252212524e+01 2.201035317033529282e+00 -1.087236267887050190e+00
-1.522889238595962524e+01 2.054550942033529282e+00 -1.087892395816737690e+00
-1.532911211252212524e+01 1.906113442033529282e+00 -1.088563782535487690e+00
-1.543116289377212524e+01 1.755234535783529282e+00 -1.089250428043300190e+00
-1.556238847970962524e+01 1.602158363908529282e+00 -1.091539246402675190e+00
-1.497510820627212524e+01 2.638169106096029282e+00 -1.026079041324550190e+00
-1.510047441720962524e+01 2.497055824846029282e+00 -1.027498108707362690e+00
-1.519861894845962524e+01 2.352768715471029282e+00 -1.027742249332362690e+00
-1.529883867502212524e+01 2.206040199846029282e+00 -1.028016907535487690e+00
-1.540015703439712524e+01 2.057968910783529282e+00 -1.028306824527675190e+00
-1.550269609689712524e+01 1.907944496721029282e+00 -1.028581482730800190e+00
-1.620777422189712524e+01 1.747422035783529282e+00 -1.059984070621425190e+00
-1.657166582345962524e+01 1.581284340471029282e+00 -1.073778015933925190e+00
-1.498890215158462524e+01 2.640976723283529282e+00 -9.593218391761126895e-01
-1.526905351877212524e+01 2.505478676408529282e+00 -9.680956428870501895e-01
-1.536829668283462524e+01 2.359604652971029282e+00 -9.678972786292376895e-01
-1.547083574533462524e+01 2.211289223283529282e+00 -9.677752083167376895e-01
-1.571644121408462524e+01 2.062485512346029282e+00 -9.744585579261126895e-01
-1.609315019845962524e+01 1.908432777971029282e+00 -9.872149055823626895e-01
-1.634913164377212524e+01 1.748032387346029282e+00 -9.939898079261126895e-01
-1.659778887033462524e+01 1.583115395158529282e+00 -1.000276429019862690e+00
-1.500281816720962524e+01 2.643784340471029282e+00 -8.928240364417376895e-01
-1.544239336252212524e+01 2.514145668596029282e+00 -9.069994514808001895e-01
-1.558082109689712524e+01 2.367661293596029282e+00 -9.080217903479876895e-01
-1.600281816720962524e+01 2.222641762346029282e+00 -9.212969368323626895e-01
-1.626002031564712524e+01 2.068711098283529282e+00 -9.271715706214251895e-01
-1.639100176095962524e+01 1.910019692033529282e+00 -9.274614876136126895e-01
-1.638880449533462524e+01 1.749985512346029282e+00 -9.219835823401751895e-01
-1.589991289377212524e+01 1.601548012346029282e+00 -8.963182991370501895e-01
-1.502540117502212524e+01 2.646958168596029282e+00 -8.261889046058001895e-01
-1.555738359689712524e+01 2.520615395158529282e+00 -8.423784798011126895e-01
-1.556849199533462524e+01 2.369614418596029282e+00 -8.377245491370501895e-01
-1.615467363595962524e+01 2.227646645158529282e+00 -8.554857796058001895e-01
-1.630213457345962524e+01 2.071518715471029282e+00 -8.558977669104876895e-01
-1.644373613595962524e+01 1.912339027971029282e+00 -8.559893196448626895e-01
-1.727393633127212524e+01 1.741196449846029282e+00 -8.821581428870501895e-01
-1.663135820627212524e+01 1.587509926408529282e+00 -8.522814339026751895e-01
-1.504786211252212524e+01 2.650254067033529282e+00 -7.597216194495501895e-01
-1.552833086252212524e+01 2.521836098283529282e+00 -7.716692512854876895e-01
-1.559107500314712524e+01 2.372422035783529282e+00 -7.684038704261126895e-01
-1.611707597970962524e+01 2.229477699846029282e+00 -7.813890999183001895e-01
-1.742212969064712524e+01 2.082260902971029282e+00 -8.205889290198626895e-01
-1.683875566720962524e+01 1.913803871721029282e+00 -7.951983040198626895e-01
-1.655860430002212524e+01 1.752793129533529282e+00 -7.807177131995501895e-01
-1.609742265939712524e+01 1.602036293596029282e+00 -7.600420540198626895e-01
-1.507056719064712524e+01 2.653549965471029282e+00 -6.926897590979876895e-01
-1.549927812814712524e+01 2.523056801408529282e+00 -7.008532112464251895e-01
-1.561378008127212524e+01 2.375351723283529282e+00 -6.992662971839251895e-01
-1.607508379220962524e+01 2.231064613908529282e+00 -7.079027717933001895e-01
-1.653687578439712524e+01 2.078110512346029282e+00 -7.162798469886126895e-01
-1.637244707345962524e+01 1.917465981096029282e+00 -7.060869758948626895e-01
-1.621094805002212524e+01 1.759629067033529282e+00 -6.960772102698626895e-01
-1.605787187814712524e+01 1.605332192033529282e+00 -6.864336555823626895e-01
-1.509315019845962524e+01 2.656723793596029282e+00 -6.258410042151751895e-01
-1.549451738595962524e+01 2.525131996721029282e+00 -6.313341682776751895e-01
-1.563172441720962524e+01 2.378159340471029282e+00 -6.297930305823626895e-01
-1.631812578439712524e+01 2.237778481096029282e+00 -6.420153206214251895e-01
-1.604432207345962524e+01 2.076767738908529282e+00 -6.298845833167376895e-01
-1.650599199533462524e+01 1.919663246721029282e+00 -6.360033577308001895e-01
-1.618397051095962524e+01 1.762314613908529282e+00 -6.228045051917376895e-01
-1.601124101877212524e+01 1.608750160783529282e+00 -6.134203499183001895e-01
-1.510840898752212524e+01 2.659653481096029282e+00 -5.582750862464251895e-01
-1.549744707345962524e+01 2.527451332658529282e+00 -5.616625374183001895e-01
-1.563013750314712524e+01 2.380478676408529282e+00 -5.594042366370501895e-01
-1.650171953439712524e+01 2.243515785783529282e+00 -5.722826546058001895e-01
-1.642005449533462524e+01 2.082138832658529282e+00 -5.652636116370501895e-01
-1.631739336252212524e+01 1.922470863908529282e+00 -5.578783577308001895e-01
-1.666492754220962524e+01 1.759018715471029282e+00 -5.593889778479876895e-01
-1.590601640939712524e+01 1.613510902971029282e+00 -5.393236702308001895e-01
-1.516553789377212524e+01 2.664658363908529282e+00 -4.916552131995501895e-01
-1.550281816720962524e+01 2.530014809221029282e+00 -4.923876350745501895e-01
-1.562330156564712524e+01 2.382553871721029282e+00 -4.893358772620501895e-01
-1.637574297189712524e+01 2.243637856096029282e+00 -4.963244026526751895e-01
-1.595850664377212524e+01 2.080796059221029282e+00 -4.844530647620501895e-01
-1.742432695627212524e+01 1.922837074846029282e+00 -5.018175667151751895e-01
-1.602747637033462524e+01 1.769150551408529282e+00 -4.751299446448626895e-01
-1.580274492502212524e+01 1.618149574846029282e+00 -4.666307991370501895e-01
-1.540186601877212524e+01 2.678208168596029282e+00 -4.263933723792376895e-01
-1.551954180002212524e+01 2.532822426408529282e+00 -4.228380745276751895e-01
-1.562757402658462524e+01 2.384995277971029282e+00 -4.194658821448626895e-01
-1.090394121408462524e+01 2.146591957658529282e+00 -3.602617805823626895e-01
-1.115577226877212524e+01 2.043686684221029282e+00 -3.595751350745501895e-01
-1.141981035470962524e+01 1.935898598283529282e+00 -3.588579719886126895e-01
-1.169727617502212524e+01 1.822251137346029282e+00 -3.578203743323626895e-01
-1.198865801095962524e+01 1.703232582658529282e+00 -3.570116585120501895e-01
-1.011133867502212524e+01 2.425156410783529282e+00 -3.159807747229876895e-01
-1.032239824533462524e+01 2.336167152971029282e+00 -3.143480842933001895e-01
-1.054700762033462524e+01 2.243393715471029282e+00 -3.126696174964251895e-01
-1.078272539377212524e+01 2.145981606096029282e+00 -3.109148567542376895e-01
-1.102869707345962524e+01 2.044297035783529282e+00 -3.090685432776751895e-01
-1.128638750314712524e+01 1.937851723283529282e+00 -3.071459358558001895e-01
-1.155787187814712524e+01 1.825669106096029282e+00 -3.051165169104876895e-01
-1.184205156564712524e+01 1.708237465471029282e+00 -3.029955452308001895e-01
-1.001478105783462524e+01 2.421860512346029282e+00 -2.707842415198626895e-01
-1.025660234689712524e+01 2.335068520158529282e+00 -2.685564583167376895e-01
-1.049586015939712524e+01 2.243393715471029282e+00 -2.659166878089251895e-01
-1.075489336252212524e+01 2.146958168596029282e+00 -2.631395881995501895e-01
-1.102649980783462524e+01 2.045883949846029282e+00 -2.602404182776751895e-01
-1.131251055002212524e+01 1.939438637346029282e+00 -2.571886604651751895e-01
-1.161536699533462524e+01 1.826767738908529282e+00 -2.539537971839251895e-01
-1.193494707345962524e+01 1.707993324846029282e+00 -2.502764290198626895e-01
-1.010328203439712524e+01 2.427597817033529282e+00 -2.264727180823626895e-01
-1.033777910470962524e+01 2.339707192033529282e+00 -2.228716438636126895e-01
-1.058790117502212524e+01 2.247544106096029282e+00 -2.190874641761126895e-01
-1.085157305002212524e+01 2.150376137346029282e+00 -2.151049202308001895e-01
-1.111841875314712524e+01 2.048325356096029282e+00 -2.109392708167376895e-01
-1.137537676095962524e+01 1.941025551408529282e+00 -2.066210335120501895e-01
-1.164576250314712524e+01 1.828110512346029282e+00 -2.020891731604876895e-01
-1.192872148752212524e+01 1.709946449846029282e+00 -1.973589485511126895e-01
-1.011622148752212524e+01 2.429673012346029282e+00 -1.815661018714251895e-01
-1.032361894845962524e+01 2.340683754533529282e+00 -1.773088997229876895e-01
-1.054371172189712524e+01 2.247788246721029282e+00 -1.725786751136126895e-01
-1.077454668283462524e+01 2.150498207658529282e+00 -1.676348274573626895e-01
-1.101514726877212524e+01 2.049057777971029282e+00 -1.624620979651751895e-01
-1.126722246408462524e+01 1.942856606096029282e+00 -1.570604866370501895e-01
-1.153223711252212524e+01 1.831162270158529282e+00 -1.513842171058001895e-01
-1.182190996408462524e+01 1.713974770158529282e+00 -1.450518196448626895e-01
-1.002576738595962524e+01 2.426743324846029282e+00 -1.378801887854876895e-01
-1.024573808908462524e+01 2.339096840471029282e+00 -1.323259895667376895e-01
-1.046387773752212524e+01 2.247055824846029282e+00 -1.266344612464251895e-01
-1.073353105783462524e+01 2.151352699846029282e+00 -1.202105110511126895e-01
-1.101673418283462524e+01 2.050766762346029282e+00 -1.134508674964251895e-01
-1.131592851877212524e+01 1.944443520158529282e+00 -1.063250130042376895e-01
-1.163331133127212524e+01 1.831772621721029282e+00 -9.875665362923768953e-02
-1.196851640939712524e+01 1.712754067033529282e+00 -9.076104816048768953e-02
-1.007129961252212524e+01 2.430405434221029282e+00 -9.272943194955018953e-02
-1.031763750314712524e+01 2.343369301408529282e+00 -8.575616534798768953e-02
-1.057776933908462524e+01 2.251938637346029282e+00 -7.863031085580018953e-02
-1.085352617502212524e+01 2.155136879533529282e+00 -7.084832843392518953e-02
-1.691956621408462524e+01 2.106308754533529282e+00 3.220953289419981047e-02
-1.706043535470962524e+01 1.941513832658529282e+00 3.999151531607481047e-02
-1.733033281564712524e+01 1.771958168596029282e+00 5.048956219107481047e-02
-1.712745195627212524e+01 1.607529457658529282e+00 5.250372234732481047e-02
-1.537134844064712524e+01 2.692368324846029282e+00 5.654730144888731047e-02
-1.551124101877212524e+01 2.548447426408529282e+00 6.388677898794981047e-02
-1.710291582345962524e+01 2.444199379533529282e+00 1.012555534020123105e-01
-1.704041582345962524e+01 2.275864418596029282e+00 1.054364616051373105e-01
-1.691761308908462524e+01 2.108750160783529282e+00 1.083051139488873105e-01
-1.757911211252212524e+01 1.943711098283529282e+00 1.278363639488873105e-01
-1.721461015939712524e+01 1.775864418596029282e+00 1.255628043785748105e-01
-1.719459062814712524e+01 1.608750160783529282e+00 1.310407096520123105e-01
-1.185377031564712524e+01 1.684311684221029282e+00 -9.895342415198626895e-01
-1.180933672189712524e+01 1.571396645158529282e+00 -9.828356331214251895e-01
-1.178028398752212524e+01 1.458481606096029282e+00 -9.774187630042376895e-01
-1.179859453439712524e+01 1.343125160783529282e+00 -9.750536506995501895e-01
-1.181702715158462524e+01 1.227646645158529282e+00 -9.726885383948626895e-01
-1.183545976877212524e+01 1.111679848283529282e+00 -9.703234260901751895e-01
-1.185401445627212524e+01 9.947364889085292816e-01 -9.679277962073626895e-01
-1.186695390939712524e+01 8.782814107835292816e-01 -9.654711311683001895e-01
-1.292591387033462524e+01 1.660996254533529282e+00 -1.001603943668300190e+00
-1.287488847970962524e+01 1.537583168596029282e+00 -9.946306770667376895e-01
-1.276233965158462524e+01 1.417710121721029282e+00 -9.836596077308001895e-01
-1.289441972970962524e+01 1.286362465471029282e+00 -9.876726692542376895e-01
-1.291395097970962524e+01 1.159897621721029282e+00 -9.849260872229876895e-01
-1.293372637033462524e+01 1.032944496721029282e+00 -9.821795051917376895e-01
-1.295325762033462524e+01 9.048927389085292816e-01 -9.796923225745501895e-01
-1.303528887033462524e+01 7.709816060960292816e-01 -9.805468147620501895e-01
-1.556519609689712524e+01 1.601548012346029282e+00 -1.091676575504237690e+00
-1.426160722970962524e+01 1.493393715471029282e+00 -1.014207703433925190e+00
-1.275696855783462524e+01 1.419907387346029282e+00 -9.264238899573626895e-01
-1.446363359689712524e+01 1.204819496721029282e+00 -1.016603333316737690e+00
-1.559437090158462524e+01 9.924171529710292816e-01 -1.074159485660487690e+00
-1.540674883127212524e+01 8.537452779710292816e-01 -1.059129578433925190e+00
-1.521143633127212524e+01 7.188575826585292816e-01 -1.043794495426112690e+00
-1.502161699533462524e+01 5.876319967210292816e-01 -1.028886658512050190e+00
-1.657264238595962524e+01 1.580673988908529282e+00 -1.073808533512050190e+00
-1.624427324533462524e+01 1.430039223283529282e+00 -1.051500183902675190e+00
-1.275843340158462524e+01 1.421738442033529282e+00 -8.692949837073626895e-01
-1.675623613595962524e+01 1.085434731096029282e+00 -1.067293030582362690e+00
-1.669324785470962524e+01 9.256446920335292816e-01 -1.058931214176112690e+00
-1.663074785470962524e+01 7.668312154710292816e-01 -1.050615174137050190e+00
-1.656836992502212524e+01 6.085060201585292816e-01 -1.042344910465175190e+00
-1.652759844064712524e+01 4.496925435960292816e-01 -1.035585266910487690e+00
-1.659827715158462524e+01 1.582627113908529282e+00 -1.000276429019862690e+00
-1.619776445627212524e+01 1.434067543596029282e+00 -9.764574592933001895e-01
-1.276002031564712524e+01 1.423691567033529282e+00 -8.124559944495501895e-01
-1.676356035470962524e+01 1.087631996721029282e+00 -9.923113411292376895e-01
-1.689783769845962524e+01 9.153907857835292816e-01 -9.931963508948626895e-01
-1.996485430002212524e+01 5.262306295335292816e-01 -1.126771790347987690e+00
-1.673145586252212524e+01 5.975196920335292816e-01 -9.751146858558001895e-01
-1.754505449533462524e+01 3.577735982835292816e-01 -1.006166321597987690e+00
-1.589808183908462524e+01 1.601059731096029282e+00 -8.962267464026751895e-01
-1.568384844064712524e+01 1.453354652971029282e+00 -8.818682258948626895e-01
-1.276148515939712524e+01 1.425522621721029282e+00 -7.553118294104876895e-01
-1.680396562814712524e+01 1.088120277971029282e+00 -9.182604378089251895e-01
-1.653406816720962524e+01 9.407814107835292816e-01 -9.019030159339251895e-01
-1.685706621408462524e+01 7.556007467210292816e-01 -9.098070686683001895e-01
-1.733851152658462524e+01 5.499122701585292816e-01 -9.238909309729876895e-01
-1.672303301095962524e+01 4.368751607835292816e-01 -8.941820686683001895e-01
-1.663270097970962524e+01 1.586899574846029282e+00 -8.523119514808001895e-01
-1.575916582345962524e+01 1.453354652971029282e+00 -8.144091194495501895e-01
-1.276295000314712524e+01 1.427475746721029282e+00 -6.984728401526751895e-01
-1.670875078439712524e+01 1.095810707658529282e+00 -8.392656868323626895e-01
-1.865613847970962524e+01 8.105323873460292816e-01 -9.048021858558001895e-01
-1.688282305002212524e+01 7.563331685960292816e-01 -8.349169319495501895e-01
-1.681507402658462524e+01 5.959327779710292816e-01 -8.271044319495501895e-01
-1.678419023752212524e+01 4.339454732835292816e-01 -8.206499641761126895e-01
-1.612720781564712524e+01 1.600693520158529282e+00 -7.610186165198626895e-01
-1.583521562814712524e+01 1.453232582658529282e+00 -7.463091438636126895e-01
-1.276441484689712524e+01 1.429306801408529282e+00 -6.413286751136126895e-01
-1.661414629220962524e+01 1.103379067033529282e+00 -7.607897346839251895e-01
-1.683655840158462524e+01 9.271095357835292816e-01 -7.625292366370501895e-01
-1.690870195627212524e+01 7.571876607835292816e-01 -7.594011848792376895e-01
-1.719422441720962524e+01 5.673683248460292816e-01 -7.632463997229876895e-01
-1.685096269845962524e+01 4.304054342210292816e-01 -7.471483772620501895e-01
-1.605713945627212524e+01 1.604721840471029282e+00 -6.864031380042376895e-01
-1.591749101877212524e+01 1.453110512346029282e+00 -6.773088997229876895e-01
-1.276600176095962524e+01 1.431259926408529282e+00 -5.844896858558001895e-01
-1.587256914377212524e+01 1.144638832658529282e+00 -6.658037727698626895e-01
-1.703638750314712524e+01 9.173439107835292816e-01 -6.923082893714251895e-01
-1.696815019845962524e+01 7.554786764085292816e-01 -6.849688118323626895e-01
-1.914954668283462524e+01 4.091651998460292816e-01 -7.372606819495501895e-01
-1.691871172189712524e+01 4.268653951585292816e-01 -6.726702278479876895e-01
-1.600965410470962524e+01 1.608261879533529282e+00 -6.133593147620501895e-01
-1.600818926095962524e+01 1.452622231096029282e+00 -6.081408089026751895e-01
-1.276746660470962524e+01 1.433090981096029282e+00 -5.276506965979876895e-01
-1.630836015939712524e+01 1.124375160783529282e+00 -6.046160286292376895e-01
-1.674988847970962524e+01 9.377296529710292816e-01 -6.092852180823626895e-01
-1.702234941720962524e+01 7.542579732835292816e-01 -6.098803108558001895e-01
-1.706775957345962524e+01 5.832374654710292816e-01 -6.053026741370501895e-01
-1.921192461252212524e+01 2.181251607835292816e-01 -6.459826057776751895e-01
-1.590442949533462524e+01 1.613022621721029282e+00 -5.392778938636126895e-01
-1.603516680002212524e+01 1.454209145158529282e+00 -5.365770881995501895e-01
-1.276893144845962524e+01 1.435044106096029282e+00 -4.705065315589251895e-01
-1.622596269845962524e+01 1.131211098283529282e+00 -5.295580452308001895e-01
-1.707117754220962524e+01 9.205177389085292816e-01 -5.394152229651751895e-01
-1.707679277658462524e+01 7.530372701585292816e-01 -5.339220589026751895e-01
-1.699427324533462524e+01 5.919044576585292816e-01 -5.268572395667376895e-01
-1.935975176095962524e+01 2.076271139085292816e-01 -5.613421028479876895e-01
-1.580128008127212524e+01 1.617661293596029282e+00 -4.665850227698626895e-01
-1.708570390939712524e+01 1.423203285783529282e+00 -4.798601692542376895e-01
-1.277051836252212524e+01 1.436875160783529282e+00 -4.136522835120501895e-01
-1.725123125314712524e+01 1.080673988908529282e+00 -4.708422249183001895e-01
-1.706763750314712524e+01 9.233253560960292816e-01 -4.626940315589251895e-01
-1.687623125314712524e+01 7.701271139085292816e-01 -4.545458381995501895e-01
-1.710303789377212524e+01 5.858009420335292816e-01 -4.518145149573626895e-01
-1.936756426095962524e+01 2.100685201585292816e-01 -4.741076057776751895e-01
-1.199073320627212524e+01 1.702866371721029282e+00 -3.570116585120501895e-01
-1.229749590158462524e+01 1.577378090471029282e+00 -3.560808723792376895e-01
-1.262220293283462524e+01 1.445053871721029282e+00 -3.553942268714251895e-01
-1.295069414377212524e+01 1.305405434221029282e+00 -3.542040413245501895e-01
-1.328760820627212524e+01 1.159043129533529282e+00 -3.528765266761126895e-01
-1.364344316720962524e+01 1.004380043596029282e+00 -3.514727180823626895e-01
-1.402015215158462524e+01 8.401954732835292816e-01 -3.496416633948626895e-01
-1.441907793283462524e+01 6.668556295335292816e-01 -3.480700081214251895e-01
-1.184412676095962524e+01 1.707749184221029282e+00 -3.029955452308001895e-01
-1.215088945627212524e+01 1.583969887346029282e+00 -3.006609505042376895e-01
-1.250220781564712524e+01 1.451889809221029282e+00 -2.983416145667376895e-01
-1.287696367502212524e+01 1.311264809221029282e+00 -2.958544319495501895e-01
-1.323951250314712524e+01 1.164048012346029282e+00 -2.930773323401751895e-01
-1.363465410470962524e+01 1.007065590471029282e+00 -2.901629036292376895e-01
-1.405677324533462524e+01 8.394630514085292816e-01 -2.870501106604876895e-01
-1.450562578439712524e+01 6.612403951585292816e-01 -2.837542122229876895e-01
-1.193714433908462524e+01 1.707627113908529282e+00 -2.502611702308001895e-01
-1.227466875314712524e+01 1.581894692033529282e+00 -2.467669075354876895e-01
-1.263367754220962524e+01 1.448471840471029282e+00 -2.427538460120501895e-01
-1.299952226877212524e+01 1.306870277971029282e+00 -2.384813850745501895e-01
-1.333277422189712524e+01 1.160385902971029282e+00 -2.339800423011126895e-01
-1.368458086252212524e+01 1.005722817033529282e+00 -2.292193001136126895e-01
-1.405774980783462524e+01 8.416603170335292816e-01 -2.241838997229876895e-01
-1.445057207345962524e+01 6.685646139085292816e-01 -2.185076301917376895e-01
-1.193067461252212524e+01 1.709458168596029282e+00 -1.973284309729876895e-01
-1.222803789377212524e+01 1.585190590471029282e+00 -1.921404426917376895e-01
-1.254127031564712524e+01 1.454209145158529282e+00 -1.866625374183001895e-01
-1.287317949533462524e+01 1.315415199846029282e+00 -1.808489387854876895e-01
-1.319007402658462524e+01 1.171128090471029282e+00 -1.749132698401751895e-01
-1.355128008127212524e+01 1.017319496721029282e+00 -1.684893196448626895e-01
-1.398768144845962524e+01 8.494728170335292816e-01 -1.613787239417376895e-01
-1.445289140939712524e+01 6.706398092210292816e-01 -1.537951057776751895e-01
-1.182422930002212524e+01 1.713608559221029282e+00 -1.450213020667376895e-01
-1.217103105783462524e+01 1.588852699846029282e+00 -1.383226936683001895e-01
-1.254090410470962524e+01 1.456162270158529282e+00 -1.308916633948626895e-01
-1.292347246408462524e+01 1.314804848283529282e+00 -1.230639046058001895e-01
-1.331641680002212524e+01 1.165512856096029282e+00 -1.148851936683001895e-01
-1.373511797189712524e+01 1.006333168596029282e+00 -1.061571663245501895e-01
-1.735450273752212524e+01 5.789650045335292816e-01 -6.404290851205018953e-02
-4.117982012033462524e+01 -1.760268393903970718e+00 1.975385123863873105e-01
-1.197083574533462524e+01 1.712265785783529282e+00 -9.071527179330018953e-02
-1.232764726877212524e+01 1.585800942033529282e+00 -8.194146808236268953e-02
-1.721241289377212524e+01 1.267197426408529282e+00 -1.161370929330018953e-02
-1.703870683908462524e+01 1.107529457658529282e+00 -8.058411441737689529e-03
-1.703003984689712524e+01 9.416359029710292816e-01 -2.305847965175189529e-03
-1.800892168283462524e+01 7.059181295335292816e-01 1.786627117544981047e-02
-1.701856523752212524e+01 6.088722310960292816e-01 9.321349300449810471e-03
-1.703467851877212524e+01 4.406593404710292816e-01 1.547064129263731047e-02
-1.712476640939712524e+01 1.607041176408529282e+00 5.247320476919981047e-02
-1.693787676095962524e+01 1.446030434221029282e+00 5.508245769888731047e-02
-1.684278398752212524e+01 1.284897621721029282e+00 5.883611980826231047e-02
-1.716077715158462524e+01 1.103989418596029282e+00 7.057012859732481047e-02
-1.700843340158462524e+01 9.456642232835292816e-01 7.368292156607481047e-02
-1.698939043283462524e+01 7.807472310960292816e-01 7.923712078482481047e-02
-1.689527422189712524e+01 6.215675435960292816e-01 8.373846355826231047e-02
-1.821888262033462524e+01 3.359230123460292816e-01 1.160108024254498105e-01
-1.719471269845962524e+01 1.608139809221029282e+00 1.310559684410748105e-01
-1.707703691720962524e+01 1.444443520158529282e+00 1.340161735191998105e-01
-1.688331133127212524e+01 1.285874184221029282e+00 1.355878287926373105e-01
-1.699708086252212524e+01 1.114975746721029282e+00 1.441327506676373105e-01
-1.690687090158462524e+01 9.544532857835292816e-01 1.479779655113873105e-01
-1.798926836252212524e+01 7.128761373460292816e-01 1.796552116051373105e-01
-1.796546465158462524e+01 5.380714498460292816e-01 1.854230338707623105e-01
-1.976905351877212524e+01 1.984718404710292816e-01 2.364331657066998105e-01
-1.186707597970962524e+01 8.779151998460292816e-01 -9.654558723792376895e-01
-1.188440996408462524e+01 7.604835592210292816e-01 -9.630297249183001895e-01
-1.189612871408462524e+01 6.431739889085292816e-01 -9.605272835120501895e-01
-1.190784746408462524e+01 5.247657857835292816e-01 -9.579943245276751895e-01
-1.191968828439712524e+01 4.063575826585292816e-01 -9.554766243323626895e-01
-1.193152910470962524e+01 2.872169576585292816e-01 -9.529284065589251895e-01
-1.194361406564712524e+01 1.673439107835292816e-01 -9.503649299964251895e-01
-1.194971758127212524e+01 4.808121547102928162e-02 -9.477404182776751895e-01
-1.303589922189712524e+01 7.704933248460292816e-01 -9.805620735511126895e-01
-1.310950762033462524e+01 6.354835592210292816e-01 -9.812182014808001895e-01
-1.319300371408462524e+01 4.976661764085292816e-01 -9.820879524573626895e-01
-1.321436601877212524e+01 3.649757467210292816e-01 -9.796160286292376895e-01
-1.323389726877212524e+01 2.322853170335292816e-01 -9.770220344886126895e-01
-1.325355058908462524e+01 9.874039515852928162e-02 -9.744280403479876895e-01
-1.326478105783462524e+01 -3.456038609147071838e-02 -9.716356819495501895e-01
-1.328455644845962524e+01 -1.694480814039707184e-01 -9.689959114417376895e-01
-1.502039629220962524e+01 5.872657857835292816e-01 -1.028795105777675190e+00
-1.489075762033462524e+01 4.534767232835292816e-01 -1.017579895816737690e+00
-1.494166094064712524e+01 3.012550435960292816e-01 -1.016038758121425190e+00
-1.499317461252212524e+01 1.472023092210292816e-01 -1.014467102847987690e+00
-1.504517656564712524e+01 -7.826987653970718384e-03 -1.012895447574550190e+00
-1.507825762033462524e+01 -1.616355814039707184e-01 -1.010301453433925190e+00
-1.510670000314712524e+01 -3.162986673414707184e-01 -1.007417542301112690e+00
-1.513526445627212524e+01 -4.713279642164707184e-01 -1.004518372379237690e+00
-1.652918535470962524e+01 4.490821920335292816e-01 -1.035631043277675190e+00
-1.538758379220962524e+01 4.045265279710292816e-01 -9.745501106604876895e-01
-1.682935625314712524e+01 8.982926234602928162e-02 -1.040193421207362690e+00
-1.697913652658462524e+01 -9.547347202897071838e-02 -1.042497498355800190e+00
-1.713160234689712524e+01 -2.840721048414707184e-01 -1.044816834293300190e+00
-1.728711992502212524e+01 -4.766990579664707184e-01 -1.047212464176112690e+00
-1.734009844064712524e+01 -6.576072610914707184e-01 -1.044587952457362690e+00
-1.736121660470962524e+01 -8.342430032789707184e-01 -1.040880066715175190e+00
-1.754566484689712524e+01 3.571632467210292816e-01 -1.006181580387050190e+00
-1.538953691720962524e+01 4.068458639085292816e-01 -9.053820198401751895e-01
-1.968812090158462524e+01 -2.309715189039707184e-01 -1.090043885074550190e+00
-1.960621172189712524e+01 -4.166404642164707184e-01 -1.080552918277675190e+00
-2.212720781564712524e+01 -9.477683939039707184e-01 -1.184099060855800190e+00
-2.025818926095962524e+01 -9.004051126539707184e-01 -1.096864563785487690e+00
-1.795887285470962524e+01 -7.498924173414707184e-01 -9.923113411292376895e-01
-2.090198808908462524e+01 -1.412001792341470718e+00 -1.111940247379237690e+00
-1.672291094064712524e+01 4.363868795335292816e-01 -8.941515510901751895e-01
-1.539149004220962524e+01 4.090431295335292816e-01 -8.358324592933001895e-01
-2.211658769845962524e+01 -5.020896829664707184e-01 -1.096040589176112690e+00
-2.032337480783462524e+01 -5.017234720289707184e-01 -1.019182068668300190e+00
-2.044983965158462524e+01 -7.205955423414707184e-01 -1.017854554019862690e+00
-2.027930742502212524e+01 -9.000389017164707184e-01 -1.005021912418300190e+00
-1.796131426095962524e+01 -7.472068704664707184e-01 -9.103716438636126895e-01
-2.546631914377212524e+01 -2.156142417341470718e+00 -1.189287049137050190e+00
-1.678419023752212524e+01 4.333351217210292816e-01 -8.206347053870501895e-01
-1.539344316720962524e+01 4.113624654710292816e-01 -7.666643684729876895e-01
-2.242261797189712524e+01 -5.330955423414707184e-01 -1.006303650699550190e+00
-2.513477617502212524e+01 -1.089980307966470718e+00 -1.092714173160487690e+00
-2.042054277658462524e+01 -7.133933939039707184e-01 -9.239367073401751895e-01
-2.543860918283462524e+01 -1.635634604841470718e+00 -1.087236267887050190e+00
-1.796375566720962524e+01 -7.445213235914707184e-01 -8.288439339026751895e-01
-2.654163652658462524e+01 -2.327773276716470718e+00 -1.107759339176112690e+00
-1.685096269845962524e+01 4.297950826585292816e-01 -7.471331184729876895e-01
-1.539539629220962524e+01 4.135597310960292816e-01 -6.974810188636126895e-01
-2.532935625314712524e+01 -8.568260110914707184e-01 -9.915636604651751895e-01
-2.547315508127212524e+01 -1.127455893903970718e+00 -9.877642219886126895e-01
-2.039124590158462524e+01 -7.060691751539707184e-01 -8.298204964026751895e-01
-2.032154375314712524e+01 -8.993064798414707184e-01 -8.212908333167376895e-01
-1.796619707345962524e+01 -7.419578470289707184e-01 -7.473162239417376895e-01
-2.643580156564712524e+01 -2.305922690778970718e+00 -9.832018440589251895e-01
-1.691871172189712524e+01 4.262550435960292816e-01 -6.726549690589251895e-01
-1.539734941720962524e+01 4.158790670335292816e-01 -6.279161995276751895e-01
-1.992835527658462524e+01 -2.451316751539707184e-01 -7.386034553870501895e-01
-1.827686601877212524e+01 -2.407371439039707184e-01 -6.905687874183001895e-01
-2.036219316720962524e+01 -6.988670267164707184e-01 -7.364977424964251895e-01
-2.034266191720962524e+01 -8.989402689039707184e-01 -7.294176643714251895e-01
-1.796863847970962524e+01 -7.392723001539707184e-01 -6.653460090979876895e-01
-2.661622148752212524e+01 -2.330947104841470718e+00 -8.658464973792376895e-01
-1.921131426095962524e+01 2.176368795335292816e-01 -6.459520881995501895e-01
-1.539942461252212524e+01 4.181984029710292816e-01 -5.587328499183001895e-01
-1.985914140939712524e+01 -2.341453470289707184e-01 -6.469439094886126895e-01
-1.847046953439712524e+01 -2.614890970289707184e-01 -6.118486946448626895e-01
-2.033314043283462524e+01 -6.916648782789707184e-01 -6.434649055823626895e-01
-1.796644121408462524e+01 -5.564109720289707184e-01 -5.896624153479876895e-01
-1.797107988595962524e+01 -7.367088235914707184e-01 -5.838030403479876895e-01
-1.852625566720962524e+01 -1.006728354841470718e+00 -5.885332649573626895e-01
-1.935999590158462524e+01 2.070167623460292816e-01 -5.613268440589251895e-01
-1.540137773752212524e+01 4.203956685960292816e-01 -4.891680305823626895e-01
-2.981495195627212524e+01 -1.347548667341470718e+00 -7.185076301917376895e-01
-1.807166582345962524e+01 -2.096092142164707184e-01 -5.214556282386126895e-01
-2.700001055002212524e+01 -1.571059409528970718e+00 -6.545580452308001895e-01
-2.038514238595962524e+01 -8.982078470289707184e-01 -5.446337288245501895e-01
-1.797352129220962524e+01 -7.340232767164707184e-01 -5.018175667151751895e-01
-1.852112871408462524e+01 -1.002700034528970718e+00 -5.037401741370501895e-01
-1.936793047189712524e+01 2.093360982835292816e-01 -4.740923469886126895e-01
-1.506849199533462524e+01 4.568946920335292816e-01 -4.159563606604876895e-01
-1.552003008127212524e+01 2.582862935960292816e-01 -4.161394661292376895e-01
-1.598939043283462524e+01 4.759293422102928162e-02 -4.162005012854876895e-01
-1.648829180002212524e+01 -1.764060892164707184e-01 -4.162462776526751895e-01
-1.702161699533462524e+01 -4.159080423414707184e-01 -4.163073128089251895e-01
-1.759485918283462524e+01 -6.732322610914707184e-01 -4.163530891761126895e-01
-1.814271074533462524e+01 -9.380027689039707184e-01 -4.157732551917376895e-01
-1.442188555002212524e+01 6.661232076585292816e-01 -3.480700081214251895e-01
-1.484534746408462524e+01 4.819191060960292816e-01 -3.462694710120501895e-01
-1.531507402658462524e+01 2.836769185960292816e-01 -3.448656624183001895e-01
-1.582593828439712524e+01 7.005387172102928162e-02 -3.430040901526751895e-01
-1.637647539377212524e+01 -1.589500345289707184e-01 -3.410509651526751895e-01
-1.696912676095962524e+01 -4.055320657789707184e-01 -3.389299934729876895e-01
-1.761255937814712524e+01 -6.729881204664707184e-01 -3.362291878089251895e-01
-1.824695879220962524e+01 -9.519187845289707184e-01 -3.334368294104876895e-01
-1.450879961252212524e+01 6.605079732835292816e-01 -2.837389534339251895e-01
-1.498963457345962524e+01 4.697120748460292816e-01 -2.800463264808001895e-01
-1.542444902658462524e+01 2.740333639085292816e-01 -2.758806770667376895e-01
-1.595789629220962524e+01 5.662613734602928162e-02 -2.715776985511126895e-01
-1.644629961252212524e+01 -1.654197610914707184e-01 -2.668169563636126895e-01
-1.696753984689712524e+01 -4.024803079664707184e-01 -2.617357796058001895e-01
-1.752723222970962524e+01 -6.569969095289707184e-01 -2.562731331214251895e-01
-1.806458574533462524e+01 -9.192039407789707184e-01 -2.503984993323626895e-01
-1.445337969064712524e+01 6.678321920335292816e-01 -2.184923714026751895e-01
-1.487171465158462524e+01 4.839943014085292816e-01 -2.129839485511126895e-01
-1.531592851877212524e+01 2.885597310960292816e-01 -2.067431038245501895e-01
-1.579114824533462524e+01 7.957535609602928162e-02 -2.000750130042376895e-01
-1.636475664377212524e+01 -1.519920267164707184e-01 -1.927813118323626895e-01
-1.698426347970962524e+01 -4.021140970289707184e-01 -1.849077766761126895e-01
-1.765784746408462524e+01 -6.739646829664707184e-01 -1.763323372229876895e-01
-1.819288164377212524e+01 -9.370262064039707184e-01 -1.673906868323626895e-01
-1.445618730783462524e+01 6.699073873460292816e-01 -1.537493294104876895e-01
-1.495630937814712524e+01 4.778907857835292816e-01 -1.453417366370501895e-01
-1.549451738595962524e+01 2.712257467210292816e-01 -1.363085335120501895e-01
-3.453980547189712524e+01 -2.195082847028970718e+00 6.406920589512310471e-03
-2.700831133127212524e+01 -1.549697104841470718e+00 -3.795037921517518953e-02
-1.878357988595962524e+01 -6.541892923414707184e-01 -9.337030109017518953e-02
-1.833851152658462524e+01 -7.744285501539707184e-01 -9.019647296517518953e-02
-1.849561601877212524e+01 -9.829246439039707184e-01 -8.213983234017518953e-02
-4.117823320627212524e+01 -1.761489097028970718e+00 1.975690299645123105e-01
-1.991956621408462524e+01 -2.149886265397071838e-02 -2.334771808236268953e-02
-2.781592851877212524e+01 -1.096083823591470718e+00 7.426275555044981047e-02
-2.803589922189712524e+01 -1.400527182966470718e+00 8.717169109732481047e-02
-1.986609941720962524e+01 -6.067039407789707184e-01 -1.985413394862689529e-03
-1.886475664377212524e+01 -6.626121439039707184e-01 -7.219178043300189529e-03
-2.019227129220962524e+01 -1.052626792341470718e+00 1.696600262076231047e-02
-1.864600664377212524e+01 -1.004164878278970718e+00 4.331725277012310471e-03
-1.703480058908462524e+01 4.400489889085292816e-01 1.548590008169981047e-02
-2.003284746408462524e+01 -2.979964390397071838e-02 6.883062664419981047e-02
-1.982410722970962524e+01 -2.043601907789707184e-01 7.293524090201231047e-02
-2.801636797189712524e+01 -1.393447104841470718e+00 2.151013785973248105e-01
-2.701490312814712524e+01 -1.541518393903970718e+00 2.087994987145123105e-01
-1.846277910470962524e+01 -6.026756204664707184e-01 7.180609051138731047e-02
-4.026087480783462524e+01 -4.090834800153970718e+00 4.623242789879498105e-01
-2.015381914377212524e+01 -1.245009604841470718e+00 1.161328727379498105e-01
-1.821900469064712524e+01 3.353126607835292816e-01 1.160260612145123105e-01
-2.769190508127212524e+01 -7.983543314039707184e-01 3.152600700035748105e-01
-2.694190508127212524e+01 -9.901267923414707184e-01 3.096295768395123105e-01
-3.454127031564712524e+01 -2.178115073591470718e+00 4.799481803551373105e-01
-2.707154375314712524e+01 -1.544570151716470718e+00 3.330060416832623105e-01
-3.029981523752212524e+01 -2.270888511091470718e+00 4.138623649254498105e-01
-4.026905351877212524e+01 -4.085341636091470718e+00 6.480847770348248105e-01
-1.803956133127212524e+01 -8.999168314039707184e-01 1.604291373863873105e-01
-1.976856523752212524e+01 1.978614889085292816e-01 2.364484244957623105e-01
-2.771204668283462524e+01 -7.959129251539707184e-01 4.413892203941998105e-01
-2.695057207345962524e+01 -9.865867532789707184e-01 4.328137809410748105e-01
-1.980897051095962524e+01 -3.929588235914707184e-01 2.598096305504498105e-01
-2.712671953439712524e+01 -1.547255698591470718e+00 4.583264762535748105e-01
-3.028272539377212524e+01 -2.263442222028970718e+00 5.524426871910748105e-01
-2.035621172189712524e+01 -1.067275229841470718e+00 2.975293571129498105e-01
-2.064002519845962524e+01 -1.316542807966470718e+00 3.136884147301373105e-01
-1.194971758127212524e+01 4.771500453352928162e-02 -9.477251594886126895e-01
-1.196033769845962524e+01 -7.276839390397071838e-02 -9.451311653479876895e-01
-1.198963457345962524e+01 -1.974021829664707184e-01 -9.439409798011126895e-01
-1.201832109689712524e+01 -3.233787454664707184e-01 -9.426745003089251895e-01
-1.204725176095962524e+01 -4.500877298414707184e-01 -9.414080208167376895e-01
-1.206360918283462524e+01 -5.750877298414707184e-01 -9.393480842933001895e-01
-1.206946855783462524e+01 -6.989890970289707184e-01 -9.366472786292376895e-01
-1.206836992502212524e+01 -8.215476907789707184e-01 -9.338244026526751895e-01
-1.328443437814712524e+01 -1.699363626539707184e-01 -9.689806526526751895e-01
-1.329896074533462524e+01 -3.047019876539707184e-01 -9.663866585120501895e-01
-1.333863359689712524e+01 -4.449607767164707184e-01 -9.648455208167376895e-01
-1.335804277658462524e+01 -5.831443704664707184e-01 -9.624651497229876895e-01
-1.337891680002212524e+01 -7.219383157789707184e-01 -9.601458137854876895e-01
-1.341907793283462524e+01 -8.661033548414707184e-01 -9.588793342933001895e-01
-1.345057207345962524e+01 -1.010024253278970718e+00 -9.573992317542376895e-01
-1.349158769845962524e+01 -1.156874839216470718e+00 -9.561022346839251895e-01
-1.513526445627212524e+01 -4.719383157789707184e-01 -1.004503113590175190e+00
-1.518177324533462524e+01 -6.312400735914707184e-01 -1.002870423160487690e+00
-1.523768144845962524e+01 -7.938377298414707184e-01 -1.001664978824550190e+00
-1.525232988595962524e+01 -9.506980814039707184e-01 -9.983080452308001895e-01
-1.526710039377212524e+01 -1.107924643903970718e+00 -9.949358528479876895e-01
-1.528187090158462524e+01 -1.266127768903970718e+00 -9.915484016761126895e-01
-1.529676347970962524e+01 -1.425795737653970718e+00 -9.881151741370501895e-01
-1.532703691720962524e+01 -1.589492026716470718e+00 -9.854448860511126895e-01
-1.736121660470962524e+01 -8.348533548414707184e-01 -1.040864807926112690e+00
-1.739625078439712524e+01 -1.014907065778970718e+00 -1.037278992496425190e+00
-1.741956621408462524e+01 -1.194228354841470718e+00 -1.033525330387050190e+00
-1.744300371408462524e+01 -1.375380698591470718e+00 -1.029741150699550190e+00
-1.747754961252212524e+01 -1.559340659528970718e+00 -1.026445252262050190e+00
-1.755652910470962524e+01 -1.754409018903970718e+00 -1.025148255191737690e+00
-1.767774492502212524e+01 -1.961928550153970718e+00 -1.025682312808925190e+00
-1.777662187814712524e+01 -2.166762534528970718e+00 -1.025575501285487690e+00
-2.089832597970962524e+01 -1.412123862653970718e+00 -1.111772400699550190e+00
-1.827003008127212524e+01 -1.164199057966470718e+00 -9.948748176917376895e-01
-2.058216387033462524e+01 -1.774916831403970718e+00 -1.086519104801112690e+00
-2.089039140939712524e+01 -2.044203940778970718e+00 -1.093370301090175190e+00
-2.111255937814712524e+01 -2.302382651716470718e+00 -1.096498352847987690e+00
-2.130250078439712524e+01 -2.559096518903970718e+00 -1.098146302066737690e+00
-2.135596758127212524e+01 -2.790541831403970718e+00 -1.094072205387050190e+00
-2.140980058908462524e+01 -3.023207847028970718e+00 -1.089982849918300190e+00
-2.546766191720962524e+01 -2.157241050153970718e+00 -1.189302307926112690e+00
-1.826343828439712524e+01 -1.159926597028970718e+00 -9.108599251136126895e-01
-2.842090898752212524e+01 -3.216567222028970718e+00 -1.283449036441737690e+00
-3.118458086252212524e+01 -4.045058432966470718e+00 -1.376924378238612690e+00
-2.630201250314712524e+01 -3.362929526716470718e+00 -1.188814026676112690e+00
-2.608643633127212524e+01 -3.586196128278970718e+00 -1.173066956363612690e+00
-2.648755937814712524e+01 -3.946181479841470718e+00 -1.179582459293300190e+00
-2.709534746408462524e+01 -4.363661948591470718e+00 -1.193895203433925190e+00
-2.654041582345962524e+01 -2.328505698591470718e+00 -1.107698304019862690e+00
-1.797571855783462524e+01 -1.106826011091470718e+00 -8.181322639808001895e-01
-3.136060625314712524e+01 -3.753066245466470718e+00 -1.248338562808925190e+00
-3.418909746408462524e+01 -4.624159995466470718e+00 -1.329805237613612690e+00
-3.442261797189712524e+01 -5.022231284528970718e+00 -1.326646668277675190e+00
-3.772449785470962524e+01 -6.087172690778970718e+00 -1.420305115543300190e+00
-3.733704668283462524e+01 -6.391005698591470718e+00 -1.396333557926112690e+00
-3.125879961252212524e+01 -5.342421714216470718e+00 -1.196321350894862690e+00
-2.643409258127212524e+01 -2.306655112653970718e+00 -9.831255501136126895e-01
-1.801990801095962524e+01 -1.111464682966470718e+00 -7.374590462073626895e-01
-1.786524492502212524e+01 -1.264296714216470718e+00 -7.270525520667376895e-01
-3.844825273752212524e+01 -5.445937339216470718e+00 -1.288286072574550190e+00
-4.257093340158462524e+01 -6.684218589216470718e+00 -1.388200623355800190e+00
-4.553126055002212524e+01 -7.759780112653970718e+00 -1.454133850894862690e+00
-5.216114336252212524e+01 -9.728408042341470718e+00 -1.616823059879237690e+00
-3.126258379220962524e+01 -5.337660972028970718e+00 -1.050981385074550190e+00
-2.661451250314712524e+01 -2.331557456403970718e+00 -8.657702034339251895e-01
-1.806446367502212524e+01 -1.116103354841470718e+00 -6.559618538245501895e-01
-4.230713945627212524e+01 -5.754653159528970718e+00 -1.212617737613612690e+00
-3.867957597970962524e+01 -5.484145347028970718e+00 -1.115739685855800190e+00
-4.797327715158462524e+01 -7.781752768903970718e+00 -1.312471253238612690e+00
-4.826038652658462524e+01 -8.338271323591470718e+00 -1.302980286441737690e+00
-5.751124101877212524e+01 -1.092494124546647072e+01 -1.489198548160487690e+00
-3.126636797189712524e+01 -5.332900229841470718e+00 -9.048632210120501895e-01
-1.852527910470962524e+01 -1.007216636091470718e+00 -5.884874885901751895e-01
-1.810914140939712524e+01 -1.120742026716470718e+00 -5.745104378089251895e-01
-1.795289140939712524e+01 -1.274306479841470718e+00 -5.655993049964251895e-01
-3.843213945627212524e+01 -5.429335776716470718e+00 -9.323443001136126895e-01
-4.807215410470962524e+01 -7.793471518903970718e+00 -1.091523987613612690e+00
-4.767664629220962524e+01 -8.204360190778970718e+00 -1.068254334293300190e+00
-5.704590898752212524e+01 -1.080995101109147072e+01 -1.212816101871425190e+00
-3.127015215158462524e+01 -5.328139487653970718e+00 -7.595232551917376895e-01
-1.852015215158462524e+01 -1.003188315778970718e+00 -5.037096565589251895e-01
-1.815418535470962524e+01 -1.125502768903970718e+00 -4.922197883948626895e-01
-3.891077715158462524e+01 -5.116713706403970718e+00 -7.736834114417376895e-01
-3.814759355783462524e+01 -5.367446128278970718e+00 -7.498644417151751895e-01
-2.222779375314712524e+01 -2.507949057966470718e+00 -5.271624153479876895e-01
-2.374024492502212524e+01 -3.059584800153970718e+00 -5.388353889808001895e-01
-2.580433183908462524e+01 -3.768813315778970718e+00 -5.562609260901751895e-01
-2.919385820627212524e+01 -4.833510581403970718e+00 -5.882280891761126895e-01
-1.814747148752212524e+01 -9.394676126539707184e-01 -4.158037727698626895e-01
-1.819922930002212524e+01 -1.130141440778970718e+00 -4.099749153479876895e-01
-1.963025957345962524e+01 -1.575576011091470718e+00 -4.167650764808001895e-01
-1.898524004220962524e+01 -1.649916831403970718e+00 -4.041460579261126895e-01
-2.197767168283462524e+01 -2.453017417341470718e+00 -4.228228157386126895e-01
-2.366041094064712524e+01 -3.038344565778970718e+00 -4.286821907386126895e-01
-2.593079668283462524e+01 -3.792617026716470718e+00 -4.378222053870501895e-01
-2.926636797189712524e+01 -4.845351401716470718e+00 -4.531725471839251895e-01
-1.825232988595962524e+01 -9.533836282789707184e-01 -3.334368294104876895e-01
-1.824463945627212524e+01 -1.134902182966470718e+00 -3.268755501136126895e-01
-1.981861406564712524e+01 -1.606703940778970718e+00 -3.279284065589251895e-01
-2.059937578439712524e+01 -1.958876792341470718e+00 -3.240221565589251895e-01
-1.869300371408462524e+01 -1.779677573591470718e+00 -3.092974251136126895e-01
-2.328919512033462524e+01 -2.954604331403970718e+00 -3.183001106604876895e-01
-2.588892656564712524e+01 -3.778578940778970718e+00 -3.170641487464251895e-01
-6.867554765939712524e+01 -1.410743636265397072e+01 -4.214647835120501895e-01
-1.806714922189712524e+01 -9.203025735914707184e-01 -2.503832405433001895e-01
-1.882496172189712524e+01 -1.232070151716470718e+00 -2.439440315589251895e-01
-1.973963457345962524e+01 -1.588881675153970718e+00 -2.368944710120501895e-01
-1.900916582345962524e+01 -1.647963706403970718e+00 -2.299517219886126895e-01
-1.874903398752212524e+01 -1.787856284528970718e+00 -2.231310432776751895e-01
-7.069617754220962524e+01 -1.309742659702897072e+01 -1.499651497229876895e-01
