-1.022832801938056946e+01 2.323351085186004639e+00 -1.936643499880972286e-01
-1.043694618344306946e+01 2.235582530498504639e+00 -1.894376654177847286e-01
-9.023005753755569458e+00 2.771715342998504639e+00 -1.763608831912222286e-01
-9.195735245943069458e+00 2.704332530498504639e+00 -1.724393744021597286e-01
-9.375544816255569458e+00 2.634264171123504639e+00 -1.683652777224722286e-01
-9.563533097505569458e+00 2.561021983623504639e+00 -1.640928167849722286e-01
-9.758723527193069458e+00 2.484972178936004639e+00 -1.596677679568472286e-01
-9.948420792818069458e+00 2.404771983623504639e+00 -1.551816839724722286e-01
-1.014409950375556946e+01 2.320909678936004639e+00 -1.505124945193472286e-01
-1.034954383969306946e+01 2.233873546123504639e+00 -1.456449408084097286e-01
-8.954524308443069458e+00 2.765611827373504639e+00 -1.386411566287222286e-01
-9.124446183443069458e+00 2.698717296123504639e+00 -1.340024847537222286e-01
-9.301570206880569458e+00 2.629137217998504639e+00 -1.293943304568472286e-01
-9.486384660005569458e+00 2.556505382061004639e+00 -1.243589300662222286e-01
-9.681453019380569458e+00 2.481187999248504639e+00 -1.190793890505972286e-01
-9.918147355318069458e+00 2.404405772686004639e+00 -1.131132025271597286e-01
-1.013616493344306946e+01 2.321886241436004639e+00 -1.070402044802847286e-01
-1.037859657406806946e+01 2.236314952373504639e+00 -1.007230658084097286e-01
-8.924250870943069458e+00 2.763536632061004639e+00 -1.008909124880972286e-01
-9.122981339693069458e+00 2.699693858623504639e+00 -9.521464295684722856e-02
-9.331843644380569458e+00 2.632921397686004639e+00 -8.903483338653472856e-02
-9.551692277193069458e+00 2.562608897686004639e+00 -8.253458924590972856e-02
-9.781916886568069458e+00 2.489000499248504639e+00 -7.572916932403472856e-02
-1.000286415219306946e+01 2.410387217998504639e+00 -6.896952576934722856e-02
-1.023955848813056946e+01 2.327867686748504639e+00 -6.176737733184722856e-02
-1.676726844906806946e+01 2.465562999248504639e+00 6.704731993377777144e-02
-1.212639930844306946e+01 2.268297374248504639e+00 -1.022720136120909729e+00
-1.208440712094306946e+01 2.153307139873504639e+00 -1.015929974988097229e+00
-1.203728798031806946e+01 2.038927257061004639e+00 -1.009109296277159729e+00
-1.199041298031806946e+01 1.925157725811004639e+00 -1.002319135144347229e+00
-1.194414833188056946e+01 1.812730967998504639e+00 -9.956052679568472286e-01
-1.189812782406806946e+01 1.701158702373504639e+00 -9.889524359255972286e-01
-1.185247352719306946e+01 1.590196788311004639e+00 -9.823148626834097286e-01
-1.184392860531806946e+01 1.478990733623504639e+00 -9.784543890505972286e-01
-1.461162880063056946e+01 2.352159678936004639e+00 -1.127639569714659729e+00
-1.470220497250556946e+01 2.215318858623504639e+00 -1.128906049206847229e+00
-1.479473426938056946e+01 2.076769053936004639e+00 -1.129882611706847229e+00
-1.488799598813056946e+01 1.935899913311004639e+00 -1.131179608777159729e+00
-1.292888954281806946e+01 1.807604014873504639e+00 -1.004806317761534729e+00
-1.288164833188056946e+01 1.686266124248504639e+00 -9.979703802615347286e-01
-1.247014930844306946e+01 1.575304210186004639e+00 -9.690244574099722286e-01
-1.248467567563056946e+01 1.457140147686004639e+00 -9.661405462771597286e-01
-1.476739051938056946e+01 2.359361827373504639e+00 -1.072479047253722229e+00
-1.486004188656806946e+01 2.221056163311004639e+00 -1.073394574597472229e+00
-1.495379188656806946e+01 2.080919444561004639e+00 -1.074325360730284729e+00
-1.504925087094306946e+01 1.938463389873504639e+00 -1.075256146863097229e+00
-1.514556434750556946e+01 1.794542491436004639e+00 -1.076217450574034729e+00
-1.620537880063056946e+01 1.632677257061004639e+00 -1.132278241589659729e+00
-1.247161415219306946e+01 1.577013194561004639e+00 -9.146573919802847286e-01
-1.247954872250556946e+01 1.459093272686004639e+00 -9.113462347537222286e-01
-1.492583778500556946e+01 2.366686046123504639e+00 -1.016387738659972229e+00
-1.502141883969306946e+01 2.226915538311004639e+00 -1.016631879284972229e+00
-1.511736610531806946e+01 2.085191905498504639e+00 -1.017196454480284729e+00
-1.525774696469306946e+01 1.941271007061004639e+00 -1.020034589245909729e+00
-1.586187294125556946e+01 1.791979014873504639e+00 -1.047378339245909729e+00
-1.538494423031806946e+01 1.648546397686004639e+00 -1.017410077527159729e+00
-1.247295692563056946e+01 1.578722178936004639e+00 -8.602903265505972286e-01
-1.247454383969306946e+01 1.461046397686004639e+00 -8.569028753787222286e-01
-1.508880165219306946e+01 2.374132335186004639e+00 -9.587247747927847286e-01
-1.518560341000556946e+01 2.232774913311004639e+00 -9.588926214724722286e-01
-1.551604774594306946e+01 2.092760264873504639e+00 -9.704435247927847286e-01
-1.574688270688056946e+01 1.945177257061004639e+00 -9.769285101443472286e-01
-1.617058876156806946e+01 1.792223155498504639e+00 -9.926145453005972286e-01
-1.627691200375556946e+01 1.636095225811004639e+00 -9.927671331912222286e-01
-1.247442176938056946e+01 1.580431163311004639e+00 -8.062284369021597286e-01
-1.246953895688056946e+01 1.463121592998504639e+00 -8.022153753787222286e-01
-1.527740028500556946e+01 2.382555186748504639e+00 -9.010770697146597286e-01
-1.578850868344306946e+01 2.249254405498504639e+00 -9.189145941287222286e-01
-1.580791786313056946e+01 2.098863780498504639e+00 -9.149473089724722286e-01
-1.608526161313056946e+01 1.948595225811004639e+00 -9.223173040896597286e-01
-1.605327919125556946e+01 1.795274913311004639e+00 -9.160001654177847286e-01
-1.556060341000556946e+01 1.650133311748504639e+00 -8.896787542849722286e-01
-1.247576454281806946e+01 1.582140147686004639e+00 -7.518613714724722286e-01
-1.246453407406806946e+01 1.465074717998504639e+00 -7.478940863162222286e-01
-1.529534462094306946e+01 2.385240733623504639e+00 -8.344571966677847286e-01
-1.582171180844306946e+01 2.252184092998504639e+00 -8.509214300662222286e-01
-1.600030067563056946e+01 2.103746592998504639e+00 -8.531797308474722286e-01
-1.676067665219306946e+01 1.953478038311004639e+00 -8.783109564334097286e-01
-1.622661903500556946e+01 1.796495616436004639e+00 -8.522336859255972286e-01
-1.564971473813056946e+01 1.650865733623504639e+00 -8.248441595584097286e-01
-1.542766883969306946e+01 1.506944835186004639e+00 -8.114927191287222286e-01
-1.245952919125556946e+01 1.467027842998504639e+00 -6.933286566287222286e-01
-1.531963661313056946e+01 2.388170421123504639e+00 -7.682645697146597286e-01
-1.578936317563056946e+01 2.253648936748504639e+00 -7.802884954959097286e-01
-1.621636512875556946e+01 2.108995616436004639e+00 -7.901304144412222286e-01
-1.724248817563056946e+01 1.957750499248504639e+00 -8.209379095584097286e-01
-1.591411903500556946e+01 1.800646007061004639e+00 -7.697294134646597286e-01
-1.636736610531806946e+01 1.641710460186004639e+00 -7.803800482302847286e-01
-1.550091102719306946e+01 1.507311046123504639e+00 -7.463224310427847286e-01
-1.245452430844306946e+01 1.468980967998504639e+00 -6.391141790896597286e-01
-1.534771278500556946e+01 2.391222178936004639e+00 -7.016294378787222286e-01
-1.575042274594306946e+01 2.254869639873504639e+00 -7.094114203005972286e-01
-1.610100868344306946e+01 2.109605967998504639e+00 -7.153318304568472286e-01
-1.602959755063056946e+01 1.955187022686004639e+00 -7.082212347537222286e-01
-1.587407997250556946e+01 1.803209483623504639e+00 -6.986387152224722286e-01
-1.588311317563056946e+01 1.651720225811004639e+00 -6.940610785037222286e-01
-1.557744911313056946e+01 1.507555186748504639e+00 -6.802213568240347286e-01
-1.244951942563056946e+01 1.470934092998504639e+00 -5.846708197146597286e-01
-1.642827919125556946e+01 2.430284678936004639e+00 -6.631925482302847286e-01
-1.724712684750556946e+01 2.293321788311004639e+00 -6.797330755740347286e-01
-1.760222938656806946e+01 2.133409678936004639e+00 -6.836851019412222286e-01
-1.600286415219306946e+01 1.957384288311004639e+00 -6.371305365115347286e-01
-1.628997352719306946e+01 1.803087413311004639e+00 -6.395261663943472286e-01
-1.568706825375556946e+01 1.656969249248504639e+00 -6.194150824099722286e-01
-1.566680458188056946e+01 1.507555186748504639e+00 -6.141050238162222286e-01
-1.244451454281806946e+01 1.472887217998504639e+00 -5.305784124880972286e-01
-1.623858192563056946e+01 2.426134288311004639e+00 -5.864103216677847286e-01
-1.605218055844306946e+01 2.266588389873504639e+00 -5.773771185427847286e-01
-1.569671180844306946e+01 2.108385264873504639e+00 -5.648496527224722286e-01
-1.597600868344306946e+01 1.959459483623504639e+00 -5.659330267459097286e-01
-1.634502723813056946e+01 1.805040538311004639e+00 -5.687101263552847286e-01
-1.558465126156806946e+01 1.660875499248504639e+00 -5.481412786990347286e-01
-1.569866493344306946e+01 1.508897960186004639e+00 -5.456693548709097286e-01
-1.243950966000556946e+01 1.474840342998504639e+00 -4.762418646365347286e-01
-1.535991981625556946e+01 2.398058116436004639e+00 -4.997251410037222286e-01
-1.606499794125556946e+01 2.269151866436004639e+00 -5.071256536990347286e-01
-1.565520790219306946e+01 2.109850108623504639e+00 -4.953153509646597286e-01
-1.572014930844306946e+01 1.960558116436004639e+00 -4.915769476443472286e-01
-1.570208290219306946e+01 1.810899913311004639e+00 -4.864805120974722286e-01
-2.177569130063056946e+01 1.568102061748504639e+00 -5.781553167849722286e-01
-1.572393348813056946e+01 1.510606944561004639e+00 -4.772031683474722286e-01
-1.243877723813056946e+01 1.476671397686004639e+00 -4.223325628787222286e-01
-1.535857704281806946e+01 2.400133311748504639e+00 -4.320676703005972286e-01
-1.561565712094306946e+01 2.260240733623504639e+00 -4.306028265505972286e-01
-1.711309364438056946e+01 2.133531749248504639e+00 -4.445493597537222286e-01
-1.704497841000556946e+01 1.968980967998504639e+00 -4.384763617068472286e-01
-1.637237098813056946e+01 1.809557139873504639e+00 -4.254300970584097286e-01
-1.179888466000556946e+01 1.722765147686004639e+00 -3.687284369021597286e-01
-1.208916786313056946e+01 1.604356944561004639e+00 -3.680723089724722286e-01
-1.239470985531806946e+01 1.479967296123504639e+00 -3.676755804568472286e-01
-1.043474891781806946e+01 2.230943858623504639e+00 -3.239591497927847286e-01
-1.065728309750556946e+01 2.139269053936004639e+00 -3.226163763552847286e-01
-1.089019325375556946e+01 2.043443858623504639e+00 -3.212125677615347286e-01
-1.113506630063056946e+01 1.942613780498504639e+00 -3.197477240115347286e-01
-1.139104774594306946e+01 1.837145030498504639e+00 -3.181913275271597286e-01
-1.165996864438056946e+01 1.726549327373504639e+00 -3.165738958865347286e-01
-1.194366005063056946e+01 1.609728038311004639e+00 -3.148649115115347286e-01
-1.224138954281806946e+01 1.487047374248504639e+00 -3.130643744021597286e-01
-1.032781532406806946e+01 2.228624522686004639e+00 -2.786405462771597286e-01
-1.056719520688056946e+01 2.138536632061004639e+00 -2.766111273318472286e-01
-1.082073524594306946e+01 2.043810069561004639e+00 -2.742307562380972286e-01
-1.108855751156806946e+01 1.943956553936004639e+00 -2.717130560427847286e-01
-1.136992958188056946e+01 1.838854014873504639e+00 -2.690732855349722286e-01
-1.166692665219306946e+01 1.728014171123504639e+00 -2.662809271365347286e-01
-1.198199012875556946e+01 1.610460460186004639e+00 -2.633359808474722286e-01
-1.231512001156806946e+01 1.486314952373504639e+00 -2.599332708865347286e-01
-1.041228798031806946e+01 2.232896983623504639e+00 -2.343747992068472286e-01
-1.065777137875556946e+01 2.142198741436004639e+00 -2.309720892459097286e-01
-1.091607216000556946e+01 2.046739757061004639e+00 -2.273862738162222286e-01
-1.118889930844306946e+01 1.945909678936004639e+00 -2.236020941287222286e-01
-1.147576454281806946e+01 1.839952647686004639e+00 -2.196195501834097286e-01
-1.174920204281806946e+01 1.728502452373504639e+00 -2.154844183474722286e-01
-1.203142860531806946e+01 1.610948741436004639e+00 -2.111509222537222286e-01
-1.232744911313056946e+01 1.487657725811004639e+00 -2.066038031130972286e-01
-1.043841102719306946e+01 2.235216319561004639e+00 -1.894224066287222286e-01
-1.065691688656806946e+01 2.143663585186004639e+00 -1.852720160037222286e-01
-1.088482216000556946e+01 2.047838389873504639e+00 -1.806943792849722286e-01
-1.112420204281806946e+01 1.947130382061004639e+00 -1.758878607302847286e-01
-1.137432411313056946e+01 1.842027842998504639e+00 -1.708677191287222286e-01
-1.163665321469306946e+01 1.731676280498504639e+00 -1.655881781130972286e-01
-1.191314247250556946e+01 1.615465342998504639e+00 -1.600339788943472286e-01
-1.220220497250556946e+01 1.493761241436004639e+00 -1.539457220584097286e-01
-1.035100868344306946e+01 2.233629405498504639e+00 -1.456144232302847286e-01
-1.056499794125556946e+01 2.142687022686004639e+00 -1.403043646365347286e-01
-1.078863075375556946e+01 2.047838389873504639e+00 -1.347501654177847286e-01
-1.106597450375556946e+01 1.948351085186004639e+00 -1.284482855349722286e-01
-1.135979774594306946e+01 1.843614757061004639e+00 -1.218107122927847286e-01
-1.167071083188056946e+01 1.732896983623504639e+00 -1.147611517459097286e-01
-1.200139930844306946e+01 1.614977061748504639e+00 -1.072843451052847286e-01
-1.235137489438056946e+01 1.490343272686004639e+00 -9.934977479278472856e-02
-1.038030555844306946e+01 2.235948741436004639e+00 -1.006772894412222286e-01
-1.063604286313056946e+01 2.145982921123504639e+00 -9.374979920684722856e-02
-1.090508583188056946e+01 2.051134288311004639e+00 -8.670023865997222856e-02
-1.119073036313056946e+01 1.950548350811004639e+00 -7.896403260528472856e-02
-1.149163368344306946e+01 1.844713389873504639e+00 -7.081583924590972856e-02
-1.674517372250556946e+01 1.661974132061004639e+00 1.799031309784027144e-02
-1.658904579281806946e+01 1.505357921123504639e+00 2.093525938690277144e-02
-1.650139930844306946e+01 1.350084483623504639e+00 2.453633360565277144e-02
-1.676678016781806946e+01 2.465074717998504639e+00 6.706257872284027144e-02
-1.670659950375556946e+01 2.303453624248504639e+00 7.061787657440277144e-02
-1.661638954281806946e+01 2.142442882061004639e+00 7.394429259002777144e-02
-1.762896278500556946e+01 1.989244639873504639e+00 9.951802305877777144e-02
-1.689239051938056946e+01 1.823595225811004639e+00 8.979817442596527144e-02
-1.683404091000556946e+01 1.663072764873504639e+00 9.376545958221527144e-02
-1.720074012875556946e+01 1.493028819561004639e+00 1.066896539181527714e-01
-1.654021766781806946e+01 1.351061046123504639e+00 9.815999083221527144e-02
-1.184405067563056946e+01 1.478624522686004639e+00 -9.784543890505972286e-01
-1.186272743344306946e+01 1.366319835186004639e+00 -9.761655706912222286e-01
-1.187615516781806946e+01 1.253893077373504639e+00 -9.738004583865347286e-01
-1.188958290219306946e+01 1.140489757061004639e+00 -9.714048285037222286e-01
-1.190313270688056946e+01 1.027208507061004639e+00 -9.690244574099722286e-01
-1.191668251156806946e+01 9.133169054985046387e-01 -9.666288275271597286e-01
-1.193035438656806946e+01 7.986928820610046387e-01 -9.642026800662222286e-01
-1.193853309750556946e+01 6.845571398735046387e-01 -9.617154974490347286e-01
-1.284160926938056946e+01 1.443590342998504639e+00 -9.879911322146597286e-01
-1.285613563656806946e+01 1.321520030498504639e+00 -9.853055853396597286e-01
-1.288860633969306946e+01 1.198106944561004639e+00 -9.834134954959097286e-01
-1.295891883969306946e+01 1.070787608623504639e+00 -9.840543646365347286e-01
-1.302984169125556946e+01 9.423696398735046387e-01 -9.846952337771597286e-01
-1.310161903500556946e+01 8.121206164360046387e-01 -9.853513617068472286e-01
-1.316631630063056946e+01 6.806508898735046387e-01 -9.858243841677847286e-01
-1.323858192563056946e+01 5.472280383110046387e-01 -9.864194769412222286e-01
-1.248186805844306946e+01 1.458604991436004639e+00 -9.114530462771597286e-01
-1.625908973813056946e+01 1.164659678936004639e+00 -1.120742597058409729e+00
-1.547063758969306946e+01 1.053697764873504639e+00 -1.071944989636534729e+00
-1.530108192563056946e+01 9.164907336235046387e-01 -1.058074750378722229e+00
-1.512542274594306946e+01 7.835561633110046387e-01 -1.043990888074034729e+00
-1.493780067563056946e+01 6.548940539360046387e-01 -1.029357709363097229e+00
-1.479449012875556946e+01 5.250112414360046387e-01 -1.017226972058409729e+00
-1.484466102719306946e+01 3.776723742485046387e-01 -1.015746869519347229e+00
-1.247686317563056946e+01 1.460558116436004639e+00 -8.570096869021597286e-01
-1.644524696469306946e+01 1.158434092998504639e+00 -1.058395184949034729e+00
-1.639214637875556946e+01 1.003893077373504639e+00 -1.050948895886534729e+00
-1.607989051938056946e+01 8.669301867485046387e-01 -1.030242719128722229e+00
-1.627056434750556946e+01 6.981069445610046387e-01 -1.035308637097472229e+00
-1.934234169125556946e+01 2.757436633110046387e-01 -1.185775556042784729e+00
-1.507879188656806946e+01 4.997426867485046387e-01 -9.660642523318472286e-01
-1.823907020688056946e+01 1.768702268600463867e-02 -1.119872846081847229e+00
-1.247185829281806946e+01 1.462633311748504639e+00 -8.023221869021597286e-01
-1.642620399594306946e+01 1.161729991436004639e+00 -9.850767035037222286e-01
-1.632512977719306946e+01 1.010118663311004639e+00 -9.755704779177847286e-01
-1.681914833188056946e+01 8.202993273735046387e-01 -9.937894720584097286e-01
-1.642852333188056946e+01 6.884633898735046387e-01 -9.708402533084097286e-01
-1.635003212094306946e+01 5.373403429985046387e-01 -9.624479193240347286e-01
-1.947088173031806946e+01 7.823389768600463867e-02 -1.099960126355284729e+00
-1.939141395688056946e+01 -1.023080945014953613e-01 -1.090637006238097229e+00
-1.246685341000556946e+01 1.464586436748504639e+00 -7.479703802615347286e-01
-1.799285438656806946e+01 1.091661632061004639e+00 -9.789579290896597286e-01
-1.664324501156806946e+01 9.946157336235046387e-01 -9.167020697146597286e-01
-1.825518348813056946e+01 7.277700304985046387e-01 -9.793241400271597286e-01
-1.984807899594306946e+01 4.302846789360046387e-01 -1.040160932019347229e+00
-1.890581825375556946e+01 3.193227648735046387e-01 -9.953763861209097286e-01
-1.968389442563056946e+01 6.065577268600463867e-02 -1.021621503308409729e+00
-2.172564247250556946e+01 -3.476694226264953613e-01 -1.099288739636534729e+00
-1.246184852719306946e+01 1.466539561748504639e+00 -6.934049505740347286e-01
-1.676543739438056946e+01 1.150865733623504639e+00 -8.529203314334097286e-01
-1.615252235531806946e+01 1.024645030498504639e+00 -8.248899359255972286e-01
-1.657427528500556946e+01 8.414174914360046387e-01 -8.358152288943472286e-01
-1.690740516781806946e+01 6.569692492485046387e-01 -8.432157415896597286e-01
-1.646294716000556946e+01 5.324575304985046387e-01 -8.218686956912222286e-01
-1.645513466000556946e+01 3.742544054985046387e-01 -8.166654486209097286e-01
-2.006902626156806946e+01 -1.683481335639953613e-01 -9.420164007693472286e-01
-1.245684364438056946e+01 1.468492686748504639e+00 -6.391752142459097286e-01
-1.625091102719306946e+01 1.176866710186004639e+00 -7.619321722537222286e-01
-1.669756630063056946e+01 9.965688586235046387e-01 -7.714078802615347286e-01
-1.659917762875556946e+01 8.422719836235046387e-01 -7.631681341677847286e-01
-1.910772255063056946e+01 4.924184679985046387e-01 -8.393400091677847286e-01
-1.652117469906806946e+01 5.300161242485046387e-01 -7.506864447146597286e-01
-1.651934364438056946e+01 3.705922961235046387e-01 -7.460325140505972286e-01
-1.992742469906806946e+01 -1.501596570014953613e-01 -8.481901068240347286e-01
-1.245183876156806946e+01 1.470445811748504639e+00 -5.847318548709097286e-01
-1.555523231625556946e+01 1.211168467998504639e+00 -6.701047796755972286e-01
-1.601690223813056946e+01 1.036852061748504639e+00 -6.785123724490347286e-01
-1.660601356625556946e+01 8.443471789360046387e-01 -6.901853460818472286e-01
-1.673723915219306946e+01 6.749135851860046387e-01 -6.887967962771597286e-01
-1.658587196469306946e+01 5.269643664360046387e-01 -6.795499701052847286e-01
-1.658440712094306946e+01 3.668081164360046387e-01 -6.744535345584097286e-01
-2.534112098813056946e+01 -7.204721570014953613e-01 -9.040983099490347286e-01
-1.244683387875556946e+01 1.472398936748504639e+00 -5.306089300662222286e-01
-1.596978309750556946e+01 1.194444835186004639e+00 -6.118314642459097286e-01
-1.639373329281806946e+01 1.018297374248504639e+00 -6.170499701052847286e-01
-1.658660438656806946e+01 8.480092883110046387e-01 -6.165464300662222286e-01
-1.666436317563056946e+01 6.829702258110046387e-01 -6.132657904177847286e-01
-1.665105751156806946e+01 5.237905383110046387e-01 -6.078489203005972286e-01
-1.664971473813056946e+01 3.631460070610046387e-01 -6.026761908084097286e-01
-2.644683387875556946e+01 -8.335092663764953613e-01 -8.150022406130972286e-01
-1.244182899594306946e+01 1.474352061748504639e+00 -4.762723822146597286e-01
-1.694475868344306946e+01 1.152574717998504639e+00 -5.603177923709097286e-01
-1.871221473813056946e+01 8.921987414360046387e-01 -5.889890570193472286e-01
-1.882818153500556946e+01 7.038442492485046387e-01 -5.853422064334097286e-01
-1.665789344906806946e+01 6.858999133110046387e-01 -5.392606634646597286e-01
-1.679571083188056946e+01 5.140249133110046387e-01 -5.366056341677847286e-01
-1.671575477719306946e+01 3.593618273735046387e-01 -5.299375433474722286e-01
-2.639776161313056946e+01 -8.242319226264953613e-01 -6.948087591677847286e-01
-1.243853309750556946e+01 1.476305186748504639e+00 -4.223020453005972286e-01
-1.538360145688056946e+01 1.225694835186004639e+00 -4.624326605349722286e-01
-1.724944618344306946e+01 9.758169054985046387e-01 -4.848783392459097286e-01
-1.674895790219306946e+01 8.423940539360046387e-01 -4.723203558474722286e-01
-1.659429481625556946e+01 6.932241320610046387e-01 -4.649351019412222286e-01
-1.681487587094306946e+01 5.148794054985046387e-01 -4.627378363162222286e-01
-1.670025184750556946e+01 3.633901476860046387e-01 -4.559171576052847286e-01
-1.509344032406806946e+01 3.716909289360046387e-01 -4.298551458865347286e-01
-1.239690712094306946e+01 1.479479014873504639e+00 -3.676908392459097286e-01
-1.269976356625556946e+01 1.349107921123504639e+00 -3.669736761599722286e-01
-1.301800087094306946e+01 1.211534678936004639e+00 -3.665006536990347286e-01
-1.335418251156806946e+01 1.065904796123504639e+00 -3.656919378787222286e-01
-1.370855262875556946e+01 9.124624133110046387e-01 -3.648221869021597286e-01
-1.408379676938056946e+01 7.499868273735046387e-01 -3.639219183474722286e-01
-1.448211219906806946e+01 5.771352648735046387e-01 -3.625944036990347286e-01
-1.490520790219306946e+01 3.939077258110046387e-01 -3.615568060427847286e-01
-1.224346473813056946e+01 1.486681163311004639e+00 -3.130643744021597286e-01
-1.255401161313056946e+01 1.357408702373504639e+00 -3.110196966677847286e-01
-1.287627723813056946e+01 1.221300303936004639e+00 -3.088224310427847286e-01
-1.324309852719306946e+01 1.075182139873504639e+00 -3.066099066287222286e-01
-1.363201454281806946e+01 9.202749133110046387e-01 -3.042753119021597286e-01
-1.404632118344306946e+01 7.552358508110046387e-01 -3.017881292849722286e-01
-1.449016883969306946e+01 5.784780383110046387e-01 -2.991178411990347286e-01
-1.496355751156806946e+01 3.900014758110046387e-01 -2.962797064334097286e-01
-1.231743934750556946e+01 1.485826671123504639e+00 -2.599180120974722286e-01
-1.265435341000556946e+01 1.354723155498504639e+00 -2.566984076052847286e-01
-1.300616005063056946e+01 1.216051280498504639e+00 -2.529752630740347286e-01
-1.338103798031806946e+01 1.068102061748504639e+00 -2.490079779177847286e-01
-1.375066688656806946e+01 9.134389758110046387e-01 -2.447965521365347286e-01
-1.412102821469306946e+01 7.510854601860046387e-01 -2.403257269412222286e-01
-1.451482704281806946e+01 5.783559679985046387e-01 -2.355802435427847286e-01
-1.493072059750556946e+01 3.957387804985046387e-01 -2.302091497927847286e-01
-1.232952430844306946e+01 1.487169444561004639e+00 -2.065732855349722286e-01
-1.262688758969306946e+01 1.357774913311004639e+00 -2.016141790896597286e-01
-1.293401649594306946e+01 1.221788585186004639e+00 -1.964109320193472286e-01
-1.325908973813056946e+01 1.077989757061004639e+00 -1.909025091677847286e-01
-1.360113075375556946e+01 9.266225695610046387e-01 -1.851194281130972286e-01
-1.396270301938056946e+01 7.665883898735046387e-01 -1.789853949099722286e-01
-1.441997841000556946e+01 5.895864367485046387e-01 -1.721036810427847286e-01
-1.491118934750556946e+01 4.000112414360046387e-01 -1.647336859255972286e-01
-1.220428016781806946e+01 1.493272960186004639e+00 -1.539152044802847286e-01
-1.255974891781806946e+01 1.362657725811004639e+00 -1.474149603396597286e-01
-1.291533973813056946e+01 1.224718272686004639e+00 -1.403806585818472286e-01
-1.330254676938056946e+01 1.077135264873504639e+00 -1.328122992068472286e-01
-1.371416786313056946e+01 9.201528429985046387e-01 -1.247556585818472286e-01
-1.415423133969306946e+01 7.524282336235046387e-01 -1.161497015505972286e-01
-1.676812294125556946e+01 3.696157336235046387e-01 -8.601359315215972856e-02
-2.654693153500556946e+01 -8.151987195014953613e-01 1.895161680877777144e-02
-1.235393837094306946e+01 1.489854991436004639e+00 -9.930399842559722856e-02
-1.270782020688056946e+01 1.357896983623504639e+00 -9.082011170684722856e-02
-1.766521766781806946e+01 9.684926867485046387e-01 -2.224711365997222856e-02
-1.668609169125556946e+01 8.613149523735046387e-01 -2.943400330840972856e-02
-1.670659950375556946e+01 6.996938586235046387e-01 -2.363566346465972856e-02
-1.672185829281806946e+01 5.379506945610046387e-01 -1.788309998809722856e-02
-2.741802528500556946e+01 -6.335580945014953613e-01 1.415102105587777714e-01
-1.952752235531806946e+01 -7.777196168899536133e-02 3.456135801971527144e-02
-1.650091102719306946e+01 1.349474132061004639e+00 2.455159239471527144e-02
-1.672259071469306946e+01 1.182115733623504639e+00 3.385945372284027144e-02
-1.680169227719306946e+01 1.017931163311004639e+00 4.042073301971527144e-02
-1.667510536313056946e+01 8.644887804985046387e-01 4.377766661346527144e-02
-1.664849403500556946e+01 7.065297961235046387e-01 4.885884337127777144e-02
-1.669146278500556946e+01 5.429555773735046387e-01 5.522175841034027144e-02
-2.744671180844306946e+01 -6.320932507514953613e-01 2.656099420040902714e-01
-2.661260536313056946e+01 -8.138559460639953613e-01 2.588197808712777714e-01
-1.653972938656806946e+01 1.350572764873504639e+00 9.817524962127777144e-02
-1.645745399594306946e+01 1.196275889873504639e+00 1.015321832150277714e-01
-1.669842079281806946e+01 1.025987803936004639e+00 1.124116998165902714e-01
-1.752935341000556946e+01 8.122426867485046387e-01 1.367799859494027714e-01
-1.667010048031806946e+01 7.073842883110046387e-01 1.230165582150277714e-01
-1.761736610531806946e+01 4.676381945610046387e-01 1.506654839962777714e-01
-1.980779579281806946e+01 9.117335081100463867e-02 2.083437066525277714e-01
-2.671123817563056946e+01 -8.199594616889953613e-01 3.810579400509652714e-01
-1.193865516781806946e+01 6.841909289360046387e-01 -9.617154974490347286e-01
-1.195110633969306946e+01 5.692006945610046387e-01 -9.592740911990347286e-01
-1.195806434750556946e+01 4.543325304985046387e-01 -9.567563910037222286e-01
-1.196514442563056946e+01 3.386098742485046387e-01 -9.542234320193472286e-01
-1.199102333188056946e+01 2.199575304985046387e-01 -9.528501410037222286e-01
-1.202056434750556946e+01 9.996241331100463867e-02 -9.517057318240347286e-01
-1.205047157406806946e+01 -2.149754762649536133e-02 -9.505308050662222286e-01
-1.207378700375556946e+01 -1.422250866889953613e-01 -9.492338079959097286e-01
-1.323894813656806946e+01 5.468618273735046387e-01 -9.864194769412222286e-01
-1.325127723813056946e+01 4.186879992485046387e-01 -9.837797064334097286e-01
-1.327166298031806946e+01 2.890493273735046387e-01 -9.812772650271597286e-01
-1.328423622250556946e+01 1.591665148735046387e-01 -9.785917181521597286e-01
-1.329668739438056946e+01 2.916163206100463867e-02 -9.758909124880972286e-01
-1.330926063656806946e+01 -1.014536023139953613e-01 -9.731901068240347286e-01
-1.331365516781806946e+01 -2.318246960639953613e-01 -9.703214544802847286e-01
-1.332635048031806946e+01 -3.636606335639953613e-01 -9.675901312380972286e-01
-1.484514930844306946e+01 3.770620226860046387e-01 -1.015762128308409729e+00
-1.488726356625556946e+01 2.293569445610046387e-01 -1.014144696667784729e+00
-1.492974403500556946e+01 8.030909299850463867e-02 -1.012527265027159729e+00
-1.497283485531806946e+01 -7.056981325149536133e-02 -1.010879315808409729e+00
-1.501616981625556946e+01 -2.223032116889953613e-01 -1.009231366589659729e+00
-1.504522255063056946e+01 -3.730600476264953613e-01 -1.006789960339659729e+00
-1.508172157406806946e+01 -5.265024304389953613e-01 -1.004699506238097229e+00
-1.510491493344306946e+01 -6.783578991889953613e-01 -1.001891889050597229e+00
-1.823553016781806946e+01 1.744288206100463867e-02 -1.119674481824034729e+00
-1.673064735531806946e+01 1.634424924850463867e-02 -1.039626874402159729e+00
-1.686382606625556946e+01 -1.628549695014953613e-01 -1.041656293347472229e+00
-1.699993446469306946e+01 -3.462045788764953613e-01 -1.043746747449034729e+00
-1.708709266781806946e+01 -5.249155163764953613e-01 -1.043365277722472229e+00
-1.711004188656806946e+01 -6.958139538764953613e-01 -1.039809979870909729e+00
-1.713311317563056946e+01 -8.681772351264953613e-01 -1.036208905652159729e+00
-1.714519813656806946e+01 -1.039075672626495361e+00 -1.032485761120909729e+00
-1.939104774594306946e+01 -1.029184460639953613e-01 -1.090591229870909729e+00
-1.931133583188056946e+01 -2.822397351264953613e-01 -1.081619061902159729e+00
-2.009807899594306946e+01 -5.702036023139953613e-01 -1.111419476941222229e+00
-2.186773231625556946e+01 -1.010145008563995361e+00 -1.184402265027159729e+00
-2.202251747250556946e+01 -1.248182117938995361e+00 -1.185073651745909729e+00
-1.988457801938056946e+01 -1.129407703876495361e+00 -1.085128583386534729e+00
-1.999553993344306946e+01 -1.344983875751495361e+00 -1.084335126355284729e+00
-2.004522255063056946e+01 -1.551893055438995361e+00 -1.080825604870909729e+00
-2.172637489438056946e+01 -3.484018445014953613e-01 -1.099303998425597229e+00
-2.185833290219306946e+01 -5.759409070014953613e-01 -1.097915448620909729e+00
-2.201250770688056946e+01 -8.094614148139953613e-01 -1.097839154675597229e+00
-2.216985633969306946e+01 -1.047986805438995361e+00 -1.097762860730284729e+00
-2.482036903500556946e+01 -1.655774891376495361e+00 -1.196014203503722229e+00
-2.499944618344306946e+01 -1.929944813251495361e+00 -1.195831098034972229e+00
-1.769378212094306946e+01 -9.565561413764953613e-01 -9.045408148318472286e-01
-2.790923622250556946e+01 -2.945569813251495361e+00 -1.294204511120909729e+00
-2.007110145688056946e+01 -1.692026257514953613e-01 -9.420774359255972286e-01
-2.215764930844306946e+01 -6.073129773139953613e-01 -1.010833539441222229e+00
-2.004180458188056946e+01 -5.567758679389953613e-01 -9.293516058474722286e-01
-2.497796180844306946e+01 -1.427991688251495361e+00 -1.096938886120909729e+00
-2.024004676938056946e+01 -9.795053601264953613e-01 -9.245145697146597286e-01
-2.631121376156806946e+01 -2.131849110126495361e+00 -1.128219403699034729e+00
-1.773650673031806946e+01 -9.608286023139953613e-01 -8.268888372927847286e-01
-3.081902626156806946e+01 -3.457288563251495361e+00 -1.265441693738097229e+00
-1.992949989438056946e+01 -1.510141491889953613e-01 -8.482358831912222286e-01
-1.784942176938056946e+01 -1.034067273139953613e-01 -7.775724310427847286e-01
-2.001360633969306946e+01 -5.501840710639953613e-01 -8.385007757693472286e-01
-2.793291786313056946e+01 -1.827283680438995361e+00 -1.073943891003722229e+00
-2.026140907406806946e+01 -9.795053601264953613e-01 -8.339994329959097286e-01
-2.635064247250556946e+01 -2.133802235126495361e+00 -1.009780682995909729e+00
-1.777935341000556946e+01 -9.651010632514953613e-01 -7.488706488162222286e-01
-1.762896278500556946e+01 -1.113660633563995361e+00 -7.391202826052847286e-01
-2.535100868344306946e+01 -7.224252820014953613e-01 -9.043424505740347286e-01
-1.803533485531806946e+01 -1.222055554389953613e-01 -7.028196234255972286e-01
-1.998577430844306946e+01 -5.434702038764953613e-01 -7.484128851443472286e-01
-2.892083290219306946e+01 -1.957410633563995361e+00 -9.733579535037222286e-01
-2.028264930844306946e+01 -9.793832898139953613e-01 -7.437894720584097286e-01
-2.668072059750556946e+01 -2.181165516376495361e+00 -8.989560980349722286e-01
-1.782268837094306946e+01 -9.694955945014953613e-01 -6.700437445193472286e-01
-1.767156532406806946e+01 -1.118299305438995361e+00 -6.608579535037222286e-01
-2.644634559750556946e+01 -8.343637585639953613e-01 -8.149717230349722286e-01
-2.621245887875556946e+01 -1.066785633563995361e+00 -8.016050238162222286e-01
-1.794732216000556946e+01 -2.835825085639953613e-01 -6.152646917849722286e-01
-1.760650184750556946e+01 -4.127328991889953613e-01 -6.024625677615347286e-01
-2.027654579281806946e+01 -9.752328991889953613e-01 -6.528318304568472286e-01
-2.634856727719306946e+01 -2.124891102313995361e+00 -7.714689154177847286e-01
-1.813372352719306946e+01 -1.018445789813995361e+00 -5.966947454959097286e-01
-3.761443641781806946e+01 -4.644544422626495361e+00 -9.793393988162222286e-01
-2.639702919125556946e+01 -8.249643445014953613e-01 -6.947629828005972286e-01
-1.770806434750556946e+01 -7.874852418899536133e-02 -5.365903753787222286e-01
-1.772747352719306946e+01 -2.531870007514953613e-01 -5.313566107302847286e-01
-1.774712684750556946e+01 -4.290903210639953613e-01 -5.260618109255972286e-01
-2.642559364438056946e+01 -1.870496571063995361e+00 -6.614835638552847286e-01
-2.630401161313056946e+01 -2.113660633563995361e+00 -6.510465521365347286e-01
-2.659600380063056946e+01 -2.424939930438995361e+00 -6.470945257693472286e-01
-1.775725868344306946e+01 -1.127698719501495361e+00 -5.036313910037222286e-01
-1.987737587094306946e+01 -1.333139538764953613e-01 -4.918363470584097286e-01
-3.141424110531806946e+01 -1.659559071063995361e+00 -6.311033148318472286e-01
-1.602691200375556946e+01 -3.675633668899536133e-02 -4.317167181521597286e-01
-1.652740028500556946e+01 -2.606332898139953613e-01 -4.325406927615347286e-01
-1.706133583188056946e+01 -4.995248913764953613e-01 -4.334257025271597286e-01
-1.763408973813056946e+01 -7.557504773139953613e-01 -4.343717474490347286e-01
-1.812151649594306946e+01 -1.010633289813995361e+00 -4.339750189334097286e-01
-1.780022743344306946e+01 -1.132459461688995361e+00 -4.246518988162222286e-01
-1.490825966000556946e+01 3.930532336235046387e-01 -3.615720648318472286e-01
-1.533526161313056946e+01 2.005483508110046387e-01 -3.601529974490347286e-01
-1.578899696469306946e+01 -4.407703876495361328e-03 -3.590085882693472286e-01
-1.631768348813056946e+01 -2.296274304389953613e-01 -3.577115911990347286e-01
-1.690240028500556946e+01 -4.736459851264953613e-01 -3.564603704959097286e-01
-1.753448036313056946e+01 -7.374399304389953613e-01 -3.550870794802847286e-01
-1.818328407406806946e+01 -1.017957508563995361e+00 -3.529355902224722286e-01
-1.763946083188056946e+01 -1.101209461688995361e+00 -3.436582464724722286e-01
-1.496697548031806946e+01 3.891469836235046387e-01 -2.962797064334097286e-01
-1.544781044125556946e+01 1.899282336235046387e-01 -2.929685492068472286e-01
-1.596551063656806946e+01 -2.406102418899536133e-02 -2.894132513552847286e-01
-1.648443153500556946e+01 -2.496469616889953613e-01 -2.854764837771597286e-01
-1.700567176938056946e+01 -4.859750866889953613e-01 -2.811887640505972286e-01
-1.756402137875556946e+01 -7.392709851264953613e-01 -2.765958685427847286e-01
-1.812005165219306946e+01 -1.004529774188995361e+00 -2.715604681521597286e-01
-1.880950477719306946e+01 -1.304578602313995361e+00 -2.663114447146597286e-01
-1.493365028500556946e+01 3.948842883110046387e-01 -2.301938910037222286e-01
-1.535418251156806946e+01 2.031118273735046387e-01 -2.250059027224722286e-01
-1.579961708188056946e+01 -8.676648139953613281e-04 -2.191160101443472286e-01
-1.628509071469306946e+01 -2.201059460639953613e-01 -2.128141302615347286e-01
-1.689544227719306946e+01 -4.672983288764953613e-01 -2.058713812380972286e-01
-1.755742958188056946e+01 -7.353647351264953613e-01 -1.983487982302847286e-01
-1.767510536313056946e+01 -9.277475476264953613e-01 -1.919553656130972286e-01
-1.990410926938056946e+01 -1.494275867938995361e+00 -1.778867620974722286e-01
-1.491472938656806946e+01 3.991567492485046387e-01 -1.646879095584097286e-01
-1.541753700375556946e+01 1.981069445610046387e-01 -1.566465277224722286e-01
-1.595794227719306946e+01 -1.820164918899536133e-02 -1.479795355349722286e-01
-2.673211219906806946e+01 -1.629407703876495361e+00 -7.153300233184722856e-02
-1.991399696469306946e+01 -9.032114148139953613e-01 -1.094663519412222286e-01
-1.990642860531806946e+01 -1.097791492938995361e+00 -1.025541204959097286e-01
-1.989873817563056946e+01 -1.293470203876495361e+00 -9.559611268340972856e-02
-1.748174598813056946e+01 -1.064832508563995361e+00 -1.080167669802847286e-01
-2.654693153500556946e+01 -8.160532116889953613e-01 1.898213438690277144e-02
-1.957635048031806946e+01 -2.766245007514953613e-01 -4.519633240997222856e-02
-1.956524208188056946e+01 -4.659555554389953613e-01 -3.840617127715972856e-02
-1.854522255063056946e+01 -5.200327038764953613e-01 -4.287699647247222856e-02
-2.029803016781806946e+01 -9.558237195014953613e-01 -1.602152772247222856e-02
-1.974627235531806946e+01 -1.069715321063995361e+00 -1.538065858184722856e-02
-1.986931923031806946e+01 -1.285291492938995361e+00 -6.789960339659728561e-03
-1.818792274594306946e+01 -1.186170399188995361e+00 -2.055338807403472856e-02
-1.952617958188056946e+01 -7.826024293899536133e-02 3.456135801971527144e-02
-2.733208778500556946e+01 -1.162244617938995361e+00 1.594392877072152714e-01
-7.239287880063056946e+01 -7.048719227313995361e+00 8.665773492306527714e-01
-2.673919227719306946e+01 -1.621839344501495361e+00 1.699373345822152714e-01
-3.383269813656806946e+01 -2.914563953876495361e+00 2.947542291134652714e-01
-3.692425087094306946e+01 -3.731580555438995361e+00 3.585207086056527714e-01
-1.821502235531806946e+01 -1.008558094501495361e+00 5.461140684784027144e-02
-1.953460243344306946e+01 -1.419690907001495361e+00 8.413716368377777144e-02
-2.661089637875556946e+01 -8.145883679389953613e-01 2.588197808712777714e-01
-2.768157508969306946e+01 -1.197889149188995361e+00 2.897340875119027714e-01
-3.425884559750556946e+01 -2.289319813251495361e+00 4.313814263790902714e-01
-2.674273231625556946e+01 -1.618055164813995361e+00 2.903596978634652714e-01
-1.981206825375556946e+01 -8.789194226264953613e-01 1.558076959103402714e-01
-1.962395790219306946e+01 -1.044446766376495361e+00 1.591188531369027714e-01
-1.981035926938056946e+01 -1.269178211688995361e+00 1.708986382931527714e-01
-1.930169227719306946e+01 -1.375623524188995361e+00 1.670381646603402714e-01
-2.670867469906806946e+01 -8.205698132514953613e-01 3.810274224728402714e-01
-1.953057411313056946e+01 -2.623422741889953613e-01 2.156984429806527714e-01
-8.470464637875556946e+01 -8.556287586688995361e+00 1.834045610949402771e+00
-2.674541786313056946e+01 -1.614148914813995361e+00 4.114076714962777714e-01
-3.641143348813056946e+01 -3.276624500751495361e+00 6.679231744259652714e-01
-1.854558876156806946e+01 -8.744028210639953613e-01 2.193910699337777714e-01
-1.913079383969306946e+01 -1.153821766376495361e+00 2.417451959103402714e-01
-1.792827919125556946e+01 -1.131849110126495361e+00 2.173158746212777714e-01
-1.207378700375556946e+01 -1.425912976264953613e-01 -9.492185492068472286e-01
-1.210235145688056946e+01 -2.652719616889953613e-01 -9.479978460818472286e-01
-1.212432411313056946e+01 -3.877084851264953613e-01 -9.466398138552847286e-01
-1.213555458188056946e+01 -5.092905163764953613e-01 -9.445798773318472286e-01
-1.213579872250556946e+01 -6.287973523139953613e-01 -9.418485540896597286e-01
-1.213616493344306946e+01 -7.487924695014953613e-01 -9.391172308474722286e-01
-1.213640907406806946e+01 -8.697641491889953613e-01 -9.363553900271597286e-01
-1.213006141781806946e+01 -9.891489148139953613e-01 -9.334714788943472286e-01
-1.332647255063056946e+01 -3.641489148139953613e-01 -9.675901312380972286e-01
-1.333953407406806946e+01 -4.967172741889953613e-01 -9.652097601443472286e-01
-1.337896278500556946e+01 -6.353891491889953613e-01 -9.640043158084097286e-01
-1.341021278500556946e+01 -7.741830945014953613e-01 -9.626005072146597286e-01
-1.344170692563056946e+01 -9.138315320014953613e-01 -9.611814398318472286e-01
-1.347344520688056946e+01 -1.054700672626495361e+00 -9.597623724490347286e-01
-1.349676063656806946e+01 -1.195325672626495361e+00 -9.581449408084097286e-01
-1.352898719906806946e+01 -1.338758289813995361e+00 -9.566953558474722286e-01
-1.510491493344306946e+01 -6.788461804389953613e-01 -1.001876630261534729e+00
-1.511211708188056946e+01 -8.286264538764953613e-01 -9.985502142459097286e-01
-1.511944130063056946e+01 -9.792612195014953613e-01 -9.952237982302847286e-01
-1.512688758969306946e+01 -1.131116688251495361e+00 -9.918516058474722286e-01
-1.513421180844306946e+01 -1.283338367938995361e+00 -9.884794134646597286e-01
-1.514165809750556946e+01 -1.436292469501495361e+00 -9.850919622927847286e-01
-1.517632606625556946e+01 -1.597181141376495361e+00 -9.830625433474722286e-01
-1.521746376156806946e+01 -1.760511219501495361e+00 -9.813383001834097286e-01
-1.714507606625556946e+01 -1.039563953876495361e+00 -1.032470502331847229e+00
-1.717010048031806946e+01 -1.213636219501495361e+00 -1.028869428113097229e+00
-1.718401649594306946e+01 -1.386853992938995361e+00 -1.025115766003722229e+00
-1.723870399594306946e+01 -1.570081532001495361e+00 -1.023238934949034729e+00
-1.733208778500556946e+01 -1.763074696063995361e+00 -1.023147382214659729e+00
-1.742693641781806946e+01 -1.959119617938995361e+00 -1.023055829480284729e+00
-1.751555946469306946e+01 -2.157117664813995361e+00 -1.022598065808409729e+00
-1.751922157406806946e+01 -2.335706532001495361e+00 -1.018600263074034729e+00
-2.004510048031806946e+01 -1.552503407001495361e+00 -1.080810346081847229e+00
-2.022747352719306946e+01 -1.786023914813995361e+00 -1.083297528699034729e+00
-2.040130165219306946e+01 -2.022474110126495361e+00 -1.085296430066222229e+00
-2.058806923031806946e+01 -2.266736805438995361e+00 -1.087722577527159729e+00
-2.073809364438056946e+01 -2.507093250751495361e+00 -1.088470258191222229e+00
-2.077215126156806946e+01 -2.724744617938995361e+00 -1.084274091199034729e+00
-2.080681923031806946e+01 -2.944959461688995361e+00 -1.080032147839659729e+00
-2.084148719906806946e+01 -3.166028797626495361e+00 -1.075759686902159729e+00
-2.791094520688056946e+01 -2.946790516376495361e+00 -1.294235028699034729e+00
-2.023162391781806946e+01 -1.783460438251495361e+00 -9.917447943240347286e-01
-2.581927040219306946e+01 -3.093396961688995361e+00 -1.198470868542784729e+00
-2.287993934750556946e+01 -2.741590321063995361e+00 -1.080352582409972229e+00
-2.521563270688056946e+01 -3.484632313251495361e+00 -1.161330975964659729e+00
-2.534270790219306946e+01 -3.770520985126495361e+00 -1.158920087292784729e+00
-2.547198036313056946e+01 -4.061536610126495361e+00 -1.156463422253722229e+00
-2.610296180844306946e+01 -4.481214344501495361e+00 -1.172897138074034729e+00
-3.082085731625556946e+01 -3.458631336688995361e+00 -1.265472211316222229e+00
-2.023430946469306946e+01 -1.780652821063995361e+00 -9.006040472537222286e-01
-3.385491493344306946e+01 -4.681043446063995361e+00 -1.348724164441222229e+00
-2.288274696469306946e+01 -2.738416492938995361e+00 -9.764249701052847286e-01
-3.726128700375556946e+01 -6.117566883563995361e+00 -1.440368451550597229e+00
-2.825066688656806946e+01 -4.433240711688995361e+00 -1.137176312878722229e+00
-3.365252235531806946e+01 -6.019910633563995361e+00 -1.302352704480284729e+00
-3.470977333188056946e+01 -6.632459461688995361e+00 -1.326003827527159729e+00
-1.762798622250556946e+01 -1.114148914813995361e+00 -7.390745062380972286e-01
-2.023699501156806946e+01 -1.777845203876495361e+00 -8.094633001834097286e-01
-3.808025673031806946e+01 -5.511609852313995361e+00 -1.313781537488097229e+00
-2.288567665219306946e+01 -2.735120594501495361e+00 -8.719327826052847286e-01
-4.514348915219306946e+01 -7.835340321063995361e+00 -1.488494672253722229e+00
-2.825408485531806946e+01 -4.429090321063995361e+00 -1.006866254284972229e+00
-3.365642860531806946e+01 -6.014905750751495361e+00 -1.147018231824034729e+00
-4.996355751156806946e+01 -1.044434911012649536e+01 -1.578567304089659729e+00
-1.767058876156806946e+01 -1.118787586688995361e+00 -6.608274359255972286e-01
-2.023968055844306946e+01 -1.775037586688995361e+00 -7.178190130740347286e-01
-4.648040321469306946e+01 -7.166517078876495361e+00 -1.340209760144347229e+00
-2.288860633969306946e+01 -2.731946766376495361e+00 -7.680051703005972286e-01
-4.795928505063056946e+01 -8.443128407001495361e+00 -1.345458783581847229e+00
-2.825750282406806946e+01 -4.425062000751495361e+00 -8.772580999880972286e-01
-3.366033485531806946e+01 -6.010022938251495361e+00 -9.908445257693472286e-01
-4.996905067563056946e+01 -1.043690282106399536e+01 -1.344665326550597229e+00
-3.762969520688056946e+01 -4.648572742938995361e+00 -9.795987982302847286e-01
-2.024236610531806946e+01 -1.772229969501495361e+00 -6.266630072146597286e-01
-3.878777626156806946e+01 -5.638562977313995361e+00 -9.778745550662222286e-01
-2.289153602719306946e+01 -2.728650867938995361e+00 -6.640622992068472286e-01
-5.345794227719306946e+01 -9.635755360126495361e+00 -1.226012982800597229e+00
-2.826092079281806946e+01 -4.420911610126495361e+00 -7.476346869021597286e-01
-3.366424110531806946e+01 -6.005140125751495361e+00 -8.354947943240347286e-01
-4.997466591000556946e+01 -1.042945653200149536e+01 -1.111999310925597229e+00
-1.775628212094306946e+01 -1.128187000751495361e+00 -5.036008734255972286e-01
-2.024505165219306946e+01 -1.769300282001495361e+00 -5.350187201052847286e-01
-1.861748817563056946e+01 -1.650037586688995361e+00 -5.046995062380972286e-01
-2.289446571469306946e+01 -2.725354969501495361e+00 -5.595548529177847286e-01
-4.735235145688056946e+01 -8.294080555438995361e+00 -8.921811956912222286e-01
-2.661345985531806946e+01 -4.039319813251495361e+00 -5.949247259646597286e-01
-3.077630165219306946e+01 -5.308362782001495361e+00 -6.410673040896597286e-01
-4.588421180844306946e+01 -9.399061024188995361e+00 -8.253476995974722286e-01
-1.779925087094306946e+01 -1.132947742938995361e+00 -4.246366400271597286e-01
-1.969939735531806946e+01 -1.664075672626495361e+00 -4.382322210818472286e-01
-1.862896278500556946e+01 -1.649183094501495361e+00 -4.210355658084097286e-01
-2.196502235531806946e+01 -2.528577625751495361e+00 -4.466855902224722286e-01
-2.375432899594306946e+01 -3.140271961688995361e+00 -4.557645697146597286e-01
-2.645074012875556946e+01 -3.997571766376495361e+00 -4.715879339724722286e-01
-3.070074012875556946e+01 -5.284925282001495361e+00 -4.986722845584097286e-01
-7.065813758969306946e+01 -1.557410985231399536e+01 -8.141324896365347286e-01
-1.762969520688056946e+01 -1.100110828876495361e+00 -3.435819525271597286e-01
-1.988018348813056946e+01 -1.694593250751495361e+00 -3.501279730349722286e-01
-1.864031532406806946e+01 -1.648328602313995361e+00 -3.372800726443472286e-01
-2.207622841000556946e+01 -2.547986805438995361e+00 -3.476255316287222286e-01
-2.357659462094306946e+01 -3.097547352313995361e+00 -3.467405218630972286e-01
-2.612346962094306946e+01 -3.918348133563995361e+00 -3.491056341677847286e-01
-7.088714149594306946e+01 -1.487867528200149536e+01 -5.084379095584097286e-01
-7.081621864438056946e+01 -1.560084325075149536e+01 -4.826810736209097286e-01
-1.881450966000556946e+01 -1.306165516376495361e+00 -2.662961859255972286e-01
-1.963384559750556946e+01 -1.645398914813995361e+00 -2.604520697146597286e-01
-1.865191200375556946e+01 -1.647474110126495361e+00 -2.529752630740347286e-01
-1.840838173031806946e+01 -1.783948719501495361e+00 -2.463224310427847286e-01
-6.690606239438056946e+01 -1.252674657106399536e+01 -2.308195013552847286e-01
-6.083037880063056946e+01 -1.183241063356399536e+01 -2.096708197146597286e-01
-6.127410438656806946e+01 -1.257166844606399536e+01 -1.868131536990347286e-01
-7.652263954281806946e+01 -1.701051121950149536e+01 -1.443326849490347286e-01
-1.990252235531806946e+01 -1.494764149188995361e+00 -1.778715033084097286e-01
-1.839275673031806946e+01 -1.410779774188995361e+00 -1.768033880740347286e-01
