-1.019002351164817810e+01 1.745625376701354980e+00 -2.967815535608622213e-01
-1.040547761321067810e+01 1.650898814201354980e+00 -2.947979109827372213e-01
-1.063191804289817810e+01 1.551167368888854980e+00 -2.926921980921122213e-01
-1.089168366789817810e+01 1.446308970451354980e+00 -2.903576033655497213e-01
-9.356771558523178101e+00 2.084614634513854980e+00 -2.647686141077372213e-01
-9.566854566335678101e+00 2.006611704826354980e+00 -2.623424666467997213e-01
-9.770834058523178101e+00 1.924214243888854980e+00 -2.597637312952372213e-01
-9.991048902273178101e+00 1.837666392326354980e+00 -2.570629256311747213e-01
-1.022176179289817810e+01 1.747090220451354980e+00 -2.542247908655497213e-01
-1.046443757414817810e+01 1.651631236076354980e+00 -2.512493269983622213e-01
-1.072115144133567810e+01 1.550801157951354980e+00 -2.480907576624247213e-01
-1.099104890227317810e+01 1.444722056388854980e+00 -2.447796004358622213e-01
-9.431722730398178101e+00 2.088642954826354980e+00 -2.258434432092997213e-01
-9.549032300710678101e+00 2.007344126701354980e+00 -2.228832381311747213e-01
-9.849081128835678101e+00 1.927021861076354980e+00 -2.190990584436747213e-01
-1.007332429289817810e+01 1.839741587638854980e+00 -2.153453963342997213e-01
-1.030806550383567810e+01 1.748310923576354980e+00 -2.114238875452372213e-01
-1.052388581633567810e+01 1.652363657951354980e+00 -2.074108260217997213e-01
-1.075081452727317810e+01 1.551655650138854980e+00 -2.031841414514872213e-01
-1.098738679289817810e+01 1.446431040763854980e+00 -1.985454695764872213e-01
-9.457235425710678101e+00 2.090962290763854980e+00 -1.867962019983622213e-01
-9.550008863210678101e+00 2.008686900138854980e+00 -1.832561629358622213e-01
-9.822713941335678101e+00 1.927876353263854980e+00 -1.782970564905497213e-01
-1.001729401946067810e+01 1.840718150138854980e+00 -1.737499373499247213e-01
-1.021980866789817810e+01 1.749897837638854980e+00 -1.690349715296122213e-01
-1.043172273039817810e+01 1.655049204826354980e+00 -1.640911238733622213e-01
-1.065413483977317810e+01 1.555317759513854980e+00 -1.589031355921122213e-01
-1.088643464446067810e+01 1.451191782951354980e+00 -1.534862654749247213e-01
-9.381063550710678101e+00 2.089375376701354980e+00 -1.484813826624247213e-01
-9.566000074148178101e+00 2.010517954826354980e+00 -1.434459822717997213e-01
-9.743856519460678101e+00 1.927876353263854980e+00 -1.385936873499247213e-01
-9.934896558523178101e+00 1.841450572013854980e+00 -1.332378523889872213e-01
-1.016536530852317810e+01 1.751484751701354980e+00 -1.272564070764872213e-01
-1.041792878508567810e+01 1.656636118888854980e+00 -1.208324568811747213e-01
-1.068636140227317810e+01 1.556172251701354980e+00 -1.137828963342997213e-01
-1.096871003508567810e+01 1.450215220451354980e+00 -1.065807478967997213e-01
-9.359212964773178101e+00 2.089741587638854980e+00 -1.099987166467997213e-01
-9.580404371023178101e+00 2.012226939201354980e+00 -1.037426131311747213e-01
-9.795248121023178101e+00 1.930073618888854980e+00 -9.724236899054972127e-02
-1.002852448821067810e+01 1.843647837638854980e+00 -9.026910238898722127e-02
-1.027364167571067810e+01 1.752705454826354980e+00 -8.294488363898722127e-02
-1.053218659758567810e+01 1.656880259513854980e+00 -7.520867758429972127e-02
-1.481673249602317810e+01 1.467915415763854980e+00 5.495057767262778725e-03
-1.499544343352317810e+01 1.324238657951354980e+00 1.379583901726277873e-02
-1.200032624602317810e+01 1.385151743888854980e+00 -1.007886900240549721e+00
-1.188863191008567810e+01 1.279805064201354980e+00 -9.965343611780497213e-01
-1.177449616789817810e+01 1.176655650138854980e+00 -9.853496687952372213e-01
-1.179891023039817810e+01 1.066304087638854980e+00 -9.836406844202372213e-01
-1.183089265227317810e+01 9.550980329513549805e-01 -9.824352400842997213e-01
-1.186311921477317810e+01 8.431595563888549805e-01 -9.812145369592997213e-01
-1.189558991789817810e+01 7.298783063888549805e-01 -9.799938338342997213e-01
-1.192317780852317810e+01 6.168411970138549805e-01 -9.786815779749247213e-01
-1.289021882414817810e+01 1.356099009513854980e+00 -1.014036192232737221e+00
-1.277132233977317810e+01 1.242207407951354980e+00 -1.002698911959299721e+00
-1.271480378508567810e+01 1.127095103263854980e+00 -9.951000350061747213e-01
-1.211153230071067810e+01 1.047871470451354980e+00 -9.531841414514872213e-01
-1.278194245696067810e+01 8.858841657638549805e-01 -9.919414656702372213e-01
-1.281575593352317810e+01 7.643021345138549805e-01 -9.903392928186747213e-01
-1.288863191008567810e+01 6.377152204513549805e-01 -9.914379256311747213e-01
-1.298470124602317810e+01 5.074661970138549805e-01 -9.936504500452372213e-01
-1.339095124602317810e+01 1.340840220451354980e+00 -9.887371199671122213e-01
-1.341451081633567810e+01 1.215474009513854980e+00 -9.862041609827372213e-01
-1.595931062102317810e+01 9.524124860763549805e-01 -1.132581724459299721e+00
-1.211299714446067810e+01 1.049580454826354980e+00 -9.018535750452372213e-01
-1.562386140227317810e+01 6.762894392013549805e-01 -1.103452696138987221e+00
-1.523933991789817810e+01 5.615433454513549805e-01 -1.076459898287424721e+00
-1.499800691008567810e+01 4.402054548263549805e-01 -1.057950987154612221e+00
-1.476509675383567810e+01 3.232620954513549805e-01 -1.040098203951487221e+00
-1.351131257414817810e+01 1.338642954826354980e+00 -9.381847518030497213e-01
-1.343428620696067810e+01 1.216694712638854980e+00 -9.296550887171122213e-01
-1.596834382414817810e+01 9.544876813888549805e-01 -1.063642515474924721e+00
-1.211446198821067810e+01 1.051289439201354980e+00 -8.502330916467997213e-01
-1.644942292571067810e+01 6.173294782638549805e-01 -1.079908384615549721e+00
-1.638533601164817810e+01 4.673050642013549805e-01 -1.071500791842112221e+00
-1.632124909758567810e+01 3.176468610763549805e-01 -1.063138975435862221e+00
-1.620454987883567810e+01 1.751908063888549805e-01 -1.052412046724924721e+00
-1.353133210539817810e+01 1.339985728263854980e+00 -8.811626570764872213e-01
-1.347273835539817810e+01 1.216938853263854980e+00 -8.741741316858622213e-01
-1.344783601164817810e+01 1.093159556388854980e+00 -8.689098494592997213e-01
-1.211592683196067810e+01 1.053120493888854980e+00 -7.989025252405497213e-01
-1.662264069914817810e+01 6.070755720138549805e-01 -1.017026914888987221e+00
-1.864424714446067810e+01 2.796829938888549805e-01 -1.110761656099924721e+00
-1.874641999602317810e+01 9.169471263885498047e-02 -1.109968199068674721e+00
-1.712837800383567810e+01 8.144080638885498047e-02 -1.026166929537424721e+00
-1.393086823821067810e+01 1.328389048576354980e+00 -8.417034285608622213e-01
-1.351790437102317810e+01 1.217060923576354980e+00 -8.183574812952372213e-01
-1.693611726164817810e+01 9.071244001388549805e-01 -9.688549178186747213e-01
-1.211739167571067810e+01 1.054829478263854980e+00 -7.472973006311747213e-01
-1.703536042571067810e+01 5.791214704513549805e-01 -9.628582137171122213e-01
-1.888033112883567810e+01 2.628372907638549805e-01 -1.039228452974924721e+00
-1.898921784758567810e+01 7.191932201385498047e-02 -1.038129820162424721e+00
-1.911702546477317810e+01 -1.229048967361450195e-01 -1.038251890474924721e+00
-1.636568269133567810e+01 1.248188853263854980e+00 -8.822918074671122213e-01
-1.356307038664817810e+01 1.217060923576354980e+00 -7.624492781702372213e-01
-1.354683503508567810e+01 1.091938853263854980e+00 -7.576580184046122213e-01
-1.211897858977317810e+01 1.056538462638854980e+00 -6.959514754358622213e-01
-1.692183503508567810e+01 5.902298688888549805e-01 -8.842449324671122213e-01
-1.912129792571067810e+01 2.456253767013549805e-01 -9.661846297327372213e-01
-1.923726472258567810e+01 5.165565013885498047e-02 -9.647197859827372213e-01
-2.185323151946067810e+01 -4.041548967361450195e-01 -1.060651792818674721e+00
-1.363399323821067810e+01 1.342549204826354980e+00 -7.112712996546122213e-01
-1.617122468352317810e+01 1.105366587638854980e+00 -7.993450301233622213e-01
-1.359834870696067810e+01 1.091206431388854980e+00 -7.012767928186747213e-01
-1.212044343352317810e+01 1.058247447013854980e+00 -6.443309920374247213e-01
-1.680916413664817810e+01 6.010941267013549805e-01 -8.063640730921122213e-01
-2.019759187102317810e+01 1.585892438888549805e-01 -9.197216170374247213e-01
-2.201204499602317810e+01 -2.054244279861450195e-01 -9.767284529749247213e-01
-1.705891999602317810e+01 9.682166576385498047e-02 -7.994671004358622213e-01
-1.376485261321067810e+01 1.340229868888854980e+00 -6.569347518030497213e-01
-1.365486726164817810e+01 1.217182993888854980e+00 -6.491527693811747213e-01
-1.365010651946067810e+01 1.090474009513854980e+00 -6.447582381311747213e-01
-1.212190827727317810e+01 1.060078501701354980e+00 -5.930004256311747213e-01
-2.128694733977317810e+01 2.748001813888549805e-01 -8.710460799280497213e-01
-1.668037995696067810e+01 4.554642438888549805e-01 -7.241344588342997213e-01
-1.500972566008567810e+01 4.532669782638549805e-01 -6.685772078577372213e-01
-2.328499421477317810e+01 -5.453902482986450195e-01 -9.099407332483622213e-01
-1.372664460539817810e+01 1.343525767326354980e+00 -5.970745223108622213e-01
-1.385445222258567810e+01 1.210591197013854980e+00 -5.962352889124247213e-01
-1.408186921477317810e+01 1.069599986076354980e+00 -5.979747908655497213e-01
-1.212337312102317810e+01 1.061787486076354980e+00 -5.416546004358622213e-01
-1.661690339446067810e+01 6.205033063888549805e-01 -6.553783553186747213e-01
-1.662471589446067810e+01 4.627884626388549805e-01 -6.502666609827372213e-01
-2.418599519133567810e+01 -4.013472795486450195e-01 -8.375377791467997213e-01
-1.701302155852317810e+01 1.070755720138549805e-01 -6.493816512171122213e-01
-1.374739655852317810e+01 1.344868540763854980e+00 -5.386028426233622213e-01
-1.381746491789817810e+01 1.214253306388854980e+00 -5.358410018030497213e-01
-1.600398835539817810e+01 9.696244001388549805e-01 -5.800151961389872213e-01
-1.212483796477317810e+01 1.063496470451354980e+00 -4.900341170374247213e-01
-1.656136140227317810e+01 6.270951032638549805e-01 -5.817241805139872213e-01
-1.656905183196067810e+01 4.699906110763549805e-01 -5.765514510217997213e-01
-2.345650300383567810e+01 -3.294478654861450195e-01 -7.147503035608622213e-01
-1.473970612883567810e+01 3.445023298263549805e-01 -5.283489363733622213e-01
-1.376106843352317810e+01 1.346455454826354980e+00 -4.801464217249247213e-01
-1.373103913664817810e+01 1.219990611076354980e+00 -4.752178328577372213e-01
-1.385140046477317810e+01 1.086079478263854980e+00 -4.729442732874247213e-01
-1.212630280852317810e+01 1.065205454826354980e+00 -4.386882918421122213e-01
-1.701058015227317810e+01 5.969437360763549805e-01 -5.175457137171122213e-01
-2.359737214446067810e+01 -1.106978654861450195e-01 -6.212749617639872213e-01
-1.483699616789817810e+01 4.764603376388549805e-01 -4.711437361780497213e-01
-1.485335358977317810e+01 3.352249860763549805e-01 -4.665966170374247213e-01
-1.364571198821067810e+01 1.352314829826354980e+00 -4.195079939905497213e-01
-1.370162019133567810e+01 1.223408579826354980e+00 -4.158611434046122213e-01
-1.609920319914817810e+01 9.695023298263549805e-01 -4.429912703577372213e-01
-1.194954499602317810e+01 1.078144907951354980e+00 -3.850841658655497213e-01
-1.224837312102317810e+01 9.463089704513549805e-01 -3.849468367639872213e-01
-1.255415925383567810e+01 8.077591657638549805e-01 -3.846874373499247213e-01
-1.288069733977317810e+01 6.605423688888549805e-01 -3.841381209436747213e-01
-1.322627839446067810e+01 5.050247907638549805e-01 -3.838634627405497213e-01
-1.099349030852317810e+01 1.441059947013854980e+00 -3.371105330530497213e-01
-1.124825105071067810e+01 1.330098032951354980e+00 -3.358287947717997213e-01
-1.151668366789817810e+01 1.213154673576354980e+00 -3.344860213342997213e-01
-1.180074128508567810e+01 1.089253306388854980e+00 -3.330669539514872213e-01
-1.209993562102317810e+01 9.588822126388549805e-01 -3.315868514124247213e-01
-1.239546784758567810e+01 8.227738142013549805e-01 -3.298473494592997213e-01
-1.271370515227317810e+01 6.779984235763549805e-01 -3.280468123499247213e-01
-1.306184968352317810e+01 5.239456892013549805e-01 -3.262157576624247213e-01
-1.089351472258567810e+01 1.445942759513854980e+00 -2.903576033655497213e-01
-1.117317780852317810e+01 1.334858775138854980e+00 -2.882671492639872213e-01
-1.146993073821067810e+01 1.217305064201354980e+00 -2.858104842249247213e-01
-1.178609284758567810e+01 1.091938853263854980e+00 -2.831707137171122213e-01
-1.212105378508567810e+01 9.592484235763549805e-01 -2.803936141077372213e-01
-1.245516023039817810e+01 8.197220563888549805e-01 -2.773723738733622213e-01
-1.281831941008567810e+01 6.703079938888549805e-01 -2.741527693811747213e-01
-1.320491608977317810e+01 5.113724470138549805e-01 -2.704296248499247213e-01
-1.099300202727317810e+01 1.444233775138854980e+00 -2.447643416467997213e-01
-1.127889069914817810e+01 1.332051157951354980e+00 -2.410869734827372213e-01
-1.158199128508567810e+01 1.213154673576354980e+00 -2.371807234827372213e-01
-1.189632233977317810e+01 1.086933970451354980e+00 -2.330150740686747213e-01
-1.216560944914817810e+01 9.579056501388549805e-01 -2.287120955530497213e-01
-1.248384675383567810e+01 8.192337751388549805e-01 -2.241192000452372213e-01
-1.280013093352317810e+01 6.739701032638549805e-01 -2.192821639124247213e-01
-1.313362702727317810e+01 5.207718610763549805e-01 -2.141857283655497213e-01
-1.098897370696067810e+01 1.446064829826354980e+00 -1.985149519983622213e-01
-1.123811921477317810e+01 1.335469126701354980e+00 -1.939220564905497213e-01
-1.149959382414817810e+01 1.219136118888854980e+00 -1.888256209436747213e-01
-1.177620515227317810e+01 1.096211314201354980e+00 -1.834545271936747213e-01
-1.206685456633567810e+01 9.668167829513549805e-01 -1.777935164514872213e-01
-1.235579499602317810e+01 8.316849470138549805e-01 -1.719188826624247213e-01
-1.270235261321067810e+01 6.849564313888549805e-01 -1.654338973108622213e-01
-1.310188874602317810e+01 5.260208845138549805e-01 -1.580333846155497213e-01
-1.088814362883567810e+01 1.450825572013854980e+00 -1.534557478967997213e-01
-1.113850983977317810e+01 1.341328501701354980e+00 -1.474590437952372213e-01
-1.144954499602317810e+01 1.223408579826354980e+00 -1.406688826624247213e-01
-1.178157624602317810e+01 1.097554087638854980e+00 -1.334362166467997213e-01
-1.213472566008567810e+01 9.637650251388549805e-01 -1.257305281702372213e-01
-1.248714265227317810e+01 8.228958845138549805e-01 -1.177654402796122213e-01
-1.287190827727317810e+01 6.712845563888549805e-01 -1.091594832483622213e-01
-1.575887116789817810e+01 2.568558454513549805e-01 -7.079888754523722127e-02
-1.097066316008567810e+01 1.449849009513854980e+00 -1.065502303186747213e-01
-1.127095612883567810e+01 1.337422251701354980e+00 -9.863091879523722127e-02
-1.158943757414817810e+01 1.217915415763854980e+00 -9.048272543586222127e-02
-1.383858308196067810e+01 9.721878767013549805e-01 -5.303765707648722127e-02
-1.661800202727317810e+01 6.436966657638549805e-01 -5.857481295237221275e-03
-2.367207917571067810e+01 -9.043419361114501953e-02 1.102466446813252787e-01
-1.662911042571067810e+01 3.281449079513549805e-01 6.196962064137778725e-03
-2.477107819914817810e+01 -6.591597795486450195e-01 1.455249649938252787e-01
-1.499654206633567810e+01 1.323628306388854980e+00 1.384161538445027873e-02
-1.379085358977317810e+01 1.234028697013854980e+00 -3.995909029612221275e-03
-1.380269441008567810e+01 1.105366587638854980e+00 9.479386266377787251e-04
-3.871321687102317810e+01 -5.594283342361450195e-01 4.920062882360127787e-01
-1.671211823821067810e+01 6.395462751388549805e-01 6.831549233757527873e-02
-2.441951569914817810e+01 -1.476851701736450195e-01 2.302722794469502787e-01
-2.367403230071067810e+01 -3.154097795486450195e-01 2.236041886266377787e-01
-2.475435456633567810e+01 -6.534224748611450195e-01 2.552814347203877787e-01
-1.192329987883567810e+01 6.163529157638549805e-01 -9.786815779749247213e-01
-1.195503816008567810e+01 5.020951032638549805e-01 -9.774150984827372213e-01
-1.197163972258567810e+01 3.885697126388549805e-01 -9.754009383264872213e-01
-1.198396882414817810e+01 2.748001813888549805e-01 -9.730816023889872213e-01
-1.199812898039817810e+01 1.604202985763549805e-01 -9.708690779749247213e-01
-1.203011140227317810e+01 4.274451732635498047e-02 -9.698162215296122213e-01
-1.205525788664817810e+01 -7.517540454864501953e-02 -9.682750838342997213e-01
-1.206087312102317810e+01 -1.900435686111450195e-01 -9.657268660608622213e-01
-1.298518952727317810e+01 5.069779157638549805e-01 -9.936657088342997213e-01
-1.307430085539817810e+01 3.752640485763549805e-01 -9.957103865686747213e-01
-1.317293366789817810e+01 2.403763532638549805e-01 -9.979686873499247213e-01
-1.322835358977317810e+01 1.084183454513549805e-01 -9.978008406702372213e-01
-1.324556550383567810e+01 -1.890099048614501953e-02 -9.952831404749247213e-01
-1.326289948821067810e+01 -1.469527482986450195e-01 -9.927501814905497213e-01
-1.327083405852317810e+01 -2.747603654861450195e-01 -9.899273055139872213e-01
-1.328560456633567810e+01 -4.036666154861450195e-01 -9.871959822717997213e-01
-1.476338776946067810e+01 3.228958845138549805e-01 -1.039991392428049721e+00
-1.453267487883567810e+01 2.101029157638549805e-01 -1.022718443209299721e+00
-1.450533112883567810e+01 7.606971263885498047e-02 -1.017148985201487221e+00
-1.458772858977317810e+01 -7.297813892364501953e-02 -1.017789854342112221e+00
-1.467110261321067810e+01 -2.237349748611450195e-01 -1.018430723482737221e+00
-1.471382722258567810e+01 -3.702193498611450195e-01 -1.016736997896799721e+00
-1.474471101164817810e+01 -5.165816545486450195e-01 -1.014326109224924721e+00
-1.477571687102317810e+01 -6.634322404861450195e-01 -1.011915220553049721e+00
-1.620100983977317810e+01 1.750687360763549805e-01 -1.052198423678049721e+00
-1.630354890227317810e+01 9.541392326354980469e-03 -1.052625669771799721e+00
-1.637923249602317810e+01 -1.551314592361450195e-01 -1.051939024263987221e+00
-1.469173249602317810e+01 -8.457481861114501953e-02 -9.596233504358622213e-01
-1.653389558196067810e+01 -4.914351701736450195e-01 -1.050565733248362221e+00
-1.661263093352317810e+01 -6.624556779861450195e-01 -1.049863828951487221e+00
-1.668953523039817810e+01 -8.357955217361450195e-01 -1.048994077974924721e+00
-1.667928132414817810e+01 -9.953414201736450195e-01 -1.044050230318674721e+00
-1.712911042571067810e+01 8.083045482635498047e-02 -1.026182188326487221e+00
-1.899983796477317810e+01 -2.962447404861450195e-01 -1.110853208834299721e+00
-1.912862214446067810e+01 -4.947310686111450195e-01 -1.111433042818674721e+00
-1.469368562102317810e+01 -8.249962329864501953e-02 -8.960094588342997213e-01
-2.183162507414817810e+01 -1.255839467048645020e+00 -1.227186216646799721e+00
-1.516329011321067810e+01 -4.350386857986450195e-01 -9.094066756311747213e-01
-1.975606355071067810e+01 -1.339823842048645020e+00 -1.117933286959299721e+00
-1.731831941008567810e+01 -1.104716420173645020e+00 -9.997844832483622213e-01
-1.911812409758567810e+01 -1.236373186111450195e-01 -1.038282408053049721e+00
-1.925008210539817810e+01 -3.217574357986450195e-01 -1.037839903170237221e+00
-1.704793366789817810e+01 -2.328902482986450195e-01 -9.374828475061747213e-01
-1.469563874602317810e+01 -8.030235767364501953e-02 -8.320751326624247213e-01
-2.211629304289817810e+01 -1.293315052986145020e+00 -1.141843809420237221e+00
-1.475118073821067810e+01 -3.687545061111450195e-01 -8.257122176233622213e-01
-2.306734284758567810e+01 -1.883036732673645020e+00 -1.168043150240549721e+00
-1.732063874602317810e+01 -1.102152943611145020e+00 -9.236278670374247213e-01
-2.185445222258567810e+01 -4.050093889236450195e-01 -1.060682310396799721e+00
-2.197054108977317810e+01 -6.288863420486450195e-01 -1.058485044771799721e+00
-1.706404694914817810e+01 -2.321578264236450195e-01 -8.636303084436747213e-01
-1.469746980071067810e+01 -7.822716236114501953e-02 -7.684612410608622213e-01
-2.339266023039817810e+01 -1.473979115486145020e+00 -1.091794981295237221e+00
-1.478621491789817810e+01 -3.716841936111450195e-01 -7.629070418421122213e-01
-2.524202546477317810e+01 -2.237650990486145020e+00 -1.145750059420237221e+00
-1.732308015227317810e+01 -1.099589467048645020e+00 -8.470592635217997213e-01
-1.705965241789817810e+01 9.621131420135498047e-02 -7.994823592249247213e-01
-2.225130280852317810e+01 -6.573287248611450195e-01 -9.709758894983622213e-01
-1.708028230071067810e+01 -2.314254045486450195e-01 -7.892589705530497213e-01
-1.469942292571067810e+01 -7.602989673614501953e-02 -7.045116560999247213e-01
-2.520613679289817810e+01 -1.731791615486145020e+00 -1.047086729342112221e+00
-1.482161530852317810e+01 -3.747359514236450195e-01 -6.994609969202372213e-01
-1.469844636321067810e+01 -4.966841936111450195e-01 -6.912059920374247213e-01
-1.732539948821067810e+01 -1.097148060798645020e+00 -7.708873885217997213e-01
-2.328963288664817810e+01 -5.467330217361450195e-01 -9.100628035608622213e-01
-2.372090730071067810e+01 -8.207808732986450195e-01 -9.153118269983622213e-01
-1.709639558196067810e+01 -2.305709123611450195e-01 -7.151317732874247213e-01
-1.470137605071067810e+01 -7.395470142364501953e-02 -6.408977644983622213e-01
-2.372444733977317810e+01 -1.514018177986145020e+00 -8.925609725061747213e-01
-1.485701569914817810e+01 -3.777877092361450195e-01 -6.360302107874247213e-01
-1.473335847258567810e+01 -4.999800920486450195e-01 -6.279125350061747213e-01
-1.461202058196067810e+01 -6.199752092361450195e-01 -6.199169295374247213e-01
-1.701375398039817810e+01 1.064652204513549805e-01 -6.493816512171122213e-01
-1.464327058196067810e+01 2.137650251388549805e-01 -5.851574080530497213e-01
-1.711263093352317810e+01 -2.298384904861450195e-01 -6.408977644983622213e-01
-1.470332917571067810e+01 -7.175743579864501953e-02 -5.772838728967997213e-01
-3.128487214446067810e+01 -2.598246693611145020e+00 -9.667339461389872213e-01
-1.489253816008567810e+01 -3.807173967361450195e-01 -5.723095076624247213e-01
-1.476839265227317810e+01 -5.032759904861450195e-01 -5.646343367639872213e-01
-1.464644441008567810e+01 -6.235152482986450195e-01 -5.571117537561747213e-01
-1.473995026946067810e+01 3.440140485763549805e-01 -5.283336775842997213e-01
-1.475594148039817810e+01 2.033890485763549805e-01 -5.238933699671122213e-01
-1.477205476164817810e+01 6.190955638885498047e-02 -5.194378035608622213e-01
-1.470528230071067810e+01 -6.968224048614501953e-02 -5.133342879358622213e-01
-1.529500398039817810e+01 -2.941695451736450195e-01 -5.198192732874247213e-01
-2.331770905852317810e+01 -1.675273060798645020e+00 -6.653576033655497213e-01
-1.480367097258567810e+01 -5.065718889236450195e-01 -5.007305281702372213e-01
-3.502522858977317810e+01 -4.175395131111145020e+00 -8.611583846155497213e-01
-1.485347566008567810e+01 3.347367048263549805e-01 -4.665813582483622213e-01
-1.486995515227317810e+01 1.927689313888549805e-01 -4.619579451624247213e-01
-1.714510163664817810e+01 -2.282515764236450195e-01 -4.916210310999247213e-01
-1.470723542571067810e+01 -6.748497486114501953e-02 -4.497051375452372213e-01
-1.529097566008567810e+01 -2.911177873611450195e-01 -4.532909529749247213e-01
-1.496443757414817810e+01 -3.868209123611450195e-01 -4.435863631311747213e-01
-1.483907136321067810e+01 -5.098677873611450195e-01 -4.368419783655497213e-01
-1.674019441008567810e+01 -9.833785295486450195e-01 -4.573955672327372213e-01
-1.322871980071067810e+01 5.042923688888549805e-01 -3.838787215296122213e-01
-1.359554108977317810e+01 3.392533063888549805e-01 -3.834972518030497213e-01
-1.398714265227317810e+01 1.632279157638549805e-01 -3.834056990686747213e-01
-1.440523347258567810e+01 -2.488243579864501953e-02 -3.829784529749247213e-01
-1.479793366789817810e+01 -2.178755998611450195e-01 -3.820018904749247213e-01
-1.500044831633567810e+01 -3.899947404861450195e-01 -3.789196150842997213e-01
-1.583565339446067810e+01 -6.707564592361450195e-01 -3.810558455530497213e-01
-1.645039948821067810e+01 -9.300338029861450195e-01 -3.810253279749247213e-01
-1.306453523039817810e+01 5.233353376388549805e-01 -3.262310164514872213e-01
-1.346797761321067810e+01 3.557327985763549805e-01 -3.243541853967997213e-01
-1.390047273039817810e+01 1.761673688888549805e-01 -3.223552840296122213e-01
-1.436690339446067810e+01 -1.743614673614501953e-02 -3.202037947717997213e-01
-1.480965241789817810e+01 -2.171431779861450195e-01 -3.175792830530497213e-01
-1.503694733977317810e+01 -3.930464982986450195e-01 -3.135814803186747213e-01
-1.601204499602317810e+01 -6.968795061111450195e-01 -3.127269881311747213e-01
-1.668184480071067810e+01 -9.676314592361450195e-01 -3.099041121546122213e-01
-1.320772370696067810e+01 5.106400251388549805e-01 -2.704296248499247213e-01
-1.362032136321067810e+01 3.407181501388549805e-01 -2.668895857874247213e-01
-1.403023347258567810e+01 1.624954938888549805e-01 -2.627239363733622213e-01
-1.444185456633567810e+01 -2.512657642364501953e-02 -2.582378523889872213e-01
-1.481941804289817810e+01 -2.160445451736450195e-01 -2.534160750452372213e-01
-1.531258210539817810e+01 -4.328414201736450195e-01 -2.483348982874247213e-01
-1.584920319914817810e+01 -6.675826311111450195e-01 -2.428264754358622213e-01
-1.642586335539817810e+01 -9.202681779861450195e-01 -2.365245955530497213e-01
-1.313594636321067810e+01 5.200394392013549805e-01 -2.141704695764872213e-01
-1.348897370696067810e+01 3.576859235763549805e-01 -2.085399764124247213e-01
-1.386409577727317810e+01 1.850785017013549805e-01 -2.025737898889872213e-01
-1.427449616789817810e+01 -5.904436111450195312e-04 -1.961498396936747213e-01
-1.476399812102317810e+01 -2.056685686111450195e-01 -1.891002791467997213e-01
-1.459981355071067810e+01 -3.211470842361450195e-01 -1.845684187952372213e-01
-1.599117097258567810e+01 -6.882125139236450195e-01 -1.726207869592997213e-01
-1.687215241789817810e+01 -9.949752092361450195e-01 -1.622600691858622213e-01
-1.310469636321067810e+01 5.252884626388549805e-01 -1.580028670374247213e-01
-1.353218659758567810e+01 3.548783063888549805e-01 -1.504192488733622213e-01
-1.399324616789817810e+01 1.715286970138549805e-01 -1.419353621546122213e-01
-1.449251374602317810e+01 -2.720177173614501953e-02 -1.327495711389872213e-01
-1.527058991789817810e+01 -2.756148576736450195e-01 -1.207561629358622213e-01
-1.475704011321067810e+01 -3.427535295486450195e-01 -1.198864119592997213e-01
-1.696700105071067810e+01 -8.447066545486450195e-01 -9.358025961554972127e-02
-1.538899812102317810e+01 -7.349654436111450195e-01 -1.025524275842997213e-01
-1.575642976164817810e+01 2.566117048263549805e-01 -7.081414633429972127e-02
-1.664595612883567810e+01 7.832407951354980469e-03 -5.422784262336222127e-02
-1.747481355071067810e+01 -2.519332170486450195e-01 -3.770257406867472127e-02
-3.147005280852317810e+01 -2.272685170173645020e+00 1.500873429235127787e-01
-1.526656159758567810e+01 -2.725630998611450195e-01 -5.421258383429972127e-02
-1.691097077727317810e+01 -6.692916154861450195e-01 -2.598382406867472127e-02
-1.541267976164817810e+01 -5.886031389236450195e-01 -4.084588461554972127e-02
-1.581795319914817810e+01 -8.067427873611450195e-01 -2.924920492804972127e-02
-2.477107819914817810e+01 -6.600142717361450195e-01 1.455554825719502787e-01
-1.563338288664817810e+01 1.239212751388549805e-01 1.451478665700278725e-03
-2.380721101164817810e+01 -1.022196888923645020e+00 1.472644669469502787e-01
-2.717903718352317810e+01 -1.699931263923645020e+00 2.156085831578877787e-01
-1.683162507414817810e+01 -4.929000139236450195e-01 4.013250893913777873e-02
-1.692464265227317810e+01 -6.685591936111450195e-01 4.818914956413777873e-02
-1.522249421477317810e+01 -5.550338029861450195e-01 2.301214761101277873e-02
-1.582503327727317810e+01 -8.052779436111450195e-01 4.031561440788777873e-02
-2.475435456633567810e+01 -6.542769670486450195e-01 2.553119522985127787e-01
-1.664668855071067810e+01 1.308143138885498047e-02 9.076117104851277873e-02
-1.656600007414817810e+01 -1.353560686111450195e-01 9.530829018913777873e-02
-1.695760163664817810e+01 -3.455611467361450195e-01 1.103381974157002787e-01
-1.697444733977317810e+01 -5.103560686111450195e-01 1.171893937047627787e-01
-1.501460847258567810e+01 -3.747359514236450195e-01 7.858465737663777873e-02
-1.661604890227317810e+01 -7.790328264236450195e-01 1.218433243688252787e-01
-1.583211335539817810e+01 -8.038130998611450195e-01 1.099262101110127787e-01
-1.206087312102317810e+01 -1.904097795486450195e-01 -9.657116072717997213e-01
-1.207051667571067810e+01 -3.066207170486450195e-01 -9.632091658655497213e-01
-1.207491120696067810e+01 -4.224654436111450195e-01 -9.606151717249247213e-01
-1.207942780852317810e+01 -5.392867326736450195e-01 -9.580211775842997213e-01
-1.208394441008567810e+01 -6.562300920486450195e-01 -9.554119246546122213e-01
-1.208846101164817810e+01 -7.739058732986450195e-01 -9.527874129358622213e-01
-1.210225495696067810e+01 -8.946334123611450195e-01 -9.507274764124247213e-01
-1.211897858977317810e+01 -1.016581654548645020e+00 -9.491253035608622213e-01
-1.328584870696067810e+01 -4.041548967361450195e-01 -9.871959822717997213e-01
-1.329366120696067810e+01 -5.325728654861450195e-01 -9.843883650842997213e-01
-1.330794343352317810e+01 -6.629439592361450195e-01 -9.816265242639872213e-01
-1.331587800383567810e+01 -7.933150529861450195e-01 -9.787578719202372213e-01
-1.333577546477317810e+01 -9.264937639236450195e-01 -9.765911238733622213e-01
-1.334529694914817810e+01 -1.058207631111145020e+00 -9.737987654749247213e-01
-1.334725007414817810e+01 -1.189433217048645020e+00 -9.708385603967997213e-01
-1.335677155852317810e+01 -1.322733998298645020e+00 -9.680156844202372213e-01
-1.477583894133567810e+01 -6.639205217361450195e-01 -1.011899961763987221e+00
-1.479524812102317810e+01 -8.099166154861450195e-01 -1.009153379732737221e+00
-1.485066804289817810e+01 -9.637252092361450195e-01 -1.008359922701487221e+00
-1.491231355071067810e+01 -1.121317982673645020e+00 -1.007841123873362221e+00
-1.494026765227317810e+01 -1.272807240486145020e+00 -1.005445493990549721e+00
-1.495625886321067810e+01 -1.422831654548645020e+00 -1.002378477388987221e+00
-1.497237214446067810e+01 -1.574320912361145020e+00 -9.992809432092997213e-01
-1.498848542571067810e+01 -1.726298451423645020e+00 -9.961834090296122213e-01
-1.667928132414817810e+01 -9.959517717361450195e-01 -1.044034971529612221e+00
-1.667830476164817810e+01 -1.157572865486145020e+00 -1.039091123873362221e+00
-1.666914948821067810e+01 -1.318217396736145020e+00 -1.034116758638987221e+00
-1.671150788664817810e+01 -1.490580677986145020e+00 -1.031675352388987221e+00
-1.687166413664817810e+01 -1.689555287361145020e+00 -1.035062803560862221e+00
-1.699556550383567810e+01 -1.884257435798645020e+00 -1.036542906099924721e+00
-1.703023347258567810e+01 -2.061747670173645020e+00 -1.033536924654612221e+00
-1.704805573821067810e+01 -2.235819935798645020e+00 -1.030103697115549721e+00
-1.731807526946067810e+01 -1.105204701423645020e+00 -9.997539656702372213e-01
-1.952791413664817810e+01 -1.684184193611145020e+00 -1.096036924654612221e+00
-1.943160066008567810e+01 -1.857157826423645020e+00 -1.086149229342112221e+00
-1.946407136321067810e+01 -2.056132435798645020e+00 -1.082090391451487221e+00
-1.949678620696067810e+01 -2.256083607673645020e+00 -1.078016294771799721e+00
-1.952962312102317810e+01 -2.457499623298645020e+00 -1.073911680513987221e+00
-1.960164460539817810e+01 -2.670390248298645020e+00 -1.071485533053049721e+00
-1.970833405852317810e+01 -2.893656849861145020e+00 -1.070524229342112221e+00
-1.732039460539817810e+01 -1.102641224861145020e+00 -9.235973494592997213e-01
-2.779829987883567810e+01 -3.215922474861145020e+00 -1.348524107271799721e+00
-2.411421784758567810e+01 -2.771342396736145020e+00 -1.190122618013987221e+00
-1.993318757414817810e+01 -2.149516224861145020e+00 -1.013822569185862221e+00
-2.347762116789817810e+01 -3.115458607673645020e+00 -1.150251402193674721e+00
-2.389095124602317810e+01 -3.444926381111145020e+00 -1.159727110201487221e+00
-2.438680085539817810e+01 -3.804423451423645020e+00 -1.172147764498362221e+00
-2.441756257414817810e+01 -4.059184193611145020e+00 -1.166608824068674721e+00
-1.732271394133567810e+01 -1.100199818611145020e+00 -8.470134871546122213e-01
-2.815852937102317810e+01 -3.277934193611145020e+00 -1.236356748873362221e+00
-3.090096101164817810e+01 -4.095683217048645020e+00 -1.326719297701487221e+00
-1.993575105071067810e+01 -2.146586537361145020e+00 -9.249401228967997213e-01
-3.420052155852317810e+01 -5.433451771736145020e+00 -1.424619688326487221e+00
-2.998213776946067810e+01 -4.823344349861145020e+00 -1.265775694185862221e+00
-2.799886140227317810e+01 -4.657939076423645020e+00 -1.187376035982737221e+00
-3.137068757414817810e+01 -5.779643177986145020e+00 -1.294935240084299721e+00
-1.732503327727317810e+01 -1.097636342048645020e+00 -7.708568709436747213e-01
-3.114278230071067810e+01 -3.825907826423645020e+00 -1.204145445162424721e+00
-3.502510651946067810e+01 -4.896708607673645020e+00 -1.315427793795237221e+00
-1.993831452727317810e+01 -2.143534779548645020e+00 -8.355999129358622213e-01
-4.197115144133567810e+01 -7.108622670173645020e+00 -1.506544126803049721e+00
-4.224764069914817810e+01 -7.599955677986145020e+00 -1.501417173678049721e+00
-2.800215730071067810e+01 -4.653666615486145020e+00 -1.059965147310862221e+00
-4.160054597258567810e+01 -8.309672474861145020e+00 -1.455732359224924721e+00
-1.461128816008567810e+01 -6.203414201736450195e-01 -6.198864119592997213e-01
-3.919161042571067810e+01 -5.310038685798645020e+00 -1.280347837740549721e+00
-4.214693269133567810e+01 -6.282084584236145020e+00 -1.346494688326487221e+00
-1.994087800383567810e+01 -2.140605092048645020e+00 -7.467174666467997213e-01
-4.908772858977317810e+01 -8.639506459236145020e+00 -1.499387754732737221e+00
-5.673335847258567810e+01 -1.087522423267364502e+01 -1.679563535982737221e+00
-2.800557526946067810e+01 -4.649272084236145020e+00 -9.318676131311747213e-01
-3.887068757414817810e+01 -7.625590443611145020e+00 -1.194440855318674721e+00
-1.464571198821067810e+01 -6.238814592361450195e-01 -5.570812361780497213e-01
-3.539424714446067810e+01 -4.601054310798645020e+00 -1.017011656099924721e+00
-3.993294343352317810e+01 -5.842387318611145020e+00 -1.105207456881174721e+00
-1.994344148039817810e+01 -2.137675404548645020e+00 -6.578350203577372213e-01
-4.431783112883567810e+01 -7.600199818611145020e+00 -1.171720518404612221e+00
-5.374971589446067810e+01 -1.018906700611114502e+01 -1.354658140474924721e+00
-2.800887116789817810e+01 -4.644999623298645020e+00 -8.044719832483622213e-01
-3.887508210539817810e+01 -7.619486927986145020e+00 -1.015516294771799721e+00
-3.501485261321067810e+01 -4.174784779548645020e+00 -8.609295027796122213e-01
-3.517049226164817810e+01 -4.553446888923645020e+00 -8.516369002405497213e-01
-3.986031159758567810e+01 -5.821025013923645020e+00 -9.208965437952372213e-01
-1.994600495696067810e+01 -2.134623646736145020e+00 -5.684795516077372213e-01
-4.440059480071067810e+01 -7.609965443611145020e+00 -9.685955184046122213e-01
-5.396358308196067810e+01 -1.022751915454864502e+01 -1.108671201998362221e+00
-2.801228913664817810e+01 -4.640605092048645020e+00 -6.763744490686747213e-01
-3.887959870696067810e+01 -7.613383412361145020e+00 -8.356151717249247213e-01
-1.674471101164817810e+01 -9.847213029861450195e-01 -4.574260848108622213e-01
-1.741390046477317810e+01 -1.270487904548645020e+00 -4.604320662561747213e-01
-1.837935456633567810e+01 -1.628398060798645020e+00 -4.666729109827372213e-01
-1.942073640227317810e+01 -2.023295521736145020e+00 -4.730968611780497213e-01
-2.078548249602317810e+01 -2.509745717048645020e+00 -4.826183455530497213e-01
-2.253352937102317810e+01 -3.112162709236145020e+00 -4.955425398889872213e-01
-2.572676667571067810e+01 -4.094828724861145020e+00 -5.233135359827372213e-01
-3.348555573821067810e+01 -6.273173451423645020e+00 -5.981884139124247213e-01
-1.645528230071067810e+01 -9.314986467361450195e-01 -3.810405867639872213e-01
-1.573116120696067810e+01 -9.572554826736450195e-01 -3.691997664514872213e-01
-1.566133698821067810e+01 -1.096171498298645020e+00 -3.634777205530497213e-01
-1.939497956633567810e+01 -2.014628529548645020e+00 -3.864727156702372213e-01
-2.100642976164817810e+01 -2.553691029548645020e+00 -3.912181990686747213e-01
-2.266182526946067810e+01 -3.137065052986145020e+00 -3.950023787561747213e-01
-2.570760163664817810e+01 -4.085551381111145020e+00 -4.059124129358622213e-01
-5.710811433196067810e+01 -1.209995567798614502e+01 -5.879039900842997213e-01
-1.668623933196067810e+01 -9.688521623611450195e-01 -3.098888533655497213e-01
-1.574068269133567810e+01 -9.564009904861450195e-01 -3.003673689905497213e-01
-1.567073640227317810e+01 -1.095317006111145020e+00 -2.944469588342997213e-01
-1.923372468352317810e+01 -1.978251576423645020e+00 -2.992382185999247213e-01
-2.056209382414817810e+01 -2.454325795173645020e+00 -2.955455916467997213e-01
-2.286055573821067810e+01 -3.177836537361145020e+00 -2.929058211389872213e-01
-6.542146882414817810e+01 -1.346177208423614502e+01 -3.598308699671122213e-01
-6.814497956633567810e+01 -1.481248009204864502e+01 -3.383312361780497213e-01
-1.643001374602317810e+01 -9.214888811111450195e-01 -2.364940779749247213e-01
-1.575020417571067810e+01 -9.554244279861450195e-01 -2.314586775842997213e-01
-1.546126374602317810e+01 -1.051982045173645020e+00 -2.260112898889872213e-01
-1.546871003508567810e+01 -1.204203724861145020e+00 -2.202434676233622213e-01
-6.648665437102317810e+01 -1.232786095142364502e+01 -1.058178084436747213e-01
-6.048726472258567810e+01 -1.165891563892364502e+01 -9.487725668586222127e-02
-6.528243073821067810e+01 -1.341685020923614502e+01 -5.691338949836222127e-02
-1.687215241789817810e+01 -9.954634904861450195e-01 -1.622448103967997213e-01
-1.575972566008567810e+01 -9.544478654861450195e-01 -1.620922225061747213e-01
-6.634383210539817810e+01 -1.092637169361114502e+01 1.486530167516377787e-01
-1.551326569914817810e+01 -1.210673451423645020e+00 -1.516857283655497213e-01
-1.552083405852317810e+01 -1.363749623298645020e+00 -1.457195418421122213e-01
-6.048726472258567810e+01 -1.164768517017364502e+01 1.860828263219502787e-01
-6.520430573821067810e+01 -1.338621056079864502e+01 2.466907364782002787e-01
-7.348262605071067810e+01 -1.610178673267364502e+01 3.399524552282002787e-01
-1.538765534758567810e+01 -7.352095842361450195e-01 -1.025524275842997213e-01
-1.517549714446067810e+01 -8.445845842361450195e-01 -9.914971762336222127e-02
-1.555025300383567810e+01 -1.063822865486145020e+00 -8.926202231086222127e-02
-7.033308991789817810e+01 -1.240842735767364502e+01 5.251178605016377787e-01
-6.420162019133567810e+01 -1.181284630298614502e+01 4.833698136266377787e-01
-6.049764069914817810e+01 -1.163889610767364502e+01 4.655933243688252787e-01
-6.513265046477317810e+01 -1.335715782642364502e+01 5.479602677282002787e-01
-7.265669831633567810e+01 -1.588450157642364502e+01 6.729907853063252787e-01
-1.581807526946067810e+01 -8.072310686111450195e-01 -2.921868734992472127e-02
-1.577889069914817810e+01 -9.526168107986450195e-01 -2.354241781867472127e-02
-1.559517487883567810e+01 -1.069926381111145020e+00 -2.009393149054972127e-02
-6.750008210539817810e+01 -1.181736290454864502e+01 8.062305314000752787e-01
-1.561079987883567810e+01 -1.377543568611145020e+00 -7.368101412424721275e-03
-6.050826081633567810e+01 -1.163010704517364502e+01 7.466297013219502787e-01
-6.505818757414817810e+01 -1.332749474048614502e+01 8.500385147985127787e-01
-7.247871980071067810e+01 -1.582712852954864502e+01 1.007677064603200279e+00
-1.582515534758567810e+01 -8.057662248611450195e-01 4.034613198601277873e-02
-1.578853425383567810e+01 -9.517623186111450195e-01 4.602240151726277873e-02
-5.168099030852317810e+01 -8.052348256111145020e+00 7.711658341344502787e-01
-1.564815339446067810e+01 -1.230082631111145020e+00 5.566595620476277873e-02
-1.561592683196067810e+01 -1.375956654548645020e+00 6.140326089226277873e-02
-6.051875886321067810e+01 -1.162131798267364502e+01 1.026201234525075279e+00
-1.597371491789817810e+01 -1.767436146736145020e+00 8.246038979851277873e-02
-7.024800691008567810e+01 -1.526511681079864502e+01 1.296739564603200279e+00
-1.583223542571067810e+01 -8.043013811111450195e-01 1.099414689000752787e-01
-1.579817780852317810e+01 -9.507857561111450195e-01 1.152973038610127787e-01
-1.568562898039817810e+01 -1.082011342048645020e+00 1.190814835485127787e-01
-1.569380769133567810e+01 -1.236674427986145020e+00 1.258563858922627787e-01
-7.106270417571067810e+01 -1.324680626392364502e+01 1.550386415189137779e+00
-1.625069245696067810e+01 -1.668803334236145020e+00 1.535358292516377787e-01
-1.595259675383567810e+01 -1.759623646736145020e+00 1.525440079625752787e-01
-7.084810456633567810e+01 -1.539927208423614502e+01 1.640977845853200279e+00
-1.211922273039817810e+01 -1.017069935798645020e+00 -9.491405623499247213e-01
-1.214021882414817810e+01 -1.140971302986145020e+00 -9.475689070764872213e-01
-1.215596589446067810e+01 -1.264628529548645020e+00 -9.459209578577372213e-01
-1.217171296477317810e+01 -1.389750599861145020e+00 -9.442577498499247213e-01
-1.218770417571067810e+01 -1.515483021736145020e+00 -9.425792830530497213e-01
-1.220381745696067810e+01 -1.642314076423645020e+00 -9.408855574671122213e-01
-1.222005280852317810e+01 -1.770732045173645020e+00 -9.391765730921122213e-01
-1.222090730071067810e+01 -1.894755482673645020e+00 -9.368114607874247213e-01
-1.335701569914817810e+01 -1.323222279548645020e+00 -9.680004256311747213e-01
-1.335811433196067810e+01 -1.455058217048645020e+00 -9.650097029749247213e-01
-1.336702546477317810e+01 -1.589823842048645020e+00 -9.621410506311747213e-01
-1.336824616789817810e+01 -1.723857045173645020e+00 -9.590892928186747213e-01
-1.337496003508567810e+01 -1.859843373298645020e+00 -9.563732283655497213e-01
-1.340291413664817810e+01 -2.003031849861145020e+00 -9.548168318811747213e-01
-1.342281159758567810e+01 -2.145732045173645020e+00 -9.531078475061747213e-01
-1.345125398039817810e+01 -2.291728138923645020e+00 -9.515209334436747213e-01
-1.498872956633567810e+01 -1.726908802986145020e+00 -9.961834090296122213e-01
-1.499544343352317810e+01 -1.877543568611145020e+00 -9.928875105921122213e-01
-1.500215730071067810e+01 -2.029154896736145020e+00 -9.895763533655497213e-01
-1.500887116789817810e+01 -2.182231068611145020e+00 -9.862194197717997213e-01
-1.501570710539817810e+01 -2.335795521736145020e+00 -9.828624861780497213e-01
-1.502254304289817810e+01 -2.490458607673645020e+00 -9.794750350061747213e-01
-1.503829011321067810e+01 -2.649516224861145020e+00 -9.765300887171122213e-01
-1.507295808196067810e+01 -2.815287709236145020e+00 -9.745311873499247213e-01
-1.704854401946067810e+01 -2.236430287361145020e+00 -1.030103697115549721e+00
-1.708626374602317810e+01 -2.416850209236145020e+00 -1.027128233248362221e+00
-1.710713776946067810e+01 -2.594584584236145020e+00 -1.023695005709299721e+00
-1.714888581633567810e+01 -2.780131459236145020e+00 -1.021223081881174721e+00
-1.721199616789817810e+01 -2.973124623298645020e+00 -1.019712461763987221e+00
-1.727583894133567810e+01 -3.168803334236145020e+00 -1.018201841646799721e+00
-1.732478913664817810e+01 -3.362773060798645020e+00 -1.015897764498362221e+00
-1.736495026946067810e+01 -3.555522084236145020e+00 -1.013578428560862221e+00
-1.970931062102317810e+01 -2.894511342048645020e+00 -1.070539488131174721e+00
-1.980391511321067810e+01 -3.117900013923645020e+00 -1.069303526217112221e+00
-1.990010651946067810e+01 -3.344828724861145020e+00 -1.068037046724924721e+00
-1.999812898039817810e+01 -3.576151967048645020e+00 -1.066755308443674721e+00
-2.009749421477317810e+01 -3.810404896736145020e+00 -1.065458311373362221e+00
-2.019844636321067810e+01 -4.048442006111145020e+00 -1.064146055513987221e+00
-2.030147370696067810e+01 -4.291361927986145020e+00 -1.062803282076487221e+00
-2.040584382414817810e+01 -4.537333607673645020e+00 -1.061445249849924721e+00
-2.441817292571067810e+01 -4.060160756111145020e+00 -1.166608824068674721e+00
-2.450667390227317810e+01 -4.331767201423645020e+00 -1.162427915865549721e+00
-2.456880769133567810e+01 -4.599467396736145020e+00 -1.157728208834299721e+00
-2.463179597258567810e+01 -4.871073842048645020e+00 -1.152967466646799721e+00
-2.469527253508567810e+01 -5.144877552986145020e+00 -1.148160948092112221e+00
-2.475935944914817810e+01 -5.421488881111145020e+00 -1.143293394381174721e+00
-2.482442292571067810e+01 -5.702250599861145020e+00 -1.138364805513987221e+00
-2.491780671477317810e+01 -5.994242787361145020e+00 -1.135038389498362221e+00
-3.136983308196067810e+01 -5.780497670173645020e+00 -1.294858946138987221e+00
-3.140608796477317810e+01 -6.112040638923645020e+00 -1.286588682467112221e+00
-3.149361237883567810e+01 -6.460063099861145020e+00 -1.279966368013987221e+00
-3.171565827727317810e+01 -6.850688099861145020e+00 -1.277723326021799721e+00
-3.184578523039817810e+01 -7.219950795173645020e+00 -1.272245420748362221e+00
-3.197762116789817810e+01 -7.594462513923645020e+00 -1.266706480318674721e+00
-3.218453034758567810e+01 -7.998515248298645020e+00 -1.263425840670237221e+00
-3.252754792571067810e+01 -8.451762318611145020e+00 -1.264371885592112221e+00
-4.160017976164817810e+01 -8.311015248298645020e+00 -1.455671324068674721e+00
-4.280061921477317810e+01 -9.051859974861145020e+00 -1.477750791842112221e+00
-4.410457429289817810e+01 -9.848490834236145020e+00 -1.500898374849924721e+00
-4.410616120696067810e+01 -1.031272423267364502e+01 -1.486661924654612221e+00
-4.411556062102317810e+01 -1.078025352954864502e+01 -1.472608579928049721e+00
-4.490340241789817810e+01 -1.148533165454864502e+01 -1.480344785982737221e+00
-4.504720124602317810e+01 -1.201084434986114502e+01 -1.470670713717112221e+00
-4.535115632414817810e+01 -1.259226524829864502e+01 -1.464139951998362221e+00
-4.160494050383567810e+01 -8.304423451423645020e+00 -1.262800230318674721e+00
-5.240205964446067810e+01 -1.152390587329864502e+01 -1.515470518404612221e+00
-6.252559480071067810e+01 -1.479453575611114502e+01 -1.744306577974924721e+00
-6.342134675383567810e+01 -1.570664513111114502e+01 -1.744596494967112221e+00
-6.375862702727317810e+01 -1.647739708423614502e+01 -1.731000913912424721e+00
-6.449275788664817810e+01 -1.737876427173614502e+01 -1.726316465670237221e+00
-6.492329987883567810e+01 -1.820762169361114502e+01 -1.713926328951487221e+00
-6.547212800383567810e+01 -1.908567345142364502e+01 -1.703870786959299721e+00
-3.887471589446067810e+01 -7.620829701423645020e+00 -1.015455259615549721e+00
-5.240804108977317810e+01 -1.151548302173614502e+01 -1.272016538912424721e+00
-7.668965730071067810e+01 -1.858945763111114502e+01 -1.729490293795237221e+00
-8.781624421477317810e+01 -2.251291954517364502e+01 -1.916410459810862221e+00
-8.709395417571067810e+01 -2.323850548267364502e+01 -1.871625913912424721e+00
-8.898152741789817810e+01 -2.473948204517364502e+01 -1.875516905123362221e+00
-8.955135163664817810e+01 -2.587913048267364502e+01 -1.853818907076487221e+00
-9.013118562102317810e+01 -2.703672325611114502e+01 -1.831815733248362221e+00
-3.887923249602317810e+01 -7.614604115486145020e+00 -8.355693953577372213e-01
-5.241414460539817810e+01 -1.150718224048614502e+01 -1.027280821138987221e+00
-7.685652741789817810e+01 -1.861936485767364502e+01 -1.370603575045237221e+00
-6.837325105071067810e+01 -1.706516563892364502e+01 -1.219846739107737221e+00
-8.439351472258567810e+01 -2.243796837329864502e+01 -1.420286192232737221e+00
-9.206563386321067810e+01 -2.564976036548614502e+01 -1.494199766451487221e+00
-3.622102937102317810e+01 -6.950419545173645020e+00 -6.277904646936747213e-01
-4.992818269133567810e+01 -1.085654747486114502e+01 -7.577648299280497213e-01
-5.778926667571067810e+01 -1.348740684986114502e+01 -8.183117049280497213e-01
-6.789986237883567810e+01 -1.691977989673614502e+01 -8.944530623499247213e-01
-8.302437409758567810e+01 -2.202451622486114502e+01 -1.009412779146799721e+00
-5.710152253508567810e+01 -1.210032188892364502e+01 -5.877819197717997213e-01
-7.243843659758567810e+01 -1.664438927173614502e+01 -6.532421248499247213e-01
-8.956441316008567810e+01 -2.199790489673614502e+01 -7.182140486780497213e-01
-9.153499421477317810e+01 -2.349888145923614502e+01 -6.926708357874247213e-01
-9.126704987883567810e+01 -2.439597618579864502e+01 -6.553173201624247213e-01
