-9.810049295425415039e+00 1.891094140708446503e+00 -2.143381409347000499e-01
-1.002013230323791504e+01 1.809184961020946503e+00 -2.110269837081375499e-01
-1.022325730323791504e+01 1.722881250083446503e+00 -2.074259094893875499e-01
-1.042735886573791504e+01 1.632305078208446503e+00 -2.036722473800125499e-01
-1.064024949073791504e+01 1.537822656333446503e+00 -1.997507385909500499e-01
-1.086327195167541504e+01 1.438823632895946503e+00 -1.956461243331375499e-01
-1.109801316261291504e+01 1.334697656333446503e+00 -1.913278870284500499e-01
-1.134313035011291504e+01 1.225688867270946503e+00 -1.865671448409500499e-01
-9.766836404800415039e+00 1.891216211020946503e+00 -1.755350403487625499e-01
-9.949697732925415039e+00 1.809307031333446503e+00 -1.712930969893875499e-01
-1.014073777198791504e+01 1.723735742270946503e+00 -1.668833069503250499e-01
-1.034093308448791504e+01 1.634014062583446503e+00 -1.622446350753250499e-01
-1.054979538917541504e+01 1.540508203208446503e+00 -1.574075989425125499e-01
-1.076842331886291504e+01 1.442607812583446503e+00 -1.523569397628250499e-01
-1.100572800636291504e+01 1.339336328208446503e+00 -1.469553284347000499e-01
-1.129552292823791504e+01 1.229228906333446503e+00 -1.408670715987625499e-01
-9.692495584487915039e+00 1.890483789145946503e+00 -1.373270325362625499e-01
-9.872183084487915039e+00 1.809307031333446503e+00 -1.323221497237625499e-01
-1.009483933448791504e+01 1.724712304770946503e+00 -1.268289856612625499e-01
-1.033299851417541504e+01 1.635356836020946503e+00 -1.207559876143875499e-01
-1.058348679542541504e+01 1.541362695395946503e+00 -1.143778137862625499e-01
-1.084825730323791504e+01 1.441997461020946503e+00 -1.076334290206375499e-01
-1.113023972511291504e+01 1.336406640708446503e+00 -1.002176575362625499e-01
-1.142760300636291504e+01 1.224834375083446503e+00 -9.263403937220004991e-02
-9.748647928237915039e+00 1.893047265708446503e+00 -9.753211066126254991e-02
-9.966787576675415039e+00 1.811992578208446503e+00 -9.119971320032504991e-02
-1.019713425636291504e+01 1.726543359458446503e+00 -8.430274054407504991e-02
-1.044090867042541504e+01 1.636211328208446503e+00 -7.699378058313754991e-02
-1.069750046730041504e+01 1.541118554770946503e+00 -6.930335089563754991e-02
-1.345616745948791504e+01 1.379863671958446503e+00 -1.363928839563754991e-02
-1.346849656105041504e+01 1.257549218833446503e+00 -9.595709294075049911e-03
-1.632762742042541504e+01 1.009258203208446503e+00 5.101220086217495009e-02
-1.180077195167541504e+01 1.179912500083446503e+00 -9.605692200362625499e-01
-1.225939011573791504e+01 1.048442773520946503e+00 -9.883249573409500499e-01
-1.228148484230041504e+01 9.367484375834465027e-01 -9.867990784347000499e-01
-1.230382370948791504e+01 8.241996094584465027e-01 -9.852579407393875499e-01
-1.232616257667541504e+01 7.112845703959465027e-01 -9.837015442550125499e-01
-1.237523484230041504e+01 5.951957032084465027e-01 -9.838999085128250499e-01
-1.244664597511291504e+01 4.752005860209465027e-01 -9.855478577315750499e-01
-1.251244187355041504e+01 3.544730469584465027e-01 -9.870584778487625499e-01
-1.180199265480041504e+01 1.181499414145946503e+00 -9.119089417159500499e-01
-1.500438523292541504e+01 8.936576172709465027e-01 -1.109983282536262550e+00
-1.474730515480041504e+01 7.732962891459465027e-01 -1.089780645817512550e+00
-1.343358445167541504e+01 7.388724610209465027e-01 -1.004316168278450050e+00
-1.350633835792541504e+01 6.102103516459465027e-01 -1.005430059880012550e+00
-1.358006882667541504e+01 4.799613282084465027e-01 -1.006559210270637550e+00
-1.364855027198791504e+01 3.480033203959465027e-01 -1.007596807926887550e+00
-1.370653367042541504e+01 2.161673828959465027e-01 -1.007673101872200050e+00
-1.180333542823791504e+01 1.182964257895946503e+00 -8.632486633956375499e-01
-1.181566452980041504e+01 1.076885156333446503e+00 -8.610056214034500499e-01
-1.603807663917541504e+01 6.890677735209465027e-01 -1.102338629215950050e+00
-1.597582077980041504e+01 5.452689453959465027e-01 -1.094571905583137550e+00
-1.548778367042541504e+01 4.399222657084465027e-01 -1.062452154606575050e+00
-1.509483933448791504e+01 3.349417969584465027e-01 -1.036039190739387550e+00
-1.486485886573791504e+01 2.197074219584465027e-01 -1.019056158512825050e+00
-1.495677781105041504e+01 7.175820320844650269e-02 -1.020383673161262550e+00
-1.180467820167541504e+01 1.184429101645946503e+00 -8.148477844893875499e-01
-1.181126999855041504e+01 1.078716211020946503e+00 -8.119486145675125499e-01
-1.620287156105041504e+01 6.802787110209465027e-01 -1.042707281559700050e+00
-1.613927292823791504e+01 5.348929688334465027e-01 -1.035062628239387550e+00
-1.827843308448791504e+01 1.999320313334465027e-01 -1.143461065739387550e+00
-1.680138230323791504e+01 1.718558594584465027e-01 -1.061216192692512550e+00
-1.851317429542541504e+01 -1.682320311665534973e-01 -1.145902471989387550e+00
-1.863170456886291504e+01 -3.560982421040534973e-01 -1.147519903630012550e+00
-1.180602097511291504e+01 1.185893945395946503e+00 -7.661875061690750499e-01
-1.180699753761291504e+01 1.080547265708446503e+00 -7.631815247237625499e-01
-1.677721238136291504e+01 6.442679688334465027e-01 -1.001859503239387550e+00
-1.841014695167541504e+01 3.632621094584465027e-01 -1.076291876286262550e+00
-1.850560593605041504e+01 1.828421875834465027e-01 -1.075925665348762550e+00
-1.677940964698791504e+01 1.763724610209465027e-01 -9.884622864425125499e-01
-1.874693894386291504e+01 -1.904488280415534973e-01 -1.077344732731575050e+00
-1.664659714698791504e+01 -1.214791014790534973e-01 -9.731577210128250499e-01
-1.180736374855041504e+01 1.187358789145946503e+00 -7.177713684737625499e-01
-1.180260300636291504e+01 1.082378320395946503e+00 -7.142313294112625499e-01
-1.855492234230041504e+01 5.286673828959465027e-01 -1.008313971012825050e+00
-1.863854050636291504e+01 3.483695313334465027e-01 -1.006879644840950050e+00
-1.874010300636291504e+01 1.652640625834465027e-01 -1.006192999333137550e+00
-1.675731492042541504e+01 1.808890625834465027e-01 -9.155557923018875499e-01
-2.143041062355041504e+01 -4.737740233540534973e-01 -1.111142950505012550e+00
-2.153856492042541504e+01 -6.898384764790534973e-01 -1.110288458317512550e+00
-1.180870652198791504e+01 1.188945703208446503e+00 -6.691110901534500499e-01
-1.179820847511291504e+01 1.084087304770946503e+00 -6.655863098800125499e-01
-1.656078171730041504e+01 6.633109375834465027e-01 -8.501566223800125499e-01
-1.887181687355041504e+01 3.332328125834465027e-01 -9.359873108565750499e-01
-1.936437058448791504e+01 1.139945313334465027e-01 -9.498880676925125499e-01
-2.158397507667541504e+01 -2.817574217915534973e-01 -1.029996710270637550e+00
-2.169554734230041504e+01 -4.989205077290534973e-01 -1.028180914372200050e+00
-1.667821335792541504e+01 -1.202583983540534973e-01 -8.318308167159500499e-01
-1.181004929542541504e+01 1.190410546958446503e+00 -6.207102112472000499e-01
-1.179393601417541504e+01 1.085918359458446503e+00 -6.169870667159500499e-01
-1.645445847511291504e+01 6.725882813334465027e-01 -7.756937317550125499e-01
-1.638524460792541504e+01 5.251273438334465027e-01 -7.687357239425125499e-01
-1.455882859230041504e+01 5.307425782084465027e-01 -7.017496399581375499e-01
-1.671361374855041504e+01 1.898001953959465027e-01 -7.707651428878250499e-01
-1.680980515480041504e+01 2.354042977094650269e-02 -7.696970276534500499e-01
-2.465941452980041504e+01 -1.046649999916553497e+00 -1.026441412419075050e+00
-1.181139206886291504e+01 1.191875390708446503e+00 -5.720346741378250499e-01
-1.178954148292541504e+01 1.087749414145946503e+00 -5.681742005050125499e-01
-2.120091843605041504e+01 3.620414063334465027e-01 -8.491190247237625499e-01
-1.633153367042541504e+01 5.315970703959465027e-01 -6.975229553878250499e-01
-1.470763230323791504e+01 5.200003907084465027e-01 -6.448953919112625499e-01
-1.669200730323791504e+01 1.943167969584465027e-01 -6.988962464034500499e-01
-1.678771042823791504e+01 2.830117195844650269e-02 -6.969431214034500499e-01
-1.670982956886291504e+01 -1.191597655415534973e-01 -6.899698548018875499e-01
-1.181273484230041504e+01 1.193340234458446503e+00 -5.236337952315750499e-01
-1.178514695167541504e+01 1.089580468833446503e+00 -5.196817688643875499e-01
-2.236046433448791504e+01 2.886771485209465027e-01 -7.871378235518875499e-01
-1.627818894386291504e+01 5.378226563334465027e-01 -6.268289856612625499e-01
-2.315807175636291504e+01 -2.033882811665534973e-01 -7.940653137862625499e-01
-1.665978074073791504e+01 1.998099610209465027e-01 -6.269815735518875499e-01
-1.434105515480041504e+01 2.900199219584465027e-01 -5.657175354659500499e-01
-1.435533738136291504e+01 1.564750000834465027e-01 -5.620249085128250499e-01
-1.181407761573791504e+01 1.194927148520946503e+00 -4.749582581222000499e-01
-1.178087449073791504e+01 1.091411523520946503e+00 -4.709757141768875499e-01
-1.621727585792541504e+01 6.950492188334465027e-01 -5.607736878097000499e-01
-1.622496628761291504e+01 5.441703125834465027e-01 -5.562723450362625499e-01
-1.441942429542541504e+01 5.488089844584465027e-01 -5.148599915206375499e-01
-1.443395066261291504e+01 4.152640625834465027e-01 -5.110452942550125499e-01
-1.444859910011291504e+01 2.806205078959465027e-01 -5.072000794112625499e-01
-1.446324753761291504e+01 1.460990235209465027e-01 -5.033548645675125499e-01
-1.181542038917541504e+01 1.196391992270946503e+00 -4.265421204268875499e-01
-1.177647995948791504e+01 1.093120507895946503e+00 -4.225900940597000499e-01
-2.486998581886291504e+01 1.307181641459465027e-01 -6.338175110518875499e-01
-2.313976120948791504e+01 2.427285164594650269e-02 -5.985544495284500499e-01
-1.452745652198791504e+01 5.416068360209465027e-01 -4.559915833175125499e-01
-1.454234910011291504e+01 4.068412110209465027e-01 -4.520242981612625499e-01
-1.455736374855041504e+01 2.712210938334465027e-01 -4.480417542159500499e-01
-1.457225632667541504e+01 1.354789063334465027e-01 -4.440592102706375499e-01
-1.147240281105041504e+01 1.213481836020946503e+00 -3.736093811690750499e-01
-1.174413132667541504e+01 1.096538476645946503e+00 -3.736398987472000499e-01
-1.201512742042541504e+01 9.739798828959465027e-01 -3.737619690597000499e-01
-1.230382370948791504e+01 8.442191407084465027e-01 -3.736398987472000499e-01
-1.260802292823791504e+01 7.075003907084465027e-01 -3.735178284347000499e-01
-1.292992234230041504e+01 5.627250000834465027e-01 -3.733804993331375499e-01
-1.327135300636291504e+01 4.089164063334465027e-01 -3.729379944503250499e-01
-1.363377976417541504e+01 2.460746094584465027e-01 -3.727701477706375499e-01
-1.134203171730041504e+01 1.220928125083446503e+00 -3.257425598800125499e-01
-1.160668015480041504e+01 1.105693750083446503e+00 -3.244913391768875499e-01
-1.188439011573791504e+01 9.841117188334465027e-01 -3.231485657393875499e-01
-1.215672898292541504e+01 8.569144532084465027e-01 -3.215921692550125499e-01
-1.245616745948791504e+01 7.221488282084465027e-01 -3.200357727706375499e-01
-1.280711960792541504e+01 5.762748047709465027e-01 -3.186014465987625499e-01
-1.318272995948791504e+01 4.201468750834465027e-01 -3.170603089034500499e-01
-1.358275437355041504e+01 2.538871094584465027e-01 -3.154123596847000499e-01
-1.133189988136291504e+01 1.222881250083446503e+00 -2.792185120284500499e-01
-1.162572312355041504e+01 1.106182031333446503e+00 -2.770517639815750499e-01
-1.192613816261291504e+01 9.830130860209465027e-01 -2.744577698409500499e-01
-1.224425339698791504e+01 8.520316407084465027e-01 -2.716959290206375499e-01
-1.258141160011291504e+01 7.132376953959465027e-01 -2.687662415206375499e-01
-1.294042038917541504e+01 5.654105469584465027e-01 -2.656534485518875499e-01
-1.332481980323791504e+01 4.070853516459465027e-01 -2.623117737472000499e-01
-1.369762253761291504e+01 2.425345703959465027e-01 -2.584055237472000499e-01
-1.143688035011291504e+01 1.219585351645946503e+00 -2.328928284347000499e-01
-1.171544480323791504e+01 1.102764062583446503e+00 -2.290781311690750499e-01
-1.197911667823791504e+01 9.811820313334465027e-01 -2.251108460128250499e-01
-1.225926804542541504e+01 8.525199219584465027e-01 -2.209146790206375499e-01
-1.255382370948791504e+01 7.172660157084465027e-01 -2.164896301925125499e-01
-1.286498093605041504e+01 5.743216797709465027e-01 -2.118204407393875499e-01
-1.319554734230041504e+01 4.224662110209465027e-01 -2.068765930831375499e-01
-1.354491257667541504e+01 2.620658203959465027e-01 -2.016275696456375499e-01
-1.134483933448791504e+01 1.225200586020946503e+00 -1.865518860518875499e-01
-1.160350632667541504e+01 1.110454492270946503e+00 -1.818216614425125499e-01
-1.187560105323791504e+01 9.894828125834465027e-01 -1.765878967940750499e-01
-1.214012742042541504e+01 8.631400391459465027e-01 -1.712015442550125499e-01
-1.245555710792541504e+01 7.272757813334465027e-01 -1.652811340987625499e-01
-1.282543015480041504e+01 5.798148438334465027e-01 -1.587198548018875499e-01
-1.322276902198791504e+01 4.214896485209465027e-01 -1.516855530440750499e-01
-1.364855027198791504e+01 2.520560547709465027e-01 -1.438425354659500499e-01
-1.129747605323791504e+01 1.228862695395946503e+00 -1.408365540206375499e-01
-1.160619187355041504e+01 1.111797265708446503e+00 -1.341074280440750499e-01
-1.192247605323791504e+01 9.880179688334465027e-01 -1.270731262862625499e-01
-1.225768113136291504e+01 8.559378907084465027e-01 -1.195963196456375499e-01
-1.261400437355041504e+01 7.156791016459465027e-01 -1.116617493331375499e-01
-1.540355515480041504e+01 3.376273438334465027e-01 -7.368262335657504991e-02
-1.631822800636291504e+01 9.910195320844650269e-02 -5.738623663782504991e-02
-1.716087937355041504e+01 -1.491890624165534973e-01 -4.141028448938754991e-02
-1.142967820167541504e+01 1.224468164145946503e+00 -9.258826300501254991e-02
-1.174669480323791504e+01 1.105693750083446503e+00 -8.422644659876254991e-02
-1.631896042823791504e+01 7.064017578959465027e-01 -8.634405583137549911e-03
-2.405321335792541504e+01 -2.064902335405349731e-02 1.214315123856124501e-01
-1.630174851417541504e+01 4.058646485209465027e-01 1.344842463737450089e-03
-1.629308152198791504e+01 2.557181641459465027e-01 6.334466487174950089e-03
-1.529308152198791504e+01 2.087210938334465027e-01 -5.338507145637549911e-03
-2.344920945167541504e+01 -8.676949217915534973e-01 1.425344176590499501e-01
-1.632726120948791504e+01 1.008769921958446503e+00 5.102745965123745009e-02
-3.729881882667541504e+01 -2.801705077290534973e-01 4.768697448074874501e-01
-1.634886765480041504e+01 7.067679688334465027e-01 6.141869500279995009e-02
-2.407018113136291504e+01 -1.845175772905349731e-02 2.269612975418624501e-01
-2.331334519386291504e+01 -1.831246092915534973e-01 2.188283629715499501e-01
-2.405260300636291504e+01 -4.741402342915534973e-01 2.422963805496749501e-01
-2.442223191261291504e+01 -7.424507811665534973e-01 2.582418151199874501e-01
-2.345226120948791504e+01 -8.645210936665534973e-01 2.453176207840499501e-01
-1.251305222511291504e+01 3.541068360209465027e-01 -9.870737366378250499e-01
-1.257420945167541504e+01 2.324027344584465027e-01 -9.880350403487625499e-01
-1.257787156105041504e+01 1.171683594584465027e-01 -9.854715637862625499e-01
-1.258165574073791504e+01 9.574219584465026855e-04 -9.829080872237625499e-01
-1.258543992042541504e+01 -1.151314452290534973e-01 -9.803446106612625499e-01
-1.258922410011291504e+01 -2.318306639790534973e-01 -9.777506165206375499e-01
-1.259300827980041504e+01 -3.491402342915534973e-01 -9.751566223800125499e-01
-1.259056687355041504e+01 -4.654732421040534973e-01 -9.724405579268875499e-01
-1.370689988136291504e+01 2.158011719584465027e-01 -1.007688360661262550e+00
-1.371251511573791504e+01 8.909218758344650269e-02 -1.004880743473762550e+00
-1.372447800636291504e+01 -3.883749991655349731e-02 -1.002134161442512550e+00
-1.373009324073791504e+01 -1.668892577290534973e-01 -9.992807678878250499e-01
-1.373583054542541504e+01 -2.950630858540534973e-01 -9.964273743331375499e-01
-1.374144577980041504e+01 -4.237251952290534973e-01 -9.935739807784500499e-01
-1.374071335792541504e+01 -5.522652342915534973e-01 -9.906290344893875499e-01
-1.374645066261291504e+01 -6.817818358540534973e-01 -9.877451233565750499e-01
-1.495848679542541504e+01 7.102578133344650269e-02 -1.020475225895637550e+00
-1.436449265480041504e+01 8.159570395946502686e-03 -9.835336975753250499e-01
-1.523973679542541504e+01 -2.451363280415534973e-01 -1.029065924137825050e+00
-1.535948777198791504e+01 -4.054146483540534973e-01 -1.032056646794075050e+00
-1.543675827980041504e+01 -5.615425780415534973e-01 -1.032636480778450050e+00
-1.551512742042541504e+01 -7.197457030415534973e-01 -1.033231573551887550e+00
-1.551402878761291504e+01 -8.664742186665534973e-01 -1.029386358708137550e+00
-1.549535202980041504e+01 -1.009662695229053497e+00 -1.024595098942512550e+00
-1.863243699073791504e+01 -3.567085936665534973e-01 -1.147550421208137550e+00
-1.436620163917541504e+01 9.990625083446502686e-03 -9.226358704268875499e-01
-1.772411179542541504e+01 -5.838814452290534973e-01 -1.091260748356575050e+00
-1.731737351417541504e+01 -6.919136717915534973e-01 -1.066083746403450050e+00
-1.715807175636291504e+01 -8.305855467915534973e-01 -1.053678350895637550e+00
-1.728026413917541504e+01 -1.013813085854053497e+00 -1.055539923161262550e+00
-1.694627976417541504e+01 -1.119281835854053497e+00 -1.034421759098762550e+00
-1.750658249855041504e+01 -1.386371679604053497e+00 -1.058530645817512550e+00
-1.664928269386291504e+01 -1.223335936665534973e-01 -9.732797913253250499e-01
-1.436803269386291504e+01 1.182167977094650269e-02 -8.620584778487625499e-01
-2.154698777198791504e+01 -1.105365820229053497e+00 -1.193219976872200050e+00
-1.442394089698791504e+01 -2.630806639790534973e-01 -8.574198059737625499e-01
-1.459264206886291504e+01 -4.239693358540534973e-01 -8.615549378097000499e-01
-2.076561570167541504e+01 -1.595722265541553497e+00 -1.140592413395637550e+00
-1.694835495948791504e+01 -1.117084570229053497e+00 -9.613779358565750499e-01
-2.006957077980041504e+01 -1.866230078041553497e+00 -1.098218756169075050e+00
-2.153905320167541504e+01 -6.905708983540534973e-01 -1.110288458317512550e+00
-1.436974167823791504e+01 1.365273445844650269e-02 -8.011453919112625499e-01
-2.182237839698791504e+01 -1.139911718666553497e+00 -1.110273199528450050e+00
-2.296556687355041504e+01 -1.517841406166553497e+00 -1.152112799137825050e+00
-2.281200242042541504e+01 -1.714984960854053497e+00 -1.139600592106575050e+00
-2.477709031105041504e+01 -2.264789648354053497e+00 -1.214292364567512550e+00
-1.695055222511291504e+01 -1.114887304604053497e+00 -8.879373840987625499e-01
-2.764269089698791504e+01 -3.287983007729053497e+00 -1.317701178044075050e+00
-1.668089890480041504e+01 -1.211128905415534973e-01 -8.319071106612625499e-01
-1.437157273292541504e+01 1.548378914594650269e-02 -7.405679993331375499e-01
-2.460094285011291504e+01 -1.516620703041553497e+00 -1.118802862614387550e+00
-1.449083542823791504e+01 -2.686958983540534973e-01 -7.373941712081375499e-01
-2.490501999855041504e+01 -2.040546484291553497e+00 -1.116422491520637550e+00
-2.759850144386291504e+01 -2.733173437416553497e+00 -1.207776861637825050e+00
-1.695274949073791504e+01 -1.112567968666553497e+00 -8.148935608565750499e-01
-3.054418015480041504e+01 -3.828876562416553497e+00 -1.298047857731575050e+00
-2.466014695167541504e+01 -1.047504492104053497e+00 -1.026441412419075050e+00
-1.437328171730041504e+01 1.731484383344650269e-02 -6.799753479659500499e-01
-2.489916062355041504e+01 -1.553730078041553497e+00 -1.019880133122200050e+00
-1.452477097511291504e+01 -2.715035155415534973e-01 -6.767862610518875499e-01
-2.267259812355041504e+01 -1.686176367104053497e+00 -9.343546204268875499e-01
-1.429015183448791504e+01 -5.031929686665534973e-01 -6.614206604659500499e-01
-1.695482468605041504e+01 -1.110370703041553497e+00 -7.418344788253250499e-01
-3.459032273292541504e+01 -4.584003515541553497e+00 -1.287763433903450050e+00
-1.671263718605041504e+01 -1.200142577290534973e-01 -6.900308899581375499e-01
-1.437511277198791504e+01 1.914589852094650269e-02 -6.190622620284500499e-01
-2.317113327980041504e+01 -1.314106054604053497e+00 -8.619364075362625499e-01
-1.455858445167541504e+01 -2.744332030415534973e-01 -6.161936096847000499e-01
-3.093614792823791504e+01 -2.978778906166553497e+00 -1.061780767887825050e+00
-3.431835007667541504e+01 -3.847309179604053497e+00 -1.144544439762825050e+00
-1.695702195167541504e+01 -1.108173437416553497e+00 -6.683939270675125499e-01
-3.995409226417541504e+01 -5.584858007729053497e+00 -1.273801641911262550e+00
-1.435545945167541504e+01 1.559867188334465027e-01 -5.620096497237625499e-01
-1.437682175636291504e+01 2.109902352094650269e-02 -5.584848694503250499e-01
-2.313304734230041504e+01 -1.305439062416553497e+00 -7.596262268722000499e-01
-1.459251999855041504e+01 -2.772408202290534973e-01 -5.553263001143875499e-01
-1.447325730323791504e+01 -3.944283202290534973e-01 -5.484598450362625499e-01
-1.435582566261291504e+01 -5.099068358540534973e-01 -5.416849426925125499e-01
-1.695909714698791504e+01 -1.105976171791553497e+00 -5.953348450362625499e-01
-3.497875046730041504e+01 -4.645649023354053497e+00 -9.845407776534500499e-01
-1.446336960792541504e+01 1.456107422709465027e-01 -5.033396057784500499e-01
-1.437865281105041504e+01 2.293007820844650269e-02 -4.975565247237625499e-01
-1.498241257667541504e+01 -1.922798827290534973e-01 -5.047586731612625499e-01
-2.340697312355041504e+01 -1.564960546791553497e+00 -6.559580139815750499e-01
-1.450707077980041504e+01 -3.976021483540534973e-01 -4.873941712081375499e-01
-1.438902878761291504e+01 -5.133248046040534973e-01 -4.810617737472000499e-01
-1.696129441261291504e+01 -1.103778906166553497e+00 -5.218790344893875499e-01
-3.475987839698791504e+01 -4.599018163979053497e+00 -8.227365784347000499e-01
-1.457237839698791504e+01 1.349906250834465027e-01 -4.440439514815750499e-01
-1.438036179542541504e+01 2.476113289594650269e-02 -4.369638733565750499e-01
-1.497838425636291504e+01 -1.894722655415534973e-01 -4.411905579268875499e-01
-1.485460495948791504e+01 -3.112984374165534973e-01 -4.350260071456375499e-01
-1.454088425636291504e+01 -4.007759764790534973e-01 -4.263590149581375499e-01
-1.616063523292541504e+01 -8.062935546040534973e-01 -4.433878235518875499e-01
-1.677440476417541504e+01 -1.068134374916553497e+00 -4.463785462081375499e-01
-1.534886765480041504e+01 -9.609566405415534973e-01 -4.234445862472000499e-01
-1.363634324073791504e+01 2.453421875834465027e-01 -3.727854065597000499e-01
-1.402196335792541504e+01 7.188027352094650269e-02 -3.725107483565750499e-01
-1.441429734230041504e+01 -1.107369139790534973e-01 -3.723429016768875499e-01
-1.483214402198791504e+01 -3.058052733540534973e-01 -3.718241028487625499e-01
-1.457481980323791504e+01 -4.039498046040534973e-01 -3.650339417159500499e-01
-1.591588425636291504e+01 -7.632027342915534973e-01 -3.720529846847000499e-01
-1.542479538917541504e+01 -8.271675780415534973e-01 -3.627603821456375499e-01
-1.743468308448791504e+01 -1.348529882729053497e+00 -3.737772278487625499e-01
-1.358568406105041504e+01 2.531546875834465027e-01 -3.154276184737625499e-01
-1.401500535011291504e+01 7.468789070844650269e-02 -3.135202698409500499e-01
-1.440648484230041504e+01 -1.075630858540534973e-01 -3.111398987472000499e-01
-1.494066452980041504e+01 -3.194771483540534973e-01 -3.091104798018875499e-01
-1.460899949073791504e+01 -4.071236327290534973e-01 -3.030832581222000499e-01
-1.613902878761291504e+01 -7.978707030415534973e-01 -3.044565491378250499e-01
-1.673546433448791504e+01 -1.056171484291553497e+00 -3.014658264815750499e-01
-1.536681199073791504e+01 -9.596138671040534973e-01 -2.918222717940750499e-01
-1.370018601417541504e+01 2.418021485209465027e-01 -2.583902649581375499e-01
-1.408153367042541504e+01 6.846230477094650269e-02 -2.546671204268875499e-01
-1.440819382667541504e+01 -1.057320311665534973e-01 -2.503488831222000499e-01
-1.483739304542541504e+01 -3.022652342915534973e-01 -2.457559876143875499e-01
-1.537462449073791504e+01 -5.243111327290534973e-01 -2.408273987472000499e-01
-1.590636277198791504e+01 -7.567330077290534973e-01 -2.355325989425125499e-01
-1.654369187355041504e+01 -1.019794531166553497e+00 -2.296884827315750499e-01
-1.537584519386291504e+01 -9.588814452290534973e-01 -2.257211975753250499e-01
-1.354735398292541504e+01 2.613333985209465027e-01 -2.016123108565750499e-01
-1.391820359230041504e+01 9.092324227094650269e-02 -1.958139710128250499e-01
-1.438524460792541504e+01 -1.004830077290534973e-01 -1.893289856612625499e-01
-1.486363816261291504e+01 -3.038521483540534973e-01 -1.824320130050125499e-01
-1.546861863136291504e+01 -5.366402342915534973e-01 -1.745584778487625499e-01
-1.613194870948791504e+01 -7.917671874165534973e-01 -1.659220032393875499e-01
-1.653392624855041504e+01 -1.015522070229053497e+00 -1.582926087081375499e-01
-1.538487839698791504e+01 -9.582710936665534973e-01 -1.599252991378250499e-01
-1.365160202980041504e+01 2.513236328959465027e-01 -1.438120178878250499e-01
-1.410875535011291504e+01 6.907265633344650269e-02 -1.357401184737625499e-01
-1.665172410011291504e+01 -4.048042967915534973e-01 -1.082590393722000499e-01
-1.477147507667541504e+01 -2.882271483540534973e-01 -1.203287415206375499e-01
-1.661900925636291504e+01 -7.132759764790534973e-01 -9.750159308313754991e-02
-1.514061570167541504e+01 -6.250191405415534973e-01 -1.068704895675125499e-01
-1.493517136573791504e+01 -7.315865233540534973e-01 -1.039713196456375499e-01
-1.539391160011291504e+01 -9.575386717915534973e-01 -9.368689581751254991e-02
-1.716063523292541504e+01 -1.497994139790534973e-01 -4.139502570032504991e-02
-2.672997117042541504e+01 -1.505634374916553497e+00 9.146325066686245009e-02
-1.495372605323791504e+01 -1.731148436665534973e-01 -5.991919562220004991e-02
-1.437718796730041504e+01 -2.289009764790534973e-01 -6.298621222376254991e-02
-1.516112351417541504e+01 -4.842720702290534973e-01 -4.690344855188754991e-02
-1.671776413917541504e+01 -8.839302733540534973e-01 -1.884253546595004991e-02
-1.475585007667541504e+01 -6.977730467915534973e-01 -4.276831671595004991e-02
-4.490965867042541504e+01 -6.449482031166553497e+00 4.291249938309249501e-01
-2.344994187355041504e+01 -8.685494139790534973e-01 1.425801940262374501e-01
-1.626683640480041504e+01 -1.961861327290534973e-01 2.211205437779995009e-02
-1.507579636573791504e+01 -1.873970702290534973e-01 5.571527034049950089e-03
-3.364549851417541504e+01 -3.021747656166553497e+00 3.567678160965499501e-01
-1.445860886573791504e+01 -3.729439452290534973e-01 4.167718440299950089e-03
-1.549107956886291504e+01 -6.784859374165534973e-01 2.911583855748745009e-02
-1.698570847511291504e+01 -1.087421484291553497e+00 6.440941765904995009e-02
-4.492833542823791504e+01 -6.445575781166553497e+00 6.336843200027999501e-01
-2.345299363136291504e+01 -8.653755858540534973e-01 2.453633971512374501e-01
-1.656029343605041504e+01 -2.303658202290534973e-01 9.793297722936245009e-02
-1.494554734230041504e+01 -1.676216796040534973e-01 6.674401238561245009e-02
-1.469518113136291504e+01 -2.707710936665534973e-01 6.611840203404995009e-02
-1.658116745948791504e+01 -6.999703124165534973e-01 1.158620543777999501e-01
-1.425841355323791504e+01 -4.724312499165534973e-01 6.585900261998745009e-02
-1.548851609230041504e+01 -8.219185546040534973e-01 1.009084410965499501e-01
-1.615489792823791504e+01 -1.091938085854053497e+00 1.232778258621749501e-01
-1.259056687355041504e+01 -4.658394530415534973e-01 -9.724405579268875499e-01
-1.259288620948791504e+01 -5.835152342915534973e-01 -9.698007874190750499e-01
-1.258885788917541504e+01 -7.003365233540534973e-01 -9.670236878097000499e-01
-1.259703660011291504e+01 -8.206978514790534973e-01 -9.650095276534500499e-01
-1.261363816261291504e+01 -9.433785155415534973e-01 -9.635294251143875499e-01
-1.262731003761291504e+01 -1.066181249916553497e+00 -9.618356995284500499e-01
-1.262376999855041504e+01 -1.185932226479053497e+00 -9.590433411300125499e-01
-1.261485886573791504e+01 -1.304218359291553497e+00 -9.561899475753250499e-01
-1.374632859230041504e+01 -6.822701171040534973e-01 -9.877298645675125499e-01
-1.375511765480041504e+01 -8.131294921040534973e-01 -9.853647522628250499e-01
-1.378160691261291504e+01 -9.483833983540534973e-01 -9.837015442550125499e-01
-1.380162644386291504e+01 -1.083759374916553497e+00 -9.819467835128250499e-01
-1.382164597511291504e+01 -1.219867773354053497e+00 -9.801767639815750499e-01
-1.384178757667541504e+01 -1.356830663979053497e+00 -9.783914856612625499e-01
-1.385533738136291504e+01 -1.493793554604053497e+00 -9.765146546065750499e-01
-1.387584519386291504e+01 -1.632831640541553497e+00 -9.747141174972000499e-01
-1.549522995948791504e+01 -1.010150976479053497e+00 -1.024564581364387550e+00
-1.546727585792541504e+01 -1.151752538979053497e+00 -1.019605474919075050e+00
-1.544530320167541504e+01 -1.294574804604053497e+00 -1.014982061833137550e+00
-1.544689011573791504e+01 -1.443378515541553497e+00 -1.011594610661262550e+00
-1.544847702980041504e+01 -1.592304296791553497e+00 -1.008207159489387550e+00
-1.545018601417541504e+01 -1.741962499916553497e+00 -1.004819708317512550e+00
-1.545177292823791504e+01 -1.892841406166553497e+00 -1.001386480778450050e+00
-1.545348191261291504e+01 -2.043964453041553497e+00 -9.979532532393875499e-01
-1.750743699073791504e+01 -1.387104101479053497e+00 -1.058561163395637550e+00
-1.762120652198791504e+01 -1.577533788979053497e+00 -1.059705572575325050e+00
-1.771300339698791504e+01 -1.766620703041553497e+00 -1.060102301090950050e+00
-1.772106003761291504e+01 -1.940448828041553497e+00 -1.056318121403450050e+00
-1.772936081886291504e+01 -2.114765234291553497e+00 -1.052518682926887550e+00
-1.773753952980041504e+01 -2.289936132729053497e+00 -1.048688726872200050e+00
-1.774584031105041504e+01 -2.466693945229053497e+00 -1.044843512028450050e+00
-1.774083542823791504e+01 -2.640399999916553497e+00 -1.040754156559700050e+00
-2.007079148292541504e+01 -1.867206640541553497e+00 -1.098249273747200050e+00
-2.019957566261291504e+01 -2.087055273354053497e+00 -1.099119024723762550e+00
-2.031407761573791504e+01 -2.307514257729053497e+00 -1.099256353825325050e+00
-2.043089890480041504e+01 -2.532489843666553497e+00 -1.099393682926887550e+00
-2.054918503761291504e+01 -2.760395117104053497e+00 -1.099531012028450050e+00
-2.066954636573791504e+01 -2.992206640541553497e+00 -1.099668341130012550e+00
-2.069579148292541504e+01 -3.204486913979053497e+00 -1.095594244450325050e+00
-2.071520066261291504e+01 -3.415790624916553497e+00 -1.091199713200325050e+00
-2.764415574073791504e+01 -3.289203710854053497e+00 -1.317731695622200050e+00
-2.784715867042541504e+01 -3.601947851479053497e+00 -1.318067388981575050e+00
-2.632372117042541504e+01 -3.559589453041553497e+00 -1.249845343083137550e+00
-2.228063035011291504e+01 -2.934833593666553497e+00 -1.082303839176887550e+00
-2.475487351417541504e+01 -3.723407812416553497e+00 -1.174131231755012550e+00
-2.481664109230041504e+01 -3.985370703041553497e+00 -1.170026617497200050e+00
-2.495787644386291504e+01 -4.270404882729053497e+00 -1.168943243473762550e+00
-2.520482468605041504e+01 -4.586322851479053497e+00 -1.172452764958137550e+00
-3.054540085792541504e+01 -3.830219335854053497e+00 -1.298063116520637550e+00
-3.074120163917541504e+01 -4.171405859291553497e+00 -1.296766119450325050e+00
-3.094054245948791504e+01 -4.518817968666553497e+00 -1.295423346012825050e+00
-2.228319382667541504e+01 -2.931781835854053497e+00 -9.836405090987625499e-01
-2.497093796730041504e+01 -3.768940038979053497e+00 -1.071012335270637550e+00
-3.038414597511291504e+01 -5.318134374916553497e+00 -1.250730352848762550e+00
-3.215453171730041504e+01 -6.070453710854053497e+00 -1.302778082340950050e+00
-3.242052292823791504e+01 -6.467670507729053497e+00 -1.302823858708137550e+00
-3.459447312355041504e+01 -4.585956640541553497e+00 -1.287854986637825050e+00
-3.469774460792541504e+01 -4.950580663979053497e+00 -1.281278448551887550e+00
-3.895531296730041504e+01 -6.185077734291553497e+00 -1.400937872380012550e+00
-2.228587937355041504e+01 -2.928852148354053497e+00 -8.844431214034500499e-01
-2.497386765480041504e+01 -3.765522070229053497e+00 -9.588907532393875499e-01
-3.038756394386291504e+01 -5.313861913979053497e+00 -1.112699346989387550e+00
-4.379479050636291504e+01 -8.981464453041553497e+00 -1.499433355778450050e+00
-4.482323288917541504e+01 -9.701068945229053497e+00 -1.516614752262825050e+00
-3.996849656105041504e+01 -5.588886328041553497e+00 -1.274137335270637550e+00
-4.240819382667541504e+01 -6.471576757729053497e+00 -1.326398687809700050e+00
-4.413646531105041504e+01 -7.258319921791553497e+00 -1.358671026676887550e+00
-2.228856492042541504e+01 -2.925800390541553497e+00 -7.857797913253250499e-01
-2.497667527198791504e+01 -3.762104101479053497e+00 -8.473642639815750499e-01
-3.039098191261291504e+01 -5.309589453041553497e+00 -9.754160217940750499e-01
-4.670860886573791504e+01 -9.703510351479053497e+00 -1.369275885075325050e+00
-6.325231003761291504e+01 -1.450258261710405350e+01 -1.758466558903450050e+00
-3.497814011573791504e+01 -4.646747656166553497e+00 -9.844950012862625499e-01
-4.528453660011291504e+01 -7.033710546791553497e+00 -1.196103888005012550e+00
-4.459251999855041504e+01 -7.345966406166553497e+00 -1.167539434880012550e+00
-2.229112839698791504e+01 -2.922748632729053497e+00 -6.871164612472000499e-01
-2.497960495948791504e+01 -3.758686132729053497e+00 -7.358377747237625499e-01
-3.039439988136291504e+01 -5.305316992104053497e+00 -8.381326965987625499e-01
-4.397997117042541504e+01 -9.012836523354053497e+00 -1.100034552067512550e+00
-7.596886277198791504e+01 -1.780788046866655350e+01 -1.714734869450325050e+00
-3.475926804542541504e+01 -4.600116796791553497e+00 -8.226908020675125499e-01
-4.438854050636291504e+01 -6.849140234291553497e+00 -9.742105774581375499e-01
-4.840074753761291504e+01 -8.130756445229053497e+00 -1.026532965153450050e+00
-2.229381394386291504e+01 -2.919696874916553497e+00 -5.879190735518875499e-01
-2.498253464698791504e+01 -3.755268163979053497e+00 -6.237161926925125499e-01
-3.039781785011291504e+01 -5.301044531166553497e+00 -7.001016907393875499e-01
-4.342589402198791504e+01 -8.866718359291553497e+00 -8.887003235518875499e-01
-5.225047898292541504e+01 -1.161342246085405350e+01 -1.006055670231575050e+00
-1.534850144386291504e+01 -9.613228514790534973e-01 -4.234140686690750499e-01
-1.850621628761291504e+01 -1.730365820229053497e+00 -4.572122864425125499e-01
-1.955040574073791504e+01 -2.126239843666553497e+00 -4.638040833175125499e-01
-2.106346726417541504e+01 -2.647602148354053497e+00 -4.750345520675125499e-01
-2.315367722511291504e+01 -3.332782812416553497e+00 -4.916971497237625499e-01
-2.732311081886291504e+01 -4.560321874916553497e+00 -5.294473938643875499e-01
-4.132237839698791504e+01 -8.333759374916553497e+00 -6.674631409347000499e-01
-5.170128464698791504e+01 -1.146132285147905350e+01 -7.591074280440750499e-01
-1.744151902198791504e+01 -1.350360937416553497e+00 -3.738077454268875499e-01
-1.848900437355041504e+01 -1.724018163979053497e+00 -3.760965637862625499e-01
-1.966258835792541504e+01 -2.146381445229053497e+00 -3.789804749190750499e-01
-2.139855027198791504e+01 -2.717304296791553497e+00 -3.844278626143875499e-01
-2.343700242042541504e+01 -3.393817968666553497e+00 -3.906076721847000499e-01
-2.674596238136291504e+01 -4.417865820229053497e+00 -4.031046204268875499e-01
-8.598558640480041504e+01 -1.947731406241655350e+01 -7.341287903487625499e-01
-7.207872605323791504e+01 -1.675563437491655350e+01 -6.291178040206375499e-01
-1.536644577980041504e+01 -9.599800780415534973e-01 -2.917917542159500499e-01
-1.509020066261291504e+01 -1.051044531166553497e+00 -2.860086731612625499e-01
-1.938536667823791504e+01 -2.085712499916553497e+00 -2.917154602706375499e-01
-2.111046433448791504e+01 -2.651020117104053497e+00 -2.888468079268875499e-01
-2.386107468605041504e+01 -3.486835546791553497e+00 -2.865427307784500499e-01
-6.820238327980041504e+01 -1.431740195304155350e+01 -3.402231507003250499e-01
-1.537547898292541504e+01 -9.593697264790534973e-01 -2.257059387862625499e-01
-1.513231492042541504e+01 -1.057025976479053497e+00 -2.213571839034500499e-01
-6.448619675636291504e+01 -1.143422324210405350e+01 -1.075266174972000499e-01
-5.386620163917541504e+01 -9.781391210854053497e+00 -1.114939026534500499e-01
-5.753697800636291504e+01 -1.116884238272905350e+01 -8.123572394251254991e-02
-5.799107956886291504e+01 -1.186806113272905350e+01 -5.883582159876254991e-02
-7.232811570167541504e+01 -1.604262167960405350e+01 1.527611687779995009e-02
-7.205064988136291504e+01 -1.672316367179155350e+01 4.257409051061245009e-02
-1.538451218605041504e+01 -9.586373046040534973e-01 -1.599100403487625499e-01
-1.517479538917541504e+01 -1.063129492104053497e+00 -1.559732727706375499e-01
-1.518175339698791504e+01 -1.208759374916553497e+00 -1.506784729659500499e-01
-1.518883347511291504e+01 -1.355609960854053497e+00 -1.453378967940750499e-01
-5.755650925636291504e+01 -1.116359335929155350e+01 1.846791930496749501e-01
-5.797203660011291504e+01 -1.185365683585405350e+01 2.095205016434249501e-01
-1.539354538917541504e+01 -9.580269530415534973e-01 -9.368689581751254991e-02
-1.521739792823791504e+01 -1.069110937416553497e+00 -9.055884405970004991e-02
-6.442210984230041504e+01 -1.139943320304155350e+01 4.846059508621749501e-01
-1.523168015480041504e+01 -1.362567968666553497e+00 -7.952673956751254991e-02
-5.757994675636291504e+01 -1.115932089835405350e+01 4.493428893387374501e-01
-5.798583054542541504e+01 -1.184706503897905350e+01 4.766103453934249501e-01
-7.219457077980041504e+01 -1.598439414054155350e+01 6.858541198074874501e-01
-7.339232468605041504e+01 -1.704616171866655350e+01 7.319814391434249501e-01
-4.490709519386291504e+01 -6.450458593666553497e+00 4.291402526199874501e-01
-1.526036667823791504e+01 -1.075214453041553497e+00 -2.439673468470004991e-02
-1.526769089698791504e+01 -1.221698828041553497e+00 -1.872046515345004991e-02
-5.381371140480041504e+01 -9.742939062416553497e+00 6.297933287918624501e-01
-5.760875535011291504e+01 -1.115614707022905350e+01 7.156850524246749501e-01
-6.470201706886291504e+01 -1.343690878897905350e+01 8.623830504715499501e-01
-7.378099656105041504e+01 -1.636647421866655350e+01 1.050539178401237450e+00
-7.323644089698791504e+01 -1.699306113272905350e+01 1.070055169612174950e+00
-4.492577195167541504e+01 -6.446674413979053497e+00 6.336995787918624501e-01
-7.050438523292541504e+01 -1.191823203116655350e+01 1.177522820979362450e+00
-1.531078171730041504e+01 -1.228290624916553497e+00 4.768578484654995009e-02
-5.378697800636291504e+01 -9.728168554604053497e+00 8.753682799637374501e-01
-1.565514206886291504e+01 -1.600116796791553497e+00 6.672875359654995009e-02
-6.470323777198791504e+01 -1.342628867179155350e+01 1.160875482112174950e+00
-7.313268113136291504e+01 -1.619252402335405350e+01 1.379625482112174950e+00
-1.615477585792541504e+01 -1.092426367104053497e+00 1.232930846512374501e-01
-1.534703660011291504e+01 -1.087543554604053497e+00 1.087361998856124501e-01
-1.531810593605041504e+01 -1.227436132729053497e+00 1.138936705887374501e-01
-6.375426316261291504e+01 -1.188136679679155350e+01 1.382478875666862450e+00
-1.563487839698791504e+01 -1.593036718666553497e+00 1.341420836746749501e-01
-1.562096238136291504e+01 -1.740497656166553497e+00 1.398488707840499501e-01
-7.052806687355041504e+01 -1.553297812491655350e+01 1.647203607112174950e+00
-1.261485886573791504e+01 -1.304706640541553497e+00 -9.561899475753250499e-01
-1.261009812355041504e+01 -1.424579687416553497e+00 -9.533670715987625499e-01
-1.259972214698791504e+01 -1.543476171791553497e+00 -9.504831604659500499e-01
-1.258934617042541504e+01 -1.663349218666553497e+00 -9.475839905440750499e-01
-1.258421921730041504e+01 -1.784931249916553497e+00 -9.450052551925125499e-01
-1.259190964698791504e+01 -1.911151953041553497e+00 -9.431894592940750499e-01
-1.259960007667541504e+01 -2.038715429604053497e+00 -9.413584046065750499e-01
-1.260167527198791504e+01 -2.164936132729053497e+00 -9.394663147628250499e-01
-1.387608933448791504e+01 -1.633319921791553497e+00 -9.747141174972000499e-01
-1.388121628761291504e+01 -1.769428320229053497e+00 -9.723490051925125499e-01
-1.390526413917541504e+01 -1.911762304604053497e+00 -9.707315735518875499e-01
-1.392113327980041504e+01 -2.053485937416553497e+00 -9.689462952315750499e-01
-1.393565964698791504e+01 -2.195453710854053497e+00 -9.670542053878250499e-01
-1.394908738136291504e+01 -2.338275976479053497e+00 -9.650858215987625499e-01
-1.395555710792541504e+01 -2.480365820229053497e+00 -9.630106262862625499e-01
-1.396922898292541504e+01 -2.625507421791553497e+00 -9.610117249190750499e-01
-1.545348191261291504e+01 -2.044452734291553497e+00 -9.979532532393875499e-01
-1.544701218605041504e+01 -2.194233007729053497e+00 -9.944284729659500499e-01
-1.546459031105041504e+01 -2.351459570229053497e+00 -9.921396546065750499e-01
-1.549083542823791504e+01 -2.513080663979053497e+00 -9.902780823409500499e-01
-1.551744675636291504e+01 -2.675800390541553497e+00 -9.884012512862625499e-01
-1.554418015480041504e+01 -2.840107031166553497e+00 -9.865091614425125499e-01
-1.557127976417541504e+01 -3.006488867104053497e+00 -9.846018128097000499e-01
-1.559850144386291504e+01 -3.173969335854053497e+00 -9.826639465987625499e-01
-1.774095749855041504e+01 -2.641010351479053497e+00 -1.040738897770637550e+00
-1.775133347511291504e+01 -2.819721288979053497e+00 -1.036893682926887550e+00
-1.774828171730041504e+01 -2.995868749916553497e+00 -1.032789068669075050e+00
-1.774522995948791504e+01 -3.173481054604053497e+00 -1.028653936833137550e+00
-1.774205613136291504e+01 -3.351581640541553497e+00 -1.024503546208137550e+00
-1.773900437355041504e+01 -3.530658788979053497e+00 -1.020337896794075050e+00
-1.776878952980041504e+01 -3.722187109291553497e+00 -1.017667608708137550e+00
-1.776085495948791504e+01 -3.901996679604053497e+00 -1.013654547184700050e+00
-2.071544480323791504e+01 -3.416523046791553497e+00 -1.091199713200325050e+00
-2.072142624855041504e+01 -3.625751562416553497e+00 -1.086545782536262550e+00
-2.075438523292541504e+01 -3.843891210854053497e+00 -1.083021002262825050e+00
-2.082774949073791504e+01 -4.076557226479053497e+00 -1.081159429997200050e+00
-2.090196824073791504e+01 -4.311664648354053497e+00 -1.079267340153450050e+00
-2.097704148292541504e+01 -4.549823828041553497e+00 -1.077359991520637550e+00
-2.104186081886291504e+01 -4.788349218666553497e+00 -1.074933844059700050e+00
-2.104833054542541504e+01 -5.009174413979053497e+00 -1.070020513981575050e+00
-2.520641160011291504e+01 -4.587665624916553497e+00 -1.172498541325325050e+00
-2.542833542823791504e+01 -4.903461523354053497e+00 -1.174024420231575050e+00
-2.555785202980041504e+01 -5.199237890541553497e+00 -1.172483282536262550e+00
-2.568968796730041504e+01 -5.501117773354053497e+00 -1.170896368473762550e+00
-2.574608445167541504e+01 -5.783466406166553497e+00 -1.166395025700325050e+00
-2.583080124855041504e+01 -6.077533788979053497e+00 -1.162870245426887550e+00
-2.585716843605041504e+01 -6.356952734291553497e+00 -1.157087164372200050e+00
-2.585399460792541504e+01 -6.627704687416553497e+00 -1.150815802067512550e+00
-3.242223191261291504e+01 -6.469257421791553497e+00 -1.302854376286262550e+00
-3.261827683448791504e+01 -6.854877538979053497e+00 -1.300702887028450050e+00
-3.268614792823791504e+01 -7.210346288979053497e+00 -1.294126348942512550e+00
-3.275487351417541504e+01 -7.570697851479053497e+00 -1.287458258122200050e+00
-3.291722702980041504e+01 -7.961811132729053497e+00 -1.283796148747200050e+00
-3.318297410011291504e+01 -8.391254492104053497e+00 -1.283338385075325050e+00
-3.342247605323791504e+01 -8.821186132729053497e+00 -1.281797247380012550e+00
-3.349498581886291504e+01 -9.200946874916553497e+00 -1.274762945622200050e+00
-4.482445359230041504e+01 -9.702899999916553497e+00 -1.516614752262825050e+00
-4.493517136573791504e+01 -1.019740683585405350e+01 -1.506986456364387550e+00
-4.510375046730041504e+01 -1.071327597647905350e+01 -1.497770147770637550e+00
-4.536681199073791504e+01 -1.126491171866655350e+01 -1.492093878239387550e+00
-4.558336472511291504e+01 -1.180934531241655350e+01 -1.484937506169075050e+00
-4.611119675636291504e+01 -1.245936972647905350e+01 -1.486158209294075050e+00
-4.629234910011291504e+01 -1.301259238272905350e+01 -1.478635626286262550e+00
-4.658287644386291504e+01 -1.360805136710405350e+01 -1.472776251286262550e+00
-6.324986863136291504e+01 -1.450416953116655350e+01 -1.758359747380012550e+00
-6.493089890480041504e+01 -1.562147910147905350e+01 -1.779722052067512550e+00
-6.467125535011291504e+01 -1.623060996085405350e+01 -1.753827887028450050e+00
-6.503966355323791504e+01 -1.702479941397905350e+01 -1.742627935856575050e+00
-6.532237839698791504e+01 -1.780250937491655350e+01 -1.729169683903450050e+00
-6.560912156105041504e+01 -1.859181601554155350e+01 -1.715497808903450050e+00
-6.628087449073791504e+01 -1.951955039054155350e+01 -1.710126715153450050e+00
-6.672008347511291504e+01 -2.038563925772905350e+01 -1.699109869450325050e+00
-7.595580124855041504e+01 -1.780714804679155350e+01 -1.714399176090950050e+00
-7.658617234230041504e+01 -1.877418906241655350e+01 -1.702527838200325050e+00
-8.822667527198791504e+01 -2.286635214835405350e+01 -1.899305181950325050e+00
-8.921446824073791504e+01 -2.409657675772905350e+01 -1.889310675114387550e+00
-8.967345261573791504e+01 -2.518983847647905350e+01 -1.868909674137825050e+00
-9.001708054542541504e+01 -2.626247031241655350e+01 -1.845945196598762550e+00
-9.042906785011291504e+01 -2.737416464835405350e+01 -1.823697882145637550e+00
-9.119005417823791504e+01 -2.861488730460405350e+01 -1.807157354801887550e+00
-5.229784226417541504e+01 -1.162758261710405350e+01 -1.006711798161262550e+00
-6.015099167823791504e+01 -1.430177695304155350e+01 -1.103818731755012550e+00
-8.881346726417541504e+01 -2.301601035147905350e+01 -1.491269903630012550e+00
-9.043114304542541504e+01 -2.443666464835405350e+01 -1.483838873356575050e+00
-9.169481492042541504e+01 -2.578725058585405350e+01 -1.470456915348762550e+00
-5.175401902198791504e+01 -1.147682578116655350e+01 -7.595957092940750499e-01
-5.990978074073791504e+01 -1.422584921866655350e+01 -8.218820862472000499e-01
-9.131529831886291504e+01 -2.370521933585405350e+01 -1.098066168278450050e+00
-8.832091355323791504e+01 -2.380275351554155350e+01 -1.038846807926887550e+00
-7.207848191261291504e+01 -1.675807578116655350e+01 -6.290415100753250499e-01
-8.932823777198791504e+01 -2.218581015616655350e+01 -6.900766663253250499e-01
-9.113170456886291504e+01 -2.363722617179155350e+01 -6.685617737472000499e-01
-9.086632370948791504e+01 -2.453126914054155350e+01 -6.342294983565750499e-01
-9.375389695167541504e+01 -2.336830527335405350e+01 -2.734964661300125499e-01
-9.128661179542541504e+01 -2.366444785147905350e+01 -2.385843567550125499e-01
-7.204796433448791504e+01 -1.672499472647905350e+01 4.263512566686245009e-02
-7.339317917823791504e+01 -1.704909140616655350e+01 7.320729918777999501e-01
-7.268810105323791504e+01 -1.685341269522905350e+01 1.060106439143424950e+00
-8.923253464698791504e+01 -2.191701132804155350e+01 -7.148569397628250499e-01
-9.120311570167541504e+01 -2.341798789054155350e+01 -6.893137268722000499e-01
-9.093517136573791504e+01 -2.431508261710405350e+01 -6.519602112472000499e-01
-7.220043015480041504e+01 -1.581666953116655350e+01 -3.409403137862625499e-01
-7.213219285011291504e+01 -1.655629355460405350e+01 -3.118418030440750499e-01
-7.182213425636291504e+01 -1.646278769522905350e+01 2.510277703404995009e-02
-7.314696335792541504e+01 -1.602248007804155350e+01 3.433858580887374501e-01
-7.177159714698791504e+01 -1.643605429679155350e+01 3.630239196121749501e-01
-7.232225632667541504e+01 -1.580556113272905350e+01 6.764241881668624501e-01
-7.306078171730041504e+01 -1.675343710929155350e+01 7.162954039871749501e-01
-7.214354538917541504e+01 -1.574794394522905350e+01 1.011095208674674950e+00
-7.313744187355041504e+01 -1.675905234366655350e+01 1.061739129573112450e+00
-6.991148972511291504e+01 -1.518556601554155350e+01 1.300096673518424950e+00
-7.051720261573791504e+01 -1.532118613272905350e+01 1.644472283869987450e+00
