-1.148800998926162720e+01 1.278721645474433899e+00 -4.234501383267286201e-01
-1.334823948144912720e+01 2.062901332974433899e+00 -4.247013590298536201e-01
-1.231015354394912720e+01 1.924107387661933899e+00 -4.060703775845411201e-01
-1.314560276269912720e+01 1.814610317349433899e+00 -4.145084879361036201e-01
-1.277182346582412720e+01 1.694493129849433899e+00 -4.056278727017286201e-01
-1.296738010644912720e+01 1.573521450161933899e+00 -4.045750162564161201e-01
-1.300644260644912720e+01 1.452549770474433899e+00 -4.013706705532911201e-01
-1.088498264551162720e+01 1.406895473599433899e+00 -3.703648111782911201e-01
-1.114291721582412720e+01 1.295933559536933899e+00 -3.704868814907911201e-01
-9.481051981449127197e+00 1.969517543911933899e+00 -3.291813394986036201e-01
-9.670505106449127197e+00 1.887120082974433899e+00 -3.283726236782911201e-01
-9.868503153324127197e+00 1.800938442349433899e+00 -3.275181314907911201e-01
-1.007638889551162720e+01 1.710484340786933899e+00 -3.266331217251661201e-01
-1.029355198144912720e+01 1.616123989224433899e+00 -3.257023355923536201e-01
-1.052121311426162720e+01 1.517002895474433899e+00 -3.247257730923536201e-01
-1.076120334863662720e+01 1.412632778286933899e+00 -3.237034342251661201e-01
-1.101266819238662720e+01 1.303257778286933899e+00 -3.226353189907911201e-01
-9.389255106449127197e+00 1.968418911099433899e+00 -2.892948648892286201e-01
-9.575046122074127197e+00 1.886875942349433899e+00 -2.878300211392286201e-01
-9.768649637699127197e+00 1.801792934536933899e+00 -2.860752603970411201e-01
-9.975925028324127197e+00 1.712315395474433899e+00 -2.842594644986036201e-01
-1.021200901269912720e+01 1.618687465786933899e+00 -2.824436686001661201e-01
-1.046078830957412720e+01 1.519932582974433899e+00 -2.805363199673536201e-01
-1.072421604394912720e+01 1.415318325161933899e+00 -2.785069010220411201e-01
-1.100229221582412720e+01 1.305210903286933899e+00 -2.761265299282911201e-01
-9.407565653324127197e+00 1.970005825161933899e+00 -2.505527994595411201e-01
-9.614474833011627197e+00 1.888706997036933899e+00 -2.480198404751661201e-01
-9.831759989261627197e+00 1.803257778286933899e+00 -2.453800699673536201e-01
-1.006100803613662720e+01 1.713169887661933899e+00 -2.425724527798536201e-01
-1.030160862207412720e+01 1.618687465786933899e+00 -2.396427652798536201e-01
-1.055527073144912720e+01 1.518956020474433899e+00 -2.365452311001661201e-01
-1.082394748926162720e+01 1.413365200161933899e+00 -2.332645914517286201e-01
-1.110727268457412720e+01 1.302037075161933899e+00 -2.298008463345411201e-01
-9.482394754886627197e+00 1.973057582974433899e+00 -2.112309000454786201e-01
-9.692477762699127197e+00 1.891148403286933899e+00 -2.079197428189161201e-01
-9.895602762699127197e+00 1.804844692349433899e+00 -2.043186686001661201e-01
-1.009970432519912720e+01 1.714268520474433899e+00 -2.005650064907911201e-01
-1.031259495019912720e+01 1.619786098599433899e+00 -1.966434977017286201e-01
-1.053561741113662720e+01 1.520787075161933899e+00 -1.925388834439161201e-01
-1.077035862207412720e+01 1.416661098599433899e+00 -1.882206461392286201e-01
-1.101547580957412720e+01 1.307652309536933899e+00 -1.834599039517286201e-01
-9.439181864261627197e+00 1.973179653286933899e+00 -1.724277994595411201e-01
-9.622043192386627197e+00 1.891270473599433899e+00 -1.681858561001661201e-01
-9.813083231449127197e+00 1.805699184536933899e+00 -1.637760660611036201e-01
-1.001327854394912720e+01 1.715977504849433899e+00 -1.591373941861036201e-01
-1.022214084863662720e+01 1.622471645474433899e+00 -1.543003580532911201e-01
-1.044076877832412720e+01 1.524571254849433899e+00 -1.492496988736036201e-01
-1.067807346582412720e+01 1.421299770474433899e+00 -1.438480875454786201e-01
-1.096786838769912720e+01 1.311192348599433899e+00 -1.377598307095411201e-01
-9.364841043949127197e+00 1.972447231411933899e+00 -1.342197916470411201e-01
-9.544528543949127197e+00 1.891270473599433899e+00 -1.292149088345411201e-01
-9.767184793949127197e+00 1.806675747036933899e+00 -1.237217447720411201e-01
-1.000534397363662720e+01 1.717320278286933899e+00 -1.176487467251661201e-01
-1.025583225488662720e+01 1.623326137661933899e+00 -1.112705728970411201e-01
-1.052060276269912720e+01 1.523960903286933899e+00 -1.045261881314161201e-01
-1.080258518457412720e+01 1.418370082974433899e+00 -9.711041664704112009e-02
-1.109994846582412720e+01 1.306797817349433899e+00 -8.952679848297862009e-02
-9.420993387699127197e+00 1.975010707974433899e+00 -9.442486977204112009e-02
-9.639133036136627197e+00 1.893956020474433899e+00 -8.809247231110362009e-02
-9.869479715824127197e+00 1.808506801724433899e+00 -8.119549965485362009e-02
-1.011325412988662720e+01 1.718174770474433899e+00 -7.388653969391612009e-02
-1.036984592676162720e+01 1.623081997036933899e+00 -6.619611000641612009e-02
-1.312851291894912720e+01 1.461827114224433899e+00 -1.053204750641612009e-02
-1.314084202051162720e+01 1.339512661099433899e+00 -6.488468404853620086e-03
-1.599997287988662720e+01 1.091221645474433899e+00 5.411944175139637991e-02
-1.147311741113662720e+01 1.261875942349433899e+00 -9.574619791470411201e-01
-1.193173557519912720e+01 1.130406215786933899e+00 -9.852177164517286201e-01
-1.195383030176162720e+01 1.018711879849433899e+00 -9.836918375454786201e-01
-1.197616916894912720e+01 9.061630517244338989e-01 -9.821506998501661201e-01
-1.199850803613662720e+01 7.932480126619338989e-01 -9.805943033657911201e-01
-1.204758030176162720e+01 6.771591454744338989e-01 -9.807926676236036201e-01
-1.211899143457412720e+01 5.571640282869338989e-01 -9.824406168423536201e-01
-1.218478733301162720e+01 4.364364892244338989e-01 -9.839512369595411201e-01
-1.147433811426162720e+01 1.263462856411933899e+00 -9.088017008267286201e-01
-1.467673069238662720e+01 9.756210595369338989e-01 -1.106876041647041120e+00
-1.441965061426162720e+01 8.552597314119338989e-01 -1.086673404928291120e+00
-1.310592991113662720e+01 8.208359032869338989e-01 -1.001208927389228620e+00
-1.317868381738662720e+01 6.921737939119338989e-01 -1.002322818990791120e+00
-1.325241428613662720e+01 5.619247704744338989e-01 -1.003451969381416120e+00
-1.332089573144912720e+01 4.299667626619338989e-01 -1.004489567037666120e+00
-1.337887912988662720e+01 2.981308251619338989e-01 -1.004565860982978620e+00
-1.147568088769912720e+01 1.264927700161933899e+00 -8.601414225064161201e-01
-1.148800998926162720e+01 1.158848598599433899e+00 -8.578983805142286201e-01
-1.571042209863662720e+01 7.710312157869338989e-01 -1.099231388326728620e+00
-1.564816623926162720e+01 6.272323876619338989e-01 -1.091464664693916120e+00
-1.516012912988662720e+01 5.218857079744338989e-01 -1.059344913717353620e+00
-1.476718479394912720e+01 4.169052392244338989e-01 -1.032931949850166120e+00
-1.453720432519912720e+01 3.016708642244338989e-01 -1.015948917623603620e+00
-1.462912327051162720e+01 1.537216454744338989e-01 -1.017276432272041120e+00
-1.147702366113662720e+01 1.266392543911933899e+00 -8.117405436001661201e-01
-1.148361545801162720e+01 1.160679653286933899e+00 -8.088413736782911201e-01
-1.587521702051162720e+01 7.622421532869338989e-01 -1.039600040670478620e+00
-1.581161838769912720e+01 6.168564110994338989e-01 -1.031955387350166120e+00
-1.795077854394912720e+01 2.818954735994338989e-01 -1.140353824850166120e+00
-1.647372776269912720e+01 2.538193017244338989e-01 -1.058108951803291120e+00
-1.818551975488662720e+01 -8.626858890056610107e-02 -1.142795231100166120e+00
-1.830405002832412720e+01 -2.741347998380661011e-01 -1.144412662740791120e+00
-1.147836643457412720e+01 1.267857387661933899e+00 -7.630802652798536201e-01
-1.147934299707412720e+01 1.162510707974433899e+00 -7.600742838345411201e-01
-1.644955784082412720e+01 7.262314110994338989e-01 -9.987522623501661201e-01
-1.808249241113662720e+01 4.452255517244338989e-01 -1.073184635397041120e+00
-1.817795139551162720e+01 2.648056298494338989e-01 -1.072818424459541120e+00
-1.645175510644912720e+01 2.583359032869338989e-01 -9.853550455532911201e-01
-1.841928440332412720e+01 -1.084853857755661011e-01 -1.074237491842353620e+00
-1.631894260644912720e+01 -3.951565921306610107e-02 -9.700504801236036201e-01
-1.147970920801162720e+01 1.269322231411933899e+00 -7.146641275845411201e-01
-1.147494846582412720e+01 1.164341762661933899e+00 -7.111240885220411201e-01
-1.822726780176162720e+01 6.106308251619338989e-01 -1.005206730123603620e+00
-1.831088596582412720e+01 4.303329735994338989e-01 -1.003772403951728620e+00
-1.841244846582412720e+01 2.472275048494338989e-01 -1.003085758443916120e+00
-1.642966037988662720e+01 2.628525048494338989e-01 -9.124485514126661201e-01
-2.110275608301162720e+01 -3.918105810880661011e-01 -1.108035709615791120e+00
-2.121091037988662720e+01 -6.078750342130661011e-01 -1.107181217428291120e+00
-1.148105198144912720e+01 1.270909145474433899e+00 -6.660038492642286201e-01
-1.147055393457412720e+01 1.166050747036933899e+00 -6.624790689907911201e-01
-1.623312717676162720e+01 7.452743798494338989e-01 -8.470493814907911201e-01
-1.854416233301162720e+01 4.151962548494338989e-01 -9.328800699673536201e-01
-1.903671604394912720e+01 1.959579735994338989e-01 -9.467808268032911201e-01
-2.125632053613662720e+01 -1.997939795255661011e-01 -1.026889469381416120e+00
-2.136789280176162720e+01 -4.169570654630661011e-01 -1.025073673482978620e+00
-1.635055881738662720e+01 -3.829495608806610107e-02 -8.287235758267286201e-01
-1.148239475488662720e+01 1.272373989224433899e+00 -6.176029703579786201e-01
-1.146628147363662720e+01 1.167881801724433899e+00 -6.138798258267286201e-01
-1.612680393457412720e+01 7.545517235994338989e-01 -7.725864908657911201e-01
-1.605759006738662720e+01 6.070907860994338989e-01 -7.656284830532911201e-01
-1.423117405176162720e+01 6.127060204744338989e-01 -6.986423990689161201e-01
-1.638595920801162720e+01 2.717636376619338989e-01 -7.676579019986036201e-01
-1.648215061426162720e+01 1.055038720369338989e-01 -7.665897867642286201e-01
-2.433175998926162720e+01 -9.646865576505661011e-01 -1.023334171529853620e+00
-1.148373752832412720e+01 1.273838832974433899e+00 -5.689274332486036201e-01
-1.146188694238662720e+01 1.169712856411933899e+00 -5.650669596157911201e-01
-2.087326389551162720e+01 4.440048485994338989e-01 -8.460117838345411201e-01
-1.600387912988662720e+01 6.135605126619338989e-01 -6.944157144986036201e-01
-1.437997776269912720e+01 6.019638329744338989e-01 -6.417881510220411201e-01
-1.636435276269912720e+01 2.762802392244338989e-01 -6.957890055142286201e-01
-1.646005588769912720e+01 1.102646142244338989e-01 -6.938358805142286201e-01
-1.638217502832412720e+01 -3.719632327556610107e-02 -6.868626139126661201e-01
-1.148508030176162720e+01 1.275303676724433899e+00 -5.205265543423536201e-01
-1.145749241113662720e+01 1.171543911099433899e+00 -5.165745279751661201e-01
-2.203280979394912720e+01 3.706405907869338989e-01 -7.840305826626661201e-01
-1.595053440332412720e+01 6.197860985994338989e-01 -6.237217447720411201e-01
-2.283041721582412720e+01 -1.214248389005661011e-01 -7.909580728970411201e-01
-1.633212620019912720e+01 2.817734032869338989e-01 -6.238743326626661201e-01
-1.401340061426162720e+01 3.719833642244338989e-01 -5.626102945767286201e-01
-1.402768284082412720e+01 2.384384423494338989e-01 -5.589176676236036201e-01
-1.148642307519912720e+01 1.276890590786933899e+00 -4.718510172329786201e-01
-1.145321995019912720e+01 1.173374965786933899e+00 -4.678684732876661201e-01
-1.588962131738662720e+01 7.770126610994338989e-01 -5.576664469204786201e-01
-1.589731174707412720e+01 6.261337548494338989e-01 -5.531651041470411201e-01
-1.409176975488662720e+01 6.307724267244338989e-01 -5.117527506314161201e-01
-1.410629612207412720e+01 4.972275048494338989e-01 -5.079380533657911201e-01
-1.412094455957412720e+01 3.625839501619338989e-01 -5.040928385220411201e-01
-1.413559299707412720e+01 2.280624657869338989e-01 -5.002476236782911201e-01
-1.148776584863662720e+01 1.278355434536933899e+00 -4.234348795376661201e-01
-1.144882541894912720e+01 1.175083950161933899e+00 -4.194828531704786201e-01
-2.454233127832412720e+01 2.126816064119338989e-01 -6.307102701626661201e-01
-2.281210666894912720e+01 1.062362939119338989e-01 -5.954472086392286201e-01
-1.419980198144912720e+01 6.235702782869338989e-01 -4.528843424282911201e-01
-1.421469455957412720e+01 4.888046532869338989e-01 -4.489170572720411201e-01
-1.422970920801162720e+01 3.531845360994338989e-01 -4.449345133267286201e-01
-1.424460178613662720e+01 2.174423485994338989e-01 -4.409519693814161201e-01
-1.114474827051162720e+01 1.295445278286933899e+00 -3.705021402798536201e-01
-1.141647678613662720e+01 1.178501918911933899e+00 -3.705326578579786201e-01
-1.168747287988662720e+01 1.055943325161933899e+00 -3.706547281704786201e-01
-1.197616916894912720e+01 9.261825829744338989e-01 -3.705326578579786201e-01
-1.228036838769912720e+01 7.894638329744338989e-01 -3.704105875454786201e-01
-1.260226780176162720e+01 6.446884423494338989e-01 -3.702732584439161201e-01
-1.294369846582412720e+01 4.908798485994338989e-01 -3.698307535611036201e-01
-1.330612522363662720e+01 3.280380517244338989e-01 -3.696629068814161201e-01
-1.101437717676162720e+01 1.302891567349433899e+00 -3.226353189907911201e-01
-1.127902561426162720e+01 1.187657192349433899e+00 -3.213840982876661201e-01
-1.155673557519912720e+01 1.066075161099433899e+00 -3.200413248501661201e-01
-1.182907444238662720e+01 9.388778954744338989e-01 -3.184849283657911201e-01
-1.212851291894912720e+01 8.041122704744338989e-01 -3.169285318814161201e-01
-1.247946506738662720e+01 6.582382470369338989e-01 -3.154942057095411201e-01
-1.285507541894912720e+01 5.021103173494338989e-01 -3.139530680142286201e-01
-1.325509983301162720e+01 3.358505517244338989e-01 -3.123051187954786201e-01
-1.100424534082412720e+01 1.304844692349433899e+00 -2.761112711392286201e-01
-1.129806858301162720e+01 1.188145473599433899e+00 -2.739445230923536201e-01
-1.159848362207412720e+01 1.064976528286933899e+00 -2.713505289517286201e-01
-1.191659885644912720e+01 9.339950829744338989e-01 -2.685886881314161201e-01
-1.225375705957412720e+01 7.952011376619338989e-01 -2.656590006314161201e-01
-1.261276584863662720e+01 6.473739892244338989e-01 -2.625462076626661201e-01
-1.299716526269912720e+01 4.890487939119338989e-01 -2.592045328579786201e-01
-1.336996799707412720e+01 3.244980126619338989e-01 -2.552982828579786201e-01
-1.110922580957412720e+01 1.301548793911933899e+00 -2.297855875454786201e-01
-1.138779026269912720e+01 1.184727504849433899e+00 -2.259708902798536201e-01
-1.165146213769912720e+01 1.063145473599433899e+00 -2.220036051236036201e-01
-1.193161350488662720e+01 9.344833642244338989e-01 -2.178074381314161201e-01
-1.222616916894912720e+01 7.992294579744338989e-01 -2.133823893032911201e-01
-1.253732639551162720e+01 6.562851220369338989e-01 -2.087131998501661201e-01
-1.286789280176162720e+01 5.044296532869338989e-01 -2.037693521939161201e-01
-1.321725803613662720e+01 3.440292626619338989e-01 -1.985203287564161201e-01
-1.101718479394912720e+01 1.307164028286933899e+00 -1.834446451626661201e-01
-1.127585178613662720e+01 1.192417934536933899e+00 -1.787144205532911201e-01
-1.154794651269912720e+01 1.071446254849433899e+00 -1.734806559048536201e-01
-1.181247287988662720e+01 9.451034814119338989e-01 -1.680943033657911201e-01
-1.212790256738662720e+01 8.092392235994338989e-01 -1.621738932095411201e-01
-1.249777561426162720e+01 6.617782860994338989e-01 -1.556126139126661201e-01
-1.289511448144912720e+01 5.034530907869338989e-01 -1.485783121548536201e-01
-1.332089573144912720e+01 3.340194970369338989e-01 -1.407352945767286201e-01
-1.096982151269912720e+01 1.310826137661933899e+00 -1.377293131314161201e-01
-1.127853733301162720e+01 1.193760707974433899e+00 -1.310001871548536201e-01
-1.159482151269912720e+01 1.069981411099433899e+00 -1.239658853970411201e-01
-1.193002659082412720e+01 9.379013329744338989e-01 -1.164890787564161201e-01
-1.228634983301162720e+01 7.976425439119338989e-01 -1.085545084439161201e-01
-1.507590061426162720e+01 4.195907860994338989e-01 -7.057538246735362009e-02
-1.599057346582412720e+01 1.810653954744338989e-01 -5.427899574860362009e-02
-1.683322483301162720e+01 -6.722562015056610107e-02 -3.830304360016612009e-02
-1.110202366113662720e+01 1.306431606411933899e+00 -8.948102211579112009e-02
-1.141904026269912720e+01 1.187657192349433899e+00 -8.111920570954112009e-02
-1.599130588769912720e+01 7.883652001619338989e-01 -5.527164693916120086e-03
-2.372555881738662720e+01 6.131441891193389893e-02 1.245387532748338799e-01
-1.597409397363662720e+01 4.878280907869338989e-01 4.452083352958879914e-03
-1.596542698144912720e+01 3.376816064119338989e-01 9.441707376396379914e-03
-1.496542698144912720e+01 2.906845360994338989e-01 -2.231266256416120086e-03
-2.312155491113662720e+01 -7.857314795255661011e-01 1.456416585482713799e-01
-1.599960666894912720e+01 1.090733364224433899e+00 5.413470054045887991e-02
-3.697116428613662720e+01 -1.982070654630661011e-01 4.799769856967088799e-01
-1.602121311426162720e+01 7.887314110994338989e-01 6.452593589202137991e-02
-2.374252659082412720e+01 6.351168453693389893e-02 2.300685384310838799e-01
-2.298569065332412720e+01 -1.011611670255661011e-01 2.219356038607713799e-01
-2.372494846582412720e+01 -3.921767920255661011e-01 2.454036214388963799e-01
-2.409457737207412720e+01 -6.604873389005661011e-01 2.613490560092088799e-01
-2.312460666894912720e+01 -7.825576514005661011e-01 2.484248616732713799e-01
-1.218539768457412720e+01 4.360702782869338989e-01 -9.839664957486036201e-01
-1.224655491113662720e+01 3.143661767244338989e-01 -9.849277994595411201e-01
-1.225021702051162720e+01 1.991318017244338989e-01 -9.823643228970411201e-01
-1.225400120019912720e+01 8.292086422443389893e-02 -9.798008463345411201e-01
-1.225778537988662720e+01 -3.316800296306610107e-02 -9.772373697720411201e-01
-1.226156955957412720e+01 -1.498672217130661011e-01 -9.746433756314161201e-01
-1.226535373926162720e+01 -2.671767920255661011e-01 -9.720493814907911201e-01
-1.226291233301162720e+01 -3.835097998380661011e-01 -9.693333170376661201e-01
-1.337924534082412720e+01 2.977646142244338989e-01 -1.004581119772041120e+00
-1.338486057519912720e+01 1.710556298494338989e-01 -1.001773502584541120e+00
-1.339682346582412720e+01 4.312594234943389893e-02 -9.990269205532911201e-01
-1.340243870019912720e+01 -8.492581546306610107e-02 -9.961735269986036201e-01
-1.340817600488662720e+01 -2.130996435880661011e-01 -9.933201334439161201e-01
-1.341379123926162720e+01 -3.417617529630661011e-01 -9.904667398892286201e-01
-1.341305881738662720e+01 -4.703017920255661011e-01 -9.875217936001661201e-01
-1.341879612207412720e+01 -5.998183935880661011e-01 -9.846378824673536201e-01
-1.463083225488662720e+01 1.529892235994338989e-01 -1.017367985006416120e+00
-1.403683811426162720e+01 9.012301266193389893e-02 -9.804264566861036201e-01
-1.491208225488662720e+01 -1.631728857755661011e-01 -1.025958683248603620e+00
-1.503183323144912720e+01 -3.234512060880661011e-01 -1.028949405904853620e+00
-1.510910373926162720e+01 -4.795791357755661011e-01 -1.029529239889228620e+00
-1.518747287988662720e+01 -6.377822607755661011e-01 -1.030124332662666120e+00
-1.518637424707412720e+01 -7.845107764005661011e-01 -1.026279117818916120e+00
-1.516769748926162720e+01 -9.276992529630661011e-01 -1.021487858053291120e+00
-1.830478245019912720e+01 -2.747451514005661011e-01 -1.144443180318916120e+00
-1.403854709863662720e+01 9.195406734943389893e-02 -9.195286295376661201e-01
-1.739645725488662720e+01 -5.019180029630661011e-01 -1.088153507467353620e+00
-1.698971897363662720e+01 -6.099502295255661011e-01 -1.062976505514228620e+00
-1.683041721582412720e+01 -7.486221045255661011e-01 -1.050571110006416120e+00
-1.695260959863662720e+01 -9.318496435880661011e-01 -1.052432682272041120e+00
-1.661862522363662720e+01 -1.037318393588066101e+00 -1.031314518209541120e+00
-1.717892795801162720e+01 -1.304408237338066101e+00 -1.055423404928291120e+00
-1.632162815332412720e+01 -4.037015140056610107e-02 -9.701725504361036201e-01
-1.404037815332412720e+01 9.378512203693389893e-02 -8.589512369595411201e-01
-2.121933323144912720e+01 -1.023402377963066101e+00 -1.190112735982978620e+00
-1.409628635644912720e+01 -1.811172217130661011e-01 -8.543125650845411201e-01
-1.426498752832412720e+01 -3.420058935880661011e-01 -8.584476969204786201e-01
-2.043796116113662720e+01 -1.513758823275566101e+00 -1.137485172506416120e+00
-1.662070041894912720e+01 -1.035121127963066101e+00 -9.582706949673536201e-01
-1.974191623926162720e+01 -1.784266635775566101e+00 -1.095111515279853620e+00
-2.121139866113662720e+01 -6.086074560880661011e-01 -1.107181217428291120e+00
-1.404208713769912720e+01 9.561617672443389893e-02 -7.980381510220411201e-01
-2.149472385644912720e+01 -1.057948276400566101e+00 -1.107165958639228620e+00
-2.263791233301162720e+01 -1.435877963900566101e+00 -1.149005558248603620e+00
-2.248434787988662720e+01 -1.633021518588066101e+00 -1.136493351217353620e+00
-2.444943577051162720e+01 -2.182826206088066101e+00 -1.211185123678291120e+00
-1.662289768457412720e+01 -1.032923862338066101e+00 -8.848301432095411201e-01
-2.731503635644912720e+01 -3.206019565463066101e+00 -1.314593937154853620e+00
-1.635324436426162720e+01 -3.914944827556610107e-02 -8.287998697720411201e-01
-1.404391819238662720e+01 9.744723141193389893e-02 -7.374607584439161201e-01
-2.427328830957412720e+01 -1.434657260775566101e+00 -1.115695621725166120e+00
-1.416318088769912720e+01 -1.867324560880661011e-01 -7.342869303189161201e-01
-2.457736545801162720e+01 -1.958583042025566101e+00 -1.113315250631416120e+00
-2.727084690332412720e+01 -2.651209995150566101e+00 -1.204669620748603620e+00
-1.662509495019912720e+01 -1.030604526400566101e+00 -8.117863199673536201e-01
-3.021652561426162720e+01 -3.746913120150566101e+00 -1.294940616842353620e+00
-2.433249241113662720e+01 -9.655410498380661011e-01 -1.023334171529853620e+00
-1.404562717676162720e+01 9.927828609943389893e-02 -6.768681070767286201e-01
-2.457150608301162720e+01 -1.471766635775566101e+00 -1.016772892232978620e+00
-1.419711643457412720e+01 -1.895400732755661011e-01 -6.736790201626661201e-01
-2.234494358301162720e+01 -1.604212924838066101e+00 -9.312473795376661201e-01
-1.396249729394912720e+01 -4.212295264005661011e-01 -6.583134195767286201e-01
-1.662717014551162720e+01 -1.028407260775566101e+00 -7.387272379361036201e-01
-3.426266819238662720e+01 -4.502040073275566101e+00 -1.284656193014228620e+00
-1.638498264551162720e+01 -3.805081546306610107e-02 -6.869236490689161201e-01
-1.404745823144912720e+01 1.011093407869338989e-01 -6.159550211392286201e-01
-2.284347873926162720e+01 -1.232142612338066101e+00 -8.588291666470411201e-01
-1.423092991113662720e+01 -1.924697607755661011e-01 -6.130863687954786201e-01
-3.060849338769912720e+01 -2.896815463900566101e+00 -1.058673526998603620e+00
-3.399069553613662720e+01 -3.765345737338066101e+00 -1.141437198873603620e+00
-1.662936741113662720e+01 -1.026209995150566101e+00 -6.652866861782911201e-01
-3.962643772363662720e+01 -5.502894565463066101e+00 -1.270694401022041120e+00
-1.402780491113662720e+01 2.379501610994338989e-01 -5.589024088345411201e-01
-1.404916721582412720e+01 1.030624657869338989e-01 -5.553776285611036201e-01
-2.280539280176162720e+01 -1.223475620150566101e+00 -7.565189859829786201e-01
-1.426486545801162720e+01 -1.952773779630661011e-01 -5.522190592251661201e-01
-1.414560276269912720e+01 -3.124648779630661011e-01 -5.453526041470411201e-01
-1.402817112207412720e+01 -4.279433935880661011e-01 -5.385777018032911201e-01
-1.663144260644912720e+01 -1.024012729525566101e+00 -5.922276041470411201e-01
-3.465109592676162720e+01 -4.563685581088066101e+00 -9.814335367642286201e-01
-1.413571506738662720e+01 2.275741845369338989e-01 -5.002323648892286201e-01
-1.405099827051162720e+01 1.048935204744338989e-01 -4.944492838345411201e-01
-1.465475803613662720e+01 -1.103164404630661011e-01 -5.016514322720411201e-01
-2.307931858301162720e+01 -1.482997104525566101e+00 -6.528507730923536201e-01
-1.417941623926162720e+01 -3.156387060880661011e-01 -4.842869303189161201e-01
-1.406137424707412720e+01 -4.313613623380661011e-01 -4.779545328579786201e-01
-1.663363987207412720e+01 -1.021815463900566101e+00 -5.187717936001661201e-01
-3.443222385644912720e+01 -4.517054721713066101e+00 -8.196293375454786201e-01
-1.424472385644912720e+01 2.169540673494338989e-01 -4.409367105923536201e-01
-1.405270725488662720e+01 1.067245751619338989e-01 -4.338566324673536201e-01
-1.465072971582412720e+01 -1.075088232755661011e-01 -4.380833170376661201e-01
-1.452695041894912720e+01 -2.293349951505661011e-01 -4.319187662564161201e-01
-1.421322971582412720e+01 -3.188125342130661011e-01 -4.232517740689161201e-01
-1.583298069238662720e+01 -7.243301123380661011e-01 -4.402805826626661201e-01
-1.644675022363662720e+01 -9.861709326505661011e-01 -4.432713053189161201e-01
-1.502121311426162720e+01 -8.789931982755661011e-01 -4.203373453579786201e-01
-1.330868870019912720e+01 3.273056298494338989e-01 -3.696781656704786201e-01
-1.369430881738662720e+01 1.538437157869338989e-01 -3.694035074673536201e-01
-1.408664280176162720e+01 -2.877347171306610107e-02 -3.692356607876661201e-01
-1.450448948144912720e+01 -2.238418310880661011e-01 -3.687168619595411201e-01
-1.424716526269912720e+01 -3.219863623380661011e-01 -3.619267008267286201e-01
-1.558822971582412720e+01 -6.812392920255661011e-01 -3.689457437954786201e-01
-1.509714084863662720e+01 -7.452041357755661011e-01 -3.596531412564161201e-01
-1.710702854394912720e+01 -1.266566440463066101e+00 -3.706699869595411201e-01
-1.325802952051162720e+01 3.351181298494338989e-01 -3.123203775845411201e-01
-1.368735080957412720e+01 1.566513329744338989e-01 -3.104130289517286201e-01
-1.407883030176162720e+01 -2.559964358806610107e-02 -3.080326578579786201e-01
-1.461300998926162720e+01 -2.375137060880661011e-01 -3.060032389126661201e-01
-1.428134495019912720e+01 -3.251601904630661011e-01 -2.999760172329786201e-01
-1.581137424707412720e+01 -7.159072607755661011e-01 -3.013493082486036201e-01
-1.640780979394912720e+01 -9.742080420255661011e-01 -2.983585855923536201e-01
-1.503915745019912720e+01 -8.776504248380661011e-01 -2.887150309048536201e-01
-1.337253147363662720e+01 3.237655907869338989e-01 -2.552830240689161201e-01
-1.375387912988662720e+01 1.504257470369338989e-01 -2.515598795376661201e-01
-1.408053928613662720e+01 -2.376858890056610107e-02 -2.472416422329786201e-01
-1.450973850488662720e+01 -2.203017920255661011e-01 -2.426487467251661201e-01
-1.504696995019912720e+01 -4.423476904630661011e-01 -2.377201578579786201e-01
-1.557870823144912720e+01 -6.747695654630661011e-01 -2.324253580532911201e-01
-1.621603733301162720e+01 -9.378310889005661011e-01 -2.265812418423536201e-01
-1.504819065332412720e+01 -8.769180029630661011e-01 -2.226139566861036201e-01
-1.321969944238662720e+01 3.432968407869338989e-01 -1.985050699673536201e-01
-1.359054905176162720e+01 1.728866845369338989e-01 -1.927067301236036201e-01
-1.405759006738662720e+01 -1.851956546306610107e-02 -1.862217447720411201e-01
-1.453598362207412720e+01 -2.218887060880661011e-01 -1.793247721157911201e-01
-1.514096409082412720e+01 -4.546767920255661011e-01 -1.714512369595411201e-01
-1.580429416894912720e+01 -7.098037451505661011e-01 -1.628147623501661201e-01
-1.620627170801162720e+01 -9.335586279630661011e-01 -1.551853678189161201e-01
-1.505722385644912720e+01 -8.763076514005661011e-01 -1.568180582486036201e-01
-1.332394748926162720e+01 3.332870751619338989e-01 -1.407047769986036201e-01
-1.378110080957412720e+01 1.510360985994338989e-01 -1.326328775845411201e-01
-1.632406955957412720e+01 -3.228408545255661011e-01 -1.051517984829786201e-01
-1.444382053613662720e+01 -2.062637060880661011e-01 -1.172215006314161201e-01
-1.629135471582412720e+01 -6.313125342130661011e-01 -9.439435219391612009e-02
-1.481296116113662720e+01 -5.430556982755661011e-01 -1.037632486782911201e-01
-1.460751682519912720e+01 -6.496230810880661011e-01 -1.008640787564161201e-01
-1.506625705957412720e+01 -8.755752295255661011e-01 -9.057965492829112009e-02
-1.683298069238662720e+01 -6.783597171306610107e-02 -3.828778481110362009e-02
-2.640231662988662720e+01 -1.423670932650566101e+00 9.457049155608387991e-02
-1.462607151269912720e+01 -9.115140140056610107e-02 -5.681195473297862009e-02
-1.404953342676162720e+01 -1.469375342130661011e-01 -5.987897133454112009e-02
-1.483346897363662720e+01 -4.023086279630661011e-01 -4.379620766266612009e-02
-1.639010959863662720e+01 -8.019668310880661011e-01 -1.573529457672862009e-02
-1.442819553613662720e+01 -6.158096045255661011e-01 -3.966107582672862009e-02
-4.458200412988662720e+01 -6.367518588900566101e+00 4.322322347201463799e-01
-2.312228733301162720e+01 -7.865859717130661011e-01 1.456874349154588799e-01
-1.593918186426162720e+01 -1.142226904630661011e-01 2.521929526702137991e-02
-1.474814182519912720e+01 -1.054336279630661011e-01 8.678767923271379914e-03
-3.331784397363662720e+01 -2.939784213900566101e+00 3.598750569857713799e-01
-1.413095432519912720e+01 -2.909805029630661011e-01 7.274959329521379914e-03
-1.516342502832412720e+01 -5.965224951505661011e-01 3.222307944670887991e-02
-1.665805393457412720e+01 -1.005458042025566101e+00 6.751665854827137991e-02
-4.460068088769912720e+01 -6.363612338900566101e+00 6.367915608920213799e-01
-2.312533909082412720e+01 -7.834121435880661011e-01 2.484706380404588799e-01
-1.623263889551162720e+01 -1.484023779630661011e-01 1.010402181185838799e-01
-1.461789280176162720e+01 -8.565823733806610107e-02 6.985125327483387991e-02
-1.436752659082412720e+01 -1.888076514005661011e-01 6.922564292327137991e-02
-1.625351291894912720e+01 -6.180068701505661011e-01 1.189692952670213799e-01
-1.393075901269912720e+01 -3.904678076505661011e-01 6.896624350920887991e-02
-1.516086155176162720e+01 -7.399551123380661011e-01 1.040156819857713799e-01
-1.582724338769912720e+01 -1.009974643588066101e+00 1.263850667513963799e-01
-1.226291233301162720e+01 -3.838760107755661011e-01 -9.693333170376661201e-01
-1.226523166894912720e+01 -5.015517920255661011e-01 -9.666935465298536201e-01
-1.226120334863662720e+01 -6.183730810880661011e-01 -9.639164469204786201e-01
-1.226938205957412720e+01 -7.387344092130661011e-01 -9.619022867642286201e-01
-1.228598362207412720e+01 -8.614150732755661011e-01 -9.604221842251661201e-01
-1.229965549707412720e+01 -9.842178076505661011e-01 -9.587284586392286201e-01
-1.229611545801162720e+01 -1.103968784213066101e+00 -9.559361002407911201e-01
-1.228720432519912720e+01 -1.222254917025566101e+00 -9.530827066861036201e-01
-1.341867405176162720e+01 -6.003066748380661011e-01 -9.846226236782911201e-01
-1.342746311426162720e+01 -7.311660498380661011e-01 -9.822575113736036201e-01
-1.345395237207412720e+01 -8.664199560880661011e-01 -9.805943033657911201e-01
-1.347397190332412720e+01 -1.001795932650566101e+00 -9.788395426236036201e-01
-1.349399143457412720e+01 -1.137904331088066101e+00 -9.770695230923536201e-01
-1.351413303613662720e+01 -1.274867221713066101e+00 -9.752842447720411201e-01
-1.352768284082412720e+01 -1.411830112338066101e+00 -9.734074137173536201e-01
-1.354819065332412720e+01 -1.550868198275566101e+00 -9.716068766079786201e-01
-1.516757541894912720e+01 -9.281875342130661011e-01 -1.021457340475166120e+00
-1.513962131738662720e+01 -1.069789096713066101e+00 -1.016498234029853620e+00
-1.511764866113662720e+01 -1.212611362338066101e+00 -1.011874820943916120e+00
-1.511923557519912720e+01 -1.361415073275566101e+00 -1.008487369772041120e+00
-1.512082248926162720e+01 -1.510340854525566101e+00 -1.005099918600166120e+00
-1.512253147363662720e+01 -1.659999057650566101e+00 -1.001712467428291120e+00
-1.512411838769912720e+01 -1.810877963900566101e+00 -9.982792398892286201e-01
-1.512582737207412720e+01 -1.962001010775566101e+00 -9.948460123501661201e-01
-1.717978245019912720e+01 -1.305140659213066101e+00 -1.055453922506416120e+00
-1.729355198144912720e+01 -1.495570346713066101e+00 -1.056598331686103620e+00
-1.738534885644912720e+01 -1.684657260775566101e+00 -1.056995060201728620e+00
-1.739340549707412720e+01 -1.858485385775566101e+00 -1.053210880514228620e+00
-1.740170627832412720e+01 -2.032801792025566101e+00 -1.049411442037666120e+00
-1.740988498926162720e+01 -2.207972690463066101e+00 -1.045581485982978620e+00
-1.741818577051162720e+01 -2.384730502963066101e+00 -1.041736271139228620e+00
-1.741318088769912720e+01 -2.558436557650566101e+00 -1.037646915670478620e+00
-1.974313694238662720e+01 -1.785243198275566101e+00 -1.095142032857978620e+00
-1.987192112207412720e+01 -2.005091831088066101e+00 -1.096011783834541120e+00
-1.998642307519912720e+01 -2.225550815463066101e+00 -1.096149112936103620e+00
-2.010324436426162720e+01 -2.450526401400566101e+00 -1.096286442037666120e+00
-2.022153049707412720e+01 -2.678431674838066101e+00 -1.096423771139228620e+00
-2.034189182519912720e+01 -2.910243198275566101e+00 -1.096561100240791120e+00
-2.036813694238662720e+01 -3.122523471713066101e+00 -1.092487003561103620e+00
-2.038754612207412720e+01 -3.333827182650566101e+00 -1.088092472311103620e+00
-2.731650120019912720e+01 -3.207240268588066101e+00 -1.314624454732978620e+00
-2.751950412988662720e+01 -3.519984409213066101e+00 -1.314960148092353620e+00
-2.599606662988662720e+01 -3.477626010775566101e+00 -1.246738102193916120e+00
-2.195297580957412720e+01 -2.852870151400566101e+00 -1.079196598287666120e+00
-2.442721897363662720e+01 -3.641444370150566101e+00 -1.171023990865791120e+00
-2.448898655176162720e+01 -3.903407260775566101e+00 -1.166919376607978620e+00
-2.463022190332412720e+01 -4.188441440463066101e+00 -1.165836002584541120e+00
-2.487717014551162720e+01 -4.504359409213066101e+00 -1.169345524068916120e+00
-3.021774631738662720e+01 -3.748255893588066101e+00 -1.294955875631416120e+00
-3.041354709863662720e+01 -4.089442417025566101e+00 -1.293658878561103620e+00
-3.061288791894912720e+01 -4.436854526400566101e+00 -1.292316105123603620e+00
-2.195553928613662720e+01 -2.849818393588066101e+00 -9.805332682095411201e-01
-2.464328342676162720e+01 -3.686976596713066101e+00 -1.067905094381416120e+00
-3.005649143457412720e+01 -5.236170932650566101e+00 -1.247623111959541120e+00
-3.182687717676162720e+01 -5.988490268588066101e+00 -1.299670841451728620e+00
-3.209286838769912720e+01 -6.385707065463066101e+00 -1.299716617818916120e+00
-3.426681858301162720e+01 -4.503993198275566101e+00 -1.284747745748603620e+00
-3.437009006738662720e+01 -4.868617221713066101e+00 -1.278171207662666120e+00
-3.862765842676162720e+01 -6.103114292025566101e+00 -1.397830631490791120e+00
-2.195822483301162720e+01 -2.846888706088066101e+00 -8.813358805142286201e-01
-2.464621311426162720e+01 -3.683558627963066101e+00 -9.557835123501661201e-01
-3.005990940332412720e+01 -5.231898471713066101e+00 -1.109592106100166120e+00
-4.346713596582412720e+01 -8.899501010775566101e+00 -1.496326114889228620e+00
-4.449557834863662720e+01 -9.619105502963066101e+00 -1.513507511373603620e+00
-3.964084202051162720e+01 -5.506922885775566101e+00 -1.271030094381416120e+00
-4.208053928613662720e+01 -6.389613315463066101e+00 -1.323291446920478620e+00
-4.380881077051162720e+01 -7.176356479525566101e+00 -1.355563785787666120e+00
-2.196091037988662720e+01 -2.843836948275566101e+00 -7.826725504361036201e-01
-2.464902073144912720e+01 -3.680140659213066101e+00 -8.442570230923536201e-01
-3.006332737207412720e+01 -5.227626010775566101e+00 -9.723087809048536201e-01
-4.638095432519912720e+01 -9.621546909213066101e+00 -1.366168644186103620e+00
-6.292465549707412720e+01 -1.442061917483806610e+01 -1.755359318014228620e+00
-3.465048557519912720e+01 -4.564784213900566101e+00 -9.813877603970411201e-01
-4.495688205957412720e+01 -6.951747104525566101e+00 -1.192996647115791120e+00
-4.426486545801162720e+01 -7.264002963900566101e+00 -1.164432193990791120e+00
-2.196347385644912720e+01 -2.840785190463066101e+00 -6.840092203579786201e-01
-2.465195041894912720e+01 -3.676722690463066101e+00 -7.327305338345411201e-01
-3.006674534082412720e+01 -5.223353549838066101e+00 -8.350254557095411201e-01
-4.365231662988662720e+01 -8.930873081088066101e+00 -1.096927311178291120e+00
-7.564120823144912720e+01 -1.772591702640056610e+01 -1.711627628561103620e+00
-3.443161350488662720e+01 -4.518153354525566101e+00 -8.195835611782911201e-01
-4.406088596582412720e+01 -6.767176792025566101e+00 -9.711033365689161201e-01
-4.807309299707412720e+01 -8.048793002963066101e+00 -1.023425724264228620e+00
-2.196615940332412720e+01 -2.837733432650566101e+00 -5.848118326626661201e-01
-2.465488010644912720e+01 -3.673304721713066101e+00 -6.206089518032911201e-01
-3.007016330957412720e+01 -5.219081088900566101e+00 -6.969944498501661201e-01
-4.309823948144912720e+01 -8.784754917025566101e+00 -8.855930826626661201e-01
-5.192282444238662720e+01 -1.153145901858806610e+01 -1.002948429342353620e+00
-1.502084690332412720e+01 -8.793594092130661011e-01 -4.203068277798536201e-01
-1.817856174707412720e+01 -1.648402377963066101e+00 -4.541050455532911201e-01
-1.922275120019912720e+01 -2.044276401400566101e+00 -4.606968424282911201e-01
-2.073581272363662720e+01 -2.565638706088066101e+00 -4.719273111782911201e-01
-2.282602268457412720e+01 -3.250819370150566101e+00 -4.885899088345411201e-01
-2.699545627832412720e+01 -4.478358432650566101e+00 -5.263401529751661201e-01
-4.099472385644912720e+01 -8.251795932650566101e+00 -6.643559000454786201e-01
-5.137363010644912720e+01 -1.137935940921306610e+01 -7.560001871548536201e-01
-1.711386448144912720e+01 -1.268397495150566101e+00 -3.707005045376661201e-01
-1.816134983301162720e+01 -1.642054721713066101e+00 -3.729893228970411201e-01
-1.933493381738662720e+01 -2.064418002963066101e+00 -3.758732340298536201e-01
-2.107089573144912720e+01 -2.635340854525566101e+00 -3.813206217251661201e-01
-2.310934787988662720e+01 -3.311854526400566101e+00 -3.875004312954786201e-01
-2.641830784082412720e+01 -4.335902377963066101e+00 -3.999973795376661201e-01
-8.565793186426162720e+01 -1.939535062015056610e+01 -7.310215494595411201e-01
-7.175107151269912720e+01 -1.667367093265056610e+01 -6.260105631314161201e-01
-1.503879123926162720e+01 -8.780166357755661011e-01 -2.886845133267286201e-01
-1.476254612207412720e+01 -9.690810889005661011e-01 -2.829014322720411201e-01
-1.905771213769912720e+01 -2.003749057650566101e+00 -2.886082193814161201e-01
-2.078280979394912720e+01 -2.569056674838066101e+00 -2.857395670376661201e-01
-2.353342014551162720e+01 -3.404872104525566101e+00 -2.834354898892286201e-01
-6.787472873926162720e+01 -1.423543851077556610e+01 -3.371159098111036201e-01
-1.504782444238662720e+01 -8.774062842130661011e-01 -2.225986978970411201e-01
-1.480466037988662720e+01 -9.750625342130661011e-01 -2.182499430142286201e-01
-6.415854221582412720e+01 -1.135225979983806610e+01 -1.044193766079786201e-01
-5.353854709863662720e+01 -9.699427768588066101e+00 -1.083866617642286201e-01
-5.720932346582412720e+01 -1.108687894046306610e+01 -7.812848305329112009e-02
-5.766342502832412720e+01 -1.178609769046306610e+01 -5.572858070954112009e-02
-7.200046116113662720e+01 -1.596065823733806610e+01 1.838335776702137991e-02
-7.172299534082412720e+01 -1.664120022952556610e+01 4.568133139983387991e-02
-1.505685764551162720e+01 -8.766738623380661011e-01 -1.568027994595411201e-01
-1.484714084863662720e+01 -9.811660498380661011e-01 -1.528660318814161201e-01
-1.485409885644912720e+01 -1.126795932650566101e+00 -1.475712320767286201e-01
-1.486117893457412720e+01 -1.273646518588066101e+00 -1.422306559048536201e-01
-5.722885471582412720e+01 -1.108162991702556610e+01 1.877864339388963799e-01
-5.764438205957412720e+01 -1.177169339358806610e+01 2.126277425326463799e-01
-1.506589084863662720e+01 -8.760635107755661011e-01 -9.057965492829112009e-02
-1.488974338769912720e+01 -9.871474951505661011e-01 -8.745160317047862009e-02
-6.409445530176162720e+01 -1.131746976077556610e+01 4.877131917513963799e-01
-1.490402561426162720e+01 -1.280604526400566101e+00 -7.641949867829112009e-02
-5.725229221582412720e+01 -1.107735745608806610e+01 4.524501302279588799e-01
-5.765817600488662720e+01 -1.176510159671306610e+01 4.797175862826463799e-01
-7.186691623926162720e+01 -1.590243069827556610e+01 6.889613606967088799e-01
-7.306467014551162720e+01 -1.696419827640056610e+01 7.350886800326463799e-01
-4.457944065332412720e+01 -6.368495151400566101e+00 4.322474935092088799e-01
-1.493271213769912720e+01 -9.932510107755661011e-01 -2.128949379547862009e-02
-1.494003635644912720e+01 -1.139735385775566101e+00 -1.561322426422862009e-02
-5.348605686426162720e+01 -9.660975620150566101e+00 6.329005696810838799e-01
-5.728110080957412720e+01 -1.107418362796306610e+01 7.187922933138963799e-01
-6.437436252832412720e+01 -1.335494534671306610e+01 8.654902913607713799e-01
-7.345334202051162720e+01 -1.628451077640056610e+01 1.053646419290458880e+00
-7.290878635644912720e+01 -1.691109769046306610e+01 1.073162410501396380e+00
-4.459811741113662720e+01 -6.364710971713066101e+00 6.368068196810838799e-01
-7.017673069238662720e+01 -1.183626858890056610e+01 1.180630061868583880e+00
-1.498312717676162720e+01 -1.146327182650566101e+00 5.079302573577137991e-02
-5.345932346582412720e+01 -9.646205112338066101e+00 8.784755208529588799e-01
-1.532748752832412720e+01 -1.518153354525566101e+00 6.983599448577137991e-02
-6.437558323144912720e+01 -1.334432522952556610e+01 1.163982723001396380e+00
-7.280502659082412720e+01 -1.611056058108806610e+01 1.382732723001396380e+00
-1.582712131738662720e+01 -1.010462924838066101e+00 1.264003255404588799e-01
-1.501938205957412720e+01 -1.005580112338066101e+00 1.118434407748338799e-01
-1.499045139551162720e+01 -1.145472690463066101e+00 1.170009114779588799e-01
-6.342660862207412720e+01 -1.179940335452556610e+01 1.385586116556083880e+00
-1.530722385644912720e+01 -1.511073276400566101e+00 1.372493245638963799e-01
-1.529330784082412720e+01 -1.658534213900566101e+00 1.429561116732713799e-01
-7.020041233301162720e+01 -1.545101468265056610e+01 1.650310848001396380e+00
-1.228720432519912720e+01 -1.222743198275566101e+00 -9.530827066861036201e-01
-1.228244358301162720e+01 -1.342616245150566101e+00 -9.502598307095411201e-01
-1.227206760644912720e+01 -1.461512729525566101e+00 -9.473759195767286201e-01
-1.226169162988662720e+01 -1.581385776400566101e+00 -9.444767496548536201e-01
-1.225656467676162720e+01 -1.702967807650566101e+00 -9.418980143032911201e-01
-1.226425510644912720e+01 -1.829188510775566101e+00 -9.400822184048536201e-01
-1.227194553613662720e+01 -1.956751987338066101e+00 -9.382511637173536201e-01
-1.227402073144912720e+01 -2.082972690463066101e+00 -9.363590738736036201e-01
-1.354843479394912720e+01 -1.551356479525566101e+00 -9.716068766079786201e-01
-1.355356174707412720e+01 -1.687464877963066101e+00 -9.692417643032911201e-01
-1.357760959863662720e+01 -1.829798862338066101e+00 -9.676243326626661201e-01
-1.359347873926162720e+01 -1.971522495150566101e+00 -9.658390543423536201e-01
-1.360800510644912720e+01 -2.113490268588066101e+00 -9.639469644986036201e-01
-1.362143284082412720e+01 -2.256312534213066101e+00 -9.619785807095411201e-01
-1.362790256738662720e+01 -2.398402377963066101e+00 -9.599033853970411201e-01
-1.364157444238662720e+01 -2.543543979525566101e+00 -9.579044840298536201e-01
-1.512582737207412720e+01 -1.962489292025566101e+00 -9.948460123501661201e-01
-1.511935764551162720e+01 -2.112269565463066101e+00 -9.913212320767286201e-01
-1.513693577051162720e+01 -2.269496127963066101e+00 -9.890324137173536201e-01
-1.516318088769912720e+01 -2.431117221713066101e+00 -9.871708414517286201e-01
-1.518979221582412720e+01 -2.593836948275566101e+00 -9.852940103970411201e-01
-1.521652561426162720e+01 -2.758143588900566101e+00 -9.834019205532911201e-01
-1.524362522363662720e+01 -2.924525424838066101e+00 -9.814945719204786201e-01
-1.527084690332412720e+01 -3.092005893588066101e+00 -9.795567057095411201e-01
-1.741330295801162720e+01 -2.559046909213066101e+00 -1.037631656881416120e+00
-1.742367893457412720e+01 -2.737757846713066101e+00 -1.033786442037666120e+00
-1.742062717676162720e+01 -2.913905307650566101e+00 -1.029681827779853620e+00
-1.741757541894912720e+01 -3.091517612338066101e+00 -1.025546695943916120e+00
-1.741440159082412720e+01 -3.269618198275566101e+00 -1.021396305318916120e+00
-1.741134983301162720e+01 -3.448695346713066101e+00 -1.017230655904853620e+00
-1.744113498926162720e+01 -3.640223667025566101e+00 -1.014560367818916120e+00
-1.743320041894912720e+01 -3.820033237338066101e+00 -1.010547306295478620e+00
-2.038779026269912720e+01 -3.334559604525566101e+00 -1.088092472311103620e+00
-2.039377170801162720e+01 -3.543788120150566101e+00 -1.083438541647041120e+00
-2.042673069238662720e+01 -3.761927768588066101e+00 -1.079913761373603620e+00
-2.050009495019912720e+01 -3.994593784213066101e+00 -1.078052189107978620e+00
-2.057431370019912720e+01 -4.229701206088066101e+00 -1.076160099264228620e+00
-2.064938694238662720e+01 -4.467860385775566101e+00 -1.074252750631416120e+00
-2.071420627832412720e+01 -4.706385776400566101e+00 -1.071826603170478620e+00
-2.072067600488662720e+01 -4.927210971713066101e+00 -1.066913273092353620e+00
-2.487875705957412720e+01 -4.505702182650566101e+00 -1.169391300436103620e+00
-2.510068088769912720e+01 -4.821498081088066101e+00 -1.170917179342353620e+00
-2.523019748926162720e+01 -5.117274448275566101e+00 -1.169376041647041120e+00
-2.536203342676162720e+01 -5.419154331088066101e+00 -1.167789127584541120e+00
-2.541842991113662720e+01 -5.701502963900566101e+00 -1.163287784811103620e+00
-2.550314670801162720e+01 -5.995570346713066101e+00 -1.159763004537666120e+00
-2.552951389551162720e+01 -6.274989292025566101e+00 -1.153979923482978620e+00
-2.552634006738662720e+01 -6.545741245150566101e+00 -1.147708561178291120e+00
-3.209457737207412720e+01 -6.387293979525566101e+00 -1.299747135397041120e+00
-3.229062229394912720e+01 -6.772914096713066101e+00 -1.297595646139228620e+00
-3.235849338769912720e+01 -7.128382846713066101e+00 -1.291019108053291120e+00
-3.242721897363662720e+01 -7.488734409213066101e+00 -1.284351017232978620e+00
-3.258957248926162720e+01 -7.879847690463066101e+00 -1.280688907857978620e+00
-3.285531955957412720e+01 -8.309291049838066101e+00 -1.280231144186103620e+00
-3.309482151269912720e+01 -8.739222690463066101e+00 -1.278690006490791120e+00
-3.316733127832412720e+01 -9.118983432650566101e+00 -1.271655704732978620e+00
-4.449679905176162720e+01 -9.620936557650566101e+00 -1.513507511373603620e+00
-4.460751682519912720e+01 -1.011544339358806610e+01 -1.503879215475166120e+00
-4.477609592676162720e+01 -1.063131253421306610e+01 -1.494662906881416120e+00
-4.503915745019912720e+01 -1.118294827640056610e+01 -1.488986637350166120e+00
-4.525571018457412720e+01 -1.172738187015056610e+01 -1.481830265279853620e+00
-4.578354221582412720e+01 -1.237740628421306610e+01 -1.483050968404853620e+00
-4.596469455957412720e+01 -1.293062894046306610e+01 -1.475528385397041120e+00
-4.625522190332412720e+01 -1.352608792483806610e+01 -1.469669010397041120e+00
-6.292221409082412720e+01 -1.442220608890056610e+01 -1.755252506490791120e+00
-6.460324436426162720e+01 -1.553951565921306610e+01 -1.776614811178291120e+00
-6.434360080957412720e+01 -1.614864651858806610e+01 -1.750720646139228620e+00
-6.471200901269912720e+01 -1.694283597171306610e+01 -1.739520694967353620e+00
-6.499472385644912720e+01 -1.772054593265056610e+01 -1.726062443014228620e+00
-6.528146702051162720e+01 -1.850985257327556610e+01 -1.712390568014228620e+00
-6.595321995019912720e+01 -1.943758694827556610e+01 -1.707019474264228620e+00
-6.639242893457412720e+01 -2.030367581546306610e+01 -1.696002628561103620e+00
-7.562814670801162720e+01 -1.772518460452556610e+01 -1.711291935201728620e+00
-7.625851780176162720e+01 -1.869222562015056610e+01 -1.699420597311103620e+00
-8.789902073144912720e+01 -2.278438870608806610e+01 -1.896197941061103620e+00
-8.888681370019912720e+01 -2.401461331546306610e+01 -1.886203434225166120e+00
-8.934579807519912720e+01 -2.510787503421306610e+01 -1.865802433248603620e+00
-8.968942600488662720e+01 -2.618050687015056610e+01 -1.842837955709541120e+00
-9.010141330957412720e+01 -2.729220120608806610e+01 -1.820590641256416120e+00
-9.086239963769912720e+01 -2.853292386233806610e+01 -1.804050113912666120e+00
