-1.270813268423080444e+01 1.678551070392131805e+00 -6.449310259427818437e-01
-1.278857702016830444e+01 1.563682906329631805e+00 -6.441986040677818437e-01
-1.266101354360580444e+01 1.450645796954631805e+00 -6.365539507474693437e-01
-1.265991491079330444e+01 1.336876265704631805e+00 -6.333038286771568437e-01
-1.111828893423080444e+01 1.282188765704631805e+00 -5.780364946927818437e-01
-1.911877721548080444e+01 7.963489219546318054e-01 -8.434783892240318437e-01
-1.568652623891830444e+01 8.181995078921318054e-01 -7.244293169584068437e-01
-1.197815221548080444e+01 1.785728804767131805e+00 -5.730010943021568437e-01
-1.268689244985580444e+01 1.680015914142131805e+00 -5.914337114896568437e-01
-1.272644323110580444e+01 1.565758101642131805e+00 -5.893890337552818437e-01
-1.287610143423080444e+01 1.448204390704631805e+00 -5.905792193021568437e-01
-1.270666784048080444e+01 1.337120406329631805e+00 -5.822936968412193437e-01
-1.111950963735580444e+01 1.283409468829631805e+00 -5.327636675443443437e-01
-1.562756627798080444e+01 9.671252891421318054e-01 -6.601440386380943437e-01
-1.563525670766830444e+01 8.232043907046318054e-01 -6.562835650052818437e-01
-1.428418248891830444e+01 1.814171187579631805e+00 -5.837585405912193437e-01
-1.277344030141830444e+01 1.681724898517131805e+00 -5.412017778959068437e-01
-1.274597448110580444e+01 1.567100875079631805e+00 -5.372344927396568437e-01
-1.283459752798080444e+01 1.450523726642131805e+00 -5.361816362943443437e-01
-1.988513463735580444e+01 1.136803023517131805e+00 -7.081787066068443437e-01
-1.112060827016830444e+01 1.284752242267131805e+00 -4.874755816068443437e-01
-1.557690709829330444e+01 9.715198203921318054e-01 -5.928985552396568437e-01
-1.558447545766830444e+01 8.280872032046318054e-01 -5.890075640287193437e-01
-1.424219030141830444e+01 1.815391890704631805e+00 -5.227691607084068437e-01
-1.282312291860580444e+01 1.683311812579631805e+00 -4.891235308255943437e-01
-1.270337194204330444e+01 1.569054000079631805e+00 -4.833404497709068437e-01
-1.284814733266830444e+01 1.451866500079631805e+00 -4.830352739896568437e-01
-1.529553502798080444e+01 1.267784468829631805e+00 -5.292846636380943437e-01
-1.112182897329330444e+01 1.286095015704631805e+00 -4.419433550443443437e-01
-1.552636998891830444e+01 9.759143516421318054e-01 -5.257904009427818437e-01
-2.344299596548080444e+01 3.748401328921318054e-01 -6.752197222318443437e-01
-1.246386998891830444e+01 1.795738570392131805e+00 -4.333373980130943437e-01
-1.280774205923080444e+01 1.684776656329631805e+00 -4.358093218412193437e-01
-1.277051061391830444e+01 1.570030562579631805e+00 -4.319030718412193437e-01
-1.273999303579330444e+01 1.455284468829631805e+00 -4.281036333646568437e-01
-1.285461705923080444e+01 1.337608687579631805e+00 -4.266082720365318437e-01
-1.112304967641830444e+01 1.287315718829631805e+00 -3.966552691068443437e-01
-1.547644323110580444e+01 9.803088828921318054e-01 -4.595062212552818437e-01
-2.227820104360580444e+01 4.451526328921318054e-01 -5.561248735990318437e-01
-9.875979363918304443e+00 1.765709273517131805e+00 -3.500854448880943437e-01
-1.007409948110580444e+01 1.680260054767131805e+00 -3.499633745755943437e-01
-1.028222936391830444e+01 1.590782515704631805e+00 -3.500701860990318437e-01
-1.050073522329330444e+01 1.496544234454631805e+00 -3.499633745755943437e-01
-1.072925084829330444e+01 1.398033492267131805e+00 -3.498260454740318437e-01
-1.096948522329330444e+01 1.294395796954631805e+00 -3.497039751615318437e-01
-1.122253698110580444e+01 1.185020796954631805e+00 -3.493072466459068437e-01
-1.146655553579330444e+01 1.071495406329631805e+00 -3.489257769193443437e-01
-9.780886590480804443e+00 1.765709273517131805e+00 -3.098327593412193437e-01
-9.974612176418304443e+00 1.681236617267131805e+00 -3.087951616849693437e-01
-1.017749303579330444e+01 1.592735640704631805e+00 -3.077117876615318437e-01
-1.039074987173080444e+01 1.499718062579631805e+00 -3.065673784818443437e-01
-1.061389440298080444e+01 1.402550093829631805e+00 -3.053771929349693437e-01
-1.084814733266830444e+01 1.300377242267131805e+00 -3.041259722318443437e-01
-1.109875768423080444e+01 1.192345015704631805e+00 -3.028137163724693437e-01
-1.136889928579330444e+01 1.078453414142131805e+00 -3.014862017240318437e-01
-9.743288934230804443e+00 1.766319625079631805e+00 -2.704193071927818437e-01
-9.955202996730804443e+00 1.682335250079631805e+00 -2.687560991849693437e-01
-1.017834752798080444e+01 1.593956343829631805e+00 -2.667877153959068437e-01
-1.041418737173080444e+01 1.500572554767131805e+00 -2.647125200834068437e-01
-1.066211217641830444e+01 1.402428023517131805e+00 -2.625305132474693437e-01
-1.092395299673080444e+01 1.298790328204631805e+00 -2.602264360990318437e-01
-1.116565221548080444e+01 1.190513961017131805e+00 -2.577239946927818437e-01
-1.147436803579330444e+01 1.073814742267131805e+00 -2.549163775052818437e-01
-9.819949090480804443e+00 1.768394820392131805e+00 -2.313873247709068437e-01
-1.003601354360580444e+01 1.683678023517131805e+00 -2.285034136380943437e-01
-1.026343053579330444e+01 1.594444625079631805e+00 -2.254669146146568437e-01
-1.050390905141830444e+01 1.500206343829631805e+00 -2.222625689115318437e-01
-1.073901647329330444e+01 1.401573531329631805e+00 -2.189361528959068437e-01
-1.097339147329330444e+01 1.298302046954631805e+00 -2.154724077787193437e-01
-1.116687291860580444e+01 1.191734664142131805e+00 -2.120086626615318437e-01
-1.145898717641830444e+01 1.076134078204631805e+00 -2.080718950834068437e-01
-9.825808465480804443e+00 1.769615523517131805e+00 -1.918975786771568437e-01
-1.001684850454330444e+01 1.684776656329631805e+00 -1.883880571927818437e-01
-1.021631139516830444e+01 1.596031539142131805e+00 -1.844970659818443437e-01
-1.042590612173080444e+01 1.502769820392131805e+00 -1.804077105130943437e-01
-1.064490026235580444e+01 1.405479781329631805e+00 -1.761352495755943437e-01
-1.087463659048080444e+01 1.303184859454631805e+00 -1.716491655912193437e-01
-1.111682409048080444e+01 1.195518843829631805e+00 -1.669189409818443437e-01
-1.135364049673080444e+01 1.083580367267131805e+00 -1.618682818021568437e-01
-9.749026238918304443e+00 1.769737593829631805e+00 -1.534606890287193437e-01
-9.936282098293304443e+00 1.685631148517131805e+00 -1.489135698880943437e-01
-1.013196080923080444e+01 1.597862593829631805e+00 -1.441528277005943437e-01
-1.035303014516830444e+01 1.505333296954631805e+00 -1.389800982084068437e-01
-1.061108678579330444e+01 1.407554976642131805e+00 -1.332580523099693437e-01
-1.088428014516830444e+01 1.304161421954631805e+00 -1.271850542630943437e-01
-1.117505162954330444e+01 1.194054000079631805e+00 -1.207305864896568437e-01
-1.146130651235580444e+01 1.078819625079631805e+00 -1.141540484037193437e-01
-9.752688348293304443e+00 1.770836226642131805e+00 -1.142761187162193437e-01
-9.977053582668304443e+00 1.686973921954631805e+00 -1.082794146146568437e-01
-1.021313756704330444e+01 1.598472945392131805e+00 -1.021911577787193437e-01
-1.046399205923080444e+01 1.504600875079631805e+00 -9.549254938028184370e-02
-1.072839635610580444e+01 1.405723921954631805e+00 -8.842773004434434370e-02
-1.100866979360580444e+01 1.300865523517131805e+00 -8.095092340371934370e-02
-3.418896764516830444e+01 1.169055625796318054e-01 3.184326215181556563e-01
-2.398388952016830444e+01 3.684924766421318054e-01 1.506469769869056563e-01
-9.849978387355804443e+00 1.773277632892131805e+00 -7.321471734903184370e-02
-1.007898229360580444e+01 1.688438765704631805e+00 -6.627196832559434370e-02
-1.278943151235580444e+01 1.581993453204631805e+00 -8.120723208406843696e-03
-1.280163854360580444e+01 1.466514937579631805e+00 -4.458613833406843696e-03
-1.964416784048080444e+01 1.168297164142131805e+00 1.432159467134681563e-01
-1.393701452016830444e+01 1.194664351642131805e+00 2.660828069784315630e-02
-3.632702916860580444e+01 2.144657820463180542e-02 5.156677289400306563e-01
-2.401465123891830444e+01 3.698352500796318054e-01 2.560546918306556563e-01
-1.396789830923080444e+01 9.057239219546318054e-01 -1.077883906802156844e+00
-1.280566686391830444e+01 8.590930625796318054e-01 -9.986602739896568437e-01
-1.286279577016830444e+01 7.387317344546318054e-01 -9.995300249662193437e-01
-1.292090123891830444e+01 6.164172813296318054e-01 -1.000430293520906844e+00
-1.297949498891830444e+01 4.932483360171318054e-01 -1.001315303286531844e+00
-1.301623815298080444e+01 3.709338828921318054e-01 -1.000781245669344344e+00
-1.302014440298080444e+01 2.511829063296318054e-01 -9.980956987943443437e-01
-1.301831334829330444e+01 1.324084922671318054e-01 -9.953491167630943437e-01
-1.534009069204330444e+01 8.262561485171318054e-01 -1.102572627505281844e+00
-1.492651647329330444e+01 7.139514610171318054e-01 -1.073992915591219344e+00
-1.455591100454330444e+01 6.061633750796318054e-01 -1.047869868716219344e+00
-1.422082799673080444e+01 5.020373985171318054e-01 -1.024386592349031844e+00
-1.406531041860580444e+01 3.870471641421318054e-01 -1.011828608950594344e+00
-1.412744420766830444e+01 2.510608360171318054e-01 -1.012301631411531844e+00
-1.370166295766830444e+01 1.714709922671318054e-01 -9.841033892240318437e-01
-1.424780553579330444e+01 -2.530635148286819458e-02 -1.013232417544344344e+00
-1.549646276235580444e+01 8.189319297671318054e-01 -1.046206660708406844e+00
-1.543530553579330444e+01 6.806262657046318054e-01 -1.039172358950594344e+00
-1.537463659048080444e+01 5.432971641421318054e-01 -1.032183833559969344e+00
-1.614905065298080444e+01 3.319934532046318054e-01 -1.071520991763094344e+00
-1.777966588735580444e+01 2.034794539213180542e-02 -1.157763667544344344e+00
-1.789136022329330444e+01 -1.584850624203681946e-01 -1.159671016177156844e+00
-1.370337194204330444e+01 1.730579063296318054e-01 -9.262878374662193437e-01
-1.592334264516830444e+01 -2.405163124203681946e-01 -1.043963618716219344e+00
-1.565539830923080444e+01 8.116077110171318054e-01 -9.889099077787193437e-01
-1.768860143423080444e+01 5.273059532046318054e-01 -1.089251704653719344e+00
-1.777698034048080444e+01 3.556750938296318054e-01 -1.089511104067781844e+00
-1.612817662954330444e+01 3.358997032046318054e-01 -1.001391597231844344e+00
-1.800195592641830444e+01 6.946250796318054199e-04 -1.092303462466219344e+00
-1.811682409048080444e+01 -1.807018592953681946e-01 -1.093722529849031844e+00
-1.370495885610580444e+01 1.746448203921318054e-01 -8.684722857084068437e-01
-2.074597448110580444e+01 -8.623424842953681946e-01 -1.216326899966219344e+00
-1.607788366079330444e+01 7.886584922671318054e-01 -9.421874956693443437e-01
-1.790368932485580444e+01 5.148547813296318054e-01 -1.023669429263094344e+00
-1.799756139516830444e+01 3.405383750796318054e-01 -1.023654170474031844e+00
-1.610742467641830444e+01 3.399280235171318054e-01 -9.318572954740318437e-01
-1.822888463735580444e+01 -1.944697648286819458e-02 -1.025439448794344344e+00
-2.075073522329330444e+01 -4.653698280453681946e-01 -1.136202998599031844e+00
-1.370654577016830444e+01 1.763538047671318054e-01 -8.109771685209068437e-01
-2.100671666860580444e+01 -8.931042030453681946e-01 -1.137408442934969344e+00
-1.597583287954330444e+01 7.967151328921318054e-01 -8.697082476224693437e-01
-1.812573522329330444e+01 5.019153282046318054e-01 -9.559966997709068437e-01
-1.822522252798080444e+01 3.250354453921318054e-01 -9.556610064115318437e-01
-1.890381139516830444e+01 9.383427351713180542e-02 -9.793273882474693437e-01
-2.090173619985580444e+01 -2.810436561703681946e-01 -1.057162471255281844e+00
-2.100696080923080444e+01 -4.903942421078681946e-01 -1.056201167544344344e+00
-1.370825475454330444e+01 1.779407188296318054e-01 -7.531616167630943437e-01
-2.127295202016830444e+01 -9.245983436703681946e-01 -1.056826777895906844e+00
-1.587463659048080444e+01 8.046497032046318054e-01 -7.978546099271568437e-01
-1.400500768423080444e+01 7.865832969546318054e-01 -7.237121538724693437e-01
-2.087207311391830444e+01 1.195911094546318054e-01 -9.761383013334068437e-01
-1.606616491079330444e+01 3.477405235171318054e-01 -7.930175737943443437e-01
-1.615759557485580444e+01 1.897815391421318054e-01 -7.923309282865318437e-01
-2.126855748891830444e+01 -5.160290077328681946e-01 -9.745361284818443437e-01
-1.370984166860580444e+01 1.795276328921318054e-01 -6.956359819974693437e-01
-2.251037877798080444e+01 -1.081214554607868195e+00 -1.008151240786531844e+00
-1.568664830923080444e+01 8.177112266421318054e-01 -7.244140581693443437e-01
-1.569446080923080444e+01 6.728137657046318054e-01 -7.207061724271568437e-01
-1.393689244985580444e+01 6.659778282046318054e-01 -6.589996294584068437e-01
-2.163440221548080444e+01 -1.427379921078681946e-01 -9.045898394193443437e-01
-2.233838170766830444e+01 -4.169079139828681946e-01 -9.215270952787193437e-01
-1.602722448110580444e+01 5.587040632963180542e-02 -7.149536089505943437e-01
-1.371142858266830444e+01 1.811145469546318054e-01 -6.381256060209068437e-01
-2.508459752798080444e+01 -1.409705765545368195e+00 -9.903594927396568437e-01
-1.563525670766830444e+01 8.227161094546318054e-01 -6.562683062162193437e-01
-2.171643346548080444e+01 2.638782188296318054e-01 -8.244659380521568437e-01
-1.408093541860580444e+01 6.564563438296318054e-01 -6.046478228177818437e-01
-1.602502721548080444e+01 3.555530235171318054e-01 -6.550018267240318437e-01
-1.363391393423080444e+01 4.422229453921318054e-01 -5.851623491849693437e-01
-2.276001256704330444e+01 -6.720348671078681946e-01 -8.298522905912193437e-01
-1.371301549673080444e+01 1.827014610171318054e-01 -5.803100542630943437e-01
-2.252563756704330444e+01 -1.076942093670368195e+00 -8.114654497709068437e-01
-1.558459752798080444e+01 8.275989219546318054e-01 -5.889923052396568437e-01
-1.559228795766830444e+01 6.838000938296318054e-01 -5.851165728177818437e-01
-1.422827428579330444e+01 6.466907188296318054e-01 -5.490753130521568437e-01
-1.598462194204330444e+01 3.611682578921318054e-01 -5.860321001615318437e-01
-1.373449987173080444e+01 4.341663047671318054e-01 -5.303680376615318437e-01
-1.374756139516830444e+01 3.069690391421318054e-01 -5.271026568021568437e-01
-1.371472448110580444e+01 1.844104453921318054e-01 -5.227844194974693437e-01
-2.213952916860580444e+01 -1.024207718670368195e+00 -7.046386675443443437e-01
-2.344836705923080444e+01 3.737415000796318054e-01 -6.753112749662193437e-01
-2.263855260610580444e+01 2.068713828921318054e-01 -6.534606890287193437e-01
-1.381042760610580444e+01 6.811145469546318054e-01 -4.811889605130943437e-01
-1.415722936391830444e+01 5.241321250796318054e-01 -4.839660601224693437e-01
-1.383716100454330444e+01 4.258655235171318054e-01 -4.743987993802818437e-01
-1.385071080923080444e+01 2.976916953921318054e-01 -4.709960894193443437e-01
-1.371631139516830444e+01 1.859973594546318054e-01 -4.649536089505943437e-01
-1.432532018423080444e+01 -1.810420304536819458e-02 -4.719116167630943437e-01
-2.227929967641830444e+01 4.444202110171318054e-01 -5.561096148099693437e-01
-2.252929967641830444e+01 2.172473594546318054e-01 -5.536071734037193437e-01
-2.677551549673080444e+01 -3.262096717953681946e-01 -6.077606157865318437e-01
-1.428100866079330444e+01 5.150989219546318054e-01 -4.262725786771568437e-01
-1.279541295766830444e+01 5.296252891421318054e-01 -4.022094683255943437e-01
-1.313977330923080444e+01 3.761829063296318054e-01 -4.033996538724693437e-01
-1.350732702016830444e+01 2.124866172671318054e-01 -4.046813921537193437e-01
-1.383520787954330444e+01 4.659306257963180542e-02 -4.052459673490318437e-01
-1.146838659048080444e+01 1.071007125079631805e+00 -3.489410357084068437e-01
-1.173511022329330444e+01 9.508899375796318054e-01 -3.485443071927818437e-01
-1.201733678579330444e+01 8.239368125796318054e-01 -3.484069780912193437e-01
-1.231604284048080444e+01 6.892932578921318054e-01 -3.479797319974693437e-01
-1.263122838735580444e+01 5.473254844546318054e-01 -3.475372271146568437e-01
-1.296557897329330444e+01 3.966907188296318054e-01 -3.470642046537193437e-01
-1.332104772329330444e+01 2.361682578921318054e-01 -3.462402300443443437e-01
-1.369922155141830444e+01 6.588017195463180542e-02 -3.457061724271568437e-01
-1.137097448110580444e+01 1.077965132892131805e+00 -3.014862017240318437e-01
-1.166211217641830444e+01 9.572375938296318054e-01 -3.000060991849693437e-01
-1.197119420766830444e+01 8.290637657046318054e-01 -2.984191851224693437e-01
-1.230090612173080444e+01 6.922229453921318054e-01 -2.967254595365318437e-01
-1.265100377798080444e+01 5.470813438296318054e-01 -2.949249224271568437e-01
-1.302466100454330444e+01 3.920520469546318054e-01 -2.930023150052818437e-01
-1.342590612173080444e+01 2.256702110171318054e-01 -2.909423784818443437e-01
-1.374658483266830444e+01 6.160771101713180542e-02 -2.883636431302818437e-01
-1.147632116079330444e+01 1.073326461017131805e+00 -2.549163775052818437e-01
-1.177319616079330444e+01 9.511340782046318054e-01 -2.522613482084068437e-01
-1.208911412954330444e+01 8.213733360171318054e-01 -2.491790728177818437e-01
-1.241015905141830444e+01 6.842883750796318054e-01 -2.458831743802818437e-01
-1.272290319204330444e+01 5.415881797671318054e-01 -2.424041704740318437e-01
-1.305432409048080444e+01 3.904651328921318054e-01 -2.387268023099693437e-01
-1.340735143423080444e+01 2.295764610171318054e-01 -2.347900347318443437e-01
-1.374817174673080444e+01 6.319462507963180542e-02 -2.303649859037193437e-01
-1.146069616079330444e+01 1.075645796954631805e+00 -2.080566362943443437e-01
-1.172033971548080444e+01 9.561389610171318054e-01 -2.038909868802818437e-01
-1.199402135610580444e+01 8.302844688296318054e-01 -1.994964556302818437e-01
-1.228393834829330444e+01 6.968616172671318054e-01 -1.948577837552818437e-01
-1.258935827016830444e+01 5.562366172671318054e-01 -1.899597124662193437e-01
-1.291284459829330444e+01 4.074329063296318054e-01 -1.847564653959068437e-01
-1.331250280141830444e+01 2.425159141421318054e-01 -1.789428667630943437e-01
-1.374499791860580444e+01 6.539189070463180542e-02 -1.726867632474693437e-01
-1.135534948110580444e+01 1.083092086017131805e+00 -1.618377642240318437e-01
-1.163647741079330444e+01 9.632190391421318054e-01 -1.565429644193443437e-01
-1.196094030141830444e+01 8.343127891421318054e-01 -1.504241900052818437e-01
-1.230823034048080444e+01 6.962512657046318054e-01 -1.438934282865318437e-01
-1.267810338735580444e+01 5.492786094546318054e-01 -1.369201616849693437e-01
-1.307434362173080444e+01 3.918079063296318054e-01 -1.294586138334068437e-01
-1.350134557485580444e+01 2.220081016421318054e-01 -1.214172319974693437e-01
-1.598865026235580444e+01 -2.187877967953681946e-01 -9.135741754434434370e-02
-1.146338170766830444e+01 1.078331343829631805e+00 -1.141235308255943437e-01
-1.177649205923080444e+01 9.552844688296318054e-01 -1.067840532865318437e-01
-1.210998815298080444e+01 8.243030235171318054e-01 -9.897155328653184370e-02
-2.331006139516830444e+01 -2.598034217953681946e-01 5.836182073690565630e-02
-1.565344518423080444e+01 2.620471641421318054e-01 -4.222411676309434370e-02
-1.597729772329330444e+01 8.248173445463180542e-02 -3.297729059121934370e-02
-1.597180455923080444e+01 -6.583369523286819458e-02 -2.832335992715684370e-02
-1.429663366079330444e+01 -1.136429607868194580e-03 -4.877013727090684370e-02
-2.398266881704330444e+01 3.677600547671318054e-01 1.506622357759681563e-01
-2.338403600454330444e+01 1.808704063296318054e-01 1.473510785494056563e-01
-1.563745397329330444e+01 5.547717735171318054e-01 1.443176702596815630e-02
-1.562927526235580444e+01 4.108508750796318054e-01 1.893310979940565630e-02
-1.462890905141830444e+01 3.633655235171318054e-01 4.925541440030656304e-03
-2.276172155141830444e+01 -6.412731483578681946e-01 1.635864301119056563e-01
-1.560473912954330444e+01 -2.066767960786819458e-02 3.278809026815565630e-02
-1.441113561391830444e+01 -1.383174210786819458e-02 1.398926214315565630e-02
-2.401343053579330444e+01 3.691028282046318054e-01 2.560546918306556563e-01
-2.340039342641830444e+01 1.828235313296318054e-01 2.492340131197181563e-01
-2.265234655141830444e+01 1.863896101713180542e-02 2.395294232759681563e-01
-2.302942174673080444e+01 -2.291637733578681946e-01 2.552001996431556563e-01
-1.565686315298080444e+01 2.658313438296318054e-01 9.071045354940565630e-02
-2.275830358266830444e+01 -6.378551796078681946e-01 2.630584760103431563e-01
-2.609460729360580444e+01 -1.245399124920368195e+00 3.499877972994056563e-01
-1.428833287954330444e+01 3.746382892131805420e-03 7.203369573690565630e-02
-1.301831334829330444e+01 1.319202110171318054e-01 -9.953491167630943437e-01
-1.302087682485580444e+01 1.216923445463180542e-02 -9.926483110990318437e-01
-1.301758092641830444e+01 -1.070934608578681946e-01 -9.898559527005943437e-01
-1.301440709829330444e+01 -2.272106483578681946e-01 -9.870635943021568437e-01
-1.301111119985580444e+01 -3.472057655453681946e-01 -9.842712359037193437e-01
-1.300793737173080444e+01 -4.674450233578681946e-01 -9.814636187162193437e-01
-1.300574010610580444e+01 -5.886608436703681946e-01 -9.787170366849693437e-01
-1.301513952016830444e+01 -7.121959999203681946e-01 -9.769775347318443437e-01
-1.424841588735580444e+01 -2.591670304536819458e-02 -1.013247676333406844e+00
-1.433642858266830444e+01 -1.700817421078681946e-01 -1.015505977114656844e+00
-1.445373815298080444e+01 -3.208385780453681946e-01 -1.019091792544344344e+00
-1.452307409048080444e+01 -4.672008827328681946e-01 -1.020129390200594344e+00
-1.455981725454330444e+01 -6.094127967953681946e-01 -1.019244380434969344e+00
-1.453198522329330444e+01 -7.411266639828681946e-01 -1.014575190981844344e+00
-1.450598424673080444e+01 -8.735729530453681946e-01 -1.010348506411531844e+00
-1.450415319204330444e+01 -1.010413773357868195e+00 -1.007205195864656844e+00
-1.592383092641830444e+01 -2.410045936703681946e-01 -1.043978877505281844e+00
-1.597192662954330444e+01 -3.966442421078681946e-01 -1.043170161684969344e+00
-1.397900670766830444e+01 -2.477184608578681946e-01 -9.321472124662193437e-01
-1.601050084829330444e+01 -7.032848671078681946e-01 -1.038317866763094344e+00
-1.598816198110580444e+01 -8.507458046078681946e-01 -1.033648677309969344e+00
-1.607373327016830444e+01 -1.017615921795368195e+00 -1.034732051333406844e+00
-1.617212194204330444e+01 -1.189735062420368195e+00 -1.036425776919344344e+00
-1.627185338735580444e+01 -1.364173538982868195e+00 -1.038134761294344344e+00
-2.074707311391830444e+01 -8.630749061703681946e-01 -1.216357417544344344e+00
-1.376428502798080444e+01 -8.634150773286819458e-02 -8.651611284818443437e-01
-1.397326940298080444e+01 -2.449108436703681946e-01 -8.724395708646568437e-01
-1.879468053579330444e+01 -1.146522171795368195e+00 -1.105929561099031844e+00
-1.630652135610580444e+01 -9.026256874203681946e-01 -9.801666216459068437e-01
-1.854602330923080444e+01 -1.461463578045368195e+00 -1.085299678286531844e+00
-1.845166295766830444e+01 -1.622352249920368195e+00 -1.076495356997469344e+00
-1.844421666860580444e+01 -1.798743851482868195e+00 -1.072344966372469344e+00
-2.100793737173080444e+01 -8.939586952328681946e-01 -1.137454219302156844e+00
-2.114685338735580444e+01 -1.113685257732868195e+00 -1.138796992739656844e+00
-1.396753209829330444e+01 -2.422252967953681946e-01 -8.131133989896568437e-01
-2.389990514516830444e+01 -1.959754593670368195e+00 -1.251132197817781844e+00
-1.630847448110580444e+01 -9.006725624203681946e-01 -9.101440386380943437e-01
-2.424426549673080444e+01 -2.486243851482868195e+00 -1.254885859927156844e+00
-2.274780553579330444e+01 -2.438758499920368195e+00 -1.183734126528719344e+00
-1.894214147329330444e+01 -1.896155960857868195e+00 -1.013064570864656844e+00
-2.127417272329330444e+01 -9.254528358578681946e-01 -1.056857295474031844e+00
-1.382788366079330444e+01 -9.146846085786819458e-02 -7.514221148099693437e-01
-2.222302526235580444e+01 -1.473792679607868195e+00 -1.084063716372469344e+00
-2.419751256704330444e+01 -2.003821976482868195e+00 -1.157138057192781844e+00
-1.631042760610580444e+01 -8.987194374203681946e-01 -8.397247271146568437e-01
-2.704968541860580444e+01 -2.988196976482868195e+00 -1.257159419497469344e+00
-2.724548619985580444e+01 -3.292274124920368195e+00 -1.258059688052156844e+00
-1.894433873891830444e+01 -1.893836624920368195e+00 -9.303771929349693437e-01
-2.250989049673080444e+01 -1.081946976482868195e+00 -1.008120723208406844e+00
-2.239941686391830444e+01 -1.282020218670368195e+00 -9.985839800443443437e-01
-1.374695104360580444e+01 -2.054821327328681946e-01 -6.869689898099693437e-01
-1.363537877798080444e+01 -3.155895546078681946e-01 -6.797210650052818437e-01
-1.631238073110580444e+01 -8.967663124203681946e-01 -7.696868853177818437e-01
-2.998059362173080444e+01 -3.511878617107868195e+00 -1.238208003481844344e+00
-3.016064733266830444e+01 -3.843055374920368195e+00 -1.236682124575594344e+00
-1.894653600454330444e+01 -1.891517288982868195e+00 -8.472473101224693437e-01
-2.509607213735580444e+01 -1.412025101482868195e+00 -9.907104448880943437e-01
-1.389184850454330444e+01 -9.671748429536819458e-02 -6.368743853177818437e-01
-2.216650670766830444e+01 -1.459144242107868195e+00 -8.872253374662193437e-01
-1.366662877798080444e+01 -3.187633827328681946e-01 -6.228210405912193437e-01
-1.631433385610580444e+01 -8.948131874203681946e-01 -6.992828325834068437e-01
-3.385290807485580444e+01 -4.203895218670368195e+00 -1.219317622622469344e+00
-3.811828893423080444e+01 -5.352088578045368195e+00 -1.337542720278719344e+00
-1.894873327016830444e+01 -1.889197953045368195e+00 -7.645446734037193437e-01
-2.252466100454330444e+01 -1.077552445232868195e+00 -8.114196734037193437e-01
-1.392431920766830444e+01 -9.928096085786819458e-02 -5.788757280912193437e-01
-1.381042760610580444e+01 -2.112194374203681946e-01 -5.723602251615318437e-01
-1.369787877798080444e+01 -3.218151405453681946e-01 -5.659362749662193437e-01
-1.631640905141830444e+01 -8.928600624203681946e-01 -6.292297319974693437e-01
-3.803479284048080444e+01 -4.950355179607868195e+00 -1.172900386294344344e+00
-4.304053014516830444e+01 -6.281776078045368195e+00 -1.287326045474031844e+00
-1.895105260610580444e+01 -1.886878617107868195e+00 -6.814147905912193437e-01
-2.213684362173080444e+01 -1.024695999920368195e+00 -7.045623735990318437e-01
-2.240185827016830444e+01 -1.272987015545368195e+00 -7.043487505521568437e-01
-1.384228795766830444e+01 -2.140270546078681946e-01 -5.148040728177818437e-01
-2.262427037954330444e+01 -1.739783890545368195e+00 -6.968872027005943437e-01
-1.631836217641830444e+01 -8.909069374203681946e-01 -5.591918902005943437e-01
-3.803271764516830444e+01 -4.944373734295368195e+00 -1.001483149966219344e+00
-3.418445104360580444e+01 -4.593787796795368195e+00 -9.127380327787193437e-01
-1.895324987173080444e+01 -1.884559281170368195e+00 -5.987121538724693437e-01
-1.432458776235580444e+01 -1.859248429536819458e-02 -4.718810991849693437e-01
-1.420862096548080444e+01 -1.349254921078681946e-01 -4.660675005521568437e-01
-1.387451452016830444e+01 -2.169567421078681946e-01 -4.566528277005943437e-01
-1.376098912954330444e+01 -3.281627967953681946e-01 -4.510375933255943437e-01
-1.632031530141830444e+01 -8.889538124203681946e-01 -4.887573198880943437e-01
-3.400842565298080444e+01 -4.216834671795368195e+00 -7.653228716459068437e-01
-3.495227330923080444e+01 -4.734290726482868195e+00 -7.702362017240318437e-01
-1.895544713735580444e+01 -1.882239945232868195e+00 -5.155670122709068437e-01
-1.383789342641830444e+01 4.573857039213180542e-02 -4.052764849271568437e-01
-1.420459264516830444e+01 -1.324840858578681946e-01 -4.060546831693443437e-01
-1.475305455923080444e+01 -3.456188514828681946e-01 -4.088012652005943437e-01
-1.526684850454330444e+01 -5.653454139828681946e-01 -4.107849077787193437e-01
-1.582116979360580444e+01 -8.024059608578681946e-01 -4.129211382474693437e-01
-1.471130651235580444e+01 -7.529674842953681946e-01 -3.960143999662193437e-01
-1.729187291860580444e+01 -1.381263382732868195e+00 -4.200927691068443437e-01
-1.821118444204330444e+01 -1.730750687420368195e+00 -4.249298052396568437e-01
-1.370190709829330444e+01 6.502567976713180542e-02 -3.457061724271568437e-01
-1.410241979360580444e+01 -1.164928749203681946e-01 -3.449890093412193437e-01
-1.393908971548080444e+01 -2.228161171078681946e-01 -3.401061968412193437e-01
-1.518530553579330444e+01 -5.503307655453681946e-01 -3.451415972318443437e-01
-1.580066198110580444e+01 -7.966686561703681946e-01 -3.450347857084068437e-01
-1.471985143423080444e+01 -7.524792030453681946e-01 -3.333923296537193437e-01
-1.465588659048080444e+01 -8.794323280453681946e-01 -3.284179644193443437e-01
-1.852368444204330444e+01 -1.790443070232868195e+00 -3.471252398099693437e-01
-1.374634069204330444e+01 6.124150007963180542e-02 -2.883636431302818437e-01
-1.428442662954330444e+01 -1.396862342953681946e-01 -2.861206011380943437e-01
-1.397180455923080444e+01 -2.257458046078681946e-01 -2.811004595365318437e-01
-1.528906530141830444e+01 -5.646129921078681946e-01 -2.803832964505943437e-01
-1.583032506704330444e+01 -7.994762733578681946e-01 -2.771179155912193437e-01
-1.472839635610580444e+01 -7.518688514828681946e-01 -2.703582720365318437e-01
-1.443713659048080444e+01 -8.359752967953681946e-01 -2.655670122709068437e-01
-1.817602819204330444e+01 -1.718421585857868195e+00 -2.660095171537193437e-01
-1.374792760610580444e+01 6.282841414213180542e-02 -2.303497271146568437e-01
-1.413879674673080444e+01 -1.177135780453681946e-01 -2.260467485990318437e-01
-1.459021276235580444e+01 -3.154674842953681946e-01 -2.210723833646568437e-01
-1.509839147329330444e+01 -5.323864296078681946e-01 -2.156555132474693437e-01
-1.574267858266830444e+01 -7.825084999203681946e-01 -2.095672564115318437e-01
-1.473694127798080444e+01 -7.513805702328681946e-01 -2.075988726224693437e-01
-1.447717565298080444e+01 -8.415905311703681946e-01 -2.039520220365318437e-01
-1.448376744985580444e+01 -9.794079139828681946e-01 -1.992370562162193437e-01
-1.374695104360580444e+01 6.478153914213180542e-02 -1.726562456693443437e-01
-1.369250768423080444e+01 -5.423701554536819458e-02 -1.688568071927818437e-01
-1.475598424673080444e+01 -3.380504921078681946e-01 -1.579009966459068437e-01
-1.536853307485580444e+01 -5.730358436703681946e-01 -1.492492632474693437e-01
-1.480981725454330444e+01 -6.232067421078681946e-01 -1.485015825834068437e-01
-1.474548619985580444e+01 -7.508922889828681946e-01 -1.444274859037193437e-01
-1.451770299673080444e+01 -8.472057655453681946e-01 -1.416503862943443437e-01
-1.452417272329330444e+01 -9.853893592953681946e-01 -1.371337847318443437e-01
-1.598865026235580444e+01 -2.192760780453681946e-01 -9.134215875528184370e-02
-1.585364049673080444e+01 -3.498913124203681946e-01 -8.818358941934434370e-02
-1.353991979360580444e+01 -1.562877967953681946e-01 -1.088134722318443437e-01
-1.449768346548080444e+01 -4.332653358578681946e-01 -9.369201227090684370e-02
-1.430188268423080444e+01 -5.358043983578681946e-01 -9.147948785684434370e-02
-1.414306920766830444e+01 -6.412731483578681946e-01 -8.891601129434434370e-02
-1.455835241079330444e+01 -8.528209999203681946e-01 -7.931823297403184370e-02
-4.467785924673080444e+01 -6.987464554607868195e+00 3.109863324556556563e-01
-1.429577916860580444e+01 -1.502640545368194580e-03 -4.877013727090684370e-02
-1.376355260610580444e+01 -6.034053117036819458e-02 -5.243224664590684370e-02
-1.368506139516830444e+01 -1.758190467953681946e-01 -4.933471246621934370e-02
-1.432019323110580444e+01 -4.032360389828681946e-01 -3.479308648965684370e-02
-1.412939733266830444e+01 -5.047985389828681946e-01 -3.335876031778184370e-02
-1.432593053579330444e+01 -6.719127967953681946e-01 -2.556151910684434370e-02
-1.459936803579330444e+01 -8.584362342953681946e-01 -1.628417535684434370e-02
-1.460595983266830444e+01 -9.975963905453681946e-01 -1.146239801309434370e-02
-1.441150182485580444e+01 -1.432002335786819458e-02 1.401977972128065630e-02
-1.601416295766830444e+01 -3.675915077328681946e-01 5.071716741659315630e-02
-1.434021276235580444e+01 -2.706676796078681946e-01 2.154236272909315630e-02
-1.353137487173080444e+01 -2.768932655453681946e-01 9.472660580655656304e-03
-1.483288854360580444e+01 -6.210094764828681946e-01 4.124145940878065630e-02
-1.558630651235580444e+01 -8.944469764828681946e-01 6.222229436971815630e-02
-1.464062780141830444e+01 -8.641735389828681946e-01 4.713135198690565630e-02
-1.464734166860580444e+01 -1.003699906170368195e+00 5.210571722128065630e-02
-1.428760045766830444e+01 3.380171954631805420e-03 7.203369573690565630e-02
-1.404211705923080444e+01 -9.488642960786819458e-02 7.037048772909315630e-02
-1.416723912954330444e+01 -2.432018592953681946e-01 7.812195257284315630e-02
-1.367651647329330444e+01 -2.978893592953681946e-01 7.038574651815565630e-02
-1.483948034048080444e+01 -6.200329139828681946e-01 1.048095746431556563e-01
-1.550122350454330444e+01 -8.771129921078681946e-01 1.270263715181556563e-01
-1.468188756704330444e+01 -8.699108436703681946e-01 1.105926556978431563e-01
-4.470129674673080444e+01 -6.971961624920368195e+00 9.215057416353431563e-01
-1.301538366079330444e+01 -7.126842811703681946e-01 -9.769775347318443437e-01
-1.302929967641830444e+01 -8.378063514828681946e-01 -9.752838091459068437e-01
-1.303723424673080444e+01 -9.625622108578681946e-01 -9.734985308255943437e-01
-1.304541295766830444e+01 -1.088538773357868195e+00 -9.717132525052818437e-01
-1.305346959829330444e+01 -1.214759476482868195e+00 -9.699127153959068437e-01
-1.306164830923080444e+01 -1.341712601482868195e+00 -9.680969194974693437e-01
-1.305530065298080444e+01 -1.466102249920368195e+00 -9.653655962552818437e-01
-1.303699010610580444e+01 -1.587318070232868195e+00 -9.622222857084068437e-01
-1.450427526235580444e+01 -1.010902054607868195e+00 -1.007205195864656844e+00
-1.449463170766830444e+01 -1.146522171795368195e+00 -1.003955073794344344e+00
-1.449206823110580444e+01 -1.284095413982868195e+00 -1.000765986880281844e+00
-1.448218053579330444e+01 -1.421058304607868195e+00 -9.974853472318443437e-01
-1.447241491079330444e+01 -1.558143265545368195e+00 -9.941894487943443437e-01
-1.446252721548080444e+01 -1.695594437420368195e+00 -9.908935503568443437e-01
-1.444555944204330444e+01 -1.832069046795368195e+00 -9.875213579740318437e-01
-1.443554967641830444e+01 -1.970252640545368195e+00 -9.841949419584068437e-01
-1.627295202016830444e+01 -1.364905960857868195e+00 -1.038180537661531844e+00
-1.633691686391830444e+01 -1.534461624920368195e+00 -1.038333125552156844e+00
-1.634753698110580444e+01 -1.694129593670368195e+00 -1.035632319888094344e+00
-1.633716100454330444e+01 -1.850623734295368195e+00 -1.031817622622469344e+00
-1.632690709829330444e+01 -2.006995804607868195e+00 -1.028002925356844344e+00
-1.631653112173080444e+01 -2.163856156170368195e+00 -1.024172969302156844e+00
-1.630615514516830444e+01 -2.321815140545368195e+00 -1.020327754458406844e+00
-1.629577916860580444e+01 -2.479774124920368195e+00 -1.016482539614656844e+00
-1.844446080923080444e+01 -1.799354203045368195e+00 -1.072344966372469344e+00
-1.845032018423080444e+01 -1.979163773357868195e+00 -1.068331904849031844e+00
-1.844470494985580444e+01 -2.157264359295368195e+00 -1.064166255434969344e+00
-1.843908971548080444e+01 -2.336829788982868195e+00 -1.059970088442781844e+00
-1.845959752798080444e+01 -2.522742874920368195e+00 -1.057009883364656844e+00
-1.850158971548080444e+01 -2.715491898357868195e+00 -1.055041499575594344e+00
-1.854419225454330444e+01 -2.910804398357868195e+00 -1.053027339419344344e+00
-1.857116979360580444e+01 -3.102943070232868195e+00 -1.050723262270906844e+00
-1.894177526235580444e+01 -1.896644242107868195e+00 -1.013034053286531844e+00
-2.163440221548080444e+01 -2.649573929607868195e+00 -1.125125117739656844e+00
-2.168579381704330444e+01 -2.873572953045368195e+00 -1.122485347231844344e+00
-2.173791784048080444e+01 -3.100501663982868195e+00 -1.119830317934969344e+00
-2.212463659048080444e+01 -3.410071976482868195e+00 -1.131335444888094344e+00
-2.229992955923080444e+01 -3.675330765545368195e+00 -1.133715815981844344e+00
-2.221997350454330444e+01 -3.878699906170368195e+00 -1.125262446841219344e+00
-2.213122838735580444e+01 -4.078284867107868195e+00 -1.116458125552156844e+00
-1.894397252798080444e+01 -1.894324906170368195e+00 -9.303466753568443437e-01
-2.940747350454330444e+01 -4.288367874920368195e+00 -1.327990718325594344e+00
-2.795202916860580444e+01 -4.259315140545368195e+00 -1.265383906802156844e+00
-2.742834752798080444e+01 -4.418372757732868195e+00 -1.238818355044344344e+00
-2.698535436391830444e+01 -4.586463578045368195e+00 -1.215548701724031844e+00
-2.717248815298080444e+01 -4.905921585857868195e+00 -1.216082759341219344e+00
-2.739502233266830444e+01 -5.241004593670368195e+00 -1.217776484927156844e+00
-2.763354772329330444e+01 -5.585731156170368195e+00 -1.220614619692781844e+00
-1.894629186391830444e+01 -1.892005570232868195e+00 -8.472167925443443437e-01
-3.357727330923080444e+01 -5.164100296795368195e+00 -1.336825557192781844e+00
-3.341565221548080444e+01 -5.465247757732868195e+00 -1.323031611880281844e+00
-3.593762487173080444e+01 -6.388465531170368195e+00 -1.398501582583406844e+00
-3.243701452016830444e+01 -5.904456742107868195e+00 -1.273913569888094344e+00
-3.548327916860580444e+01 -7.005286820232868195e+00 -1.365435786684969344e+00
-3.611426061391830444e+01 -7.536658890545368195e+00 -1.376834102114656844e+00
-3.644153112173080444e+01 -7.998572953045368195e+00 -1.378131099184969344e+00
-1.894848912954330444e+01 -1.889808304607868195e+00 -7.645294146146568437e-01
-4.123694127798080444e+01 -6.774695999920368195e+00 -1.408145137270906844e+00
-4.488574498891830444e+01 -7.999061234295368195e+00 -1.501391597231844344e+00
-4.766626256704330444e+01 -9.102210648357868195e+00 -1.568820186099031844e+00
-3.244043248891830444e+01 -5.900306351482868195e+00 -1.126025386294344344e+00
-4.874414342641830444e+01 -1.035391963273286819e+01 -1.573580928286531844e+00
-4.917480748891830444e+01 -1.097367060929536819e+01 -1.573596187075594344e+00
-4.943542760610580444e+01 -1.155655635148286819e+01 -1.567492671450594344e+00
-1.895068639516830444e+01 -1.887488968670368195e+00 -6.813842730130943437e-01
-4.335595983266830444e+01 -7.215003617107868195e+00 -1.271426387270906844e+00
-5.301343053579330444e+01 -9.789954788982868195e+00 -1.492327876528719344e+00
-5.306042760610580444e+01 -1.034464228898286819e+01 -1.478762813052156844e+00
-3.244397252798080444e+01 -5.896033890545368195e+00 -9.789306597318443437e-01
-6.925110143423080444e+01 -1.552994502335786819e+01 -1.825656123599031844e+00
-5.405407994985580444e+01 -1.225113642960786819e+01 -1.457202144106844344e+00
-6.205053991079330444e+01 -1.500638545304536819e+01 -1.623294063052156844e+00
-1.895288366079330444e+01 -1.885169632732868195e+00 -5.986816362943443437e-01
-4.343249791860580444e+01 -7.224525101482868195e+00 -1.075686641177156844e+00
-5.301343053579330444e+01 -9.781654007732868195e+00 -1.249270625552156844e+00
-5.304199498891830444e+01 -1.033206904679536819e+01 -1.234576411684969344e+00
-3.244751256704330444e+01 -5.891883499920368195e+00 -8.318206743802818437e-01
-7.573462194204330444e+01 -1.715677607804536819e+01 -1.624179072817781844e+00
-5.405969518423080444e+01 -1.224381221085786819e+01 -1.207019038638094344e+00
-6.204834264516830444e+01 -1.499564326554536819e+01 -1.334384150942781844e+00
-1.895520299673080444e+01 -1.882850296795368195e+00 -5.155364946927818437e-01
-4.350989049673080444e+01 -7.234168656170368195e+00 -8.782226519193443437e-01
-2.166601842641830444e+01 -2.849647171795368195e+00 -5.446350054349693437e-01
-2.425110143423080444e+01 -3.662269242107868195e+00 -5.755645708646568437e-01
-2.926623815298080444e+01 -5.117347367107868195e+00 -6.391021685209068437e-01
-4.460327428579330444e+01 -9.285316117107868195e+00 -8.416168169584068437e-01
-5.276684850454330444e+01 -1.189493525773286819e+01 -9.380371050443443437e-01
-6.086523717641830444e+01 -1.466165889054536819e+01 -1.028506465395906844e+00
-1.821789830923080444e+01 -1.732703812420368195e+00 -4.249908403959068437e-01
-1.946924108266830444e+01 -2.171790726482868195e+00 -4.325744585599693437e-01
-2.124731725454330444e+01 -2.754066117107868195e+00 -4.446136431302818437e-01
-2.404980748891830444e+01 -3.612098343670368195e+00 -4.653961138334068437e-01
-2.936316198110580444e+01 -5.136268265545368195e+00 -5.078918413724693437e-01
-4.608545202016830444e+01 -9.652137406170368195e+00 -6.501037554349693437e-01
-7.984851354360580444e+01 -1.900748408585786819e+01 -9.300720171537193437e-01
-8.841003698110580444e+01 -2.218814814835786819e+01 -9.766876177396568437e-01
-1.853052037954330444e+01 -1.792518265545368195e+00 -3.471404985990318437e-01
-1.973681920766830444e+01 -2.225135453045368195e+00 -3.483154253568443437e-01
-2.124939244985580444e+01 -2.751380570232868195e+00 -3.507720903959068437e-01
-2.350769323110580444e+01 -3.483192093670368195e+00 -3.554565386380943437e-01
-6.719604772329330444e+01 -1.427091182023286819e+01 -5.510436968412193437e-01
-7.114209264516830444e+01 -1.596231807023286819e+01 -5.463439898099693437e-01
-9.055200475454330444e+01 -2.275931514054536819e+01 -5.684234575834068437e-01
-1.818408483266830444e+01 -1.720618851482868195e+00 -2.660095171537193437e-01
-1.961694616079330444e+01 -2.197059281170368195e+00 -2.616607622709068437e-01
-2.160156530141830444e+01 -2.825843460857868195e+00 -2.566406206693443437e-01
-6.621777623891830444e+01 -1.334110224992036819e+01 -2.606841997709068437e-01
-6.708264440298080444e+01 -1.423282588273286819e+01 -2.385742144193443437e-01
-7.261914342641830444e+01 -1.632303584367036819e+01 -2.137329058255943437e-01
-9.301098912954330444e+01 -2.341641963273286819e+01 -1.417877153959068437e-01
-1.448388952016830444e+01 -9.798961952328681946e-01 -1.992217974271568437e-01
-6.558703893423080444e+01 -1.184000361710786819e+01 -2.902217349031843696e-03
-6.644482702016830444e+01 -1.269876826554536819e+01 2.294617132284315630e-02
-6.625342077016830444e+01 -1.333890498429536819e+01 4.490356878378065630e-02
-6.940796178579330444e+01 -1.478311885148286819e+01 8.282165960409315630e-02
-7.099804967641830444e+01 -1.590323603898286819e+01 1.150024457369056563e-01
-7.127466100454330444e+01 -1.671842158585786819e+01 1.412628217134681563e-01
-1.452429479360580444e+01 -9.858776405453681946e-01 -1.371185259427818437e-01
-1.453088659048080444e+01 -1.124915726482868195e+00 -1.323272661771568437e-01
-6.651953405141830444e+01 -1.270487178117036819e+01 3.309448285494056563e-01
-6.603161901235580444e+01 -1.327738154679536819e+01 3.500183148775306563e-01
-7.144360631704330444e+01 -1.600394404679536819e+01 4.505432172212806563e-01
-4.467724889516830444e+01 -6.988929398357868195e+00 3.110321088228431563e-01
-1.457165807485580444e+01 -1.131385453045368195e+00 -6.965941949746934370e-02
-6.635327428579330444e+01 -1.265799678117036819e+01 6.347015424165931563e-01
-6.307104772329330444e+01 -1.258487666398286819e+01 6.133544965181556563e-01
-7.141418737173080444e+01 -1.598514521867036819e+01 7.815216107759681563e-01
-7.223364537954330444e+01 -1.694669307023286819e+01 8.202636762056556563e-01
-1.460608190298080444e+01 -9.980846717953681946e-01 -1.144713922403184370e-02
-1.461291784048080444e+01 -1.137977249920368195e+00 -6.274409731844343696e-03
-6.555102819204330444e+01 -1.247135127335786819e+01 9.268615765962806563e-01
-2.478198522329330444e+01 -3.758704788982868195e+00 1.930969281587806563e-01
-5.730090612173080444e+01 -1.183524287492036819e+01 8.195007367525306563e-01
-7.183545202016830444e+01 -1.607950557023286819e+01 1.122631840268155656e+00
-7.263952916860580444e+01 -1.704129756242036819e+01 1.165936283627530656e+00
-1.464746373891830444e+01 -1.004188187420368195e+00 5.212097601034315630e-02
-1.462243932485580444e+01 -1.137855179607868195e+00 5.677490667440565630e-02
-5.319104284048080444e+01 -9.746863968670368195e+00 9.450805707369056563e-01
-1.498828405141830444e+01 -1.501502640545368195e+00 7.545166448690565630e-02
-5.730261510610580444e+01 -1.182657588273286819e+01 1.083432011166593156e+00
-7.256714147329330444e+01 -1.625186885148286819e+01 1.473370365658780656e+00
-4.469873327016830444e+01 -6.972938187420368195e+00 9.214904828462806563e-01
-6.667578405141830444e+01 -1.201712764054536819e+01 1.535839848080655656e+00
-1.528625768423080444e+01 -1.420570023357868195e+00 1.430023236665931563e-01
-1.496887487173080444e+01 -1.494910843670368195e+00 1.397979779634681563e-01
-6.952307409048080444e+01 -1.475577510148286819e+01 1.696072392025968156e+00
-1.303723424673080444e+01 -1.587806351482868195e+00 -9.622222857084068437e-01
-1.304529088735580444e+01 -1.716712601482868195e+00 -9.604370073880943437e-01
-1.304626744985580444e+01 -1.844520218670368195e+00 -9.585143999662193437e-01
-1.304724401235580444e+01 -1.973670609295368195e+00 -9.565612749662193437e-01
-1.304822057485580444e+01 -2.103065140545368195e+00 -9.546081499662193437e-01
-1.304919713735580444e+01 -2.233436234295368195e+00 -9.526550249662193437e-01
-1.305017369985580444e+01 -2.364905960857868195e+00 -9.506713823880943437e-01
-1.304394811391830444e+01 -2.494422562420368195e+00 -9.485504107084068437e-01
-1.443567174673080444e+01 -1.970740921795368195e+00 -9.841949419584068437e-01
-1.441784948110580444e+01 -2.107337601482868195e+00 -9.807922319974693437e-01
-1.440698522329330444e+01 -2.246497757732868195e+00 -9.774505571927818437e-01
-1.438904088735580444e+01 -2.384559281170368195e+00 -9.740173296537193437e-01
-1.437976354360580444e+01 -2.525428421795368195e+00 -9.710723833646568437e-01
-1.438635534048080444e+01 -2.672156937420368195e+00 -9.689819292630943437e-01
-1.438391393423080444e+01 -2.817420609295368195e+00 -9.667083696927818437e-01
-1.439050573110580444e+01 -2.966224320232868195e+00 -9.645873980130943437e-01
-1.629577916860580444e+01 -2.480384476482868195e+00 -1.016467280825594344e+00
-1.628381627798080444e+01 -2.638587601482868195e+00 -1.012896724184969344e+00
-1.629614537954330444e+01 -2.804725296795368195e+00 -1.010546870669344344e+00
-1.630871862173080444e+01 -2.972816117107868195e+00 -1.008181758364656844e+00
-1.632129186391830444e+01 -3.141517288982868195e+00 -1.005801387270906844e+00
-1.633410924673080444e+01 -3.311683304607868195e+00 -1.003390498599031844e+00
-1.634692662954330444e+01 -3.483802445232868195e+00 -1.000964351138094344e+00
-1.634668248891830444e+01 -3.652015335857868195e+00 -9.978820757474693437e-01
-1.857153600454330444e+01 -3.103675492107868195e+00 -1.050723262270906844e+00
-1.861719030141830444e+01 -3.302650101482868195e+00 -1.048739619692781844e+00
-1.864721959829330444e+01 -3.499305374920368195e+00 -1.046420283755281844e+00
-1.867773717641830444e+01 -3.698402054607868195e+00 -1.044085689028719344e+00
-1.870825475454330444e+01 -3.898841507732868195e+00 -1.041735835513094344e+00
-1.873926061391830444e+01 -4.101234085857868195e+00 -1.039355464419344344e+00
-1.877063268423080444e+01 -4.306312210857868195e+00 -1.036944575747469344e+00
-1.878552526235580444e+01 -4.506873734295368195e+00 -1.034228511294344344e+00
-2.213061803579330444e+01 -4.078773148357868195e+00 -1.116412349184969344e+00
-2.202282994985580444e+01 -4.272254593670368195e+00 -1.107211299380281844e+00
-2.203637975454330444e+01 -4.500648148357868195e+00 -1.103045649966219344e+00
-2.204309362173080444e+01 -4.729529984295368195e+00 -1.098559565981844344e+00
-2.207165807485580444e+01 -4.965980179607868195e+00 -1.094927974184969344e+00
-2.213025182485580444e+01 -5.214393265545368195e+00 -1.092486567934969344e+00
-2.218970006704330444e+01 -5.466712601482868195e+00 -1.090014644106844344e+00
-2.224975866079330444e+01 -5.721229203045368195e+00 -1.087512202700594344e+00
-2.763574498891830444e+01 -5.587318070232868195e+00 -1.220675654849031844e+00
-2.766137975454330444e+01 -5.877845413982868195e+00 -1.214587398013094344e+00
-2.765491002798080444e+01 -6.161170609295368195e+00 -1.207965083559969344e+00
-2.764831823110580444e+01 -6.447181351482868195e+00 -1.201266475161531844e+00
-2.764184850454330444e+01 -6.733680374920368195e+00 -1.194567866763094344e+00
-2.763525670766830444e+01 -7.022010453045368195e+00 -1.187823481997469344e+00
-2.762854284048080444e+01 -7.312904007732868195e+00 -1.181002803286531844e+00
-2.758825963735580444e+01 -7.592689163982868195e+00 -1.173678584536531844e+00
-3.644372838735580444e+01 -8.000404007732868195e+00 -1.378161616763094344e+00
-3.660595983266830444e+01 -8.424476273357868195e+00 -1.374362178286531844e+00
