-1.235284090042114258e+01 1.767493456602096558e+00 -5.884772289078625818e-01
-1.239239168167114258e+01 1.653235644102096558e+00 -5.864325511734875818e-01
-1.254204988479614258e+01 1.535681933164596558e+00 -5.876227367203625818e-01
-1.237261629104614258e+01 1.424597948789596558e+00 -5.793372142594250818e-01
-1.078545808792114258e+01 1.370887011289596558e+00 -5.298071849625500818e-01
-1.529351472854614258e+01 1.054602831602096558e+00 -6.571875560563000818e-01
-1.530120515823364258e+01 9.106819331645965576e-01 -6.533270824234875818e-01
-1.395013093948364258e+01 1.901648730039596558e+00 -5.808020580094250818e-01
-1.243938875198364258e+01 1.769202440977096558e+00 -5.382452953141125818e-01
-1.241192293167114258e+01 1.654578417539596558e+00 -5.342780101578625818e-01
-1.250054597854614258e+01 1.538001269102096558e+00 -5.332251537125500818e-01
-1.955108308792114258e+01 1.224280565977096558e+00 -7.052222240250500818e-01
-1.078655672073364258e+01 1.372229784727096558e+00 -4.845190990250500818e-01
-1.524285554885864258e+01 1.058997362852096558e+00 -5.899420726578625818e-01
-1.525042390823364258e+01 9.155647456645965576e-01 -5.860510814469250818e-01
-1.390813875198364258e+01 1.902869433164596558e+00 -5.198126781266125818e-01
-1.248907136917114258e+01 1.770789355039596558e+00 -4.861670482438000818e-01
-1.236932039260864258e+01 1.656531542539596558e+00 -4.803839671891125818e-01
-1.251409578323364258e+01 1.539344042539596558e+00 -4.800787914078625818e-01
-1.496148347854614258e+01 1.355262011289596558e+00 -5.263281810563000818e-01
-1.078777742385864258e+01 1.373572558164596558e+00 -4.389868724625500818e-01
-1.519231843948364258e+01 1.063391894102096558e+00 -5.228339183609875818e-01
-2.310894441604614258e+01 4.623176753520965576e-01 -6.722632396500500818e-01
-1.212981843948364258e+01 1.883216112852096558e+00 -4.303809154313000818e-01
-1.247369050979614258e+01 1.772254198789596558e+00 -4.328528392594250818e-01
-1.243645906448364258e+01 1.657508105039596558e+00 -4.289465892594250818e-01
-1.240594148635864258e+01 1.542762011289596558e+00 -4.251471507828625818e-01
-1.252056550979614258e+01 1.425086230039596558e+00 -4.236517894547375818e-01
-1.078899812698364258e+01 1.374793261289596558e+00 -3.936987865250500818e-01
-1.514239168167114258e+01 1.067786425352096558e+00 -4.565497386734875818e-01
-2.194414949417114258e+01 5.326301753520965576e-01 -5.531683910172375818e-01
-9.541927814483642578e+00 1.853186815977096558e+00 -3.471289623063000818e-01
-9.740047931671142578e+00 1.767737597227096558e+00 -3.470068919938000818e-01
-9.948177814483642578e+00 1.678260058164596558e+00 -3.471137035172375818e-01
-1.016668367385864258e+01 1.584021776914596558e+00 -3.470068919938000818e-01
-1.039519929885864258e+01 1.485511034727096558e+00 -3.468695628922375818e-01
-1.063543367385864258e+01 1.381873339414596558e+00 -3.467474925797375818e-01
-1.088848543167114258e+01 1.272498339414596558e+00 -3.463507640641125818e-01
-1.113250398635864258e+01 1.158972948789596558e+00 -3.459692943375500818e-01
-9.446835041046142578e+00 1.853186815977096558e+00 -3.068762767594250818e-01
-9.640560626983642578e+00 1.768714159727096558e+00 -3.058386791031750818e-01
-9.843441486358642578e+00 1.680213183164596558e+00 -3.047553050797375818e-01
-1.005669832229614258e+01 1.587195605039596558e+00 -3.036108959000500818e-01
-1.027984285354614258e+01 1.490027636289596558e+00 -3.024207103531750818e-01
-1.051409578323364258e+01 1.387854784727096558e+00 -3.011694896500500818e-01
-1.076470613479614258e+01 1.279822558164596558e+00 -2.998572337906750818e-01
-1.103484773635864258e+01 1.165930956602096558e+00 -2.985297191422375818e-01
-9.409237384796142578e+00 1.853797167539596558e+00 -2.674628246109875818e-01
-9.621151447296142578e+00 1.769812792539596558e+00 -2.657996166031750818e-01
-9.844295978546142578e+00 1.681433886289596558e+00 -2.638312328141125818e-01
-1.008013582229614258e+01 1.588050097227096558e+00 -2.617560375016125818e-01
-1.032806062698364258e+01 1.489905565977096558e+00 -2.595740306656750818e-01
-1.058990144729614258e+01 1.386267870664596558e+00 -2.572699535172375818e-01
-1.083160066604614258e+01 1.277991503477096558e+00 -2.547675121109875818e-01
-1.114031648635864258e+01 1.161292284727096558e+00 -2.519598949234875818e-01
-9.485897541046142578e+00 1.855872362852096558e+00 -2.284308421891125818e-01
-9.701961994171142578e+00 1.771155565977096558e+00 -2.255469310563000818e-01
-9.929378986358642578e+00 1.681922167539596558e+00 -2.225104320328625818e-01
-1.016985750198364258e+01 1.587683886289596558e+00 -2.193060863297375818e-01
-1.040496492385864258e+01 1.489051073789596558e+00 -2.159796703141125818e-01
-1.063933992385864258e+01 1.385779589414596558e+00 -2.125159251969250818e-01
-1.083282136917114258e+01 1.279212206602096558e+00 -2.090521800797375818e-01
-1.112493562698364258e+01 1.163611620664596558e+00 -2.051154125016125818e-01
-9.491756916046142578e+00 1.857093065977096558e+00 -1.889410960953625818e-01
-9.682796955108642578e+00 1.772254198789596558e+00 -1.854315746109875818e-01
-9.882259845733642578e+00 1.683509081602096558e+00 -1.815405834000500818e-01
-1.009185457229614258e+01 1.590247362852096558e+00 -1.774512279313000818e-01
-1.031084871292114258e+01 1.492957323789596558e+00 -1.731787669938000818e-01
-1.054058504104614258e+01 1.390662401914596558e+00 -1.686926830094250818e-01
-1.078277254104614258e+01 1.282996386289596558e+00 -1.639624584000500818e-01
-1.101958894729614258e+01 1.171057909727096558e+00 -1.589117992203625818e-01
-9.414974689483642578e+00 1.857215136289596558e+00 -1.505042064469250818e-01
-9.602230548858642578e+00 1.773108690977096558e+00 -1.459570873063000818e-01
-9.797909259796142578e+00 1.685340136289596558e+00 -1.411963451188000818e-01
-1.001897859573364258e+01 1.592810839414596558e+00 -1.360236156266125818e-01
-1.027703523635864258e+01 1.495032519102096558e+00 -1.303015697281750818e-01
-1.055022859573364258e+01 1.391638964414596558e+00 -1.242285716813000818e-01
-1.084100008010864258e+01 1.281531542539596558e+00 -1.177741039078625818e-01
-1.112725496292114258e+01 1.166297167539596558e+00 -1.111975658219250818e-01
-9.418636798858642578e+00 1.858313769102096558e+00 -1.113196361344250818e-01
-9.643002033233642578e+00 1.774451464414596558e+00 -1.053229320328625818e-01
-9.879086017608642578e+00 1.685950487852096558e+00 -9.923467519692508176e-02
-1.012994050979614258e+01 1.592078417539596558e+00 -9.253606679848758176e-02
-1.039434480667114258e+01 1.493201464414596558e+00 -8.547124746255008176e-02
-1.067461824417114258e+01 1.388343065977096558e+00 -7.799444082192508176e-02
-3.385491609573364258e+01 2.043831050395965576e-01 3.213891040999499182e-01
-2.364983797073364258e+01 4.559700191020965576e-01 1.536034595686999182e-01
-9.515926837921142578e+00 1.860755175352096558e+00 -7.025823476723758176e-02
-9.744930744171142578e+00 1.775916308164596558e+00 -6.331548574380008176e-02
-1.245537996292114258e+01 1.669470995664596558e+00 -5.164240626612581764e-03
-1.246758699417114258e+01 1.553992480039596558e+00 -1.502131251612581764e-03
-1.931011629104614258e+01 1.255774706602096558e+00 1.461724292952624182e-01
-1.360296297073364258e+01 1.282141894102096558e+00 2.956476327963741824e-02
-3.599297761917114258e+01 1.089241206645965576e-01 5.186242115218249182e-01
-2.368059968948364258e+01 4.573127925395965576e-01 2.590111744124499182e-01
-1.363384675979614258e+01 9.932014644145965576e-01 -1.074927424220362582e+00
-1.247161531448364258e+01 9.465706050395965576e-01 -9.957037914078625818e-01
-1.252874422073364258e+01 8.262092769145965576e-01 -9.965735423844250818e-01
-1.258684968948364258e+01 7.038948237895965576e-01 -9.974738109391125818e-01
-1.264544343948364258e+01 5.807258784770965576e-01 -9.983588207047375818e-01
-1.268218660354614258e+01 4.584114253520965576e-01 -9.978247630875500818e-01
-1.268609285354614258e+01 3.386604487895965576e-01 -9.951392162125500818e-01
-1.268426179885864258e+01 2.198860347270965576e-01 -9.923926341813000818e-01
-1.500603914260864258e+01 9.137336909770965576e-01 -1.099616144923487582e+00
-1.459246492385864258e+01 8.014290034770965576e-01 -1.071036433009425082e+00
-1.422185945510864258e+01 6.936409175395965576e-01 -1.044913386134425082e+00
-1.388677644729614258e+01 5.895149409770965576e-01 -1.021430109767237582e+00
-1.373125886917114258e+01 4.745247066020965576e-01 -1.008872126368800082e+00
-1.379339265823364258e+01 3.385383784770965576e-01 -1.009345148829737582e+00
-1.336761140823364258e+01 2.589485347270965576e-01 -9.811469066422375818e-01
-1.391375398635864258e+01 6.217119097709655762e-02 -1.010275934962550082e+00
-1.516241121292114258e+01 9.064094722270965576e-01 -1.043250178126612582e+00
-1.510125398635864258e+01 7.681038081645965576e-01 -1.036215876368800082e+00
-1.504058504104614258e+01 6.307747066020965576e-01 -1.029227350978175082e+00
-1.581499910354614258e+01 4.194709956645965576e-01 -1.068564509181300082e+00
-1.744561433792114258e+01 1.078254878520965576e-01 -1.154807184962550082e+00
-1.755730867385864258e+01 -7.100751996040344238e-02 -1.156714533595362582e+00
-1.336932039260864258e+01 2.605354487895965576e-01 -9.233313548844250818e-01
-1.558929109573364258e+01 -1.530387699604034424e-01 -1.041007136134425082e+00
-1.532134675979614258e+01 8.990852534770965576e-01 -9.859534251969250818e-01
-1.735454988479614258e+01 6.147834956645965576e-01 -1.086295222071925082e+00
-1.744292879104614258e+01 4.431526362895965576e-01 -1.086554621485987582e+00
-1.579412508010864258e+01 4.233772456645965576e-01 -9.984351146500500818e-01
-1.766790437698364258e+01 8.817216753959655762e-02 -1.089346979884425082e+00
-1.778277254104614258e+01 -9.322431683540344238e-02 -1.090766047267237582e+00
-1.337090730667114258e+01 2.621223628520965576e-01 -8.655158031266125818e-01
-2.041192293167114258e+01 -7.748649418354034424e-01 -1.213370417384425082e+00
-1.574383211135864258e+01 8.761360347270965576e-01 -9.392310130875500818e-01
-1.756963777542114258e+01 6.023323237895965576e-01 -1.020712946681300082e+00
-1.766350984573364258e+01 4.280159175395965576e-01 -1.020697687892237582e+00
-1.577337312698364258e+01 4.274055659770965576e-01 -9.289008128922375818e-01
-1.789483308792114258e+01 6.803056597709655762e-02 -1.022482966212550082e+00
-2.041668367385864258e+01 -3.778922855854034424e-01 -1.133246516017237582e+00
-1.337249422073364258e+01 2.638313472270965576e-01 -8.080206859391125818e-01
-2.067266511917114258e+01 -8.056266605854034424e-01 -1.134451960353175082e+00
-1.564178133010864258e+01 8.841926753520965576e-01 -8.667517650406750818e-01
-1.779168367385864258e+01 5.893928706645965576e-01 -9.530402171891125818e-01
-1.789117097854614258e+01 4.125129878520965576e-01 -9.527045238297375818e-01
-1.856975984573364258e+01 1.813118159770965576e-01 -9.763709056656750818e-01
-2.056768465042114258e+01 -1.935661137104034424e-01 -1.054205988673487582e+00
-2.067290925979614258e+01 -4.029166996479034424e-01 -1.053244684962550082e+00
-1.337420320510864258e+01 2.654182612895965576e-01 -7.502051341813000818e-01
-2.093890047073364258e+01 -8.371208012104034424e-01 -1.053870295314112582e+00
-1.554058504104614258e+01 8.921272456645965576e-01 -7.948981273453625818e-01
-1.367095613479614258e+01 8.740608394145965576e-01 -7.207556712906750818e-01
-2.053802156448364258e+01 2.070686519145965576e-01 -9.731818187516125818e-01
-1.573211336135864258e+01 4.352180659770965576e-01 -7.900610912125500818e-01
-1.582354402542114258e+01 2.772590816020965576e-01 -7.893744457047375818e-01
-2.093450593948364258e+01 -4.285514652729034424e-01 -9.715796459000500818e-01
-1.337579011917114258e+01 2.670051753520965576e-01 -6.926794994156750818e-01
-2.217632722854614258e+01 -9.937370121479034424e-01 -1.005194758204737582e+00
-1.535259675979614258e+01 9.051887691020965576e-01 -7.214575755875500818e-01
-1.536040925979614258e+01 7.602913081645965576e-01 -7.177496898453625818e-01
-1.360284090042114258e+01 7.534553706645965576e-01 -6.560431468766125818e-01
-2.130035066604614258e+01 -5.526044964790344238e-02 -9.016333568375500818e-01
-2.200433015823364258e+01 -3.294303715229034424e-01 -9.185706126969250818e-01
-1.569317293167114258e+01 1.433479487895965576e-01 -7.119971263688000818e-01
-1.337737703323364258e+01 2.685920894145965576e-01 -6.351691234391125818e-01
-2.475054597854614258e+01 -1.322228223085403442e+00 -9.874030101578625818e-01
-1.530120515823364258e+01 9.101936519145965576e-01 -6.533118236344250818e-01
-2.138238191604614258e+01 3.513557612895965576e-01 -8.215094554703625818e-01
-1.374688386917114258e+01 7.439338862895965576e-01 -6.016913402359875818e-01
-1.569097566604614258e+01 4.430305659770965576e-01 -6.520453441422375818e-01
-1.329986238479614258e+01 5.297004878520965576e-01 -5.822058666031750818e-01
-2.242596101760864258e+01 -5.845573246479034424e-01 -8.268958080094250818e-01
-1.337896394729614258e+01 2.701790034770965576e-01 -5.773535716813000818e-01
-2.219158601760864258e+01 -9.894645512104034424e-01 -8.085089671891125818e-01
-1.525054597854614258e+01 9.150764644145965576e-01 -5.860358226578625818e-01
-1.525823640823364258e+01 7.712776362895965576e-01 -5.821600902359875818e-01
-1.389422273635864258e+01 7.341682612895965576e-01 -5.461188304703625818e-01
-1.565057039260864258e+01 4.486458003520965576e-01 -5.830756175797375818e-01
-1.340044832229614258e+01 5.216438472270965576e-01 -5.274115550797375818e-01
-1.341350984573364258e+01 3.944465816020965576e-01 -5.241461742203625818e-01
-1.338067293167114258e+01 2.718879878520965576e-01 -5.198279369156750818e-01
-2.180547761917114258e+01 -9.367301762104034424e-01 -7.016821849625500818e-01
-2.311431550979614258e+01 4.612190425395965576e-01 -6.723547923844250818e-01
-2.230450105667114258e+01 2.943489253520965576e-01 -6.505042064469250818e-01
-1.347637605667114258e+01 7.685920894145965576e-01 -4.782324779313000818e-01
-1.382317781448364258e+01 6.116096675395965576e-01 -4.810095775406750818e-01
-1.350310945510864258e+01 5.133430659770965576e-01 -4.714423167984875818e-01
-1.351665925979614258e+01 3.851692378520965576e-01 -4.680396068375500818e-01
-1.338225984573364258e+01 2.734749019145965576e-01 -4.619971263688000818e-01
-1.399126863479614258e+01 6.937333941459655762e-02 -4.689551341813000818e-01
-2.194524812698364258e+01 5.318977534770965576e-01 -5.531531322281750818e-01
-2.219524812698364258e+01 3.047249019145965576e-01 -5.506506908219250818e-01
-2.644146394729614258e+01 -2.387321293354034424e-01 -6.048041332047375818e-01
-1.394695711135864258e+01 6.025764644145965576e-01 -4.233160960953625818e-01
-1.246136140823364258e+01 6.171028316020965576e-01 -3.992529857438000818e-01
-1.280572175979614258e+01 4.636604487895965576e-01 -4.004431712906750818e-01
-1.317327547073364258e+01 2.999641597270965576e-01 -4.017249095719250818e-01
-1.350115633010864258e+01 1.340706050395965576e-01 -4.022894847672375818e-01
-1.113433504104614258e+01 1.158484667539596558e+00 -3.459845531266125818e-01
-1.140105867385864258e+01 1.038367480039596558e+00 -3.455878246109875818e-01
-1.168328523635864258e+01 9.114143550395965576e-01 -3.454504955094250818e-01
-1.198199129104614258e+01 7.767708003520965576e-01 -3.450232494156750818e-01
-1.229717683792114258e+01 6.348030269145965576e-01 -3.445807445328625818e-01
-1.263152742385864258e+01 4.841682612895965576e-01 -3.441077220719250818e-01
-1.298699617385864258e+01 3.236458003520965576e-01 -3.432837474625500818e-01
-1.336517000198364258e+01 1.533577144145965576e-01 -3.427496898453625818e-01
-1.103692293167114258e+01 1.165442675352096558e+00 -2.985297191422375818e-01
-1.132806062698364258e+01 1.044715136289596558e+00 -2.970496166031750818e-01
-1.163714265823364258e+01 9.165413081645965576e-01 -2.954627025406750818e-01
-1.196685457229614258e+01 7.797004878520965576e-01 -2.937689769547375818e-01
-1.231695222854614258e+01 6.345588862895965576e-01 -2.919684398453625818e-01
-1.269060945510864258e+01 4.795295894145965576e-01 -2.900458324234875818e-01
-1.309185457229614258e+01 3.131477534770965576e-01 -2.879858959000500818e-01
-1.341253328323364258e+01 1.490852534770965576e-01 -2.854071605484875818e-01
-1.114226961135864258e+01 1.160804003477096558e+00 -2.519598949234875818e-01
-1.143914461135864258e+01 1.038611620664596558e+00 -2.493048656266125818e-01
-1.175506258010864258e+01 9.088508784770965576e-01 -2.462225902359875818e-01
-1.207610750198364258e+01 7.717659175395965576e-01 -2.429266917984875818e-01
-1.238885164260864258e+01 6.290657222270965576e-01 -2.394476878922375818e-01
-1.272027254104614258e+01 4.779426753520965576e-01 -2.357703197281750818e-01
-1.307329988479614258e+01 3.170540034770965576e-01 -2.318335521500500818e-01
-1.341412019729614258e+01 1.506721675395965576e-01 -2.274085033219250818e-01
-1.112664461135864258e+01 1.163123339414596558e+00 -2.051001537125500818e-01
-1.138628816604614258e+01 1.043616503477096558e+00 -2.009345042984875818e-01
-1.165996980667114258e+01 9.177620112895965576e-01 -1.965399730484875818e-01
-1.194988679885864258e+01 7.843391597270965576e-01 -1.919013011734875818e-01
-1.225530672073364258e+01 6.437141597270965576e-01 -1.870032298844250818e-01
-1.257879304885864258e+01 4.949104487895965576e-01 -1.817999828141125818e-01
-1.297845125198364258e+01 3.299934566020965576e-01 -1.759863841813000818e-01
-1.341094636917114258e+01 1.528694331645965576e-01 -1.697302806656750818e-01
-1.102129793167114258e+01 1.170569628477096558e+00 -1.588812816422375818e-01
-1.130242586135864258e+01 1.050696581602096558e+00 -1.535864818375500818e-01
-1.162688875198364258e+01 9.217903316020965576e-01 -1.474677074234875818e-01
-1.197417879104614258e+01 7.837288081645965576e-01 -1.409369457047375818e-01
-1.234405183792114258e+01 6.367561519145965576e-01 -1.339636791031750818e-01
-1.274029207229614258e+01 4.792854487895965576e-01 -1.265021312516125818e-01
-1.316729402542114258e+01 3.094856441020965576e-01 -1.184607494156750818e-01
-1.565459871292114258e+01 -1.313102543354034424e-01 -8.840093496255008176e-02
-1.112933015823364258e+01 1.165808886289596558e+00 -1.111670482438000818e-01
-1.144244050979614258e+01 1.042762011289596558e+00 -1.038275707047375818e-01
-1.177593660354614258e+01 9.117805659770965576e-01 -9.601507070473758176e-02
-2.297600984573364258e+01 -1.723258793354034424e-01 6.131830331869991824e-02
-1.531939363479614258e+01 3.495247066020965576e-01 -3.926763418130008176e-02
-1.564324617385864258e+01 1.699592769145965576e-01 -3.002080800942508176e-02
-1.563775300979614258e+01 2.164384722709655762e-02 -2.536687734536258176e-02
-1.396258211135864258e+01 8.634111285209655762e-02 -4.581365468911258176e-02
-2.364861726760864258e+01 4.552375972270965576e-01 1.536187183577624182e-01
-2.304998445510864258e+01 2.683479487895965576e-01 1.503075611311999182e-01
-1.530340242385864258e+01 6.422493159770965576e-01 1.738824960776241824e-02
-1.529522371292114258e+01 4.983284175395965576e-01 2.188959238119991824e-02
-1.429485750198364258e+01 4.508430659770965576e-01 7.882024021824918236e-03
-2.242767000198364258e+01 -5.537956058979034424e-01 1.665429126936999182e-01
-1.527068758010864258e+01 6.680986285209655762e-02 3.574457284994991824e-02
-1.407708406448364258e+01 7.364580035209655762e-02 1.694574472494991824e-02
-2.367937898635864258e+01 4.565803706645965576e-01 2.590111744124499182e-01
-2.306634187698364258e+01 2.703010737895965576e-01 2.521904957015124182e-01
-2.231829500198364258e+01 1.061165034770965576e-01 2.424859058577624182e-01
-2.269537019729614258e+01 -1.416862308979034424e-01 2.581566822249499182e-01
-1.532281160354614258e+01 3.533088862895965576e-01 9.366693613119991824e-02
-2.242425203323364258e+01 -5.503776371479034424e-01 2.660149585921374182e-01
-2.576055574417114258e+01 -1.157921582460403442e+00 3.529442798811999182e-01
-1.395428133010864258e+01 9.122392535209655762e-02 7.499017831869991824e-02
-1.268426179885864258e+01 2.193977534770965576e-01 -9.923926341813000818e-01
-1.268682527542114258e+01 9.964677691459655762e-02 -9.896918285172375818e-01
-1.268352937698364258e+01 -1.961591839790344238e-02 -9.868994701188000818e-01
-1.268035554885864258e+01 -1.397331058979034424e-01 -9.841071117203625818e-01
-1.267705965042114258e+01 -2.597282230854034424e-01 -9.813147533219250818e-01
-1.267388582229614258e+01 -3.799674808979034424e-01 -9.785071361344250818e-01
-1.267168855667114258e+01 -5.011833012104034424e-01 -9.757605541031750818e-01
-1.268108797073364258e+01 -6.247184574604034424e-01 -9.740210521500500818e-01
-1.391436433792114258e+01 6.156083941459655762e-02 -1.010291193751612582e+00
-1.400237703323364258e+01 -8.260419964790344238e-02 -1.012549494532862582e+00
-1.411968660354614258e+01 -2.333610355854034424e-01 -1.016135309962550082e+00
-1.418902254104614258e+01 -3.797233402729034424e-01 -1.017172907618800082e+00
-1.422576570510864258e+01 -5.219352543354034424e-01 -1.016287897853175082e+00
-1.419793367385864258e+01 -6.536491215229034424e-01 -1.011618708400050082e+00
-1.417193269729614258e+01 -7.860954105854034424e-01 -1.007392023829737582e+00
-1.417010164260864258e+01 -9.229362308979034424e-01 -1.004248713282862582e+00
-1.558977937698364258e+01 -1.535270512104034424e-01 -1.041022394923487582e+00
-1.563787508010864258e+01 -3.091666996479034424e-01 -1.040213679103175082e+00
-1.364495515823364258e+01 -1.602409183979034424e-01 -9.291907298844250818e-01
-1.567644929885864258e+01 -6.158073246479034424e-01 -1.035361384181300082e+00
-1.565411043167114258e+01 -7.632682621479034424e-01 -1.030692194728175082e+00
-1.573968172073364258e+01 -9.301383793354034424e-01 -1.031775568751612582e+00
-1.583807039260864258e+01 -1.102257519960403442e+00 -1.033469294337550082e+00
-1.593780183792114258e+01 -1.276695996522903442e+00 -1.035178278712550082e+00
-2.041302156448364258e+01 -7.755973637104034424e-01 -1.213400934962550082e+00
-1.343023347854614258e+01 1.136034727096557617e-03 -8.622046459000500818e-01
-1.363921785354614258e+01 -1.574333012104034424e-01 -8.694830882828625818e-01
-1.846062898635864258e+01 -1.059044629335403442e+00 -1.102973078517237582e+00
-1.597246980667114258e+01 -8.151481449604034424e-01 -9.772101390641125818e-01
-1.821197175979614258e+01 -1.373986035585403442e+00 -1.082343195704737582e+00
-1.811761140823364258e+01 -1.534874707460403442e+00 -1.073538874415675082e+00
-1.811016511917114258e+01 -1.711266309022903442e+00 -1.069388483790675082e+00
-2.067388582229614258e+01 -8.064811527729034424e-01 -1.134497736720362582e+00
-2.081280183792114258e+01 -1.026207715272903442e+00 -1.135840510157862582e+00
-1.363348054885864258e+01 -1.547477543354034424e-01 -8.101569164078625818e-01
-2.356585359573364258e+01 -1.872277051210403442e+00 -1.248175715235987582e+00
-1.597442293167114258e+01 -8.131950199604034424e-01 -9.071875560563000818e-01
-2.391021394729614258e+01 -2.398766309022903442e+00 -1.251929377345362582e+00
-2.241375398635864258e+01 -2.351280957460403442e+00 -1.180777643946925082e+00
-1.860808992385864258e+01 -1.808678418397903442e+00 -1.010108088282862582e+00
-2.094012117385864258e+01 -8.379752933979034424e-01 -1.053900812892237582e+00
-1.349383211135864258e+01 -3.990918397903442383e-03 -7.484656322281750818e-01
-2.188897371292114258e+01 -1.386315137147903442e+00 -1.081107233790675082e+00
-2.386346101760864258e+01 -1.916344434022903442e+00 -1.154181574610987582e+00
-1.597637605667114258e+01 -8.112418949604034424e-01 -8.367682445328625818e-01
-2.671563386917114258e+01 -2.900719434022903442e+00 -1.254202936915675082e+00
-2.691143465042114258e+01 -3.204796582460403442e+00 -1.255103205470362582e+00
-1.861028718948364258e+01 -1.806359082460403442e+00 -9.274207103531750818e-01
-2.217583894729614258e+01 -9.944694340229034424e-01 -1.005164240626612582e+00
-2.206536531448364258e+01 -1.194542676210403442e+00 -9.956274974625500818e-01
-1.341289949417114258e+01 -1.180045902729034424e-01 -6.840125072281750818e-01
-1.330132722854614258e+01 -2.281120121479034424e-01 -6.767645824234875818e-01
-1.597832918167114258e+01 -8.092887699604034424e-01 -7.667304027359875818e-01
-2.964654207229614258e+01 -3.424401074647903442e+00 -1.235251520900050082e+00
-2.982659578323364258e+01 -3.755577832460403442e+00 -1.233725641993800082e+00
-1.861248445510864258e+01 -1.804039746522903442e+00 -8.442908275406750818e-01
-2.476202058792114258e+01 -1.324547559022903442e+00 -9.877539623063000818e-01
-1.355779695510864258e+01 -9.239941835403442383e-03 -6.339179027359875818e-01
-2.183245515823364258e+01 -1.371666699647903442e+00 -8.842688548844250818e-01
-1.333257722854614258e+01 -2.312858402729034424e-01 -6.198645580094250818e-01
-1.598028230667114258e+01 -8.073356449604034424e-01 -6.963263500016125818e-01
-3.351885652542114258e+01 -4.116417676210403442e+00 -1.216361140040675082e+00
-3.778423738479614258e+01 -5.264611035585403442e+00 -1.334586237696925082e+00
-1.861468172073364258e+01 -1.801720410585403442e+00 -7.615881908219250818e-01
-2.219060945510864258e+01 -9.900749027729034424e-01 -8.084631908219250818e-01
-1.359026765823364258e+01 -1.180341839790344238e-02 -5.759192455094250818e-01
-1.347637605667114258e+01 -1.237418949604034424e-01 -5.694037425797375818e-01
-1.336382722854614258e+01 -2.343375980854034424e-01 -5.629797923844250818e-01
-1.598235750198364258e+01 -8.053825199604034424e-01 -6.262732494156750818e-01
-3.770074129104614258e+01 -4.862877637147903442e+00 -1.169943903712550082e+00
-4.270647859573364258e+01 -6.194298535585403442e+00 -1.284369562892237582e+00
-1.861700105667114258e+01 -1.799401074647903442e+00 -6.784583080094250818e-01
-2.180279207229614258e+01 -9.372184574604034424e-01 -7.016058910172375818e-01
-2.206780672073364258e+01 -1.185509473085403442e+00 -7.013922679703625818e-01
-1.350823640823364258e+01 -1.265495121479034424e-01 -5.118475902359875818e-01
-2.229021883010864258e+01 -1.652306348085403442e+00 -6.939307201188000818e-01
-1.598431062698364258e+01 -8.034293949604034424e-01 -5.562354076188000818e-01
-3.769866609573364258e+01 -4.856896191835403442e+00 -9.985266673844250818e-01
-3.385039949417114258e+01 -4.506310254335403442e+00 -9.097815501969250818e-01
-1.861919832229614258e+01 -1.797081738710403442e+00 -5.957556712906750818e-01
-1.399053621292114258e+01 6.888505816459655762e-02 -4.689246166031750818e-01
-1.387456941604614258e+01 -4.744794964790344238e-02 -4.631110179703625818e-01
-1.354046297073364258e+01 -1.294791996479034424e-01 -4.536963451188000818e-01
-1.342693758010864258e+01 -2.406852543354034424e-01 -4.480811107438000818e-01
-1.598626375198364258e+01 -8.014762699604034424e-01 -4.858008373063000818e-01
-3.367437410354614258e+01 -4.129357129335403442e+00 -7.623663890641125818e-01
-3.461822175979614258e+01 -4.646813184022903442e+00 -7.672797191422375818e-01
-1.862139558792114258e+01 -1.794762402772903442e+00 -5.126105296891125818e-01
-1.350384187698364258e+01 1.332161128520965576e-01 -4.023200023453625818e-01
-1.387054109573364258e+01 -4.500654339790344238e-02 -4.030982005875500818e-01
-1.441900300979614258e+01 -2.581413090229034424e-01 -4.058447826188000818e-01
-1.493279695510864258e+01 -4.778678715229034424e-01 -4.078284251969250818e-01
-1.548711824417114258e+01 -7.149284183979034424e-01 -4.099646556656750818e-01
-1.437725496292114258e+01 -6.654899418354034424e-01 -3.930579173844250818e-01
-1.695782136917114258e+01 -1.293785840272903442e+00 -4.171362865250500818e-01
-1.787713289260864258e+01 -1.643273144960403442e+00 -4.219733226578625818e-01
-1.336785554885864258e+01 1.525032222270965576e-01 -3.427496898453625818e-01
-1.376836824417114258e+01 -2.901533246040344238e-02 -3.420325267594250818e-01
-1.360503816604614258e+01 -1.353385746479034424e-01 -3.371497142594250818e-01
-1.485125398635864258e+01 -4.628532230854034424e-01 -3.421851146500500818e-01
-1.546661043167114258e+01 -7.091911137104034424e-01 -3.420783031266125818e-01
-1.438579988479614258e+01 -6.650016605854034424e-01 -3.304358470719250818e-01
-1.432183504104614258e+01 -7.919547855854034424e-01 -3.254614818375500818e-01
-1.818963289260864258e+01 -1.702965527772903442e+00 -3.441687572281750818e-01
-1.341228914260864258e+01 1.487190425395965576e-01 -2.854071605484875818e-01
-1.395037508010864258e+01 -5.220869183540344238e-02 -2.831641185563000818e-01
-1.363775300979614258e+01 -1.382682621479034424e-01 -2.781439769547375818e-01
-1.495501375198364258e+01 -4.771354496479034424e-01 -2.774268138688000818e-01
-1.549627351760864258e+01 -7.119987308979034424e-01 -2.741614330094250818e-01
-1.439434480667114258e+01 -6.643913090229034424e-01 -2.674017894547375818e-01
-1.410308504104614258e+01 -7.484977543354034424e-01 -2.626105296891125818e-01
-1.784197664260864258e+01 -1.630944043397903442e+00 -2.630530345719250818e-01
-1.341387605667114258e+01 1.503059566020965576e-01 -2.273932445328625818e-01
-1.380474519729614258e+01 -3.023603558540344238e-02 -2.230902660172375818e-01
-1.425616121292114258e+01 -2.279899418354034424e-01 -2.181159007828625818e-01
-1.476433992385864258e+01 -4.449088871479034424e-01 -2.126990306656750818e-01
-1.540862703323364258e+01 -6.950309574604034424e-01 -2.066107738297375818e-01
-1.440288972854614258e+01 -6.639030277729034424e-01 -2.046423900406750818e-01
-1.414312410354614258e+01 -7.541129887104034424e-01 -2.009955394547375818e-01
-1.414971590042114258e+01 -8.919303715229034424e-01 -1.962805736344250818e-01
-1.341289949417114258e+01 1.522590816020965576e-01 -1.696997630875500818e-01
-1.335845613479614258e+01 3.324052691459655762e-02 -1.659003246109875818e-01
-1.442193269729614258e+01 -2.505729496479034424e-01 -1.549445140641125818e-01
-1.503448152542114258e+01 -4.855583012104034424e-01 -1.462927806656750818e-01
-1.447576570510864258e+01 -5.357291996479034424e-01 -1.455451000016125818e-01
-1.441143465042114258e+01 -6.634147465229034424e-01 -1.414710033219250818e-01
-1.418365144729614258e+01 -7.597282230854034424e-01 -1.386939037125500818e-01
-1.419012117385864258e+01 -8.979118168354034424e-01 -1.341773021500500818e-01
-1.565459871292114258e+01 -1.317985355854034424e-01 -8.838567617348758176e-02
-1.551958894729614258e+01 -2.624137699604034424e-01 -8.522710683755008176e-02
-1.320586824417114258e+01 -6.881025433540344238e-02 -1.058569896500500818e-01
-1.416363191604614258e+01 -3.457877933979034424e-01 -9.073552968911258176e-02
-1.396783113479614258e+01 -4.483268558979034424e-01 -8.852300527505008176e-02
-1.380901765823364258e+01 -5.537956058979034424e-01 -8.595952871255008176e-02
-1.422430086135864258e+01 -7.653434574604034424e-01 -7.636175039223758176e-02
-4.434380769729614258e+01 -6.899987012147903442e+00 3.139428150374499182e-01
-1.396172761917114258e+01 8.597490191459655762e-02 -4.581365468911258176e-02
-1.342950105667114258e+01 2.713701128959655762e-02 -4.947576406411258176e-02
-1.335100984573364258e+01 -8.834150433540344238e-02 -4.637822988442508176e-02
-1.398614168167114258e+01 -3.157584965229034424e-01 -3.183660390786258176e-02
-1.379534578323364258e+01 -4.173209965229034424e-01 -3.040227773598758176e-02
-1.399187898635864258e+01 -5.844352543354034424e-01 -2.260503652505008176e-02
-1.426531648635864258e+01 -7.709586918354034424e-01 -1.332769277505008176e-02
-1.427190828323364258e+01 -9.101188480854034424e-01 -8.505915431300081764e-03
-1.407745027542114258e+01 7.315751910209655762e-02 1.697626230307491824e-02
-1.568011140823364258e+01 -2.801139652729034424e-01 5.367364999838741824e-02
-1.400616121292114258e+01 -1.831901371479034424e-01 2.449884531088741824e-02
-1.319732332229614258e+01 -1.894157230854034424e-01 1.242914316244991824e-02
-1.449883699417114258e+01 -5.335319340229034424e-01 4.419794199057491824e-02
-1.525225496292114258e+01 -8.069694340229034424e-01 6.517877695151241824e-02
-1.430657625198364258e+01 -7.766959965229034424e-01 5.008783456869991824e-02
-1.431329011917114258e+01 -9.162223637104034424e-01 5.506219980307491824e-02
-1.395354890823364258e+01 9.085771441459655762e-02 7.499017831869991824e-02
-1.370806550979614258e+01 -7.408887147903442383e-03 7.332697031088741824e-02
-1.383318758010864258e+01 -1.557243168354034424e-01 8.107843515463741824e-02
-1.334246492385864258e+01 -2.104118168354034424e-01 7.334222909994991824e-02
-1.450542879104614258e+01 -5.325553715229034424e-01 1.077660572249499182e-01
-1.516717195510864258e+01 -7.896354496479034424e-01 1.299828540999499182e-01
-1.434783601760864258e+01 -7.824333012104034424e-01 1.135491382796374182e-01
-4.436724519729614258e+01 -6.884484082460403442e+00 9.244622242171374182e-01
-1.268133211135864258e+01 -6.252067387104034424e-01 -9.740210521500500818e-01
-1.269524812698364258e+01 -7.503288090229034424e-01 -9.723273265641125818e-01
-1.270318269729614258e+01 -8.750846683979034424e-01 -9.705420482438000818e-01
-1.271136140823364258e+01 -1.001061230897903442e+00 -9.687567699234875818e-01
-1.271941804885864258e+01 -1.127281934022903442e+00 -9.669562328141125818e-01
-1.272759675979614258e+01 -1.254235059022903442e+00 -9.651404369156750818e-01
-1.272124910354614258e+01 -1.378624707460403442e+00 -9.624091136734875818e-01
-1.270293855667114258e+01 -1.499840527772903442e+00 -9.592658031266125818e-01
-1.417022371292114258e+01 -9.234245121479034424e-01 -1.004248713282862582e+00
-1.416058015823364258e+01 -1.059044629335403442e+00 -1.000998591212550082e+00
-1.415801668167114258e+01 -1.196617871522903442e+00 -9.978095042984875818e-01
-1.414812898635864258e+01 -1.333580762147903442e+00 -9.945288646500500818e-01
-1.413836336135864258e+01 -1.470665723085403442e+00 -9.912329662125500818e-01
-1.412847566604614258e+01 -1.608116894960403442e+00 -9.879370677750500818e-01
-1.411150789260864258e+01 -1.744591504335403442e+00 -9.845648753922375818e-01
-1.410149812698364258e+01 -1.882775098085403442e+00 -9.812384593766125818e-01
-1.593890047073364258e+01 -1.277428418397903442e+00 -1.035224055079737582e+00
-1.600286531448364258e+01 -1.446984082460403442e+00 -1.035376642970362582e+00
-1.601348543167114258e+01 -1.606652051210403442e+00 -1.032675837306300082e+00
-1.600310945510864258e+01 -1.763146191835403442e+00 -1.028861140040675082e+00
-1.599285554885864258e+01 -1.919518262147903442e+00 -1.025046442775050082e+00
-1.598247957229614258e+01 -2.076378613710403442e+00 -1.021216486720362582e+00
-1.597210359573364258e+01 -2.234337598085403442e+00 -1.017371271876612582e+00
-1.596172761917114258e+01 -2.392296582460403442e+00 -1.013526057032862582e+00
-1.811040925979614258e+01 -1.711876660585403442e+00 -1.069388483790675082e+00
-1.811626863479614258e+01 -1.891686230897903442e+00 -1.065375422267237582e+00
-1.811065340042114258e+01 -2.069786816835403442e+00 -1.061209772853175082e+00
-1.810503816604614258e+01 -2.249352246522903442e+00 -1.057013605860987582e+00
-1.812554597854614258e+01 -2.435265332460403442e+00 -1.054053400782862582e+00
-1.816753816604614258e+01 -2.628014355897903442e+00 -1.052085016993800082e+00
-1.821014070510864258e+01 -2.823326855897903442e+00 -1.050070856837550082e+00
-1.823711824417114258e+01 -3.015465527772903442e+00 -1.047766779689112582e+00
-1.860772371292114258e+01 -1.809166699647903442e+00 -1.010077570704737582e+00
-2.130035066604614258e+01 -2.562096387147903442e+00 -1.122168635157862582e+00
-2.135174226760864258e+01 -2.786095410585403442e+00 -1.119528864650050082e+00
-2.140386629104614258e+01 -3.013024121522903442e+00 -1.116873835353175082e+00
-2.179058504104614258e+01 -3.322594434022903442e+00 -1.128378962306300082e+00
-2.196587800979614258e+01 -3.587853223085403442e+00 -1.130759333400050082e+00
-2.188592195510864258e+01 -3.791222363710403442e+00 -1.122305964259425082e+00
-2.179717683792114258e+01 -3.990807324647903442e+00 -1.113501642970362582e+00
-1.860992097854614258e+01 -1.806847363710403442e+00 -9.273901927750500818e-01
-2.907342195510864258e+01 -4.200890332460403442e+00 -1.325034235743800082e+00
-2.761797761917114258e+01 -4.171837598085403442e+00 -1.262427424220362582e+00
-2.709429597854614258e+01 -4.330895215272903442e+00 -1.235861872462550082e+00
-2.665130281448364258e+01 -4.498986035585403442e+00 -1.212592219142237582e+00
-2.683843660354614258e+01 -4.818444043397903442e+00 -1.213126276759425082e+00
-2.706097078323364258e+01 -5.153527051210403442e+00 -1.214820002345362582e+00
-2.729949617385864258e+01 -5.498253613710403442e+00 -1.217658137110987582e+00
-1.861224031448364258e+01 -1.804528027772903442e+00 -8.442603099625500818e-01
-3.324322175979614258e+01 -5.076622754335403442e+00 -1.333869074610987582e+00
-3.308160066604614258e+01 -5.377770215272903442e+00 -1.320075129298487582e+00
-3.560357332229614258e+01 -6.300987988710403442e+00 -1.395545100001612582e+00
-3.210296297073364258e+01 -5.816979199647903442e+00 -1.270957087306300082e+00
-3.514922761917114258e+01 -6.917809277772903442e+00 -1.362479304103175082e+00
-3.578020906448364258e+01 -7.449181348085403442e+00 -1.373877619532862582e+00
-3.610747957229614258e+01 -7.911095410585403442e+00 -1.375174616603175082e+00
-1.861443758010864258e+01 -1.802330762147903442e+00 -7.615729320328625818e-01
-4.090288972854614258e+01 -6.687218457460403442e+00 -1.405188654689112582e+00
-4.455169343948364258e+01 -7.911583691835403442e+00 -1.498435114650050082e+00
-4.733221101760864258e+01 -9.014733105897903442e+00 -1.565863703517237582e+00
-3.210638093948364258e+01 -5.812828809022903442e+00 -1.123068903712550082e+00
-4.841009187698364258e+01 -1.026644209027290344e+01 -1.570624445704737582e+00
-4.884075593948364258e+01 -1.088619306683540344e+01 -1.570639704493800082e+00
-4.910137605667114258e+01 -1.146907880902290344e+01 -1.564536188868800082e+00
-1.861663484573364258e+01 -1.800011426210403442e+00 -6.784277904313000818e-01
-4.302190828323364258e+01 -7.127526074647903442e+00 -1.268469904689112582e+00
-5.267937898635864258e+01 -9.702477246522903442e+00 -1.489371393946925082e+00
-5.272637605667114258e+01 -1.025716474652290344e+01 -1.475806330470362582e+00
-3.210992097854614258e+01 -5.808556348085403442e+00 -9.759741771500500818e-01
-6.891704988479614258e+01 -1.544246748089790344e+01 -1.822699641017237582e+00
-5.372002840042114258e+01 -1.216365888714790344e+01 -1.454245661525050082e+00
-6.171648836135864258e+01 -1.491890791058540344e+01 -1.620337580470362582e+00
-1.861883211135864258e+01 -1.797692090272903442e+00 -5.957251537125500818e-01
-4.309844636917114258e+01 -7.137047559022903442e+00 -1.072730158595362582e+00
-5.267937898635864258e+01 -9.694176465272903442e+00 -1.246314142970362582e+00
-5.270794343948364258e+01 -1.024459150433540344e+01 -1.231619929103175082e+00
-3.211346101760864258e+01 -5.804405957460403442e+00 -8.288641917984875818e-01
-7.540057039260864258e+01 -1.706929853558540344e+01 -1.621222590235987582e+00
-5.372564363479614258e+01 -1.215633466839790344e+01 -1.204062556056300082e+00
-6.171429109573364258e+01 -1.490816572308540344e+01 -1.331427668360987582e+00
-1.862115144729614258e+01 -1.795372754335403442e+00 -5.125800121109875818e-01
-4.317583894729614258e+01 -7.146691113710403442e+00 -8.752661693375500818e-01
-2.133196687698364258e+01 -2.762169629335403442e+00 -5.416785228531750818e-01
-2.391704988479614258e+01 -3.574791699647903442e+00 -5.726080882828625818e-01
-2.893218660354614258e+01 -5.029869824647903442e+00 -6.361456859391125818e-01
-4.426922273635864258e+01 -9.197838574647903442e+00 -8.386603343766125818e-01
-5.243279695510864258e+01 -1.180745771527290344e+01 -9.350806224625500818e-01
-6.053118562698364258e+01 -1.457418134808540344e+01 -1.025549982814112582e+00
-1.788384675979614258e+01 -1.645226269960403442e+00 -4.220343578141125818e-01
-1.913518953323364258e+01 -2.084313184022903442e+00 -4.296179759781750818e-01
-2.091326570510864258e+01 -2.666588574647903442e+00 -4.416571605484875818e-01
-2.371575593948364258e+01 -3.524620801210403442e+00 -4.624396312516125818e-01
-2.902911043167114258e+01 -5.048790723085403442e+00 -5.049353587906750818e-01
-4.575140047073364258e+01 -9.564659863710403442e+00 -6.471472728531750818e-01
-7.951446199417114258e+01 -1.892000654339790344e+01 -9.271155345719250818e-01
-8.807598543167114258e+01 -2.210067060589790344e+01 -9.737311351578625818e-01
-1.819646883010864258e+01 -1.705040723085403442e+00 -3.441840160172375818e-01
-1.940276765823364258e+01 -2.137657910585403442e+00 -3.453589427750500818e-01
-2.091534090042114258e+01 -2.663903027772903442e+00 -3.478156078141125818e-01
-2.317364168167114258e+01 -3.395714551210403442e+00 -3.525000560563000818e-01
-6.686199617385864258e+01 -1.418343427777290344e+01 -5.480872142594250818e-01
-7.080804109573364258e+01 -1.587484052777290344e+01 -5.433875072281750818e-01
-9.021795320510864258e+01 -2.267183759808540344e+01 -5.654669750016125818e-01
-1.785003328323364258e+01 -1.633141309022903442e+00 -2.630530345719250818e-01
-1.928289461135864258e+01 -2.109581738710403442e+00 -2.587042796891125818e-01
-2.126751375198364258e+01 -2.738365918397903442e+00 -2.536841380875500818e-01
-6.588372468948364258e+01 -1.325362470746040344e+01 -2.577277171891125818e-01
-6.674859285354614258e+01 -1.414534834027290344e+01 -2.356177318375500818e-01
-7.228509187698364258e+01 -1.623555830121040344e+01 -2.107764232438000818e-01
-9.267693758010864258e+01 -2.332894209027290344e+01 -1.388312328141125818e-01
-1.414983797073364258e+01 -8.924186527729034424e-01 -1.962653148453625818e-01
-6.525298738479614258e+01 -1.175252607464790344e+01 5.426523276241823623e-05
-6.611077547073364258e+01 -1.261129072308540344e+01 2.590265390463741824e-02
-6.591936922073364258e+01 -1.325142744183540344e+01 4.786005136557491824e-02
-6.907391023635864258e+01 -1.469564130902290344e+01 8.577814218588741824e-02
-7.066399812698364258e+01 -1.581575849652290344e+01 1.179589283186999182e-01
-7.094060945510864258e+01 -1.663094404339790344e+01 1.442193042952624182e-01
-1.419024324417114258e+01 -8.984000980854034424e-01 -1.341620433609875818e-01
-1.419683504104614258e+01 -1.037438184022903442e+00 -1.293707835953625818e-01
-6.618548250198364258e+01 -1.261739423871040344e+01 3.339013111311999182e-01
-6.569756746292114258e+01 -1.318990400433540344e+01 3.529747974593249182e-01
-7.110955476760864258e+01 -1.591646650433540344e+01 4.534996998030749182e-01
-4.434319734573364258e+01 -6.901451855897903442e+00 3.139885914046374182e-01
-1.423760652542114258e+01 -1.043907910585403442e+00 -6.670293691567508176e-02
-6.601922273635864258e+01 -1.257051923871040344e+01 6.376580249983874182e-01
-6.273699617385864258e+01 -1.249739912152290344e+01 6.163109790999499182e-01
-7.108013582229614258e+01 -1.589766767621040344e+01 7.844780933577624182e-01
-7.189959383010864258e+01 -1.685921552777290344e+01 8.232201587874499182e-01
-1.427203035354614258e+01 -9.106071293354034424e-01 -8.490656642237581764e-03
-1.427886629104614258e+01 -1.050499707460403442e+00 -3.317927150050081764e-03
-6.521697664260864258e+01 -1.238387373089790344e+01 9.298180591780749182e-01
-2.444793367385864258e+01 -3.671227246522903442e+00 1.960534107405749182e-01
-5.696685457229614258e+01 -1.174776533246040344e+01 8.224572193343249182e-01
-7.150140047073364258e+01 -1.599202802777290344e+01 1.125588322849949918e+00
-7.230547761917114258e+01 -1.695382001996040344e+01 1.168892766209324918e+00
-1.431341218948364258e+01 -9.167106449604034424e-01 5.507745859213741824e-02
-1.428838777542114258e+01 -1.050377637147903442e+00 5.973138925619991824e-02
-5.285699129104614258e+01 -9.659386426210403442e+00 9.480370533186999182e-01
-1.465423250198364258e+01 -1.414025098085403442e+00 7.840814706869991824e-02
-5.696856355667114258e+01 -1.173909834027290344e+01 1.086388493748387418e+00
-7.223308992385864258e+01 -1.616439130902290344e+01 1.476326848240574918e+00
-4.436468172073364258e+01 -6.885460644960403442e+00 9.244469654280749182e-01
-6.634173250198364258e+01 -1.192965009808540344e+01 1.538796330662449918e+00
-1.495220613479614258e+01 -1.333092480897903442e+00 1.459588062483874182e-01
-1.463482332229614258e+01 -1.407433301210403442e+00 1.427544605452624182e-01
-6.918902254104614258e+01 -1.466829755902290344e+01 1.699028874607762418e+00
-1.270318269729614258e+01 -1.500328809022903442e+00 -9.592658031266125818e-01
-1.271123933792114258e+01 -1.629235059022903442e+00 -9.574805248063000818e-01
-1.271221590042114258e+01 -1.757042676210403442e+00 -9.555579173844250818e-01
-1.271319246292114258e+01 -1.886193066835403442e+00 -9.536047923844250818e-01
-1.271416902542114258e+01 -2.015587598085403442e+00 -9.516516673844250818e-01
-1.271514558792114258e+01 -2.145958691835403442e+00 -9.496985423844250818e-01
-1.271612215042114258e+01 -2.277428418397903442e+00 -9.477148998063000818e-01
-1.270989656448364258e+01 -2.406945019960403442e+00 -9.455939281266125818e-01
-1.410162019729614258e+01 -1.883263379335403442e+00 -9.812384593766125818e-01
-1.408379793167114258e+01 -2.019860059022903442e+00 -9.778357494156750818e-01
-1.407293367385864258e+01 -2.159020215272903442e+00 -9.744940746109875818e-01
-1.405498933792114258e+01 -2.297081738710403442e+00 -9.710608470719250818e-01
-1.404571199417114258e+01 -2.437950879335403442e+00 -9.681159007828625818e-01
-1.405230379104614258e+01 -2.584679394960403442e+00 -9.660254466813000818e-01
-1.404986238479614258e+01 -2.729943066835403442e+00 -9.637518871109875818e-01
-1.405645418167114258e+01 -2.878746777772903442e+00 -9.616309154313000818e-01
-1.596172761917114258e+01 -2.392906934022903442e+00 -1.013510798243800082e+00
-1.594976472854614258e+01 -2.551110059022903442e+00 -1.009940241603175082e+00
-1.596209383010864258e+01 -2.717247754335403442e+00 -1.007590388087550082e+00
-1.597466707229614258e+01 -2.885338574647903442e+00 -1.005225275782862582e+00
-1.598724031448364258e+01 -3.054039746522903442e+00 -1.002844904689112582e+00
-1.600005769729614258e+01 -3.224205762147903442e+00 -1.000434016017237582e+00
-1.601287508010864258e+01 -3.396324902772903442e+00 -9.980078685563000818e-01
-1.601263093948364258e+01 -3.564537793397903442e+00 -9.949255931656750818e-01
-1.823748445510864258e+01 -3.016197949647903442e+00 -1.047766779689112582e+00
-1.828313875198364258e+01 -3.215172559022903442e+00 -1.045783137110987582e+00
-1.831316804885864258e+01 -3.411827832460403442e+00 -1.043463801173487582e+00
-1.834368562698364258e+01 -3.610924512147903442e+00 -1.041129206446925082e+00
-1.837420320510864258e+01 -3.811363965272903442e+00 -1.038779352931300082e+00
-1.840520906448364258e+01 -4.013756543397903442e+00 -1.036398981837550082e+00
-1.843658113479614258e+01 -4.218834668397903442e+00 -1.033988093165675082e+00
-1.845147371292114258e+01 -4.419396191835403442e+00 -1.031272028712550082e+00
-2.179656648635864258e+01 -3.991295605897903442e+00 -1.113455866603175082e+00
-2.168877840042114258e+01 -4.184777051210403442e+00 -1.104254816798487582e+00
-2.170232820510864258e+01 -4.413170605897903442e+00 -1.100089167384425082e+00
-2.170904207229614258e+01 -4.642052441835403442e+00 -1.095603083400050082e+00
-2.173760652542114258e+01 -4.878502637147903442e+00 -1.091971491603175082e+00
-2.179620027542114258e+01 -5.126915723085403442e+00 -1.089530085353175082e+00
-2.185564851760864258e+01 -5.379235059022903442e+00 -1.087058161525050082e+00
-2.191570711135864258e+01 -5.633751660585403442e+00 -1.084555720118800082e+00
-2.730169343948364258e+01 -5.499840527772903442e+00 -1.217719172267237582e+00
-2.732732820510864258e+01 -5.790367871522903442e+00 -1.211630915431300082e+00
-2.732085847854614258e+01 -6.073693066835403442e+00 -1.205008600978175082e+00
-2.731426668167114258e+01 -6.359703809022903442e+00 -1.198309992579737582e+00
-2.730779695510864258e+01 -6.646202832460403442e+00 -1.191611384181300082e+00
-2.730120515823364258e+01 -6.934532910585403442e+00 -1.184866999415675082e+00
-2.729449129104614258e+01 -7.225426465272903442e+00 -1.178046320704737582e+00
-2.725420808792114258e+01 -7.505211621522903442e+00 -1.170722101954737582e+00
-3.610967683792114258e+01 -7.912926465272903442e+00 -1.375205134181300082e+00
-3.627190828323364258e+01 -8.336998730897903442e+00 -1.371405695704737582e+00
-3.628692293167114258e+01 -8.723229199647903442e+00 -1.362799738673487582e+00
-3.618462800979614258e+01 -9.077477246522903442e+00 -1.350409601954737582e+00
-3.603997468948364258e+01 -9.417076855897903442e+00 -1.336737726954737582e+00
-3.618999910354614258e+01 -9.852867871522903442e+00 -1.332175349025050082e+00
-3.644939851760864258e+01 -1.033284834027290344e+01 -1.330817316798487582e+00
-3.655840730667114258e+01 -1.076693037152290344e+01 -1.324713801173487582e+00
-4.910369539260864258e+01 -1.147152021527290344e+01 -1.564551447657862582e+00
-4.941936922073364258e+01 -1.207857587933540344e+01 -1.560126398829737582e+00
