-1.437946528196334839e+01 2.764036122709512711e+00 -8.137917191721442123e-01
-1.489924067258834839e+01 2.661008778959512711e+00 -8.315071732737067123e-01
-1.491376703977584839e+01 2.522703114897012711e+00 -8.278145463205817123e-01
-1.504902094602584839e+01 2.389158193022012711e+00 -8.291115433908942123e-01
-1.548285883665084839e+01 2.261716786772012711e+00 -8.426155717112067123e-01
-1.626252192258834839e+01 2.133298818022012711e+00 -8.700050980783942123e-01
-9.496530711650848389e+00 2.591184560209512711e+00 -5.728096635080817123e-01
-1.431781977415084839e+01 2.894895497709512711e+00 -7.539772660471442123e-01
-1.439985102415084839e+01 2.767209950834512711e+00 -7.526497513987067123e-01
-1.487873286008834839e+01 2.661619130522012711e+00 -7.664589555002692123e-01
-1.490827387571334839e+01 2.524290028959512711e+00 -7.633003861643317123e-01
-1.551020258665084839e+01 2.409788075834512711e+00 -7.812294633127692123e-01
-1.655109614133834839e+01 2.296384755522012711e+00 -8.151955277658942123e-01
-1.678669184446334839e+01 2.146238271147012711e+00 -8.189797074533942123e-01
-9.497385203838348389e+00 2.592405263334512711e+00 -5.334877640940192123e-01
-1.432062739133834839e+01 2.896848622709512711e+00 -6.924233109690192123e-01
-1.442023676633834839e+01 2.770383778959512711e+00 -6.916756303049567123e-01
-1.485224360227584839e+01 2.661741200834512711e+00 -7.017769486643317123e-01
-1.492865961790084839e+01 2.527097646147012711e+00 -7.000374467112067123e-01
-1.603144282102584839e+01 2.432981435209512711e+00 -7.313942582346442123e-01
-1.568195551633834839e+01 2.271726552397012711e+00 -7.156471879221442123e-01
-1.582184809446334839e+01 2.128293935209512711e+00 -7.156166703440192123e-01
-9.498239696025848389e+00 2.593503896147012711e+00 -4.943489701487067123e-01
-1.432380121946334839e+01 2.898801747709512711e+00 -6.312050492502692123e-01
-1.444062250852584839e+01 2.773557607084512711e+00 -6.305184037424567123e-01
-1.482599848508834839e+01 2.661985341459512711e+00 -6.373390824533942123e-01
-1.493903559446334839e+01 2.529539052397012711e+00 -6.363320023752692123e-01
-1.540278071165084839e+01 2.409299794584512711e+00 -6.449684769846442123e-01
-1.572980707883834839e+01 2.275144521147012711e+00 -6.495766312815192123e-01
-1.684052485227584839e+01 2.151609364897012711e+00 -6.752113969065192123e-01
-9.499216258525848389e+00 2.594724599272012711e+00 -4.550270707346442123e-01
-1.432685297727584839e+01 2.900754872709512711e+00 -5.696358353830817123e-01
-1.446125239133834839e+01 2.776731435209512711e+00 -5.688576371408942123e-01
-1.484137934446334839e+01 2.664792958647012711e+00 -5.738167435862067123e-01
-1.493036860227584839e+01 2.530881825834512711e+00 -5.717568070627692123e-01
-1.564997309446334839e+01 2.421384755522012711e+00 -5.841927201487067123e-01
-1.535907953977584839e+01 2.265623036772012711e+00 -5.731758744455817123e-01
-1.539777582883834839e+01 2.123411122709512711e+00 -5.697731644846442123e-01
-9.500070750713348389e+00 2.595945302397012711e+00 -4.159035355783942123e-01
-1.433051508665084839e+01 2.902830068022012711e+00 -5.083870560862067123e-01
-1.449018305540084839e+01 2.780637685209512711e+00 -5.075173051096442123e-01
-1.483503168821334839e+01 2.666257802397012711e+00 -5.100807816721442123e-01
-1.492926996946334839e+01 2.532712880522012711e+00 -5.077461869455817123e-01
-1.569074457883834839e+01 2.424924794584512711e+00 -5.176949174143317123e-01
-1.576203364133834839e+01 2.280149403959512711e+00 -5.146279008127692123e-01
-1.535798090696334839e+01 2.124509755522012711e+00 -5.030312211252692123e-01
-9.500925242900848389e+00 2.597043935209512711e+00 -3.765663773752692123e-01
-1.433710688352584839e+01 2.905027333647012711e+00 -4.468483597971442123e-01
-1.455512446165084839e+01 2.786985341459512711e+00 -4.464668900705817123e-01
-1.485016840696334839e+01 2.668943349272012711e+00 -4.467415482737067123e-01
-1.493342036008834839e+01 2.534788075834512711e+00 -4.438423783518317123e-01
-1.682917231321334839e+01 2.473997060209512711e+00 -4.661049515940192123e-01
-1.529462641477584839e+01 2.267576161772012711e+00 -4.402107865549567123e-01
-1.531818598508834839e+01 2.125608388334512711e+00 -4.363350541330817123e-01
-9.413278758525848389e+00 2.590207997709512711e+00 -3.364967972971442123e-01
-9.597971141338348389e+00 2.520749989897012711e+00 -3.359627396799567123e-01
-9.764475047588348389e+00 2.446531239897012711e+00 -3.351540238596442123e-01
-9.951486766338348389e+00 2.369993153959512711e+00 -3.344216019846442123e-01
-1.014557856321334839e+01 2.290403310209512711e+00 -3.336739213205817123e-01
-1.034809321165084839e+01 2.207517568022012711e+00 -3.328957230783942123e-01
-1.056025141477584839e+01 2.120603505522012711e+00 -3.320717484690192123e-01
-1.078132075071334839e+01 2.030149403959512711e+00 -3.312325150705817123e-01
-9.326120555400848389e+00 2.583249989897012711e+00 -2.970375687815192123e-01
-9.507517039775848389e+00 2.514524403959512711e+00 -2.958931596018317123e-01
-9.675852000713348389e+00 2.441282216459512711e+00 -2.943672806955817123e-01
-9.859079539775848389e+00 2.365476552397012711e+00 -2.928108842112067123e-01
-1.004926508665084839e+01 2.286741200834512711e+00 -2.912087113596442123e-01
-1.024750727415084839e+01 2.204587880522012711e+00 -2.895302445627692123e-01
-1.045514887571334839e+01 2.118528310209512711e+00 -2.877754838205817123e-01
-1.067072504758834839e+01 2.029050771147012711e+00 -2.857002885080817123e-01
-9.264841258525848389e+00 2.578733388334512711e+00 -2.586311967112067123e-01
-9.460519969463348389e+00 2.511838857084512711e+00 -2.565102250315192123e-01
-9.647287547588348389e+00 2.440427724272012711e+00 -2.542519242502692123e-01
-9.847849071025848389e+00 2.365964833647012711e+00 -2.519020707346442123e-01
-1.005695551633834839e+01 2.288328114897012711e+00 -2.494454056955817123e-01
-1.027582758665084839e+01 2.207029286772012711e+00 -2.468819291330817123e-01
-1.050617426633834839e+01 2.121457997709512711e+00 -2.441811234690192123e-01
-1.074714106321334839e+01 2.031980458647012711e+00 -2.413582474924567123e-01
-9.334421336650848389e+00 2.586179677397012711e+00 -2.201943070627692123e-01
-9.533029735088348389e+00 2.518796864897012711e+00 -2.173561722971442123e-01
-9.718820750713348389e+00 2.446653310209512711e+00 -2.142586381174567123e-01
-9.922678172588348389e+00 2.371702138334512711e+00 -2.109779984690192123e-01
-1.013520258665084839e+01 2.293577138334512711e+00 -2.075600297190192123e-01
-1.035798090696334839e+01 2.211667958647012711e+00 -2.039742142893317123e-01
-1.056769770383834839e+01 2.124753896147012711e+00 -2.003121049143317123e-01
-1.078376215696334839e+01 2.034177724272012711e+00 -1.962837846018317123e-01
-9.370554149150848389e+00 2.590574208647012711e+00 -1.815895707346442123e-01
-9.548898875713348389e+00 2.521238271147012711e+00 -1.778053910471442123e-01
-9.712961375713348389e+00 2.447385732084512711e+00 -1.740517289377692123e-01
-9.893747508525848389e+00 2.371091786772012711e+00 -1.700386674143317123e-01
-1.008124750852584839e+01 2.291990224272012711e+00 -1.658882767893317123e-01
-1.027656000852584839e+01 2.209470693022012711e+00 -1.615700394846442123e-01
-1.048090571165084839e+01 2.123166982084512711e+00 -1.570381791330817123e-01
-1.069343012571334839e+01 2.033445302397012711e+00 -1.523384721018317123e-01
-9.299997508525848389e+00 2.585081044584512711e+00 -1.437630326487067123e-01
-9.475412547588348389e+00 2.516233388334512711e+00 -1.392311722971442123e-01
-9.641184031963348389e+00 2.443357411772012711e+00 -1.349434525705817123e-01
-9.818918406963348389e+00 2.367673818022012711e+00 -1.301979691721442123e-01
-1.000324457883834839e+01 2.289060536772012711e+00 -1.252846390940192123e-01
-1.022455805540084839e+01 2.208494130522012711e+00 -1.197456986643317123e-01
-1.046393793821334839e+01 2.123899403959512711e+00 -1.136116654612067123e-01
-1.071430414915084839e+01 2.035276357084512711e+00 -1.074165971018317123e-01
-9.263132274150848389e+00 2.582761708647012711e+00 -1.060280472971442123e-01
-9.468088328838348389e+00 2.516721669584512711e+00 -1.004280717112067123e-01
-9.663889110088348389e+00 2.446165028959512711e+00 -9.466024944558171228e-02
-9.874948680400848389e+00 2.372312489897012711e+00 -8.852621624245671228e-02
-1.009540766477584839e+01 2.295164052397012711e+00 -8.210226604714421228e-02
-1.032685297727584839e+01 2.214109364897012711e+00 -7.537314007058171228e-02
-1.057099360227584839e+01 2.128660146147012711e+00 -6.826254436745671228e-02
-1.082770746946334839e+01 2.039060536772012711e+00 -6.057211467995671228e-02
-1.208136957883834839e+01 2.038083974272012711e+00 -1.005640474054956712e+00
-1.204181879758834839e+01 1.927244130522012711e+00 -9.994148881174567123e-01
-1.199799555540084839e+01 1.817014638334512711e+00 -9.931893021799567123e-01
-1.195453852415084839e+01 1.707395497709512711e+00 -9.870094926096442123e-01
-1.191779536008834839e+01 1.598752919584512711e+00 -9.813027055002692123e-01
-1.192975825071334839e+01 1.489499989897012711e+00 -9.788918168283942123e-01
-1.194172114133834839e+01 1.379392568022012711e+00 -9.764656693674567123e-01
-1.194928950071334839e+01 1.269773427397012711e+00 -9.740242631174567123e-01
-1.454316157102584839e+01 2.088376943022012711e+00 -1.111704316828394212e+00
-1.463093012571334839e+01 1.954221669584512711e+00 -1.113306489679956712e+00
-1.371174067258834839e+01 1.818357411772012711e+00 -1.050791230890894212e+00
-1.317890375852584839e+01 1.696531239897012711e+00 -1.013483491633081712e+00
-1.212995356321334839e+01 1.596067372709512711e+00 -9.441322953440192123e-01
-1.288801020383834839e+01 1.462156239897012711e+00 -9.881539017893317123e-01
-1.294672602415084839e+01 1.340696278959512711e+00 -9.885658890940192123e-01
-1.301325434446334839e+01 1.218137685209512711e+00 -9.891609818674567123e-01
-1.469562739133834839e+01 2.093259755522012711e+00 -1.058191743586206712e+00
-1.478547114133834839e+01 1.957639638334512711e+00 -1.059442964289331712e+00
-1.488471430540084839e+01 1.820188466459512711e+00 -1.061197725031519212e+00
-1.590876215696334839e+01 1.671018544584512711e+00 -1.116877046320581712e+00
-1.213117426633834839e+01 1.597654286772012711e+00 -8.930458695627692123e-01
-1.549738520383834839e+01 1.385740224272012711e+00 -1.084299531672144212e+00
-1.596296137571334839e+01 1.222043935209512711e+00 -1.106760469172144212e+00
-1.536860102415084839e+01 1.102292958647012711e+00 -1.068338838312769212e+00
-1.485077875852584839e+01 2.098264638334512711e+00 -1.003763643000269212e+00
-1.512848871946334839e+01 1.963010732084512711e+00 -1.014429536554956712e+00
-1.547883051633834839e+01 1.822141591459512711e+00 -1.029184785578394212e+00
-1.503302973508834839e+01 1.681638661772012711e+00 -1.000910249445581712e+00
-1.213251703977584839e+01 1.599119130522012711e+00 -8.416695267893317123e-01
-1.545405024290084839e+01 1.389158193022012711e+00 -1.014994111750269212e+00
-1.611860102415084839e+01 1.217893544584512711e+00 -1.045847383234644212e+00
-1.608954828977584839e+01 1.068479482084512711e+00 -1.040216890070581712e+00
-1.549421137571334839e+01 2.113157216459512711e+00 -9.720253617502692123e-01
-1.588337153196334839e+01 1.972654286772012711e+00 -9.871010453440192123e-01
-1.625898188352584839e+01 1.824460927397012711e+00 -1.001276460383081712e+00
-1.510932368040084839e+01 1.682859364897012711e+00 -9.402107865549567123e-01
-1.213373774290084839e+01 1.600706044584512711e+00 -7.905831010080817123e-01
-1.589484614133834839e+01 1.378171864897012711e+00 -9.699959428049567123e-01
-1.610053461790084839e+01 1.220823232084512711e+00 -9.754891068674567123e-01
-1.600507563352584839e+01 1.074827138334512711e+00 -9.664406449533942123e-01
-1.566657465696334839e+01 2.118650380522012711e+00 -9.133248002268317123e-01
-1.623774164915084839e+01 1.978391591459512711e+00 -9.343971879221442123e-01
-1.570185297727584839e+01 1.826291982084512711e+00 -9.058327347971442123e-01
-1.519452875852584839e+01 1.684080068022012711e+00 -8.788551957346442123e-01
-1.213508051633834839e+01 1.602292958647012711e+00 -7.392220170237067123e-01
-1.576069086790084839e+01 1.384153310209512711e+00 -8.953041703440192123e-01
-1.768061274290084839e+01 1.160520497709512711e+00 -9.747414262033942123e-01
-1.632197016477584839e+01 1.061277333647012711e+00 -9.112343461252692123e-01
-1.626117914915084839e+01 2.132810536772012711e+00 -8.699440629221442123e-01
-1.574592036008834839e+01 1.975339833647012711e+00 -8.444924027658942123e-01
-1.563471430540084839e+01 1.828245107084512711e+00 -8.356270463205817123e-01
-1.528010004758834839e+01 1.685178700834512711e+00 -8.170876176096442123e-01
-1.213630121946334839e+01 1.603757802397012711e+00 -6.881203324533942123e-01
-1.567280024290084839e+01 1.388791982084512711e+00 -8.240456254221442123e-01
-1.643964594602584839e+01 1.211790028959512711e+00 -8.496346146799567123e-01
-1.583393305540084839e+01 1.087522450834512711e+00 -8.215431840158942123e-01
-1.678827875852584839e+01 2.145749989897012711e+00 -8.190254838205817123e-01
-1.691559809446334839e+01 1.989866200834512711e+00 -8.189034135080817123e-01
-1.556769770383834839e+01 1.830198232084512711e+00 -7.657112748362067123e-01
-1.536725825071334839e+01 1.686399403959512711e+00 -7.542671830393317123e-01
-1.213764399290084839e+01 1.605344716459512711e+00 -6.367592484690192123e-01
-1.529914301633834839e+01 1.401853505522012711e+00 -7.433266312815192123e-01
-1.599616450071334839e+01 1.231321278959512711e+00 -7.634377152658942123e-01
-1.637519282102584839e+01 1.063108388334512711e+00 -7.719216019846442123e-01
-1.582074946165084839e+01 2.127805653959512711e+00 -7.155708939768317123e-01
-1.566816157102584839e+01 1.978513661772012711e+00 -7.063545853830817123e-01
-1.551850336790084839e+01 1.832273427397012711e+00 -6.973366410471442123e-01
-1.539386957883834839e+01 1.688108388334512711e+00 -6.891426713205817123e-01
-1.213886469602584839e+01 1.606809560209512711e+00 -5.856575638987067123e-01
-1.501667231321334839e+01 1.412107411772012711e+00 -6.691536576487067123e-01
-1.582367914915084839e+01 1.240232411772012711e+00 -6.890663773752692123e-01
-1.570002192258834839e+01 1.098386708647012711e+00 -6.809792191721442123e-01
-1.684003657102584839e+01 2.151121083647012711e+00 -6.751961381174567123e-01
-1.564216059446334839e+01 1.980222646147012711e+00 -6.383766801096442123e-01
-1.599335688352584839e+01 1.834714833647012711e+00 -6.432900101877692123e-01
-1.554389399290084839e+01 1.688840810209512711e+00 -6.270241410471442123e-01
-1.214020746946334839e+01 1.608396474272012711e+00 -5.345711381174567123e-01
-1.494257563352584839e+01 1.416257802397012711e+00 -6.029305131174567123e-01
-1.682892817258834839e+01 1.203245107084512711e+00 -6.464333207346442123e-01
-1.564484614133834839e+01 1.103147450834512711e+00 -6.121010453440192123e-01
-1.539826411008834839e+01 2.122922841459512711e+00 -5.697579056955817123e-01
-1.561615961790084839e+01 1.981931630522012711e+00 -5.702767045237067123e-01
-1.544794672727584839e+01 1.836179677397012711e+00 -5.622200638987067123e-01
-1.570588129758834839e+01 1.689451161772012711e+00 -5.634407670237067123e-01
-1.214142817258834839e+01 1.609983388334512711e+00 -4.831947953440192123e-01
-1.511298578977584839e+01 1.413328114897012711e+00 -5.421852738596442123e-01
-1.662140864133834839e+01 1.213499013334512711e+00 -5.691170365549567123e-01
-1.786493891477584839e+01 9.970683492720127106e-01 -5.897621781565192123e-01
-1.535846918821334839e+01 2.124021474272012711e+00 -5.030312211252692123e-01
-1.592157953977584839e+01 1.987424794584512711e+00 -5.086311967112067123e-01
-1.644257563352584839e+01 1.839353505522012711e+00 -5.131477982737067123e-01
-1.665302485227584839e+01 1.683225575834512711e+00 -5.120796830393317123e-01
-1.214277094602584839e+01 1.611448232084512711e+00 -4.321083695627692123e-01
-1.505988520383834839e+01 1.416746083647012711e+00 -4.765572221018317123e-01
-1.662226313352584839e+01 1.215696278959512711e+00 -4.974465043283942123e-01
-1.603486078977584839e+01 1.088499013334512711e+00 -4.834847123362067123e-01
-1.531855219602584839e+01 2.125120107084512711e+00 -4.363350541330817123e-01
-1.671198481321334839e+01 1.998411122709512711e+00 -4.501137406565192123e-01
-1.527961176633834839e+01 1.839841786772012711e+00 -4.275765092112067123e-01
-1.660651606321334839e+01 1.685789052397012711e+00 -4.397225053049567123e-01
-1.214399164915084839e+01 1.613035146147012711e+00 -3.810066849924567123e-01
-1.640510004758834839e+01 1.380369130522012711e+00 -4.279427201487067123e-01
-1.248420161008834839e+01 1.377317372709512711e+00 -3.779091508127692123e-01
-1.278364008665084839e+01 1.248166982084512711e+00 -3.778023392893317123e-01
-1.078278559446334839e+01 2.029783193022012711e+00 -3.312325150705817123e-01
-1.101398676633834839e+01 1.935056630522012711e+00 -3.302254349924567123e-01
-1.125629633665084839e+01 1.835691396147012711e+00 -3.291725785471442123e-01
-1.151166743040084839e+01 1.730955068022012711e+00 -3.280586869455817123e-01
-1.177912348508834839e+01 1.621335927397012711e+00 -3.268837601877692123e-01
-1.206073969602584839e+01 1.505857411772012711e+00 -3.256630570627692123e-01
-1.234076899290084839e+01 1.384397450834512711e+00 -3.242439896799567123e-01
-1.263263911008834839e+01 1.257200185209512711e+00 -3.227486283518317123e-01
-1.067218989133834839e+01 2.028806630522012711e+00 -2.857002885080817123e-01
-1.090851801633834839e+01 1.935178700834512711e+00 -2.839150101877692123e-01
-1.117084711790084839e+01 1.836912099272012711e+00 -2.818550736643317123e-01
-1.144843500852584839e+01 1.732908193022012711e+00 -2.796578080393317123e-01
-1.174079340696334839e+01 1.623533193022012711e+00 -2.773537308908942123e-01
-1.204987543821334839e+01 1.507688466459512711e+00 -2.749123246408942123e-01
-1.236066645383834839e+01 1.385251943022012711e+00 -2.722725541330817123e-01
-1.268696039915084839e+01 1.256223622709512711e+00 -2.692055375315192123e-01
-1.074872797727584839e+01 2.031736318022012711e+00 -2.413429887033942123e-01
-1.100251215696334839e+01 1.937620107084512711e+00 -2.381996781565192123e-01
-1.126996821165084839e+01 1.838499013334512711e+00 -2.348732621408942123e-01
-1.155304926633834839e+01 1.733518544584512711e+00 -2.313637406565192123e-01
-1.185126703977584839e+01 1.623044911772012711e+00 -2.276711137033942123e-01
-1.215009516477584839e+01 1.506467763334512711e+00 -2.237801224924567123e-01
-1.242402094602584839e+01 1.384519521147012711e+00 -2.197670609690192123e-01
-1.271418207883834839e+01 1.256589833647012711e+00 -2.155556351877692123e-01
-1.078522700071334839e+01 2.033811513334512711e+00 -1.962532670237067123e-01
-1.101178950071334839e+01 1.939084950834512711e+00 -1.923164994455817123e-01
-1.124860590696334839e+01 1.839841786772012711e+00 -1.879372269846442123e-01
-1.149787348508834839e+01 1.735471669584512711e+00 -1.833290726877692123e-01
-1.175861567258834839e+01 1.626218739897012711e+00 -1.785225541330817123e-01
-1.203266352415084839e+01 1.511350575834512711e+00 -1.734566361643317123e-01
-1.230732172727584839e+01 1.390500966459512711e+00 -1.682076127268317123e-01
-1.259076899290084839e+01 1.264280263334512711e+00 -1.624550492502692123e-01
-1.069489496946334839e+01 2.033201161772012711e+00 -1.523079545237067123e-01
-1.091669672727584839e+01 1.939329091459512711e+00 -1.471657426096442123e-01
-1.114899653196334839e+01 1.841062489897012711e+00 -1.417641312815192123e-01
-1.142621821165084839e+01 1.737424794584512711e+00 -1.357369096018317123e-01
-1.173176020383834839e+01 1.628171864897012711e+00 -1.292519242502692123e-01
-1.205585688352584839e+01 1.512205068022012711e+00 -1.223702103830817123e-01
-1.238166254758834839e+01 1.389280263334512711e+00 -1.152443558908942123e-01
-1.272431391477584839e+01 1.259519521147012711e+00 -1.077522904612067123e-01
-1.071601313352584839e+01 2.034910146147012711e+00 -1.073860795237067123e-01
-1.098066157102584839e+01 1.941526357084512711e+00 -1.005654008127692123e-01
-1.125947016477584839e+01 1.842771474272012711e+00 -9.363791057839421228e-02
-1.155622309446334839e+01 1.737913075834512711e+00 -8.600851604714421228e-02
-1.186957758665084839e+01 1.627195302397012711e+00 -7.795187542214421228e-02
-1.656354731321334839e+01 1.389036122709512711e+00 -6.966263987067122798e-04
-1.638178461790084839e+01 1.240354482084512711e+00 1.515898015355787720e-03
-1.638691157102584839e+01 1.086790028959512711e+00 6.291898991918287720e-03
-1.082953852415084839e+01 2.038816396147012711e+00 -6.052633831276921228e-02
-1.666510981321334839e+01 2.012815419584512711e+00 5.389932086691828772e-02
-1.664350336790084839e+01 1.856931630522012711e+00 5.826333453879328772e-02
-1.657148188352584839e+01 1.701169911772012711e+00 6.162026813254328772e-02
-1.627411860227584839e+01 1.551389638334512711e+00 6.041482379660578772e-02
-1.618830317258834839e+01 1.401609364897012711e+00 6.332925250754328772e-02
-1.651801508665084839e+01 1.237424794584512711e+00 7.478860309348078772e-02
-1.637946528196334839e+01 1.089353505522012711e+00 7.700112750754328772e-02
-1.194928950071334839e+01 1.269407216459512711e+00 -9.740090043283942123e-01
-1.196027582883834839e+01 1.159299794584512711e+00 -9.715675980783942123e-01
-1.196674555540084839e+01 1.049070302397012711e+00 -9.690956742502692123e-01
-1.197333735227584839e+01 9.381083883345127106e-01 -9.666084916330817123e-01
-1.197980707883834839e+01 8.272685445845127106e-01 -9.641213090158942123e-01
-1.199006098508834839e+01 7.156962789595127106e-01 -9.618630082346442123e-01
-1.203486078977584839e+01 5.996074117720127106e-01 -9.618324906565192123e-01
-1.203754633665084839e+01 4.877910055220127106e-01 -9.593300492502692123e-01
-1.301362055540084839e+01 1.217649403959512711e+00 -9.891762406565192123e-01
-1.307258051633834839e+01 1.093992177397012711e+00 -9.895729691721442123e-01
-1.313984125852584839e+01 9.683818258345127106e-01 -9.901680619455817123e-01
-1.320051020383834839e+01 8.414287008345127106e-01 -9.905800492502692123e-01
-1.326154536008834839e+01 7.132548727095127106e-01 -9.910072953440192123e-01
-1.331293696165084839e+01 5.847148336470127106e-01 -9.907936722971442123e-01
-1.331757563352584839e+01 4.597148336470127106e-01 -9.880470902658942123e-01
-1.332978266477584839e+01 3.338603414595127106e-01 -9.854378373362067123e-01
-1.536738032102584839e+01 1.101804677397012711e+00 -1.068262544367456712e+00
-1.519867914915084839e+01 9.683818258345127106e-01 -1.054743257258081712e+00
-1.503351801633834839e+01 8.377665914595127106e-01 -1.041529145929956712e+00
-1.487104243040084839e+01 7.095927633345127106e-01 -1.028528657648706712e+00
-1.473237055540084839e+01 5.826396383345127106e-01 -1.016947236750269212e+00
-1.474042719602584839e+01 4.437236227095127106e-01 -1.013651338312769212e+00
-1.481122797727584839e+01 2.969951070845127106e-01 -1.013803926203394212e+00
-1.485102289915084839e+01 1.527079977095127106e-01 -1.012201753351831712e+00
-1.608918207883834839e+01 1.067991200834512711e+00 -1.040171113703394212e+00
-1.576642817258834839e+01 9.365214742720127106e-01 -1.018763032648706712e+00
-1.597175043821334839e+01 7.742900289595127106e-01 -1.025370088312769212e+00
-1.690180414915084839e+01 5.494365133345127106e-01 -1.069345918390894212e+00
-1.846894282102584839e+01 2.488994039595127106e-01 -1.145609346125269212e+00
-1.473395746946334839e+01 4.464091695845127106e-01 -9.495491654612067123e-01
-1.775239008665084839e+01 -2.466016635298728943e-02 -1.099405732844019212e+00
-1.743366450071334839e+01 -1.553974710404872894e-01 -1.079004731867456712e+00
-1.600300043821334839e+01 1.074460927397012711e+00 -9.663185746408942123e-01
-1.647406977415084839e+01 8.963603414595127106e-01 -9.845986039377692123e-01
-1.611603754758834839e+01 7.664775289595127106e-01 -9.632973344065192123e-01
-1.603290766477584839e+01 6.209697164595127106e-01 -9.551186234690192123e-01
-1.600654047727584839e+01 4.724101461470127106e-01 -9.496712357737067123e-01
-1.472736567258834839e+01 4.490947164595127106e-01 -8.858589799143317123e-01
-1.901288813352584839e+01 -1.606464944779872894e-01 -1.080393281672144212e+00
-2.131916254758834839e+01 -6.191425882279872894e-01 -1.181452241633081712e+00
-1.632160395383834839e+01 1.060789052397012711e+00 -9.112038285471442123e-01
-1.793305414915084839e+01 8.118876852095127106e-01 -9.759163529612067123e-01
-1.878766840696334839e+01 5.830058492720127106e-01 -1.007700410578394212e+00
-1.680097407102584839e+01 5.621318258345127106e-01 -9.181618363596442123e-01
-1.606733149290084839e+01 4.692363180220127106e-01 -8.826851517893317123e-01
-1.472089594602584839e+01 4.519023336470127106e-01 -8.219093949533942123e-01
-2.145697993040084839e+01 -4.261494241654872894e-01 -1.098612275812769212e+00
-1.969843500852584839e+01 -4.217548929154872894e-01 -1.020456758234644212e+00
-1.583222407102584839e+01 1.087156239897012711e+00 -8.214668900705817123e-01
-1.625629633665084839e+01 9.138163961470127106e-01 -8.335365922190192123e-01
-1.655268305540084839e+01 7.405986227095127106e-01 -8.404640824533942123e-01
-1.614130610227584839e+01 6.168193258345127106e-01 -8.203835160471442123e-01
-1.942853754758834839e+01 1.707744039595127106e-01 -9.397072465158942123e-01
-1.471442621946334839e+01 4.545878805220127106e-01 -7.583565385080817123e-01
-2.174372309446334839e+01 -4.544697366654872894e-01 -1.014795747492456712e+00
-1.967157953977584839e+01 -4.156513772904872894e-01 -9.326271683908942123e-01
-1.637458246946334839e+01 1.062620107084512711e+00 -7.718758256174567123e-01
-1.628010004758834839e+01 9.145488180220127106e-01 -7.642159135080817123e-01
-1.647150629758834839e+01 7.485331930220127106e-01 -7.658180863596442123e-01
-1.619623774290084839e+01 6.147441305220127106e-01 -7.521309525705817123e-01
-1.619025629758834839e+01 4.627665914595127106e-01 -7.474770219065192123e-01
-1.471467036008834839e+01 4.565410055220127106e-01 -6.947884232737067123e-01
-1.759260004758834839e+01 3.049794584512710571e-03 -7.844338090158942123e-01
-2.473542231321334839e+01 -1.018190439790487289e+00 -1.009134736750269212e+00
-1.569867914915084839e+01 1.098020497709512711e+00 -6.809181840158942123e-01
-1.627314203977584839e+01 9.172343648970127106e-01 -6.934151322580817123e-01
-1.639826411008834839e+01 7.558574117720127106e-01 -6.925301224924567123e-01
-1.625385493040084839e+01 6.124247945845127106e-01 -6.838173539377692123e-01
-1.625214594602584839e+01 4.594706930220127106e-01 -6.792549760080817123e-01
-1.471637934446334839e+01 4.584941305220127106e-01 -6.315865189768317123e-01
-2.529902094602584839e+01 -8.367939554154872894e-01 -9.216713578440192123e-01
-2.610346430540084839e+01 -1.177858408540487289e+00 -9.365639359690192123e-01
-1.564435786008834839e+01 1.102781239897012711e+00 -6.120857865549567123e-01
-1.557258051633834839e+01 9.606913961470127106e-01 -6.059364945627692123e-01
-1.633796137571334839e+01 7.622050680220127106e-01 -6.202492387033942123e-01
-1.631635493040084839e+01 6.097392477095127106e-01 -6.151222855783942123e-01
-1.631464594602584839e+01 4.561747945845127106e-01 -6.104988724924567123e-01
-1.471808832883834839e+01 4.603251852095127106e-01 -5.683998734690192123e-01
-2.656330317258834839e+01 -9.710712991654872894e-01 -8.388924271799567123e-01
-1.768696039915084839e+01 -1.705341897904872894e-01 -6.280617387033942123e-01
-1.786518305540084839e+01 9.964579977095127106e-01 -5.897469193674567123e-01
-1.825885981321334839e+01 8.049296773970127106e-01 -5.925545365549567123e-01
-1.633210200071334839e+01 7.648906148970127106e-01 -5.492500931955817123e-01
-1.862995356321334839e+01 4.296855367720127106e-01 -5.893044144846442123e-01
-1.915253657102584839e+01 2.062968648970127106e-01 -5.939736039377692123e-01
-1.471979731321334839e+01 4.622783102095127106e-01 -5.048622758127692123e-01
-2.917389887571334839e+01 -1.251710947602987289e+00 -7.688088090158942123e-01
-1.736640375852584839e+01 -1.298847757279872894e-01 -5.447792680002692123e-01
-1.603534907102584839e+01 1.087888661772012711e+00 -4.834694535471442123e-01
-1.642426508665084839e+01 9.150370992720127106e-01 -4.848885209299567123e-01
-1.626288813352584839e+01 7.718486227095127106e-01 -4.777168900705817123e-01
-1.638202875852584839e+01 6.091288961470127106e-01 -4.747872025705817123e-01
-1.640265864133834839e+01 4.528788961470127106e-01 -4.703621537424567123e-01
-1.472150629758834839e+01 4.641093648970127106e-01 -4.416603715158942123e-01
-2.916633051633834839e+01 -1.246706064790487289e+00 -6.388039262033942123e-01
-2.580243891477584839e+01 -1.130617197602987289e+00 -5.842537553049567123e-01
-1.278571528196334839e+01 1.247678700834512711e+00 -3.778023392893317123e-01
-1.310138911008834839e+01 1.111570302397012711e+00 -3.775887162424567123e-01
-1.343586176633834839e+01 9.676494039595127106e-01 -3.776650101877692123e-01
-1.379010981321334839e+01 8.148173727095127106e-01 -3.774361283518317123e-01
-1.416449946165084839e+01 6.534404195845127106e-01 -3.771767289377692123e-01
-1.456220453977584839e+01 4.819316305220127106e-01 -3.769173295237067123e-01
-1.496564692258834839e+01 3.010234273970127106e-01 -3.760933549143317123e-01
-1.539020746946334839e+01 1.098613180220127106e-01 -3.755440385080817123e-01
-1.263471430540084839e+01 1.256711903959512711e+00 -3.227486283518317123e-01
-1.294196528196334839e+01 1.122678700834512711e+00 -3.210243851877692123e-01
-1.326655024290084839e+01 9.810771383345127106e-01 -3.192085892893317123e-01
-1.364936274290084839e+01 8.277568258345127106e-01 -3.174996049143317123e-01
-1.405719965696334839e+01 6.647929586470127106e-01 -3.156990678049567123e-01
-1.449286860227584839e+01 4.907206930220127106e-01 -3.137612015940192123e-01
-1.494306391477584839e+01 3.056620992720127106e-01 -3.116097123362067123e-01
-1.541742914915084839e+01 1.087626852095127106e-01 -3.092751176096442123e-01
-1.268927973508834839e+01 1.255735341459512711e+00 -2.692055375315192123e-01
-1.303425043821334839e+01 1.119016591459512711e+00 -2.663674027658942123e-01
-1.340168207883834839e+01 9.736308492720127106e-01 -2.630562455393317123e-01
-1.379426020383834839e+01 8.183574117720127106e-01 -2.595009476877692123e-01
-1.420270746946334839e+01 6.539287008345127106e-01 -2.557320267893317123e-01
-1.459430903196334839e+01 4.827861227095127106e-01 -2.516731888987067123e-01
-1.499140375852584839e+01 3.024882711470127106e-01 -2.473549515940192123e-01
-1.540851801633834839e+01 1.120585836470127106e-01 -2.424263627268317123e-01
-1.271625727415084839e+01 1.256101552397012711e+00 -2.155403763987067123e-01
-1.302143305540084839e+01 1.121457997709512711e+00 -2.108864457346442123e-01
-1.334357661008834839e+01 9.793681539595127106e-01 -2.059731156565192123e-01
-1.368512934446334839e+01 8.287333883345127106e-01 -2.007698685862067123e-01
-1.404548090696334839e+01 6.697978414595127106e-01 -1.952767045237067123e-01
-1.442756098508834839e+01 5.012187398970127106e-01 -1.894478471018317123e-01
-1.487604731321334839e+01 3.171367086470127106e-01 -1.830544144846442123e-01
-1.536835688352584839e+01 1.190165914595127106e-01 -1.761727006174567123e-01
-1.259284418821334839e+01 1.263791982084512711e+00 -1.624245316721442123e-01
-1.292988032102584839e+01 1.128538075834512711e+00 -1.564125687815192123e-01
-1.330854243040084839e+01 9.835185445845127106e-01 -1.495613724924567123e-01
-1.371430414915084839e+01 8.282451070845127106e-01 -1.422371537424567123e-01
-1.414692133665084839e+01 6.627177633345127106e-01 -1.344093949533942123e-01
-1.461066645383834839e+01 4.852275289595127106e-01 -1.260323197580817123e-01
-2.711896723508834839e+01 -1.004152353852987289e+00 -7.257905695581712280e-03
-2.728058832883834839e+01 -1.286378916352987289e+00 3.484281804418287720e-03
-1.272675532102584839e+01 1.259031239897012711e+00 -1.077065140940192123e-01
-1.309198969602584839e+01 1.120847646147012711e+00 -9.943625042214421228e-02
-1.639411371946334839e+01 7.763652242720127106e-01 -5.436178753151921228e-02
-1.640973871946334839e+01 6.204814352095127106e-01 -4.908224651589421228e-02
-1.753302973508834839e+01 3.674296773970127106e-01 -2.927633831276921228e-02
-1.921515864133834839e+01 3.674120083451271057e-02 -1.215425226831712280e-03
-2.665717524290084839e+01 -9.503193460404872894e-01 1.072898237966057877e-01
-2.738166254758834839e+01 -1.294313486665487289e+00 1.260123579762932877e-01
-1.638678950071334839e+01 1.086301747709512711e+00 6.307157780980787720e-03
-1.852448481321334839e+01 8.096904195845127106e-01 4.715493610129328772e-02
-1.636603754758834839e+01 7.805156148970127106e-01 1.579812457785578772e-02
-1.925348871946334839e+01 4.019755758345127106e-01 7.108071735129328772e-02
-4.052900141477584839e+01 -1.645998056977987289e+00 4.537101118825432877e-01
-2.704084223508834839e+01 -7.250996194779872894e-01 2.236991255544182877e-01
-2.635151118040084839e+01 -9.134541116654872894e-01 2.204032271169182877e-01
-2.736310786008834839e+01 -1.288087900727987289e+00 2.478537886403557877e-01
-1.637934321165084839e+01 1.088865224272012711e+00 7.700112750754328772e-02
-1.634968012571334839e+01 9.371318258345127106e-01 8.116677692160578772e-02
-1.633710688352584839e+01 7.846660055220127106e-01 8.606484821066828772e-02
-1.729767817258834839e+01 5.562724508345127106e-01 1.123557417653557877e-01
-4.053351801633834839e+01 -1.640626963227987289e+00 6.363883345387932877e-01
-2.706025141477584839e+01 -7.230244241654872894e-01 3.445334761403557877e-01
-1.922809809446334839e+01 -1.429462991654872894e-01 1.732993452809807877e-01
-3.389142817258834839e+01 -2.052492197602987289e+00 5.224204390309807877e-01
-1.203779047727584839e+01 4.874247945845127106e-01 -9.593453080393317123e-01
-1.205463618040084839e+01 3.734111227095127106e-01 -9.575447709299567123e-01
-1.207258051633834839e+01 2.586650289595127106e-01 -9.560646683908942123e-01
-1.209076899290084839e+01 1.426982320845127106e-01 -9.545693070627692123e-01
-1.210895746946334839e+01 2.648729458451271057e-02 -9.530739457346442123e-01
-1.212714594602584839e+01 -9.045606479048728943e-02 -9.515633256174567123e-01
-1.214570063352584839e+01 -2.086201272904872894e-01 -9.500527055002692123e-01
-1.215864008665084839e+01 -3.260517679154872894e-01 -9.484505326487067123e-01
-1.333002680540084839e+01 3.333720602095127106e-01 -9.854378373362067123e-01
-1.333381098508834839e+01 2.081279195845127106e-01 -9.826607377268317123e-01
-1.334540766477584839e+01 8.129686489701271057e-02 -9.800362260080817123e-01
-1.334931391477584839e+01 -4.553418979048728943e-02 -9.772133500315192123e-01
-1.335309809446334839e+01 -1.722431741654872894e-01 -9.744057328440192123e-01
-1.335700434446334839e+01 -2.995625101029872894e-01 -9.715828568674567123e-01
-1.336054438352584839e+01 -4.276142679154872894e-01 -9.690193803049567123e-01
-1.338996332883834839e+01 -5.606709085404872894e-01 -9.676613480783942123e-01
-1.485138911008834839e+01 1.522197164595127106e-01 -1.012217012140894212e+00
-1.488190668821334839e+01 8.054677397012710571e-03 -1.010416475031519212e+00
-1.490925043821334839e+01 -1.367207132279872894e-01 -1.008417573664331712e+00
-1.493683832883834839e+01 -2.829609476029872894e-01 -1.006403413508081712e+00
-1.499531000852584839e+01 -4.346943460404872894e-01 -1.006052461359644212e+00
-1.500312250852584839e+01 -5.794697366654872894e-01 -1.002924409601831712e+00
-1.501105707883834839e+01 -7.252216897904872894e-01 -9.997658402658942123e-01
-1.501899164915084839e+01 -8.712177835404872894e-01 -9.966072709299567123e-01
-1.743171137571334839e+01 -1.557636819779872894e-01 -1.078897920344019212e+00
-1.713166254758834839e+01 -2.828388772904872894e-01 -1.059137788508081712e+00
-1.687397211790084839e+01 -4.104023538529872894e-01 -1.042047944758081712e+00
-1.688520258665084839e+01 -5.742207132279872894e-01 -1.038477388117456712e+00
-1.691047114133834839e+01 -7.404804788529872894e-01 -1.035578218195581712e+00
-1.692926996946334839e+01 -9.067402444779872894e-01 -1.032358613703394212e+00
-1.694831293821334839e+01 -1.074342783540487289e+00 -1.029108491633081712e+00
-1.694965571165084839e+01 -1.239015635102987289e+00 -1.025385347101831712e+00
-2.132038325071334839e+01 -6.199970804154872894e-01 -1.181482759211206712e+00
-2.146418207883834839e+01 -8.442402444779872894e-01 -1.182688203547144212e+00
-1.963324946165084839e+01 -7.950459085404872894e-01 -1.093958345148706712e+00
-1.730768793821334839e+01 -6.353779397904872894e-01 -9.838051469065192123e-01
-1.954584711790084839e+01 -1.161500986665487289e+00 -1.080057588312769212e+00
-1.767133539915084839e+01 -1.031007822602987289e+00 -9.913124711252692123e-01
-1.963093012571334839e+01 -1.557985361665487289e+00 -1.073847261164331712e+00
-1.974616450071334839e+01 -1.771974619477987289e+00 -1.073908296320581712e+00
-1.969928950071334839e+01 -4.224873147904872894e-01 -1.020487275812769212e+00
-2.175336664915084839e+01 -8.786640726029872894e-01 -1.099359956476831712e+00
-1.965363520383834839e+01 -7.949238382279872894e-01 -1.007959809992456712e+00
-1.730988520383834839e+01 -6.330586038529872894e-01 -9.077858597971442123e-01
-2.472028559446334839e+01 -1.989137705415487289e+00 -1.201792207453394212e+00
-1.766449946165084839e+01 -1.027223642915487289e+00 -9.129891068674567123e-01
-2.389057368040084839e+01 -2.326295908540487289e+00 -1.155725923273706712e+00
-2.357160395383834839e+01 -2.501100596040487289e+00 -1.137354341242456712e+00
-1.967243403196334839e+01 -4.165058694779872894e-01 -9.326424271799567123e-01
-2.455024164915084839e+01 -1.238527353852987289e+00 -1.105356660578394212e+00
-1.967389887571334839e+01 -7.949238382279872894e-01 -9.222511918283942123e-01
-1.731196039915084839e+01 -6.308613382279872894e-01 -8.321480424143317123e-01
-2.590973871946334839e+01 -2.176149424165487289e+00 -1.133936372492456712e+00
-1.733857172727584839e+01 -9.689961038529872894e-01 -8.238930375315192123e-01
-3.051691645383834839e+01 -3.521242197602987289e+00 -1.281366792414331712e+00
-3.074494379758834839e+01 -3.868898447602987289e+00 -1.280909028742456712e+00
-2.473639887571334839e+01 -1.019044931977987289e+00 -1.009134736750269212e+00
-2.486982172727584839e+01 -1.276369150727987289e+00 -1.006601777765894212e+00
-1.969440668821334839e+01 -7.949238382279872894e-01 -8.359169633127692123e-01
-1.731415766477584839e+01 -6.286640726029872894e-01 -7.561287553049567123e-01
-3.057782953977584839e+01 -2.920167978852987289e+00 -1.162104097101831712e+00
-1.737970942258834839e+01 -9.732685647904872894e-01 -7.486824662424567123e-01
-1.723493403196334839e+01 -1.115968760102987289e+00 -7.399239213205817123e-01
-3.378376215696334839e+01 -4.444582041352987289e+00 -1.233576265070581712e+00
-2.613923090696334839e+01 -1.182985361665487289e+00 -9.375252396799567123e-01
-2.635248774290084839e+01 -1.464723642915487289e+00 -9.359535844065192123e-01
-1.971479243040084839e+01 -7.948017679154872894e-01 -7.498726517893317123e-01
-1.731635493040084839e+01 -6.264668069779872894e-01 -6.804909379221442123e-01
-2.593793696165084839e+01 -2.172853525727987289e+00 -9.025826127268317123e-01
-1.742072504758834839e+01 -9.776630960404872894e-01 -6.735329301096442123e-01
-1.727558344602584839e+01 -1.120607431977987289e+00 -6.648964555002692123e-01
-4.219819086790084839e+01 -6.045412119477987289e+00 -1.293695893976831712e+00
-1.768525141477584839e+01 -1.709004007279872894e-01 -6.280159623362067123e-01
-1.970929926633834839e+01 -6.014423929154872894e-01 -6.687111527658942123e-01
-1.726777094602584839e+01 -4.505634866654872894e-01 -6.086678178049567123e-01
-1.731855219602584839e+01 -6.242695413529872894e-01 -6.048531205393317123e-01
-2.598981684446334839e+01 -2.177248056977987289e+00 -7.878670365549567123e-01
-1.746198481321334839e+01 -9.821796976029872894e-01 -5.980171830393317123e-01
-1.731611078977584839e+01 -1.125368174165487289e+00 -5.898995072580817123e-01
-4.756305903196334839e+01 -7.061891611665487289e+00 -1.212870088312769212e+00
-1.736652582883834839e+01 -1.304951272904872894e-01 -5.447640092112067123e-01
-1.968219965696334839e+01 -5.950947366654872894e-01 -5.812630326487067123e-01
-1.740290278196334839e+01 -4.669209085404872894e-01 -5.353188187815192123e-01
-1.732074946165084839e+01 -6.219502054154872894e-01 -5.288185746408942123e-01
-1.788178461790084839e+01 -8.780537210404872894e-01 -5.332893998362067123e-01
-1.750361078977584839e+01 -9.865742288529872894e-01 -5.217232377268317123e-01
-1.735712641477584839e+01 -1.130128916352987289e+00 -5.141548783518317123e-01
-3.857697504758834839e+01 -5.342042978852987289e+00 -8.500771195627692123e-01
-2.580182856321334839e+01 -1.131349619477987289e+00 -5.842079789377692123e-01
-1.752082270383834839e+01 -3.132343851029872894e-01 -4.661354691721442123e-01
-1.753962153196334839e+01 -4.834004007279872894e-01 -4.611763627268317123e-01
-1.711957758665084839e+01 -5.893574319779872894e-01 -4.505867631174567123e-01
-1.763715571165084839e+01 -8.364277444779872894e-01 -4.518837601877692123e-01
-1.754523676633834839e+01 -9.909687601029872894e-01 -4.454750687815192123e-01
-1.901789301633834839e+01 -1.426637705415487289e+00 -4.574532181955817123e-01
-1.835297602415084839e+01 -1.485475596040487289e+00 -4.440865189768317123e-01
-1.539325922727584839e+01 1.090068258345127106e-01 -3.755592972971442123e-01
-1.584528559446334839e+01 -9.472852572798728943e-02 -3.748421342112067123e-01
-1.632953852415084839e+01 -3.126240335404872894e-01 -3.744911820627692123e-01
-1.685297602415084839e+01 -5.471211038529872894e-01 -3.737282426096442123e-01
-1.741437739133834839e+01 -7.982197366654872894e-01 -3.729195267893317123e-01
-1.758710688352584839e+01 -9.954853616654872894e-01 -3.688606888987067123e-01
-1.893427485227584839e+01 -1.408693369477987289e+00 -3.725075394846442123e-01
-1.836408442258834839e+01 -1.484743174165487289e+00 -3.628029496408942123e-01
-1.542084711790084839e+01 1.079081930220127106e-01 -3.092751176096442123e-01
-1.593049067258834839e+01 -1.033955179154872894e-01 -3.066048295237067123e-01
-1.647907465696334839e+01 -3.309345804154872894e-01 -3.037209183908942123e-01
-1.706232661008834839e+01 -5.758076272904872894e-01 -3.005776078440192123e-01
-1.756208246946334839e+01 -8.192158304154872894e-01 -2.967781693674567123e-01
-1.762946528196334839e+01 -1.000001963227987289e+00 -2.914528519846442123e-01
-1.890021723508834839e+01 -1.399660166352987289e+00 -2.889351517893317123e-01
-1.965595453977584839e+01 -1.727541025727987289e+00 -2.845101029612067123e-01
-1.541156977415084839e+01 1.112040914595127106e-01 -2.424111039377692123e-01
-1.585700434446334839e+01 -9.167676791548728943e-02 -2.376808793283942123e-01
-1.633124750852584839e+01 -3.081074319779872894e-01 -2.322487504221442123e-01
-1.684015864133834839e+01 -5.401630960404872894e-01 -2.264198930002692123e-01
-1.741449946165084839e+01 -7.930927835404872894e-01 -2.201637894846442123e-01
-1.816840571165084839e+01 -1.088625010102987289e+00 -2.131447465158942123e-01
-1.901410883665084839e+01 -1.417238291352987289e+00 -2.053627640940192123e-01
-1.838617914915084839e+01 -1.483400400727987289e+00 -2.004036576487067123e-01
-1.537189692258834839e+01 1.180400289595127106e-01 -1.761421830393317123e-01
-1.590290278196334839e+01 -9.533887729048728943e-02 -1.684517533518317123e-01
-1.647638911008834839e+01 -3.258076272904872894e-01 -1.601509721018317123e-01
-1.753168696165084839e+01 -6.406269632279872894e-01 -1.485848099924567123e-01
-1.756720942258834839e+01 -8.148212991654872894e-01 -1.426491410471442123e-01
-1.727985590696334839e+01 -9.355488382279872894e-01 -1.387886674143317123e-01
-1.808039301633834839e+01 -1.246828135102987289e+00 -1.275581986643317123e-01
-1.839716547727584839e+01 -1.482667978852987289e+00 -1.193031937815192123e-01
-2.727814692258834839e+01 -1.286989267915487289e+00 3.484281804418287720e-03
-2.636042231321334839e+01 -1.434572275727987289e+00 3.011259343480787720e-03
-2.006159418821334839e+01 -8.195820413529872894e-01 -5.213400432839421228e-02
-1.956818598508834839e+01 -9.406757913529872894e-01 -5.060812542214421228e-02
-1.945832270383834839e+01 -1.112428721040487289e+00 -4.525229046120671228e-02
-1.745795649290084839e+01 -9.631367288529872894e-01 -6.116720745339421228e-02
-1.785639399290084839e+01 -1.203859385102987289e+00 -5.069967815651921228e-02
-1.840827387571334839e+01 -1.481935556977987289e+00 -3.766867229714421228e-02
-2.738178461790084839e+01 -1.295167978852987289e+00 1.260428755544182877e-01
-2.635627192258834839e+01 -1.430177744477987289e+00 1.206260054372307877e-01
-1.821406000852584839e+01 -5.612812601029872894e-01 9.084257390355787720e-03
-1.953974360227584839e+01 -9.334736429154872894e-01 3.539040973410578772e-02
-7.807062739133834839e+01 -1.040747266635298729e+01 9.511618941091057877e-01
-1.788141840696334839e+01 -1.031984385102987289e+00 2.240518024191828772e-02
-1.726935786008834839e+01 -1.096071299165487289e+00 1.859048297629328772e-02
-1.841938227415084839e+01 -1.481203135102987289e+00 4.361489703879328772e-02
-2.736322993040084839e+01 -1.288942392915487289e+00 2.478843062184807877e-01
-2.636408442258834839e+01 -1.427248056977987289e+00 2.383933394216057877e-01
-1.781818598508834839e+01 -5.039082132279872894e-01 8.095315387473078772e-02
-3.837946528196334839e+01 -3.724489267915487289e+00 4.942221968434807877e-01
-1.758307856321334839e+01 -8.094502054154872894e-01 8.855203082785578772e-02
-1.949946039915084839e+01 -1.302248056977987289e+00 1.340079634450432877e-01
-1.844660395383834839e+01 -1.304079111665487289e+00 1.192832319997307877e-01
-1.843049067258834839e+01 -1.480470713227987289e+00 1.254020064137932877e-01
-3.389167231321334839e+01 -2.053590830415487289e+00 5.224662153981682877e-01
-2.641755121946334839e+01 -1.430177744477987289e+00 3.566794722341057877e-01
-2.963093012571334839e+01 -2.130861338227987289e+00 4.434867232106682877e-01
-1.828547114133834839e+01 -7.419453226029872894e-01 1.768088667653557877e-01
-1.947577875852584839e+01 -1.106447275727987289e+00 2.128196089528557877e-01
-1.768781489133834839e+01 -9.940205179154872894e-01 1.746878950856682877e-01
-1.860175532102584839e+01 -1.329103525727987289e+00 2.043662398122307877e-01
-1.956440180540084839e+01 -1.692140635102987289e+00 2.364554732106682877e-01
-1.215876215696334839e+01 -3.265400491654872894e-01 -9.484505326487067123e-01
-1.216779536008834839e+01 -4.438496194779872894e-01 -9.463905961252692123e-01
-1.216230219602584839e+01 -5.588398538529872894e-01 -9.436745316721442123e-01
-1.215668696165084839e+01 -6.745625101029872894e-01 -9.409279496408942123e-01
-1.215107172727584839e+01 -7.904072366654872894e-01 -9.381966263987067123e-01
-1.214557856321334839e+01 -9.064961038529872894e-01 -9.354500443674567123e-01
-1.213984125852584839e+01 -1.023561533540487289e+00 -9.326882035471442123e-01
-1.213007563352584839e+01 -1.139406260102987289e+00 -9.299568803049567123e-01
-1.339008539915084839e+01 -5.611591897904872894e-01 -9.676613480783942123e-01
-1.341083735227584839e+01 -6.936054788529872894e-01 -9.661202103830817123e-01
-1.343989008665084839e+01 -8.288593851029872894e-01 -9.647164017893317123e-01
-1.346113032102584839e+01 -9.639912210404872894e-01 -9.631447465158942123e-01
-1.348237055540084839e+01 -1.099611338227987289e+00 -9.615730912424567123e-01
-1.350385493040084839e+01 -1.236452158540487289e+00 -9.599709183908942123e-01
-1.351716059446334839e+01 -1.372682627290487289e+00 -9.582008988596442123e-01
-1.353876703977584839e+01 -1.511476572602987289e+00 -9.565834672190192123e-01
-1.501923578977584839e+01 -8.717060647904872894e-01 -9.965920121408942123e-01
-1.501728266477584839e+01 -1.016481455415487289e+00 -9.932503373362067123e-01
-1.501545161008834839e+01 -1.161745127290487289e+00 -9.898781449533942123e-01
-1.501362055540084839e+01 -1.308229502290487289e+00 -9.864906937815192123e-01
-1.502656000852584839e+01 -1.458253916352987289e+00 -9.838661820627692123e-01
-1.505854243040084839e+01 -1.613771494477987289e+00 -9.822334916330817123e-01
-1.509101313352584839e+01 -1.771364267915487289e+00 -9.805702836252692123e-01
-1.512360590696334839e+01 -1.929811533540487289e+00 -9.788918168283942123e-01
-1.695014399290084839e+01 -1.239748056977987289e+00 -1.025385347101831712e+00
-1.697895258665084839e+01 -1.410524424165487289e+00 -1.022516694758081712e+00
-1.704377192258834839e+01 -1.590333994477987289e+00 -1.021753755304956712e+00
-1.710956782102584839e+01 -1.773073252290487289e+00 -1.020975557062769212e+00
-1.717597407102584839e+01 -1.957521494477987289e+00 -1.020182100031519212e+00
-1.721259516477584839e+01 -2.136842783540487289e+00 -1.017939058039331712e+00
-1.721589106321334839e+01 -2.309816416352987289e+00 -1.014048066828394212e+00
