-1.304575812816619873e+01 1.109639789909124374e+00 -9.919962099753263374e-01
-1.311094367504119873e+01 9.881798289716243744e-01 -9.925607851706388374e-01
-1.476939094066619873e+01 1.825460102409124374e+00 -1.062949579115951337e+00
-1.182725226879119873e+01 1.702291157096624374e+00 -8.823160341940763374e-01
-1.179038703441619873e+01 1.598043110221624374e+00 -8.769449404440763374e-01
-1.514597785472869873e+01 1.413594868034124374e+00 -1.073142450209701337e+00
-1.564194953441619873e+01 1.258809711784124374e+00 -1.098288934584701337e+00
-1.558713996410369873e+01 1.118062641471624374e+00 -1.090735833998763837e+00
-1.495554816722869873e+01 1.008931782096624374e+00 -1.049460809584701337e+00
-1.480723273754119873e+01 8.819786570966243744e-01 -1.036704461928451337e+00
-1.485093390941619873e+01 1.827901508659124374e+00 -1.005698602553451337e+00
-1.182859504222869873e+01 1.703878071159124374e+00 -8.338236025534513374e-01
-1.178770148754119873e+01 1.599507953971624374e+00 -8.283914736472013374e-01
-1.570176398754119873e+01 1.402486469596624374e+00 -1.039679925795638837e+00
-1.582041633129119873e+01 1.254903461784124374e+00 -1.041785638686263837e+00
-1.571226203441619873e+01 1.114766743034124374e+00 -1.031531732436263837e+00
-1.541734015941619873e+01 9.862267039716243744e-01 -1.011252801772201337e+00
-1.565208137035369873e+01 8.303429149091243744e-01 -1.019919793959701337e+00
-1.507102668285369873e+01 1.831319477409124374e+00 -9.544595888815763374e-01
-1.528587043285369873e+01 1.693502094596624374e+00 -9.612039736472013374e-01
-1.178892219066619873e+01 1.601094868034124374e+00 -7.803262881003263374e-01
-1.564219367504119873e+01 1.406026508659124374e+00 -9.705881289206388374e-01
-1.579942023754119873e+01 1.257833149284124374e+00 -9.740671328268888374e-01
-1.594480597972869873e+01 1.106832172721624374e+00 -9.768747500143888374e-01
-1.616465461254119873e+01 9.483849070966243744e-01 -9.832376650534513374e-01
-1.579197394847869873e+01 8.236290477216243744e-01 -9.604562929831388374e-01
-1.527512824535369873e+01 1.834615375846624374e+00 -9.008096865378263374e-01
-1.478831183910369873e+01 1.697164203971624374e+00 -8.737100771628263374e-01
-1.179014289379119873e+01 1.602559711784124374e+00 -7.320169619284513374e-01
-1.555784308910369873e+01 1.410054828971624374e+00 -9.005655459128263374e-01
-1.734580695629119873e+01 1.208516743034124374e+00 -9.771799257956388374e-01
-1.599021613597869873e+01 1.107076313346624374e+00 -9.113077334128263374e-01
-1.760996711254119873e+01 8.736778758466243744e-01 -9.791635683737638374e-01
-1.919773566722869873e+01 6.104942820966243744e-01 -1.045051019545638837e+00
-1.540672004222869873e+01 1.837545063346624374e+00 -8.418955019675138374e-01
-1.486338508129119873e+01 1.698873188346624374e+00 -8.149789980612638374e-01
-1.179136359691619873e+01 1.604024555534124374e+00 -6.839517763815763374e-01
-1.542466437816619873e+01 1.415181782096624374e+00 -8.296732119284513374e-01
-1.573350226879119873e+01 1.264180805534124374e+00 -8.379129580222013374e-01
-1.549107062816619873e+01 1.130757953971624374e+00 -8.237070254050138374e-01
-1.592649543285369873e+01 9.654747508466243744e-01 -8.367838076315763374e-01
-1.624326789379119873e+01 7.994591258466243744e-01 -8.449014834128263374e-01
-1.553989875316619873e+01 1.840474750846624374e+00 -7.822183779440763374e-01
-1.511228644847869873e+01 1.700093891471624374e+00 -7.620004824362638374e-01
-1.179270637035369873e+01 1.605611469596624374e+00 -6.356271914206388374e-01
-1.533091437816619873e+01 1.419454243034124374e+00 -7.611154726706388374e-01
-1.564634406566619873e+01 1.269185688346624374e+00 -7.681955507956388374e-01
-1.542588508129119873e+01 1.135640766471624374e+00 -7.558969668112638374e-01
-1.594932258129119873e+01 9.664513133466243744e-01 -7.704538515768888374e-01
-1.616648566722869873e+01 8.065392039716243744e-01 -7.735819033347013374e-01
-1.515281379222869873e+01 1.839742328971624374e+00 -7.039407900534513374e-01
-1.504942023754119873e+01 1.702169086784124374e+00 -6.963113955222013374e-01
-1.179392707347869873e+01 1.607076313346624374e+00 -5.875620058737638374e-01
-1.530491340160369873e+01 1.422139789909124374e+00 -6.959451845847013374e-01
-1.556077277660369873e+01 1.274190571159124374e+00 -6.996835879050138374e-01
-1.537070930004119873e+01 1.140035297721624374e+00 -6.893533877097013374e-01
-1.597898566722869873e+01 9.670616649091243744e-01 -7.037576845847013374e-01
-1.609019172191619873e+01 8.136192820966243744e-01 -7.026285341940763374e-01
-1.512107551097869873e+01 1.841451313346624374e+00 -6.395792177878263374e-01
-1.511460578441619873e+01 1.704000141471624374e+00 -6.351236513815763374e-01
-1.179514777660369873e+01 1.608541157096624374e+00 -5.394968203268888374e-01
-1.472459113597869873e+01 1.437276508659124374e+00 -6.159433535300138374e-01
-1.549277961254119873e+01 1.278463032096624374e+00 -6.324381045065763374e-01
-1.532334601879119873e+01 1.144185688346624374e+00 -6.235422304831388374e-01
-1.525498664379119873e+01 1.007344868034124374e+00 -6.173776797018888374e-01
-1.600303351879119873e+01 8.213097117841243744e-01 -6.324686220847013374e-01
-1.507175910472869873e+01 1.843038227409124374e+00 -5.747598818503263374e-01
-1.639329230785369873e+01 1.702657368034124374e+00 -6.011728457175138374e-01
-1.179636847972869873e+01 1.610006000846624374e+00 -4.911722353659513374e-01
-1.465440070629119873e+01 1.440816547721624374e+00 -5.524820498190763374e-01
-1.534861457347869873e+01 1.285176899284124374e+00 -5.638040713034513374e-01
-1.527610480785369873e+01 1.148214008659124374e+00 -5.578378847800138374e-01
-1.591990363597869873e+01 9.746300242841243744e-01 -5.674204043112638374e-01
-1.603184211254119873e+01 8.216759227216243744e-01 -5.652536562643888374e-01
-1.497483527660369873e+01 1.844258930534124374e+00 -5.098642519675138374e-01
-1.634666144847869873e+01 1.704976703971624374e+00 -5.311655214987638374e-01
-1.179758918285369873e+01 1.611592914909124374e+00 -4.431070498190763374e-01
-1.632066047191619873e+01 1.405416157096624374e+00 -5.212930849753263374e-01
-1.627769172191619873e+01 1.257222797721624374e+00 -5.158456972800138374e-01
-1.609983527660369873e+01 1.115499164909124374e+00 -5.080789736472013374e-01
-1.610520637035369873e+01 9.670616649091243744e-01 -5.035165957175138374e-01
-1.596616828441619873e+01 8.280235789716243744e-01 -4.965585879050138374e-01
-1.487876594066619873e+01 1.845479633659124374e+00 -4.455331972800138374e-01
-1.630161750316619873e+01 1.707173969596624374e+00 -4.612497500143888374e-01
-1.179880988597869873e+01 1.613057758659124374e+00 -3.950571230612638374e-01
-1.645017707347869873e+01 1.404805805534124374e+00 -4.542001894675138374e-01
-1.529990851879119873e+01 1.290914203971624374e+00 -4.343790224753263374e-01
-1.663486945629119873e+01 1.095113422721624374e+00 -4.470743349753263374e-01
-1.610227668285369873e+01 9.695030711591243744e-01 -4.352335146628263374e-01
-1.594395148754119873e+01 8.315636180341243744e-01 -4.286569765768888374e-01
-1.118418586254119873e+01 1.818624164909124374e+00 -3.473123720847013374e-01
-1.142564094066619873e+01 1.719747211784124374e+00 -3.464883974753263374e-01
-1.167942512035369873e+01 1.615987446159124374e+00 -3.456339052878263374e-01
-1.193638312816619873e+01 1.506734516471624374e+00 -3.446268252097013374e-01
-1.219932258129119873e+01 1.392354633659124374e+00 -3.435129336081388374e-01
-1.247568976879119873e+01 1.272115375846624374e+00 -3.423532656393888374e-01
-1.276768195629119873e+01 1.145162250846624374e+00 -3.411173037253263374e-01
-1.307432258129119873e+01 1.011739399284124374e+00 -3.398203066550138374e-01
-1.106846320629119873e+01 1.819112446159124374e+00 -3.012460879050138374e-01
-1.130479133129119873e+01 1.721456196159124374e+00 -2.995676211081388374e-01
-1.155234992504119873e+01 1.619039203971624374e+00 -2.975382021628263374e-01
-1.182920539379119873e+01 1.510640766471624374e+00 -2.954630068503263374e-01
-1.211192023754119873e+01 1.396749164909124374e+00 -2.932504824362638374e-01
-1.241526496410369873e+01 1.276265766471624374e+00 -2.909311464987638374e-01
-1.273753058910369873e+01 1.148458149284124374e+00 -2.884592226706388374e-01
-1.307871711254119873e+01 1.013326313346624374e+00 -2.855753115378263374e-01
-1.110093390941619873e+01 1.820699360221624374e+00 -2.565836123190763374e-01
-1.136436164379119873e+01 1.722798969596624374e+00 -2.535623720847013374e-01
-1.164268195629119873e+01 1.619405414909124374e+00 -2.503580263815763374e-01
-1.184116828441619873e+01 1.511861469596624374e+00 -2.470010927878263374e-01
-1.222092902660369873e+01 1.394918110221624374e+00 -2.434000185690763374e-01
-1.253049933910369873e+01 1.273214008659124374e+00 -2.396158388815763374e-01
-1.284678351879119873e+01 1.144429828971624374e+00 -2.356332949362638374e-01
-1.315122687816619873e+01 1.010518696159124374e+00 -2.314676455222013374e-01
-1.117966926097869873e+01 1.822774555534124374e+00 -2.112039736472013374e-01
-1.141587531566619873e+01 1.724141743034124374e+00 -2.072977236472013374e-01
-1.166318976879119873e+01 1.620748188346624374e+00 -2.029337099753263374e-01
-1.184238898754119873e+01 1.513326313346624374e+00 -1.987375429831388374e-01
-1.217112433910369873e+01 1.398091938346624374e+00 -1.936563662253263374e-01
-1.244028937816619873e+01 1.278585102409124374e+00 -1.886972597800138374e-01
-1.272422492504119873e+01 1.152486469596624374e+00 -1.834634951315763374e-01
-1.302146613597869873e+01 1.020284321159124374e+00 -1.776804140768888374e-01
-1.108530890941619873e+01 1.823384907096624374e+00 -1.668466738425138374e-01
-1.131638801097869873e+01 1.725728657096624374e+00 -1.616739443503263374e-01
-1.155881965160369873e+01 1.623433735221624374e+00 -1.562418154440763374e-01
-1.181419074535369873e+01 1.515523578971624374e+00 -1.505045107565763374e-01
-1.210020148754119873e+01 1.401876118034124374e+00 -1.443399599753263374e-01
-1.241807258129119873e+01 1.281148578971624374e+00 -1.376413515768888374e-01
-1.275657355785369873e+01 1.152608539909124374e+00 -1.305154970847013374e-01
-1.311533820629119873e+01 1.016378071159124374e+00 -1.229623964987638374e-01
-1.106333625316619873e+01 1.824605610221624374e+00 -1.221689394675138374e-01
-1.133836066722869873e+01 1.727193500846624374e+00 -1.153330019675138374e-01
-1.162876594066619873e+01 1.624044086784124374e+00 -1.083444765768888374e-01
-1.193247687816619873e+01 1.514547016471624374e+00 -1.007455996237638374e-01
-1.223594367504119873e+01 1.399190571159124374e+00 -9.294835841282633737e-02
-1.256199347972869873e+01 1.276876118034124374e+00 -8.463231837376383737e-02
-1.604710090160369873e+01 9.854942820966243744e-01 -2.803746974095133737e-02
-1.606626594066619873e+01 8.373009227216243744e-01 -2.301732813938883737e-02
-1.118088996410369873e+01 1.826924946159124374e+00 -7.521764552220133737e-02
-1.599912726879119873e+01 1.722676899284124374e+00 1.485498631373616263e-02
-1.589976203441619873e+01 1.577657368034124374e+00 1.775415623561116263e-02
-1.582346808910369873e+01 1.433492328971624374e+00 2.103479588404866263e-02
-2.189133918285369873e+01 1.099874164909124374e+00 1.413045712746736626e-01
-1.614329230785369873e+01 1.131246235221624374e+00 3.656824314967366263e-02
-1.603440558910369873e+01 9.884239695966243744e-01 3.922327244654866263e-02
-1.712705695629119873e+01 7.748009227216243744e-01 6.623132908717366263e-02
-1.190879523754119873e+01 1.062886860221624374e+00 -9.660562685690763374e-01
-1.194968879222869873e+01 9.537560008466243744e-01 -9.656900576315763374e-01
-1.199583137035369873e+01 8.431602977216243744e-01 -9.659036806784513374e-01
-1.204270637035369873e+01 7.309776805341243744e-01 -9.661173037253263374e-01
-1.207175910472869873e+01 6.198936961591243744e-01 -9.651254824362638374e-01
-1.208128058910369873e+01 5.101524852216243744e-01 -9.628366640768888374e-01
-1.209092414379119873e+01 3.996788524091243744e-01 -9.605325869284513374e-01
-1.209483039379119873e+01 2.899376414716243744e-01 -9.581064394675138374e-01
-1.311143195629119873e+01 9.876915477216243744e-01 -9.925760439597013374e-01
-1.316953742504119873e+01 8.652550242841243744e-01 -9.929727724753263374e-01
-1.323557746410369873e+01 7.407433055341243744e-01 -9.935373476706388374e-01
-1.327390754222869873e+01 6.169640086591243744e-01 -9.926218203268888374e-01
-1.328696906566619873e+01 4.951378367841243744e-01 -9.901346377097013374e-01
-1.330015265941619873e+01 3.728233836591243744e-01 -9.876321963034513374e-01
-1.330625617504119873e+01 2.503868602216243744e-01 -9.849771670065763374e-01
-1.331956183910369873e+01 1.270958445966243744e-01 -9.824594668112638374e-01
-1.480625617504119873e+01 8.814903758466243744e-01 -1.036643426772201337e+00
-1.465525519847869873e+01 7.575890086591243744e-01 -1.024131219740951337e+00
-1.456174933910369873e+01 6.316124461591243744e-01 -1.015021722670638837e+00
-1.440086066722869873e+01 5.130821727216243744e-01 -1.002067010756576337e+00
-1.462754523754119873e+01 3.576866649091243744e-01 -1.011344354506576337e+00
-1.466062629222869873e+01 2.196251414716243744e-01 -1.009482782240951337e+00
-1.469419562816619873e+01 8.009877428412437439e-02 -1.007621209975326337e+00
-1.472776496410369873e+01 -5.991587415337562561e-02 -1.005729120131576337e+00
-1.565159308910369873e+01 8.298546336591243744e-01 -1.019874017592513837e+00
-1.657200324535369873e+01 6.186729930341243744e-01 -1.064521234389388837e+00
-1.816380012035369873e+01 3.325401805341243744e-01 -1.144584100600326337e+00
-1.439451301097869873e+01 5.156456492841243744e-01 -9.410165957175138374e-01
-1.748643195629119873e+01 6.325307115912437439e-02 -1.099463861342513837e+00
-1.719053351879119873e+01 -6.614146009087562561e-02 -1.079413812514388837e+00
-1.690379035472869873e+01 -1.916297413408756256e-01 -1.059989374037826337e+00
-1.662144172191619873e+01 -3.117469288408756256e-01 -1.041343133803451337e+00
-1.579148566722869873e+01 8.231407664716243744e-01 -9.604257754050138374e-01
-1.571116340160369873e+01 6.841026805341243744e-01 -9.523538759909513374e-01
-1.568467414379119873e+01 5.420128367841243744e-01 -9.469217470847013374e-01
-1.439097297191619873e+01 5.180870555341243744e-01 -8.805002382956388374e-01
-1.869651496410369873e+01 -5.954966321587562561e-02 -1.082663934584701337e+00
-1.862278449535369873e+01 -2.264197804033756256e-01 -1.074134271498763837e+00
-2.107139289379119873e+01 -7.050574757158756256e-01 -1.184791009780013837e+00
-2.121275031566619873e+01 -9.240516163408756256e-01 -1.185691278334701337e+00
-1.630161750316619873e+01 7.929893992841243744e-01 -9.164804629050138374e-01
-1.648154914379119873e+01 6.299034617841243744e-01 -9.196695498190763374e-01
-1.574277961254119873e+01 5.393272899091243744e-01 -8.828958681784513374e-01
-1.439268195629119873e+01 5.199181102216243744e-01 -8.199381045065763374e-01
-2.106858527660369873e+01 -3.021033741533756256e-01 -1.104453485365951337e+00
-2.120420539379119873e+01 -5.167029835283756256e-01 -1.104468744155013837e+00
-1.946226203441619873e+01 -5.030311085283756256e-01 -1.024375360365951337e+00
-2.149216926097869873e+01 -9.582313038408756256e-01 -1.105399530287826337e+00
-1.624485480785369873e+01 7.988487742841243744e-01 -8.449472597800138374e-01
-1.581504523754119873e+01 6.809288524091243744e-01 -8.235544375143888374e-01
-1.909995734691619873e+01 2.624718211591243744e-01 -9.479440859518888374e-01
-1.439426887035369873e+01 5.217491649091243744e-01 -7.596964052878263374e-01
-2.133775031566619873e+01 -3.267615772783756256e-01 -1.023673456069076337e+00
-2.148264777660369873e+01 -5.451453663408756256e-01 -1.023246209975326337e+00
-1.943613898754119873e+01 -4.969275929033756256e-01 -9.394601992331388374e-01
-2.425632941722869873e+01 -1.324198100715875626e+00 -1.115668695326888837e+00
-1.616807258129119873e+01 8.059288524091243744e-01 -7.736124209128263374e-01
-1.586741340160369873e+01 6.793419383466243744e-01 -7.586588076315763374e-01
-1.586021125316619873e+01 5.340782664716243744e-01 -7.536844423972013374e-01
-1.439597785472869873e+01 5.237022899091243744e-01 -6.991342714987638374e-01
-2.228245246410369873e+01 -4.211219288408756256e-01 -9.628671816550138374e-01
-2.430796515941619873e+01 -8.616736866533756256e-01 -1.024650018569076337e+00
-1.940989387035369873e+01 -4.908240772783756256e-01 -8.548196963034513374e-01
-2.467771613597869873e+01 -1.376688335090875626e+00 -1.023444574233138837e+00
-1.609165656566619873e+01 8.130089305341243744e-01 -7.026590517722013374e-01
-1.592075812816619873e+01 6.776329539716243744e-01 -6.929697207175138374e-01
-1.591941535472869873e+01 5.313927195966243744e-01 -6.884683779440763374e-01
-1.439756476879119873e+01 5.255333445966243744e-01 -6.388773134909513374e-01
-2.448801887035369873e+01 -6.448768116533756256e-01 -9.308389834128263374e-01
-1.721360480785369873e+01 -5.625376477837562561e-02 -7.125772646628263374e-01
-1.938377082347869873e+01 -4.847205616533756256e-01 -7.699808291159513374e-01
-2.750510871410369873e+01 -1.749735210090875626e+00 -9.951090029440763374e-01
-1.600278937816619873e+01 8.208214305341243744e-01 -6.324533632956388374e-01
-1.598045051097869873e+01 6.755577586591243744e-01 -6.273264101706388374e-01
-1.810862433910369873e+01 3.525597117841243744e-01 -6.767191103659513374e-01
-1.439927375316619873e+01 5.273643992841243744e-01 -5.786356142722013374e-01
-2.585923469066619873e+01 -7.822059132158756256e-01 -8.578714541159513374e-01
-1.738657844066619873e+01 -7.334360852837562561e-02 -6.434091738425138374e-01
-1.935776984691619873e+01 -4.786170460283756256e-01 -6.858591250143888374e-01
-2.936094367504119873e+01 -1.992655131965875626e+00 -9.181436709128263374e-01
-1.603159797191619873e+01 8.211876414716243744e-01 -5.652383974753263374e-01
-1.830466926097869873e+01 5.092979930341243744e-01 -6.084360293112638374e-01
-2.570859992504119873e+01 -2.718299366533756256e-01 -7.564920595847013374e-01
-1.440098273754119873e+01 5.293175242841243744e-01 -5.180582216940763374e-01
-2.576755988597869873e+01 -7.689002491533756256e-01 -7.422708681784513374e-01
-1.753025519847869873e+01 -8.701548352837562561e-02 -5.716623476706388374e-01
-1.933176887035369873e+01 -4.725135304033756256e-01 -6.015543154440763374e-01
-1.704124152660369873e+01 -3.503211475908756256e-01 -5.520090273581388374e-01
-1.596702277660369873e+01 8.274132274091243744e-01 -4.965585879050138374e-01
-1.608213508129119873e+01 6.726280711591243744e-01 -4.937967470847013374e-01
-1.609422004222869873e+01 5.237022899091243744e-01 -4.892801455222013374e-01
-1.440256965160369873e+01 5.311485789716243744e-01 -4.578165224753263374e-01
-1.931821906566619873e+01 -1.042273975908756256e-01 -5.297311953268888374e-01
-1.713560187816619873e+01 -4.001841321587562561e-02 -4.908670595847013374e-01
-1.715366828441619873e+01 -2.024939991533756256e-01 -4.860300234518888374e-01
-1.717173469066619873e+01 -3.650916554033756256e-01 -4.811929873190763374e-01
-1.594431769847869873e+01 8.310753367841243744e-01 -4.286569765768888374e-01
-1.356882941722869873e+01 8.563438914716243744e-01 -3.958505800925138374e-01
-1.392246711254119873e+01 7.044884227216243744e-01 -3.962625673972013374e-01
-1.429807746410369873e+01 5.427452586591243744e-01 -3.963693789206388374e-01
-1.467515265941619873e+01 3.736778758466243744e-01 -3.962625673972013374e-01
-1.507468879222869873e+01 1.941124461591243744e-01 -3.961252382956388374e-01
-1.549985969066619873e+01 2.584125846624374390e-03 -3.956369570456388374e-01
-1.595274055004119873e+01 -2.009070850908756256e-01 -3.954691103659513374e-01
-1.307651984691619873e+01 1.011251118034124374e+00 -3.398203066550138374e-01
-1.340025031566619873e+01 8.702599070966243744e-01 -3.383249453268888374e-01
-1.374302375316619873e+01 7.210899852216243744e-01 -3.367227724753263374e-01
-1.410764777660369873e+01 5.623985789716243744e-01 -3.350290468893888374e-01
-1.451377570629119873e+01 3.922325633466243744e-01 -3.333505800925138374e-01
-1.494749152660369873e+01 2.105919383466243744e-01 -3.315653017722013374e-01
-1.541807258129119873e+01 1.491322740912437439e-02 -3.296884707175138374e-01
-1.592161262035369873e+01 -1.944373585283756256e-01 -3.276590517722013374e-01
-1.308115851879119873e+01 1.012715961784124374e+00 -2.855600527487638374e-01
-1.344285285472869873e+01 8.690392039716243744e-01 -2.829050234518888374e-01
-1.382908332347869873e+01 7.159630320966243744e-01 -2.797769716940763374e-01
-1.424290168285369873e+01 5.519005320966243744e-01 -2.764047793112638374e-01
-1.466502082347869873e+01 3.788048289716243744e-01 -2.727884463034513374e-01
-1.509568488597869873e+01 1.960655711591243744e-01 -2.688974550925138374e-01
-1.551499640941619873e+01 5.269672721624374390e-03 -2.646707705222013374e-01
-1.595896613597869873e+01 -1.971229054033756256e-01 -2.598337343893888374e-01
-1.315342414379119873e+01 1.010030414909124374e+00 -2.314523867331388374e-01
-1.347434699535369873e+01 8.686729930341243744e-01 -2.268442324362638374e-01
-1.381394660472869873e+01 7.191368602216243744e-01 -2.219614199362638374e-01
-1.417503058910369873e+01 5.600792430341243744e-01 -2.167734316550138374e-01
-1.454331672191619873e+01 3.933311961591243744e-01 -2.113413027487638374e-01
-1.492698371410369873e+01 2.171837352216243744e-01 -2.055887392722013374e-01
-1.534763801097869873e+01 2.797475084662437439e-02 -1.994089297018888374e-01
-1.587107551097869873e+01 -1.830848194658756256e-01 -1.925424746237638374e-01
-1.302354133129119873e+01 1.019796039909124374e+00 -1.776498964987638374e-01
-1.333799445629119873e+01 8.802696727216243744e-01 -1.718973330222013374e-01
-1.373008430004119873e+01 7.279259227216243744e-01 -1.650919131003263374e-01
-1.415830695629119873e+01 5.636192820966243744e-01 -1.577371767722013374e-01
-1.459946906566619873e+01 3.896690867841243744e-01 -1.499857119284513374e-01
-1.506589972972869873e+01 2.037560008466243744e-01 -1.417307070456388374e-01
-1.556895148754119873e+01 3.194477409124374390e-03 -1.328348330222013374e-01
-2.609483039379119873e+01 -1.530130717903375626e+00 -3.658239161595133737e-02
-1.311790168285369873e+01 1.015767719596624374e+00 -1.229318789206388374e-01
-1.350144660472869873e+01 8.703819774091243744e-01 -1.145700625143888374e-01
-1.391160285472869873e+01 7.149864695966243744e-01 -1.056436709128263374e-01
-1.894382941722869873e+01 1.278282664716243744e-01 -4.154149806126383737e-02
-1.893357551097869873e+01 -4.831919446587562561e-02 -3.556005274876383737e-02
-1.892344367504119873e+01 -2.245887257158756256e-01 -2.956334864720133737e-02
-2.617869269847869873e+01 -1.285990092903375626e+00 7.024439061061116263e-02
-2.609812629222869873e+01 -1.526590678840875626e+00 7.784326756373616263e-02
-1.606651008129119873e+01 8.368126414716243744e-01 -2.298681056126383737e-02
-1.608054816722869873e+01 6.884972117841243744e-01 -1.761571681126383737e-02
-2.728770148754119873e+01 -3.703406788408756256e-01 1.677633115090486626e-01
-1.898032844066619873e+01 1.272179149091243744e-01 4.010828221217366263e-02
-2.593015754222869873e+01 -7.548621632158756256e-01 1.631704160012361626e-01
-2.647727668285369873e+01 -1.063700053840875626e+00 1.812215634621736626e-01
-2.621677863597869873e+01 -1.286600444465875626e+00 1.861654111184236626e-01
-1.913096320629119873e+01 -6.053260304033756256e-01 6.813867771998616263e-02
-1.712778937816619873e+01 7.741905711591243744e-01 6.626184666529866263e-02
-1.698826301097869873e+01 6.261192820966243744e-01 6.862695896998616263e-02
-1.698826301097869873e+01 4.692589305341243744e-01 7.416589939967366263e-02
-2.669895637035369873e+01 -5.739539600908756256e-01 2.844777890481111626e-01
-2.594920051097869873e+01 -7.530311085283756256e-01 2.774282285012361626e-01
-3.368687140941619873e+01 -1.862039897590875626e+00 4.548421689309236626e-01
-3.360667121410369873e+01 -2.179788921028375626e+00 4.646383115090486626e-01
-1.905076301097869873e+01 -5.918982960283756256e-01 1.489797421731111626e-01
-1.209483039379119873e+01 2.895714305341243744e-01 -9.581064394675138374e-01
-1.210313117504119873e+01 1.788536570966243744e-01 -9.557565859518888374e-01
-1.211277472972869873e+01 6.740346178412437439e-02 -9.537576845847013374e-01
-1.213120734691619873e+01 -4.648813977837562561e-02 -9.522928408347013374e-01
-1.214963996410369873e+01 -1.607459522783756256e-01 -9.508432558737638374e-01
-1.216831672191619873e+01 -2.758582569658756256e-01 -9.493631533347013374e-01
-1.217783820629119873e+01 -3.902381397783756256e-01 -9.472879580222013374e-01
-1.217490851879119873e+01 -5.022986866533756256e-01 -9.446787050925138374e-01
-1.331968390941619873e+01 1.267296336591243744e-01 -9.824594668112638374e-01
-1.332493293285369873e+01 3.926899284124374390e-03 -9.797586611472013374e-01
-1.333750617504119873e+01 -1.204627491533756256e-01 -9.772104433737638374e-01
-1.334287726879119873e+01 -2.447303272783756256e-01 -9.744943789206388374e-01
-1.335630500316619873e+01 -3.704627491533756256e-01 -9.722360781393888374e-01
-1.338584601879119873e+01 -4.998572804033756256e-01 -9.709390810690763374e-01
-1.340806281566619873e+01 -6.293738819658756256e-01 -9.694742373190763374e-01
-1.343797004222869873e+01 -7.609656788408756256e-01 -9.681619814597013374e-01
-1.472813117504119873e+01 -6.052622571587562561e-02 -1.005744378920638837e+00
-1.479087531566619873e+01 -2.057898975908756256e-01 -1.005790155287826337e+00
-1.487730109691619873e+01 -3.564246632158756256e-01 -1.007117669936263837e+00
-1.488706672191619873e+01 -4.972938038408756256e-01 -1.004111688490951337e+00
-1.489683234691619873e+01 -6.381629444658756256e-01 -1.001120965834701337e+00
-1.490672004222869873e+01 -7.798865772783756256e-01 -9.980997256003263374e-01
-1.491660773754119873e+01 -9.225867725908756256e-01 -9.950632265768888374e-01
-1.492649543285369873e+01 -1.065653178840875626e+00 -9.920114687643888374e-01
-1.661973273754119873e+01 -3.119910694658756256e-01 -1.041236322280013837e+00
-1.664512336254119873e+01 -4.710486866533756256e-01 -1.038093011733138837e+00
-1.666660773754119873e+01 -6.305945850908756256e-01 -1.035087030287826337e+00
-1.668833625316619873e+01 -7.916053272783756256e-01 -1.032065790053451337e+00
-1.671006476879119873e+01 -9.531043507158756256e-01 -1.029044549819076337e+00
-1.673203742504119873e+01 -1.115702006965875626e+00 -1.025992792006576337e+00
-1.675413215160369873e+01 -1.279764506965875626e+00 -1.022910516615951337e+00
-1.679856574535369873e+01 -1.448831889778375626e+00 -1.021308343764388837e+00
-2.121384894847869873e+01 -9.249061085283756256e-01 -1.185706537123763837e+00
-1.700950324535369873e+01 -5.210975147783756256e-01 -9.839853457175138374e-01
-1.907896125316619873e+01 -1.000223491340875626e+00 -1.075721185561263837e+00
-1.916758430004119873e+01 -1.197000835090875626e+00 -1.074897210951888837e+00
-1.922190558910369873e+01 -1.389505717903375626e+00 -1.072455804701888837e+00
-1.920676887035369873e+01 -1.571024272590875626e+00 -1.066794793959701337e+00
-1.927598273754119873e+01 -1.769876811653375626e+00 -1.064933221694076337e+00
-1.949998176097869873e+01 -2.002054546028375626e+00 -1.069999139662826337e+00
-2.149314582347869873e+01 -9.590857960283756256e-01 -1.105414789076888837e+00
-1.701170051097869873e+01 -5.189002491533756256e-01 -9.108957461081388374e-01
-2.427805793285369873e+01 -1.798563335090875626e+00 -1.209800165053451337e+00
-1.703464972972869873e+01 -8.434852100908756256e-01 -9.029611757956388374e-01
-2.714329230785369873e+01 -2.769632671028375626e+00 -1.314719598647201337e+00
-1.959470832347869873e+01 -1.639749858528375626e+00 -9.986795595847013374e-01
-2.291526496410369873e+01 -2.477396342903375626e+00 -1.128257196303451337e+00
-2.314121711254119873e+01 -2.747537944465875626e+00 -1.131720941420638837e+00
-2.425730597972869873e+01 -1.325174663215875626e+00 -1.115683954115951337e+00
-1.701377570629119873e+01 -5.165809132158756256e-01 -8.382028750143888374e-01
-2.497605597972869873e+01 -1.902201030403375626e+00 -1.129065912123763837e+00
-1.707407844066619873e+01 -8.473914600908756256e-01 -8.312753847800138374e-01
-2.748801887035369873e+01 -2.825540874153375626e+00 -1.206977289076888837e+00
-1.959714972972869873e+01 -1.637064311653375626e+00 -9.134592226706388374e-01
-3.045151984691619873e+01 -3.943827006965875626e+00 -1.298072259780013837e+00
-3.319639289379119873e+01 -4.809305522590875626e+00 -1.387290399428451337e+00
-2.469260871410369873e+01 -1.379495952278375626e+00 -1.023917596694076337e+00
-1.701585090160369873e+01 -5.143836475908756256e-01 -7.654947451315763374e-01
-2.569651496410369873e+01 -2.009134624153375626e+00 -1.041999261733138837e+00
-1.711399543285369873e+01 -8.512977100908756256e-01 -7.588724306784513374e-01
-3.039561164379119873e+01 -3.327860210090875626e+00 -1.176978509780013837e+00
-1.959971320629119873e+01 -1.634500835090875626e+00 -8.277811220847013374e-01
-3.345713508129119873e+01 -4.524637553840875626e+00 -1.255851190444076337e+00
-3.711082160472869873e+01 -5.607401225715875626e+00 -1.359229486342513837e+00
-2.750620734691619873e+01 -1.750833842903375626e+00 -9.951242617331388374e-01
-1.701804816722869873e+01 -5.121863819658756256e-01 -6.924051455222013374e-01
-2.570322883129119873e+01 -2.006204936653375626e+00 -9.290231875143888374e-01
-1.715391242504119873e+01 -8.552039600908756256e-01 -6.865152529440763374e-01
-3.356919562816619873e+01 -3.875589702278375626e+00 -1.127845208998763837e+00
-1.960215461254119873e+01 -1.631937358528375626e+00 -7.425455263815763374e-01
-4.156553351879119873e+01 -6.098123881965875626e+00 -1.320273797865951337e+00
-4.453159797191619873e+01 -7.123026225715875626e+00 -1.385642450209701337e+00
-2.936045539379119873e+01 -1.993509624153375626e+00 -9.180978945456388374e-01
-1.702012336254119873e+01 -5.099891163408756256e-01 -6.196970156393888374e-01
-2.603855597972869873e+01 -2.053690288215875626e+00 -8.236307314597013374e-01
-1.719395148754119873e+01 -8.592322804033756256e-01 -6.137918642722013374e-01
-2.614451301097869873e+01 -2.578836772590875626e+00 -8.104318789206388374e-01
-1.691477668285369873e+01 -1.133768413215875626e+00 -5.975717714987638374e-01
-3.761948859691619873e+01 -5.323709819465875626e+00 -1.045890252944076337e+00
-4.726743781566619873e+01 -7.676248881965875626e+00 -1.242484491225326337e+00
-1.704136359691619873e+01 -3.509314991533756256e-01 -5.519937685690763374e-01
-1.702232062816619873e+01 -5.076697804033756256e-01 -5.466074160300138374e-01
-3.641270148754119873e+01 -3.639871928840875626e+00 -9.002145937643888374e-01
-2.606126105785369873e+01 -2.306619975715875626e+00 -7.007517031393888374e-01
-4.230515754222869873e+01 -5.382913921028375626e+00 -9.827188662253263374e-01
-1.960715949535369873e+01 -1.626688335090875626e+00 -5.716165713034513374e-01
-3.738401496410369873e+01 -5.271707866340875626e+00 -8.714060000143888374e-01
-4.704380500316619873e+01 -7.622660014778375626e+00 -1.022635858412826337e+00
-1.717185676097869873e+01 -3.657020069658756256e-01 -4.811777285300138374e-01
-1.702439582347869873e+01 -5.054725147783756256e-01 -4.738840273581388374e-01
-1.761558234691619873e+01 -7.558387257158756256e-01 -4.769205263815763374e-01
-3.661228644847869873e+01 -4.026224467903375626e+00 -7.285379580222013374e-01
-1.713303840160369873e+01 -1.006082866340875626e+00 -4.597696474753263374e-01
-1.917747199535369873e+01 -1.544657085090875626e+00 -4.808115175925138374e-01
-1.799131476879119873e+01 -1.499124858528375626e+00 -4.599832705222013374e-01
-2.120127570629119873e+01 -2.328348491340875626e+00 -4.935678652487638374e-01
-1.595603644847869873e+01 -2.018836475908756256e-01 -3.954843691550138374e-01
-1.643992316722869873e+01 -4.194129444658756256e-01 -3.951944521628263374e-01
-1.696006476879119873e+01 -6.529334522783756256e-01 -3.952707461081388374e-01
-1.745249640941619873e+01 -8.935340382158756256e-01 -3.943552187643888374e-01
-1.813364875316619873e+01 -1.176981303840875626e+00 -3.947061709128263374e-01
-1.892771613597869873e+01 -1.495706889778375626e+00 -3.955148867331388374e-01
-1.800193488597869873e+01 -1.498392436653375626e+00 -3.817972353659513374e-01
-2.114536750316619873e+01 -2.313577983528375626e+00 -3.996652773581388374e-01
-1.592527472972869873e+01 -1.954139210283756256e-01 -3.276590517722013374e-01
-1.646836555004119873e+01 -4.211219288408756256e-01 -3.253244570456388374e-01
-1.704014289379119873e+01 -6.625770069658756256e-01 -3.227152041159513374e-01
-1.744602668285369873e+01 -8.898719288408756256e-01 -3.189768007956388374e-01
-1.834641730785369873e+01 -1.211038921028375626e+00 -3.168863466940763374e-01
-1.904795539379119873e+01 -1.514871928840875626e+00 -3.134378603659513374e-01
-1.801255500316619873e+01 -1.497660014778375626e+00 -3.039468935690763374e-01
-1.772263801097869873e+01 -1.611185405403375626e+00 -2.972788027487638374e-01
-1.596213996410369873e+01 -1.979773975908756256e-01 -2.598184756003263374e-01
-1.643784797191619873e+01 -4.142859913408756256e-01 -2.551798037253263374e-01
-1.694590461254119873e+01 -6.457313038408756256e-01 -2.498239687643888374e-01
-1.744675910472869873e+01 -8.873084522783756256e-01 -2.440866640768888374e-01
-1.814121711254119873e+01 -1.172708842903375626e+00 -2.378305605612638374e-01
-1.897984015941619873e+01 -1.499368999153375626e+00 -2.309030703268888374e-01
-1.802317512035369873e+01 -1.496805522590875626e+00 -2.260049990378263374e-01
-1.777293097972869873e+01 -1.618631694465875626e+00 -2.200845888815763374e-01
-1.587485969066619873e+01 -1.840613819658756256e-01 -1.925119570456388374e-01
-1.644163215160369873e+01 -4.123328663408756256e-01 -1.848215273581388374e-01
-1.704221808910369873e+01 -6.578162647783756256e-01 -1.765512636862638374e-01
-1.703477180004119873e+01 -8.176063038408756256e-01 -1.708902529440763374e-01
-1.924424445629119873e+01 -1.360697124153375626e+00 -1.531747988425138374e-01
-1.773338019847869873e+01 -1.268045756965875626e+00 -1.554330996237638374e-01
-1.803391730785369873e+01 -1.496073100715875626e+00 -1.475748232565763374e-01
-1.782310187816619873e+01 -1.626077983528375626e+00 -1.428445986472013374e-01
-2.609556281566619873e+01 -1.531107280403375626e+00 -3.653661524876383737e-02
-1.926292121410369873e+01 -8.110145069658756256e-01 -8.949987208470133737e-02
-1.906882941722869873e+01 -9.639686085283756256e-01 -8.472387110813883737e-02
-1.704478156566619873e+01 -8.167518116533756256e-01 -9.784642970188883737e-02
-1.685313117504119873e+01 -9.445594288408756256e-01 -9.395543849095133737e-02
-1.810703742504119873e+01 -1.333719585090875626e+00 -7.508031642063883737e-02
-1.759129035472869873e+01 -1.407694194465875626e+00 -7.439367091282633737e-02
-1.787400519847869873e+01 -1.633524272590875626e+00 -6.473485743626383737e-02
-2.609885871410369873e+01 -1.527567241340875626e+00 7.788904393092366263e-02
-3.302244269847869873e+01 -2.761698100715875626e+00 1.815419980324861626e-01
-1.769370734691619873e+01 -7.518104054033756256e-01 -2.130834376438883737e-02
-1.922092902660369873e+01 -1.167459819465875626e+00 6.844122055923662629e-03
-1.754258430004119873e+01 -1.061014506965875626e+00 -1.117650782688883737e-02
-1.811509406566619873e+01 -1.332376811653375626e+00 3.624517563736162629e-03
-4.752695930004119873e+01 -7.188822124153375626e+00 4.665761777199861626e-01
-4.794627082347869873e+01 -7.751810405403375626e+00 4.908529111184236626e-01
-1.913352668285369873e+01 -6.063025929033756256e-01 6.819971287623616263e-02
-3.317442023754119873e+01 -2.778177592903375626e+00 3.316579648293611626e-01
-3.929917609691619873e+01 -4.032938335090875626e+00 4.572072812356111626e-01
-1.911753547191619873e+01 -1.147806499153375626e+00 8.792932713404866263e-02
-1.889927375316619873e+01 -1.292337749153375626e+00 9.055383885279866263e-02
-1.812302863597869873e+01 -1.331034038215875626e+00 8.197839939967366263e-02
-1.806602180004119873e+01 -1.493753764778375626e+00 8.777673924342366263e-02
-4.794089972972869873e+01 -7.742777202278375626e+00 7.095876523293611626e-01
-1.905320441722869873e+01 -5.928748585283756256e-01 1.490560361184236626e-01
-3.578062140941619873e+01 -3.142191264778375626e+00 5.385518857277986626e-01
-3.933933722972869873e+01 -4.032816264778375626e+00 6.348806210793611626e-01
-1.884080207347869873e+01 -1.099954936653375626e+00 1.643758603371736626e-01
-1.869102180004119873e+01 -1.253519389778375626e+00 1.676564999856111626e-01
-1.686106574535369873e+01 -1.097879741340875626e+00 1.297231503762361626e-01
-1.866843879222869873e+01 -1.607157085090875626e+00 1.808400937356111626e-01
-4.796494758129119873e+01 -7.739725444465875626e+00 9.289632626809236626e-01
-1.217490851879119873e+01 -5.026648975908756256e-01 -9.446787050925138374e-01
-1.217588508129119873e+01 -6.159461475908756256e-01 -9.420999697409513374e-01
-1.217551887035369873e+01 -7.294715382158756256e-01 -9.397043398581388374e-01
-1.219041144847869873e+01 -8.475135304033756256e-01 -9.382394961081388374e-01
-1.220518195629119873e+01 -9.660438038408756256e-01 -9.367746523581388374e-01
-1.222019660472869873e+01 -1.085550639778375626e+00 -9.352945498190763374e-01
-1.223533332347869873e+01 -1.206278178840875626e+00 -9.337991884909513374e-01
-1.224412238597869873e+01 -1.325785014778375626e+00 -9.321817568503263374e-01
-1.343833625316619873e+01 -7.614539600908756256e-01 -9.681619814597013374e-01
-1.345994269847869873e+01 -8.923133350908756256e-01 -9.666666201315763374e-01
-1.348960578441619873e+01 -1.026102397590875626e+00 -9.653085879050138374e-01
-1.351170051097869873e+01 -1.159647319465875626e+00 -9.637674502097013374e-01
-1.353391730785369873e+01 -1.294046733528375626e+00 -9.622263125143888374e-01
-1.353965461254119873e+01 -1.425150249153375626e+00 -9.597086123190763374e-01
-1.353086555004119873e+01 -1.553568217903375626e+00 -9.566415957175138374e-01
-1.352854621410369873e+01 -1.683817241340875626e+00 -9.536203554831388374e-01
-1.492649543285369873e+01 -1.066141460090875626e+00 -9.919962099753263374e-01
-1.492734992504119873e+01 -1.207987163215875626e+00 -9.887766054831388374e-01
-1.493296515941619873e+01 -1.351541850715875626e+00 -9.858011416159513374e-01
-1.496568000316619873e+01 -1.502909038215875626e+00 -9.842294863425138374e-01
-1.499851691722869873e+01 -1.655130717903375626e+00 -9.826730898581388374e-01
-1.503159797191619873e+01 -1.808939311653375626e+00 -9.810861757956388374e-01
-1.503928840160369873e+01 -1.957743022590875626e+00 -9.781107119284513374e-01
-1.504002082347869873e+01 -2.104837749153375626e+00 -9.747537783347013374e-01
-1.679905402660369873e+01 -1.449442241340875626e+00 -1.021323602553451337e+00
-1.688108527660369873e+01 -1.628275249153375626e+00 -1.021094720717513837e+00
-1.694651496410369873e+01 -1.805887553840875626e+00 -1.020392816420638837e+00
-1.698484504222869873e+01 -1.979715678840875626e+00 -1.018287103530013837e+00
-1.699155890941619873e+01 -2.146829936653375626e+00 -1.014624994155013837e+00
-1.699839484691619873e+01 -2.314798686653375626e+00 -1.010932367201888837e+00
-1.700510871410369873e+01 -2.484354350715875626e+00 -1.007209222670638837e+00
-1.699912726879119873e+01 -2.650736186653375626e+00 -1.003257196303451337e+00
-1.950181281566619873e+01 -2.003031108528375626e+00 -1.070060174819076337e+00
-1.966148078441619873e+01 -2.226785991340875626e+00 -1.072440545912826337e+00
-1.973667609691619873e+01 -2.435526225715875626e+00 -1.070945184584701337e+00
-1.975376594066619873e+01 -2.633646342903375626e+00 -1.066810052748763837e+00
-1.977085578441619873e+01 -2.832498881965875626e+00 -1.062644403334701337e+00
-1.978806769847869873e+01 -3.032572124153375626e+00 -1.058463495131576337e+00
-1.980540168285369873e+01 -3.234842631965875626e+00 -1.054236810561263837e+00
-1.982285773754119873e+01 -3.437601421028375626e+00 -1.049994867201888837e+00
-2.225352180004119873e+01 -2.565775249153375626e+00 -1.095878045912826337e+00
-2.340659797191619873e+01 -3.032572124153375626e+00 -1.135795038100326337e+00
-2.367442023754119873e+01 -3.324076030403375626e+00 -1.140372674819076337e+00
-2.373496711254119873e+01 -3.573953960090875626e+00 -1.136573236342513837e+00
-2.377195441722869873e+01 -3.819681499153375626e+00 -1.131797235365951337e+00
-2.380918586254119873e+01 -4.067362163215875626e+00 -1.126990716811263837e+00
-2.384678351879119873e+01 -4.317850444465875626e+00 -1.122107904311263837e+00
-2.394761359691619873e+01 -4.587259624153375626e+00 -1.120215814467513837e+00
-3.319810187816619873e+01 -4.810770366340875626e+00 -1.387305658217513837e+00
-3.276768195629119873e+01 -5.049295756965875626e+00 -1.363013666030013837e+00
-3.110252082347869873e+01 -5.001077983528375626e+00 -1.295630853530013837e+00
-3.029844367504119873e+01 -5.124368999153375626e+00 -1.259086053725326337e+00
-3.017625129222869873e+01 -5.399881694465875626e+00 -1.246497552748763837e+00
-3.046592414379119873e+01 -5.780496928840875626e+00 -1.248023431655013837e+00
-3.087583625316619873e+01 -6.202127788215875626e+00 -1.253394525405013837e+00
-3.107786262035369873e+01 -6.574808452278375626e+00 -1.251517694350326337e+00
-3.710972297191619873e+01 -5.608377788215875626e+00 -1.359153192397201337e+00
-3.693272101879119873e+01 -5.942240092903375626e+00 -1.343146722670638837e+00
-4.437742316722869873e+01 -7.997537944465875626e+00 -1.557502191420638837e+00
-3.030186164379119873e+01 -5.120096538215875626e+00 -1.121817987319076337e+00
-4.116196906566619873e+01 -8.110208842903375626e+00 -1.436057489272201337e+00
-4.202109992504119873e+01 -8.753885600715875626e+00 -1.449332635756576337e+00
-4.235679328441619873e+01 -9.278910014778375626e+00 -1.447760980483138837e+00
-4.292637336254119873e+01 -9.877054546028375626e+00 -1.451713006850326337e+00
-4.453355109691619873e+01 -7.124979350715875626e+00 -1.385642450209701337e+00
-5.112107551097869873e+01 -8.993753764778375626e+00 -1.543281000014388837e+00
-5.457542121410369873e+01 -1.029429087415337563e+01 -1.616477411147201337e+00
-3.030540168285369873e+01 -5.115824077278375626e+00 -9.852670839987638374e-01
-4.116648566722869873e+01 -8.104349467903375626e+00 -1.247916620131576337e+00
-5.469627082347869873e+01 -1.201182017102837563e+01 -1.569648187514388837e+00
-6.194797980785369873e+01 -1.452744517102837563e+01 -1.729636590834701337e+00
-6.314292609691619873e+01 -1.550925669446587563e+01 -1.739234369155013837e+00
-4.726743781566619873e+01 -7.677835796028375626e+00 -1.242423456069076337e+00
-4.664170539379119873e+01 -8.020609233528375626e+00 -1.214515130873763837e+00
-6.277134406566619873e+01 -1.213547739759087563e+01 -1.537711542006576337e+00
-3.030881965160369873e+01 -5.111673686653375626e+00 -8.487314394675138374e-01
-4.117100226879119873e+01 -8.098368022590875626e+00 -1.059775750990951337e+00
-5.470225226879119873e+01 -1.200376353040337563e+01 -1.317038934584701337e+00
-7.896958625316619873e+01 -1.908005747571587563e+01 -1.776206415053451337e+00
-8.999900519847869873e+01 -2.298533091321587563e+01 -1.963782708998763837e+00
-4.704417121410369873e+01 -7.624246928840875626e+00 -1.022590082045638837e+00
-4.672556769847869873e+01 -8.030863139778375626e+00 -1.002265375014388837e+00
-5.623692023754119873e+01 -1.065061411634087563e+01 -1.141440790053451337e+00
-3.031235969066619873e+01 -5.107279155403375626e+00 -7.114633730612638374e-01
-4.117551887035369873e+01 -8.092386577278375626e+00 -8.706430605612638374e-01
-7.905711066722869873e+01 -1.825937876477837563e+01 -1.433417718764388837e+00
-7.915318000316619873e+01 -1.911509165540337563e+01 -1.408545892592513837e+00
-9.185923469066619873e+01 -2.348740610852837563e+01 -1.566810052748763837e+00
-2.120957648754119873e+01 -2.330667827278375626e+00 -4.936441591940763374e-01
-2.254880988597869873e+01 -2.825296733528375626e+00 -5.027536562643888374e-01
-2.441245734691619873e+01 -3.467142436653375626e+00 -5.169443300925138374e-01
-2.740586555004119873e+01 -4.416483256965875626e+00 -5.424112490378263374e-01
-3.578086555004119873e+01 -6.755716655403375626e+00 -6.240610293112638374e-01
-5.210984504222869873e+01 -1.131821665540337563e+01 -7.832101992331388374e-01
-6.011777961254119873e+01 -1.400461802259087563e+01 -8.465494326315763374e-01
-7.036924445629119873e+01 -1.748752817884087563e+01 -9.261850527487638374e-01
-2.115476691722869873e+01 -2.316141460090875626e+00 -3.997110537253263374e-01
-2.227207648754119873e+01 -2.762186381965875626e+00 -4.007181338034513374e-01
-2.464854133129119873e+01 -3.516336772590875626e+00 -4.100412539206388374e-01
-2.745530402660369873e+01 -4.423563335090875626e+00 -4.198679140768888374e-01
-5.946165168285369873e+01 -1.258225474134087563e+01 -6.059946230612638374e-01
-7.473496711254119873e+01 -1.712131724134087563e+01 -6.729501894675138374e-01
-9.183799445629119873e+01 -2.248093638196587563e+01 -7.362741640768888374e-01
-9.382383430004119873e+01 -2.400095591321587563e+01 -7.134470156393888374e-01
-1.772288215160369873e+01 -1.611673686653375626e+00 -2.972635439597013374e-01
-2.230222785472869873e+01 -2.765116069465875626e+00 -3.025888613425138374e-01
-2.470042121410369873e+01 -3.523905131965875626e+00 -2.999643496237638374e-01
-6.767197883129119873e+01 -1.389365610852837563e+01 -3.657755068503263374e-01
-7.485374152660369873e+01 -1.636020884290337563e+01 -3.511575869284513374e-01
-7.476914680004119873e+01 -1.711692271009087563e+01 -3.238901308737638374e-01
-9.618235480785369873e+01 -2.463999399915337563e+01 -2.744211367331388374e-01
-1.777305305004119873e+01 -1.619119975715875626e+00 -2.200693300925138374e-01
-6.917063605785369873e+01 -1.281345591321587563e+01 -1.002268007956388374e-01
-6.280967414379119873e+01 -1.209067759290337563e+01 -9.125463282688883737e-02
-6.757700812816619873e+01 -1.385972056165337563e+01 -5.379430567845133737e-02
-7.445762336254119873e+01 -1.702390513196587563e+01 2.225549900904866263e-02
-1.782334601879119873e+01 -1.626566264778375626e+00 -1.428293398581388374e-01
-1.783176887035369873e+01 -1.799906108528375626e+00 -1.364053896628263374e-01
-6.282017219066619873e+01 -1.208225474134087563e+01 1.989980527199861626e-01
-6.750217902660369873e+01 -1.383042368665337563e+01 2.590413876809236626e-01
-7.441367805004119873e+01 -1.699949106946587563e+01 3.694997617043611626e-01
-1.787412726879119873e+01 -1.634134624153375626e+00 -6.471959864720133737e-02
-1.788242805004119873e+01 -1.807840678840875626e+00 -5.847875392063883737e-02
-6.043272101879119873e+01 -1.153550181165337563e+01 4.589467831887361626e-01
-6.744016730785369873e+01 -1.380430063977837563e+01 5.695882626809236626e-01
-7.495335090160369873e+01 -1.634568247571587563e+01 6.923757382668611626e-01
-7.575266730785369873e+01 -1.732944712415337563e+01 7.326589413918611626e-01
-4.794566047191619873e+01 -7.753275249153375626e+00 4.909139462746736626e-01
-1.793369758129119873e+01 -1.816019389778375626e+00 2.034815037623616263e-02
-6.284092414379119873e+01 -1.206553110852837563e+01 7.780233212746736626e-01
-1.827219855785369873e+01 -2.243631694465875626e+00 3.980310643092366263e-02
-7.475999152660369873e+01 -1.628513560071587563e+01 1.037941534165298663e+00
-7.517417609691619873e+01 -1.716807017102837563e+01 1.075859624985611163e+00
-4.793821418285369873e+01 -7.743753764778375626e+00 7.096029111184236626e-01
-1.792783820629119873e+01 -1.811868999153375626e+00 9.842737400904866263e-02
-1.857664191722869873e+01 -2.130594585090875626e+00 1.188894101418611626e-01
-1.824839484691619873e+01 -2.235086772590875626e+00 1.190267392434236626e-01
-7.263425910472869873e+01 -1.575083384290337563e+01 1.336723882798111163e+00
-4.796226203441619873e+01 -7.740702006965875626e+00 9.289632626809236626e-01
-1.788889777660369873e+01 -1.800638530403375626e+00 1.751638242043611626e-01
-1.848460090160369873e+01 -2.107035014778375626e+00 1.978841611184236626e-01
-1.822446906566619873e+01 -2.226419780403375626e+00 1.984334775246736626e-01
-7.316355597972869873e+01 -1.586789927259087563e+01 1.688820440415298663e+00
-1.805491340160369873e+01 -1.585916850715875626e+00 2.162404843606111626e-01
-7.640586555004119873e+01 -1.400876841321587563e+01 1.785759527329361163e+00
-1.846592414379119873e+01 -2.038187358528375626e+00 2.417684384621736626e-01
-1.821616828441619873e+01 -2.166605327278375626e+00 2.422567197121736626e-01
-1.819920051097869873e+01 -2.346781108528375626e+00 2.491079160012361626e-01
-5.642173469066619873e+01 -1.021396860852837563e+01 1.099281866196548663e+00
-1.823167121410369873e+01 -2.123026225715875626e+00 2.033468076027986626e-01
-6.733421027660369873e+01 -1.399094614759087563e+01 1.415901739243423663e+00
-7.563560187816619873e+01 -1.676108774915337563e+01 1.651543218735611163e+00
-1.727952277660369873e+01 -1.010355327278375626e+00 2.254262753762361626e-01
