-1.455366826057434082e+01 1.910672299563884735e+00 -4.417644915170910735e-01
-1.418843388557434082e+01 2.832913510501384735e+00 -4.041515764780285735e-01
-1.425105595588684082e+01 2.705105893313884735e+00 -4.008556780405285735e-01
-9.799273729324340820e+00 2.315457455813884735e+00 -3.465801653452160735e-01
-9.992877244949340820e+00 2.236355893313884735e+00 -3.460155901499035735e-01
-1.019441533088684082e+01 2.153958432376384735e+00 -3.454204973764660735e-01
-1.040486454963684082e+01 2.068020932376384735e+00 -3.448101458139660735e-01
-1.062568974494934082e+01 1.977810971438884735e+00 -3.441692766733410735e-01
-1.085615849494934082e+01 1.883572690188884735e+00 -3.434978899545910735e-01
-9.351641893386840820e+00 2.458035580813884735e+00 -3.079754290170910735e-01
-9.526080369949340820e+00 2.386258237063884735e+00 -3.068767962045910735e-01
-9.707354784011840820e+00 2.311307065188884735e+00 -3.055035051889660735e-01
-9.896929979324340820e+00 2.232937924563884735e+00 -3.040691790170910735e-01
-1.009395146369934082e+01 2.151517026126384735e+00 -3.025738176889660735e-01
-1.029988408088684082e+01 2.066434018313884735e+00 -3.010174212045910735e-01
-1.051582646369934082e+01 1.977200619876384735e+00 -2.993847307749035735e-01
-1.074043583869934082e+01 1.884060971438884735e+00 -2.974316057749035735e-01
-9.268634080886840820e+00 2.452786557376384735e+00 -2.693096575327160735e-01
-9.440142869949340820e+00 2.381497494876384735e+00 -2.672344622202160735e-01
-9.636676073074340820e+00 2.308377377688884735e+00 -2.650982317514660735e-01
-9.843096971511840820e+00 2.231595151126384735e+00 -2.628704485483410735e-01
-1.005867314338684082e+01 2.151394955813884735e+00 -2.605205950327160735e-01
-1.028474736213684082e+01 2.067288510501384735e+00 -2.580791887827160735e-01
-1.052302861213684082e+01 1.978665463626384735e+00 -2.554851946420910735e-01
-1.077266240119934082e+01 1.885769955813884735e+00 -2.527843889780285735e-01
-9.319659471511840820e+00 2.457791440188884735e+00 -2.309643206186535735e-01
-9.510333299636840820e+00 2.387478940188884735e+00 -2.282635149545910735e-01
-9.710040330886840820e+00 2.313870541751384735e+00 -2.252117571420910735e-01
-9.920001268386840820e+00 2.236477963626384735e+00 -2.220226702280285735e-01
-1.013923954963684082e+01 2.155789487063884735e+00 -2.186809954233410735e-01
-1.036934208869934082e+01 2.070950619876384735e+00 -2.151714739389660735e-01
-1.061201786994934082e+01 1.981595151126384735e+00 -2.114635881967785735e-01
-1.085164189338684082e+01 1.887845151126384735e+00 -2.074047503061535735e-01
-9.387774705886840820e+00 2.464261166751384735e+00 -1.922527727670910735e-01
-9.562213182449340820e+00 2.392117612063884735e+00 -1.885754046030285735e-01
-9.740802049636840820e+00 2.316800229251384735e+00 -1.847607073374035735e-01
-9.927569627761840820e+00 2.238186948001384735e+00 -1.807629046030285735e-01
-1.012166142463684082e+01 2.156399838626384735e+00 -1.766277727670910735e-01
-1.032405400276184082e+01 2.070950619876384735e+00 -1.723095354624035735e-01
-1.053621220588684082e+01 1.981595151126384735e+00 -1.677776751108410735e-01
-1.075740361213684082e+01 1.888333432376384735e+00 -1.630627092905285735e-01
-9.321490526199340820e+00 2.460232846438884735e+00 -1.542126116342785735e-01
-9.490435838699340820e+00 2.388455502688884735e+00 -1.498180803842785735e-01
-9.666461229324340820e+00 2.313626401126384735e+00 -1.454693255014660735e-01
-9.850054979324340820e+00 2.235623471438884735e+00 -1.406933245249035735e-01
-1.004072880744934082e+01 2.154446713626384735e+00 -1.357494768686535735e-01
-1.023958134651184082e+01 2.069851987063884735e+00 -1.305920061655285735e-01
-1.047542119026184082e+01 1.981839291751384735e+00 -1.245953020639660735e-01
-1.073506474494934082e+01 1.889554135501384735e+00 -1.183849749155285735e-01
-9.253741502761840820e+00 2.455960385501384735e+00 -1.168133196420910735e-01
-9.442584276199340820e+00 2.386258237063884735e+00 -1.115642962045910735e-01
-9.649005174636840820e+00 2.313870541751384735e+00 -1.057201799936535735e-01
-9.866412401199340820e+00 2.237576596438884735e+00 -9.957088800146607355e-02
-1.009395146369934082e+01 2.157864682376384735e+00 -9.314693780615357355e-02
-1.033320927619934082e+01 2.073880307376384735e+00 -8.637203546240357355e-02
-1.058613896369934082e+01 1.985135190188884735e+00 -7.921566339209107355e-02
-1.085249638557434082e+01 1.891995541751384735e+00 -7.144893975927857355e-02
-1.156196904182434082e+01 1.869168393313884735e+00 -9.830700335092785735e-01
-1.149837040901184082e+01 1.764065854251384735e+00 -9.752422747202160735e-01
-1.147200322151184082e+01 1.659573666751384735e+00 -9.702831682749035735e-01
-1.153755497932434082e+01 1.553006283938884735e+00 -9.716259417124035735e-01
-1.154976201057434082e+01 1.447171323001384735e+00 -9.693066057749035735e-01
-1.156196904182434082e+01 1.341092221438884735e+00 -9.669720110483410735e-01
-1.157417607307434082e+01 1.234402768313884735e+00 -9.646221575327160735e-01
-1.158223271369934082e+01 1.127957455813884735e+00 -9.622417864389660735e-01
-1.301265263557434082e+01 1.879544369876384735e+00 -1.028403895813966074e+00
-1.149959111213684082e+01 1.765530698001384735e+00 -9.270092424936535735e-01
-1.146797490119934082e+01 1.661160580813884735e+00 -9.215465960092785735e-01
-1.253462529182434082e+01 1.530789487063884735e+00 -9.866711077280285735e-01
-1.259773564338684082e+01 1.413357846438884735e+00 -9.872204241342785735e-01
-1.266157841682434082e+01 1.294583432376384735e+00 -9.877697405405285735e-01
-1.271931767463684082e+01 1.174344174563884735e+00 -9.881817278452160735e-01
-1.278450322151184082e+01 1.052884213626384735e+00 -9.887463030405285735e-01
-1.444295048713684082e+01 1.890164487063884735e+00 -1.059135096985841074e+00
-1.150081181526184082e+01 1.766995541751384735e+00 -8.785015520639660735e-01
-1.146394658088684082e+01 1.662747494876384735e+00 -8.731304583139660735e-01
-1.481953740119934082e+01 1.478299252688884735e+00 -1.069327968079591074e+00
-1.531550908088684082e+01 1.323514096438884735e+00 -1.094474452454591074e+00
-1.526069951057434082e+01 1.182767026126384735e+00 -1.086921351868653574e+00
-1.462910771369934082e+01 1.073636166751384735e+00 -1.045646327454591074e+00
-1.448079228401184082e+01 9.466830417513847351e-01 -1.032889979798341074e+00
-1.452449345588684082e+01 1.892605893313884735e+00 -1.001884120423341074e+00
-1.150215458869934082e+01 1.768582455813884735e+00 -8.300091204233410735e-01
-1.146126103401184082e+01 1.664212338626384735e+00 -8.245769915170910735e-01
-1.537532353401184082e+01 1.467190854251384735e+00 -1.035865443665528574e+00
-1.549397587776184082e+01 1.319607846438884735e+00 -1.037971156556153574e+00
-1.538582158088684082e+01 1.179471127688884735e+00 -1.027717250306153574e+00
-1.509089970588684082e+01 1.050931088626384735e+00 -1.007438319642091074e+00
-1.532564091682434082e+01 8.950472995638847351e-01 -1.016105311829591074e+00
-1.474458622932434082e+01 1.896023862063884735e+00 -9.506451067514660735e-01
-1.495942997932434082e+01 1.758206479251384735e+00 -9.573894915170910735e-01
-1.146248173713684082e+01 1.665799252688884735e+00 -7.765118059702160735e-01
-1.531575322151184082e+01 1.470730893313884735e+00 -9.667736467905285735e-01
-1.547297978401184082e+01 1.322537533938884735e+00 -9.702526506967785735e-01
-1.561836552619934082e+01 1.171536557376384735e+00 -9.730602678842785735e-01
-1.583821415901184082e+01 1.013089291751384735e+00 -9.794231829233410735e-01
-1.546553349494934082e+01 8.883334323763847351e-01 -9.566418108530285735e-01
-1.494868779182434082e+01 1.899319760501384735e+00 -8.969952044077160735e-01
-1.446187138557434082e+01 1.761868588626384735e+00 -8.698955950327160735e-01
-1.146370244026184082e+01 1.667264096438884735e+00 -7.282024797983410735e-01
-1.523140263557434082e+01 1.474759213626384735e+00 -8.967510637827160735e-01
-1.701936650276184082e+01 1.273221127688884735e+00 -9.733654436655285735e-01
-1.566377568244934082e+01 1.171780698001384735e+00 -9.074932512827160735e-01
-1.728352665901184082e+01 9.383822605013847351e-01 -9.753490862436535735e-01
-1.887129521369934082e+01 6.751986667513847351e-01 -1.041236537415528574e+00
-1.508027958869934082e+01 1.902249448001384735e+00 -8.380810198374035735e-01
-1.453694462776184082e+01 1.763577573001384735e+00 -8.111645159311535735e-01
-1.146492314338684082e+01 1.668728940188884735e+00 -6.801372942514660735e-01
-1.509822392463684082e+01 1.479886166751384735e+00 -8.258587297983410735e-01
-1.540706181526184082e+01 1.328885190188884735e+00 -8.340984758920910735e-01
-1.516463017463684082e+01 1.195462338626384735e+00 -8.198925432749035735e-01
-1.560005497932434082e+01 1.030179135501384735e+00 -8.329693255014660735e-01
-1.591682744026184082e+01 8.641635105013847351e-01 -8.410870012827160735e-01
-1.521345829963684082e+01 1.905179135501384735e+00 -7.784038958139660735e-01
-1.478584599494934082e+01 1.764798276126384735e+00 -7.581860003061535735e-01
-1.146626591682434082e+01 1.670315854251384735e+00 -6.318127092905285735e-01
-1.500447392463684082e+01 1.484158627688884735e+00 -7.573009905405285735e-01
-1.531990361213684082e+01 1.333890073001384735e+00 -7.643810686655285735e-01
-1.509944462776184082e+01 1.200345151126384735e+00 -7.520824846811535735e-01
-1.562288212776184082e+01 1.031155698001384735e+00 -7.666393694467785735e-01
-1.584004521369934082e+01 8.712435886263847351e-01 -7.697674212045910735e-01
-1.482637333869934082e+01 1.904446713626384735e+00 -7.001263079233410735e-01
-1.472297978401184082e+01 1.766873471438884735e+00 -6.924969133920910735e-01
-1.146748661994934082e+01 1.671780698001384735e+00 -5.837475237436535735e-01
-1.497847294807434082e+01 1.486844174563884735e+00 -6.921307024545910735e-01
-1.523433232307434082e+01 1.338894955813884735e+00 -6.958691057749035735e-01
-1.504426884651184082e+01 1.204739682376384735e+00 -6.855389055795910735e-01
-1.565254521369934082e+01 1.031766049563884735e+00 -6.999432024545910735e-01
-1.576375126838684082e+01 8.783236667513847351e-01 -6.988140520639660735e-01
-1.479463505744934082e+01 1.906155698001384735e+00 -6.357647356577160735e-01
-1.478816533088684082e+01 1.768704526126384735e+00 -6.313091692514660735e-01
-1.146870732307434082e+01 1.673245541751384735e+00 -5.356823381967785735e-01
-1.439815068244934082e+01 1.501980893313884735e+00 -6.121288713999035735e-01
-1.516633915901184082e+01 1.343167416751384735e+00 -6.286236223764660735e-01
-1.499690556526184082e+01 1.208890073001384735e+00 -6.197277483530285735e-01
-1.492854619026184082e+01 1.072049252688884735e+00 -6.135631975717785735e-01
-1.567659306526184082e+01 8.860140964388847351e-01 -6.286541399545910735e-01
-1.474531865119934082e+01 1.907742612063884735e+00 -5.709453997202160735e-01
-1.606685185432434082e+01 1.767361752688884735e+00 -5.973583635874035735e-01
-1.146992802619934082e+01 1.674710385501384735e+00 -4.873577532358410735e-01
-1.432796025276184082e+01 1.505520932376384735e+00 -5.486675676889660735e-01
-1.502217411994934082e+01 1.349881283938884735e+00 -5.599895891733410735e-01
-1.494966435432434082e+01 1.212918393313884735e+00 -5.540234026499035735e-01
-1.559346318244934082e+01 1.039334408938884735e+00 -5.636059221811535735e-01
-1.570540165901184082e+01 8.863803073763847351e-01 -5.614391741342785735e-01
-1.464839482307434082e+01 1.908963315188884735e+00 -5.060497698374035735e-01
-1.602022099494934082e+01 1.769681088626384735e+00 -5.273510393686535735e-01
-1.147114872932434082e+01 1.676297299563884735e+00 -4.392925676889660735e-01
-1.599422001838684082e+01 1.470120541751384735e+00 -5.174786028452160735e-01
-1.595125126838684082e+01 1.321927182376384735e+00 -5.120312151499035735e-01
-1.577339482307434082e+01 1.180203549563884735e+00 -5.042644915170910735e-01
-1.577876591682434082e+01 1.031766049563884735e+00 -4.997021135874035735e-01
-1.563972783088684082e+01 8.927279636263847351e-01 -4.927441057749035735e-01
-1.455232548713684082e+01 1.910184018313884735e+00 -4.417187151499035735e-01
-1.597517704963684082e+01 1.771878354251384735e+00 -4.574352678842785735e-01
-1.147236943244934082e+01 1.677762143313884735e+00 -3.912426409311535735e-01
-1.612373661994934082e+01 1.469510190188884735e+00 -4.503857073374035735e-01
-1.497346806526184082e+01 1.355618588626384735e+00 -4.305645403452160735e-01
-1.630842900276184082e+01 1.159817807376384735e+00 -4.432598528452160735e-01
-1.577583622932434082e+01 1.034207455813884735e+00 -4.314190325327160735e-01
-1.561751103401184082e+01 8.962680026888847351e-01 -4.248424944467785735e-01
-1.085774540901184082e+01 1.883328549563884735e+00 -3.434978899545910735e-01
-1.109920048713684082e+01 1.784451596438884735e+00 -3.426739153452160735e-01
-1.135298466682434082e+01 1.680691830813884735e+00 -3.418194231577160735e-01
-1.160994267463684082e+01 1.571438901126384735e+00 -3.408123430795910735e-01
-1.187288212776184082e+01 1.457059018313884735e+00 -3.396984514780285735e-01
-1.214924931526184082e+01 1.336819760501384735e+00 -3.385387835092785735e-01
-1.244124150276184082e+01 1.209866635501384735e+00 -3.373028215952160735e-01
-1.274788212776184082e+01 1.076443783938884735e+00 -3.360058245249035735e-01
-1.074202275276184082e+01 1.883816830813884735e+00 -2.974316057749035735e-01
-1.097835087776184082e+01 1.786160580813884735e+00 -2.957531389780285735e-01
-1.122590947151184082e+01 1.683743588626384735e+00 -2.937237200327160735e-01
-1.150276494026184082e+01 1.575345151126384735e+00 -2.916485247202160735e-01
-1.178547978401184082e+01 1.461453549563884735e+00 -2.894360003061535735e-01
-1.208882451057434082e+01 1.340970151126384735e+00 -2.871166643686535735e-01
-1.241109013557434082e+01 1.213162533938884735e+00 -2.846447405405285735e-01
-1.275227665901184082e+01 1.078030698001384735e+00 -2.817608294077160735e-01
-1.077449345588684082e+01 1.885403744876384735e+00 -2.527691301889660735e-01
-1.103792119026184082e+01 1.787503354251384735e+00 -2.497478899545910735e-01
-1.131624150276184082e+01 1.684109799563884735e+00 -2.465435442514660735e-01
-1.151472783088684082e+01 1.576565854251384735e+00 -2.431866106577160735e-01
-1.189448857307434082e+01 1.459622494876384735e+00 -2.395855364389660735e-01
-1.220405888557434082e+01 1.337918393313884735e+00 -2.358013567514660735e-01
-1.252034306526184082e+01 1.209134213626384735e+00 -2.318188128061535735e-01
-1.282478642463684082e+01 1.075223080813884735e+00 -2.276531633920910735e-01
-1.085322880744934082e+01 1.887478940188884735e+00 -2.073894915170910735e-01
-1.108943486213684082e+01 1.788846127688884735e+00 -2.034832415170910735e-01
-1.133674931526184082e+01 1.685452573001384735e+00 -1.991192278452160735e-01
-1.151594853401184082e+01 1.578030698001384735e+00 -1.949230608530285735e-01
-1.184468388557434082e+01 1.462796323001384735e+00 -1.898418840952160735e-01
-1.211384892463684082e+01 1.343289487063884735e+00 -1.848827776499035735e-01
-1.239778447151184082e+01 1.217190854251384735e+00 -1.796490130014660735e-01
-1.269502568244934082e+01 1.084988705813884735e+00 -1.738659319467785735e-01
-1.075886845588684082e+01 1.888089291751384735e+00 -1.630321917124035735e-01
-1.098994755744934082e+01 1.790433041751384735e+00 -1.578594622202160735e-01
-1.123237919807434082e+01 1.688138119876384735e+00 -1.524273333139660735e-01
-1.148775029182434082e+01 1.580227963626384735e+00 -1.466900286264660735e-01
-1.177376103401184082e+01 1.466580502688884735e+00 -1.405254778452160735e-01
-1.209163212776184082e+01 1.345852963626384735e+00 -1.338268694467785735e-01
-1.243013310432434082e+01 1.217312924563884735e+00 -1.267010149545910735e-01
-1.278889775276184082e+01 1.081082455813884735e+00 -1.191479143686535735e-01
-1.073689579963684082e+01 1.889309994876384735e+00 -1.183544573374035735e-01
-1.101192021369934082e+01 1.791897885501384735e+00 -1.115185198374035735e-01
-1.130232548713684082e+01 1.688748471438884735e+00 -1.045299944467785735e-01
-1.160603642463684082e+01 1.579251401126384735e+00 -9.693111749365357355e-02
-1.190950322151184082e+01 1.463894955813884735e+00 -8.913387628271607355e-02
-1.223555302619934082e+01 1.341580502688884735e+00 -8.081783624365357355e-02
-1.572066044807434082e+01 1.050198666751384735e+00 -2.422298761084107355e-02
-1.573982548713684082e+01 9.020053073763847351e-01 -1.920284600927857355e-02
-1.085444951057434082e+01 1.891629330813884735e+00 -7.140316339209107355e-02
-1.567268681526184082e+01 1.787381283938884735e+00 1.866946844384642645e-02
-1.557332158088684082e+01 1.642361752688884735e+00 2.156863836572142645e-02
-1.549702763557434082e+01 1.498196713626384735e+00 2.484927801415892645e-02
-2.156489872932434082e+01 1.164578549563884735e+00 1.451190534047839265e-01
-1.581685185432434082e+01 1.195950619876384735e+00 4.038272527978392645e-02
-1.570796513557434082e+01 1.053128354251384735e+00 4.303775457665892645e-02
-1.680061650276184082e+01 8.395053073763847351e-01 7.004581121728392645e-02
-1.158235478401184082e+01 1.127591244876384735e+00 -9.622417864389660735e-01
-1.162324833869934082e+01 1.018460385501384735e+00 -9.618755755014660735e-01
-1.166939091682434082e+01 9.078646823763847351e-01 -9.620891985483410735e-01
-1.171626591682434082e+01 7.956820651888847351e-01 -9.623028215952160735e-01
-1.174531865119934082e+01 6.845980808138847351e-01 -9.613110003061535735e-01
-1.175484013557434082e+01 5.748568698763847351e-01 -9.590221819467785735e-01
-1.176448369026184082e+01 4.643832370638847351e-01 -9.567181047983410735e-01
-1.176838994026184082e+01 3.546420261263847351e-01 -9.542919573374035735e-01
-1.278499150276184082e+01 1.052395932376384735e+00 -9.887615618295910735e-01
-1.284309697151184082e+01 9.299594089388847351e-01 -9.891582903452160735e-01
-1.290913701057434082e+01 8.054476901888847351e-01 -9.897228655405285735e-01
-1.294746708869934082e+01 6.816683933138847351e-01 -9.888073381967785735e-01
-1.296052861213684082e+01 5.598422214388847351e-01 -9.863201555795910735e-01
-1.297371220588684082e+01 4.375277683138847351e-01 -9.838177141733410735e-01
-1.297981572151184082e+01 3.150912448763847351e-01 -9.811626848764660735e-01
-1.299312138557434082e+01 1.918002292513847351e-01 -9.786449846811535735e-01
-1.447981572151184082e+01 9.461947605013847351e-01 -1.032828944642091074e+00
-1.432881474494934082e+01 8.222933933138847351e-01 -1.020316737610841074e+00
-1.423530888557434082e+01 6.963168308138847351e-01 -1.011207240540528574e+00
-1.407442021369934082e+01 5.777865573763847351e-01 -9.982525286264660735e-01
-1.430110478401184082e+01 4.223910495638847351e-01 -1.007529872376466074e+00
-1.433418583869934082e+01 2.843295261263847351e-01 -1.005668300110841074e+00
-1.436775517463684082e+01 1.448031589388847351e-01 -1.003806727845216074e+00
-1.440132451057434082e+01 4.788510501384735107e-03 -1.001914638001466074e+00
-1.532515263557434082e+01 8.945590183138847351e-01 -1.016059535462403574e+00
-1.624556279182434082e+01 6.833773776888847351e-01 -1.060706752259278574e+00
-1.783735966682434082e+01 3.972445651888847351e-01 -1.140769618470216074e+00
-1.406807255744934082e+01 5.803500339388847351e-01 -9.372021135874035735e-01
-1.715999150276184082e+01 1.279574558138847351e-01 -1.095649379212403574e+00
-1.686409306526184082e+01 -1.437075436115264893e-03 -1.075599330384278574e+00
-1.657734990119934082e+01 -1.269253566861152649e-01 -1.056174891907716074e+00
-1.629500126838684082e+01 -2.470425441861152649e-01 -1.037528651673341074e+00
-1.546504521369934082e+01 8.878451511263847351e-01 -9.566112932749035735e-01
-1.538472294807434082e+01 7.488070651888847351e-01 -9.485393938608410735e-01
-1.535823369026184082e+01 6.067172214388847351e-01 -9.431072649545910735e-01
-1.406453251838684082e+01 5.827914401888847351e-01 -8.766857561655285735e-01
-1.837007451057434082e+01 5.154721438884735107e-03 -1.078849452454591074e+00
-1.829634404182434082e+01 -1.617153957486152649e-01 -1.070319789368653574e+00
-2.074495244026184082e+01 -6.403530910611152649e-01 -1.180976527649903574e+00
-2.088630986213684082e+01 -8.593472316861152649e-01 -1.181876796204591074e+00
-1.597517704963684082e+01 8.576937839388847351e-01 -9.126659807749035735e-01
-1.615510869026184082e+01 6.946078464388847351e-01 -9.158550676889660735e-01
-1.541633915901184082e+01 6.040316745638847351e-01 -8.790813860483410735e-01
-1.406624150276184082e+01 5.846224948763847351e-01 -8.161236223764660735e-01
-2.074214482307434082e+01 -2.373989894986152649e-01 -1.100639003235841074e+00
-2.087776494026184082e+01 -4.519985988736152649e-01 -1.100654262024903574e+00
-1.913582158088684082e+01 -4.383267238736152649e-01 -1.020560878235841074e+00
-2.116572880744934082e+01 -8.935269191861152649e-01 -1.101585048157716074e+00
-1.591841435432434082e+01 8.635531589388847351e-01 -8.411327776499035735e-01
-1.548860478401184082e+01 7.456332370638847351e-01 -8.197399553842785735e-01
-1.877351689338684082e+01 3.271762058138847351e-01 -9.441296038217785735e-01
-1.406782841682434082e+01 5.864535495638847351e-01 -7.558819231577160735e-01
-2.101130986213684082e+01 -2.620571926236152649e-01 -1.019858973938966074e+00
-2.115620732307434082e+01 -4.804409816861152649e-01 -1.019431727845216074e+00
-1.910969853401184082e+01 -4.322232082486152649e-01 -9.356457171030285735e-01
-2.392988896369934082e+01 -1.259493716061115265e+00 -1.111854213196778574e+00
-1.584163212776184082e+01 8.706332370638847351e-01 -7.697979387827160735e-01
-1.554097294807434082e+01 7.440463230013847351e-01 -7.548443255014660735e-01
-1.553377079963684082e+01 5.987826511263847351e-01 -7.498699602670910735e-01
-1.406953740119934082e+01 5.884066745638847351e-01 -6.953197893686535735e-01
-2.195601201057434082e+01 -3.564175441861152649e-01 -9.590526995249035735e-01
-2.398152470588684082e+01 -7.969693019986152649e-01 -1.020835536438966074e+00
-1.908345341682434082e+01 -4.261196926236152649e-01 -8.510052141733410735e-01
-2.435127568244934082e+01 -1.311983950436115265e+00 -1.019630092103028574e+00
-1.576521611213684082e+01 8.777133151888847351e-01 -6.988445696420910735e-01
-1.559431767463684082e+01 7.423373386263847351e-01 -6.891552385874035735e-01
-1.559297490119934082e+01 5.960971042513847351e-01 -6.846538958139660735e-01
-1.407112431526184082e+01 5.902377292513847351e-01 -6.350628313608410735e-01
-2.416157841682434082e+01 -5.801724269986152649e-01 -9.270245012827160735e-01
-1.688716435432434082e+01 8.450619876384735107e-03 -7.087627825327160735e-01
-1.905733036994934082e+01 -4.200161769986152649e-01 -7.661663469858410735e-01
-2.717866826057434082e+01 -1.685030825436115265e+00 -9.912945208139660735e-01
-1.567634892463684082e+01 8.855258151888847351e-01 -6.286388811655285735e-01
-1.565401005744934082e+01 7.402621433138847351e-01 -6.235119280405285735e-01
-1.778218388557434082e+01 4.172640964388847351e-01 -6.729046282358410735e-01
-1.407283329963684082e+01 5.920687839388847351e-01 -5.748211321420910735e-01
-2.553279423713684082e+01 -7.175015285611152649e-01 -8.540569719858410735e-01
-1.706013798713684082e+01 -8.639223873615264893e-03 -6.395946917124035735e-01
-1.903132939338684082e+01 -4.139126613736152649e-01 -6.820446428842785735e-01
-2.903450322151184082e+01 -1.927950747311115265e+00 -9.143291887827160735e-01
-1.570515751838684082e+01 8.858920261263847351e-01 -5.614239153452160735e-01
-1.797822880744934082e+01 5.740023776888847351e-01 -6.046215471811535735e-01
-2.538215947151184082e+01 -2.071255519986152649e-01 -7.526775774545910735e-01
-1.407454228401184082e+01 5.940219089388847351e-01 -5.142437395639660735e-01
-2.544111943244934082e+01 -7.041958644986152649e-01 -7.384563860483410735e-01
-1.720381474494934082e+01 -2.231109887361526489e-02 -5.678478655405285735e-01
-1.900532841682434082e+01 -4.078091457486152649e-01 -5.977398333139660735e-01
-1.671480107307434082e+01 -2.856167629361152649e-01 -5.481945452280285735e-01
-1.564058232307434082e+01 8.921176120638847351e-01 -4.927441057749035735e-01
-1.575569462776184082e+01 7.373324558138847351e-01 -4.899822649545910735e-01
-1.576777958869934082e+01 5.884066745638847351e-01 -4.854656633920910735e-01
-1.407612919807434082e+01 5.958529636263847351e-01 -4.540020403452160735e-01
-1.899177861213684082e+01 -3.952301293611526489e-02 -5.259167131967785735e-01
-1.680916142463684082e+01 2.468597143888473511e-02 -4.870525774545910735e-01
-1.682722783088684082e+01 -1.377896144986152649e-01 -4.822155413217785735e-01
-1.684529423713684082e+01 -3.003872707486152649e-01 -4.773785051889660735e-01
-1.561787724494934082e+01 8.957797214388847351e-01 -4.248424944467785735e-01
-1.324238896369934082e+01 9.210482761263847351e-01 -3.920360979624035735e-01
-1.359602665901184082e+01 7.691928073763847351e-01 -3.924480852670910735e-01
-1.397163701057434082e+01 6.074496433138847351e-01 -3.925548967905285735e-01
-1.434871220588684082e+01 4.383822605013847351e-01 -3.924480852670910735e-01
-1.474824833869934082e+01 2.588168308138847351e-01 -3.923107561655285735e-01
-1.517341923713684082e+01 6.728851050138473511e-02 -3.918224749155285735e-01
-1.562630009651184082e+01 -1.362027004361152649e-01 -3.916546282358410735e-01
-1.275007939338684082e+01 1.075955502688884735e+00 -3.360058245249035735e-01
-1.307380986213684082e+01 9.349642917513847351e-01 -3.345104631967785735e-01
-1.341658329963684082e+01 7.857943698763847351e-01 -3.329082903452160735e-01
-1.378120732307434082e+01 6.271029636263847351e-01 -3.312145647592785735e-01
-1.418733525276184082e+01 4.569369480013847351e-01 -3.295360979624035735e-01
-1.462105107307434082e+01 2.752963230013847351e-01 -3.277508196420910735e-01
-1.509163212776184082e+01 7.961761206388473511e-02 -3.258739885874035735e-01
-1.559517216682434082e+01 -1.297329738736152649e-01 -3.238445696420910735e-01
-1.275471806526184082e+01 1.077420346438884735e+00 -2.817455706186535735e-01
-1.311641240119934082e+01 9.337435886263847351e-01 -2.790905413217785735e-01
-1.350264286994934082e+01 7.806674167513847351e-01 -2.759624895639660735e-01
-1.391646122932434082e+01 6.166049167513847351e-01 -2.725902971811535735e-01
-1.433858036994934082e+01 4.435092136263847351e-01 -2.689739641733410735e-01
-1.476924443244934082e+01 2.607699558138847351e-01 -2.650829729624035735e-01
-1.518855595588684082e+01 6.997405737638473511e-02 -2.608562883920910735e-01
-1.563252568244934082e+01 -1.324185207486152649e-01 -2.560192522592785735e-01
-1.282698369026184082e+01 1.074734799563884735e+00 -2.276379046030285735e-01
-1.314790654182434082e+01 9.333773776888847351e-01 -2.230297503061535735e-01
-1.348750615119934082e+01 7.838412448763847351e-01 -2.181469378061535735e-01
-1.384859013557434082e+01 6.247836276888847351e-01 -2.129589495249035735e-01
-1.421687626838684082e+01 4.580355808138847351e-01 -2.075268206186535735e-01
-1.460054326057434082e+01 2.818881198763847351e-01 -2.017742571420910735e-01
-1.502119755744934082e+01 9.267913550138473511e-02 -1.955944475717785735e-01
-1.554463505744934082e+01 -1.183804348111152649e-01 -1.887279924936535735e-01
-1.269710087776184082e+01 1.084500424563884735e+00 -1.738354143686535735e-01
-1.301155400276184082e+01 9.449740573763847351e-01 -1.680828508920910735e-01
-1.340364384651184082e+01 7.926303073763847351e-01 -1.612774309702160735e-01
-1.383186650276184082e+01 6.283236667513847351e-01 -1.539226946420910735e-01
-1.427302861213684082e+01 4.543734714388847351e-01 -1.461712297983410735e-01
-1.473945927619934082e+01 2.684603855013847351e-01 -1.379162249155285735e-01
-1.524251103401184082e+01 6.789886206388473511e-02 -1.290203508920910735e-01
-2.576838994026184082e+01 -1.465426333248615265e+00 -3.276790948584107355e-02
-1.279146122932434082e+01 1.080472104251384735e+00 -1.191173967905285735e-01
-1.317500615119934082e+01 9.350863620638847351e-01 -1.107555803842785735e-01
-1.358516240119934082e+01 7.796908542513847351e-01 -1.018291887827160735e-01
-1.861738896369934082e+01 1.925326511263847351e-01 -3.772701593115357355e-02
-1.860713505744934082e+01 1.638519018888473511e-02 -3.174557061865357355e-02
-1.859700322151184082e+01 -1.598843410611152649e-01 -2.574886651709107355e-02
-2.585225224494934082e+01 -1.221285708248615265e+00 7.405887274072142645e-02
-2.577168583869934082e+01 -1.461886294186115265e+00 8.165774969384642645e-02
-1.574006962776184082e+01 9.015170261263847351e-01 -1.917232843115357355e-02
-1.575410771369934082e+01 7.532015964388847351e-01 -1.380123468115357355e-02
-2.696126103401184082e+01 -3.056362941861152649e-01 1.715777936391589265e-01
-1.865388798713684082e+01 1.919222995638847351e-01 4.392276434228392645e-02
-2.560371708869934082e+01 -6.901577785611152649e-01 1.669848981313464265e-01
-2.615083622932434082e+01 -9.989956691861152649e-01 1.850360455922839265e-01
-2.589033818244934082e+01 -1.221896059811115265e+00 1.899798932485339265e-01
-1.880452275276184082e+01 -5.406216457486152649e-01 7.195315985009642645e-02
-1.680134892463684082e+01 8.388949558138847351e-01 7.007632879540892645e-02
-1.666182255744934082e+01 6.908236667513847351e-01 7.244144110009642645e-02
-1.666182255744934082e+01 5.339633151888847351e-01 7.798038152978392645e-02
-2.637251591682434082e+01 -5.092495754361152649e-01 2.882922711782214265e-01
-2.562276005744934082e+01 -6.883267238736152649e-01 2.812427106313464265e-01
-3.336043095588684082e+01 -1.797335512936115265e+00 4.586566510610339265e-01
-3.328023076057434082e+01 -2.115084536373615265e+00 4.684527936391589265e-01
-1.872432255744934082e+01 -5.271939113736152649e-01 1.527942243032214265e-01
-1.176838994026184082e+01 3.542758151888847351e-01 -9.542919573374035735e-01
-1.177669072151184082e+01 2.435580417513847351e-01 -9.519421038217785735e-01
-1.178633427619934082e+01 1.321078464388847351e-01 -9.499432024545910735e-01
-1.180476689338684082e+01 1.821624487638473511e-02 -9.484783587045910735e-01
-1.182319951057434082e+01 -9.604156762361526489e-02 -9.470287737436535735e-01
-1.184187626838684082e+01 -2.111538723111152649e-01 -9.455486712045910735e-01
-1.185139775276184082e+01 -3.255337551236152649e-01 -9.434734758920910735e-01
-1.184846806526184082e+01 -4.375943019986152649e-01 -9.408642229624035735e-01
-1.299324345588684082e+01 1.914340183138847351e-01 -9.786449846811535735e-01
-1.299849247932434082e+01 6.863128393888473511e-02 -9.759441790170910735e-01
-1.301106572151184082e+01 -5.575836449861526489e-02 -9.733959612436535735e-01
-1.301643681526184082e+01 -1.800259426236152649e-01 -9.706798967905285735e-01
-1.302986454963684082e+01 -3.057583644986152649e-01 -9.684215960092785735e-01
-1.305940556526184082e+01 -4.351528957486152649e-01 -9.671245989389660735e-01
-1.308162236213684082e+01 -5.646694973111152649e-01 -9.656597551889660735e-01
-1.311152958869934082e+01 -6.962612941861152649e-01 -9.643474993295910735e-01
-1.440169072151184082e+01 4.178158938884735107e-03 -1.001929896790528574e+00
-1.446443486213684082e+01 -1.410855129361152649e-01 -1.001975673157716074e+00
-1.455086064338684082e+01 -2.917202785611152649e-01 -1.003303187806153574e+00
-1.456062626838684082e+01 -4.325894191861152649e-01 -1.000297206360841074e+00
-1.457039189338684082e+01 -5.734585598111152649e-01 -9.973064837045910735e-01
-1.458027958869934082e+01 -7.151821926236152649e-01 -9.942852434702160735e-01
-1.459016728401184082e+01 -8.578823879361152649e-01 -9.912487444467785735e-01
-1.460005497932434082e+01 -1.000948794186115265e+00 -9.881969866342785735e-01
-1.629329228401184082e+01 -2.472866848111152649e-01 -1.037421840149903574e+00
-1.631868290901184082e+01 -4.063443019986152649e-01 -1.034278529603028574e+00
-1.634016728401184082e+01 -5.658902004361152649e-01 -1.031272548157716074e+00
-1.636189579963684082e+01 -7.269009426236152649e-01 -1.028251307923341074e+00
-1.638362431526184082e+01 -8.883999660611152649e-01 -1.025230067688966074e+00
-1.640559697151184082e+01 -1.050997622311115265e+00 -1.022178309876466074e+00
-1.642769169807434082e+01 -1.215060122311115265e+00 -1.019096034485841074e+00
-1.647212529182434082e+01 -1.384127505123615265e+00 -1.017493861634278574e+00
-2.088740849494934082e+01 -8.602017238736152649e-01 -1.181892054993653574e+00
-1.668306279182434082e+01 -4.563931301236152649e-01 -9.801708635874035735e-01
-1.875252079963684082e+01 -9.355191066861152649e-01 -1.071906703431153574e+00
-1.884114384651184082e+01 -1.132296450436115265e+00 -1.071082728821778574e+00
-1.889546513557434082e+01 -1.324801333248615265e+00 -1.068641322571778574e+00
-1.888032841682434082e+01 -1.506319887936115265e+00 -1.062980311829591074e+00
-1.894954228401184082e+01 -1.705172426998615265e+00 -1.061118739563966074e+00
-1.917354130744934082e+01 -1.937350161373615265e+00 -1.066184657532716074e+00
-2.116670536994934082e+01 -8.943814113736152649e-01 -1.101600306946778574e+00
-1.668526005744934082e+01 -4.541958644986152649e-01 -9.070812639780285735e-01
-2.395161747932434082e+01 -1.733858950436115265e+00 -1.205985682923341074e+00
-1.670820927619934082e+01 -7.787808254361152649e-01 -8.991466936655285735e-01
-2.681685185432434082e+01 -2.704928286373615265e+00 -1.310905116517091074e+00
-1.926826786994934082e+01 -1.575045473873615265e+00 -9.948650774545910735e-01
-2.258882451057434082e+01 -2.412691958248615265e+00 -1.124442714173341074e+00
-2.281477665901184082e+01 -2.682833559811115265e+00 -1.127906459290528574e+00
-2.393086552619934082e+01 -1.260470278561115265e+00 -1.111869471985841074e+00
-1.668733525276184082e+01 -4.518765285611152649e-01 -8.343883928842785735e-01
-2.464961552619934082e+01 -1.837496645748615265e+00 -1.125251429993653574e+00
-1.674763798713684082e+01 -7.826870754361152649e-01 -8.274609026499035735e-01
-2.716157841682434082e+01 -2.760836489498615265e+00 -1.203162806946778574e+00
-1.927070927619934082e+01 -1.572359926998615265e+00 -9.096447405405285735e-01
-3.012507939338684082e+01 -3.879122622311115265e+00 -1.294257777649903574e+00
-3.286995244026184082e+01 -4.744601137936115265e+00 -1.383475917298341074e+00
-2.436616826057434082e+01 -1.314791567623615265e+00 -1.020103114563966074e+00
-1.668941044807434082e+01 -4.496792629361152649e-01 -7.616802630014660735e-01
-2.537007451057434082e+01 -1.944430239498615265e+00 -1.038184779603028574e+00
-1.678755497932434082e+01 -7.865933254361152649e-01 -7.550579485483410735e-01
-3.006917119026184082e+01 -3.263155825436115265e+00 -1.173164027649903574e+00
-1.927327275276184082e+01 -1.569796450436115265e+00 -8.239666399545910735e-01
-3.313069462776184082e+01 -4.459933169186115265e+00 -1.252036708313966074e+00
-3.678438115119934082e+01 -5.542696841061115265e+00 -1.355415004212403574e+00
-2.717976689338684082e+01 -1.686129458248615265e+00 -9.913097796030285735e-01
-1.669160771369934082e+01 -4.474819973111152649e-01 -6.885906633920910735e-01
-2.537678837776184082e+01 -1.941500551998615265e+00 -9.252087053842785735e-01
-1.682747197151184082e+01 -7.904995754361152649e-01 -6.827007708139660735e-01
-3.324275517463684082e+01 -3.810885317623615265e+00 -1.124030726868653574e+00
-1.927571415901184082e+01 -1.567232973873615265e+00 -7.387310442514660735e-01
-4.123909306526184082e+01 -6.033419497311115265e+00 -1.316459315735841074e+00
-4.420515751838684082e+01 -7.058321841061115265e+00 -1.381827968079591074e+00
-2.903401494026184082e+01 -1.928805239498615265e+00 -9.142834124155285735e-01
-1.669368290901184082e+01 -4.452847316861152649e-01 -6.158825335092785735e-01
-2.571211552619934082e+01 -1.988985903561115265e+00 -8.198162493295910735e-01
-1.686751103401184082e+01 -7.945278957486152649e-01 -6.099773821420910735e-01
-2.581807255744934082e+01 -2.514132387936115265e+00 -8.066173967905285735e-01
-1.658833622932434082e+01 -1.069064028561115265e+00 -5.937572893686535735e-01
-3.729304814338684082e+01 -5.259005434811115265e+00 -1.042075770813966074e+00
-4.694099736213684082e+01 -7.611544497311115265e+00 -1.238670009095216074e+00
-1.671492314338684082e+01 -2.862271144986152649e-01 -5.481792864389660735e-01
-1.669588017463684082e+01 -4.429653957486152649e-01 -5.427929338999035735e-01
-3.608626103401184082e+01 -3.575167544186115265e+00 -8.964001116342785735e-01
-2.573482060432434082e+01 -2.241915591061115265e+00 -6.969372210092785735e-01
-4.197871708869934082e+01 -5.318209536373615265e+00 -9.789043840952160735e-01
-1.928071904182434082e+01 -1.561983950436115265e+00 -5.678020891733410735e-01
-3.705757451057434082e+01 -5.207003481686115265e+00 -8.675915178842785735e-01
-4.671736454963684082e+01 -7.557955630123615265e+00 -1.018821376282716074e+00
-1.684541630744934082e+01 -3.009976223111152649e-01 -4.773632463999035735e-01
-1.669795536994934082e+01 -4.407681301236152649e-01 -4.700695452280285735e-01
-1.728914189338684082e+01 -6.911343410611152649e-01 -4.731060442514660735e-01
-3.628584599494934082e+01 -3.961520083248615265e+00 -7.247234758920910735e-01
-1.680659794807434082e+01 -9.413784816861152649e-01 -4.559551653452160735e-01
-1.885103154182434082e+01 -1.479952700436115265e+00 -4.769970354624035735e-01
-1.766487431526184082e+01 -1.434420473873615265e+00 -4.561687883920910735e-01
-2.087483525276184082e+01 -2.263644106686115265e+00 -4.897533831186535735e-01
-1.562959599494934082e+01 -1.371792629361152649e-01 -3.916698870249035735e-01
-1.611348271369934082e+01 -3.547085598111152649e-01 -3.913799700327160735e-01
-1.663362431526184082e+01 -5.882290676236152649e-01 -3.914562639780285735e-01
-1.712605595588684082e+01 -8.288296535611152649e-01 -3.905407366342785735e-01
-1.780720829963684082e+01 -1.112276919186115265e+00 -3.908916887827160735e-01
-1.860127568244934082e+01 -1.431002505123615265e+00 -3.917004046030285735e-01
-1.767549443244934082e+01 -1.433688051998615265e+00 -3.779827532358410735e-01
-2.081892704963684082e+01 -2.248873598873615265e+00 -3.958507952280285735e-01
-1.559883427619934082e+01 -1.307095363736152649e-01 -3.238445696420910735e-01
-1.614192509651184082e+01 -3.564175441861152649e-01 -3.215099749155285735e-01
-1.671370244026184082e+01 -5.978726223111152649e-01 -3.189007219858410735e-01
-1.711958622932434082e+01 -8.251675441861152649e-01 -3.151623186655285735e-01
-1.801997685432434082e+01 -1.146334536373615265e+00 -3.130718645639660735e-01
-1.872151494026184082e+01 -1.450167544186115265e+00 -3.096233782358410735e-01
-1.768611454963684082e+01 -1.432955630123615265e+00 -3.001324114389660735e-01
-1.739619755744934082e+01 -1.546481020748615265e+00 -2.934643206186535735e-01
-1.563569951057434082e+01 -1.332730129361152649e-01 -2.560039934702160735e-01
-1.611140751838684082e+01 -3.495816066861152649e-01 -2.513653215952160735e-01
-1.661946415901184082e+01 -5.810269191861152649e-01 -2.460094866342785735e-01
-1.712031865119934082e+01 -8.226040676236152649e-01 -2.402721819467785735e-01
-1.781477665901184082e+01 -1.108004458248615265e+00 -2.340160784311535735e-01
-1.865339970588684082e+01 -1.434664614498615265e+00 -2.270885881967785735e-01
-1.769673466682434082e+01 -1.432101137936115265e+00 -2.221905169077160735e-01
-1.744649052619934082e+01 -1.553927309811115265e+00 -2.162701067514660735e-01
-1.554841923713684082e+01 -1.193569973111152649e-01 -1.886974749155285735e-01
-1.611519169807434082e+01 -3.476284816861152649e-01 -1.810070452280285735e-01
-1.671577763557434082e+01 -5.931118801236152649e-01 -1.727367815561535735e-01
-1.670833134651184082e+01 -7.529019191861152649e-01 -1.670757708139660735e-01
-1.891780400276184082e+01 -1.295992739498615265e+00 -1.493603167124035735e-01
-1.740693974494934082e+01 -1.203341372311115265e+00 -1.516186174936535735e-01
-1.770747685432434082e+01 -1.431368716061115265e+00 -1.437603411264660735e-01
-1.749666142463684082e+01 -1.561373598873615265e+00 -1.390301165170910735e-01
-2.576912236213684082e+01 -1.466402895748615265e+00 -3.272213311865357355e-02
-1.893648076057434082e+01 -7.463101223111152649e-01 -8.568538995459107355e-02
-1.874238896369934082e+01 -8.992642238736152649e-01 -8.090938897802857355e-02
-1.671834111213684082e+01 -7.520474269986152649e-01 -9.403194757177857355e-02
-1.652669072151184082e+01 -8.798550441861152649e-01 -9.014095636084107355e-02
-1.778059697151184082e+01 -1.269015200436115265e+00 -7.126583429052857355e-02
-1.726484990119934082e+01 -1.342989809811115265e+00 -7.057918878271607355e-02
-1.754756474494934082e+01 -1.568819887936115265e+00 -6.092037530615357355e-02
-2.577241826057434082e+01 -1.462862856686115265e+00 8.170352606103392645e-02
-3.269600224494934082e+01 -2.696993716061115265e+00 1.853564801625964265e-01
-1.736726689338684082e+01 -6.871060207486152649e-01 -1.749386163427857355e-02
-1.889448857307434082e+01 -1.102755434811115265e+00 1.065860418603392645e-02
-1.721614384651184082e+01 -9.963101223111152649e-01 -7.362025696778573547e-03
-1.778865361213684082e+01 -1.267672426998615265e+00 7.438999693846426453e-03
-4.720051884651184082e+01 -7.124117739498615265e+00 4.703906598500964265e-01
-4.761983036994934082e+01 -7.687106020748615265e+00 4.946673932485339265e-01
-1.880708622932434082e+01 -5.415982082486152649e-01 7.201419500634642645e-02
-3.284797978401184082e+01 -2.713473208248615265e+00 3.354724469594714265e-01
-3.897273564338684082e+01 -3.968233950436115265e+00 4.610217633657214265e-01
-1.879109501838684082e+01 -1.083102114498615265e+00 9.174380926415892645e-02
-1.857283329963684082e+01 -1.227633364498615265e+00 9.436832098290892645e-02
-1.779658818244934082e+01 -1.266329653561115265e+00 8.579288152978392645e-02
-1.773958134651184082e+01 -1.429049380123615265e+00 9.159122137353392645e-02
-4.761445927619934082e+01 -7.678072817623615265e+00 7.134021344594714265e-01
-1.872676396369934082e+01 -5.281704738736152649e-01 1.528705182485339265e-01
-3.545418095588684082e+01 -3.077486880123615265e+00 5.423663678579089265e-01
-3.901289677619934082e+01 -3.968111880123615265e+00 6.386951032094714265e-01
-1.851436161994934082e+01 -1.035250551998615265e+00 1.681903424672839265e-01
-1.836458134651184082e+01 -1.188815005123615265e+00 1.714709821157214265e-01
-1.653462529182434082e+01 -1.033175356686115265e+00 1.335376325063464265e-01
-1.834199833869934082e+01 -1.542452700436115265e+00 1.846545758657214265e-01
-4.763850712776184082e+01 -7.675021059811115265e+00 9.327777448110339265e-01
-1.184846806526184082e+01 -4.379605129361152649e-01 -9.408642229624035735e-01
-1.184944462776184082e+01 -5.512417629361152649e-01 -9.382854876108410735e-01
-1.184907841682434082e+01 -6.647671535611152649e-01 -9.358898577280285735e-01
-1.186397099494934082e+01 -7.828091457486152649e-01 -9.344250139780285735e-01
-1.187874150276184082e+01 -9.013394191861152649e-01 -9.329601702280285735e-01
-1.189375615119934082e+01 -1.020846255123615265e+00 -9.314800676889660735e-01
-1.190889286994934082e+01 -1.141573794186115265e+00 -9.299847063608410735e-01
-1.191768193244934082e+01 -1.261080630123615265e+00 -9.283672747202160735e-01
-1.311189579963684082e+01 -6.967495754361152649e-01 -9.643474993295910735e-01
-1.313350224494934082e+01 -8.276089504361152649e-01 -9.628521380014660735e-01
-1.316316533088684082e+01 -9.613980129361152649e-01 -9.614941057749035735e-01
-1.318526005744934082e+01 -1.094942934811115265e+00 -9.599529680795910735e-01
-1.320747685432434082e+01 -1.229342348873615265e+00 -9.584118303842785735e-01
-1.321321415901184082e+01 -1.360445864498615265e+00 -9.558941301889660735e-01
-1.320442509651184082e+01 -1.488863833248615265e+00 -9.528271135874035735e-01
-1.320210576057434082e+01 -1.619112856686115265e+00 -9.498058733530285735e-01
-1.460005497932434082e+01 -1.001437075436115265e+00 -9.881817278452160735e-01
-1.460090947151184082e+01 -1.143282778561115265e+00 -9.849621233530285735e-01
-1.460652470588684082e+01 -1.286837466061115265e+00 -9.819866594858410735e-01
-1.463923954963684082e+01 -1.438204653561115265e+00 -9.804150042124035735e-01
-1.467207646369934082e+01 -1.590426333248615265e+00 -9.788586077280285735e-01
-1.470515751838684082e+01 -1.744234926998615265e+00 -9.772716936655285735e-01
-1.471284794807434082e+01 -1.893038637936115265e+00 -9.742962297983410735e-01
-1.471358036994934082e+01 -2.040133364498615265e+00 -9.709392962045910735e-01
-1.647261357307434082e+01 -1.384737856686115265e+00 -1.017509120423341074e+00
-1.655464482307434082e+01 -1.563570864498615265e+00 -1.017280238587403574e+00
-1.662007451057434082e+01 -1.741183169186115265e+00 -1.016578334290528574e+00
-1.665840458869934082e+01 -1.915011294186115265e+00 -1.014472621399903574e+00
-1.666511845588684082e+01 -2.082125551998615265e+00 -1.010810512024903574e+00
-1.667195439338684082e+01 -2.250094301998615265e+00 -1.007117885071778574e+00
-1.667866826057434082e+01 -2.419649966061115265e+00 -1.003394740540528574e+00
-1.667268681526184082e+01 -2.586031801998615265e+00 -9.994427141733410735e-01
-1.917537236213684082e+01 -1.938326723873615265e+00 -1.066245692688966074e+00
-1.933504033088684082e+01 -2.162081606686115265e+00 -1.068626063782716074e+00
-1.941023564338684082e+01 -2.370821841061115265e+00 -1.067130702454591074e+00
-1.942732548713684082e+01 -2.568941958248615265e+00 -1.062995570618653574e+00
-1.944441533088684082e+01 -2.767794497311115265e+00 -1.058829921204591074e+00
-1.946162724494934082e+01 -2.967867739498615265e+00 -1.054649013001466074e+00
-1.947896122932434082e+01 -3.170138247311115265e+00 -1.050422328431153574e+00
-1.949641728401184082e+01 -3.372897036373615265e+00 -1.046180385071778574e+00
-2.192708134651184082e+01 -2.501070864498615265e+00 -1.092063563782716074e+00
-2.308015751838684082e+01 -2.967867739498615265e+00 -1.131980555970216074e+00
-2.334797978401184082e+01 -3.259371645748615265e+00 -1.136558192688966074e+00
-2.340852665901184082e+01 -3.509249575436115265e+00 -1.132758754212403574e+00
-2.344551396369934082e+01 -3.754977114498615265e+00 -1.127982753235841074e+00
-2.348274540901184082e+01 -4.002657778561115265e+00 -1.123176234681153574e+00
-2.352034306526184082e+01 -4.253146059811115265e+00 -1.118293422181153574e+00
-2.362117314338684082e+01 -4.522555239498615265e+00 -1.116401332337403574e+00
-3.287166142463684082e+01 -4.746065981686115265e+00 -1.383491176087403574e+00
-3.244124150276184082e+01 -4.984591372311115265e+00 -1.359199183899903574e+00
-3.077608036994934082e+01 -4.936373598873615265e+00 -1.291816371399903574e+00
-2.997200322151184082e+01 -5.059664614498615265e+00 -1.255271571595216074e+00
-2.984981083869934082e+01 -5.335177309811115265e+00 -1.242683070618653574e+00
-3.013948369026184082e+01 -5.715792544186115265e+00 -1.244208949524903574e+00
-3.054939579963684082e+01 -6.137423403561115265e+00 -1.249580043274903574e+00
-3.075142216682434082e+01 -6.510104067623615265e+00 -1.247703212220216074e+00
-3.678328251838684082e+01 -5.543673403561115265e+00 -1.355338710267091074e+00
-3.660628056526184082e+01 -5.877535708248615265e+00 -1.339332240540528574e+00
-4.405098271369934082e+01 -7.932833559811115265e+00 -1.553687709290528574e+00
-2.997542119026184082e+01 -5.055392153561115265e+00 -1.118003505188966074e+00
-4.083552861213684082e+01 -8.045504458248615265e+00 -1.432243007142091074e+00
-4.169465947151184082e+01 -8.689181216061115265e+00 -1.445518153626466074e+00
-4.203035283088684082e+01 -9.214205630123615265e+00 -1.443946498353028574e+00
-4.259993290901184082e+01 -9.812350161373615265e+00 -1.447898524720216074e+00
-4.420711064338684082e+01 -7.060274966061115265e+00 -1.381827968079591074e+00
-5.079463505744934082e+01 -8.929049380123615265e+00 -1.539466517884278574e+00
-5.424898076057434082e+01 -1.022958648949861526e+01 -1.612662929017091074e+00
-2.997896122932434082e+01 -5.051119692623615265e+00 -9.814526018686535735e-01
-4.084004521369934082e+01 -8.039645083248615265e+00 -1.244102138001466074e+00
-5.436983036994934082e+01 -1.194711578637361526e+01 -1.565833705384278574e+00
-6.162153935432434082e+01 -1.446274078637361526e+01 -1.725822108704591074e+00
-6.281648564338684082e+01 -1.544455230981111526e+01 -1.735419887024903574e+00
-4.694099736213684082e+01 -7.613131411373615265e+00 -1.238608973938966074e+00
-4.631526494026184082e+01 -7.955904848873615265e+00 -1.210700648743653574e+00
-6.244490361213684082e+01 -1.207077301293611526e+01 -1.533897059876466074e+00
-2.998237919807434082e+01 -5.046969301998615265e+00 -8.449169573374035735e-01
-4.084456181526184082e+01 -8.033663637936115265e+00 -1.055961268860841074e+00
-5.437581181526184082e+01 -1.193905914574861526e+01 -1.313224452454591074e+00
-7.864314579963684082e+01 -1.901535309106111526e+01 -1.772391932923341074e+00
-8.967256474494934082e+01 -2.292062652856111526e+01 -1.959968226868653574e+00
-4.671773076057434082e+01 -7.559542544186115265e+00 -1.018775599915528574e+00
-4.639912724494934082e+01 -7.966158755123615265e+00 -9.984508928842785735e-01
-5.591047978401184082e+01 -1.058590973168611526e+01 -1.137626307923341074e+00
