-1.018637135624885559e+01 2.029497452080249786e+00 -2.759059904143157382e-01
-1.040976002812385559e+01 1.946245498955249786e+00 -2.736019132658782382e-01
-1.064450123906135559e+01 1.858843155205249786e+00 -2.711910245940032382e-01
-1.089242604374885559e+01 1.766435928642749786e+00 -2.686428068205657382e-01
-1.115280202031135559e+01 1.669512100517749786e+00 -2.659572599455657382e-01
-9.645355731248855591e+00 2.262529678642749786e+00 -2.439083097502532382e-01
-9.842011004686355591e+00 2.189775772392749786e+00 -2.412227628752532382e-01
-1.004843190312385559e+01 2.113725967705249786e+00 -2.381862638518157382e-01
-1.026571705937385559e+01 2.033525772392749786e+00 -2.349971769377532382e-01
-1.049313405156135559e+01 1.949663467705249786e+00 -2.316555021330657382e-01
-1.073226979374885559e+01 1.861528702080249786e+00 -2.281307218596282382e-01
-1.098483327031135559e+01 1.768266983330249786e+00 -2.244228361174407382e-01
-1.119857838749885559e+01 1.670732803642749786e+00 -2.204402921721282382e-01
-9.715424090623855591e+00 2.268266983330249786e+00 -2.052272794768157382e-01
-9.915863543748855591e+00 2.195024795830249786e+00 -2.013820646330657382e-01
-1.010836842656135559e+01 2.117632217705249786e+00 -1.974758146330657382e-01
-1.030197194218635559e+01 2.036089248955249786e+00 -1.934322355315032382e-01
-1.050338795781135559e+01 1.951250381767749786e+00 -1.892208097502532382e-01
-1.071395924687385559e+01 1.862627334892749786e+00 -1.848110197111907382e-01
-1.093490651249885559e+01 1.769487686455249786e+00 -1.801876066252532382e-01
-1.116561940312385559e+01 1.672441788017749786e+00 -1.753658292815032382e-01
-9.674530535936355591e+00 2.266802139580249786e+00 -1.668209074065032382e-01
-9.848969012498855591e+00 2.192583389580249786e+00 -1.623500822111907382e-01
-1.003109791874885559e+01 2.115434952080249786e+00 -1.579097745940032382e-01
-1.022116139531135559e+01 2.034624405205249786e+00 -1.530574796721282382e-01
-1.041903737187385559e+01 1.950517959892749786e+00 -1.480068204924407382e-01
-1.062570241093635559e+01 1.862749405205249786e+00 -1.427272794768157382e-01
-1.084201100468635559e+01 1.770586319267749786e+00 -1.369594572111907382e-01
-1.111239674687385559e+01 1.674150772392749786e+00 -1.306270597502532382e-01
-9.604218035936355591e+00 2.263384170830249786e+00 -1.292385099455657382e-01
-9.776093035936355591e+00 2.189897842705249786e+00 -1.242488859221282382e-01
-9.982636004686355591e+00 2.114580459892749786e+00 -1.184200285002532382e-01
-1.020785573124885559e+01 2.035478897392749786e+00 -1.121639249846282382e-01
-1.044393971562385559e+01 1.952471084892749786e+00 -1.056026456877532382e-01
-1.069284108281135559e+01 1.865068741142749786e+00 -9.869041424244073824e-02
-1.095639088749885559e+01 1.772539444267749786e+00 -9.136619549244073824e-02
-1.123471119999885559e+01 1.675005264580249786e+00 -8.338584881275323824e-02
-1.150338795781135559e+01 1.644121475517749786e+00 -9.708522794768157382e-01
-1.152023366093635559e+01 1.542070694267749786e+00 -9.686397550627532382e-01
-1.153317311406135559e+01 1.439653702080249786e+00 -9.663967130705657382e-01
-1.158468678593635559e+01 1.335039444267749786e+00 -9.668087003752532382e-01
-1.163583424687385559e+01 1.229814834892749786e+00 -9.671749113127532382e-01
-1.168759205937385559e+01 1.123369522392749786e+00 -9.675563810393157382e-01
-1.174008229374885559e+01 1.015459366142749786e+00 -9.679225919768157382e-01
-1.178732350468635559e+01 9.070609286427497864e-01 -9.681819913908782382e-01
-1.252072194218635559e+01 1.637651748955249786e+00 -9.905818937346282382e-01
-1.258200123906135559e+01 1.524736709892749786e+00 -9.911312101408782382e-01
-1.265072682499885559e+01 1.410234756767749786e+00 -9.918331144377532382e-01
-1.271383717656135559e+01 1.294023819267749786e+00 -9.923824308440032382e-01
-1.277743580937385559e+01 1.176958389580249786e+00 -9.929470060393157382e-01
-1.284176686406135559e+01 1.058306045830249786e+00 -9.935268400236907382e-01
-1.290036061406135559e+01 9.384329989552497864e-01 -9.939540861174407382e-01
-1.297592213749885559e+01 8.162406161427497864e-01 -9.951442716643157382e-01
-1.455050709843635559e+01 1.623857803642749786e+00 -1.062832259945565738e+00
-1.438644459843635559e+01 1.494585342705249786e+00 -1.048733138851815738e+00
-1.499350026249885559e+01 1.347246475517749786e+00 -1.081386947445565738e+00
-1.494137623906135559e+01 1.211992569267749786e+00 -1.073971175961190738e+00
-1.443368580937385559e+01 1.099809952080249786e+00 -1.039303207211190738e+00
-1.429501393437385559e+01 9.765189364552497864e-01 -1.026958846859628238e+00
-1.415866139531135559e+01 8.551810458302497864e-01 -1.014797591976815738e+00
-1.412399342656135559e+01 7.289603427052497864e-01 -1.008739852719003238e+00
-1.450985768437385559e+01 1.626177139580249786e+00 -9.996608732268157382e-01
-1.508602955937385559e+01 1.484331436455249786e+00 -1.027584457211190738e+00
-1.516403248906135559e+01 1.344682998955249786e+00 -1.027630233578378238e+00
-1.497384694218635559e+01 1.212969131767749786e+00 -1.012691879086190738e+00
-1.505770924687385559e+01 1.072344131767749786e+00 -1.013042831234628238e+00
-1.500534108281135559e+01 9.377005770802497864e-01 -1.005840682797128238e+00
-1.501937916874885559e+01 7.991507723927497864e-01 -1.002300643734628238e+00
-1.751376393437385559e+01 4.683402255177497864e-01 -1.133892440609628238e+00
-1.525375416874885559e+01 1.622637100517749786e+00 -9.772914884611907382e-01
-1.537594655156135559e+01 1.481401748955249786e+00 -9.792140958830657382e-01
-1.517916920781135559e+01 1.346391983330249786e+00 -9.646877286955657382e-01
-1.526901295781135559e+01 1.204057998955249786e+00 -9.648708341643157382e-01
-1.554245045781135559e+01 1.051470108330249786e+00 -9.743160245940032382e-01
-1.512496998906135559e+01 9.330619052052497864e-01 -9.488033292815032382e-01
-1.505673268437385559e+01 7.987845614552497864e-01 -9.410060880705657382e-01
-1.503427174687385559e+01 6.626761630177497864e-01 -9.355434415861907382e-01
-1.471896412968635559e+01 1.628618545830249786e+00 -8.879055021330657382e-01
-1.500631764531135559e+01 1.489946670830249786e+00 -8.968471525236907382e-01
-1.516268971562385559e+01 1.348955459892749786e+00 -8.997920988127532382e-01
-1.484921315312385559e+01 1.221758194267749786e+00 -8.808559415861907382e-01
-1.523190358281135559e+01 1.068315811455249786e+00 -8.941768644377532382e-01
-1.853317311406135559e+01 7.404349520802497864e-01 -1.040722274594003238e+00
-1.583395436406135559e+01 7.487357333302497864e-01 -9.126552579924407382e-01
-1.508944752812385559e+01 6.606009677052497864e-01 -8.747982023283782382e-01
-1.553903248906135559e+01 1.624834366142749786e+00 -8.610195158049407382e-01
-1.492709401249885559e+01 1.493364639580249786e+00 -8.305324552580657382e-01
-1.514645436406135559e+01 1.351518936455249786e+00 -8.354305265471282382e-01
-1.782418873906135559e+01 1.113848038017749786e+00 -9.428524015471282382e-01
-1.525375416874885559e+01 1.069536514580249786e+00 -8.310207365080657382e-01
-1.518344166874885559e+01 9.340384677052497864e-01 -8.236812589690032382e-01
-1.515597584843635559e+01 7.964652255177497864e-01 -8.180965421721282382e-01
-1.844650319218635559e+01 4.043753817677497864e-01 -9.469264982268157382e-01
-1.433956959843635559e+01 1.635210342705249786e+00 -7.499202726408782382e-01
-1.481686452031135559e+01 1.497270889580249786e+00 -7.638057706877532382e-01
-1.711874440312385559e+01 1.300737686455249786e+00 -8.454097745940032382e-01
-1.524057057499885559e+01 1.211504288017749786e+00 -7.705348966643157382e-01
-1.527584889531135559e+01 1.070635147392749786e+00 -7.673610685393157382e-01
-1.804147389531135559e+01 7.738822177052497864e-01 -8.638576505705657382e-01
-1.520602467656135559e+01 7.953665927052497864e-01 -7.561763761565032382e-01
-1.520150807499885559e+01 6.564505770802497864e-01 -7.515377042815032382e-01
-1.400094655156135559e+01 1.639482803642749786e+00 -6.784175870940032382e-01
-1.427914479374885559e+01 1.508379288017749786e+00 -6.835597990080657382e-01
-1.547335866093635559e+01 1.347002334892749786e+00 -7.186550138518157382e-01
-1.470285084843635559e+01 1.233476944267749786e+00 -6.889766691252532382e-01
-1.531210377812385559e+01 1.071123428642749786e+00 -7.042964933440032382e-01
-1.547836354374885559e+01 9.217093661427497864e-01 -7.050746915861907382e-01
-1.525912526249885559e+01 7.940238192677497864e-01 -6.935543058440032382e-01
-1.826083424687385559e+01 4.240287020802497864e-01 -7.829250333830657382e-01
-1.393991139531135559e+01 1.641802139580249786e+00 -6.183895109221282382e-01
-1.422091725468635559e+01 1.511308975517749786e+00 -6.223262785002532382e-01
-1.478732350468635559e+01 1.367388077080249786e+00 -6.341823576018157382e-01
-1.520773366093635559e+01 1.216997452080249786e+00 -6.415523527190032382e-01
-1.531918385624885559e+01 1.072954483330249786e+00 -6.401180265471282382e-01
-1.533529713749885559e+01 9.319632723927497864e-01 -6.360134122893157382e-01
-1.531601002812385559e+01 7.924369052052497864e-01 -6.309017179533782382e-01
-1.745407155156135559e+01 4.884818270802497864e-01 -6.833919523283782382e-01
-1.418429616093635559e+01 1.642168350517749786e+00 -5.660518644377532382e-01
-1.460971119999885559e+01 1.506914444267749786e+00 -5.720790861174407382e-01
-1.472409108281135559e+01 1.371172256767749786e+00 -5.704463956877532382e-01
-1.557113698124885559e+01 1.206011123955249786e+00 -5.858425138518157382e-01
-1.540255787968635559e+01 1.071367569267749786e+00 -5.773128507658782382e-01
-1.536996510624885559e+01 9.322074130177497864e-01 -5.719570158049407382e-01
-2.352487233281135559e+01 2.498343661427497864e-01 -7.499050138518157382e-01
-1.537313893437385559e+01 6.499808505177497864e-01 -5.628017423674407382e-01
-1.413485768437385559e+01 1.644365616142749786e+00 -5.060085294768157382e-01
-1.407113698124885559e+01 1.517656631767749786e+00 -5.005611417815032382e-01
-1.495687916874885559e+01 1.367143936455249786e+00 -5.133022306486907382e-01
-1.687948659062385559e+01 1.160723038017749786e+00 -5.449184415861907382e-01
-1.545358327031135559e+01 1.071123428642749786e+00 -5.134853361174407382e-01
-1.534811452031135559e+01 9.356253817677497864e-01 -5.069240568205657382e-01
-1.549581959843635559e+01 7.849906161427497864e-01 -5.049251554533782382e-01
-1.543100026249885559e+01 6.477835848927497864e-01 -4.991115568205657382e-01
-1.569381764531135559e+01 1.636797256767749786e+00 -4.704860685393157382e-01
-1.574447682499885559e+01 1.492632217705249786e+00 -4.665035245940032382e-01
-1.460031178593635559e+01 1.378496475517749786e+00 -4.454769132658782382e-01
-1.506002858281135559e+01 1.228838272392749786e+00 -4.475978849455657382e-01
-1.600741627812385559e+01 1.047807998955249786e+00 -4.561885831877532382e-01
-1.529733327031135559e+01 9.407523348927497864e-01 -4.417232511565032382e-01
-1.772921803593635559e+01 6.397269442677497864e-01 -4.687770841643157382e-01
-1.567660573124885559e+01 6.314261630177497864e-01 -4.369777677580657382e-01
-1.127548268437385559e+01 1.665483780205249786e+00 -3.577846525236907382e-01
-1.150619557499885559e+01 1.562456436455249786e+00 -3.568386076018157382e-01
-1.175521901249885559e+01 1.454302139580249786e+00 -3.559383390471282382e-01
-1.201791432499885559e+01 1.340166397392749786e+00 -3.549770353361907382e-01
-1.229330494999885559e+01 1.220537491142749786e+00 -3.539546964690032382e-01
-1.258346608281135559e+01 1.094560928642749786e+00 -3.529018400236907382e-01
-1.289071705937385559e+01 9.611380770802497864e-01 -3.517726896330657382e-01
-1.321420338749885559e+01 8.206351473927497864e-01 -3.505825040861907382e-01
-1.115646412968635559e+01 1.667681045830249786e+00 -3.111080167815032382e-01
-1.138607838749885559e+01 1.565874405205249786e+00 -3.093685148283782382e-01
-1.162912037968635559e+01 1.459184952080249786e+00 -3.073085783049407382e-01
-1.188522389531135559e+01 1.346636123955249786e+00 -3.051418302580657382e-01
-1.216830494999885559e+01 1.227983780205249786e+00 -3.029293058440032382e-01
-1.248605397343635559e+01 1.101763077080249786e+00 -3.006710050627532382e-01
-1.282443287968635559e+01 9.672415927052497864e-01 -2.982753751799407382e-01
-1.318368580937385559e+01 8.247855380177497864e-01 -2.954372404143157382e-01
-1.115463307499885559e+01 1.669145889580249786e+00 -2.659572599455657382e-01
-1.141146901249885559e+01 1.567095108330249786e+00 -2.629207609221282382e-01
-1.168527272343635559e+01 1.459307022392749786e+00 -2.597469327971282382e-01
-1.197567799687385559e+01 1.345049209892749786e+00 -2.563594816252532382e-01
-1.228183034062385559e+01 1.224565811455249786e+00 -2.527889249846282382e-01
-1.260641530156135559e+01 1.096880264580249786e+00 -2.490200040861907382e-01
-1.295224049687385559e+01 9.607718661427497864e-01 -2.449916837736907382e-01
-1.328671315312385559e+01 8.189261630177497864e-01 -2.407497404143157382e-01
-1.119833424687385559e+01 1.670366592705249786e+00 -2.204402921721282382e-01
-1.149020436406135559e+01 1.567339248955249786e+00 -2.163204191252532382e-01
-1.173300221562385559e+01 1.459673233330249786e+00 -2.119564054533782382e-01
-1.198886159062385559e+01 1.346147842705249786e+00 -2.073482511565032382e-01
-1.225680592656135559e+01 1.227373428642749786e+00 -2.025264738127532382e-01
-1.253866627812385559e+01 1.102373428642749786e+00 -1.974605558440032382e-01
-1.283676198124885559e+01 9.701712802052497864e-01 -1.921047208830657382e-01
-1.314950612187385559e+01 8.311331942677497864e-01 -1.861690519377532382e-01
-1.116720631718635559e+01 1.672075577080249786e+00 -1.753505704924407382e-01
-1.139132741093635559e+01 1.570391006767749786e+00 -1.701930997893157382e-01
-1.162936452031135559e+01 1.463823623955249786e+00 -1.647609708830657382e-01
-1.187997487187385559e+01 1.351641006767749786e+00 -1.590389249846282382e-01
-1.215524342656135559e+01 1.233721084892749786e+00 -1.529354093596282382e-01
-1.248873952031135559e+01 1.106890030205249786e+00 -1.460994718596282382e-01
-1.284481862187385559e+01 9.713919833302497864e-01 -1.387905118986907382e-01
-1.322335866093635559e+01 8.274710848927497864e-01 -1.310237882658782382e-01
-1.111422780156135559e+01 1.673784561455249786e+00 -1.305812833830657382e-01
-1.138449147343635559e+01 1.572099991142749786e+00 -1.238063810393157382e-01
-1.167025807499885559e+01 1.464433975517749786e+00 -1.169094083830657382e-01
-1.197482350468635559e+01 1.349932022392749786e+00 -1.092800138518157382e-01
-1.229684498906135559e+01 1.228960342705249786e+00 -1.012233732268157382e-01
-1.263925221562385559e+01 1.100298233330249786e+00 -9.266319256275323824e-02
-3.696701100468635559e+01 -5.972115322947502136e-01 2.623020173981842618e-01
-2.666574147343635559e+01 -1.800972744822502136e-01 1.224246980622467618e-01
-1.123666432499885559e+01 1.674639053642749786e+00 -8.335533123462823824e-02
-1.150656178593635559e+01 1.571733780205249786e+00 -7.552757244556573824e-02
-1.639242604374885559e+01 1.347978897392749786e+00 1.410255450755926176e-02
-1.540744069218635559e+01 1.231523819267749786e+00 1.590347476309261765e-03
-1.538900807499885559e+01 1.091631241142749786e+00 6.091690249746761765e-03
-1.540695241093635559e+01 9.500296786427497864e-01 1.124916095287176176e-02
-1.654843190312385559e+01 7.345755770802497864e-01 3.779945392162176176e-02
-1.658212330937385559e+01 5.796683505177497864e-01 4.407081622630926176e-02
-1.178768971562385559e+01 9.066947177052497864e-01 -9.681972501799407382e-01
-1.183725026249885559e+01 7.970755770802497864e-01 -9.683803556486907382e-01
-1.184835866093635559e+01 6.898978427052497864e-01 -9.661830900236907382e-01
-1.185946705937385559e+01 5.819876864552497864e-01 -9.639705656096282382e-01
-1.187057545781135559e+01 4.739554598927497864e-01 -9.617427824065032382e-01
-1.188180592656135559e+01 3.654349520802497864e-01 -9.595302579924407382e-01
-1.189315846562385559e+01 2.561820223927497864e-01 -9.572872160002532382e-01
-1.189877369999885559e+01 1.475394442677497864e-01 -9.549221036955657382e-01
-1.297482350468635559e+01 8.159964755177497864e-01 -9.950679777190032382e-01
-1.298568776249885559e+01 6.978324130177497864e-01 -9.924434660002532382e-01
-1.300753834843635559e+01 5.782035067677497864e-01 -9.902004240080657382e-01
-1.302267506718635559e+01 4.580863192677497864e-01 -9.878047941252532382e-01
-1.303781178593635559e+01 3.378470614552497864e-01 -9.853939054533782382e-01
-1.305307057499885559e+01 2.169974520802497864e-01 -9.829830167815032382e-01
-1.306149342656135559e+01 9.614784270524978638e-02 -9.804042814299407382e-01
-1.307687428593635559e+01 -2.567832916975021362e-02 -9.779781339690032382e-01
-1.412423756718635559e+01 7.285941317677497864e-01 -1.008739852719003238e+00
-1.378427174687385559e+01 6.297171786427497864e-01 -9.850887296721282382e-01
-1.419113209843635559e+01 4.643119052052497864e-01 -1.005215072445565738e+00
-1.422494557499885559e+01 3.302787020802497864e-01 -1.003429794125253238e+00
-1.425900319218635559e+01 1.957572177052497864e-01 -1.001644515804940738e+00
-1.435482838749885559e+01 5.232460051774978638e-02 -1.003368758969003238e+00
-1.446652272343635559e+01 -9.611289948225021362e-02 -1.005932235531503238e+00
-1.454879811406135559e+01 -2.421089932322502136e-01 -1.006771468929940738e+00
-1.751303151249885559e+01 4.678519442677497864e-01 -1.133831405453378238e+00
-1.377816823124885559e+01 6.322806552052497864e-01 -9.268764493986907382e-01
-1.696920827031135559e+01 1.952689364552497864e-01 -1.094677352719003238e+00
-1.666061452031135559e+01 7.014686614274978638e-02 -1.073543929867440738e+00
-1.638888600468635559e+01 -5.302207916975021362e-02 -1.054546737484628238e+00
-1.612594655156135559e+01 -1.720406338572502136e-01 -1.036175155453378238e+00
-1.615109303593635559e+01 -3.264595791697502136e-01 -1.033077621273690738e+00
-1.624203541874885559e+01 -4.908882901072502136e-01 -1.033779525570565738e+00
-1.503427174687385559e+01 6.623099520802497864e-01 -9.355281827971282382e-01
-1.377206471562385559e+01 6.347220614552497864e-01 -8.690303800627532382e-01
-1.805282643437385559e+01 9.224159270524978638e-02 -1.075588607601815738e+00
-1.798202565312385559e+01 -6.950157135725021362e-02 -1.067074203304940738e+00
-1.881100514531135559e+01 -3.353707119822502136e-01 -1.102276229672128238e+00
-2.051498463749885559e+01 -7.302681729197502136e-01 -1.179165267758065738e+00
-2.065377858281135559e+01 -9.448677822947502136e-01 -1.179989242367440738e+00
-1.844271901249885559e+01 -8.142525479197502136e-01 -1.068844222836190738e+00
-1.508944752812385559e+01 6.602347567677497864e-01 -8.747829435393157382e-01
-1.376583912968635559e+01 6.372855380177497864e-01 -8.109554288908782382e-01
-2.038302662968635559e+01 -1.316353604197502136e-01 -1.101543807797128238e+00
-2.050595143437385559e+01 -3.376900479197502136e-01 -1.101116561703378238e+00
-1.878549244999885559e+01 -3.295113369822502136e-01 -1.019756698422128238e+00
-2.078390553593635559e+01 -7.613961026072502136e-01 -1.101467513851815738e+00
-2.337887623906135559e+01 -1.317060165107250214e+00 -1.207714462094003238e+00
-2.353854420781135559e+01 -1.564984969794750214e+00 -1.208324813656503238e+00
-2.045077565312385559e+01 2.493460848927497864e-01 -1.028072738461190738e+00
-1.375973561406135559e+01 6.398490145802497864e-01 -7.532619474455657382e-01
-2.064120534062385559e+01 -1.536080166697502136e-01 -1.023815536312753238e+00
-2.077255299687385559e+01 -3.632027432322502136e-01 -1.022991561703378238e+00
-1.876022389531135559e+01 -3.236519619822502136e-01 -9.379390714690032382e-01
-2.353012135624885559e+01 -1.107953719794750214e+00 -1.118252181820565738e+00
-2.367990162968635559e+01 -1.354779891669750214e+00 -1.117061996273690738e+00
-2.384591725468635559e+01 -1.606610946357250214e+00 -1.116421127133065738e+00
-1.520150807499885559e+01 6.559622958302497864e-01 -7.515224454924407382e-01
-1.375363209843635559e+01 6.424124911427497864e-01 -6.956447599455657382e-01
-2.093624928593635559e+01 -1.791207119822502136e-01 -9.445461271330657382e-01
-2.357858327031135559e+01 -6.603218838572502136e-01 -1.030620956234628238e+00
-2.370394948124885559e+01 -8.998238369822502136e-01 -1.027920150570565738e+00
-2.383090260624885559e+01 -1.142499618232250214e+00 -1.025173568539315738e+00
-2.655429127812385559e+01 -1.745893172919750214e+00 -1.111141586117440738e+00
-2.668466237187385559e+01 -2.021650008857250214e+00 -1.107494735531503238e+00
-1.826181080937385559e+01 4.234183505177497864e-01 -7.829250333830657382e-01
-1.374752858281135559e+01 6.449759677052497864e-01 -6.377834318205657382e-01
-1.834494069218635559e+01 7.490760833024978638e-02 -7.746395109221282382e-01
-1.656698659062385559e+01 9.272987395524978638e-02 -7.152523038908782382e-01
-1.870980885624885559e+01 -3.119332119822502136e-01 -7.746242521330657382e-01
-2.674691823124885559e+01 -1.509320907294750214e+00 -1.007488632015878238e+00
-1.890792897343635559e+01 -6.923043057322502136e-01 -7.691921232268157382e-01
-2.970187428593635559e+01 -2.462079696357250214e+00 -1.076794051937753238e+00
-1.745150807499885559e+01 4.881156161427497864e-01 -6.833003995940032382e-01
-1.374142506718635559e+01 6.474173739552497864e-01 -5.802883146330657382e-01
-1.828439381718635559e+01 8.357460051774978638e-02 -6.945003507658782382e-01
-2.555343678593635559e+01 -8.638130947947502136e-01 -8.757900236174407382e-01
-1.868478444218635559e+01 -3.061959072947502136e-01 -6.935695646330657382e-01
-2.804574635624885559e+01 -1.669965438544750214e+00 -9.223751066252532382e-01
-1.892623952031135559e+01 -6.918160244822502136e-01 -6.881374357268157382e-01
-2.511373952031135559e+01 -1.781781844794750214e+00 -8.332637785002532382e-01
-1.537313893437385559e+01 6.494925692677497864e-01 -5.627864835783782382e-01
-1.374227955937385559e+01 6.493704989552497864e-01 -5.227169035002532382e-01
-1.822409108281135559e+01 9.211952239274978638e-02 -6.145290372893157382e-01
-2.555624440312385559e+01 -8.601509854197502136e-01 -7.633785245940032382e-01
-1.865976002812385559e+01 -3.003365322947502136e-01 -6.123317716643157382e-01
-1.635800221562385559e+01 -1.841255947947502136e-01 -5.595973966643157382e-01
-1.894479420781135559e+01 -6.914498135447502136e-01 -6.064876554533782382e-01
-1.637216237187385559e+01 -4.922310635447502136e-01 -5.498165128752532382e-01
-1.543100026249885559e+01 6.472953036427497864e-01 -4.991115568205657382e-01
-1.374386647343635559e+01 6.513236239552497864e-01 -4.654811857268157382e-01
-2.506869557499885559e+01 -5.642525479197502136e-01 -6.515163419768157382e-01
-1.644747975468635559e+01 1.129935458302497864e-01 -5.016139982268157382e-01
-1.646505787968635559e+01 -4.191368073225021362e-02 -4.967922208830657382e-01
-2.508358815312385559e+01 -1.286054305732250214e+00 -6.277278898283782382e-01
-2.536386159062385559e+01 -1.566205672919750214e+00 -6.239894865080657382e-01
-1.636325123906135559e+01 -4.884468838572502136e-01 -4.798702238127532382e-01
-1.542977955937385559e+01 6.497367098927497864e-01 -4.337886808440032382e-01
-1.374557545781135559e+01 6.531546786427497864e-01 -4.079250333830657382e-01
-1.408908131718635559e+01 4.950736239552497864e-01 -4.081844327971282382e-01
-1.446615651249885559e+01 3.258841708302497864e-01 -4.082912443205657382e-01
-1.486557057499885559e+01 1.466849520802497864e-01 -4.083827970549407382e-01
-1.529086354374885559e+01 -4.423301666975021362e-02 -4.084896085783782382e-01
-1.574508717656135559e+01 -2.484566494822502136e-01 -4.082302091643157382e-01
-1.623056080937385559e+01 -4.663521572947502136e-01 -4.083370206877532382e-01
-1.321652272343635559e+01 8.200247958302497864e-01 -3.505977628752532382e-01
-1.355880787968635559e+01 6.712210848927497864e-01 -3.491939542815032382e-01
-1.390744069218635559e+01 5.146048739552497864e-01 -3.476070402190032382e-01
-1.427340748906135559e+01 3.484671786427497864e-01 -3.458675382658782382e-01
-1.466073659062385559e+01 1.726859286427497864e-01 -3.440364835783782382e-01
-1.512411549687385559e+01 -2.091758698225021362e-02 -3.424037931486907382e-01
-1.562631276249885559e+01 -2.299019619822502136e-01 -3.406795499846282382e-01
-1.616561940312385559e+01 -4.543892666697502136e-01 -3.388179777190032382e-01
-1.318624928593635559e+01 8.241751864552497864e-01 -2.954372404143157382e-01
-1.356820729374885559e+01 6.723197177052497864e-01 -2.928432462736907382e-01
-1.396054127812385559e+01 5.115531161427497864e-01 -2.896999357268157382e-01
-1.437777760624885559e+01 3.395560458302497864e-01 -2.863430021330657382e-01
-1.482272389531135559e+01 1.560843661427497864e-01 -2.827419279143157382e-01
-1.530026295781135559e+01 -4.081504791975021362e-02 -2.788814542815032382e-01
-1.574935963749885559e+01 -2.443062588572502136e-01 -2.746242521330657382e-01
-1.622421315312385559e+01 -4.603707119822502136e-01 -2.697109220549407382e-01
-1.328903248906135559e+01 8.183158114552497864e-01 -2.407344816252532382e-01
-1.362789967656135559e+01 6.692679598927497864e-01 -2.360500333830657382e-01
-1.397006276249885559e+01 5.127738192677497864e-01 -2.311061857268157382e-01
-1.433236744999885559e+01 3.465140536427497864e-01 -2.258419035002532382e-01
-1.471542409062385559e+01 1.707328036427497864e-01 -2.202877042815032382e-01
-1.512252858281135559e+01 -1.603477448225021362e-02 -2.143672941252532382e-01
-1.555770924687385559e+01 -2.157418057322502136e-01 -2.080501554533782382e-01
-1.611862233281135559e+01 -4.424263760447502136e-01 -2.010005949065032382e-01
-1.315182545781135559e+01 8.306449130177497864e-01 -1.861537931486907382e-01
-1.348349049687385559e+01 6.835501864552497864e-01 -1.802181242033782382e-01
-1.386581471562385559e+01 5.247367098927497864e-01 -1.734432218596282382e-01
-1.429489186406135559e+01 3.526175692677497864e-01 -1.660427091643157382e-01
-1.475692799687385559e+01 1.681693270802497864e-01 -1.581233976408782382e-01
-1.525424244999885559e+01 -3.031700104475021362e-02 -1.495937345549407382e-01
-1.579281666874885559e+01 -2.452828213572502136e-01 -1.403469083830657382e-01
-1.861569264531135559e+01 -8.046089932322502136e-01 -1.118434904143157382e-01
-1.322604420781135559e+01 8.268607333302497864e-01 -1.309780118986907382e-01
-1.363192799687385559e+01 6.728079989552497864e-01 -1.223720548674407382e-01
-1.404599049687385559e+01 5.095999911427497864e-01 -1.133541105315032382e-01
-2.604672291874885559e+01 -8.840767666697502136e-01 2.630958575755926176e-02
-3.298019459843635559e+01 -1.934003524482250214e+00 1.159091951325592618e-01
-1.850375416874885559e+01 -4.360787197947502136e-01 -4.589500408619073824e-02
-1.713400319218635559e+01 -4.248482510447502136e-01 -5.645408611744073824e-02
-1.858920338749885559e+01 -7.977730557322502136e-01 -3.210105877369073824e-02
-2.666452077031135559e+01 -1.808296963572502136e-01 1.224399568513092618e-01
-1.829318287968635559e+01 2.780326083302497864e-01 5.130386538809261765e-03
-2.526571705937385559e+01 -5.560738369822502136e-01 1.189304353669342618e-01
-2.578549244999885559e+01 -8.524605557322502136e-01 1.360813142731842618e-01
-3.293502858281135559e+01 -1.923627547919750214e+00 2.611576082184967618e-01
-1.823190358281135559e+01 -3.990914151072502136e-01 2.897987384349676176e-02
-1.720455983281135559e+01 -4.318062588572502136e-01 1.828346271068426176e-02
-1.881979420781135559e+01 -8.284127041697502136e-01 5.228004474193426176e-02
-2.669882252812385559e+01 -1.793648526072502136e-01 2.400699617341217618e-01
-1.839328053593635559e+01 2.721732333302497864e-01 8.514747638255926176e-02
-1.820809987187385559e+01 1.183646395802497864e-01 8.784828204662176176e-02
-2.562362721562385559e+01 -8.314644619822502136e-01 2.460514070466217618e-01
-2.638668873906135559e+01 -1.164350204169750214e+00 2.711368562653717618e-01
-1.683261159062385559e+01 -2.209908291697502136e-01 7.779274005443426176e-02
-1.857101491093635559e+01 -6.141793057322502136e-01 1.212650300934967618e-01
-3.740670827031135559e+01 -3.530439071357250214e+00 5.428501131013092618e-01
-1.189889577031135559e+01 1.471732333302497864e-01 -9.549221036955657382e-01
-1.190890553593635559e+01 3.743202239274978638e-02 -9.526485441252532382e-01
-1.191330006718635559e+01 -7.206504791975021362e-02 -9.502376554533782382e-01
-1.191769459843635559e+01 -1.822945401072502136e-01 -9.478267667815032382e-01
-1.193844655156135559e+01 -2.956978604197502136e-01 -9.464687345549407382e-01
-1.196163991093635559e+01 -4.105660244822502136e-01 -9.452480314299407382e-01
-1.198519948124885559e+01 -5.266548916697502136e-01 -9.440120695158782382e-01
-1.200277760624885559e+01 -6.420113369822502136e-01 -9.426540372893157382e-01
-1.307699635624885559e+01 -2.616661041975021362e-02 -9.779628751799407382e-01
-1.308468678593635559e+01 -1.475045010447502136e-01 -9.753688810393157382e-01
-1.311349537968635559e+01 -2.729927822947502136e-01 -9.737514493986907382e-01
-1.314450123906135559e+01 -4.004341885447502136e-01 -9.725154874846282382e-01
-1.317575123906135559e+01 -5.284859463572502136e-01 -9.712795255705657382e-01
-1.320724537968635559e+01 -6.577584072947502136e-01 -9.700283048674407382e-01
-1.323165944218635559e+01 -7.870308682322502136e-01 -9.686244962736907382e-01
-1.324996998906135559e+01 -9.154488369822502136e-01 -9.665340421721282382e-01
-1.454904225468635559e+01 -2.427193447947502136e-01 -1.006771468929940738e+00
-1.456185963749885559e+01 -3.798043057322502136e-01 -1.003918075375253238e+00
-1.457467702031135559e+01 -5.177437588572502136e-01 -1.001064681820565738e+00
-1.458761647343635559e+01 -6.569039151072502136e-01 -9.981655118986907382e-01
-1.460055592656135559e+01 -7.964302822947502136e-01 -9.952663419768157382e-01
-1.461349537968635559e+01 -9.365670010447502136e-01 -9.923671720549407382e-01
-1.462667897343635559e+01 -1.078168563544750214e+00 -9.894222257658782382e-01
-1.464486744999885559e+01 -1.221112899482250214e+00 -9.867519376799407382e-01
-1.624264577031135559e+01 -4.914986416697502136e-01 -1.033794784359628238e+00
-1.632724049687385559e+01 -6.572701260447502136e-01 -1.033672714047128238e+00
-1.635409596562385559e+01 -8.155953213572502136e-01 -1.030865096859628238e+00
-1.638119557499885559e+01 -9.756295010447502136e-01 -1.028026962094003238e+00
-1.640841725468635559e+01 -1.136274032294750214e+00 -1.025188827328378238e+00
-1.646896412968635559e+01 -1.304608993232250214e+00 -1.024013900570565738e+00
-1.655050709843635559e+01 -1.479779891669750214e+00 -1.023830795101815738e+00
-1.657565358281135559e+01 -1.644330672919750214e+00 -1.021145248226815738e+00
-1.844345143437385559e+01 -8.149849697947502136e-01 -1.068859481625253238e+00
-1.853097584843635559e+01 -1.003583602607250214e+00 -1.068096542172128238e+00
-1.662594655156135559e+01 -8.588082119822502136e-01 -9.735378263518157382e-01
-1.861056569218635559e+01 -1.371625594794750214e+00 -1.061886215023690738e+00
-1.866708424687385559e+01 -1.560712508857250214e+00 -1.059505843929940738e+00
-1.888119557499885559e+01 -1.783124618232250214e+00 -1.064358138851815738e+00
-1.904013112187385559e+01 -1.999555282294750214e+00 -1.066509628109628238e+00
-1.918368580937385559e+01 -2.216108016669750214e+00 -1.067867660336190738e+00
-2.353976491093635559e+01 -1.565961532294750214e+00 -1.208355331234628238e+00
-1.642575123906135559e+01 -6.677681729197502136e-01 -8.977931974455657382e-01
-1.662020924687385559e+01 -8.551461026072502136e-01 -9.015468595549407382e-01
-2.262350514531135559e+01 -2.085492782294750214e+00 -1.149517440609628238e+00
-2.202853444218635559e+01 -2.192792586982250214e+00 -1.118313216976815738e+00
-2.222628834843635559e+01 -2.446576766669750214e+00 -1.120327377133065738e+00
-2.156601002812385559e+01 -2.526044540107250214e+00 -1.086849593929940738e+00
-2.270150807499885559e+01 -2.987104110419750214e+00 -1.127682113461190738e+00
-2.384726002812385559e+01 -1.607587508857250214e+00 -1.116436385922128238e+00
-1.646395924687385559e+01 -6.711861416697502136e-01 -8.289455411955657382e-01
-1.633029225468635559e+01 -8.037545010447502136e-01 -8.193019865080657382e-01
-2.690585377812385559e+01 -2.846112899482250214e+00 -1.210262679867440738e+00
-2.963827565312385559e+01 -3.625653915107250214e+00 -1.303799056820565738e+00
-2.985971119999885559e+01 -3.962690047919750214e+00 -1.303234481625253238e+00
-2.156881764531135559e+01 -2.522992782294750214e+00 -9.919399259611907382e-01
-2.824667409062385559e+01 -4.202680282294750214e+00 -1.227215194515878238e+00
-2.668551686406135559e+01 -2.022748641669750214e+00 -1.107509994320565738e+00
-2.684237721562385559e+01 -2.306073836982250214e+00 -1.104839706234628238e+00
-1.636825612187385559e+01 -8.075386807322502136e-01 -7.502254484221282382e-01
-2.980233815312385559e+01 -3.357953719794750214e+00 -1.185039901547128238e+00
-3.262667897343635559e+01 -4.184125594794750214e+00 -1.267605209164315738e+00
-3.283944752812385559e+01 -4.550336532294750214e+00 -1.264538192562753238e+00
-2.157150319218635559e+01 -2.519941024482250214e+00 -8.970149992033782382e-01
-3.614926198124885559e+01 -5.934247665107250214e+00 -1.349453353695565738e+00
-2.970309498906135559e+01 -2.463300399482250214e+00 -1.076794051937753238e+00
-2.487704518437385559e+01 -1.991986922919750214e+00 -9.291957853361907382e-01
-1.640634205937385559e+01 -8.113228604197502136e-01 -6.811946867033782382e-01
-1.627291920781135559e+01 -9.431587979197502136e-01 -6.725734708830657382e-01
-3.673800709843635559e+01 -4.953290633857250214e+00 -1.235409164242440738e+00
-4.091366627812385559e+01 -6.149457626044750214e+00 -1.338390731625253238e+00
-2.157418873906135559e+01 -2.516889266669750214e+00 -8.016017911955657382e-01
-5.064498952031135559e+01 -9.110639266669750214e+00 -1.572948837094003238e+00
-2.511325123906135559e+01 -1.782636336982250214e+00 -8.332332609221282382e-01
-1.687545827031135559e+01 -7.281929776072502136e-01 -6.271938322111907382e-01
-1.644455006718635559e+01 -8.151070401072502136e-01 -6.118434904143157382e-01
-1.631051686406135559e+01 -9.473091885447502136e-01 -6.036800382658782382e-01
-3.708248952031135559e+01 -5.011884383857250214e+00 -1.077968978695565738e+00
-4.625692799687385559e+01 -7.203412704169750214e+00 -1.274700546078378238e+00
-2.157687428593635559e+01 -2.513837508857250214e+00 -7.066768644377532382e-01
-5.580954030156135559e+01 -1.023466270416975021e+01 -1.455410384945565738e+00
-1.637594655156135559e+01 -4.933296963572502136e-01 -5.498775480315032382e-01
-1.687094166874885559e+01 -7.247750088572502136e-01 -5.544094083830657382e-01
-1.648312428593635559e+01 -8.190132901072502136e-01 -5.417598722502532382e-01
-1.634848073124885559e+01 -9.513375088572502136e-01 -5.340847013518157382e-01
-3.759408619999885559e+01 -5.101850204169750214e+00 -9.195369718596282382e-01
-3.751046803593635559e+01 -5.460126571357250214e+00 -9.056514738127532382e-01
-2.157968190312385559e+01 -2.510663680732250214e+00 -6.112483976408782382e-01
-5.203866627812385559e+01 -9.398236922919750214e+00 -1.132900619320565738e+00
-1.636703541874885559e+01 -4.895455166697502136e-01 -4.799007413908782382e-01
-1.686654713749885559e+01 -7.214791104197502136e-01 -4.820827482268157382e-01
-1.652169850468635559e+01 -8.227974697947502136e-01 -4.717372892424407382e-01
-3.666903737187385559e+01 -4.557660751044750214e+00 -7.498592374846282382e-01
-3.648873952031135559e+01 -4.887738876044750214e+00 -7.350734708830657382e-01
-1.729538014531135559e+01 -1.446942977607250214e+00 -4.661525724455657382e-01
-2.123288014531135559e+01 -2.434735946357250214e+00 -5.117763517424407382e-01
-2.281576588749885559e+01 -2.988813094794750214e+00 -5.248073576018157382e-01
-1.623397877812385559e+01 -4.674507901072502136e-01 -4.083522794768157382e-01
-1.670126393437385559e+01 -6.927925869822502136e-01 -4.078029630705657382e-01
-1.656039479374885559e+01 -8.267037197947502136e-01 -4.013484952971282382e-01
-1.794894459843635559e+01 -1.230146102607250214e+00 -4.089778898283782382e-01
-1.738156178593635559e+01 -1.294965438544750214e+00 -3.979000089690032382e-01
-1.730563405156135559e+01 -1.446088485419750214e+00 -3.914913175627532382e-01
-2.100692799687385559e+01 -2.384076766669750214e+00 -4.160884855315032382e-01
-2.277475026249885559e+01 -2.975995711982250214e+00 -4.230464933440032382e-01
-1.616952565312385559e+01 -4.554878994822502136e-01 -3.388332365080657382e-01
-1.670187428593635559e+01 -6.902291104197502136e-01 -3.363613126799407382e-01
-1.659957936406135559e+01 -8.306099697947502136e-01 -3.302577970549407382e-01
-1.813314869999885559e+01 -1.259809188544750214e+00 -3.319362638518157382e-01
-1.739193776249885559e+01 -1.294110946357250214e+00 -3.225521085783782382e-01
-1.731601002812385559e+01 -1.445233993232250214e+00 -3.163417814299407382e-01
-2.095321705937385559e+01 -2.369306258857250214e+00 -3.236660001799407382e-01
-2.235739186406135559e+01 -2.880902938544750214e+00 -3.209957120940032382e-01
-1.622763112187385559e+01 -4.614693447947502136e-01 -2.696956632658782382e-01
-1.668551686406135559e+01 -6.851021572947502136e-01 -2.649349210783782382e-01
-1.646481373906135559e+01 -8.054634854197502136e-01 -2.591213224455657382e-01
-1.790036061406135559e+01 -1.215741805732250214e+00 -2.535823820158782382e-01
-1.868344166874885559e+01 -1.533246688544750214e+00 -2.471431730315032382e-01
-1.983712819218635559e+01 -1.940839461982250214e+00 -2.398647306486907382e-01
-1.710641530156135559e+01 -1.565351180732250214e+00 -2.356990812346282382e-01
-6.557589772343635559e+01 -1.231901329010725021e+01 -1.594356535002532382e-01
-1.612277272343635559e+01 -4.435250088572502136e-01 -2.009700773283782382e-01
-1.642782643437385559e+01 -6.421334072947502136e-01 -1.941951749846282382e-01
-1.739645436406135559e+01 -9.580513760447502136e-01 -1.843837736174407382e-01
-1.850558522343635559e+01 -1.319867782294750214e+00 -1.731533048674407382e-01
-4.060421803593635559e+01 -5.633344344794750214e+00 -5.672874432056573824e-02
-1.733651784062385559e+01 -1.443647079169750214e+00 -1.662410734221282382e-01
-1.715487721562385559e+01 -1.572675399482250214e+00 -1.610836027190032382e-01
-1.716293385624885559e+01 -1.739301376044750214e+00 -1.549037931486907382e-01
-1.861569264531135559e+01 -8.052193447947502136e-01 -1.118282316252532382e-01
-1.848226979374885559e+01 -9.606148526072502136e-01 -1.067012785002532382e-01
-1.625241139531135559e+01 -7.649361416697502136e-01 -1.197628019377532382e-01
-1.840097096562385559e+01 -1.298383407294750214e+00 -9.408225994556573824e-02
-1.742294362187385559e+01 -1.291425399482250214e+00 -9.681358318775323824e-02
-5.323117116093635559e+01 -8.523725204169750214e+00 2.682987214997467618e-01
-1.720346119999885559e+01 -1.579877547919750214e+00 -8.642234783619073824e-02
-1.721188405156135559e+01 -1.747113876044750214e+00 -7.964744549244073824e-02
-1.858932545781135559e+01 -7.983834072947502136e-01 -3.207054119556573824e-02
-1.682199147343635559e+01 -6.985298916697502136e-01 -4.842796307056573824e-02
-1.642208912968635559e+01 -7.905709072947502136e-01 -4.768028240650323824e-02
-1.684713795781135559e+01 -1.021039657294750214e+00 -3.574790935962823824e-02
-1.743344166874885559e+01 -1.290448836982250214e+00 -2.114524822681573824e-02
-1.724423268437385559e+01 -1.419721297919750214e+00 -1.746788006275323824e-02
-6.637765553593635559e+01 -1.178251426666975021e+01 7.314792634919342618e-01
-1.726095631718635559e+01 -1.754926376044750214e+00 -4.360580258065738235e-03
-1.881832936406135559e+01 -8.289009854197502136e-01 5.228004474193426176e-02
-7.720224049687385559e+01 -1.010905235260725021e+01 1.096866226382559262e+00
-1.687326100468635559e+01 -8.628365322947502136e-01 3.068885821849676176e-02
-1.623312428593635559e+01 -9.100777432322502136e-01 2.514991778880926176e-02
-1.744381764531135559e+01 -1.289594344794750214e+00 5.418739337474676176e-02
-5.331112721562385559e+01 -8.521039657294750214e+00 7.556491853669342618e-01
-1.730197194218635559e+01 -1.594648055732250214e+00 6.503639239818426176e-02
-5.575558522343635559e+01 -1.013419883698225021e+01 8.491855623200592618e-01
-3.740914967656135559e+01 -3.532025985419750214e+00 5.429416658356842618e-01
-1.852938893437385559e+01 -9.590279385447502136e-01 1.340061189606842618e-01
-1.854037526249885559e+01 -1.136762313544750214e+00 1.413608552888092618e-01
-1.639816334843635559e+01 -9.365670010447502136e-01 9.877357501537176176e-02
-1.745419362187385559e+01 -1.288739852607250214e+00 1.300235750153717618e-01
-1.734274342656135559e+01 -1.433515243232250214e+00 1.340824129059967618e-01
-6.635849049687385559e+01 -1.175529258698225021e+01 1.340716934390371762e+00
-1.793319752812385559e+01 -1.895429305732250214e+00 1.626773836091217618e-01
-1.200302174687385559e+01 -6.424996182322502136e-01 -9.426540372893157382e-01
-1.202536061406135559e+01 -7.596871182322502136e-01 -9.413875577971282382e-01
-1.204184010624885559e+01 -8.766304776072502136e-01 -9.399837492033782382e-01
-1.205844166874885559e+01 -9.949166104197502136e-01 -9.385494230315032382e-01
-1.207528737187385559e+01 -1.113813094794750214e+00 -9.371303556486907382e-01
-1.209213307499885559e+01 -1.233564071357250214e+00 -9.356807706877532382e-01
-1.210922291874885559e+01 -1.354779891669750214e+00 -9.342311857268157382e-01
-1.212008717656135559e+01 -1.474775008857250214e+00 -9.326442716643157382e-01
-1.325021412968635559e+01 -9.159371182322502136e-01 -9.665340421721282382e-01
-1.325033619999885559e+01 -1.041181258857250214e+00 -9.636653898283782382e-01
-1.325643971562385559e+01 -1.168378524482250214e+00 -9.608425138518157382e-01
-1.327243092656135559e+01 -1.299359969794750214e+00 -9.588893888518157382e-01
-1.329306080937385559e+01 -1.432172469794750214e+00 -9.571804044768157382e-01
-1.331381276249885559e+01 -1.565961532294750214e+00 -9.554561613127532382e-01
-1.331503346562385559e+01 -1.695844344794750214e+00 -9.528621671721282382e-01
-1.331515553593635559e+01 -1.825605086982250214e+00 -9.499019620940032382e-01
-1.464547780156135559e+01 -1.221723251044750214e+00 -9.867671964690032382e-01
-1.468026784062385559e+01 -1.369428329169750214e+00 -9.853176115080657382e-01
-1.469162037968635559e+01 -1.512983016669750214e+00 -9.825557706877532382e-01
-1.469540455937385559e+01 -1.656049422919750214e+00 -9.793361661955657382e-01
-1.469906666874885559e+01 -1.799482040107250214e+00 -9.761013029143157382e-01
-1.470285084843635559e+01 -1.943647079169750214e+00 -9.728664396330657382e-01
-1.470663502812385559e+01 -2.089276961982250214e+00 -9.695857999846282382e-01
-1.471725514531135559e+01 -2.237104110419750214e+00 -9.666713712736907382e-01
-1.657614186406135559e+01 -1.644941024482250214e+00 -1.021160507015878238e+00
-1.659945729374885559e+01 -1.810224227607250214e+00 -1.017910384945565738e+00
-1.661093190312385559e+01 -1.974042586982250214e+00 -1.014431381039315738e+00
-1.662265065312385559e+01 -2.139447860419750214e+00 -1.010906600765878238e+00
-1.663436940312385559e+01 -2.305341415107250214e+00 -1.007381820492440738e+00
-1.664608815312385559e+01 -2.472333602607250214e+00 -1.003826522640878238e+00
-1.665805104374885559e+01 -2.641156844794750214e+00 -1.000240707211190738e+00
-1.665768483281135559e+01 -2.806806258857250214e+00 -9.964412687346282382e-01
-1.918417409062385559e+01 -2.216840438544750214e+00 -1.067867660336190738e+00
-1.920748952031135559e+01 -2.409345321357250214e+00 -1.063991927914315738e+00
-1.923104909062385559e+01 -2.603315047919750214e+00 -1.060085677914315738e+00
-1.925473073124885559e+01 -2.799604110419750214e+00 -1.056148910336190738e+00
-1.927877858281135559e+01 -2.996625594794750214e+00 -1.052181625179940738e+00
-1.930282643437385559e+01 -3.195233993232250214e+00 -1.048199081234628238e+00
-1.932724049687385559e+01 -3.396039657294750214e+00 -1.044155502133065738e+00
-1.935165455937385559e+01 -3.597821883857250214e+00 -1.040096664242440738e+00
-2.270309498906135559e+01 -2.988202743232250214e+00 -1.127727889828378238e+00
-2.290927174687385559e+01 -3.259687118232250214e+00 -1.129406356625253238e+00
-2.295492604374885559e+01 -3.497846297919750214e+00 -1.124996566586190738e+00
-2.300119069218635559e+01 -3.739179305732250214e+00 -1.120541000179940738e+00
-2.304769948124885559e+01 -3.981977157294750214e+00 -1.116054916195565738e+00
-2.310482838749885559e+01 -4.229779891669750214e+00 -1.111919784359628238e+00
-2.324484303593635559e+01 -4.504316024482250214e+00 -1.110943221859628238e+00
-2.335922291874885559e+01 -4.774701766669750214e+00 -1.109447860531503238e+00
-2.426828053593635559e+01 -3.328534774482250214e+00 -1.083279037289315738e+00
-2.694821217656135559e+01 -4.186322860419750214e+00 -1.172542953304940738e+00
-2.939621022343635559e+01 -5.045697860419750214e+00 -1.251903915219003238e+00
-2.908651784062385559e+01 -5.265790633857250214e+00 -1.232464217953378238e+00
-2.938266041874885559e+01 -5.638471297919750214e+00 -1.234371566586190738e+00
-2.963461354374885559e+01 -6.007001571357250214e+00 -1.234524154476815738e+00
-2.984628346562385559e+01 -6.371991805732250214e+00 -1.233059310726815738e+00
-2.991561940312385559e+01 -6.700360946357250214e+00 -1.226620101742440738e+00
-3.614840748906135559e+01 -5.935346297919750214e+00 -1.349392318539315738e+00
-2.695150807499885559e+01 -4.182416610419750214e+00 -1.051922225765878238e+00
-3.235788014531135559e+01 -5.753461532294750214e+00 -1.209911727719003238e+00
-3.969101002812385559e+01 -7.925824813544750214e+00 -1.423885726742440738e+00
-4.022360280156135559e+01 -8.472943954169750214e+00 -1.427837753109628238e+00
-4.036093190312385559e+01 -8.925702743232250214e+00 -1.419582748226815738e+00
-4.045224049687385559e+01 -9.372113876044750214e+00 -1.410763168148690738e+00
-4.078817799687385559e+01 -9.892987899482250214e+00 -1.408031844906503238e+00
-5.065145924687385559e+01 -9.113813094794750214e+00 -1.573055648617440738e+00
-2.695468190312385559e+01 -4.178388290107250214e+00 -9.306453702971282382e-01
-3.236154225468635559e+01 -5.748700790107250214e+00 -1.063503646664315738e+00
-4.867013600468635559e+01 -1.017374961823225021e+01 -1.473858260922128238e+00
-5.671090748906135559e+01 -1.278129356354475021e+01 -1.663021468929940738e+00
-5.791317799687385559e+01 -1.369999473541975021e+01 -1.674969100765878238e+00
-5.917758229374885559e+01 -1.466727989166975021e+01 -1.687496566586190738e+00
-5.926767018437385559e+01 -1.531754844635725021e+01 -1.670421981625253238e+00
-5.580892994999885559e+01 -1.023649375885725021e+01 -1.455334091000253238e+00
-2.695785573124885559e+01 -4.174482040107250214e+00 -8.100246427580657382e-01
-3.236532643437385559e+01 -5.743817977607250214e+00 -9.170955656096282382e-01
-4.867562916874885559e+01 -1.016630332916975021e+01 -1.250011825375253238e+00
-7.770639088749885559e+01 -1.826273887604475021e+01 -1.835400008969003238e+00
-6.470175221562385559e+01 -1.553739707916975021e+01 -1.544292831234628238e+00
-7.534555104374885559e+01 -1.923161094635725021e+01 -1.735668563656503238e+00
-8.414230397343635559e+01 -2.261369102448225021e+01 -1.883297347836190738e+00
-5.203756764531135559e+01 -9.399823836982250214e+00 -1.132824325375253238e+00
-2.696115162968635559e+01 -4.170575790107250214e+00 -6.887477872893157382e-01
-3.236898854374885559e+01 -5.739057235419750214e+00 -7.698940275236907382e-01
-4.868112233281135559e+01 -1.015885704010725021e+01 -1.024990463070565738e+00
-7.788192799687385559e+01 -1.829411094635725021e+01 -1.474239730648690738e+00
-6.470834401249885559e+01 -1.552702110260725021e+01 -1.241604232601815738e+00
-7.535238698124885559e+01 -1.921928184479475021e+01 -1.381252670101815738e+00
-9.250705006718635559e+01 -2.505326621979475021e+01 -1.610180282406503238e+00
-2.282821705937385559e+01 -2.992353133857250214e+00 -5.249446867033782382e-01
-2.498007252812385559e+01 -3.711225204169750214e+00 -5.436977384611907382e-01
-2.858358815312385559e+01 -4.824750594794750214e+00 -5.782131193205657382e-01
-4.329354909062385559e+01 -8.799970321357250214e+00 -7.386898038908782382e-01
-5.407028248906135559e+01 -1.206034629791975021e+01 -8.443111417815032382e-01
-6.211679127812385559e+01 -1.481059043854475021e+01 -9.123500822111907382e-01
-7.318783619999885559e+01 -1.859342735260725021e+01 -1.005978011898690738e+00
-9.322457936406135559e+01 -2.524625938385725021e+01 -1.182094955258065738e+00
-2.278927662968635559e+01 -2.979901961982250214e+00 -4.231227872893157382e-01
-2.523092702031135559e+01 -3.764447860419750214e+00 -4.336818693205657382e-01
-2.877877858281135559e+01 -4.866620711982250214e+00 -4.510463712736907382e-01
-6.952157643437385559e+01 -1.535966270416975021e+01 -7.202419279143157382e-01
-9.525473073124885559e+01 -2.279984825104475021e+01 -8.614620206877532382e-01
-9.120382741093635559e+01 -2.270097129791975021e+01 -8.012203214690032382e-01
