-1.422825640439987183e+01 1.692576698958873749e+00 -1.059737177705386557e+00
-1.342564409971237183e+01 2.571605019271373749e+00 -9.826345165725740571e-01
-1.350755327939987183e+01 2.451365761458873749e+00 -9.829549511428865571e-01
-1.362547320127487183e+01 2.331126503646373749e+00 -9.856099804397615571e-01
-1.391331499814987183e+01 2.213572792708873749e+00 -9.980306347366365571e-01
-1.476060503721237183e+01 2.103465370833873749e+00 -1.042448969697574057e+00
-1.375413531064987183e+01 1.953318886458873749e+00 -9.802694042678865571e-01
-1.081858843564987183e+01 1.818309120833873749e+00 -8.090963085647615571e-01
-1.418760699033737183e+01 1.694896034896373749e+00 -9.965657909866365571e-01
-1.356443804502487183e+01 2.581980995833873749e+00 -9.325551708694490571e-01
-1.382286089658737183e+01 2.469676308333873749e+00 -9.423055370803865571e-01
-1.419261187314987183e+01 2.357005409896373749e+00 -9.578389843460115571e-01
-1.458897417783737183e+01 2.237498573958873749e+00 -9.745320995803865571e-01
-1.492784136533737183e+01 2.109324745833873749e+00 -9.879293163772615571e-01
-1.383140581846237183e+01 1.956248573958873749e+00 -9.256276806350740571e-01
-1.081980913877487183e+01 1.819773964583873749e+00 -7.639302929397615571e-01
-1.492918413877487183e+01 1.691478066146373749e+00 -9.740743359085115571e-01
-1.402671831846237183e+01 2.612742714583873749e+00 -8.975972851272615571e-01
-1.420445269346237183e+01 2.491648964583873749e+00 -9.017018993850740571e-01
-1.437840288877487183e+01 2.366893105208873749e+00 -9.058370312210115571e-01
-1.452452105283737183e+01 2.237376503646373749e+00 -9.084768017288240571e-01
-1.441905230283737183e+01 2.099803261458873749e+00 -8.988942821975740571e-01
-1.391136187314987183e+01 1.959178261458873749e+00 -8.700856884475740571e-01
-1.082102984189987183e+01 1.821238808333873749e+00 -7.185201366897615571e-01
-1.439598101377487183e+01 1.697337441146373749e+00 -8.847646435256990571e-01
-1.421287554502487183e+01 2.626414589583873749e+00 -8.456258495803865571e-01
-1.471873492002487183e+01 2.520701698958873749e+00 -8.638601025100740571e-01
-1.442210406064987183e+01 2.370677284896373749e+00 -8.461599071975740571e-01
-1.446055620908737183e+01 2.237254433333873749e+00 -8.433980663772615571e-01
-1.435618609189987183e+01 2.100291542708873749e+00 -8.343801220413240571e-01
-1.399168413877487183e+01 1.962107948958873749e+00 -8.141622265335115571e-01
-1.082212847471237183e+01 1.822703652083873749e+00 -6.733693798538240571e-01
-1.521641558408737183e+01 1.693675331771373749e+00 -8.578939159866365571e-01
-1.423814409971237183e+01 2.629832558333873749e+00 -7.857808788772615571e-01
-1.508824175596237183e+01 2.542308144271373749e+00 -8.155049999710115571e-01
-1.504795855283737183e+01 2.399607948958873749e+00 -8.089132030960115571e-01
-1.440061968564987183e+01 2.237254433333873749e+00 -7.787465771194490571e-01
-1.462205523252487183e+01 2.108348183333873749e+00 -7.829885204788240571e-01
-1.471983355283737183e+01 1.973582558333873749e+00 -7.823018749710115571e-01
-1.082334917783737183e+01 1.824168495833873749e+00 -6.282033642288240571e-01
-1.401658648252487183e+01 1.704051308333873749e+00 -7.467794140335115571e-01
-1.474021929502487183e+01 2.663401894271373749e+00 -7.424611767288240571e-01
-1.439451617002487183e+01 2.507518105208873749e+00 -7.256765087600740571e-01
-1.450352495908737183e+01 2.378123573958873749e+00 -7.251119335647615571e-01
-1.558897417783737183e+01 2.278636269271373749e+00 -7.584981640335115571e-01
-1.423533648252487183e+01 2.101390175521373749e+00 -7.069844921585115571e-01
-1.413096636533737183e+01 1.967845253646373749e+00 -6.990804394241365571e-01
-1.082456988096237183e+01 1.825633339583873749e+00 -5.827932079788240571e-01
-1.367625445127487183e+01 1.708323769271373749e+00 -6.752156933303865571e-01
-1.468235796689987183e+01 2.661692909896373749e+00 -6.773824413772615571e-01
-1.411216753721237183e+01 2.494334511458873749e+00 -6.552877148147615571e-01
-1.449400347471237183e+01 2.379710488021373749e+00 -6.626882275100740571e-01
-1.435069292783737183e+01 2.239451698958873749e+00 -6.539144237991365571e-01
-1.421092242002487183e+01 2.102855019271373749e+00 -6.453847607131990571e-01
-1.407408159971237183e+01 1.969065956771373749e+00 -6.370229443069490571e-01
-1.082566851377487183e+01 1.827098183333873749e+00 -5.376271923538240571e-01
-1.361521929502487183e+01 1.710643105208873749e+00 -6.151876171585115571e-01
-1.436705034971237183e+01 2.643626503646373749e+00 -6.056813915725740571e-01
-1.446165484189987183e+01 2.514964394271373749e+00 -6.038045605178865571e-01
-1.446849077939987183e+01 2.380564980208873749e+00 -5.996083935256990571e-01
-1.432579058408737183e+01 2.240672402083873749e+00 -5.915517529006990571e-01
-1.418650835752487183e+01 2.104197792708873749e+00 -5.836934765335115571e-01
-1.462254351377487183e+01 1.978343300521373749e+00 -5.903005321975740571e-01
-1.082688921689987183e+01 1.828563027083873749e+00 -4.922322948928865571e-01
-1.386180132627487183e+01 1.710887245833873749e+00 -5.629262646194490571e-01
-1.456785601377487183e+01 2.658274941146373749e+00 -5.485830029006990571e-01
-1.449742144346237183e+01 2.518748573958873749e+00 -5.426473339553865571e-01
-1.409715288877487183e+01 2.366282753646373749e+00 -5.297078808303865571e-01
-1.460203570127487183e+01 2.251780800521373749e+00 -5.360860546585115571e-01
-1.411424273252487183e+01 2.104441933333873749e+00 -5.215749462600740571e-01
-1.492808550596237183e+01 1.984568886458873749e+00 -5.339345654006990571e-01
-1.082798784971237183e+01 1.830027870833873749e+00 -4.470662792678865571e-01
-1.381236284971237183e+01 1.713206581771373749e+00 -5.028676708694490571e-01
-1.442002886533737183e+01 2.650828652083873749e+00 -4.832448681350740571e-01
-1.401878374814987183e+01 2.494944863021373749e+00 -4.720449169631990571e-01
-1.406163042783737183e+01 2.366648964583873749e+00 -4.688863476272615571e-01
-1.463768023252487183e+01 2.255076698958873749e+00 -4.741506298538240571e-01
-1.401963824033737183e+01 2.104075722396373749e+00 -4.597768505569490571e-01
-1.611582964658737183e+01 2.003001503646373749e+00 -4.887532909866365571e-01
-1.082920855283737183e+01 1.831492714583873749e+00 -4.016561230178865571e-01
-1.537034624814987183e+01 1.705516152083873749e+00 -4.673299511428865571e-01
-1.445957964658737183e+01 2.655223183333873749e+00 -4.220113476272615571e-01
-1.398973101377487183e+01 2.495311073958873749e+00 -4.118032177444490571e-01
-1.548057574033737183e+01 2.430735878646373749e+00 -4.257955273147615571e-01
-1.541893023252487183e+01 2.283519081771373749e+00 -4.204091747756990571e-01
-1.397618120908737183e+01 2.104930214583873749e+00 -3.991231640335115571e-01
-1.048155230283737183e+01 1.926707558333873749e+00 -3.557424267288240571e-01
-1.071226519346237183e+01 1.832591347396373749e+00 -3.552083691116365571e-01
-1.095140093564987183e+01 1.734202675521373749e+00 -3.546285351272615571e-01
-9.387191951274871826e+00 2.332591347396373749e+00 -3.181295116897615571e-01
-9.567733943462371826e+00 2.258372597396373749e+00 -3.170766552444490571e-01
-9.755600154399871826e+00 2.180857948958873749e+00 -3.157643993850740571e-01
-9.952377498149871826e+00 2.099559120833873749e+00 -3.143758495803865571e-01
-1.015733355283737183e+01 2.014964394271373749e+00 -3.129415234085115571e-01
-1.037168902158737183e+01 1.926463417708873749e+00 -3.114309032913240571e-01
-1.059703081846237183e+01 1.833567909896373749e+00 -3.098592480178865571e-01
-1.083177202939987183e+01 1.736399941146373749e+00 -3.079518993850740571e-01
-9.301010310649871826e+00 2.328318886458873749e+00 -2.792043407913240571e-01
-9.477401912212371826e+00 2.254710488021373749e+00 -2.771291454788240571e-01
-9.661239802837371826e+00 2.177928261458873749e+00 -2.749776562210115571e-01
-9.863388240337371826e+00 2.097850136458873749e+00 -2.727498730178865571e-01
-1.008677691221237183e+01 2.014598183333873749e+00 -2.704457958694490571e-01
-1.032151812314987183e+01 1.927195839583873749e+00 -2.680349071975740571e-01
-1.056944292783737183e+01 1.834788613021373749e+00 -2.654866894241365571e-01
-1.082981890439987183e+01 1.737864784896373749e+00 -2.628011425491365571e-01
-9.322372615337371826e+00 2.330882363021373749e+00 -2.407521923538240571e-01
-9.519027888774871826e+00 2.258128456771373749e+00 -2.380666454788240571e-01
-9.725448787212371826e+00 2.182078652083873749e+00 -2.350301464553865571e-01
-9.942733943462371826e+00 2.101878456771373749e+00 -2.318410595413240571e-01
-1.017015093564987183e+01 2.018016152083873749e+00 -2.284993847366365571e-01
-1.040928667783737183e+01 1.929881386458873749e+00 -2.249746044631990571e-01
-1.066185015439987183e+01 1.836619667708873749e+00 -2.212667187210115571e-01
-1.087559527158737183e+01 1.739085488021373749e+00 -2.172841747756990571e-01
-9.392440974712371826e+00 2.336619667708873749e+00 -2.020711620803865571e-01
-9.592880427837371826e+00 2.263377480208873749e+00 -1.982259472366365571e-01
-9.785385310649871826e+00 2.185984902083873749e+00 -1.943196972366365571e-01
-9.978988826274871826e+00 2.104441933333873749e+00 -1.902761181350740571e-01
-1.018040484189987183e+01 2.019603066146373749e+00 -1.860646923538240571e-01
-1.039097613096237183e+01 1.930980019271373749e+00 -1.816549023147615571e-01
-1.061192339658737183e+01 1.837840370833873749e+00 -1.770314892288240571e-01
-1.084263628721237183e+01 1.740794472396373749e+00 -1.722097118850740571e-01
-9.351547420024871826e+00 2.335154823958873749e+00 -1.636647900100740571e-01
-9.525985896587371826e+00 2.260936073958873749e+00 -1.591939648147615571e-01
-9.708114802837371826e+00 2.183787636458873749e+00 -1.547536571975740571e-01
-9.898178279399871826e+00 2.102977089583873749e+00 -1.499013622756990571e-01
-1.009605425596237183e+01 2.018870644271373749e+00 -1.448507030960115571e-01
-1.030271929502487183e+01 1.931102089583873749e+00 -1.395711620803865571e-01
-1.051902788877487183e+01 1.838939003646373749e+00 -1.338033398147615571e-01
-1.078941363096237183e+01 1.742503456771373749e+00 -1.274709423538240571e-01
-9.281234920024871826e+00 2.331736855208873749e+00 -1.260823925491365571e-01
-9.453109920024871826e+00 2.258250527083873749e+00 -1.210927685256990571e-01
-9.659652888774871826e+00 2.182933144271373749e+00 -1.152639111038240571e-01
-9.884872615337371826e+00 2.103831581771373749e+00 -1.090078075881990571e-01
-1.012095659971237183e+01 2.020823769271373749e+00 -1.024465282913240571e-01
-1.036985796689987183e+01 1.933421425521373749e+00 -9.553429684601155714e-02
-1.063340777158737183e+01 1.840892128646373749e+00 -8.821007809601155714e-02
-1.091172808408737183e+01 1.743357948958873749e+00 -8.022973141632405714e-02
-1.118040484189987183e+01 1.712474159896373749e+00 -9.676961620803865571e-01
-1.119725054502487183e+01 1.610423378646373749e+00 -9.654836376663240571e-01
-1.121018999814987183e+01 1.508006386458873749e+00 -9.632405956741365571e-01
-1.126170367002487183e+01 1.403392128646373749e+00 -9.636525829788240571e-01
-1.131285113096237183e+01 1.298167519271373749e+00 -9.640187939163240571e-01
-1.136460894346237183e+01 1.191722206771373749e+00 -9.644002636428865571e-01
-1.141709917783737183e+01 1.083812050521373749e+00 -9.647664745803865571e-01
-1.146434038877487183e+01 9.754136130213737488e-01 -9.650258739944490571e-01
-1.219773882627487183e+01 1.706004433333873749e+00 -9.874257763381990571e-01
-1.225901812314987183e+01 1.593089394271373749e+00 -9.879750927444490571e-01
-1.232774370908737183e+01 1.478587441146373749e+00 -9.886769970413240571e-01
-1.239085406064987183e+01 1.362376503646373749e+00 -9.892263134475740571e-01
-1.245445269346237183e+01 1.245311073958873749e+00 -9.897908886428865571e-01
-1.251878374814987183e+01 1.126658730208873749e+00 -9.903707226272615571e-01
-1.257737749814987183e+01 1.006785683333873749e+00 -9.907979687210115571e-01
-1.265293902158737183e+01 8.845933005213737488e-01 -9.919881542678865571e-01
-1.422752398252487183e+01 1.692210488021373749e+00 -1.059676142549136557e+00
-1.406346148252487183e+01 1.562938027083873749e+00 -1.045577021455386557e+00
-1.467051714658737183e+01 1.415599159896373749e+00 -1.078230830049136557e+00
-1.461839312314987183e+01 1.280345253646373749e+00 -1.070815058564761557e+00
-1.411070269346237183e+01 1.168162636458873749e+00 -1.036147089814761557e+00
-1.397203081846237183e+01 1.044871620833873749e+00 -1.023802729463199057e+00
-1.383567827939987183e+01 9.235337302088737488e-01 -1.011641474580386557e+00
-1.380101031064987183e+01 7.973130270838737488e-01 -1.005583735322574057e+00
-1.418687456846237183e+01 1.694529823958873749e+00 -9.965047558303865571e-01
-1.476304644346237183e+01 1.552684120833873749e+00 -1.024428339814761557e+00
-1.484104937314987183e+01 1.413035683333873749e+00 -1.024474116181949057e+00
-1.465086382627487183e+01 1.281321816146373749e+00 -1.009535761689761557e+00
-1.473472613096237183e+01 1.140696816146373749e+00 -1.009886713838199057e+00
-1.468235796689987183e+01 1.006053261458873749e+00 -1.002684565400699057e+00
-1.469639605283737183e+01 8.675034567713737488e-01 -9.991445263381990571e-01
-1.719078081846237183e+01 5.366929098963737488e-01 -1.130736323213199057e+00
-1.493077105283737183e+01 1.690989784896373749e+00 -9.741353710647615571e-01
-1.505296343564987183e+01 1.549754433333873749e+00 -9.760579784866365571e-01
-1.485618609189987183e+01 1.414744667708873749e+00 -9.615316112991365571e-01
-1.494602984189987183e+01 1.272410683333873749e+00 -9.617147167678865571e-01
-1.521946734189987183e+01 1.119822792708873749e+00 -9.711599071975740571e-01
-1.480198687314987183e+01 1.001414589583873749e+00 -9.456472118850740571e-01
-1.473374956846237183e+01 8.671372458338737488e-01 -9.378499706741365571e-01
-1.471128863096237183e+01 7.310288473963737488e-01 -9.323873241897615571e-01
-1.439598101377487183e+01 1.696971230208873749e+00 -8.847493847366365571e-01
-1.468333452939987183e+01 1.558299355208873749e+00 -8.936910351272615571e-01
-1.483970659971237183e+01 1.417308144271373749e+00 -8.966359814163240571e-01
-1.452623003721237183e+01 1.290110878646373749e+00 -8.776998241897615571e-01
-1.490892046689987183e+01 1.136668495833873749e+00 -8.910207470413240571e-01
-1.821018999814987183e+01 8.087876364588737488e-01 -1.037566157197574057e+00
-1.551097124814987183e+01 8.170884177088737488e-01 -9.094991405960115571e-01
-1.476646441221237183e+01 7.289536520838737488e-01 -8.716420849319490571e-01
-1.521604937314987183e+01 1.693187050521373749e+00 -8.578633984085115571e-01
-1.460411089658737183e+01 1.561717323958873749e+00 -8.273763378616365571e-01
-1.482347124814987183e+01 1.419871620833873749e+00 -8.322744091506990571e-01
-1.750120562314987183e+01 1.182200722396373749e+00 -9.396962841506990571e-01
-1.493077105283737183e+01 1.137889198958873749e+00 -8.278646191116365571e-01
-1.486045855283737183e+01 1.002391152083873749e+00 -8.205251415725740571e-01
-1.483299273252487183e+01 8.648179098963737488e-01 -8.149404247756990571e-01
-1.812352007627487183e+01 4.727280661463737488e-01 -9.437703808303865571e-01
-1.401658648252487183e+01 1.703563027083873749e+00 -7.467641552444490571e-01
-1.449388140439987183e+01 1.565623573958873749e+00 -7.606496532913240571e-01
-1.679576128721237183e+01 1.369090370833873749e+00 -8.422536571975740571e-01
-1.491758745908737183e+01 1.279856972396373749e+00 -7.673787792678865571e-01
-1.495286577939987183e+01 1.138987831771373749e+00 -7.642049511428865571e-01
-1.771849077939987183e+01 8.422349020838737488e-01 -8.607015331741365571e-01
-1.488304156064987183e+01 8.637192770838737488e-01 -7.530202587600740571e-01
-1.487852495908737183e+01 7.248032614588737488e-01 -7.483815868850740571e-01
-1.367796343564987183e+01 1.707835488021373749e+00 -6.752614696975740571e-01
-1.395616167783737183e+01 1.576731972396373749e+00 -6.804036816116365571e-01
-1.515037554502487183e+01 1.415355019271373749e+00 -7.154988964553865571e-01
-1.437986773252487183e+01 1.301829628646373749e+00 -6.858205517288240571e-01
-1.498912066221237183e+01 1.139476113021373749e+00 -7.011403759475740571e-01
-1.515538042783737183e+01 9.900620505213737488e-01 -7.019185741897615571e-01
-1.493614214658737183e+01 8.623765036463737488e-01 -6.903981884475740571e-01
-1.793785113096237183e+01 4.923813864588737488e-01 -7.797689159866365571e-01
-1.361692827939987183e+01 1.710154823958873749e+00 -6.152333935256990571e-01
-1.389793413877487183e+01 1.579661659896373749e+00 -6.191701611038240571e-01
-1.446434038877487183e+01 1.435740761458873749e+00 -6.310262402053865571e-01
-1.488475054502487183e+01 1.285350136458873749e+00 -6.383962353225740571e-01
-1.499620074033737183e+01 1.141307167708873749e+00 -6.369619091506990571e-01
-1.501231402158737183e+01 1.000315956771373749e+00 -6.328572948928865571e-01
-1.499302691221237183e+01 8.607895895838737488e-01 -6.277456005569490571e-01
-1.713108843564987183e+01 5.568345114588737488e-01 -6.802358349319490571e-01
-1.386131304502487183e+01 1.710521034896373749e+00 -5.628957470413240571e-01
-1.428672808408737183e+01 1.575267128646373749e+00 -5.689229687210115571e-01
-1.440110796689987183e+01 1.439524941146373749e+00 -5.672902782913240571e-01
-1.524815386533737183e+01 1.274363808333873749e+00 -5.826863964553865571e-01
-1.507957476377487183e+01 1.139720253646373749e+00 -5.741567333694490571e-01
-1.504698199033737183e+01 1.000560097396373749e+00 -5.688008984085115571e-01
-2.320188921689987183e+01 3.181870505213737488e-01 -7.467488964553865571e-01
-1.505015581846237183e+01 7.183335348963737488e-01 -5.596456249710115571e-01
-1.381187456846237183e+01 1.712718300521373749e+00 -5.028524120803865571e-01
-1.374815386533737183e+01 1.586009316146373749e+00 -4.974050243850740571e-01
-1.463389605283737183e+01 1.435496620833873749e+00 -5.101461132522615571e-01
-1.655650347471237183e+01 1.229075722396373749e+00 -5.417623241897615571e-01
-1.513060015439987183e+01 1.139476113021373749e+00 -5.103292187210115571e-01
-1.502513140439987183e+01 1.003978066146373749e+00 -5.037679394241365571e-01
-1.517283648252487183e+01 8.533433005213737488e-01 -5.017690380569490571e-01
-1.510801714658737183e+01 7.161362692713737488e-01 -4.959554394241365571e-01
-1.537083452939987183e+01 1.705149941146373749e+00 -4.673299511428865571e-01
-1.542149370908737183e+01 1.560984902083873749e+00 -4.633474071975740571e-01
-1.427732867002487183e+01 1.446849159896373749e+00 -4.423207958694490571e-01
-1.473704546689987183e+01 1.297190956771373749e+00 -4.444417675491365571e-01
-1.568443316221237183e+01 1.116160683333873749e+00 -4.530324657913240571e-01
-1.497435015439987183e+01 1.009105019271373749e+00 -4.385671337600740571e-01
-1.740623492002487183e+01 7.080796286463737488e-01 -4.656209667678865571e-01
-1.535362261533737183e+01 6.997788473963737488e-01 -4.338216503616365571e-01
-1.095249956846237183e+01 1.733836464583873749e+00 -3.546285351272615571e-01
-1.118321245908737183e+01 1.630809120833873749e+00 -3.536824902053865571e-01
-1.143223589658737183e+01 1.522654823958873749e+00 -3.527822216506990571e-01
-1.169493120908737183e+01 1.408519081771373749e+00 -3.518209179397615571e-01
-1.197032183408737183e+01 1.288890175521373749e+00 -3.507985790725740571e-01
-1.226048296689987183e+01 1.162913613021373749e+00 -3.497457226272615571e-01
-1.256773394346237183e+01 1.029490761458873749e+00 -3.486165722366365571e-01
-1.289122027158737183e+01 8.889878317713737488e-01 -3.474263866897615571e-01
-1.083348101377487183e+01 1.736033730208873749e+00 -3.079518993850740571e-01
-1.106309527158737183e+01 1.634227089583873749e+00 -3.062123974319490571e-01
-1.130613726377487183e+01 1.527537636458873749e+00 -3.041524609085115571e-01
-1.156224077939987183e+01 1.414988808333873749e+00 -3.019857128616365571e-01
-1.184532183408737183e+01 1.296336464583873749e+00 -2.997731884475740571e-01
-1.216307085752487183e+01 1.170115761458873749e+00 -2.975148876663240571e-01
-1.250144976377487183e+01 1.035594277083873749e+00 -2.951192577835115571e-01
-1.286070269346237183e+01 8.931382223963737488e-01 -2.922811230178865571e-01
-1.083164995908737183e+01 1.737498573958873749e+00 -2.628011425491365571e-01
-1.108848589658737183e+01 1.635447792708873749e+00 -2.597646435256990571e-01
-1.136228960752487183e+01 1.527659706771373749e+00 -2.565908154006990571e-01
-1.165269488096237183e+01 1.413401894271373749e+00 -2.532033642288240571e-01
-1.195884722471237183e+01 1.292918495833873749e+00 -2.496328075881990571e-01
-1.228343218564987183e+01 1.165232948958873749e+00 -2.458638866897615571e-01
-1.262925738096237183e+01 1.029124550521373749e+00 -2.418355663772615571e-01
-1.296373003721237183e+01 8.872788473963737488e-01 -2.375936230178865571e-01
-1.087535113096237183e+01 1.738719277083873749e+00 -2.172841747756990571e-01
-1.116722124814987183e+01 1.635691933333873749e+00 -2.131643017288240571e-01
-1.141001909971237183e+01 1.528025917708873749e+00 -2.088002880569490571e-01
-1.166587847471237183e+01 1.414500527083873749e+00 -2.041921337600740571e-01
-1.193382281064987183e+01 1.295726113021373749e+00 -1.993703564163240571e-01
-1.221568316221237183e+01 1.170726113021373749e+00 -1.943044384475740571e-01
-1.251377886533737183e+01 1.038523964583873749e+00 -1.889486034866365571e-01
-1.282652300596237183e+01 8.994858786463737488e-01 -1.830129345413240571e-01
-1.084422320127487183e+01 1.740428261458873749e+00 -1.721944530960115571e-01
-1.106834429502487183e+01 1.638743691146373749e+00 -1.670369823928865571e-01
-1.130638140439987183e+01 1.532176308333873749e+00 -1.616048534866365571e-01
-1.155699175596237183e+01 1.419993691146373749e+00 -1.558828075881990571e-01
-1.183226031064987183e+01 1.302073769271373749e+00 -1.497792919631990571e-01
-1.216575640439987183e+01 1.175242714583873749e+00 -1.429433544631990571e-01
-1.252183550596237183e+01 1.039744667708873749e+00 -1.356343945022615571e-01
-1.290037554502487183e+01 8.958237692713737488e-01 -1.278676708694490571e-01
-1.079124468564987183e+01 1.742137245833873749e+00 -1.274251659866365571e-01
-1.106150835752487183e+01 1.640452675521373749e+00 -1.206502636428865571e-01
-1.134727495908737183e+01 1.532786659896373749e+00 -1.137532909866365571e-01
-1.165184038877487183e+01 1.418284706771373749e+00 -1.061238964553865571e-01
-1.197386187314987183e+01 1.297313027083873749e+00 -9.806725583038655714e-02
-1.231626909971237183e+01 1.168650917708873749e+00 -8.950707516632405714e-02
-3.664402788877487183e+01 -5.288588479161262512e-01 2.654581347946134429e-01
-2.634275835752487183e+01 -1.117445901036262512e-01 1.255808154586759429e-01
-1.091368120908737183e+01 1.742991738021373749e+00 -8.019921383819905714e-02
-1.118357867002487183e+01 1.640086464583873749e+00 -7.237145504913655714e-02
-1.606944292783737183e+01 1.416331581771373749e+00 1.725867190398844286e-02
-1.508445757627487183e+01 1.299876503646373749e+00 4.746464872738442864e-03
-1.506602495908737183e+01 1.159983925521373749e+00 9.247807646175942864e-03
-1.508396929502487183e+01 1.018382363021373749e+00 1.440527834930094286e-02
-1.622544878721237183e+01 8.029282614588737488e-01 4.095557131805094286e-02
-1.625914019346237183e+01 6.480210348963737488e-01 4.722693362273844286e-02
-1.146470659971237183e+01 9.750474020838737488e-01 -9.650411327835115571e-01
-1.151426714658737183e+01 8.654282614588737488e-01 -9.652242382522615571e-01
-1.152537554502487183e+01 7.582505270838737488e-01 -9.630269726272615571e-01
-1.153648394346237183e+01 6.503403708338737488e-01 -9.608144482131990571e-01
-1.154759234189987183e+01 5.423081442713737488e-01 -9.585866650100740571e-01
-1.155882281064987183e+01 4.337876364588737488e-01 -9.563741405960115571e-01
-1.157017534971237183e+01 3.245347067713737488e-01 -9.541310986038240571e-01
-1.157579058408737183e+01 2.158921286463737488e-01 -9.517659862991365571e-01
-1.265184038877487183e+01 8.843491598963737488e-01 -9.919118603225740571e-01
-1.266270464658737183e+01 7.661850973963737488e-01 -9.892873486038240571e-01
-1.268455523252487183e+01 6.465561911463737488e-01 -9.870443066116365571e-01
-1.269969195127487183e+01 5.264390036463737488e-01 -9.846486767288240571e-01
-1.271482867002487183e+01 4.061997458338737488e-01 -9.822377880569490571e-01
-1.273008745908737183e+01 2.853501364588737488e-01 -9.798268993850740571e-01
-1.273851031064987183e+01 1.645005270838737488e-01 -9.772481640335115571e-01
-1.275389117002487183e+01 4.267435520887374878e-02 -9.748220165725740571e-01
-1.380125445127487183e+01 7.969468161463737488e-01 -1.005583735322574057e+00
-1.346128863096237183e+01 6.980698630213737488e-01 -9.819326122756990571e-01
-1.386814898252487183e+01 5.326645895838737488e-01 -1.002058955049136557e+00
-1.390196245908737183e+01 3.986313864588737488e-01 -1.000273676728824057e+00
-1.393602007627487183e+01 2.641099020838737488e-01 -9.984883984085115571e-01
-1.403184527158737183e+01 1.206772848963737488e-01 -1.000212641572574057e+00
-1.414353960752487183e+01 -2.776021510362625122e-02 -1.002776118135074057e+00
-1.422581499814987183e+01 -1.737563088536262512e-01 -1.003615351533511557e+00
-1.719004839658737183e+01 5.362046286463737488e-01 -1.130675288056949057e+00
-1.345518511533737183e+01 7.006333395838737488e-01 -9.237203320022615571e-01
-1.664622515439987183e+01 2.636216208338737488e-01 -1.091521235322574057e+00
-1.633763140439987183e+01 1.384995505213737488e-01 -1.070387812471011557e+00
-1.606590288877487183e+01 1.533060520887374878e-02 -1.051390620088199057e+00
-1.580296343564987183e+01 -1.036879494786262512e-01 -1.033019038056949057e+00
-1.582810992002487183e+01 -2.581068947911262512e-01 -1.029921503877261557e+00
-1.591905230283737183e+01 -4.225356057286262512e-01 -1.030623408174136557e+00
-1.471128863096237183e+01 7.306626364588737488e-01 -9.323720654006990571e-01
-1.344908159971237183e+01 7.030747458338737488e-01 -8.658742626663240571e-01
-1.772984331846237183e+01 1.605942770838737488e-01 -1.072432490205386557e+00
-1.765904253721237183e+01 -1.148886978626251221e-03 -1.063918085908511557e+00
-1.848802202939987183e+01 -2.670180276036262512e-01 -1.099120112275699057e+00
-2.019200152158737183e+01 -6.619154885411262512e-01 -1.176009150361636557e+00
-2.033079546689987183e+01 -8.765150979161262512e-01 -1.176833124971011557e+00
-1.811973589658737183e+01 -7.458998635411262512e-01 -1.065688105439761557e+00
-1.476646441221237183e+01 7.285874411463737488e-01 -8.716268261428865571e-01
-1.344285601377487183e+01 7.056382223963737488e-01 -8.077993114944490571e-01
-2.006004351377487183e+01 -6.328267604112625122e-02 -1.098387690400699057e+00
-2.018296831846237183e+01 -2.693373635411262512e-01 -1.097960444306949057e+00
-1.846250933408737183e+01 -2.611586526036262512e-01 -1.016600581025699057e+00
-2.046092242002487183e+01 -6.930434182286262512e-01 -1.098311396455386557e+00
-2.305589312314987183e+01 -1.248707480728626251e+00 -1.204558344697574057e+00
-2.321556109189987183e+01 -1.496632285416126251e+00 -1.205168696260074057e+00
-2.012779253721237183e+01 3.176987692713737488e-01 -1.024916621064761557e+00
-1.343675249814987183e+01 7.082016989588737488e-01 -7.501058300491365571e-01
-2.031822222471237183e+01 -8.525533229112625122e-02 -1.020659418916324057e+00
-2.044956988096237183e+01 -2.948500588536262512e-01 -1.019835444306949057e+00
-1.843724077939987183e+01 -2.552992776036262512e-01 -9.347829540725740571e-01
-2.320713824033737183e+01 -1.039601035416126251e+00 -1.115096064424136557e+00
-2.335691851377487183e+01 -1.286427207291126251e+00 -1.113905878877261557e+00
-2.352293413877487183e+01 -1.538258261978626251e+00 -1.113265009736636557e+00
-1.487852495908737183e+01 7.243149802088737488e-01 -7.483663280960115571e-01
-1.343064898252487183e+01 7.107651755213737488e-01 -6.924886425491365571e-01
-2.061326617002487183e+01 -1.107680276036262512e-01 -9.413900097366365571e-01
-2.325560015439987183e+01 -5.919691994786262512e-01 -1.027464838838199057e+00
-2.338096636533737183e+01 -8.314711526036262512e-01 -1.024764033174136557e+00
-2.350791949033737183e+01 -1.074146933853626251e+00 -1.022017451142886557e+00
-2.623130816221237183e+01 -1.677540488541126251e+00 -1.107985468721011557e+00
-2.636167925596237183e+01 -1.953297324478626251e+00 -1.104338618135074057e+00
-1.793882769346237183e+01 4.917710348963737488e-01 -7.797689159866365571e-01
-1.342454546689987183e+01 7.133286520838737488e-01 -6.346273144241365571e-01
-1.802195757627487183e+01 1.432602927088737488e-01 -7.714833935256990571e-01
-1.624400347471237183e+01 1.610825583338737488e-01 -7.120961864944490571e-01
-1.838682574033737183e+01 -2.435805276036262512e-01 -7.714681347366365571e-01
-2.642393511533737183e+01 -1.440968222916126251e+00 -1.004332514619449057e+00
-1.858494585752487183e+01 -6.239516213536262512e-01 -7.660360058303865571e-01
-2.937889117002487183e+01 -2.393727011978626251e+00 -1.073637934541324057e+00
-1.712852495908737183e+01 5.564683005213737488e-01 -6.801442821975740571e-01
-1.341844195127487183e+01 7.157700583338737488e-01 -5.771321972366365571e-01
-1.796141070127487183e+01 1.519272848963737488e-01 -6.913442333694490571e-01
-2.523045367002487183e+01 -7.954604104161262512e-01 -8.726339062210115571e-01
-1.836180132627487183e+01 -2.378432229161262512e-01 -6.904134472366365571e-01
-2.772276324033737183e+01 -1.601612754166126251e+00 -9.192189892288240571e-01
-1.860325640439987183e+01 -6.234633401036262512e-01 -6.849813183303865571e-01
-2.479075640439987183e+01 -1.713429160416126251e+00 -8.301076611038240571e-01
-1.505015581846237183e+01 7.178452536463737488e-01 -5.596303661819490571e-01
-1.341929644346237183e+01 7.177231833338737488e-01 -5.195607861038240571e-01
-1.790110796689987183e+01 1.604722067713737488e-01 -6.113729198928865571e-01
-2.523326128721237183e+01 -7.917983010411262512e-01 -7.602224071975740571e-01
-1.833677691221237183e+01 -2.319838479161262512e-01 -6.091756542678865571e-01
-1.603501909971237183e+01 -1.157729104161262512e-01 -5.564412792678865571e-01
-1.862181109189987183e+01 -6.230971291661262512e-01 -6.033315380569490571e-01
-1.604917925596237183e+01 -4.238783791661262512e-01 -5.466603954788240571e-01
-1.510801714658737183e+01 7.156479880213737488e-01 -4.959554394241365571e-01
-1.342088335752487183e+01 7.196763083338737488e-01 -4.623250683303865571e-01
-2.474571245908737183e+01 -4.958998635411262512e-01 -6.483602245803865571e-01
-1.612449663877487183e+01 1.813462302088737488e-01 -4.984578808303865571e-01
-1.614207476377487183e+01 2.643900364637374878e-02 -4.936361034866365571e-01
-2.476060503721237183e+01 -1.217701621353626251e+00 -6.245717724319490571e-01
-2.504087847471237183e+01 -1.497852988541126251e+00 -6.208333691116365571e-01
-1.604026812314987183e+01 -4.200941994786262512e-01 -4.767141064163240571e-01
-1.510679644346237183e+01 7.180893942713737488e-01 -4.306325634475740571e-01
-1.342259234189987183e+01 7.215073630213737488e-01 -4.047689159866365571e-01
-1.376609820127487183e+01 5.634263083338737488e-01 -4.050283154006990571e-01
-1.414317339658737183e+01 3.942368552088737488e-01 -4.051351269241365571e-01
-1.454258745908737183e+01 2.150376364588737488e-01 -4.052266796585115571e-01
-1.496788042783737183e+01 2.411966770887374878e-02 -4.053334911819490571e-01
-1.542210406064987183e+01 -1.801039651036262512e-01 -4.050740917678865571e-01
-1.590757769346237183e+01 -3.979994729161262512e-01 -4.051809032913240571e-01
-1.289353960752487183e+01 8.883774802088737488e-01 -3.474416454788240571e-01
-1.323582476377487183e+01 7.395737692713737488e-01 -3.460378368850740571e-01
-1.358445757627487183e+01 5.829575583338737488e-01 -3.444509228225740571e-01
-1.395042437314987183e+01 4.168198630213737488e-01 -3.427114208694490571e-01
-1.433775347471237183e+01 2.410386130213737488e-01 -3.408803661819490571e-01
-1.480113238096237183e+01 4.743509739637374878e-02 -3.392476757522615571e-01
-1.530332964658737183e+01 -1.615492776036262512e-01 -3.375234325881990571e-01
-1.584263628721237183e+01 -3.860365822911262512e-01 -3.356618603225740571e-01
-1.286326617002487183e+01 8.925278708338737488e-01 -2.922811230178865571e-01
-1.324522417783737183e+01 7.406724020838737488e-01 -2.896871288772615571e-01
-1.363755816221237183e+01 5.799058005213737488e-01 -2.865438183303865571e-01
-1.405479449033737183e+01 4.079087302088737488e-01 -2.831868847366365571e-01
-1.449974077939987183e+01 2.244370505213737488e-01 -2.795858105178865571e-01
-1.497727984189987183e+01 2.753763645887374878e-02 -2.757253368850740571e-01
-1.542637652158737183e+01 -1.759535744786262512e-01 -2.714681347366365571e-01
-1.590123003721237183e+01 -3.920180276036262512e-01 -2.665548046585115571e-01
-1.296604937314987183e+01 8.866684958338737488e-01 -2.375783642288240571e-01
-1.330491656064987183e+01 7.376206442713737488e-01 -2.328939159866365571e-01
-1.364707964658737183e+01 5.811265036463737488e-01 -2.279500683303865571e-01
-1.400938433408737183e+01 4.148667380213737488e-01 -2.226857861038240571e-01
-1.439244097471237183e+01 2.390854880213737488e-01 -2.171315868850740571e-01
-1.479954546689987183e+01 5.231790989637374878e-02 -2.112111767288240571e-01
-1.523472613096237183e+01 -1.473891213536262512e-01 -2.048940380569490571e-01
-1.579563921689987183e+01 -3.740736916661262512e-01 -1.978444775100740571e-01
-1.282884234189987183e+01 8.989975973963737488e-01 -1.829976757522615571e-01
-1.316050738096237183e+01 7.519028708338737488e-01 -1.770620068069490571e-01
-1.354283159971237183e+01 5.930893942713737488e-01 -1.702871044631990571e-01
-1.397190874814987183e+01 4.209702536463737488e-01 -1.628865917678865571e-01
-1.443394488096237183e+01 2.365220114588737488e-01 -1.549672802444490571e-01
-1.493125933408737183e+01 3.803568333387374878e-02 -1.464376171585115571e-01
-1.546983355283737183e+01 -1.769301369786262512e-01 -1.371907909866365571e-01
-1.829270952939987183e+01 -7.362563088536262512e-01 -1.086873730178865571e-01
-1.290306109189987183e+01 8.952134177088737488e-01 -1.278218945022615571e-01
-1.330894488096237183e+01 7.411606833338737488e-01 -1.192159374710115571e-01
-1.372300738096237183e+01 5.779526755213737488e-01 -1.101979931350740571e-01
-2.572373980283737183e+01 -8.157240822911262512e-01 2.946570315398844286e-02
-3.265721148252487183e+01 -1.865650840103626251e+00 1.190653125289884429e-01
-1.818077105283737183e+01 -3.677260354161262512e-01 -4.273888668976155714e-02
-1.681102007627487183e+01 -3.564955666661262512e-01 -5.329796872101155714e-02
-1.826622027158737183e+01 -7.294203713536262512e-01 -2.894494137726155714e-02
-2.634153765439987183e+01 -1.124770119786262512e-01 1.255960742477384429e-01
-1.797019976377487183e+01 3.463852927088737488e-01 8.286503935238442864e-03
-2.494273394346237183e+01 -4.877211526036262512e-01 1.220865527633634429e-01
-2.546250933408737183e+01 -7.841078713536262512e-01 1.392374316696134429e-01
-3.261204546689987183e+01 -1.855274863541126251e+00 2.643137256149259429e-01
-1.790892046689987183e+01 -3.307387307286262512e-01 3.213599123992594286e-02
-1.688157671689987183e+01 -3.634535744786262512e-01 2.143958010711344286e-02
-1.849681109189987183e+01 -7.600600197911262512e-01 5.543616213836344286e-02
-2.637583941221237183e+01 -1.110121682286262512e-01 2.432260791305509429e-01
-1.807029742002487183e+01 3.405259177088737488e-01 8.830359377898844286e-02
-1.788511675596237183e+01 1.867173239588737488e-01 9.100439944305094286e-02
-2.530064409971237183e+01 -7.631117776036262512e-01 2.492075244430509429e-01
-2.606370562314987183e+01 -1.095997519791126251e+00 2.742929736618009429e-01
-1.650962847471237183e+01 -1.526381447911262512e-01 8.094885745086344286e-02
-1.824803179502487183e+01 -5.458266213536262512e-01 1.244211474899259429e-01
-3.708372515439987183e+01 -3.462086386978626251e+00 5.460062304977384429e-01
-1.157591265439987183e+01 2.155259177088737488e-01 -9.517659862991365571e-01
-1.158592242002487183e+01 1.057847067713737488e-01 -9.494924267288240571e-01
-1.159031695127487183e+01 -3.712363541126251221e-03 -9.470815380569490571e-01
-1.159471148252487183e+01 -1.139418557286262512e-01 -9.446706493850740571e-01
-1.161546343564987183e+01 -2.273451760411262512e-01 -9.433126171585115571e-01
-1.163865679502487183e+01 -3.422133401036262512e-01 -9.420919140335115571e-01
-1.166221636533737183e+01 -4.583022072911262512e-01 -9.408559521194490571e-01
-1.167979449033737183e+01 -5.736586526036262512e-01 -9.394979198928865571e-01
-1.275401324033737183e+01 4.218607395887374878e-02 -9.748067577835115571e-01
-1.276170367002487183e+01 -7.915181666612625122e-02 -9.722127636428865571e-01
-1.279051226377487183e+01 -2.046400979161262512e-01 -9.705953320022615571e-01
-1.282151812314987183e+01 -3.320815041661262512e-01 -9.693593700881990571e-01
-1.285276812314987183e+01 -4.601332619786262512e-01 -9.681234081741365571e-01
-1.288426226377487183e+01 -5.894057229161262512e-01 -9.668721874710115571e-01
-1.290867632627487183e+01 -7.186781838536262512e-01 -9.654683788772615571e-01
-1.292698687314987183e+01 -8.470961526036262512e-01 -9.633779247756990571e-01
-1.422605913877487183e+01 -1.743666604161262512e-01 -1.003615351533511557e+00
-1.423887652158737183e+01 -3.114516213536262512e-01 -1.000761957978824057e+00
-1.425169390439987183e+01 -4.493910744786262512e-01 -9.979085644241365571e-01
-1.426463335752487183e+01 -5.885512307286262512e-01 -9.950093945022615571e-01
-1.427757281064987183e+01 -7.280775979161262512e-01 -9.921102245803865571e-01
-1.429051226377487183e+01 -8.682143166661262512e-01 -9.892110546585115571e-01
-1.430369585752487183e+01 -1.009815879166126251e+00 -9.862661083694490571e-01
-1.432188433408737183e+01 -1.152760215103626251e+00 -9.835958202835115571e-01
-1.591966265439987183e+01 -4.231459572911262512e-01 -1.030638666963199057e+00
-1.600425738096237183e+01 -5.889174416661262512e-01 -1.030516596650699057e+00
-1.603111284971237183e+01 -7.472426369786262512e-01 -1.027708979463199057e+00
-1.605821245908737183e+01 -9.072768166661262512e-01 -1.024870844697574057e+00
-1.608543413877487183e+01 -1.067921347916126251e+00 -1.022032709931949057e+00
-1.614598101377487183e+01 -1.236256308853626251e+00 -1.020857783174136557e+00
-1.622752398252487183e+01 -1.411427207291126251e+00 -1.020674677705386557e+00
-1.625267046689987183e+01 -1.575977988541126251e+00 -1.017989130830386557e+00
-1.812046831846237183e+01 -7.466322854161262512e-01 -1.065703364228824057e+00
-1.820799273252487183e+01 -9.352309182286262512e-01 -1.064940424775699057e+00
-1.630296343564987183e+01 -7.904555276036262512e-01 -9.703817089553865571e-01
-1.828758257627487183e+01 -1.303272910416126251e+00 -1.058730097627261557e+00
-1.834410113096237183e+01 -1.492359824478626251e+00 -1.056349726533511557e+00
-1.855821245908737183e+01 -1.714771933853626251e+00 -1.061202021455386557e+00
-1.871714800596237183e+01 -1.931202597916126251e+00 -1.063353510713199057e+00
-1.886070269346237183e+01 -2.147755332291126251e+00 -1.064711542939761557e+00
-2.321678179502487183e+01 -1.497608847916126251e+00 -1.205199213838199057e+00
-1.610276812314987183e+01 -5.994154885411262512e-01 -8.946370800491365571e-01
-1.629722613096237183e+01 -7.867934182286262512e-01 -8.983907421585115571e-01
-2.230052202939987183e+01 -2.017140097916126251e+00 -1.146361323213199057e+00
-2.170555132627487183e+01 -2.124439902603626251e+00 -1.115157099580386557e+00
-2.190330523252487183e+01 -2.378224082291126251e+00 -1.117171259736636557e+00
-2.124302691221237183e+01 -2.457691855728626251e+00 -1.083693476533511557e+00
-2.237852495908737183e+01 -2.918751426041126251e+00 -1.124525996064761557e+00
-2.352427691221237183e+01 -1.539234824478626251e+00 -1.113280268525699057e+00
-1.614097613096237183e+01 -6.028334572911262512e-01 -8.257894237991365571e-01
-1.600730913877487183e+01 -7.354018166661262512e-01 -8.161458691116365571e-01
-2.658287066221237183e+01 -2.777760215103626251e+00 -1.207106562471011557e+00
-2.931529253721237183e+01 -3.557301230728626251e+00 -1.300642939424136557e+00
-2.953672808408737183e+01 -3.894337363541126251e+00 -1.300078364228824057e+00
-2.124583452939987183e+01 -2.454640097916126251e+00 -9.887838085647615571e-01
-2.792369097471237183e+01 -4.134327597916126251e+00 -1.224059077119449057e+00
-2.636253374814987183e+01 -1.954395957291126251e+00 -1.104353876924136557e+00
-2.651939409971237183e+01 -2.237721152603626251e+00 -1.101683588838199057e+00
-1.604527300596237183e+01 -7.391859963536262512e-01 -7.470693310256990571e-01
-2.947935503721237183e+01 -3.289601035416126251e+00 -1.181883784150699057e+00
-3.230369585752487183e+01 -4.115772910416126251e+00 -1.264449091767886557e+00
-3.251646441221237183e+01 -4.481983847916126251e+00 -1.261382075166324057e+00
-2.124852007627487183e+01 -2.451588340103626251e+00 -8.938588818069490571e-01
-3.582627886533737183e+01 -5.865894980728626251e+00 -1.346297236299136557e+00
-2.938011187314987183e+01 -2.394947715103626251e+00 -1.073637934541324057e+00
-2.455406206846237183e+01 -1.923634238541126251e+00 -9.260396679397615571e-01
-1.608335894346237183e+01 -7.429701760411262512e-01 -6.780385693069490571e-01
-1.594993609189987183e+01 -8.748061135411262512e-01 -6.694173534866365571e-01
-3.641502398252487183e+01 -4.884937949478626251e+00 -1.232253046846011557e+00
-4.059068316221237183e+01 -6.081104941666126251e+00 -1.335234614228824057e+00
-2.125120562314987183e+01 -2.448536582291126251e+00 -7.984456737991365571e-01
-5.032200640439987183e+01 -9.042286582291126251e+00 -1.569792719697574057e+00
-2.479026812314987183e+01 -1.714283652603626251e+00 -8.300771435256990571e-01
-1.655247515439987183e+01 -6.598402932286262512e-01 -6.240377148147615571e-01
-1.612156695127487183e+01 -7.467543557286262512e-01 -6.086873730178865571e-01
-1.598753374814987183e+01 -8.789565041661262512e-01 -6.005239208694490571e-01
-3.675950640439987183e+01 -4.943531699478626251e+00 -1.074812861299136557e+00
-4.593394488096237183e+01 -7.135060019791126251e+00 -1.271544428681949057e+00
-2.125389117002487183e+01 -2.445484824478626251e+00 -7.035207470413240571e-01
-5.548655718564987183e+01 -1.016631001979112625e+01 -1.452254267549136557e+00
-1.605296343564987183e+01 -4.249770119786262512e-01 -5.467214306350740571e-01
-1.654795855283737183e+01 -6.564223244786262512e-01 -5.512532909866365571e-01
-1.616014117002487183e+01 -7.506606057286262512e-01 -5.386037548538240571e-01
-1.602549761533737183e+01 -8.829848244786262512e-01 -5.309285839553865571e-01
-3.727110308408737183e+01 -5.033497519791126251e+00 -9.163808544631990571e-01
-3.718748492002487183e+01 -5.391773886978626251e+00 -9.024953564163240571e-01
-2.125669878721237183e+01 -2.442310996353626251e+00 -6.080922802444490571e-01
-5.171568316221237183e+01 -9.329884238541126251e+00 -1.129744501924136557e+00
-1.604405230283737183e+01 -4.211928322911262512e-01 -4.767446239944490571e-01
-1.654356402158737183e+01 -6.531264260411262512e-01 -4.789266308303865571e-01
-1.619871538877487183e+01 -7.544447854161262512e-01 -4.685811718460115571e-01
-3.634605425596237183e+01 -4.489308066666126251e+00 -7.467031200881990571e-01
-3.616575640439987183e+01 -4.819386191666126251e+00 -7.319173534866365571e-01
-1.697239702939987183e+01 -1.378590293228626251e+00 -4.629964550491365571e-01
-2.090989702939987183e+01 -2.366383261978626251e+00 -5.086202343460115571e-01
-2.249278277158737183e+01 -2.920460410416126251e+00 -5.216512402053865571e-01
-1.591099566221237183e+01 -3.990981057286262512e-01 -4.051961620803865571e-01
-1.637828081846237183e+01 -6.244399026036262512e-01 -4.046468456741365571e-01
-1.623741167783737183e+01 -7.583510354161262512e-01 -3.981923779006990571e-01
-1.762596148252487183e+01 -1.161793418228626251e+00 -4.058217724319490571e-01
-1.705857867002487183e+01 -1.226612754166126251e+00 -3.947438915725740571e-01
-1.698265093564987183e+01 -1.377735801041126251e+00 -3.883352001663240571e-01
-2.068394488096237183e+01 -2.315724082291126251e+00 -4.129323681350740571e-01
-2.245176714658737183e+01 -2.907643027603626251e+00 -4.198903759475740571e-01
-1.584654253721237183e+01 -3.871352151036262512e-01 -3.356771191116365571e-01
-1.637889117002487183e+01 -6.218764260411262512e-01 -3.332051952835115571e-01
-1.627659624814987183e+01 -7.622572854161262512e-01 -3.271016796585115571e-01
-1.781016558408737183e+01 -1.191456504166126251e+00 -3.287801464553865571e-01
-1.706895464658737183e+01 -1.225758261978626251e+00 -3.193959911819490571e-01
-1.699302691221237183e+01 -1.376881308853626251e+00 -3.131856640335115571e-01
-2.063023394346237183e+01 -2.300953574478626251e+00 -3.205098827835115571e-01
-2.203440874814987183e+01 -2.812550254166126251e+00 -3.178395946975740571e-01
-1.590464800596237183e+01 -3.931166604161262512e-01 -2.665395458694490571e-01
-1.636253374814987183e+01 -6.167494729161262512e-01 -2.617788036819490571e-01
-1.614183062314987183e+01 -7.371108010411262512e-01 -2.559652050491365571e-01
-1.757737749814987183e+01 -1.147389121353626251e+00 -2.504262646194490571e-01
-1.836045855283737183e+01 -1.464894004166126251e+00 -2.439870556350740571e-01
-1.951414507627487183e+01 -1.872486777603626251e+00 -2.367086132522615571e-01
-1.678343218564987183e+01 -1.496998496353626251e+00 -2.325429638381990571e-01
-6.525291460752487183e+01 -1.225066060572862625e+01 -1.562795361038240571e-01
-1.579978960752487183e+01 -3.751723244786262512e-01 -1.978139599319490571e-01
-1.610484331846237183e+01 -5.737807229161262512e-01 -1.910390575881990571e-01
-1.707347124814987183e+01 -8.896986916661262512e-01 -1.812276562210115571e-01
-1.818260210752487183e+01 -1.251515097916126251e+00 -1.699971874710115571e-01
-4.028123492002487183e+01 -5.564991660416126251e+00 -5.357262692413655714e-02
-1.701353472471237183e+01 -1.375294394791126251e+00 -1.630849560256990571e-01
-1.683189409971237183e+01 -1.504322715103626251e+00 -1.579274853225740571e-01
-1.683995074033737183e+01 -1.670948691666126251e+00 -1.517476757522615571e-01
-1.829270952939987183e+01 -7.368666604161262512e-01 -1.086721142288240571e-01
-1.815928667783737183e+01 -8.922621682286262512e-01 -1.035451611038240571e-01
-1.592942827939987183e+01 -6.965834572911262512e-01 -1.166066845413240571e-01
-1.807798784971237183e+01 -1.230030722916126251e+00 -9.092614254913655714e-02
-1.709996050596237183e+01 -1.223072715103626251e+00 -9.365746579132405714e-02
-5.290818804502487183e+01 -8.455372519791126251e+00 2.714548388961759429e-01
-1.688047808408737183e+01 -1.511524863541126251e+00 -8.326623043976155714e-02
-1.688890093564987183e+01 -1.678761191666126251e+00 -7.649132809601155714e-02
-1.826634234189987183e+01 -7.300307229161262512e-01 -2.891442379913655714e-02
-1.649900835752487183e+01 -6.301772072911262512e-01 -4.527184567413655714e-02
-1.609910601377487183e+01 -7.222182229161262512e-01 -4.452416501007405714e-02
-1.652415484189987183e+01 -9.526869729161262512e-01 -3.259179196319905714e-02
-1.711045855283737183e+01 -1.222096152603626251e+00 -1.798913083038655714e-02
-1.692124956846237183e+01 -1.351368613541126251e+00 -1.431176266632405714e-02
-6.605467242002487183e+01 -1.171416158229112625e+01 7.346353808883634429e-01
-1.693797320127487183e+01 -1.686573691666126251e+00 -1.204462861636557136e-03
-1.849534624814987183e+01 -7.605483010411262512e-01 5.543616213836344286e-02
-7.687925738096237183e+01 -1.004069966822862625e+01 1.100022343778988443e+00
-1.655027788877487183e+01 -7.944838479161262512e-01 3.384497561492594286e-02
-1.591014117002487183e+01 -8.417250588536262512e-01 2.830603518523844286e-02
-1.712083452939987183e+01 -1.221241660416126251e+00 5.734351077117594286e-02
-5.298814409971237183e+01 -8.452686972916126251e+00 7.588053027633634429e-01
-1.697898882627487183e+01 -1.526295371353626251e+00 6.819250979461344286e-02
-5.543260210752487183e+01 -1.006584615260362625e+01 8.523416797164884429e-01
-3.708616656064987183e+01 -3.463673301041126251e+00 5.460977832321134429e-01
-1.820640581846237183e+01 -8.906752541661262512e-01 1.371622363571134429e-01
-1.821739214658737183e+01 -1.068409629166126251e+00 1.445169726852384429e-01
-1.607518023252487183e+01 -8.682143166661262512e-01 1.019296924118009429e-01
-1.713121050596237183e+01 -1.220387168228626251e+00 1.331796924118009429e-01
-1.701976031064987183e+01 -1.365162558853626251e+00 1.372385303024259429e-01
-6.603550738096237183e+01 -1.168693990260362625e+01 1.343873051786800943e+00
-1.761021441221237183e+01 -1.827076621353626251e+00 1.658335010055509429e-01
-1.168003863096237183e+01 -5.741469338536262512e-01 -9.394979198928865571e-01
-1.170237749814987183e+01 -6.913344338536262512e-01 -9.382314404006990571e-01
-1.171885699033737183e+01 -8.082777932286262512e-01 -9.368276318069490571e-01
