-1.048859500885009766e+01 1.882626883685588837e+00 -6.966932338196727414e-01
-1.458222293853759766e+01 1.827939383685588837e+00 -8.900983851868602414e-01
-1.418012332916259766e+01 1.695737235248088837e+00 -8.663709681946727414e-01
-1.476960086822509766e+01 1.560361258685588837e+00 -8.898389857727977414e-01
-1.471796512603759766e+01 1.427060477435588837e+00 -8.831251185852977414e-01
-1.413996219635009766e+01 2.339169852435588837e+00 -8.274457972962352414e-01
-1.440827274322509766e+01 2.221372000873088837e+00 -8.349836390931102414e-01
-1.382514286041259766e+01 2.073422782123088837e+00 -8.047712367493602414e-01
-1.048969364166259766e+01 1.884091727435588837e+00 -6.544874232727977414e-01
-1.336713504791259766e+01 1.818784110248088837e+00 -7.762830775696727414e-01
-1.406659793853759766e+01 1.697812430560588837e+00 -8.022993129212352414e-01
-1.482135868072509766e+01 1.561948172748088837e+00 -8.301618617493602414e-01
-1.453608036041259766e+01 1.433041922748088837e+00 -8.134534877259227414e-01
-1.519892215728759766e+01 2.393247000873088837e+00 -8.109815638977977414e-01
-1.397882938385009766e+01 2.206479422748088837e+00 -7.575910609681102414e-01
-1.388007450103759766e+01 2.076962821185588837e+00 -7.490613978821727414e-01
-1.049079227447509766e+01 1.885434500873088837e+00 -6.120527308899852414e-01
-1.344233036041259766e+01 1.821347586810588837e+00 -7.234571498352977414e-01
-1.402106571197509766e+01 1.699887625873088837e+00 -7.415693324524852414e-01
-1.438129520416259766e+01 1.568662039935588837e+00 -7.512739222962352414e-01
-1.416291141510009766e+01 1.442807547748088837e+00 -7.385480922181102414e-01
-1.467633914947509766e+01 2.369565360248088837e+00 -7.281568568665477414e-01
-1.393671512603759766e+01 2.206723563373088837e+00 -6.975324672181102414e-01
-1.382135868072509766e+01 2.077206961810588837e+00 -6.892011683899852414e-01
-1.049201297760009766e+01 1.886899344623088837e+00 -5.698316615540477414e-01
-1.326032352447509766e+01 1.821469657123088837e+00 -6.614454310852977414e-01
-1.399799442291259766e+01 1.701840750873088837e+00 -6.823652308899852414e-01
-1.423041629791259766e+01 1.572324149310588837e+00 -6.858289760071727414e-01
-1.410089969635009766e+01 1.446103446185588837e+00 -6.771162074524852414e-01
-1.404853153228759766e+01 2.340390555560588837e+00 -6.472242396790477414e-01
-1.429853153228759766e+01 2.222958914935588837e+00 -6.505506556946727414e-01
-1.378009891510009766e+01 2.077817313373088837e+00 -6.304090541321727414e-01
-1.049311161041259766e+01 1.888364188373088837e+00 -5.276258510071727414e-01
-1.356684207916259766e+01 1.826352469623088837e+00 -6.155927699524852414e-01
-1.472809696197509766e+01 1.703671805560588837e+00 -6.454389613587352414e-01
-1.591303348541259766e+01 1.557065360248088837e+00 -6.751783412415477414e-01
-1.403986454010009766e+01 1.449399344623088837e+00 -6.166151088196727414e-01
-1.402411746978759766e+01 2.341122977435588837e+00 -5.876997035462352414e-01
-1.388898563385009766e+01 2.208676688373088837e+00 -5.798566859681102414e-01
-1.447919559478759766e+01 2.100644461810588837e+00 -5.907514613587352414e-01
-1.049421024322509766e+01 1.889829032123088837e+00 -4.851911586243602414e-01
-1.355548954010009766e+01 1.828061453998088837e+00 -5.586774867493602414e-01
-1.337616825103759766e+01 1.705869071185588837e+00 -5.501020472962352414e-01
-1.400324344635009766e+01 1.578793875873088837e+00 -5.612562221009227414e-01
-1.399005985260009766e+01 1.452451102435588837e+00 -5.566328090149852414e-01
-1.400006961822509766e+01 2.341855399310588837e+00 -5.287244838196727414e-01
-1.482856082916259766e+01 2.248105399310588837e+00 -5.421979945618602414e-01
-1.363617801666259766e+01 2.077329032123088837e+00 -5.124280971009227414e-01
-1.049530887603759766e+01 1.891293875873088837e+00 -4.429700892884227414e-01
-1.489789676666259766e+01 1.843442313373088837e+00 -5.298536342102977414e-01
-1.345160770416259766e+01 1.707822196185588837e+00 -4.961774867493602414e-01
-1.394086551666259766e+01 1.581357352435588837e+00 -5.017316859681102414e-01
-1.394648075103759766e+01 1.455258719623088837e+00 -4.975660365540477414e-01
-1.516413211822509766e+01 2.401913993060588837e+00 -4.900892299134227414e-01
-1.373944950103759766e+01 2.206479422748088837e+00 -4.614027064759227414e-01
-1.451679325103759766e+01 2.105771414935588837e+00 -4.703596156556102414e-01
-1.049652957916259766e+01 1.892636649310588837e+00 -4.007642787415477414e-01
-1.346027469635009766e+01 1.830991141498088837e+00 -4.446638148743602414e-01
-1.478156375885009766e+01 1.709897391498088837e+00 -4.610670131165477414e-01
-1.478644657135009766e+01 1.575131766498088837e+00 -4.562452357727977414e-01
-1.507697391510009766e+01 1.434995047748088837e+00 -4.560010951477977414e-01
-1.554657840728759766e+01 2.423276297748088837e+00 -4.312665980774852414e-01
-1.369941043853759766e+01 2.206845633685588837e+00 -4.038007777649852414e-01
-1.346100711822509766e+01 2.075864188373088837e+00 -3.967817347962352414e-01
-1.042475223541259766e+01 1.892636649310588837e+00 -3.574903529602977414e-01
-1.063459110260009766e+01 1.803769461810588837e+00 -3.567731898743602414e-01
-1.084662723541259766e+01 1.710751883685588837e+00 -3.559339564759227414e-01
-1.107148075103759766e+01 1.613095633685588837e+00 -3.550947230774852414e-01
-1.130622196197509766e+01 1.511044852435588837e+00 -3.542097133118602414e-01
-9.736763954162597656e+00 2.132993094623088837e+00 -3.190992396790477414e-01
-9.923043251037597656e+00 2.056210868060588837e+00 -3.178937953431102414e-01
-1.011701297760009766e+01 1.976010672748088837e+00 -3.164136928040477414e-01
-1.032050418853759766e+01 1.891904227435588837e+00 -3.148725551087352414e-01
-1.053290653228759766e+01 1.804135672748088837e+00 -3.132551234681102414e-01
-1.073810672760009766e+01 1.712216727435588837e+00 -3.114545863587352414e-01
-1.095783329010009766e+01 1.615659110248088837e+00 -3.095777553040477414e-01
-1.118647098541259766e+01 1.514951102435588837e+00 -3.073957484681102414e-01
-9.647652626037597656e+00 2.129819266498088837e+00 -2.800519984681102414e-01
-9.829415321350097656e+00 2.053769461810588837e+00 -2.778089564759227414e-01
-1.003266239166259766e+01 1.974789969623088837e+00 -2.755048793274852414e-01
-1.025531864166259766e+01 1.892026297748088837e+00 -2.730939906556102414e-01
-1.048871707916259766e+01 1.805112235248088837e+00 -2.705762904602977414e-01
-1.071906375885009766e+01 1.713681571185588837e+00 -2.678907435852977414e-01
-1.096430301666259766e+01 1.617123953998088837e+00 -2.650678676087352414e-01
-1.122150516510009766e+01 1.515927664935588837e+00 -2.620924037415477414e-01
-9.691720008850097656e+00 2.133237235248088837e+00 -2.414777797181102414e-01
-9.896187782287597656e+00 2.057797782123088837e+00 -2.385633510071727414e-01
-1.011127567291259766e+01 1.978574149310588837e+00 -2.352827113587352414e-01
-1.033796024322509766e+01 1.895078055560588837e+00 -2.318342250306102414e-01
-1.054535770416259766e+01 1.807187430560588837e+00 -2.282789271790477414e-01
-1.080622196197509766e+01 1.715146414935588837e+00 -2.244489711243602414e-01
-1.105597782135009766e+01 1.617856375873088837e+00 -2.204511683899852414e-01
-1.129596805572509766e+01 1.516049735248088837e+00 -2.161024135071727414e-01
-9.764351844787597656e+00 2.138242118060588837e+00 -2.025373500306102414e-01
-9.957345008850097656e+00 2.061581961810588837e+00 -1.985242885071727414e-01
-1.014826297760009766e+01 1.981137625873088837e+00 -1.944044154602977414e-01
-1.034845829010009766e+01 1.896664969623088837e+00 -1.900861781556102414e-01
-1.054645633697509766e+01 1.808652274310588837e+00 -1.856458705384227414e-01
-1.075776004791259766e+01 1.716611258685588837e+00 -1.809919398743602414e-01
-1.097345829010009766e+01 1.620053641498088837e+00 -1.761396449524852414e-01
-1.119843387603759766e+01 1.519467703998088837e+00 -1.710889857727977414e-01
-9.700387001037597656e+00 2.136288993060588837e+00 -1.641614955384227414e-01
-9.880074501037597656e+00 2.059750907123088837e+00 -1.594312709290477414e-01
-1.006806278228759766e+01 1.979916922748088837e+00 -1.547010463196727414e-01
-1.026447391510009766e+01 1.896298758685588837e+00 -1.495435756165477414e-01
-1.046918582916259766e+01 1.809140555560588837e+00 -1.441572230774852414e-01
-1.067035770416259766e+01 1.717954032123088837e+00 -1.386793178040477414e-01
-1.091938114166259766e+01 1.622128836810588837e+00 -1.322401088196727414e-01
-1.118756961822509766e+01 1.521298758685588837e+00 -1.256177943665477414e-01
-9.627755165100097656e+00 2.133725516498088837e+00 -1.265028041321727414e-01
-9.824532508850097656e+00 2.058774344623088837e+00 -1.209180873352977414e-01
-1.004731082916259766e+01 1.980649344623088837e+00 -1.146009486634227414e-01
-1.028278446197509766e+01 1.898129813373088837e+00 -1.079328578431102414e-01
-1.053022098541259766e+01 1.811337821185588837e+00 -1.009138148743602414e-01
-1.077277469635009766e+01 1.719663016498088837e+00 -9.380321917123524145e-02
-1.103376102447509766e+01 1.622617118060588837e+00 -8.621960100717274145e-02
-1.130902957916259766e+01 1.520566336810588837e+00 -7.799511370248524145e-02
-1.164008426666259766e+01 1.482724539935588837e+00 -9.769514125306102414e-01
-1.169831180572509766e+01 1.377622000873088837e+00 -9.774854701477977414e-01
-1.175177860260009766e+01 1.271542899310588837e+00 -9.778974574524852414e-01
-1.180597782135009766e+01 1.163754813373088837e+00 -9.783094447571727414e-01
-1.186054325103759766e+01 1.055112235248088837e+00 -9.787366908509227414e-01
-1.191584110260009766e+01 9.452489539980888367e-01 -9.791639369446727414e-01
-1.193610477447509766e+01 8.366063758730888367e-01 -9.771497767884227414e-01
-1.195050907135009766e+01 7.284520789980888367e-01 -9.750135463196727414e-01
-1.348224735260009766e+01 1.444760672748088837e+00 -1.049629024835297741e+00
-1.336200809478759766e+01 1.326962821185588837e+00 -1.037925533624360241e+00
-1.324945926666259766e+01 1.211118094623088837e+00 -1.026481441827485241e+00
-1.311664676666259766e+01 1.097958914935588837e+00 -1.014106563897797741e+00
-1.298713016510009766e+01 9.876073524355888367e-01 -1.002021602960297741e+00
-1.295990848541259766e+01 8.723729774355888367e-01 -9.965436976868602414e-01
-1.299372196197509766e+01 7.521337196230888367e-01 -9.952314418274852414e-01
-1.303339481353759766e+01 6.310399696230888367e-01 -9.939802211243602414e-01
-1.439252567291259766e+01 1.427182547748088837e+00 -1.048652462335297741e+00
-1.424359989166259766e+01 1.301205985248088837e+00 -1.035438351007172741e+00
-1.429401493072509766e+01 1.169858328998088837e+00 -1.034324459405610241e+00
-1.409418582916259766e+01 1.049619071185588837e+00 -1.018165401788422741e+00
-1.398297977447509766e+01 9.284032508730888367e-01 -1.007423214288422741e+00
-1.311505985260009766e+01 8.632177039980888367e-01 -9.519575160462352414e-01
-1.410590457916259766e+01 6.635106727480888367e-01 -1.006461910577485241e+00
-1.422211551666259766e+01 5.242284461855888367e-01 -1.009132198663422741e+00
-1.455500125885009766e+01 1.425839774310588837e+00 -9.976118129212352414e-01
-1.418305301666259766e+01 1.305234305560588837e+00 -9.722059291321727414e-01
-1.445514774322509766e+01 1.165341727435588837e+00 -9.831464808899852414e-01
-1.443622684478759766e+01 1.034238211810588837e+00 -9.778211635071727414e-01
-1.436921024322509766e+01 9.067968055605888367e-01 -9.698865931946727414e-01
-1.311664676666259766e+01 8.650487586855888367e-01 -8.972852748352977414e-01
-1.734809207916259766e+01 4.022802039980888367e-01 -1.122947506280610241e+00
-1.728107547760009766e+01 2.472509071230888367e-01 -1.114509395929047741e+00
-1.439228153228759766e+01 1.431332938373088837e+00 -9.279554408509227414e-01
-1.461591434478759766e+01 1.293881766498088837e+00 -9.351575892884227414e-01
-1.453839969635009766e+01 1.163998953998088837e+00 -9.268568080384227414e-01
-1.445685672760009766e+01 1.035336844623088837e+00 -9.184034388977977414e-01
-1.522943973541259766e+01 8.565038368105888367e-01 -9.529493373352977414e-01
-1.311823368072509766e+01 8.668798133730888367e-01 -8.429029506165477414e-01
-1.752680301666259766e+01 3.904393836855888367e-01 -1.057838253350922741e+00
-1.745929813385009766e+01 2.337011024355888367e-01 -1.049201778741547741e+00
-1.431061649322509766e+01 1.435117118060588837e+00 -8.639600795227977414e-01
-1.468146610260009766e+01 1.294003836810588837e+00 -8.766706508118602414e-01
-1.785138797760009766e+01 1.030820243060588837e+00 -1.019126705499360241e+00
-1.448920536041259766e+01 1.035825125873088837e+00 -8.590162318665477414e-01
-1.446320438385009766e+01 9.054540321230888367e-01 -8.534772914368602414e-01
-1.311982059478759766e+01 8.687108680605888367e-01 -7.882307094056102414e-01
-1.806867313385009766e+01 3.493016883730888367e-01 -1.007057003350922741e+00
-1.977729129791259766e+01 2.557121962308883667e-02 -1.078300289483735241e+00
-1.453681278228759766e+01 1.432553641498088837e+00 -8.134687465149852414e-01
-1.637067508697509766e+01 1.244199149310588837e+00 -8.862379115540477414e-01
-1.458026981353759766e+01 1.166562430560588837e+00 -8.065107387024852414e-01
-1.453669071197509766e+01 1.035580985248088837e+00 -8.003004115540477414e-01
-1.451056766510009766e+01 9.047216102480888367e-01 -7.948225062806102414e-01
-1.312140750885009766e+01 8.705419227480888367e-01 -7.338483851868602414e-01
-1.993402957916259766e+01 2.014745399355888367e-01 -1.005164913507172741e+00
-2.002765750885009766e+01 5.917899310588836670e-03 -1.002723507257172741e+00
-1.416169071197509766e+01 1.442441336810588837e+00 -7.384870570618602414e-01
-1.462592411041259766e+01 1.299985282123088837e+00 -7.516096156556102414e-01
-1.473981571197509766e+01 1.162289969623088837e+00 -7.510602992493602414e-01
-1.878192996978759766e+01 8.231786414980888367e-01 -8.952405971009227414e-01
-1.456244754791259766e+01 9.037450477480888367e-01 -7.355878871399852414e-01
-1.312299442291259766e+01 8.724950477480888367e-01 -6.791608851868602414e-01
-1.783088016510009766e+01 3.740819618105888367e-01 -8.440473597962352414e-01
-2.052838993072509766e+01 -3.619635850191116333e-02 -9.341810267884227414e-01
-1.409967899322509766e+01 1.445737235248088837e+00 -6.770551722962352414e-01
-1.401410770416259766e+01 1.320615164935588837e+00 -6.699598353821727414e-01
-1.465949344635009766e+01 1.167661063373088837e+00 -6.866682094056102414e-01
-1.720868778228759766e+01 9.053319618105888367e-01 -7.642286342102977414e-01
-1.461652469635009766e+01 9.026464149355888367e-01 -6.762922328431102414e-01
-1.312445926666259766e+01 8.743261024355888367e-01 -6.247785609681102414e-01
-2.159259891510009766e+01 7.427727431058883667e-02 -8.848188441712352414e-01
-1.768415164947509766e+01 2.241796180605888367e-01 -7.574079554993602414e-01
-1.403864383697509766e+01 1.449033133685588837e+00 -6.165540736634227414e-01
-1.397028446197509766e+01 1.324033133685588837e+00 -6.103132289368602414e-01
-1.470819950103759766e+01 1.167905203998088837e+00 -6.266553920227977414e-01
-1.468158817291259766e+01 1.034848563373088837e+00 -6.213453334290477414e-01
-1.467096805572509766e+01 9.015477821230888367e-01 -6.165235560852977414e-01
-1.312604618072509766e+01 8.761571571230888367e-01 -5.703962367493602414e-01
-1.761798954010009766e+01 3.966649696230888367e-01 -6.857526820618602414e-01
-1.762604618072509766e+01 2.322362586855888367e-01 -6.804121058899852414e-01
-1.398969364166259766e+01 1.451962821185588837e+00 -5.566022914368602414e-01
-1.658857059478759766e+01 1.247372977435588837e+00 -6.137922328431102414e-01
-1.474189090728759766e+01 1.168759696185588837e+00 -5.655134242493602414e-01
-1.471051883697509766e+01 1.035580985248088837e+00 -5.601881068665477414e-01
-1.699591922760009766e+01 7.642186805605888367e-01 -6.073530238587352414e-01
-1.312763309478759766e+01 8.779882118105888367e-01 -5.157087367493602414e-01
-1.756000614166259766e+01 4.041112586855888367e-01 -6.089704554993602414e-01
-1.756806278228759766e+01 2.401708289980888367e-01 -6.035688441712352414e-01
-1.394599246978759766e+01 1.454892508685588837e+00 -4.975355189759227414e-01
-1.479877567291259766e+01 1.303281180560588837e+00 -5.094678920227977414e-01
-1.475629520416259766e+01 1.170346610248088837e+00 -5.040357631165477414e-01
-1.472382450103759766e+01 1.037045828998088837e+00 -4.988019984681102414e-01
-1.701899051666259766e+01 7.653173133730888367e-01 -5.356214564759227414e-01
-1.312922000885009766e+01 8.798192664980888367e-01 -4.613264125306102414e-01
-2.439521121978759766e+01 -1.394678428769111633e-01 -6.528242152649852414e-01
-2.456647586822509766e+01 -3.864160850644111633e-01 -6.477735560852977414e-01
-1.507502079010009766e+01 1.434506766498088837e+00 -4.559553187806102414e-01
-1.443427371978759766e+01 1.316342703998088837e+00 -4.419172328431102414e-01
-1.461420536041259766e+01 1.178159110248088837e+00 -4.402387660462352414e-01
-1.466230106353759766e+01 1.042294852435588837e+00 -4.362867396790477414e-01
-1.486005496978759766e+01 8.969091102480888367e-01 -4.343183558899852414e-01
-1.313080692291259766e+01 8.816503211855888367e-01 -4.069288295227977414e-01
-1.744574832916259766e+01 4.186376258730888367e-01 -4.574964564759227414e-01
-1.349005985260009766e+01 6.117528602480888367e-01 -4.028547328431102414e-01
-1.130780887603759766e+01 1.510678641498088837e+00 -3.542097133118602414e-01
-1.155390262603759766e+01 1.403622977435588837e+00 -3.531568568665477414e-01
-1.181281375885009766e+01 1.291074149310588837e+00 -3.520582240540477414e-01
-1.208625125885009766e+01 1.172177664935588837e+00 -3.508985560852977414e-01
-1.237360477447509766e+01 1.047177664935588837e+00 -3.496625941712352414e-01
-1.267694950103759766e+01 9.152196571230888367e-01 -3.483808558899852414e-01
-1.299897098541259766e+01 7.752050086855888367e-01 -3.470075648743602414e-01
-1.332074832916259766e+01 6.289647743105888367e-01 -3.454206508118602414e-01
-1.118805789947509766e+01 1.514584891498088837e+00 -3.073957484681102414e-01
-1.142878055572509766e+01 1.408994071185588837e+00 -3.054426234681102414e-01
-1.168122196197509766e+01 1.297910086810588837e+00 -3.031385463196727414e-01
-1.197577762603759766e+01 1.179379813373088837e+00 -3.008344691712352414e-01
-1.229206180572509766e+01 1.053769461810588837e+00 -2.984388392884227414e-01
-1.262799930572509766e+01 9.204686805605888367e-01 -2.958753627259227414e-01
-1.298676395416259766e+01 7.781346961855888367e-01 -2.931440394837352414e-01
-1.335016727447509766e+01 6.283544227480888367e-01 -2.898939174134227414e-01
-1.122333621978759766e+01 1.515561453998088837e+00 -2.620924037415477414e-01
-1.149518680572509766e+01 1.408627860248088837e+00 -2.587812465149852414e-01
-1.178278446197509766e+01 1.295712821185588837e+00 -2.552717250306102414e-01
-1.208832645416259766e+01 1.175595633685588837e+00 -2.515485804993602414e-01
-1.241144657135009766e+01 1.048520438373088837e+00 -2.476270717102977414e-01
-1.275483036041259766e+01 9.136327430605888367e-01 -2.434461635071727414e-01
-1.307819461822509766e+01 7.727636024355888367e-01 -2.390211146790477414e-01
-1.339423465728759766e+01 6.265233680605888367e-01 -2.343824428040477414e-01
-1.129767704010009766e+01 1.515683524310588837e+00 -2.160871547181102414e-01
-1.153827762603759766e+01 1.408994071185588837e+00 -2.118452113587352414e-01
-1.179047489166259766e+01 1.297055594623088837e+00 -2.071455043274852414e-01
-1.205658817291259766e+01 1.178891532123088837e+00 -2.021711390931102414e-01
-1.233588504791259766e+01 1.054868094623088837e+00 -1.969526332337352414e-01
-1.263031864166259766e+01 9.240087196230888367e-01 -1.914594691712352414e-01
-1.294233036041259766e+01 7.854589149355888367e-01 -1.856306117493602414e-01
-1.325629520416259766e+01 6.408055946230888367e-01 -1.792829554993602414e-01
-1.120002079010009766e+01 1.519101493060588837e+00 -1.710584681946727414e-01
-1.143537235260009766e+01 1.413632743060588837e+00 -1.655195277649852414e-01
-1.168232059478759766e+01 1.302914969623088837e+00 -1.597059291321727414e-01
-1.195588016510009766e+01 1.185483328998088837e+00 -1.534650844056102414e-01
-1.228791141510009766e+01 1.059506766498088837e+00 -1.464613002259227414e-01
-1.264154911041259766e+01 9.252294227480888367e-01 -1.390150111634227414e-01
-1.302057743072509766e+01 7.813085243105888367e-01 -1.310346644837352414e-01
-1.340302371978759766e+01 6.296971961855888367e-01 -1.227491420227977414e-01
-1.118952274322509766e+01 1.520932547748088837e+00 -1.255872767884227414e-01
-1.147394657135009766e+01 1.414121024310588837e+00 -1.183088344056102414e-01
-1.177484989166259766e+01 1.301083914935588837e+00 -1.108472865540477414e-01
-1.209638309478759766e+01 1.180478446185588837e+00 -1.026380580384227414e-01
-1.243732547760009766e+01 1.052548758685588837e+00 -9.391003069467274145e-02
-2.604450321197509766e+01 6.039969623088836670e-03 1.073381382506397586e-01
-1.761957645416259766e+01 4.210790321230888367e-01 -8.445553155610241447e-03
-2.461408329010009766e+01 -3.633447960019111633e-01 1.040880161803272586e-01
-1.131086063385009766e+01 1.520200125873088837e+00 -7.794933733529774145e-02
-1.705817508697509766e+01 1.255917899310588837e+00 2.687854352407725855e-02
-1.614240360260009766e+01 1.134213797748088837e+00 1.610583844595225855e-02
-1.582624149322509766e+01 1.000913016498088837e+00 1.570910993032725855e-02
-1.478107547760009766e+01 9.170507118105888367e-01 1.396365789702258553e-03
-1.592633914947509766e+01 7.037938758730888367e-01 2.819079938345225855e-02
-1.771637821197509766e+01 4.161962196230888367e-01 6.838244977407725855e-02
-1.753778934478759766e+01 2.675145789980888367e-01 7.123584332876475855e-02
-1.195063114166259766e+01 7.280858680605888367e-01 -9.750135463196727414e-01
-1.196942996978759766e+01 6.188329383730888367e-01 -9.729383510071727414e-01
-1.198261356353759766e+01 5.097020789980888367e-01 -9.707410853821727414e-01
-1.199579715728759766e+01 3.995946571230888367e-01 -9.685285609681102414e-01
-1.200910282135009766e+01 2.893651649355888367e-01 -9.663007777649852414e-01
-1.202253055572509766e+01 1.785253211855888367e-01 -9.640729945618602414e-01
-1.203595829010009766e+01 6.670891493558883667e-02 -9.618299525696727414e-01
-1.204377079010009766e+01 -4.425299912691116333e-02 -9.594648402649852414e-01
-1.303376102447509766e+01 6.305516883730888367e-01 -9.939954799134227414e-01
-1.306720829010009766e+01 5.089696571230888367e-01 -9.926527064759227414e-01
-1.310700321197509766e+01 3.858007118105888367e-01 -9.913709681946727414e-01
-1.314118289947509766e+01 2.617772743105888367e-01 -9.900129359681102414e-01
-1.317560672760009766e+01 1.371434852480888367e-01 -9.886396449524852414e-01
-1.321027469635009766e+01 1.153313368558883667e-02 -9.872510951477977414e-01
-1.323017215728759766e+01 -1.133447960019111633e-01 -9.852064174134227414e-01
-1.324567508697509766e+01 -2.377344444394111633e-01 -9.825971644837352414e-01
-1.422284793853759766e+01 5.237401649355888367e-01 -1.009147457452485241e+00
-1.431708621978759766e+01 3.840917274355888367e-01 -1.010780147882172741e+00
-1.440876102447509766e+01 2.426122352480888367e-01 -1.012183956475922741e+00
-1.450226688385009766e+01 9.820305556058883667e-02 -1.013603023858735241e+00
-1.459699344635009766e+01 -4.815924912691116333e-02 -1.015052608819672741e+00
-1.462165164947509766e+01 -1.868311241269111633e-01 -1.012443355889985241e+00
-1.464252567291259766e+01 -3.262354210019111633e-01 -1.009574703546235241e+00
-1.466352176666259766e+01 -4.660059288144111633e-01 -1.006690792413422741e+00
-1.728083133697509766e+01 2.466405555605888367e-01 -1.114478878350922741e+00
-1.659211063385009766e+01 1.556981727480888367e-01 -1.072273067804047741e+00
-1.619220829010009766e+01 4.607903212308883667e-02 -1.046287350030610241e+00
-1.598371219635009766e+01 -7.965338975191116333e-02 -1.030647091241547741e+00
-1.608405399322509766e+01 -2.417627647519111633e-01 -1.031425289483735241e+00
-1.567926883697509766e+01 -3.345362022519111633e-01 -1.005653194757172741e+00
-1.633442020416259766e+01 -5.811182335019111633e-01 -1.035316280694672741e+00
-1.653608036041259766e+01 -7.673975303769111633e-01 -1.041480831475922741e+00
-1.745905399322509766e+01 2.330907508730888367e-01 -1.049156002374360241e+00
-1.964289188385009766e+01 -1.504541710019111633e-01 -1.151145748468110241e+00
-1.813691043853759766e+01 -1.677881553769111633e-01 -1.072105221124360241e+00
-1.990436649322509766e+01 -5.531641319394111633e-01 -1.152320675225922741e+00
-2.003827762603759766e+01 -7.592188194394111633e-01 -1.152931026788422741e+00
-1.567060184478759766e+01 -3.307520225644111633e-01 -9.385145228821727414e-01
-1.892902469635009766e+01 -9.725977256894111633e-01 -1.088523678155610241e+00
-1.606891727447509766e+01 -6.889063194394111633e-01 -9.482038539368602414e-01
-1.977814579010009766e+01 2.483879774808883667e-02 -1.078330807061860241e+00
-1.989411258697509766e+01 -1.726709678769111633e-01 -1.077171139093110241e+00
-2.002753543853759766e+01 -3.749414756894111633e-01 -1.077140621514985241e+00
-2.016352176666259766e+01 -5.813623741269111633e-01 -1.077110103936860241e+00
-1.810749149322509766e+01 -5.023828819394111633e-01 -9.818494838196727414e-01
-1.567182254791259766e+01 -3.284326866269111633e-01 -8.715284388977977414e-01
-2.305695438385009766e+01 -1.595644600689411163e+00 -1.182731441827485241e+00
-1.606342411041259766e+01 -6.854883506894111633e-01 -8.792646449524852414e-01
-2.002851200103759766e+01 5.185477435588836670e-03 -1.002738766046235241e+00
-2.015094852447509766e+01 -1.953760460019111633e-01 -1.001563839288422741e+00
-1.808820438385009766e+01 -1.565576866269111633e-01 -9.141462367493602414e-01
-2.289618778228759766e+01 -9.088770225644111633e-01 -1.096702389093110241e+00
-1.812445926666259766e+01 -5.016504600644111633e-01 -9.046400111634227414e-01
-1.567377567291259766e+01 -3.262354210019111633e-01 -8.049390834290477414e-01
-2.584296512603759766e+01 -2.013979561626911163e+00 -1.187949947686860241e+00
-1.572614383697509766e+01 -6.282373741269111633e-01 -7.975080531556102414e-01
-2.053424930572509766e+01 -3.741706162691116333e-02 -9.343641322571727414e-01
-2.293976688385009766e+01 -4.729639366269111633e-01 -1.012595943780610241e+00
-1.806391239166259766e+01 -1.510645225644111633e-01 -8.353345912415477414e-01
-2.318720340728759766e+01 -9.402490928769111633e-01 -1.006324581475922741e+00
-2.590143680572509766e+01 -1.517519600689411163e+00 -1.091728023858735241e+00
-1.567585086822509766e+01 -3.239160850644111633e-01 -7.379835170227977414e-01
-2.435492801666259766e+01 -1.784365303814411163e+00 -1.024207882257172741e+00
-1.576264286041259766e+01 -6.315332725644111633e-01 -7.316358607727977414e-01
-1.768427371978759766e+01 2.236913368105888367e-01 -7.573926967102977414e-01
-1.594818973541259766e+01 2.334569618105888367e-01 -6.989667933899852414e-01
-1.803986454010009766e+01 -1.454492881894111633e-01 -7.571790736634227414e-01
-2.473297977447509766e+01 -1.123110421001911163e+00 -9.512556117493602414e-01
-1.815851688385009766e+01 -5.003076866269111633e-01 -7.494276088196727414e-01
-1.567792606353759766e+01 -3.217188194394111633e-01 -6.713941615540477414e-01
-2.433893680572509766e+01 -1.777895577251911163e+00 -9.161909144837352414e-01
-1.579963016510009766e+01 -6.349512413144111633e-01 -6.651075404602977414e-01
-1.762616825103759766e+01 2.316259071230888367e-01 -6.803968471009227414e-01
-2.486603641510009766e+01 -6.589990928769111633e-01 -8.623884242493602414e-01
-1.801581668853759766e+01 -1.399561241269111633e-01 -6.792676967102977414e-01
-2.447602176666259766e+01 -1.088076241314411163e+00 -8.364790004212352414e-01
-1.817560672760009766e+01 -4.995752647519111633e-01 -6.718061488587352414e-01
-1.567987918853759766e+01 -3.195215538144111633e-01 -6.047895472962352414e-01
-2.475226688385009766e+01 -1.836245186626911163e+00 -8.193128627259227414e-01
-1.583649539947509766e+01 -6.382471397519111633e-01 -5.986097377259227414e-01
-1.756818485260009766e+01 2.396825477480888367e-01 -6.035535853821727414e-01
-2.442890262603759766e+01 -6.111475303769111633e-01 -7.438734096009227414e-01
-1.799176883697509766e+01 -1.344629600644111633e-01 -6.011884730774852414e-01
-1.571479129791259766e+01 -2.948249131441116333e-02 -5.485151332337352414e-01
-1.571442508697509766e+01 -1.754785850644111633e-01 -5.435102504212352414e-01
-1.568195438385009766e+01 -3.172022178769111633e-01 -5.378339808899852414e-01
-1.625360965728759766e+01 -5.503565147519111633e-01 -5.439680140931102414e-01
-1.587372684478759766e+01 -6.416651085019111633e-01 -5.314405482727977414e-01
-2.456635379791259766e+01 -3.872705772519111633e-01 -6.477430385071727414e-01
-1.579950809478759766e+01 2.557958289980888367e-01 -4.934766810852977414e-01
-1.581672000885009766e+01 1.078466102480888367e-01 -4.886701625306102414e-01
-2.439301395416259766e+01 -1.070131905376911163e+00 -6.204145472962352414e-01
-1.585126590728759766e+01 -1.907373741269111633e-01 -4.789350551087352414e-01
-1.568402957916259766e+01 -3.150049522519111633e-01 -4.712293666321727414e-01
-1.624945926666259766e+01 -5.470606163144111633e-01 -4.745405238587352414e-01
-1.591108036041259766e+01 -6.450830772519111633e-01 -4.642866176087352414e-01
-1.349250125885009766e+01 6.111425086855888367e-01 -4.028699916321727414e-01
-1.384296512603759766e+01 4.535497352480888367e-01 -4.027479213196727414e-01
-1.421613407135009766e+01 2.861913368105888367e-01 -4.029310267884227414e-01
-1.461359500885009766e+01 1.076024696230888367e-01 -4.028089564759227414e-01
-1.503571414947509766e+01 -8.209479600191116333e-02 -4.026563685852977414e-01
-1.548664188385009766e+01 -2.847315147519111633e-01 -4.025190394837352414e-01
-1.590912723541259766e+01 -4.931055381894111633e-01 -4.013593715149852414e-01
-1.594867801666259766e+01 -6.485010460019111633e-01 -3.964613002259227414e-01
-1.332294559478759766e+01 6.283544227480888367e-01 -3.454206508118602414e-01
-1.366339969635009766e+01 4.735692664980888367e-01 -3.436048549134227414e-01
-1.402460575103759766e+01 3.093846961855888367e-01 -3.416669887024852414e-01
-1.443659305572509766e+01 1.311620399355888367e-01 -3.397901576477977414e-01
-1.490180301666259766e+01 -6.231940537691116333e-02 -3.379438441712352414e-01
-1.540241336822509766e+01 -2.704492881894111633e-01 -3.359602015931102414e-01
-1.588288211822509766e+01 -4.866358116269111633e-01 -3.334730189759227414e-01
-1.598627567291259766e+01 -6.519190147519111633e-01 -3.286512416321727414e-01
-1.335273075103759766e+01 6.277440711855888367e-01 -2.898939174134227414e-01
-1.373981571197509766e+01 4.680761024355888367e-01 -2.868421596009227414e-01
-1.415424442291259766e+01 2.974218055605888367e-01 -2.832868617493602414e-01
-1.460004520416259766e+01 1.138280555605888367e-01 -2.794569056946727414e-01
-1.505634403228759766e+01 -8.001960068941116333e-02 -2.753065150696727414e-01
-1.549909305572509766e+01 -2.815576866269111633e-01 -2.708051722962352414e-01
-1.591559696197509766e+01 -4.889551475644111633e-01 -2.659071010071727414e-01
-1.645307254791259766e+01 -7.241846397519111633e-01 -2.603986781556102414e-01
-1.339643192291259766e+01 6.257909461855888367e-01 -2.343671840149852414e-01
-1.373395633697509766e+01 4.707616493105888367e-01 -2.292402308899852414e-01
-1.409174442291259766e+01 3.064550086855888367e-01 -2.238233607727977414e-01
-1.447284793853759766e+01 1.312841102480888367e-01 -2.180402797181102414e-01
-1.487714481353759766e+01 -5.438483506441116333e-02 -2.119062465149852414e-01
-1.532770633697509766e+01 -2.550684288144111633e-01 -2.052991908509227414e-01
-1.582489871978759766e+01 -4.728418663144111633e-01 -1.981428187806102414e-01
-1.585859012603759766e+01 -6.262842491269111633e-01 -1.925123256165477414e-01
-1.325849246978759766e+01 6.401952430605888367e-01 -1.792676967102977414e-01
-1.363617801666259766e+01 4.826024696230888367e-01 -1.726148646790477414e-01
-1.406537723541259766e+01 3.114598914980888367e-01 -1.650159877259227414e-01
-1.452826786041259766e+01 1.270116493105888367e-01 -1.568220179993602414e-01
-1.502558231353759766e+01 -7.123053818941116333e-02 -1.480329554993602414e-01
-1.556305789947509766e+01 -2.854639366269111633e-01 -1.385267299134227414e-01
-1.593048954010009766e+01 -4.860254600644111633e-01 -1.299818080384227414e-01
-1.790400028228759766e+01 -9.507471397519111633e-01 -1.068037074524852414e-01
-1.340583133697509766e+01 6.290868446230888367e-01 -1.227033656556102414e-01
-1.381806278228759766e+01 4.667333289980888367e-01 -1.135023158509227414e-01
-1.673713016510009766e+01 2.239739149808883667e-02 -7.540111956186024145e-02
-2.472528934478759766e+01 -1.085878975689411163e+00 2.472705426626475855e-02
-1.844526004791259766e+01 -5.109278038144111633e-01 -4.264049944467274145e-02
-1.590143680572509766e+01 -3.301416710019111633e-01 -6.793957171029774145e-02
-1.622443485260009766e+01 -5.274072960019111633e-01 -5.805187639779774145e-02
-1.793073368072509766e+01 -9.520899131894111633e-01 -2.945690569467274145e-02
-2.461396121978759766e+01 -3.640772178769111633e-01 1.041185337584522586e-01
-2.507087039947509766e+01 -6.432520225644111633e-01 1.203538853209522586e-01
-2.575617313385009766e+01 -9.569727256894111633e-01 1.400224644225147586e-01
-1.773517704010009766e+01 -2.500635460019111633e-01 1.816577496938975855e-02
-2.805573368072509766e+01 -1.748598702251911163e+00 1.978685337584522586e-01
-1.640033817291259766e+01 -3.970362022519111633e-01 8.171268133452258553e-03
-1.801300907135009766e+01 -7.919336631894111633e-01 4.291553082876475855e-02
-1.782953739166259766e+01 -9.329248741269111633e-01 4.622668805532725855e-02
-1.753656864166259766e+01 2.670262977480888367e-01 7.123584332876475855e-02
-2.491596317291259766e+01 -6.239649131894111633e-01 2.265397984068897586e-01
-3.226972293853759766e+01 -1.660830147564411163e+00 3.875963169615772586e-01
-1.619892215728759766e+01 -6.463874131441116333e-02 6.206531110220225855e-02
-2.805036258697509766e+01 -1.743227608501911163e+00 3.219072300475147586e-01
-1.634894657135009766e+01 -3.872705772519111633e-01 7.723254743032725855e-02
-1.565607547760009766e+01 -4.373194053769111633e-01 6.789416852407725855e-02
-1.597162723541259766e+01 -6.338526085019111633e-01 8.115405621938975855e-02
-1.204389286041259766e+01 -4.461921006441116333e-02 -9.594648402649852414e-01
-1.207318973541259766e+01 -1.598535850644111633e-01 -9.582899135071727414e-01
-1.209870243072509766e+01 -2.754541710019111633e-01 -9.570997279602977414e-01
-1.212445926666259766e+01 -3.925196006894111633e-01 -9.559095424134227414e-01
-1.215033817291259766e+01 -5.100733116269111633e-01 -9.547193568665477414e-01
-1.217646121978759766e+01 -6.287256553769111633e-01 -9.534986537415477414e-01
-1.220295047760009766e+01 -7.488428428769111633e-01 -9.522779506165477414e-01
-1.222333621978759766e+01 -8.681055381894111633e-01 -9.509199183899852414e-01
-1.324579715728759766e+01 -2.382227256894111633e-01 -9.825971644837352414e-01
-1.325641727447509766e+01 -3.624903038144111633e-01 -9.799879115540477414e-01
-1.327423954010009766e+01 -4.888330772519111633e-01 -9.775159877259227414e-01
-1.328498172760009766e+01 -6.150537803769111633e-01 -9.748609584290477414e-01
-1.329572391510009766e+01 -7.415186241269111633e-01 -9.722211879212352414e-01
-1.330646610260009766e+01 -8.688379600644111633e-01 -9.695508998352977414e-01
-1.331012821197509766e+01 -9.955469444394111633e-01 -9.667280238587352414e-01
-1.333405399322509766e+01 -1.127260811626911163e+00 -9.648054164368602414e-01
-1.466364383697509766e+01 -4.663721397519111633e-01 -1.006690792413422741e+00
-1.467743778228759766e+01 -6.057764366269111633e-01 -1.003715328546235241e+00
-1.469135379791259766e+01 -7.459131553769111633e-01 -1.000724605889985241e+00
-1.470526981353759766e+01 -8.873926475644111633e-01 -9.976881068665477414e-01
-1.471930789947509766e+01 -1.029360421001911163e+00 -9.946668666321727414e-01
-1.475397586822509766e+01 -1.176455147564411163e+00 -9.927442592102977414e-01
-1.479389286041259766e+01 -1.326479561626911163e+00 -9.910657924134227414e-01
-1.483405399322509766e+01 -1.477480538189411163e+00 -9.893720668274852414e-01
-1.653754520416259766e+01 -7.681299522519111633e-01 -1.041541866632172741e+00
-1.665802860260009766e+01 -9.450098350644111633e-01 -1.042945675225922741e+00
-1.672297000885009766e+01 -1.114931710064411163e+00 -1.041801266046235241e+00
-1.671247196197509766e+01 -1.272646553814411163e+00 -1.036750606866547741e+00
-1.670197391510009766e+01 -1.430361397564411163e+00 -1.031699947686860241e+00
-1.670832157135009766e+01 -1.591982491314411163e+00 -1.027488521905610241e+00
-1.673029422760009766e+01 -1.758364327251911163e+00 -1.024009517999360241e+00
-1.674237918853759766e+01 -1.923159249126911163e+00 -1.020423702569672741e+00
-1.606672000885009766e+01 -6.891504600644111633e-01 -9.480817836243602414e-01
-1.880329227447509766e+01 -1.312075264751911163e+00 -1.071784786554047741e+00
-1.827692508697509766e+01 -1.395937569439411163e+00 -1.042045406671235241e+00
-1.914423465728759766e+01 -1.739077217876911163e+00 -1.077003292413422741e+00
-1.944611454010009766e+01 -1.985415108501911163e+00 -1.085471920343110241e+00
-1.941730594635009766e+01 -2.168032296001911163e+00 -1.078651241632172741e+00
-1.945124149322509766e+01 -2.365542061626911163e+00 -1.074653438897797741e+00
-1.948529911041259766e+01 -2.563906319439411163e+00 -1.070640377374360241e+00
-1.606122684478759766e+01 -6.856104210019111633e-01 -8.791578334290477414e-01
-2.589362430572509766e+01 -2.529604561626911163e+00 -1.288551143975922741e+00
-1.827936649322509766e+01 -1.393252022564411163e+00 -9.624708217102977414e-01
-2.366083621978759766e+01 -2.606508858501911163e+00 -1.180595211358735241e+00
-2.340216922760009766e+01 -2.785708077251911163e+00 -1.162986568780610241e+00
-2.314850711822509766e+01 -2.961367256939411163e+00 -1.145698360772797741e+00
-2.305939579010009766e+01 -3.170351631939411163e+00 -1.135200313897797741e+00
-2.315839481353759766e+01 -3.421572335064411163e+00 -1.132880977960297741e+00
-1.572528934478759766e+01 -6.286035850644111633e-01 -7.974470179993602414e-01
-2.622016239166259766e+01 -2.581362374126911163e+00 -1.186256222100922741e+00
-1.828180789947509766e+01 -1.390566475689411163e+00 -8.833082240540477414e-01
-2.915436649322509766e+01 -3.660463936626911163e+00 -1.278465084405610241e+00
-3.188398075103759766e+01 -4.502993233501911163e+00 -1.369239620538422741e+00
-3.209467411041259766e+01 -4.865908272564411163e+00 -1.367027096124360241e+00
-2.358515262603759766e+01 -3.283877022564411163e+00 -1.051734737725922741e+00
-2.963446903228759766e+01 -4.934633858501911163e+00 -1.259589962335297741e+00
-1.576191043853759766e+01 -6.318994835019111633e-01 -7.316053431946727414e-01
-1.563446903228759766e+01 -7.581201866269111633e-01 -7.227094691712352414e-01
-1.828412723541259766e+01 -1.387880928814411163e+00 -8.037183803040477414e-01
-3.213276004791259766e+01 -4.228457100689411163e+00 -1.243339351983735241e+00
-3.581525516510009766e+01 -5.294375069439411163e+00 -1.350349239679047741e+00
-3.564789676666259766e+01 -5.617495186626911163e+00 -1.333656124444672741e+00
-2.358808231353759766e+01 -3.280336983501911163e+00 -9.470441859681102414e-01
-4.209333133697509766e+01 -7.845888741314411163e+00 -1.510444454522797741e+00
-1.579877567291259766e+01 -6.353174522519111633e-01 -6.650770228821727414e-01
-1.567084598541259766e+01 -7.617822960019111633e-01 -6.566083949524852414e-01
-1.828656864166259766e+01 -1.385317452251911163e+00 -7.245405238587352414e-01
-4.018927860260009766e+01 -5.771547921001911163e+00 -1.320655636163422741e+00
-4.313678836822509766e+01 -6.771303780376911163e+00 -1.387489132257172741e+00
-4.956244754791259766e+01 -8.574404366314411163e+00 -1.545478634210297741e+00
-2.359101200103759766e+01 -3.276796944439411163e+00 -8.417890590149852414e-01
-5.781794071197509766e+01 -1.151605475693941116e+01 -1.728019527764985241e+00
-1.583564090728759766e+01 -6.386133506894111633e-01 -5.985792201477977414e-01
-1.570722293853759766e+01 -7.654444053769111633e-01 -5.905530971009227414e-01
-1.828901004791259766e+01 -1.382631905376911163e+00 -6.453779262024852414e-01
-3.635004520416259766e+01 -5.027163155376911163e+00 -1.051444820733735241e+00
-4.574677371978759766e+01 -7.291811592876911163e+00 -1.250343136163422741e+00
-4.537177371978759766e+01 -7.673769600689411163e+00 -1.226539425225922741e+00
-2.359394168853759766e+01 -3.273256905376911163e+00 -7.370985072571727414e-01
-2.627582645416259766e+01 -4.133608467876911163e+00 -7.866743129212352414e-01
-1.587299442291259766e+01 -6.420313194394111633e-01 -5.314100306946727414e-01
-1.574396610260009766e+01 -7.691065147519111633e-01 -5.238264125306102414e-01
-1.829145145416259766e+01 -1.379946358501911163e+00 -5.657728236634227414e-01
-3.612226200103759766e+01 -4.976992256939411163e+00 -8.827741664368602414e-01
-4.658612918853759766e+01 -7.453310616314411163e+00 -1.056205562921235241e+00
-4.545319461822509766e+01 -7.682802803814411163e+00 -1.020271114679047741e+00
-2.359687137603759766e+01 -3.269716866314411163e+00 -6.318433803040477414e-01
-2.627912235260009766e+01 -4.129580147564411163e+00 -6.685255092102977414e-01
-1.591022586822509766e+01 -6.454492881894111633e-01 -4.642561000306102414e-01
-1.578058719635009766e+01 -7.727686241269111633e-01 -4.571302455384227414e-01
-1.829389286041259766e+01 -1.377260811626911163e+00 -4.865949672181102414e-01
-1.667646121978759766e+01 -1.243105538189411163e+00 -4.586256068665477414e-01
-1.996344852447509766e+01 -2.066347725689411163e+00 -4.960096400696727414e-01
-2.119745731353759766e+01 -2.522402413189411163e+00 -5.048444789368602414e-01
-2.291767215728759766e+01 -3.114077217876911163e+00 -5.187147181946727414e-01
-2.539801883697509766e+01 -3.919252999126911163e+00 -5.404279750306102414e-01
-1.594782352447509766e+01 -6.488672569394111633e-01 -3.964307826477977414e-01
-1.568305301666259766e+01 -7.534815147519111633e-01 -3.884809535462352414e-01
-1.770722293853759766e+01 -1.268007881939411163e+00 -4.020307582337352414e-01
-1.668634891510009766e+01 -1.242251046001911163e+00 -3.868940394837352414e-01
-1.970697879791259766e+01 -2.011171944439411163e+00 -4.065321010071727414e-01
-2.097370243072509766e+01 -2.471254952251911163e+00 -4.097822230774852414e-01
-2.309198856353759766e+01 -3.148867256939411163e+00 -4.179914515931102414e-01
-2.566413211822509766e+01 -3.976626046001911163e+00 -4.283674281556102414e-01
-1.598554325103759766e+01 -6.522852256894111633e-01 -3.286359828431102414e-01
-1.720026493072509766e+01 -1.009951241314411163e+00 -3.289564174134227414e-01
-1.794806766510009766e+01 -1.308535225689411163e+00 -3.262403529602977414e-01
-1.669635868072509766e+01 -1.241274483501911163e+00 -3.147199672181102414e-01
-1.640204715728759766e+01 -1.341250069439411163e+00 -3.077009242493602414e-01
-2.085785770416259766e+01 -2.442934639751911163e+00 -3.167036097962352414e-01
-2.269196414947509766e+01 -3.055727608501911163e+00 -3.145063441712352414e-01
-2.597663211822509766e+01 -4.044863350689411163e+00 -3.145673793274852414e-01
-1.645697879791259766e+01 -7.252832725644111633e-01 -2.603834193665477414e-01
-1.703949832916259766e+01 -9.796778038144111633e-01 -2.549970668274852414e-01
-1.766962528228759766e+01 -1.255190499126911163e+00 -2.487409633118602414e-01
-1.670624637603759766e+01 -1.240297921001911163e+00 -2.428510707337352414e-01
-1.644794559478759766e+01 -1.347719796001911163e+00 -2.370374721009227414e-01
-6.843598270416259766e+01 -1.251874030381441116e+01 -1.607587855774852414e-01
-6.218183231353759766e+01 -1.183038581162691116e+01 -1.450117152649852414e-01
-2.674665164947509766e+01 -4.219423897564411163e+00 -1.962354701477977414e-01
-1.584955692291259766e+01 -6.253076866269111633e-01 -1.925275844056102414e-01
-1.721088504791259766e+01 -1.006044991314411163e+00 -1.806715053040477414e-01
-1.678974246978759766e+01 -1.093325264751911163e+00 -1.763685267884227414e-01
-1.671625614166259766e+01 -1.239443428814411163e+00 -1.705091517884227414e-01
-1.649445438385009766e+01 -1.354311592876911163e+00 -1.655653041321727414e-01
-1.650226688385009766e+01 -1.513735421001911163e+00 -1.593702357727977414e-01
-6.811420536041259766e+01 -1.313666022568941116e+01 1.803972202818897586e-01
-2.674677371978759766e+01 -4.214541085064411163e+00 -7.660656389779774145e-02
-1.790473270416259766e+01 -9.514795616269111633e-01 -1.067731898743602414e-01
-1.783710575103759766e+01 -1.109804756939411163e+00 -1.010358851868602414e-01
-1.629059696197509766e+01 -1.000429756939411163e+00 -1.089857142884227414e-01
-1.672614383697509766e+01 -1.238466866314411163e+00 -9.848766741342274145e-02
-1.654096317291259766e+01 -1.360781319439411163e+00 -9.404735979623524145e-02
-1.654889774322509766e+01 -1.520815499126911163e+00 -8.766918596811024145e-02
-6.846247196197509766e+01 -1.320135749131441116e+01 4.975664097350147586e-01
-2.674689579010009766e+01 -4.209780342876911163e+00 4.363269391470225855e-02
-1.793085575103759766e+01 -9.527002647519111633e-01 -2.942638811654774145e-02
-1.550214481353759766e+01 -7.097803428769111633e-01 -5.593090471811024145e-02
-1.609491825103759766e+01 -9.623438194394111633e-01 -4.158764299936024145e-02
-1.631513309478759766e+01 -1.157290108501911163e+00 -3.215771135873524145e-02
-1.658796024322509766e+01 -1.367495186626911163e+00 -2.173595842904774145e-02
-6.850116825103759766e+01 -1.249493659287691116e+01 7.861101109068897586e-01
-5.918549442291259766e+01 -1.113165534287691116e+01 6.669237095397022586e-01
-1.698493289947509766e+01 -1.938295967876911163e+00 4.203982977202258553e-03
-1.782819461822509766e+01 -9.332910850644111633e-01 4.622668805532725855e-02
-1.566425418853759766e+01 -7.348047569394111633e-01 1.338977399282725855e-02
-1.681293582916259766e+01 -1.089052803814411163e+00 4.077930036001475855e-02
-1.753669071197509766e+01 -1.387148506939411163e+00 6.137866559438975855e-02
-1.663495731353759766e+01 -1.374086983501911163e+00 5.060596051626475855e-02
-1.664325809478759766e+01 -1.534975655376911163e+00 5.739612164907725855e-02
-5.516022586822509766e+01 -1.022894538193941116e+01 8.568498570006397586e-01
-2.674726200103759766e+01 -4.200136788189411163e+00 2.833787876647022586e-01
-1.787983036041259766e+01 -9.386621788144111633e-01 1.244127232115772586e-01
-1.580597782135009766e+01 -7.561670616269111633e-01 8.336658063345225855e-02
-1.682026004791259766e+01 -1.087465889751911163e+00 1.135179478209522586e-01
-1.743988895416259766e+01 -1.365786202251911163e+00 1.351549107115772586e-01
-7.149115848541259766e+01 -1.237250006943941116e+01 1.459633060125639759e+00
-1.662397098541259766e+01 -1.528139717876911163e+00 1.291124302428272586e-01
-1.726227664947509766e+01 -1.829653389751911163e+00 1.520311314147022586e-01
-1.694074344635009766e+01 -1.922060616314411163e+00 1.512529331725147586e-01
-1.222370243072509766e+01 -8.685938194394111633e-01 -9.509351771790477414e-01
-1.224909305572509766e+01 -9.900537803769111633e-01 -9.496686976868602414e-01
-1.225934696197509766e+01 -1.108828194439411163e+00 -9.476850551087352414e-01
-1.225873661041259766e+01 -1.225893624126911163e+00 -9.449995082337352414e-01
-1.225812625885009766e+01 -1.343203194439411163e+00 -9.422987025696727414e-01
-1.225751590728759766e+01 -1.461123116314411163e+00 -9.395826381165477414e-01
-1.225690555572509766e+01 -1.580141671001911163e+00 -9.368513148743602414e-01
-1.224945926666259766e+01 -1.697207100689411163e+00 -9.339674037415477414e-01
-1.333442020416259766e+01 -1.127749092876911163e+00 -9.648206752259227414e-01
-1.336176395416259766e+01 -1.261416085064411163e+00 -9.634016078431102414e-01
-1.339716434478759766e+01 -1.398378975689411163e+00 -9.621198695618602414e-01
-1.342524051666259766e+01 -1.535219796001911163e+00 -9.606855433899852414e-01
-1.345356082916259766e+01 -1.673037178814411163e+00 -9.592206996399852414e-01
-1.348212528228759766e+01 -1.812197335064411163e+00 -9.577558558899852414e-01
-1.347968387603759766e+01 -1.943911202251911163e+00 -9.547651332337352414e-01
-1.348554325103759766e+01 -2.078432686626911163e+00 -9.519422572571727414e-01
-1.483454227447509766e+01 -1.478090889751911163e+00 -9.893873256165477414e-01
-1.486725711822509766e+01 -1.628847725689411163e+00 -9.875867885071727414e-01
-1.488568973541259766e+01 -1.777407296001911163e+00 -9.849775355774852414e-01
-1.489411258697509766e+01 -1.924868233501911163e+00 -9.817884486634227414e-01
-1.490619754791259766e+01 -2.073916085064411163e+00 -9.787824672181102414e-01
-1.494770145416259766e+01 -2.232363350689411163e+00 -9.773176234681102414e-01
-1.498981571197509766e+01 -2.393252022564411163e+00 -9.758375209290477414e-01
