-1.158642494678497314e+01 1.018843755125999451e+00 -9.761202432215156932e-01
-1.160668861865997314e+01 9.102011770009994507e-01 -9.741060830652656932e-01
-1.162109291553497314e+01 8.020468801259994507e-01 -9.719698525965156932e-01
-1.315283119678497314e+01 1.518355473875999451e+00 -1.046585331112140693e+00
-1.303259193897247314e+01 1.400557622313499451e+00 -1.034881839901203193e+00
-1.292004311084747314e+01 1.284712895750999451e+00 -1.023437748104328193e+00
-1.278723061084747314e+01 1.171553716063499451e+00 -1.011062870174640693e+00
-1.265771400928497314e+01 1.061202153563499451e+00 -9.989779092371406932e-01
-1.263049232959747314e+01 9.459677785634994507e-01 -9.935000039637031932e-01
-1.266430580615997314e+01 8.257285207509994507e-01 -9.921877481043281932e-01
-1.270397865772247314e+01 7.046347707509994507e-01 -9.909365274012031932e-01
-1.406310951709747314e+01 1.500777348875999451e+00 -1.045608768612140693e+00
-1.391418373584747314e+01 1.374800786375999451e+00 -1.032394657284015693e+00
-1.396459877490997314e+01 1.243453130125999451e+00 -1.031280765682453193e+00
-1.376476967334747314e+01 1.123213872313499451e+00 -1.015121708065265693e+00
-1.365356361865997314e+01 1.001998052000999451e+00 -1.004379520565265693e+00
-1.278564369678497314e+01 9.368125051259994507e-01 -9.489138223230781932e-01
-1.377648842334747314e+01 7.371054738759994507e-01 -1.003418216854328193e+00
-1.389269936084747314e+01 5.978232473134994507e-01 -1.006088504940265693e+00
-1.422558510303497314e+01 1.499434575438499451e+00 -9.945681191980781932e-01
-1.385363686084747314e+01 1.378829106688499451e+00 -9.691622354090156932e-01
-1.412573158740997314e+01 1.238936528563499451e+00 -9.801027871668281932e-01
-1.410681068897247314e+01 1.107833012938499451e+00 -9.747774697840156932e-01
-1.403979408740997314e+01 9.803916066884994507e-01 -9.668428994715156932e-01
-1.278723061084747314e+01 9.386435598134994507e-01 -8.942415811121406932e-01
-1.701867592334747314e+01 4.758750051259994507e-01 -1.119903812557453193e+00
-1.695165932178497314e+01 3.208457082509994507e-01 -1.111465702205890693e+00
-1.406286537647247314e+01 1.504927739500999451e+00 -9.249117471277656932e-01
-1.428649818897247314e+01 1.367476567625999451e+00 -9.321138955652656932e-01
-1.420898354053497314e+01 1.237593755125999451e+00 -9.238131143152656932e-01
-1.412744057178497314e+01 1.108931645750999451e+00 -9.153597451746406932e-01
-1.490002357959747314e+01 9.300986379384994507e-01 -9.499056436121406932e-01
-1.278881752490997314e+01 9.404746145009994507e-01 -8.398592568933906932e-01
-1.719738686084747314e+01 4.640341848134994507e-01 -1.054794559627765693e+00
-1.712988197803497314e+01 3.072959035634994507e-01 -1.046158085018390693e+00
-1.398120033740997314e+01 1.508711919188499451e+00 -8.609163857996406932e-01
-1.435204994678497314e+01 1.367598637938499451e+00 -8.736269570887031932e-01
-1.752197182178497314e+01 1.104415044188499451e+00 -1.016083011776203193e+00
-1.415978920459747314e+01 1.109419927000999451e+00 -8.559725381433906932e-01
-1.413378822803497314e+01 9.790488332509994507e-01 -8.504335977137031932e-01
-1.279040443897247314e+01 9.423056691884994507e-01 -7.851870156824531932e-01
-1.773925697803497314e+01 4.228964895009994507e-01 -1.004013309627765693e+00
-1.944787514209747314e+01 9.916602075099945068e-02 -1.075256595760578193e+00
-1.420739662647247314e+01 1.506148442625999451e+00 -8.104250527918281932e-01
-1.604125893115997314e+01 1.317793950438499451e+00 -8.831942178308906932e-01
-1.425085365772247314e+01 1.240157231688499451e+00 -8.034670449793281932e-01
-1.420727455615997314e+01 1.109175786375999451e+00 -7.972567178308906932e-01
-1.418115150928497314e+01 9.783164113759994507e-01 -7.917788125574531932e-01
-1.279199135303497314e+01 9.441367238759994507e-01 -7.308046914637031932e-01
-1.960461342334747314e+01 2.750693410634994507e-01 -1.002121219784015693e+00
-1.969824135303497314e+01 7.951270043849945068e-02 -9.996798135340156932e-01
-1.383227455615997314e+01 1.516036137938499451e+00 -7.354433633387031932e-01
-1.429650795459747314e+01 1.373580083250999451e+00 -7.485659219324531932e-01
-1.441039955615997314e+01 1.235884770750999451e+00 -7.480166055262031932e-01
-1.845251381397247314e+01 8.967734426259994507e-01 -8.921969033777656932e-01
-1.423303139209747314e+01 9.773398488759994507e-01 -7.325441934168281932e-01
-1.279357826709747314e+01 9.460898488759994507e-01 -6.761171914637031932e-01
-1.750146400928497314e+01 4.476767629384994507e-01 -8.410036660730781932e-01
-2.019897377490997314e+01 3.739844262599945068e-02 -9.311373330652656932e-01
-1.377026283740997314e+01 1.519332036375999451e+00 -6.740114785730781932e-01
-1.368469154834747314e+01 1.394209966063499451e+00 -6.669161416590156932e-01
-1.433007729053497314e+01 1.241255864500999451e+00 -6.836245156824531932e-01
-1.687927162647247314e+01 9.789267629384994507e-01 -7.611849404871406932e-01
-1.428710854053497314e+01 9.762412160634994507e-01 -6.732485391199531932e-01
-1.279504311084747314e+01 9.479209035634994507e-01 -6.217348672449531932e-01
-2.126318275928497314e+01 1.478720754384994507e-01 -8.817751504480781932e-01
-1.735473549365997314e+01 2.977744191884994507e-01 -7.543642617762031932e-01
-1.370922768115997314e+01 1.522627934813499451e+00 -6.135103799402656932e-01
-1.364086830615997314e+01 1.397627934813499451e+00 -6.072695352137031932e-01
-1.437878334522247314e+01 1.241500005125999451e+00 -6.236116982996406932e-01
-1.435217201709747314e+01 1.108443364500999451e+00 -6.183016397058906932e-01
-1.434155189990997314e+01 9.751425832509994507e-01 -6.134798623621406932e-01
-1.279663002490997314e+01 9.497519582509994507e-01 -5.673525430262031932e-01
-1.728857338428497314e+01 4.702597707509994507e-01 -6.827089883387031932e-01
-1.729663002490997314e+01 3.058310598134994507e-01 -6.773684121668281932e-01
-1.366027748584747314e+01 1.525557622313499451e+00 -5.535585977137031932e-01
-1.625915443897247314e+01 1.320967778563499451e+00 -6.107485391199531932e-01
-1.441247475147247314e+01 1.242354497313499451e+00 -5.624697305262031932e-01
-1.438110268115997314e+01 1.109175786375999451e+00 -5.571444131433906932e-01
-1.666650307178497314e+01 8.378134816884994507e-01 -6.043093301355781932e-01
-1.279821693897247314e+01 9.515830129384994507e-01 -5.126650430262031932e-01
-1.723058998584747314e+01 4.777060598134994507e-01 -6.059267617762031932e-01
-1.723864662647247314e+01 3.137656301259994507e-01 -6.005251504480781932e-01
-1.361657631397247314e+01 1.528487309813499451e+00 -4.944918252527656932e-01
-1.446935951709747314e+01 1.376875981688499451e+00 -5.064241982996406932e-01
-1.442687904834747314e+01 1.243941411375999451e+00 -5.009920693933906932e-01
-1.439440834522247314e+01 1.110640630125999451e+00 -4.957583047449531932e-01
-1.668957436084747314e+01 8.389121145009994507e-01 -5.325777627527656932e-01
-1.279980385303497314e+01 9.534140676259994507e-01 -4.582827188074531932e-01
-2.406579506397247314e+01 -6.587304174900054932e-02 -6.497805215418281932e-01
-2.423705971240997314e+01 -3.128212839365005493e-01 -6.447298623621406932e-01
-1.474560463428497314e+01 1.508101567625999451e+00 -4.529116250574531932e-01
-1.410485756397247314e+01 1.389937505125999451e+00 -4.388735391199531932e-01
-1.428478920459747314e+01 1.251753911375999451e+00 -4.371950723230781932e-01
-1.433288490772247314e+01 1.115889653563499451e+00 -4.332430459558906932e-01
-1.453063881397247314e+01 9.705039113759994507e-01 -4.312746621668281932e-01
-1.280139076709747314e+01 9.552451223134994507e-01 -4.038851357996406932e-01
-1.711633217334747314e+01 4.922324270009994507e-01 -4.544527627527656932e-01
-1.316064369678497314e+01 6.853476613759994507e-01 -3.998110391199531932e-01
-1.097839272022247314e+01 1.584273442625999451e+00 -3.511660195887031932e-01
-1.122448647022247314e+01 1.477217778563499451e+00 -3.501131631433906932e-01
-1.148339760303497314e+01 1.364668950438499451e+00 -3.490145303308906932e-01
-1.175683510303497314e+01 1.245772466063499451e+00 -3.478548623621406932e-01
-1.204418861865997314e+01 1.120772466063499451e+00 -3.466189004480781932e-01
-1.234753334522247314e+01 9.888144582509994507e-01 -3.453371621668281932e-01
-1.266955482959747314e+01 8.487998098134994507e-01 -3.439638711512031932e-01
-1.299133217334747314e+01 7.025595754384994507e-01 -3.423769570887031932e-01
-1.085864174365997314e+01 1.588179692625999451e+00 -3.043520547449531932e-01
-1.109936439990997314e+01 1.482588872313499451e+00 -3.023989297449531932e-01
-1.135180580615997314e+01 1.371504887938499451e+00 -3.000948525965156932e-01
-1.164636147022247314e+01 1.252974614500999451e+00 -2.977907754480781932e-01
-1.196264564990997314e+01 1.127364262938499451e+00 -2.953951455652656932e-01
-1.229858314990997314e+01 9.940634816884994507e-01 -2.928316690027656932e-01
-1.265734779834747314e+01 8.517294973134994507e-01 -2.901003457605781932e-01
-1.302075111865997314e+01 7.019492238759994507e-01 -2.868502236902656932e-01
-1.089392006397247314e+01 1.589156255125999451e+00 -2.590487100183906932e-01
-1.116577064990997314e+01 1.482222661375999451e+00 -2.557375527918281932e-01
-1.145336830615997314e+01 1.369307622313499451e+00 -2.522280313074531932e-01
-1.175891029834747314e+01 1.249190434813499451e+00 -2.485048867762031932e-01
-1.208203041553497314e+01 1.122115239500999451e+00 -2.445833779871406932e-01
-1.242541420459747314e+01 9.872275441884994507e-01 -2.404024697840156932e-01
-1.274877846240997314e+01 8.463584035634994507e-01 -2.359774209558906932e-01
-1.306481850147247314e+01 7.001181691884994507e-01 -2.313387490808906932e-01
-1.096826088428497314e+01 1.589278325438499451e+00 -2.130434609949531932e-01
-1.120886147022247314e+01 1.482588872313499451e+00 -2.088015176355781932e-01
-1.146105873584747314e+01 1.370650395750999451e+00 -2.041018106043281932e-01
-1.172717201709747314e+01 1.252486333250999451e+00 -1.991274453699531932e-01
-1.200646889209747314e+01 1.128462895750999451e+00 -1.939089395105781932e-01
-1.230090248584747314e+01 9.976035207509994507e-01 -1.884157754480781932e-01
-1.261291420459747314e+01 8.590537160634994507e-01 -1.825869180262031932e-01
-1.292687904834747314e+01 7.144003957509994507e-01 -1.762392617762031932e-01
-1.087060463428497314e+01 1.592696294188499451e+00 -1.680147744715156932e-01
-1.110595619678497314e+01 1.487227544188499451e+00 -1.624758340418281932e-01
-1.135290443897247314e+01 1.376509770750999451e+00 -1.566622354090156932e-01
-1.162646400928497314e+01 1.259078130125999451e+00 -1.504213906824531932e-01
-1.195849525928497314e+01 1.133101567625999451e+00 -1.434176065027656932e-01
-1.231213295459747314e+01 9.988242238759994507e-01 -1.359713174402656932e-01
-1.269116127490997314e+01 8.549033254384994507e-01 -1.279909707605781932e-01
-1.307360756397247314e+01 7.032919973134994507e-01 -1.197054482996406932e-01
-1.086010658740997314e+01 1.594527348875999451e+00 -1.225435830652656932e-01
-1.114453041553497314e+01 1.487715825438499451e+00 -1.152651406824531932e-01
-1.144543373584747314e+01 1.374678716063499451e+00 -1.078035928308906932e-01
-1.176696693897247314e+01 1.254073247313499451e+00 -9.959436431526569322e-02
-1.210790932178497314e+01 1.126143559813499451e+00 -9.086633697151569322e-02
-2.571508705615997314e+01 7.963477075099945068e-02 1.103818319737968068e-01
-1.729016029834747314e+01 4.946738332509994507e-01 -5.401859432453193222e-03
-2.428466713428497314e+01 -2.897499948740005493e-01 1.071317099034843068e-01
-1.098144447803497314e+01 1.593794927000999451e+00 -7.490564361214069322e-02
-1.672875893115997314e+01 1.329512700438499451e+00 2.992223724723430678e-02
-1.581298744678497314e+01 1.207808598875999451e+00 1.914953216910930678e-02
-1.549682533740997314e+01 1.074507817625999451e+00 1.875280365348430678e-02
-1.445165932178497314e+01 9.906455129384994507e-01 4.440059512859306778e-03
-1.559692299365997314e+01 7.773886770009994507e-01 3.123449310660930678e-02
-1.738696205615997314e+01 4.897910207509994507e-01 7.142614349723430678e-02
-1.720837318897247314e+01 3.411093801259994507e-01 7.427953705192180678e-02
-1.162121498584747314e+01 8.016806691884994507e-01 -9.719698525965156932e-01
-1.164001381397247314e+01 6.924277395009994507e-01 -9.698946572840156932e-01
-1.165319740772247314e+01 5.832968801259994507e-01 -9.676973916590156932e-01
-1.166638100147247314e+01 4.731894582509994507e-01 -9.654848672449531932e-01
-1.167968666553497314e+01 3.629599660634994507e-01 -9.632570840418281932e-01
-1.169311439990997314e+01 2.521201223134994507e-01 -9.610293008387031932e-01
-1.170654213428497314e+01 1.403037160634994507e-01 -9.587862588465156932e-01
-1.171435463428497314e+01 2.934180200099945068e-02 -9.564211465418281932e-01
-1.270434486865997314e+01 7.041464895009994507e-01 -9.909517861902656932e-01
-1.273779213428497314e+01 5.825644582509994507e-01 -9.896090127527656932e-01
-1.277758705615997314e+01 4.593955129384994507e-01 -9.883272744715156932e-01
-1.281176674365997314e+01 3.353720754384994507e-01 -9.869692422449531932e-01
-1.284619057178497314e+01 2.107382863759994507e-01 -9.855959512293281932e-01
-1.288085854053497314e+01 8.512793481349945068e-02 -9.842074014246406932e-01
-1.290075600147247314e+01 -3.974999487400054932e-02 -9.821627236902656932e-01
-1.291625893115997314e+01 -1.641396433115005493e-01 -9.795534707605781932e-01
-1.389343178272247314e+01 5.973349660634994507e-01 -1.006103763729328193e+00
-1.398767006397247314e+01 4.576865285634994507e-01 -1.007736454159015693e+00
-1.407934486865997314e+01 3.162070363759994507e-01 -1.009140262752765693e+00
-1.417285072803497314e+01 1.717978566884994507e-01 -1.010559330135578193e+00
-1.426757729053497314e+01 2.543555200099945068e-02 -1.012008915096515693e+00
-1.429223549365997314e+01 -1.132363229990005493e-01 -1.009399662166828193e+00
-1.431310951709747314e+01 -2.526406198740005493e-01 -1.006531009823078193e+00
-1.433410561084747314e+01 -3.924111276865005493e-01 -1.003647098690265693e+00
-1.695141518115997314e+01 3.202353566884994507e-01 -1.111435184627765693e+00
-1.626269447803497314e+01 2.292929738759994507e-01 -1.069229374080890693e+00
-1.586279213428497314e+01 1.196738332509994507e-01 -1.043243656307453193e+00
-1.565429604053497314e+01 -6.058588624000549316e-03 -1.027603397518390693e+00
-1.575463783740997314e+01 -1.681679636240005493e-01 -1.028381595760578193e+00
-1.534985268115997314e+01 -2.609414011240005493e-01 -1.002609501034015693e+00
-1.600500404834747314e+01 -5.075234323740005493e-01 -1.032272586971515693e+00
-1.620666420459747314e+01 -6.938027292490005493e-01 -1.038437137752765693e+00
-1.712963783740997314e+01 3.066855520009994507e-01 -1.046112308651203193e+00
-1.931347572803497314e+01 -7.685936987400054932e-02 -1.148102054744953193e+00
-1.780749428272247314e+01 -9.419335424900054932e-02 -1.069061527401203193e+00
-1.957495033740997314e+01 -4.795693308115005493e-01 -1.149276981502765693e+00
-1.970886147022247314e+01 -6.856240183115005493e-01 -1.149887333065265693e+00
-1.534118568897247314e+01 -2.571572214365005493e-01 -9.354708291590156932e-01
-1.859960854053497314e+01 -8.990029245615005493e-01 -1.085479984432453193e+00
-1.573950111865997314e+01 -6.153115183115005493e-01 -9.451601602137031932e-01
-1.944872963428497314e+01 9.843359887599945068e-02 -1.075287113338703193e+00
-1.956469643115997314e+01 -9.907616674900054932e-02 -1.074127445369953193e+00
-1.969811928272247314e+01 -3.013466745615005493e-01 -1.074096927791828193e+00
-1.983410561084747314e+01 -5.077675729990005493e-01 -1.074066410213703193e+00
-1.777807533740997314e+01 -4.287880808115005493e-01 -9.788057900965156932e-01
-1.534240639209747314e+01 -2.548378854990005493e-01 -8.684847451746406932e-01
-2.272753822803497314e+01 -1.522049799561500549e+00 -1.179687748104328193e+00
-1.573400795459747314e+01 -6.118935495615005493e-01 -8.762209512293281932e-01
-1.969909584522247314e+01 7.878027856349945068e-02 -9.996950723230781932e-01
-1.982153236865997314e+01 -1.217812448740005493e-01 -9.985201455652656932e-01
-1.775878822803497314e+01 -8.296288549900054932e-02 -9.111025430262031932e-01
-2.256677162647247314e+01 -8.352822214365005493e-01 -1.093658695369953193e+00
-1.779504311084747314e+01 -4.280556589365005493e-01 -9.015963174402656932e-01
-1.534435951709747314e+01 -2.526406198740005493e-01 -8.018953897058906932e-01
-2.551354897022247314e+01 -1.940384760499000549e+00 -1.184906253963703193e+00
-1.539672768115997314e+01 -5.546425729990005493e-01 -7.944643594324531932e-01
-2.020483314990997314e+01 3.617773950099945068e-02 -9.313204385340156932e-01
-2.261035072803497314e+01 -3.993691354990005493e-01 -1.009552250057453193e+00
-1.773449623584747314e+01 -7.746972143650054932e-02 -8.322908975183906932e-01
-2.285778725147247314e+01 -8.666542917490005493e-01 -1.003280887752765693e+00
-2.557202064990997314e+01 -1.443924799561500549e+00 -1.088684330135578193e+00
-1.534643471240997314e+01 -2.503212839365005493e-01 -7.349398232996406932e-01
-2.402551186084747314e+01 -1.710770502686500549e+00 -1.021164188534015693e+00
-1.543322670459747314e+01 -5.579384714365005493e-01 -7.285921670496406932e-01
-1.735485756397247314e+01 2.972861379384994507e-01 -7.543490029871406932e-01
-1.561877357959747314e+01 3.070517629384994507e-01 -6.959230996668281932e-01
-1.771044838428497314e+01 -7.185448706150054932e-02 -7.541353799402656932e-01
-2.440356361865997314e+01 -1.049515619874000549e+00 -9.482119180262031932e-01
-1.782910072803497314e+01 -4.267128854990005493e-01 -7.463839150965156932e-01
-1.534850990772247314e+01 -2.481240183115005493e-01 -6.683504678308906932e-01
-2.400952064990997314e+01 -1.704300776124000549e+00 -9.131472207605781932e-01
-1.547021400928497314e+01 -5.613564401865005493e-01 -6.620638467371406932e-01
-1.729675209522247314e+01 3.052207082509994507e-01 -6.773531533777656932e-01
-2.453662025928497314e+01 -5.854042917490005493e-01 -8.593447305262031932e-01
-1.768640053272247314e+01 -6.636132299900054932e-02 -6.762240029871406932e-01
-2.414660561084747314e+01 -1.014481440186500549e+00 -8.334353066980781932e-01
-1.784619057178497314e+01 -4.259804636240005493e-01 -6.687624551355781932e-01
-1.535046303272247314e+01 -2.459267526865005493e-01 -6.017458535730781932e-01
-2.442285072803497314e+01 -1.762650385499000549e+00 -8.162691690027656932e-01
-1.550707924365997314e+01 -5.646523386240005493e-01 -5.955660440027656932e-01
-1.723876869678497314e+01 3.132773488759994507e-01 -6.005098916590156932e-01
-2.409948647022247314e+01 -5.375527292490005493e-01 -7.408297158777656932e-01
-1.766235268115997314e+01 -6.086815893650054932e-02 -5.981447793543281932e-01
-1.538537514209747314e+01 4.411230981349945068e-02 -5.454714395105781932e-01
-1.538500893115997314e+01 -1.018837839365005493e-01 -5.404665566980781932e-01
-1.535253822803497314e+01 -2.436074167490005493e-01 -5.347902871668281932e-01
-1.592419350147247314e+01 -4.767617136240005493e-01 -5.409243203699531932e-01
-1.554431068897247314e+01 -5.680703073740005493e-01 -5.283968545496406932e-01
-2.423693764209747314e+01 -3.136757761240005493e-01 -6.446993447840156932e-01
-1.547009193897247314e+01 3.293906301259994507e-01 -4.904329873621406932e-01
-1.548730385303497314e+01 1.814414113759994507e-01 -4.856264688074531932e-01
-2.406359779834747314e+01 -9.965371042490005493e-01 -6.173708535730781932e-01
-1.552184975147247314e+01 -1.171425729990005493e-01 -4.758913613855781932e-01
-1.535461342334747314e+01 -2.414101511240005493e-01 -4.681856729090156932e-01
-1.592004311084747314e+01 -4.734658151865005493e-01 -4.714968301355781932e-01
-1.558166420459747314e+01 -5.714882761240005493e-01 -4.612429238855781932e-01
-1.316308510303497314e+01 6.847373098134994507e-01 -3.998262979090156932e-01
-1.351354897022247314e+01 5.271445363759994507e-01 -3.997042275965156932e-01
-1.388671791553497314e+01 3.597861379384994507e-01 -3.998873330652656932e-01
-1.428417885303497314e+01 1.811972707509994507e-01 -3.997652627527656932e-01
-1.470629799365997314e+01 -8.499994874000549316e-03 -3.996126748621406932e-01
-1.515722572803497314e+01 -2.111367136240005493e-01 -3.994753457605781932e-01
-1.557971107959747314e+01 -4.195107370615005493e-01 -3.983156777918281932e-01
-1.561926186084747314e+01 -5.749062448740005493e-01 -3.934176065027656932e-01
-1.299352943897247314e+01 7.019492238759994507e-01 -3.423769570887031932e-01
-1.333398354053497314e+01 5.471640676259994507e-01 -3.405611611902656932e-01
-1.369518959522247314e+01 3.829794973134994507e-01 -3.386232949793281932e-01
-1.410717689990997314e+01 2.047568410634994507e-01 -3.367464639246406932e-01
-1.457238686084747314e+01 1.127539575099945068e-02 -3.349001504480781932e-01
-1.507299721240997314e+01 -1.968544870615005493e-01 -3.329165078699531932e-01
-1.555346596240997314e+01 -4.130410104990005493e-01 -3.304293252527656932e-01
-1.565685951709747314e+01 -5.783242136240005493e-01 -3.256075479090156932e-01
-1.302331459522247314e+01 7.013388723134994507e-01 -2.868502236902656932e-01
-1.341039955615997314e+01 5.416709035634994507e-01 -2.837984658777656932e-01
-1.382482826709747314e+01 3.710166066884994507e-01 -2.802431680262031932e-01
-1.427062904834747314e+01 1.874228566884994507e-01 -2.764132119715156932e-01
-1.472692787647247314e+01 -6.424799561500549316e-03 -2.722628213465156932e-01
-1.516967689990997314e+01 -2.079628854990005493e-01 -2.677614785730781932e-01
-1.558618080615997314e+01 -4.153603464365005493e-01 -2.628634072840156932e-01
-1.612365639209747314e+01 -6.505898386240005493e-01 -2.573549844324531932e-01
-1.306701576709747314e+01 6.993857473134994507e-01 -2.313234902918281932e-01
-1.340454018115997314e+01 5.443564504384994507e-01 -2.261965371668281932e-01
-1.376232826709747314e+01 3.800498098134994507e-01 -2.207796670496406932e-01
-1.414343178272247314e+01 2.048789113759994507e-01 -2.149965859949531932e-01
-1.454772865772247314e+01 1.920996606349945068e-02 -2.088625527918281932e-01
-1.499829018115997314e+01 -1.814736276865005493e-01 -2.022554971277656932e-01
-1.549548256397247314e+01 -3.992470651865005493e-01 -1.950991250574531932e-01
-1.552917397022247314e+01 -5.526894479990005493e-01 -1.894686318933906932e-01
-1.292907631397247314e+01 7.137900441884994507e-01 -1.762240029871406932e-01
-1.330676186084747314e+01 5.561972707509994507e-01 -1.695711709558906932e-01
-1.373596107959747314e+01 3.850546926259994507e-01 -1.619722940027656932e-01
-1.419885170459747314e+01 2.006064504384994507e-01 -1.537783242762031932e-01
-1.469616615772247314e+01 2.364262938499450684e-03 -1.449892617762031932e-01
-1.523364174365997314e+01 -2.118691354990005493e-01 -1.354830361902656932e-01
-1.560107338428497314e+01 -4.124306589365005493e-01 -1.269381143152656932e-01
-1.757458412647247314e+01 -8.771523386240005493e-01 -1.037600137293281932e-01
-1.307641518115997314e+01 7.026816457509994507e-01 -1.196596719324531932e-01
-1.348864662647247314e+01 5.403281301259994507e-01 -1.104586221277656932e-01
-1.640771400928497314e+01 9.599219262599945068e-02 -7.235742583870319322e-02
-2.439587318897247314e+01 -1.012284174561500549e+00 2.777074798942180678e-02
-1.811584389209747314e+01 -4.373330026865005493e-01 -3.959680572151569322e-02
-1.557202064990997314e+01 -2.565468698740005493e-01 -6.489587798714069322e-02
-1.589501869678497314e+01 -4.538124948740005493e-01 -5.500818267464069322e-02
-1.760131752490997314e+01 -8.784951120615005493e-01 -2.641321197151569322e-02
-2.428454506397247314e+01 -2.904824167490005493e-01 1.071622274816093068e-01
-2.474145424365997314e+01 -5.696572214365005493e-01 1.233975790441093068e-01
-2.542675697803497314e+01 -8.833779245615005493e-01 1.430661581456718068e-01
-1.740576088428497314e+01 -1.764687448740005493e-01 2.120946869254680678e-02
-2.772631752490997314e+01 -1.675003901124000549e+00 2.009122274816093068e-01
-1.607092201709747314e+01 -3.234414011240005493e-01 1.121496185660930678e-02
-1.768359291553497314e+01 -7.183388620615005493e-01 4.595922455192180678e-02
-1.750012123584747314e+01 -8.593300729990005493e-01 4.927038177848430678e-02
-1.720715248584747314e+01 3.406210988759994507e-01 7.427953705192180678e-02
-2.458654701709747314e+01 -5.503701120615005493e-01 2.295834921300468068e-01
-3.194030678272247314e+01 -1.587235346436500549e+00 3.906400106847343068e-01
-1.586950600147247314e+01 8.956059813499450684e-03 6.510900482535930678e-02
-2.772094643115997314e+01 -1.669632807374000549e+00 3.249509237706718068e-01
-1.601953041553497314e+01 -3.136757761240005493e-01 8.027624115348430678e-02
-1.532665932178497314e+01 -3.637246042490005493e-01 7.093786224723430678e-02
-1.564221107959747314e+01 -5.602578073740005493e-01 8.419774994254680678e-02
-1.171447670459747314e+01 2.897559106349945068e-02 -9.564211465418281932e-01
-1.174377357959747314e+01 -8.625878393650054932e-02 -9.552462197840156932e-01
-1.176928627490997314e+01 -2.018593698740005493e-01 -9.540560342371406932e-01
-1.179504311084747314e+01 -3.189247995615005493e-01 -9.528658486902656932e-01
-1.182092201709747314e+01 -4.364785104990005493e-01 -9.516756631433906932e-01
-1.184704506397247314e+01 -5.551308542490005493e-01 -9.504549600183906932e-01
-1.187353432178497314e+01 -6.752480417490005493e-01 -9.492342568933906932e-01
-1.189392006397247314e+01 -7.945107370615005493e-01 -9.478762246668281932e-01
-1.291638100147247314e+01 -1.646279245615005493e-01 -9.795534707605781932e-01
-1.292700111865997314e+01 -2.888955026865005493e-01 -9.769442178308906932e-01
-1.294482338428497314e+01 -4.152382761240005493e-01 -9.744722940027656932e-01
-1.295556557178497314e+01 -5.414589792490005493e-01 -9.718172647058906932e-01
-1.296630775928497314e+01 -6.679238229990005493e-01 -9.691774941980781932e-01
-1.297704994678497314e+01 -7.952431589365005493e-01 -9.665072061121406932e-01
-1.298071205615997314e+01 -9.219521433115005493e-01 -9.636843301355781932e-01
-1.300463783740997314e+01 -1.053666010499000549e+00 -9.617617227137031932e-01
-1.433422768115997314e+01 -3.927773386240005493e-01 -1.003647098690265693e+00
-1.434802162647247314e+01 -5.321816354990005493e-01 -1.000671634823078193e+00
-1.436193764209747314e+01 -6.723183542490005493e-01 -9.976809121668281932e-01
-1.437585365772247314e+01 -8.137978464365005493e-01 -9.946444131433906932e-01
-1.438989174365997314e+01 -9.557656198740005493e-01 -9.916231729090156932e-01
-1.442455971240997314e+01 -1.102860346436500549e+00 -9.897005654871406932e-01
-1.446447670459747314e+01 -1.252884760499000549e+00 -9.880220986902656932e-01
-1.450463783740997314e+01 -1.403885737061500549e+00 -9.863283731043281932e-01
-1.620812904834747314e+01 -6.945351511240005493e-01 -1.038498172909015693e+00
-1.632861244678497314e+01 -8.714150339365005493e-01 -1.039901981502765693e+00
-1.639355385303497314e+01 -1.041336908936500549e+00 -1.038757572323078193e+00
-1.638305580615997314e+01 -1.199051752686500549e+00 -1.033706913143390693e+00
-1.637255775928497314e+01 -1.356766596436500549e+00 -1.028656253963703193e+00
-1.637890541553497314e+01 -1.518387690186500549e+00 -1.024444828182453193e+00
-1.640087807178497314e+01 -1.684769526124000549e+00 -1.020965824276203193e+00
-1.641296303272247314e+01 -1.849564447999000549e+00 -1.017380008846515693e+00
-1.573730385303497314e+01 -6.155556589365005493e-01 -9.450380899012031932e-01
-1.847387611865997314e+01 -1.238480463624000549e+00 -1.068741092830890693e+00
-1.794750893115997314e+01 -1.322342768311500549e+00 -1.039001712948078193e+00
-1.881481850147247314e+01 -1.665482416749000549e+00 -1.073959598690265693e+00
-1.911669838428497314e+01 -1.911820307374000549e+00 -1.082428226619953193e+00
-1.908788979053497314e+01 -2.094437494874000549e+00 -1.075607547909015693e+00
-1.912182533740997314e+01 -2.291947260499000549e+00 -1.071609745174640693e+00
-1.915588295459747314e+01 -2.490311518311500549e+00 -1.067596683651203193e+00
-1.573181068897247314e+01 -6.120156198740005493e-01 -8.761141397058906932e-01
-2.556420814990997314e+01 -2.456009760499000549e+00 -1.285507450252765693e+00
-1.794995033740997314e+01 -1.319657221436500549e+00 -9.594271279871406932e-01
-2.333142006397247314e+01 -2.532914057374000549e+00 -1.177551517635578193e+00
-2.307275307178497314e+01 -2.712113276124000549e+00 -1.159942875057453193e+00
-2.281909096240997314e+01 -2.887772455811500549e+00 -1.142654667049640693e+00
-2.272997963428497314e+01 -3.096756830811500549e+00 -1.132156620174640693e+00
-2.282897865772247314e+01 -3.347977533936500549e+00 -1.129837284237140693e+00
-1.539587318897247314e+01 -5.550087839365005493e-01 -7.944033242762031932e-01
-2.589074623584747314e+01 -2.507767572999000549e+00 -1.183212528377765693e+00
-1.795239174365997314e+01 -1.316971674561500549e+00 -8.802645303308906932e-01
-2.882495033740997314e+01 -3.586869135499000549e+00 -1.275421390682453193e+00
-3.155456459522247314e+01 -4.429398432374000549e+00 -1.366195926815265693e+00
-3.176525795459747314e+01 -4.792313471436500549e+00 -1.363983402401203193e+00
-2.325573647022247314e+01 -3.210282221436500549e+00 -1.048691044002765693e+00
-2.930505287647247314e+01 -4.861039057374000549e+00 -1.256546268612140693e+00
-1.543249428272247314e+01 -5.583046823740005493e-01 -7.285616494715156932e-01
-1.530505287647247314e+01 -6.845253854990005493e-01 -7.196657754480781932e-01
-1.795471107959747314e+01 -1.314286127686500549e+00 -8.006746865808906932e-01
-3.180334389209747314e+01 -4.154862299561500549e+00 -1.240295658260578193e+00
-3.548583900928497314e+01 -5.220780268311500549e+00 -1.347305545955890693e+00
-3.531848061084747314e+01 -5.543900385499000549e+00 -1.330612430721515693e+00
-2.325866615772247314e+01 -3.206742182374000549e+00 -9.440004922449531932e-01
-4.176391518115997314e+01 -7.772293940186500549e+00 -1.507400760799640693e+00
-1.546935951709747314e+01 -5.617226511240005493e-01 -6.620333291590156932e-01
-1.534142982959747314e+01 -6.881874948740005493e-01 -6.535647012293281932e-01
-1.795715248584747314e+01 -1.311722651124000549e+00 -7.214968301355781932e-01
-3.985986244678497314e+01 -5.697953119874000549e+00 -1.317611942440265693e+00
-4.280737221240997314e+01 -6.697708979249000549e+00 -1.384445438534015693e+00
-4.923303139209747314e+01 -8.500809565186500549e+00 -1.542434940487140693e+00
-2.326159584522247314e+01 -3.203202143311500549e+00 -8.387453652918281932e-01
-5.748852455615997314e+01 -1.144245995581150055e+01 -1.724975834041828193e+00
-1.550622475147247314e+01 -5.650185495615005493e-01 -5.955355264246406932e-01
-1.537780678272247314e+01 -6.918496042490005493e-01 -5.875094033777656932e-01
-1.795959389209747314e+01 -1.309037104249000549e+00 -6.423342324793281932e-01
-3.602062904834747314e+01 -4.953568354249000549e+00 -1.048401127010578193e+00
-4.541735756397247314e+01 -7.218216791749000549e+00 -1.247299442440265693e+00
-4.504235756397247314e+01 -7.600174799561500549e+00 -1.223495731502765693e+00
-2.326452553272247314e+01 -3.199662104249000549e+00 -7.340548135340156932e-01
-2.594641029834747314e+01 -4.060013666749000549e+00 -7.836306191980781932e-01
-1.554357826709747314e+01 -5.684365183115005493e-01 -5.283663369715156932e-01
-1.541454994678497314e+01 -6.955117136240005493e-01 -5.207827188074531932e-01
-1.796203529834747314e+01 -1.306351557374000549e+00 -5.627291299402656932e-01
-3.579284584522247314e+01 -4.903397455811500549e+00 -8.797304727137031932e-01
-4.625671303272247314e+01 -7.379715815186500549e+00 -1.053161869198078193e+00
-4.512377846240997314e+01 -7.609208002686500549e+00 -1.017227420955890693e+00
-2.326745522022247314e+01 -3.196122065186500549e+00 -6.287996865808906932e-01
-2.594970619678497314e+01 -4.055985346436500549e+00 -6.654818154871406932e-01
-1.558080971240997314e+01 -5.718544870615005493e-01 -4.612124063074531932e-01
-1.545117104053497314e+01 -6.991738229990005493e-01 -4.540865518152656932e-01
-1.796447670459747314e+01 -1.303666010499000549e+00 -4.835512734949531932e-01
-1.634704506397247314e+01 -1.169510737061500549e+00 -4.555819131433906932e-01
-1.963403236865997314e+01 -1.992752924561500549e+00 -4.929659463465156932e-01
-2.086804115772247314e+01 -2.448807612061500549e+00 -5.018007852137031932e-01
-2.258825600147247314e+01 -3.040482416749000549e+00 -5.156710244715156932e-01
-2.506860268115997314e+01 -3.845658197999000549e+00 -5.373842813074531932e-01
-1.561840736865997314e+01 -5.752724558115005493e-01 -3.933870889246406932e-01
-1.535363686084747314e+01 -6.798867136240005493e-01 -3.854372598230781932e-01
-1.737780678272247314e+01 -1.194413080811500549e+00 -3.989870645105781932e-01
-1.635693275928497314e+01 -1.168656244874000549e+00 -3.838503457605781932e-01
-1.937756264209747314e+01 -1.937577143311500549e+00 -4.034884072840156932e-01
-2.064428627490997314e+01 -2.397660151124000549e+00 -4.067385293543281932e-01
-2.276257240772247314e+01 -3.075272455811500549e+00 -4.149477578699531932e-01
-2.533471596240997314e+01 -3.903031244874000549e+00 -4.253237344324531932e-01
-1.565612709522247314e+01 -5.786904245615005493e-01 -3.255922891199531932e-01
-1.687084877490997314e+01 -9.363564401865005493e-01 -3.259127236902656932e-01
-1.761865150928497314e+01 -1.234940424561500549e+00 -3.231966592371406932e-01
-1.636694252490997314e+01 -1.167679682374000549e+00 -3.116762734949531932e-01
-1.607263100147247314e+01 -1.267655268311500549e+00 -3.046572305262031932e-01
-2.052844154834747314e+01 -2.369339838624000549e+00 -3.136599160730781932e-01
-2.236254799365997314e+01 -2.982132807374000549e+00 -3.114626504480781932e-01
-2.564721596240997314e+01 -3.971268549561500549e+00 -3.115236856043281932e-01
-1.612756264209747314e+01 -6.516884714365005493e-01 -2.573397256433906932e-01
-1.671008217334747314e+01 -9.060830026865005493e-01 -2.519533731043281932e-01
-1.734020912647247314e+01 -1.181595697999000549e+00 -2.456972695887031932e-01
-1.637683022022247314e+01 -1.166703119874000549e+00 -2.398073770105781932e-01
-1.611852943897247314e+01 -1.274124994874000549e+00 -2.339937783777656932e-01
-6.810656654834747314e+01 -1.244514550268650055e+01 -1.577150918543281932e-01
-6.185241615772247314e+01 -1.175679101049900055e+01 -1.419680215418281932e-01
-2.641723549365997314e+01 -4.145829096436500549e+00 -1.931917764246406932e-01
-1.552014076709747314e+01 -5.517128854990005493e-01 -1.894838906824531932e-01
-1.688146889209747314e+01 -9.324501901865005493e-01 -1.776278115808906932e-01
-1.646032631397247314e+01 -1.019730463624000549e+00 -1.733248330652656932e-01
-1.638683998584747314e+01 -1.165848627686500549e+00 -1.674654580652656932e-01
-1.616503822803497314e+01 -1.280716791749000549e+00 -1.625216104090156932e-01
-1.617285072803497314e+01 -1.440140619874000549e+00 -1.563265420496406932e-01
-6.778478920459747314e+01 -1.306306542456150055e+01 1.834409140050468068e-01
-2.641735756397247314e+01 -4.140946283936500549e+00 -7.356287017464069322e-02
-1.757531654834747314e+01 -8.778847604990005493e-01 -1.037294961512031932e-01
-1.750768959522247314e+01 -1.036209955811500549e+00 -9.799219146370319322e-02
-1.596118080615997314e+01 -9.268349558115005493e-01 -1.059420205652656932e-01
-1.639672768115997314e+01 -1.164872065186500549e+00 -9.544397369026569322e-02
-1.621154701709747314e+01 -1.287186518311500549e+00 -9.100366607307819322e-02
-1.621948158740997314e+01 -1.447220697999000549e+00 -8.462549224495319322e-02
-6.813305580615997314e+01 -1.312776269018650055e+01 5.006101034581718068e-01
-2.641747963428497314e+01 -4.136185541749000549e+00 4.667638763785930678e-02
-1.760143959522247314e+01 -8.791054636240005493e-01 -2.638269439339069322e-02
-1.517272865772247314e+01 -6.361855417490005493e-01 -5.288721099495319322e-02
-1.576550209522247314e+01 -8.887490183115005493e-01 -3.854394927620319322e-02
-1.598571693897247314e+01 -1.083695307374000549e+00 -2.911401763557819322e-02
-1.625854408740997314e+01 -1.293900385499000549e+00 -1.869226470589069322e-02
-6.817175209522247314e+01 -1.242134179174900055e+01 7.891538046300468068e-01
-5.885607826709747314e+01 -1.105806054174900055e+01 6.699674032628593068e-01
-1.665551674365997314e+01 -1.864701166749000549e+00 7.247676700359306778e-03
-1.749877846240997314e+01 -8.596962839365005493e-01 4.927038177848430678e-02
-1.533483803272247314e+01 -6.612099558115005493e-01 1.643346771598430678e-02
-1.648351967334747314e+01 -1.015458002686500549e+00 4.382299408317180678e-02
-1.720727455615997314e+01 -1.313553705811500549e+00 6.442235931754680678e-02
-1.630554115772247314e+01 -1.300492182374000549e+00 5.364965423942180678e-02
-1.631384193897247314e+01 -1.461380854249000549e+00 6.043981537223430678e-02
-5.483080971240997314e+01 -1.015535058081150055e+01 8.598935507237968068e-01
-2.641784584522247314e+01 -4.126541987061500549e+00 2.864224813878593068e-01
-1.755041420459747314e+01 -8.650673776865005493e-01 1.274564169347343068e-01
-1.547656166553497314e+01 -6.825722604990005493e-01 8.641027435660930678e-02
-1.649084389209747314e+01 -1.013871088624000549e+00 1.165616415441093068e-01
-1.711047279834747314e+01 -1.292191401124000549e+00 1.381986044347343068e-01
-7.116174232959747314e+01 -1.229890526831150055e+01 1.462676753848796807e+00
-1.629455482959747314e+01 -1.454544916749000549e+00 1.321561239659843068e-01
-1.693286049365997314e+01 -1.756058588624000549e+00 1.550748251378593068e-01
-1.661132729053497314e+01 -1.848465815186500549e+00 1.542966268956718068e-01
-1.189428627490997314e+01 -7.949990183115005493e-01 -9.478914834558906932e-01
-1.191967689990997314e+01 -9.164589792490005493e-01 -9.466250039637031932e-01
-1.192993080615997314e+01 -1.035233393311500549e+00 -9.446413613855781932e-01
-1.192932045459747314e+01 -1.152298822999000549e+00 -9.419558145105781932e-01
-1.192871010303497314e+01 -1.269608393311500549e+00 -9.392550088465156932e-01
-1.192809975147247314e+01 -1.387528315186500549e+00 -9.365389443933906932e-01
-1.192748939990997314e+01 -1.506546869874000549e+00 -9.338076211512031932e-01
-1.192004311084747314e+01 -1.623612299561500549e+00 -9.309237100183906932e-01
-1.300500404834747314e+01 -1.054154291749000549e+00 -9.617769815027656932e-01
-1.303234779834747314e+01 -1.187821283936500549e+00 -9.603579141199531932e-01
-1.306774818897247314e+01 -1.324784174561500549e+00 -9.590761758387031932e-01
-1.309582436084747314e+01 -1.461624994874000549e+00 -9.576418496668281932e-01
-1.312414467334747314e+01 -1.599442377686500549e+00 -9.561770059168281932e-01
-1.315270912647247314e+01 -1.738602533936500549e+00 -9.547121621668281932e-01
-1.315026772022247314e+01 -1.870316401124000549e+00 -9.517214395105781932e-01
-1.315612709522247314e+01 -2.004837885499000549e+00 -9.488985635340156932e-01
-1.450512611865997314e+01 -1.404496088624000549e+00 -9.863436318933906932e-01
-1.453784096240997314e+01 -1.555252924561500549e+00 -9.845430947840156932e-01
-1.455627357959747314e+01 -1.703812494874000549e+00 -9.819338418543281932e-01
-1.456469643115997314e+01 -1.851273432374000549e+00 -9.787447549402656932e-01
-1.457678139209747314e+01 -2.000321283936500549e+00 -9.757387734949531932e-01
-1.461828529834747314e+01 -2.158768549561500549e+00 -9.742739297449531932e-01
-1.466039955615997314e+01 -2.319657221436500549e+00 -9.727938272058906932e-01
-1.470275795459747314e+01 -2.481888666749000549e+00 -9.712832070887031932e-01
-1.641332924365997314e+01 -1.850174799561500549e+00 -1.017380008846515693e+00
-1.643688881397247314e+01 -2.018631830811500549e+00 -1.013885746151203193e+00
-1.645080482959747314e+01 -2.186112299561500549e+00 -1.010269413143390693e+00
-1.646484291553497314e+01 -2.355301752686500549e+00 -1.006607303768390693e+00
-1.650463783740997314e+01 -2.532303705811500549e+00 -1.004196415096515693e+00
-1.656640541553497314e+01 -2.717362299561500549e+00 -1.002777347713703193e+00
-1.662914955615997314e+01 -2.905594721436500549e+00 -1.001358280330890693e+00
-1.667883217334747314e+01 -3.091385737061500549e+00 -9.996645547449531932e-01
-1.915637123584747314e+01 -2.491043940186500549e+00 -1.067596683651203193e+00
-1.918127357959747314e+01 -2.688675776124000549e+00 -1.063446293026203193e+00
-1.920654213428497314e+01 -2.888016596436500549e+00 -1.059280643612140693e+00
-1.923193275928497314e+01 -3.089676752686500549e+00 -1.055053959041828193e+00
-1.925756752490997314e+01 -3.292313471436500549e+00 -1.050812015682453193e+00
-1.928332436084747314e+01 -3.496537104249000549e+00 -1.046524295955890693e+00
-1.934167397022247314e+01 -3.712845697999000549e+00 -1.043594608455890693e+00
-1.944018471240997314e+01 -3.943192377686500549e+00 -1.042328128963703193e+00
-2.282995522022247314e+01 -3.349076166749000549e+00 -1.129852543026203193e+00
-2.295788490772247314e+01 -3.610550776124000549e+00 -1.127823124080890693e+00
-2.311376869678497314e+01 -3.883255854249000549e+00 -1.127334842830890693e+00
-2.327233803272247314e+01 -4.161942377686500549e+00 -1.126800785213703193e+00
-2.329455482959747314e+01 -4.406815424561500549e+00 -1.120834598690265693e+00
-2.341027748584747314e+01 -4.680374994874000549e+00 -1.118423710018390693e+00
-2.352819740772247314e+01 -4.959061518311500549e+00 -1.115982303768390693e+00
-2.356310951709747314e+01 -5.215287104249000549e+00 -1.110870609432453193e+00
-2.930139076709747314e+01 -4.861283197999000549e+00 -1.256378421932453193e+00
-2.902368080615997314e+01 -5.091507807374000549e+00 -1.237701664119953193e+00
-2.949670326709747314e+01 -5.509232416749000549e+00 -1.245361576229328193e+00
-2.999084389209747314e+01 -5.945389643311500549e+00 -1.253357181698078193e+00
-3.015014564990997314e+01 -6.299881830811500549e+00 -1.249557743221515693e+00
-3.027404701709747314e+01 -6.649369135499000549e+00 -1.244400272518390693e+00
-3.040783607959747314e+01 -7.007279291749000549e+00 -1.239410648494953193e+00
-3.071716225147247314e+01 -7.423050776124000549e+00 -1.240158329159015693e+00
-4.175622475147247314e+01 -7.771927729249000549e+00 -1.507126102596515693e+00
-3.408190834522247314e+01 -6.323685541749000549e+00 -1.259582767635578193e+00
-4.026879799365997314e+01 -8.253006830811500549e+00 -1.434494266659015693e+00
-4.057250893115997314e+01 -8.753250971436500549e+00 -1.430542240291828193e+00
-4.119201576709747314e+01 -9.348099604249000549e+00 -1.435669193416828193e+00
-4.152111732959747314e+01 -9.875199213624000549e+00 -1.431839237362140693e+00
-4.179638588428497314e+01 -1.039717186987400055e+01 -1.427154789119953193e+00
-4.235217201709747314e+01 -1.101277245581150055e+01 -1.429229984432453193e+00
-5.751892006397247314e+01 -1.145161522924900055e+01 -1.725708255916828193e+00
-3.408593666553497314e+01 -6.318192377686500549e+00 -1.102524051815265693e+00
-5.037365639209747314e+01 -1.082246483862400055e+01 -1.505493412166828193e+00
-5.839453041553497314e+01 -1.348079003393650055e+01 -1.689743290096515693e+00
-5.990783607959747314e+01 -1.451301659643650055e+01 -1.707397709041828193e+00
-6.056262123584747314e+01 -1.533454979956150055e+01 -1.702942142635578193e+00
-6.062573158740997314e+01 -1.599958886206150055e+01 -1.683624515682453193e+00
-6.144811928272247314e+01 -1.690181054174900055e+01 -1.682205448299640693e+00
-2.596850502490997314e+01 -4.065995112061500549e+00 -7.840731240808906932e-01
-3.408996498584747314e+01 -6.312821283936500549e+00 -9.462893106043281932e-01
-5.037939369678497314e+01 -1.081440819799900055e+01 -1.271835575252765693e+00
-7.679760658740997314e+01 -1.835566796362400055e+01 -1.791763553768390693e+00
-6.636840736865997314e+01 -1.628572167456150055e+01 -1.556167850643390693e+00
-7.970312416553497314e+01 -2.081477440893650055e+01 -1.794449100643390693e+00
-8.570397865772247314e+01 -2.345527733862400055e+01 -1.881531009823078193e+00
-8.619702064990997314e+01 -2.452790917456150055e+01 -1.860061893612140693e+00
-2.594933998584747314e+01 -4.056839838624000549e+00 -6.654512979090156932e-01
-3.409387123584747314e+01 -6.307450190186500549e+00 -7.892305947840156932e-01
-5.038525307178497314e+01 -1.080622948706150055e+01 -1.036941776424640693e+00
-7.760644447803497314e+01 -1.855537499487400055e+01 -1.442810306698078193e+00
-6.637512123584747314e+01 -1.627461327612400055e+01 -1.243606815487140693e+00
-7.970996010303497314e+01 -2.080098046362400055e+01 -1.417114505916828193e+00
-9.182031166553497314e+01 -2.525813378393650055e+01 -1.562698612362140693e+00
-2.508923256397247314e+01 -3.851273432374000549e+00 -5.375979043543281932e-01
-3.057641518115997314e+01 -5.443314447999000549e+00 -5.921633340418281932e-01
-4.852099525928497314e+01 -1.032234276831150055e+01 -7.823183633387031932e-01
-5.563305580615997314e+01 -1.271492089331150055e+01 -8.412325479090156932e-01
-6.460620033740997314e+01 -1.577388085424900055e+01 -9.141390420496406932e-01
-7.749340736865997314e+01 -2.015010155737400055e+01 -1.019439945369953193e+00
-9.249413979053497314e+01 -2.544026269018650055e+01 -1.134979496151203193e+00
-2.535473549365997314e+01 -3.908646479249000549e+00 -4.254458047449531932e-01
-3.013220131397247314e+01 -5.329300776124000549e+00 -4.487154580652656932e-01
-7.333264076709747314e+01 -1.662165917456150055e+01 -7.186434365808906932e-01
-8.991003334522247314e+01 -2.273494042456150055e+01 -7.560122109949531932e-01
-9.210107338428497314e+01 -2.431758202612400055e+01 -7.322695352137031932e-01
-2.567590248584747314e+01 -3.978836908936500549e+00 -3.115694619715156932e-01
-6.883007729053497314e+01 -1.474653710424900055e+01 -3.943636514246406932e-01
-7.426818764209747314e+01 -1.684529198706150055e+01 -3.764345742762031932e-01
-9.461840736865997314e+01 -2.401399315893650055e+01 -3.355105020105781932e-01
-2.641943275928497314e+01 -4.147171869874000549e+00 -1.931460000574531932e-01
-2.641747963428497314e+01 -4.141922846436500549e+00 -7.353235259651569322e-02
-7.299938881397247314e+01 -1.649495019018650055e+01 3.082425497472343068e-01
-2.641772377490997314e+01 -4.137162104249000549e+00 4.670690521598430678e-02
-7.297094643115997314e+01 -1.647383202612400055e+01 6.480710409581718068e-01
-7.438952553272247314e+01 -1.761567772924900055e+01 6.984555624425468068e-01
-1.665563881397247314e+01 -1.865311518311500549e+00 7.262935489421806778e-03
-7.334106361865997314e+01 -1.578938378393650055e+01 9.633328817784843068e-01
-7.430004799365997314e+01 -1.757771386206150055e+01 1.046325435489421807e+00
-2.641796791553497314e+01 -4.127518549561500549e+00 2.864682577550468068e-01
-5.892871010303497314e+01 -1.227998436987400055e+01 9.963986776769218068e-01
-7.407141029834747314e+01 -1.672456444799900055e+01 1.353851070255046807e+00
-1.661132729053497314e+01 -1.849076166749000549e+00 1.543271444737968068e-01
-5.894848549365997314e+01 -1.227363671362400055e+01 1.269729366153484307e+00
-5.895922768115997314e+01 -1.209370507299900055e+01 1.641080282628593068e-01
-7.355566322803497314e+01 -1.636116112768650055e+01 2.955472372472343068e-01
-1.623107826709747314e+01 -1.534378901124000549e+00 -7.046533599495319322e-02
-5.857165443897247314e+01 -1.137910546362400055e+01 4.111783407628593068e-01
-5.896508705615997314e+01 -1.208430565893650055e+01 4.402005575597343068e-01
-7.380468666553497314e+01 -1.640974511206150055e+01 6.441495321691093068e-01
-7.400793373584747314e+01 -1.724165429174900055e+01 6.778409384191093068e-01
-1.628002846240997314e+01 -1.542191401124000549e+00 4.836788028484306778e-03
-1.665795814990997314e+01 -1.795243158936500549e+00 1.771520599723430678e-02
-6.569518959522247314e+01 -1.368135155737400055e+01 8.278958700597343068e-01
-7.369836342334747314e+01 -1.714717186987400055e+01 1.022887935489421807e+00
-5.477392494678497314e+01 -9.922684565186500549e+00 8.584134481847343068e-01
-1.663488686084747314e+01 -1.786942377686500549e+00 9.436010345817180678e-02
-1.661913979053497314e+01 -1.954422846436500549e+00 1.008603475987968068e-01
-1.695165932178497314e+01 -1.682572260499000549e+00 1.718594931066093068e-01
-1.685888588428497314e+01 -1.835038080811500549e+00 1.766202352941093068e-01
-1.659606850147247314e+01 -1.945877924561500549e+00 1.773831747472343068e-01
-7.399169838428497314e+01 -1.641536034643650055e+01 1.692565669864421807e+00
-1.694201576709747314e+01 -1.785355463624000549e+00 1.354215048253593068e-01
-1.661376869678497314e+01 -1.889847651124000549e+00 1.355588339269218068e-01
-7.099963295459747314e+01 -1.540559472143650055e+01 1.353255977481609307e+00
-4.632763588428497314e+01 -7.395462885499000549e+00 9.454953573644218068e-01
-1.625427162647247314e+01 -1.455399408936500549e+00 1.916959188878593068e-01
-1.684997475147247314e+01 -1.761795893311500549e+00 2.144162558019218068e-01
-1.658984291553497314e+01 -1.881180658936500549e+00 2.149655722081718068e-01
-7.152892982959747314e+01 -1.552266015112400055e+01 1.705352535098796807e+00
-1.642028725147247314e+01 -1.240677729249000549e+00 2.327725790441093068e-01
