-1.332786729931831360e+01 1.654199570417404175e+00 -4.818575586192253013e-01
-1.414085558056831360e+01 1.523584336042404175e+00 -4.932100976817253013e-01
-1.414537218213081360e+01 1.394922226667404175e+00 -4.889376367442253013e-01
-1.409239366650581360e+01 1.268457382917404175e+00 -4.836123193614128013e-01
-9.855088979005813599e+00 2.008447617292404175e+00 -3.867953027598503013e-01
-1.415489366650581360e+01 2.039087265729904175e+00 -4.515230859629753013e-01
-1.355589464306831360e+01 1.900537461042404175e+00 -4.382631982676628013e-01
-1.444224718213081360e+01 1.784082382917404175e+00 -4.474642480723503013e-01
-1.327098253369331360e+01 1.656274765729904175e+00 -4.257509912364128013e-01
-1.413841417431831360e+01 1.525659531354904175e+00 -4.342043603770378013e-01
-1.414305284619331360e+01 1.396997421979904175e+00 -4.295962060801628013e-01
-1.397654893994331360e+01 1.274316757917404175e+00 -4.229586328379753013e-01
-9.839097768068313599e+00 2.009180039167404175e+00 -3.472750390879753013e-01
-1.002269151806831360e+01 1.928857773542404175e+00 -3.464358056895378013e-01
-1.021531847119331360e+01 1.844995468854904175e+00 -3.455660547129753013e-01
-1.041734483838081360e+01 1.757104843854904175e+00 -3.446505273692253013e-01
-1.062779405713081360e+01 1.665430039167404175e+00 -3.436892236582878013e-01
-1.084837511181831360e+01 1.569482773542404175e+00 -3.426974023692253013e-01
-1.108018663525581360e+01 1.468530625104904175e+00 -3.416445459239128013e-01
-1.132286241650581360e+01 1.362939804792404175e+00 -3.405459131114128013e-01
-9.744859486818313599e+00 2.006982773542404175e+00 -3.071596826426628013e-01
-9.936509877443313599e+00 1.927759140729904175e+00 -3.057711328379753013e-01
-1.011778429150581360e+01 1.844629257917404175e+00 -3.039705957286003013e-01
-1.031529405713081360e+01 1.757715195417404175e+00 -3.021395410411003013e-01
-1.052110460400581360e+01 1.667139023542404175e+00 -3.002321924082878013e-01
-1.073655870556831360e+01 1.572412461042404175e+00 -2.982485498301628013e-01
-1.096299913525581360e+01 1.472681015729904175e+00 -2.961428369395378013e-01
-1.122276476025581360e+01 1.367822617292404175e+00 -2.938082422129753013e-01
-9.687852650880813599e+00 2.006128281354904175e+00 -2.682192529551628013e-01
-9.897935658693313599e+00 1.928125351667404175e+00 -2.657931054942253013e-01
-1.010191515088081360e+01 1.845727890729904175e+00 -2.632143701426628013e-01
-1.032212999463081360e+01 1.759180039167404175e+00 -2.605135644786003013e-01
-1.055284288525581360e+01 1.668603867292404175e+00 -2.576754297129753013e-01
-1.079551866650581360e+01 1.573144882917404175e+00 -2.546999658457878013e-01
-1.105223253369331360e+01 1.472314804792404175e+00 -2.515413965098503013e-01
-1.132212999463081360e+01 1.366235703229904175e+00 -2.482302392832878013e-01
-9.762803822755813599e+00 2.010156601667404175e+00 -2.292940820567253013e-01
-9.880113393068313599e+00 1.928857773542404175e+00 -2.263338769786003013e-01
-1.018016222119331360e+01 1.848535507917404175e+00 -2.225496972911003013e-01
-1.040440538525581360e+01 1.761255234479904175e+00 -2.187960351817253013e-01
-1.063914659619331360e+01 1.669824570417404175e+00 -2.148745263926628013e-01
-1.085496690869331360e+01 1.573877304792404175e+00 -2.108614648692253013e-01
-1.108189561963081360e+01 1.473169296979904175e+00 -2.066347802989128013e-01
-1.131846788525581360e+01 1.367944687604904175e+00 -2.019961084239128013e-01
-9.788316518068313599e+00 2.012475937604904175e+00 -1.902468408457878013e-01
-9.881089955568313599e+00 1.930200546979904175e+00 -1.867068017832878013e-01
-1.015379503369331360e+01 1.849390000104904175e+00 -1.817476953379753013e-01
-1.034837511181831360e+01 1.762231796979904175e+00 -1.772005761973503013e-01
-1.055088976025581360e+01 1.671411484479904175e+00 -1.724856103770378013e-01
-1.076280382275581360e+01 1.576562851667404175e+00 -1.675417627207878013e-01
-1.098521593213081360e+01 1.476831406354904175e+00 -1.623537744395378013e-01
-1.121751573681831360e+01 1.372705429792404175e+00 -1.569369043223503013e-01
-9.712144643068313599e+00 2.010889023542404175e+00 -1.519320215098503013e-01
-9.897081166505813599e+00 1.932031601667404175e+00 -1.468966211192253013e-01
-1.007493761181831360e+01 1.849390000104904175e+00 -1.420443261973503013e-01
-1.026597765088081360e+01 1.762964218854904175e+00 -1.366884912364128013e-01
-1.049644640088081360e+01 1.672998398542404175e+00 -1.307070459239128013e-01
-1.074900987744331360e+01 1.578149765729904175e+00 -1.242830957286003013e-01
-1.101744249463081360e+01 1.477685898542404175e+00 -1.172335351817253013e-01
-1.129979112744331360e+01 1.371728867292404175e+00 -1.100313867442253013e-01
-9.690294057130813599e+00 2.011255234479904175e+00 -1.134493554942253013e-01
-9.911485463380813599e+00 1.933740586042404175e+00 -1.071932519786003013e-01
-1.012632921338081360e+01 1.851587265729904175e+00 -1.006930078379753013e-01
-1.035960558056831360e+01 1.765161484479904175e+00 -9.371974123641280130e-02
-1.060472276806831360e+01 1.674219101667404175e+00 -8.639552248641280130e-02
-1.086326768994331360e+01 1.578393906354904175e+00 -7.865931643172530130e-02
-1.514781358838081360e+01 1.389429062604904175e+00 2.044418919837198700e-03
-1.532652452588081360e+01 1.245752304792404175e+00 1.034520016983719870e-02
-1.233140733838081360e+01 1.306665390729904175e+00 -1.011337539087975301e+00
-1.221971300244331360e+01 1.201318711042404175e+00 -9.999850000254753013e-01
-1.210557726025581360e+01 1.098169296979904175e+00 -9.888003076426628013e-01
-1.212999132275581360e+01 9.878177344799041748e-01 -9.870913232676628013e-01
-1.216197374463081360e+01 8.766116797924041748e-01 -9.858858789317253013e-01
-1.219420030713081360e+01 7.646732032299041748e-01 -9.846651758067253013e-01
-1.222667101025581360e+01 6.513919532299041748e-01 -9.834444726817253013e-01
-1.225425890088081360e+01 5.383548438549041748e-01 -9.821322168223503013e-01
-1.322129991650581360e+01 1.277612656354904175e+00 -1.017486831080162801e+00
-1.310240343213081360e+01 1.163721054792404175e+00 -1.006149550806725301e+00
-1.304588487744331360e+01 1.048608750104904175e+00 -9.985506738536003013e-01
-1.244261339306831360e+01 9.693851172924041748e-01 -9.566347802989128013e-01
-1.311302354931831360e+01 8.073978126049041748e-01 -9.953921045176628013e-01
-1.314683702588081360e+01 6.858157813549041748e-01 -9.937899316661003013e-01
-1.321971300244331360e+01 5.592288672924041748e-01 -9.948885644786003013e-01
-1.331578233838081360e+01 4.289798438549041748e-01 -9.971010888926628013e-01
-1.372203233838081360e+01 1.262353867292404175e+00 -9.921877588145378013e-01
-1.374559190869331360e+01 1.136987656354904175e+00 -9.896547998301628013e-01
-1.629039171338081360e+01 8.739261329174041748e-01 -1.136032363306725301e+00
-1.244407823681831360e+01 9.710941016674041748e-01 -9.053042138926628013e-01
-1.595494249463081360e+01 5.978030860424041748e-01 -1.106903334986412801e+00
-1.557042101025581360e+01 4.830569922924041748e-01 -1.079910537134850301e+00
-1.532908800244331360e+01 3.617191016674041748e-01 -1.061401626002037801e+00
-1.509617784619331360e+01 2.447757422924041748e-01 -1.043548842798912801e+00
-1.384239366650581360e+01 1.260156601667404175e+00 -9.416353906504753013e-01
-1.376536729931831360e+01 1.138208359479904175e+00 -9.331057275645378013e-01
-1.629942491650581360e+01 8.760013282299041748e-01 -1.067093154322350301e+00
-1.244554308056831360e+01 9.728030860424041748e-01 -8.536837304942253013e-01
-1.678050401806831360e+01 5.388431251049041748e-01 -1.083359023462975301e+00
-1.671641710400581360e+01 3.888187110424041748e-01 -1.074951430689537801e+00
-1.665233018994331360e+01 2.391605079174041748e-01 -1.066589614283287801e+00
-1.653563097119331360e+01 9.670445322990417480e-02 -1.055862685572350301e+00
-1.386241319775581360e+01 1.261499375104904175e+00 -8.846132959239128013e-01
-1.380381944775581360e+01 1.138452500104904175e+00 -8.776247705332878013e-01
-1.377891710400581360e+01 1.014673203229904175e+00 -8.723604883067253013e-01
-1.244700792431831360e+01 9.746341407299041748e-01 -8.023531640879753013e-01
-1.695372179150581360e+01 5.285892188549041748e-01 -1.020477553736412801e+00
-1.897532823681831360e+01 2.011966407299041748e-01 -1.114212294947350301e+00
-1.907750108838081360e+01 1.320835947990417480e-02 -1.113418837916100301e+00
-1.745945909619331360e+01 2.954453229904174805e-03 -1.029617568384850301e+00
-1.426194933056831360e+01 1.249902695417404175e+00 -8.451540674082878013e-01
-1.384898546338081360e+01 1.138574570417404175e+00 -8.218081201426628013e-01
-1.726719835400581360e+01 8.286380469799041748e-01 -9.723055566661003013e-01
-1.244847276806831360e+01 9.763431251049041748e-01 -7.507479394786003013e-01
-1.736644151806831360e+01 5.006351172924041748e-01 -9.663088525645378013e-01
-1.921141222119331360e+01 1.843509376049041748e-01 -1.042679091822350301e+00
-1.932029893994331360e+01 -6.567031145095825195e-03 -1.041580459009850301e+00
-1.944810655713081360e+01 -2.013912498950958252e-01 -1.041702529322350301e+00
-1.669676378369331360e+01 1.169702500104904175e+00 -8.857424463145378013e-01
-1.389415147900581360e+01 1.138574570417404175e+00 -7.658999170176628013e-01
-1.387791612744331360e+01 1.013452500104904175e+00 -7.611086572520378013e-01
-1.245005968213081360e+01 9.780521094799041748e-01 -6.994021142832878013e-01
-1.725291612744331360e+01 5.117435157299041748e-01 -8.876955713145378013e-01
-1.945237901806831360e+01 1.671390235424041748e-01 -9.696352685801628013e-01
-1.956834581494331360e+01 -2.683070302009582520e-02 -9.681704248301628013e-01
-2.218431261181831360e+01 -4.826412498950958252e-01 -1.064102431666100301e+00
-1.396507433056831360e+01 1.264062851667404175e+00 -7.147219385020378013e-01
-1.650230577588081360e+01 1.026880234479904175e+00 -8.027956689707878013e-01
-1.392942979931831360e+01 1.012720078229904175e+00 -7.047274316661003013e-01
-1.245152452588081360e+01 9.797610938549041748e-01 -6.477816308848503013e-01
-1.714024522900581360e+01 5.226077735424041748e-01 -8.098147119395378013e-01
-2.052867296338081360e+01 8.010289072990417480e-02 -9.231722558848503013e-01
-2.234312608838081360e+01 -2.839107811450958252e-01 -9.801790918223503013e-01
-1.739000108838081360e+01 1.833531260490417480e-02 -8.029177392832878013e-01
-1.409593370556831360e+01 1.261743515729904175e+00 -6.603853906504753013e-01
-1.398594835400581360e+01 1.138696640729904175e+00 -6.526034082286003013e-01
-1.398118761181831360e+01 1.011987656354904175e+00 -6.482088769786003013e-01
-1.245298936963081360e+01 9.815921485424041748e-01 -5.964510644786003013e-01
-2.161802843213081360e+01 1.963138282299041748e-01 -8.744967187754753013e-01
-1.701146104931831360e+01 3.769778907299041748e-01 -7.275850976817253013e-01
-1.534080675244331360e+01 3.747806251049041748e-01 -6.720278467051628013e-01
-2.361607530713081360e+01 -6.238766014575958252e-01 -9.133913720957878013e-01
-1.405772569775581360e+01 1.265039414167404175e+00 -6.005251611582878013e-01
-1.418553331494331360e+01 1.132104843854904175e+00 -5.996859277598503013e-01
-1.441295030713081360e+01 9.911136329174041748e-01 -6.014254297129753013e-01
-1.245445421338081360e+01 9.833011329174041748e-01 -5.451052392832878013e-01
-1.694798448681831360e+01 5.420169532299041748e-01 -6.588289941661003013e-01
-1.695579698681831360e+01 3.843021094799041748e-01 -6.537172998301628013e-01
-2.451707628369331360e+01 -4.798336327075958252e-01 -8.409884179942253013e-01
-1.734410265088081360e+01 2.858921885490417480e-02 -6.528322900645378013e-01
-1.407847765088081360e+01 1.266382187604904175e+00 -5.420534814707878013e-01
-1.414854601025581360e+01 1.135766953229904175e+00 -5.392916406504753013e-01
-1.633506944775581360e+01 8.911380469799041748e-01 -5.834658349864128013e-01
-1.245591905713081360e+01 9.850101172924041748e-01 -4.934847558848503013e-01
-1.689244249463081360e+01 5.486087501049041748e-01 -5.851748193614128013e-01
-1.690013292431831360e+01 3.915042579174041748e-01 -5.800020898692253013e-01
-2.378758409619331360e+01 -4.079342186450958252e-01 -7.182009424082878013e-01
-1.507078722119331360e+01 2.660159766674041748e-01 -5.317995752207878013e-01
-1.409214952588081360e+01 1.267969101667404175e+00 -4.835970605723503013e-01
-1.406212022900581360e+01 1.141504257917404175e+00 -4.786684717051628013e-01
-1.418248155713081360e+01 1.007593125104904175e+00 -4.763949121348503013e-01
-1.245738390088081360e+01 9.867191016674041748e-01 -4.421389306895378013e-01
-1.734166124463081360e+01 5.184573829174041748e-01 -5.209963525645378013e-01
-2.392845323681831360e+01 -1.891842186450958252e-01 -6.247256006114128013e-01
-1.516807726025581360e+01 3.979739844799041748e-01 -4.745943750254753013e-01
-1.518443468213081360e+01 2.567386329174041748e-01 -4.700472558848503013e-01
-1.397679308056831360e+01 1.273828476667404175e+00 -4.229586328379753013e-01
-1.403270128369331360e+01 1.144922226667404175e+00 -4.193117822520378013e-01
-1.643028429150581360e+01 8.910159766674041748e-01 -4.464419092051628013e-01
-1.228062608838081360e+01 9.996585547924041748e-01 -3.885348047129753013e-01
-1.257945421338081360e+01 8.678226172924041748e-01 -3.883974756114128013e-01
-1.288524034619331360e+01 7.292728126049041748e-01 -3.881380761973503013e-01
-1.321177843213081360e+01 5.820560157299041748e-01 -3.875887597911003013e-01
-1.355735948681831360e+01 4.265384376049041748e-01 -3.873141015879753013e-01
-1.132457140088081360e+01 1.362573593854904175e+00 -3.405611719004753013e-01
-1.157933214306831360e+01 1.251611679792404175e+00 -3.392794336192253013e-01
-1.184776476025581360e+01 1.134668320417404175e+00 -3.379366601817253013e-01
-1.213182237744331360e+01 1.010766953229904175e+00 -3.365175927989128013e-01
-1.243101671338081360e+01 8.803958594799041748e-01 -3.350374902598503013e-01
-1.272654893994331360e+01 7.442874610424041748e-01 -3.332979883067253013e-01
-1.304478624463081360e+01 5.995120704174041748e-01 -3.314974511973503013e-01
-1.339293077588081360e+01 4.454593360424041748e-01 -3.296663965098503013e-01
-1.122459581494331360e+01 1.367456406354904175e+00 -2.938082422129753013e-01
-1.150425890088081360e+01 1.256372421979904175e+00 -2.917177881114128013e-01
-1.180101183056831360e+01 1.138818711042404175e+00 -2.892611230723503013e-01
-1.211717393994331360e+01 1.013452500104904175e+00 -2.866213525645378013e-01
-1.245213487744331360e+01 8.807620704174041748e-01 -2.838442529551628013e-01
-1.278624132275581360e+01 7.412357032299041748e-01 -2.808230127207878013e-01
-1.314940050244331360e+01 5.918216407299041748e-01 -2.776034082286003013e-01
-1.353599718213081360e+01 4.328860938549041748e-01 -2.738802636973503013e-01
-1.132408311963081360e+01 1.365747421979904175e+00 -2.482149804942253013e-01
-1.160997179150581360e+01 1.253564804792404175e+00 -2.445376123301628013e-01
-1.191307237744331360e+01 1.134668320417404175e+00 -2.406313623301628013e-01
-1.222740343213081360e+01 1.008447617292404175e+00 -2.364657129161003013e-01
-1.249669054150581360e+01 8.794192969799041748e-01 -2.321627344004753013e-01
-1.281492784619331360e+01 7.407474219799041748e-01 -2.275698388926628013e-01
-1.313121202588081360e+01 5.954837501049041748e-01 -2.227328027598503013e-01
-1.346470811963081360e+01 4.422855079174041748e-01 -2.176363672129753013e-01
-1.132005479931831360e+01 1.367578476667404175e+00 -2.019655908457878013e-01
-1.156920030713081360e+01 1.256982773542404175e+00 -1.973726953379753013e-01
-1.183067491650581360e+01 1.140649765729904175e+00 -1.922762597911003013e-01
-1.210728624463081360e+01 1.017724961042404175e+00 -1.869051660411003013e-01
-1.239793565869331360e+01 8.883304297924041748e-01 -1.812441552989128013e-01
-1.268687608838081360e+01 7.531985938549041748e-01 -1.753695215098503013e-01
-1.303343370556831360e+01 6.064700782299041748e-01 -1.688845361582878013e-01
-1.343296983838081360e+01 4.475345313549041748e-01 -1.614840234629753013e-01
-1.121922472119331360e+01 1.372339218854904175e+00 -1.569063867442253013e-01
-1.146959093213081360e+01 1.262842148542404175e+00 -1.509096826426628013e-01
-1.178062608838081360e+01 1.144922226667404175e+00 -1.441195215098503013e-01
-1.211265733838081360e+01 1.019067734479904175e+00 -1.368868554942253013e-01
-1.246580675244331360e+01 8.852786719799041748e-01 -1.291811670176628013e-01
-1.281822374463081360e+01 7.444095313549041748e-01 -1.212160791270378013e-01
-1.320298936963081360e+01 5.927982032299041748e-01 -1.126101220957878013e-01
-1.608995226025581360e+01 1.783694922924041748e-01 -7.424952639266280130e-02
-1.130174425244331360e+01 1.371362656354904175e+00 -1.100008691661003013e-01
-1.160203722119331360e+01 1.258935898542404175e+00 -1.020815576426628013e-01
-1.192051866650581360e+01 1.139429062604904175e+00 -9.393336428328780130e-02
-1.416966417431831360e+01 8.937015235424041748e-01 -5.648829592391280130e-02
-1.694908311963081360e+01 5.652103126049041748e-01 -9.308120142662801300e-03
-2.400316026806831360e+01 -1.689205467700958252e-01 1.067960058338996987e-01
-1.696019151806831360e+01 2.496585547924041748e-01 2.746323216712198700e-03
-2.510215929150581360e+01 -7.376461327075958252e-01 1.420743261463996987e-01
-1.532762315869331360e+01 1.245141953229904175e+00 1.039097653702469870e-02
-1.412193468213081360e+01 1.155542343854904175e+00 -7.446547877037801300e-03
-1.413377550244331360e+01 1.026880234479904175e+00 -2.502700220787801300e-03
-3.904429796338081360e+01 -6.379146873950958252e-01 4.885556493885871987e-01
-1.704319933056831360e+01 5.610599219799041748e-01 6.486485349014969870e-02
-2.475059679150581360e+01 -2.261715233325958252e-01 2.268216405995246987e-01
-2.400511339306831360e+01 -3.938961327075958252e-01 2.201535497792121987e-01
-2.508543565869331360e+01 -7.319088280200958252e-01 2.518307958729621987e-01
-1.225438097119331360e+01 5.378665626049041748e-01 -9.821322168223503013e-01
-1.228611925244331360e+01 4.236087501049041748e-01 -9.808657373301628013e-01
-1.230272081494331360e+01 3.100833594799041748e-01 -9.788515771739128013e-01
-1.231504991650581360e+01 1.963138282299041748e-01 -9.765322412364128013e-01
-1.232921007275581360e+01 8.193394541740417480e-02 -9.743197168223503013e-01
-1.236119249463081360e+01 -3.574183583259582520e-02 -9.732668603770378013e-01
-1.238633897900581360e+01 -1.536617577075958252e-01 -9.717257226817253013e-01
-1.239195421338081360e+01 -2.685299217700958252e-01 -9.691775049082878013e-01
-1.331627061963081360e+01 4.284915626049041748e-01 -9.971163476817253013e-01
-1.340538194775581360e+01 2.967776954174041748e-01 -9.991610254161003013e-01
-1.350401476025581360e+01 1.618900001049041748e-01 -1.001419326197350301e+00
-1.355943468213081360e+01 2.993199229240417480e-02 -1.001251479517662801e+00
-1.357664659619331360e+01 -9.738734364509582520e-02 -9.987337793223503013e-01
-1.359398058056831360e+01 -2.254391014575958252e-01 -9.962008203379753013e-01
-1.360191515088081360e+01 -3.532467186450958252e-01 -9.933779443614128013e-01
-1.361668565869331360e+01 -4.821529686450958252e-01 -9.906466211192253013e-01
-1.509446886181831360e+01 2.444095313549041748e-01 -1.043442031275475301e+00
-1.486375597119331360e+01 1.316165626049041748e-01 -1.026169082056725301e+00
-1.483641222119331360e+01 -2.416640520095825195e-03 -1.020599624048912801e+00
-1.491880968213081360e+01 -1.514644920825958252e-01 -1.021240493189537801e+00
-1.500218370556831360e+01 -3.022213280200958252e-01 -1.021881362330162801e+00
-1.504490831494331360e+01 -4.487057030200958252e-01 -1.020187636744225301e+00
-1.507579210400581360e+01 -5.950680077075958252e-01 -1.017776748072350301e+00
-1.510679796338081360e+01 -7.419185936450958252e-01 -1.015365859400475301e+00
-1.653209093213081360e+01 9.658238291740417480e-02 -1.055649062525475301e+00
-1.663462999463081360e+01 -6.894496083259582520e-02 -1.056076308619225301e+00
-1.671031358838081360e+01 -2.336178123950958252e-01 -1.055389663111412801e+00
-1.502281358838081360e+01 -1.630611717700958252e-01 -9.630739892832878013e-01
-1.686497667431831360e+01 -5.699215233325958252e-01 -1.054016372095787801e+00
-1.694371202588081360e+01 -7.409420311450958252e-01 -1.053314467798912801e+00
-1.702061632275581360e+01 -9.142818748950958252e-01 -1.052444716822350301e+00
-1.701036241650581360e+01 -1.073827773332595825e+00 -1.047500869166100301e+00
-1.746019151806831360e+01 2.344101667404174805e-03 -1.029632827173912801e+00
-1.933091905713081360e+01 -3.747310936450958252e-01 -1.114303847681725301e+00
-1.945970323681831360e+01 -5.732174217700958252e-01 -1.114883681666100301e+00
-1.502476671338081360e+01 -1.609859764575958252e-01 -8.994600976817253013e-01
-2.216270616650581360e+01 -1.334325820207595825e+00 -1.230636855494225301e+00
-1.549437120556831360e+01 -5.135250389575958252e-01 -9.128573144786003013e-01
-2.008714464306831360e+01 -1.418310195207595825e+00 -1.121383925806725301e+00
-1.764940050244331360e+01 -1.183202773332595825e+00 -1.003235122095787801e+00
-1.944920518994331360e+01 -2.021236717700958252e-01 -1.041733046900475301e+00
-1.958116319775581360e+01 -4.002437889575958252e-01 -1.041290542017662801e+00
-1.737901476025581360e+01 -3.113766014575958252e-01 -9.409334863536003013e-01
-1.502671983838081360e+01 -1.587887108325958252e-01 -8.355257715098503013e-01
-2.244737413525581360e+01 -1.371801406145095825e+00 -1.145294448267662801e+00
-1.508226183056831360e+01 -4.472408592700958252e-01 -8.291628564707878013e-01
-2.339842393994331360e+01 -1.961523085832595825e+00 -1.171493789087975301e+00
-1.765171983838081360e+01 -1.180639296770095825e+00 -9.270785058848503013e-01
-2.218553331494331360e+01 -4.834957420825958252e-01 -1.064132949244225301e+00
-2.230162218213081360e+01 -7.073726952075958252e-01 -1.061935683619225301e+00
-1.739512804150581360e+01 -3.106441795825958252e-01 -8.670809472911003013e-01
-1.502855089306831360e+01 -1.567135155200958252e-01 -7.719118799082878013e-01
-2.372374132275581360e+01 -1.552465468645095825e+00 -1.095245620142662801e+00
-1.511729601025581360e+01 -4.501705467700958252e-01 -7.663576806895378013e-01
-2.557310655713081360e+01 -2.316137343645095825e+00 -1.149200698267662801e+00
-1.765416124463081360e+01 -1.178075820207595825e+00 -8.505099023692253013e-01
-1.739073351025581360e+01 1.772496104240417480e-02 -8.029329980723503013e-01
-2.258238390088081360e+01 -7.358150780200958252e-01 -9.744265283457878013e-01
-1.741136339306831360e+01 -3.099117577075958252e-01 -7.927096094004753013e-01
-1.503050401806831360e+01 -1.545162498950958252e-01 -7.079622949473503013e-01
-2.553721788525581360e+01 -1.810277968645095825e+00 -1.050537368189537801e+00
-1.515269640088081360e+01 -4.532223045825958252e-01 -7.029116357676628013e-01
-1.502952745556831360e+01 -5.751705467700958252e-01 -6.946566308848503013e-01
-1.765648058056831360e+01 -1.175634413957595825e+00 -7.743380273692253013e-01
-2.362071397900581360e+01 -6.252193748950958252e-01 -9.135134424082878013e-01
-2.405198839306831360e+01 -8.992672264575958252e-01 -9.187624658457878013e-01
-1.742747667431831360e+01 -3.090572655200958252e-01 -7.185824121348503013e-01
-1.503245714306831360e+01 -1.524410545825958252e-01 -6.443484033457878013e-01
-2.405552843213081360e+01 -1.592504531145095825e+00 -8.960116113536003013e-01
-1.518809679150581360e+01 -4.562740623950958252e-01 -6.394808496348503013e-01
-1.506443956494331360e+01 -5.784664452075958252e-01 -6.313631738536003013e-01
-1.494310167431831360e+01 -6.984615623950958252e-01 -6.233675683848503013e-01
-1.734483507275581360e+01 2.797886729240417480e-02 -6.528322900645378013e-01
-1.497435167431831360e+01 1.352786719799041748e-01 -5.886080469004753013e-01
-1.744371202588081360e+01 -3.083248436450958252e-01 -6.443484033457878013e-01
-1.503441026806831360e+01 -1.502437889575958252e-01 -5.807345117442253013e-01
-3.161595323681831360e+01 -2.676733046770095825e+00 -9.701845849864128013e-01
-1.522361925244331360e+01 -4.592037498950958252e-01 -5.757601465098503013e-01
-1.509947374463081360e+01 -5.817623436450958252e-01 -5.680849756114128013e-01
-1.497752550244331360e+01 -7.020016014575958252e-01 -5.605623926036003013e-01
-1.507103136181831360e+01 2.655276954174041748e-01 -5.317843164317253013e-01
-1.508702257275581360e+01 1.249026954174041748e-01 -5.273440088145378013e-01
-1.510313585400581360e+01 -1.657679677009582520e-02 -5.228884424082878013e-01
-1.503636339306831360e+01 -1.481685936450958252e-01 -5.167849267832878013e-01
-1.562608507275581360e+01 -3.726558983325958252e-01 -5.232699121348503013e-01
-2.364879015088081360e+01 -1.753759413957595825e+00 -6.688082422129753013e-01
-1.513475206494331360e+01 -5.850582420825958252e-01 -5.041811670176628013e-01
-3.535630968213081360e+01 -4.253881484270095825e+00 -8.646090234629753013e-01
-1.518455675244331360e+01 2.562503516674041748e-01 -4.700319970957878013e-01
-1.520103624463081360e+01 1.142825782299041748e-01 -4.654085840098503013e-01
-1.747618272900581360e+01 -3.067379295825958252e-01 -4.950716699473503013e-01
-1.503831651806831360e+01 -1.459713280200958252e-01 -4.531557763926628013e-01
-1.562205675244331360e+01 -3.696041405200958252e-01 -4.567415918223503013e-01
-1.529551866650581360e+01 -4.653072655200958252e-01 -4.470370019786003013e-01
-1.517015245556831360e+01 -5.883541405200958252e-01 -4.402926172129753013e-01
-1.707127550244331360e+01 -1.061864882707595825e+00 -4.608462060801628013e-01
-1.355980089306831360e+01 4.258060157299041748e-01 -3.873293603770378013e-01
-1.392662218213081360e+01 2.607669532299041748e-01 -3.869478906504753013e-01
-1.431822374463081360e+01 8.474156260490417480e-02 -3.868563379161003013e-01
-1.473631456494331360e+01 -1.033687889575958252e-01 -3.864290918223503013e-01
-1.512901476025581360e+01 -2.963619530200958252e-01 -3.854525293223503013e-01
-1.533152940869331360e+01 -4.684810936450958252e-01 -3.823702539317253013e-01
-1.616673448681831360e+01 -7.492428123950958252e-01 -3.845064844004753013e-01
-1.678148058056831360e+01 -1.008520156145095825e+00 -3.844759668223503013e-01
-1.339561632275581360e+01 4.448489844799041748e-01 -3.296816552989128013e-01
-1.379905870556831360e+01 2.772464454174041748e-01 -3.278048242442253013e-01
-1.423155382275581360e+01 9.768101572990417480e-02 -3.258059228770378013e-01
-1.469798448681831360e+01 -9.592249989509582520e-02 -3.236544336192253013e-01
-1.514073351025581360e+01 -2.956295311450958252e-01 -3.210299219004753013e-01
-1.536802843213081360e+01 -4.715328514575958252e-01 -3.170321191661003013e-01
-1.634312608838081360e+01 -7.753658592700958252e-01 -3.161776269786003013e-01
-1.701292589306831360e+01 -1.046117812395095825e+00 -3.133547510020378013e-01
-1.353880479931831360e+01 4.321536719799041748e-01 -2.738802636973503013e-01
-1.395140245556831360e+01 2.622317969799041748e-01 -2.703402246348503013e-01
-1.436131456494331360e+01 8.400914072990417480e-02 -2.661745752207878013e-01
-1.477293565869331360e+01 -1.036129295825958252e-01 -2.616884912364128013e-01
-1.515049913525581360e+01 -2.945308983325958252e-01 -2.568667138926628013e-01
-1.564366319775581360e+01 -5.113277733325958252e-01 -2.517855371348503013e-01
-1.618028429150581360e+01 -7.460689842700958252e-01 -2.462771142832878013e-01
-1.675694444775581360e+01 -9.987545311450958252e-01 -2.399752344004753013e-01
-1.346702745556831360e+01 4.415530860424041748e-01 -2.176211084239128013e-01
-1.382005479931831360e+01 2.791995704174041748e-01 -2.119906152598503013e-01
-1.419517686963081360e+01 1.065921485424041748e-01 -2.060244287364128013e-01
-1.460557726025581360e+01 -7.907679677009582520e-02 -1.996004785411003013e-01
-1.509507921338081360e+01 -2.841549217700958252e-01 -1.925509179942253013e-01
-1.493089464306831360e+01 -3.996334373950958252e-01 -1.880190576426628013e-01
-1.632225206494331360e+01 -7.666988670825958252e-01 -1.760714258067253013e-01
-1.720323351025581360e+01 -1.073461562395095825e+00 -1.657107080332878013e-01
-1.343577745556831360e+01 4.468021094799041748e-01 -1.614535058848503013e-01
-1.386326768994331360e+01 2.763919532299041748e-01 -1.538698877207878013e-01
-1.432432726025581360e+01 9.304234385490417480e-02 -1.453860010020378013e-01
-1.482359483838081360e+01 -1.056881248950958252e-01 -1.362002099864128013e-01
-1.560167101025581360e+01 -3.541012108325958252e-01 -1.242068017832878013e-01
-1.508812120556831360e+01 -4.212398827075958252e-01 -1.233370508067253013e-01
-1.729808214306831360e+01 -9.231930077075958252e-01 -9.703089846297530130e-02
-1.572007921338081360e+01 -8.134517967700958252e-01 -1.060030664317253013e-01
-1.608751085400581360e+01 1.781253516674041748e-01 -7.426478518172530130e-02
-1.697703722119331360e+01 -7.065394520759582520e-02 -5.767848147078780130e-02
-1.780589464306831360e+01 -3.304195702075958252e-01 -4.115321291610030130e-02
-3.180113390088081360e+01 -2.351171523332595825e+00 1.466367040760871987e-01
-1.559764268994331360e+01 -3.510494530200958252e-01 -5.766322268172530130e-02
-1.724205186963081360e+01 -7.477779686450958252e-01 -2.943446291610030130e-02
-1.574376085400581360e+01 -6.670894920825958252e-01 -4.429652346297530130e-02
-1.614903429150581360e+01 -8.852291405200958252e-01 -3.269984377547530130e-02
-2.510215929150581360e+01 -7.385006248950958252e-01 1.421048437245246987e-01
-1.596446397900581360e+01 4.543492197990417480e-02 -1.999160181725301300e-03
-2.413829210400581360e+01 -1.100683242082595825e+00 1.438138280995246987e-01
-2.751011827588081360e+01 -1.778417617082595825e+00 2.121579443104621987e-01
-1.716270616650581360e+01 -5.713863670825958252e-01 3.668187009171219870e-02
-1.725572374463081360e+01 -7.470455467700958252e-01 4.473851071671219870e-02
-1.555357530713081360e+01 -6.335201561450958252e-01 1.956150876358719870e-02
-1.615611436963081360e+01 -8.837642967700958252e-01 3.686497556046219870e-02
-2.508543565869331360e+01 -7.327633202075958252e-01 2.518613134510871987e-01
-1.697776964306831360e+01 -6.540492177009582520e-02 8.731053220108719870e-02
-1.689708116650581360e+01 -2.138424217700958252e-01 9.185765134171219870e-02
-1.728868272900581360e+01 -4.240474998950958252e-01 1.068875585682746987e-01
-1.730552843213081360e+01 -5.888424217700958252e-01 1.137387548573371987e-01
-1.534568956494331360e+01 -4.532223045825958252e-01 7.513401852921219870e-02
-1.694712999463081360e+01 -8.575191795825958252e-01 1.183926855213996987e-01
-1.616319444775581360e+01 -8.822994530200958252e-01 1.064755712635871987e-01
-1.239195421338081360e+01 -2.688961327075958252e-01 -9.691622461192253013e-01
-1.240159776806831360e+01 -3.851070702075958252e-01 -9.666598047129753013e-01
-1.240599229931831360e+01 -5.009517967700958252e-01 -9.640658105723503013e-01
-1.241050890088081360e+01 -6.177730858325958252e-01 -9.614718164317253013e-01
-1.241502550244331360e+01 -7.347164452075958252e-01 -9.588625635020378013e-01
-1.241954210400581360e+01 -8.523922264575958252e-01 -9.562380517832878013e-01
-1.243333604931831360e+01 -9.731197655200958252e-01 -9.541781152598503013e-01
-1.245005968213081360e+01 -1.095068007707595825e+00 -9.525759424082878013e-01
-1.361692979931831360e+01 -4.826412498950958252e-01 -9.906466211192253013e-01
-1.362474229931831360e+01 -6.110592186450958252e-01 -9.878390039317253013e-01
-1.363902452588081360e+01 -7.414303123950958252e-01 -9.850771631114128013e-01
-1.364695909619331360e+01 -8.718014061450958252e-01 -9.822085107676628013e-01
-1.366685655713081360e+01 -1.004980117082595825e+00 -9.800417627207878013e-01
-1.367637804150581360e+01 -1.136693984270095825e+00 -9.772494043223503013e-01
-1.367833116650581360e+01 -1.267919570207595825e+00 -9.742891992442253013e-01
-1.368785265088081360e+01 -1.401220351457595825e+00 -9.714663232676628013e-01
-1.510692003369331360e+01 -7.424068748950958252e-01 -1.015350600611412801e+00
-1.512632921338081360e+01 -8.884029686450958252e-01 -1.012604018580162801e+00
-1.518174913525581360e+01 -1.042211562395095825e+00 -1.011810561548912801e+00
-1.524339464306831360e+01 -1.199804335832595825e+00 -1.011291762720787801e+00
-1.527134874463081360e+01 -1.351293593645095825e+00 -1.008896132837975301e+00
-1.528733995556831360e+01 -1.501318007707595825e+00 -1.005829116236412801e+00
-1.530345323681831360e+01 -1.652807265520095825e+00 -1.002731582056725301e+00
-1.531956651806831360e+01 -1.804784804582595825e+00 -9.996340478770378013e-01
-1.701036241650581360e+01 -1.074438124895095825e+00 -1.047485610377037801e+00
-1.700938585400581360e+01 -1.236059218645095825e+00 -1.042541762720787801e+00
-1.700023058056831360e+01 -1.396703749895095825e+00 -1.037567397486412801e+00
-1.704258897900581360e+01 -1.569067031145095825e+00 -1.035125991236412801e+00
-1.720274522900581360e+01 -1.768041640520095825e+00 -1.038513442408287801e+00
-1.732664659619331360e+01 -1.962743788957595825e+00 -1.039993544947350301e+00
-1.736131456494331360e+01 -2.140234023332595825e+00 -1.036987563502037801e+00
-1.737913683056831360e+01 -2.314306288957595825e+00 -1.033554335962975301e+00
-1.764915636181831360e+01 -1.183691054582595825e+00 -1.003204604517662801e+00
-1.985899522900581360e+01 -1.762670546770095825e+00 -1.099487563502037801e+00
-1.976268175244331360e+01 -1.935644179582595825e+00 -1.089599868189537801e+00
-1.979515245556831360e+01 -2.134618788957595825e+00 -1.085541030298912801e+00
-1.982786729931831360e+01 -2.334569960832595825e+00 -1.081466933619225301e+00
-1.986070421338081360e+01 -2.535985976457595825e+00 -1.077362319361412801e+00
-1.993272569775581360e+01 -2.748876601457595825e+00 -1.074936171900475301e+00
-2.003941515088081360e+01 -2.972143203020095825e+00 -1.073974868189537801e+00
-1.765147569775581360e+01 -1.181127578020095825e+00 -9.270479883067253013e-01
-2.812938097119331360e+01 -3.294408828020095825e+00 -1.351974746119225301e+00
-2.444529893994331360e+01 -2.849828749895095825e+00 -1.193573256861412801e+00
-2.026426866650581360e+01 -2.228002578020095825e+00 -1.017273208033287801e+00
-2.380870226025581360e+01 -3.193944960832595825e+00 -1.153702041041100301e+00
-2.422203233838081360e+01 -3.523412734270095825e+00 -1.163177749048912801e+00
-2.471788194775581360e+01 -3.882909804582595825e+00 -1.175598403345787801e+00
-2.474864366650581360e+01 -4.137670546770095825e+00 -1.170059462916100301e+00
-1.765379503369331360e+01 -1.178686171770095825e+00 -8.504641260020378013e-01
-2.848961046338081360e+01 -3.356420546770095825e+00 -1.239807387720787801e+00
-3.123204210400581360e+01 -4.174169570207595825e+00 -1.330169936548912801e+00
-2.026683214306831360e+01 -2.225072890520095825e+00 -9.283907617442253013e-01
-3.453160265088081360e+01 -5.511938124895095825e+00 -1.428070327173912801e+00
-3.031321886181831360e+01 -4.901830703020095825e+00 -1.269226333033287801e+00
-2.832994249463081360e+01 -4.736425429582595825e+00 -1.190826674830162801e+00
-3.170176866650581360e+01 -5.858129531145095825e+00 -1.298385878931725301e+00
-1.765611436963081360e+01 -1.176122695207595825e+00 -7.743075097911003013e-01
-3.147386339306831360e+01 -3.904394179582595825e+00 -1.207596084009850301e+00
-3.535618761181831360e+01 -4.975194960832595825e+00 -1.318878432642662801e+00
-2.026939561963081360e+01 -2.222021132707595825e+00 -8.390505517832878013e-01
-4.230223253369331360e+01 -7.187109023332595825e+00 -1.509994765650475301e+00
-4.257872179150581360e+01 -7.678442031145095825e+00 -1.504867812525475301e+00
-2.833323839306831360e+01 -4.732152968645095825e+00 -1.063415786158287801e+00
-4.193162706494331360e+01 -8.388158828020095825e+00 -1.459182998072350301e+00
-1.494236925244331360e+01 -6.988277733325958252e-01 -6.233370508067253013e-01
-3.952269151806831360e+01 -5.388525038957595825e+00 -1.283798476587975301e+00
-4.247801378369331360e+01 -6.360570937395095825e+00 -1.349945327173912801e+00
-2.027195909619331360e+01 -2.219091445207595825e+00 -7.501681054942253013e-01
-4.941880968213081360e+01 -8.717992812395095825e+00 -1.502838393580162801e+00
-5.706443956494331360e+01 -1.095371058583259583e+01 -1.683014174830162801e+00
-2.833665636181831360e+01 -4.727758437395095825e+00 -9.353182519786003013e-01
-3.920176866650581360e+01 -7.704076796770095825e+00 -1.197891494166100301e+00
-1.497679308056831360e+01 -7.023678123950958252e-01 -5.605318750254753013e-01
-3.572532823681831360e+01 -4.679540663957595825e+00 -1.020462294947350301e+00
-4.026402452588081360e+01 -5.920873671770095825e+00 -1.108658095728600301e+00
-2.027452257275581360e+01 -2.216161757707595825e+00 -6.612856592051628013e-01
-4.464891222119331360e+01 -7.678686171770095825e+00 -1.175171157252037801e+00
-5.408079698681831360e+01 -1.026755335927009583e+01 -1.358108779322350301e+00
-2.833995226025581360e+01 -4.723485976457595825e+00 -8.079226220957878013e-01
-3.920616319775581360e+01 -7.697973281145095825e+00 -1.018966933619225301e+00
-3.534593370556831360e+01 -4.253271132707595825e+00 -8.643801416270378013e-01
-3.550157335400581360e+01 -4.631933242082595825e+00 -8.550875390879753013e-01
-4.019139268994331360e+01 -5.899511367082595825e+00 -9.243471826426628013e-01
-2.027708604931831360e+01 -2.213109999895095825e+00 -5.719301904551628013e-01
-4.473167589306831360e+01 -7.688451796770095825e+00 -9.720461572520378013e-01
-5.429466417431831360e+01 -1.030600550770759583e+01 -1.112121840845787801e+00
-2.834337022900581360e+01 -4.719091445207595825e+00 -6.798250879161003013e-01
-3.921067979931831360e+01 -7.691869765520095825e+00 -8.390658105723503013e-01
-1.707579210400581360e+01 -1.063207656145095825e+00 -4.608767236582878013e-01
-1.774498155713081360e+01 -1.348974257707595825e+00 -4.638827051036003013e-01
-1.871043565869331360e+01 -1.706884413957595825e+00 -4.701235498301628013e-01
-1.975181749463081360e+01 -2.101781874895095825e+00 -4.765475000254753013e-01
-2.111656358838081360e+01 -2.588232070207595825e+00 -4.860689844004753013e-01
-2.286461046338081360e+01 -3.190649062395095825e+00 -4.989931787364128013e-01
-2.605784776806831360e+01 -4.173315078020095825e+00 -5.267641748301628013e-01
-3.381663683056831360e+01 -6.351659804582595825e+00 -6.016390527598503013e-01
-1.678636339306831360e+01 -1.009984999895095825e+00 -3.844912256114128013e-01
-1.606224229931831360e+01 -1.035741835832595825e+00 -3.726504052989128013e-01
-1.599241808056831360e+01 -1.174657851457595825e+00 -3.669283594004753013e-01
-1.972606065869331360e+01 -2.093114882707595825e+00 -3.899233545176628013e-01
-2.133751085400581360e+01 -2.632177382707595825e+00 -3.946688379161003013e-01
-2.299290636181831360e+01 -3.215551406145095825e+00 -3.984530176036003013e-01
-2.603868272900581360e+01 -4.164037734270095825e+00 -4.093630517832878013e-01
-5.743919542431831360e+01 -1.217844203114509583e+01 -5.913546289317253013e-01
-1.701732042431831360e+01 -1.047338515520095825e+00 -3.133394922129753013e-01
-1.607176378369331360e+01 -1.034887343645095825e+00 -3.038180078379753013e-01
-1.600181749463081360e+01 -1.173803359270095825e+00 -2.978975976817253013e-01
-1.956480577588081360e+01 -2.056737929582595825e+00 -3.026888574473503013e-01
-2.089317491650581360e+01 -2.532812148332595825e+00 -2.989962304942253013e-01
-2.319163683056831360e+01 -3.256322890520095825e+00 -2.963564599864128013e-01
-6.575254991650581360e+01 -1.354025843739509583e+01 -3.632815088145378013e-01
-6.847606065869331360e+01 -1.489096644520759583e+01 -3.417818750254753013e-01
-1.676109483838081360e+01 -9.999752342700958252e-01 -2.399447168223503013e-01
-1.608128526806831360e+01 -1.033910781145095825e+00 -2.349093164317253013e-01
-1.579234483838081360e+01 -1.130468398332595825e+00 -2.294619287364128013e-01
-1.579979112744331360e+01 -1.282690078020095825e+00 -2.236941064707878013e-01
-6.681773546338081360e+01 -1.240634730458259583e+01 -1.092684472911003013e-01
-6.081834581494331360e+01 -1.173740199208259583e+01 -9.832789553328780130e-02
-6.561351183056831360e+01 -1.349533656239509583e+01 -6.036402834578780130e-02
-1.720323351025581360e+01 -1.073949843645095825e+00 -1.656954492442253013e-01
-1.609080675244331360e+01 -1.032934218645095825e+00 -1.655428613536003013e-01
-6.667491319775581360e+01 -1.100485804677009583e+01 1.452023779042121987e-01
-1.584434679150581360e+01 -1.289159804582595825e+00 -1.551363672129753013e-01
-1.585191515088081360e+01 -1.442235976457595825e+00 -1.491701806895378013e-01
-6.081834581494331360e+01 -1.172617152333259583e+01 1.826321874745246987e-01
-6.553538683056831360e+01 -1.346469691395759583e+01 2.432400976307746987e-01
-7.381370714306831360e+01 -1.618027308583259583e+01 3.365018163807746987e-01
-1.571873643994331360e+01 -8.136959373950958252e-01 -1.060030664317253013e-01
-1.550657823681831360e+01 -9.230709373950958252e-01 -1.026003564707878013e-01
-1.588133409619331360e+01 -1.142309218645095825e+00 -9.271266115828780130e-02
-7.066417101025581360e+01 -1.248691371083259583e+01 5.216672216542121987e-01
-6.453270128369331360e+01 -1.189133265614509583e+01 4.799191747792121987e-01
-6.082872179150581360e+01 -1.171738246083259583e+01 4.621426855213996987e-01
-6.546373155713081360e+01 -1.343564417958259583e+01 5.445096288807746987e-01
-7.298777940869331360e+01 -1.596298792958259583e+01 6.695401464588996987e-01
-1.614915636181831360e+01 -8.857174217700958252e-01 -3.266932619735030130e-02
-1.610997179150581360e+01 -1.031103163957595825e+00 -2.699305666610030130e-02
-1.592625597119331360e+01 -1.148412734270095825e+00 -2.354457033797530130e-02
-6.783116319775581360e+01 -1.189584925770759583e+01 8.027798925526496987e-01
-1.594188097119331360e+01 -1.456029921770095825e+00 -1.081874025985030130e-02
-6.083934190869331360e+01 -1.170859339833259583e+01 7.431790624745246987e-01
-6.538926866650581360e+01 -1.340598109364509583e+01 8.465878759510871987e-01
-7.280980089306831360e+01 -1.590561488270759583e+01 1.004226425755774699e+00
-1.615623643994331360e+01 -8.842525780200958252e-01 3.689549313858719870e-02
-1.611961534619331360e+01 -1.030248671770095825e+00 4.257176266983719870e-02
-5.201207140088081360e+01 -8.130834609270095825e+00 7.677151952870246987e-01
-1.597923448681831360e+01 -1.308568984270095825e+00 5.221531735733719870e-02
-1.594700792431831360e+01 -1.454443007707595825e+00 5.795262204483719870e-02
-6.084983995556831360e+01 -1.169980433583259583e+01 1.022750595677649699e+00
-1.630479601025581360e+01 -1.845922499895095825e+00 7.900975095108719870e-02
-7.057908800244331360e+01 -1.534360316395759583e+01 1.293288925755774699e+00
-1.616331651806831360e+01 -8.827877342700958252e-01 1.064908300526496987e-01
-1.612925890088081360e+01 -1.029272109270095825e+00 1.118466650135871987e-01
-1.601671007275581360e+01 -1.160497695207595825e+00 1.156308447010871987e-01
-1.602488878369331360e+01 -1.315160781145095825e+00 1.224057470448371987e-01
-7.139378526806831360e+01 -1.332529261708259583e+01 1.546935776341712199e+00
-1.658177354931831360e+01 -1.747289687395095825e+00 1.500851904042121987e-01
-1.628367784619331360e+01 -1.838109999895095825e+00 1.490933691151496987e-01
-7.117918565869331360e+01 -1.547775843739509583e+01 1.637527207005774699e+00
-1.245030382275581360e+01 -1.095556288957595825e+00 -9.525912011973503013e-01
-1.247129991650581360e+01 -1.219457656145095825e+00 -9.510195459239128013e-01
-1.248704698681831360e+01 -1.343114882707595825e+00 -9.493715967051628013e-01
-1.250279405713081360e+01 -1.468236953020095825e+00 -9.477083886973503013e-01
-1.251878526806831360e+01 -1.593969374895095825e+00 -9.460299219004753013e-01
-1.253489854931831360e+01 -1.720800429582595825e+00 -9.443361963145378013e-01
-1.255113390088081360e+01 -1.849218398332595825e+00 -9.426272119395378013e-01
-1.255198839306831360e+01 -1.973241835832595825e+00 -9.402620996348503013e-01
-1.368809679150581360e+01 -1.401708632707595825e+00 -9.714510644786003013e-01
-1.368919542431831360e+01 -1.533544570207595825e+00 -9.684603418223503013e-01
-1.369810655713081360e+01 -1.668310195207595825e+00 -9.655916894786003013e-01
-1.369932726025581360e+01 -1.802343398332595825e+00 -9.625399316661003013e-01
-1.370604112744331360e+01 -1.938329726457595825e+00 -9.598238672129753013e-01
-1.373399522900581360e+01 -2.081518203020095825e+00 -9.582674707286003013e-01
-1.375389268994331360e+01 -2.224218398332595825e+00 -9.565584863536003013e-01
-1.378233507275581360e+01 -2.370214492082595825e+00 -9.549715722911003013e-01
-1.531981065869331360e+01 -1.805395156145095825e+00 -9.996340478770378013e-01
-1.532652452588081360e+01 -1.956029921770095825e+00 -9.963381494395378013e-01
-1.533323839306831360e+01 -2.107641249895095825e+00 -9.930269922129753013e-01
-1.533995226025581360e+01 -2.260717421770095825e+00 -9.896700586192253013e-01
-1.534678819775581360e+01 -2.414281874895095825e+00 -9.863131250254753013e-01
-1.535362413525581360e+01 -2.568944960832595825e+00 -9.829256738536003013e-01
-1.536937120556831360e+01 -2.728002578020095825e+00 -9.799807275645378013e-01
-1.540403917431831360e+01 -2.893774062395095825e+00 -9.779818261973503013e-01
-1.737962511181831360e+01 -2.314916640520095825e+00 -1.033554335962975301e+00
-1.741734483838081360e+01 -2.495336562395095825e+00 -1.030578872095787801e+00
-1.743821886181831360e+01 -2.673070937395095825e+00 -1.027145644556725301e+00
-1.747996690869331360e+01 -2.858617812395095825e+00 -1.024673720728600301e+00
-1.754307726025581360e+01 -3.051610976457595825e+00 -1.023163100611412801e+00
-1.760692003369331360e+01 -3.247289687395095825e+00 -1.021652480494225301e+00
-1.765587022900581360e+01 -3.441259413957595825e+00 -1.019348403345787801e+00
-1.769603136181831360e+01 -3.634008437395095825e+00 -1.017029067408287801e+00
-2.004039171338081360e+01 -2.972997695207595825e+00 -1.073990126978600301e+00
-2.013499620556831360e+01 -3.196386367082595825e+00 -1.072754165064537801e+00
-2.023118761181831360e+01 -3.423315078020095825e+00 -1.071487685572350301e+00
-2.032921007275581360e+01 -3.654638320207595825e+00 -1.070205947291100301e+00
-2.042857530713081360e+01 -3.888891249895095825e+00 -1.068908950220787801e+00
-2.052952745556831360e+01 -4.126928359270095825e+00 -1.067596694361412801e+00
-2.063255479931831360e+01 -4.369848281145095825e+00 -1.066253920923912801e+00
-2.073692491650581360e+01 -4.615819960832595825e+00 -1.064895888697350301e+00
-2.474925401806831360e+01 -4.138647109270095825e+00 -1.170059462916100301e+00
-2.483775499463081360e+01 -4.410253554582595825e+00 -1.165878554712975301e+00
-2.489988878369331360e+01 -4.677953749895095825e+00 -1.161178847681725301e+00
-2.496287706494331360e+01 -4.949560195207595825e+00 -1.156418105494225301e+00
-2.502635362744331360e+01 -5.223363906145095825e+00 -1.151611586939537801e+00
-2.509044054150581360e+01 -5.499975234270095825e+00 -1.146744033228600301e+00
-2.515550401806831360e+01 -5.780736953020095825e+00 -1.141815444361412801e+00
-2.524888780713081360e+01 -6.072729140520095825e+00 -1.138489028345787801e+00
-3.170091417431831360e+01 -5.858984023332595825e+00 -1.298309584986412801e+00
-3.173716905713081360e+01 -6.190526992082595825e+00 -1.290039321314537801e+00
-3.182469347119331360e+01 -6.538549453020095825e+00 -1.283417006861412801e+00
-3.204673936963081360e+01 -6.929174453020095825e+00 -1.281173964869225301e+00
-3.217686632275581360e+01 -7.298437148332595825e+00 -1.275696059595787801e+00
-3.230870226025581360e+01 -7.672948867082595825e+00 -1.270157119166100301e+00
-3.251561143994331360e+01 -8.077001601457595825e+00 -1.266876479517662801e+00
-3.285862901806831360e+01 -8.530248671770095825e+00 -1.267822524439537801e+00
-4.193126085400581360e+01 -8.389501601457595825e+00 -1.459121962916100301e+00
-4.313170030713081360e+01 -9.130346328020095825e+00 -1.481201430689537801e+00
-4.443565538525581360e+01 -9.926977187395095825e+00 -1.504349013697350301e+00
-4.443724229931831360e+01 -1.039121058583259583e+01 -1.490112563502037801e+00
-4.444664171338081360e+01 -1.085873988270759583e+01 -1.476059218775475301e+00
-4.523448351025581360e+01 -1.156381800770759583e+01 -1.483795424830162801e+00
-4.537828233838081360e+01 -1.208933070302009583e+01 -1.474121352564537801e+00
-4.568223741650581360e+01 -1.267075160145759583e+01 -1.467590590845787801e+00
-4.193602159619331360e+01 -8.382909804582595825e+00 -1.266250869166100301e+00
-5.273314073681831360e+01 -1.160239222645759583e+01 -1.518921157252037801e+00
-6.285667589306831360e+01 -1.487302210927009583e+01 -1.747757216822350301e+00
-6.375242784619331360e+01 -1.578513148427009583e+01 -1.748047133814537801e+00
-6.408970811963081360e+01 -1.655588343739509583e+01 -1.734451552759850301e+00
-6.482383897900581360e+01 -1.745725062489509583e+01 -1.729767104517662801e+00
-6.525438097119331360e+01 -1.828610804677009583e+01 -1.717376967798912801e+00
-6.580320909619331360e+01 -1.916415980458259583e+01 -1.707321425806725301e+00
