7.252969026565551758e+00 -7.649155020713806152e+00 -8.825074723805244048e-01
7.340005159378051758e+00 -7.575180411338806152e+00 -8.769227555836494048e-01
7.429604768753051758e+00 -7.505234122276306152e+00 -8.719026139820869048e-01
7.519570589065551758e+00 -7.435043692588806152e+00 -8.668672135914619048e-01
7.609048128128051758e+00 -7.365219473838806152e+00 -8.618623307789619048e-01
7.698525667190551758e+00 -7.295517325401306152e+00 -8.568574479664619048e-01
7.788247346878051758e+00 -7.225571036338806152e+00 -8.518220475758369048e-01
7.874673128128051758e+00 -7.152206778526306152e+00 -8.468476823414619048e-01
7.811318635940551758e+00 -8.488510489463806152e+00 -8.833314469898994048e-01
7.930947542190551758e+00 -8.444321036338806152e+00 -8.799287370289619048e-01
8.037392854690551758e+00 -8.380234122276306152e+00 -8.749391130055244048e-01
8.128457307815551758e+00 -8.293442130088806152e+00 -8.688203385914619048e-01
8.239053010940551758e+00 -8.234726309776306152e+00 -8.644715837086494048e-01
8.350136995315551758e+00 -8.176254630088806152e+00 -8.601533464039619048e-01
8.457314729690551758e+00 -8.111191153526306152e+00 -8.557130387867744048e-01
8.569009065628051758e+00 -8.052353262901306152e+00 -8.513642839039619048e-01
8.500039339065551758e+00 -9.523666739463806152e+00 -8.862458757008369048e-01
8.646645784378051758e+00 -9.497055411338806152e+00 -8.836061051930244048e-01
8.794595003128051758e+00 -9.470322012901306152e+00 -8.809510758961494048e-01
8.944497346878051758e+00 -9.443222403526306152e+00 -8.782502702320869048e-01
9.067178010940551758e+00 -9.377304434776306152e+00 -8.733064225758369048e-01
9.184243440628051758e+00 -9.303207755088806152e+00 -8.678742936695869048e-01
9.310097932815551758e+00 -9.239609122276306152e+00 -8.630677751148994048e-01
9.435830354690551758e+00 -9.176132559776306152e+00 -8.582459977711494048e-01
9.706338167190551758e+00 -1.133445775508880615e+01 -9.189302018727119048e-01
9.804726839065551758e+00 -1.119895970821380615e+01 -9.096375993336494048e-01
9.899819612503051758e+00 -1.106053197383880615e+01 -9.006043962086494048e-01
9.994546175003051758e+00 -1.092271459102630615e+01 -8.916017106617744048e-01
1.008829617500305176e+01 -1.078623998165130615e+01 -8.826905778492744048e-01
1.023844265937805176e+01 -1.072776830196380615e+01 -8.778382829273994048e-01
1.038089871406555176e+01 -1.065672338008880615e+01 -8.723146012867744048e-01
1.049930691719055176e+01 -1.055491673946380615e+01 -8.656007340992744048e-01
1.192130398750305176e+01 -1.465782201290130615e+01 -1.002517848357086905e+00
1.164750027656555176e+01 -1.390623509883880615e+01 -9.643556169117744048e-01
1.108011746406555176e+01 -1.275987279415130615e+01 -9.079286149586494048e-01
1.106644558906555176e+01 -1.243394505977630615e+01 -8.901216081227119048e-01
1.119913601875305176e+01 -1.231980931758880615e+01 -8.822175553883369048e-01
1.140580105781555176e+01 -1.230577123165130615e+01 -8.789674333180244048e-01
1.161576199531555176e+01 -1.229148900508880615e+01 -8.756562760914619048e-01
1.182767605781555176e+01 -1.227720677852630615e+01 -8.723146012867744048e-01
1.258707547187805176e+01 -1.566246068477630615e+01 -9.533692887867744048e-01
1.300699734687805176e+01 -1.590672338008880615e+01 -9.592286637867744048e-01
1.348575711250305176e+01 -1.622007787227630615e+01 -9.682923844898994048e-01
1.405655789375305176e+01 -1.664305150508880615e+01 -9.816438249195869048e-01
1.410172390937805176e+01 -1.632090795040130615e+01 -9.644166520680244048e-01
1.304056668281555176e+01 -1.451524388790130615e+01 -8.871919206227119048e-01
1.314640164375305176e+01 -1.431810033321380615e+01 -8.755036882008369048e-01
1.339017605781555176e+01 -1.430369603633880615e+01 -8.716737321461494048e-01
1.352469754219055176e+01 -1.707530248165130615e+01 -9.073487809742744048e-01
1.403568387031555176e+01 -1.742344701290130615e+01 -9.150544694508369048e-01
1.467459988594055176e+01 -1.793504369258880615e+01 -9.283448747242744048e-01
1.525431180000305176e+01 -1.833494603633880615e+01 -9.373323014820869048e-01
1.600882840156555176e+01 -1.895433080196380615e+01 -9.537507585133369048e-01
1.674662137031555176e+01 -1.951976048946380615e+01 -9.678803971852119048e-01
1.758182644844055176e+01 -2.018284642696380615e+01 -9.849702409352119048e-01
1.666959500312805176e+01 -1.855332982540130615e+01 -9.231263688648994048e-01
1.458573269844055176e+01 -1.867442357540130615e+01 -8.520051530445869048e-01
1.528116726875305176e+01 -1.925962865352630615e+01 -8.637696794117744048e-01
1.594669461250305176e+01 -1.977110326290130615e+01 -8.722535661305244048e-01
1.674417996406555176e+01 -2.043919408321380615e+01 -8.855897477711494048e-01
1.762992215156555176e+01 -2.119603002071380615e+01 -9.010621598805244048e-01
1.855313992500305176e+01 -2.196556127071380615e+01 -9.163362077320869048e-01
1.940775418281555176e+01 -2.260435521602630615e+01 -9.279939225758369048e-01
2.047379422187805176e+01 -2.348558080196380615e+01 -9.453279069508369048e-01
1.583158230781555176e+01 -2.055223119258880615e+01 -7.854157975758369048e-01
1.669107937812805176e+01 -2.133885228633880615e+01 -7.974854997242744048e-01
1.761234402656555176e+01 -2.217442357540130615e+01 -8.101197770680244048e-01
1.864688992500305176e+01 -2.312608373165130615e+01 -8.248292497242744048e-01
1.970658230781555176e+01 -2.406724584102630615e+01 -8.385621598805244048e-01
2.075711941719055176e+01 -2.494981420040130615e+01 -8.501435807789619048e-01
2.190262722969055176e+01 -2.591233861446380615e+01 -8.627625993336494048e-01
2.330716824531555176e+01 -2.716465795040130615e+01 -8.811646989430244048e-01
1.716874051094055176e+01 -2.256871068477630615e+01 -7.015077165211494048e-01
1.811209988594055176e+01 -2.343614232540130615e+01 -7.091523698414619048e-01
1.928751492500305176e+01 -2.459361302852630615e+01 -7.214814714039619048e-01
2.045438504219055176e+01 -2.568113744258880615e+01 -7.314759782398994048e-01
2.166666531562805176e+01 -2.678025853633880615e+01 -7.407380632008369048e-01
2.350284695625305176e+01 -2.866795384883880615e+01 -7.628938249195869048e-01
2.782010769844055176e+01 -3.374864232540130615e+01 -8.384248307789619048e-01
2.954935574531555176e+01 -3.526255834102630615e+01 -8.496705583180244048e-01
1.824881863594055176e+01 -2.420079076290130615e+01 -5.892945817555244048e-01
1.936808133125305176e+01 -2.529258763790130615e+01 -5.935517839039619048e-01
2.087577176094055176e+01 -2.688951146602630615e+01 -6.034242204273994048e-01
2.234317898750305176e+01 -2.835289037227630615e+01 -6.100465348805244048e-01
2.634977078437805176e+01 -3.325096166133880615e+01 -6.576692155445869048e-01
2.869840359687805176e+01 -3.569847142696380615e+01 -6.717225602711494048e-01
3.423233914375305176e+01 -4.224607884883880615e+01 -7.303773454273994048e-01
5.556351590156555176e+01 -6.899034154415130615e+01 -1.005767970427399405e+00
1.958744168281555176e+01 -2.622251927852630615e+01 -4.631959489430244048e-01
1.928836941719055176e+01 -2.518638646602630615e+01 -4.423677018727119048e-01
2.277408719062805176e+01 -2.963377416133880615e+01 -4.639894059742744048e-01
2.644791531562805176e+01 -3.414927709102630615e+01 -4.817811540211494048e-01
2.907584500312805176e+01 -3.702671849727630615e+01 -4.842988542164619048e-01
2.100577664375305176e+01 -2.836558568477630615e+01 -3.143922380055244048e-01
1.929337430000305176e+01 -2.520494115352630615e+01 -2.919313005055244048e-01
2.650992703437805176e+01 -3.502598607540130615e+01 -2.993623307789619048e-01
2.919278836250305176e+01 -3.803331029415130615e+01 -2.855683854664619048e-01
3.885404324531555176e+01 -5.054002416133880615e+01 -2.782441667164619048e-01
3.985685086250305176e+01 -5.081321752071380615e+01 -2.515870622242744048e-01
3.972355008125305176e+01 -4.955210912227630615e+01 -2.226106217945869048e-01
1.911783719062805176e+01 -2.553941380977630615e+01 -1.554872087086494048e-01
2.018387722969055176e+01 -2.652647435665130615e+01 -1.381837419117744048e-01
2.931363797187805176e+01 -3.907994115352630615e+01 -7.823195968521190480e-02
3.780313992500305176e+01 -5.019248998165130615e+01 -1.042190109146190480e-02
3.912516140937805176e+01 -5.093577611446380615e+01 2.137741531478809520e-02
2.129789090156555176e+01 -2.573545873165130615e+01 -8.088698898208690480e-02
3.959159207344055176e+01 -4.939781224727630615e+01 7.131943191635059520e-02
3.914615750312805176e+01 -4.777403295040130615e+01 9.016403640853809520e-02
1.909366726875305176e+01 -2.551451146602630615e+01 -4.409938200836904798e-03
2.025565457344055176e+01 -2.664366185665130615e+01 1.980576004135059520e-02
4.351749539375305176e+01 -5.956651341915130615e+01 3.372953840647880952e-01
1.924820828437805176e+01 -2.403550755977630615e+01 2.708420242416309520e-02
3.909024930000305176e+01 -5.090879857540130615e+01 3.194120832835380952e-01
1.978641629219055176e+01 -2.370152318477630615e+01 5.390915359603809520e-02
1.921305203437805176e+01 -2.570542943477630615e+01 1.484373518382255952e-01
2.001761746406555176e+01 -2.630491673946380615e+01 1.734159895335380952e-01
4.359659695625305176e+01 -5.970555150508880615e+01 6.832426496897880952e-01
3.694083523750305176e+01 -4.901792943477630615e+01 5.570219465647880952e-01
2.132914090156555176e+01 -2.579991185665130615e+01 2.349394270335380952e-01
3.922733426094055176e+01 -4.791929662227630615e+01 6.673429914866630952e-01
1.945292019844055176e+01 -2.548436009883880615e+01 3.129118391429130952e-01
2.102884793281555176e+01 -2.718089330196380615e+01 3.650511213694755952e-01
1.943766140937805176e+01 -2.432408177852630615e+01 3.242033430491630952e-01
1.973124051094055176e+01 -2.364744603633880615e+01 3.441465803538505952e-01
2.141825222969055176e+01 -2.535948216915130615e+01 4.010313459788505952e-01
4.004947781562805176e+01 -4.900743138790130615e+01 9.819029280101005952e-01
2.064945340156555176e+01 -2.789134252071380615e+01 5.053862043772880952e-01
2.108780789375305176e+01 -2.727793920040130615e+01 5.299681135569755952e-01
3.888834500312805176e+01 -5.181028783321380615e+01 1.203170628205413095e+00
3.729996609687805176e+01 -4.849693334102630615e+01 1.150482029572600595e+00
2.142948269844055176e+01 -2.595835912227630615e+01 5.546415754710380952e-01
2.156339383125305176e+01 -2.556297338008880615e+01 5.635069319163505952e-01
2.077787137031555176e+01 -2.809715306758880615e+01 6.755979963694755952e-01
2.095719265937805176e+01 -2.772520482540130615e+01 6.855314680491630952e-01
3.715384793281555176e+01 -5.048106420040130615e+01 1.422424168244475595e+00
3.718961453437805176e+01 -4.943150365352630615e+01 1.427169651642913095e+00
1.942984890937805176e+01 -2.378965795040130615e+01 6.201628157054130952e-01
2.063334012031555176e+01 -2.489061009883880615e+01 6.766508528147880952e-01
3.943399930000305176e+01 -4.929222142696380615e+01 1.540313572541350595e+00
3.975919461250305176e+01 -4.867088353633880615e+01 1.558181614533538095e+00
1.957145047187805176e+01 -2.629112279415130615e+01 7.764128157054130952e-01
1.934012722969055176e+01 -2.535179173946380615e+01 7.626493879710380952e-01
2.028507351875305176e+01 -2.614244115352630615e+01 8.127134748851005952e-01
2.146744656562805176e+01 -2.722569310665130615e+01 8.754423567210380952e-01
1.941751980781555176e+01 -2.378306615352630615e+01 7.652738996897880952e-01
1.981131863594055176e+01 -2.378697240352630615e+01 7.858274885569755952e-01
2.016007351875305176e+01 -2.372178685665130615e+01 8.039854475413505952e-01
3.944193387031555176e+01 -4.827867162227630615e+01 1.834792942658538095e+00
7.875039339065551758e+00 -7.152084708213806152e+00 -8.468476823414619048e-01
7.963662385940551758e+00 -7.081528067588806152e+00 -8.418580583180244048e-01
8.049355745315551758e+00 -7.007431387901306152e+00 -8.368836930836494048e-01
8.136513948440551758e+00 -6.934555411338806152e+00 -8.320008805836494048e-01
8.238930940628051758e+00 -6.880356192588806152e+00 -8.284303239430244048e-01
8.341714143753051758e+00 -6.826034903526306152e+00 -8.248292497242744048e-01
8.433144807815551758e+00 -6.757309317588806152e+00 -8.202363542164619048e-01
8.516518831253051758e+00 -6.680038809776306152e+00 -8.153382829273994048e-01
8.569741487503051758e+00 -8.052597403526306152e+00 -8.513795426930244048e-01
8.676430940628051758e+00 -7.986801505088806152e+00 -8.469239762867744048e-01
8.787270784378051758e+00 -7.925522208213806152e+00 -8.424531510914619048e-01
8.891030550003051758e+00 -7.854355216026306152e+00 -8.376466325367744048e-01
8.994668245315551758e+00 -7.783310294151306152e+00 -8.328553727711494048e-01
9.098428010940551758e+00 -7.712021231651306152e+00 -8.280641130055244048e-01
9.205727815628051758e+00 -7.643661856651306152e+00 -8.237611344898994048e-01
9.302895784378051758e+00 -7.564316153526306152e+00 -8.184358171070869048e-01
9.436562776565551758e+00 -9.176254630088806152e+00 -8.582459977711494048e-01
9.556924104690551758e+00 -9.105087637901306152e+00 -8.533174089039619048e-01
9.677773714065551758e+00 -9.033554434776306152e+00 -8.483735612477119048e-01
9.793496370315551758e+00 -8.954574942588806152e+00 -8.429872087086494048e-01
9.909585237503051758e+00 -8.876327872276306152e+00 -8.376466325367744048e-01
1.002591824531555176e+01 -8.797958731651306152e+00 -8.323060563648994048e-01
1.014298367500305176e+01 -8.719223380088806152e+00 -8.269197038258369048e-01
1.025980496406555176e+01 -8.640488028526306152e+00 -8.215638688648994048e-01
1.050003933906555176e+01 -1.055491673946380615e+01 -8.655854753102119048e-01
1.062601590156555176e+01 -1.046287572383880615e+01 -8.589326432789619048e-01
1.074540066719055176e+01 -1.036228978633880615e+01 -8.522187760914619048e-01
1.086527371406555176e+01 -1.026145970821380615e+01 -8.454896501148994048e-01
1.098465847969055176e+01 -1.016087377071380615e+01 -8.387757829273994048e-01
1.110392117500305176e+01 -1.006040990352630615e+01 -8.320619157398994048e-01
1.122379422187805176e+01 -9.959579825401306152e+00 -8.253327897633369048e-01
1.133585476875305176e+01 -9.851059317588806152e+00 -8.186036637867744048e-01
1.182889676094055176e+01 -1.227781713008880615e+01 -8.723298600758369048e-01
1.194742703437805176e+01 -1.214134252071380615e+01 -8.636933854664619048e-01
1.206473660469055176e+01 -1.200437963008880615e+01 -8.550416520680244048e-01
1.221622586250305176e+01 -1.190879857540130615e+01 -8.482667497242744048e-01
1.241495633125305176e+01 -1.186985814571380615e+01 -8.440400651539619048e-01
1.261576199531555176e+01 -1.183042943477630615e+01 -8.397676042164619048e-01
1.281961941719055176e+01 -1.179051244258880615e+01 -8.354493669117744048e-01
1.301468777656555176e+01 -1.173875463008880615e+01 -8.305818132008369048e-01
1.339176297187805176e+01 -1.430455052852630615e+01 -8.716889909352119048e-01
1.365152859687805176e+01 -1.430613744258880615e+01 -8.677369645680244048e-01
1.388944363594055176e+01 -1.427513158321380615e+01 -8.629457048023994048e-01
1.406742215156555176e+01 -1.416612279415130615e+01 -8.550263932789619048e-01
1.426529812812805176e+01 -1.408091771602630615e+01 -8.480378678883369048e-01
1.447672390937805176e+01 -1.400975072383880615e+01 -8.415681413258369048e-01
1.469059109687805176e+01 -1.393772923946380615e+01 -8.350221208180244048e-01
1.488883328437805176e+01 -1.384690892696380615e+01 -8.282624772633369048e-01
1.666947293281555176e+01 -1.855186498165130615e+01 -9.230653337086494048e-01
1.603714871406555176e+01 -1.733641088008880615e+01 -8.763734391773994048e-01
1.613883328437805176e+01 -1.707505834102630615e+01 -8.624116471852119048e-01
1.651468777656555176e+01 -1.715025365352630615e+01 -8.597566178883369048e-01
1.683060574531555176e+01 -1.714610326290130615e+01 -8.543397477711494048e-01
1.704740262031555176e+01 -1.702012670040130615e+01 -8.448335221852119048e-01
1.729435086250305176e+01 -1.692601048946380615e+01 -8.363496354664619048e-01
1.756302762031555176e+01 -1.685508763790130615e+01 -8.285829118336494048e-01
2.048099637031555176e+01 -2.349302709102630615e+01 -9.455110124195869048e-01
2.164737820625305176e+01 -2.445799291133880615e+01 -9.647828630055244048e-01
2.295743680000305176e+01 -2.555394017696380615e+01 -9.860993913258369048e-01
2.003251004219055176e+01 -2.144017064571380615e+01 -8.642579606617744048e-01
2.012357449531555176e+01 -2.108177220821380615e+01 -8.469239762867744048e-01
2.056693387031555176e+01 -2.114207494258880615e+01 -8.409272721852119048e-01
2.096183133125305176e+01 -2.113523900508880615e+01 -8.336946061695869048e-01
2.138395047187805176e+01 -2.115318334102630615e+01 -8.262788346852119048e-01
2.333353543281555176e+01 -2.719676244258880615e+01 -8.818513444508369048e-01
2.477274441719055176e+01 -2.843309056758880615e+01 -8.989869645680244048e-01
2.841715359687805176e+01 -3.235069310665130615e+01 -9.738008073414619048e-01
2.959708523750305176e+01 -3.309690892696380615e+01 -9.771729997242744048e-01
2.994498562812805176e+01 -3.281138646602630615e+01 -9.580079606617744048e-01
2.993473172187805176e+01 -3.210704076290130615e+01 -9.301148942555244048e-01
2.903531765937805176e+01 -3.039781224727630615e+01 -8.820344499195869048e-01
2.945230984687805176e+01 -3.022630345821380615e+01 -8.658601335133369048e-01
2.993497586250305176e+01 -3.575962865352630615e+01 -8.579865983570869048e-01
3.540384793281555176e+01 -4.193638646602630615e+01 -9.443055680836494048e-01
4.451029324531555176e+01 -5.237425267696380615e+01 -1.093567042693024405e+00
4.500455594062805176e+01 -5.188133275508880615e+01 -1.063125758513336905e+00
4.504618191719055176e+01 -5.085350072383880615e+01 -1.024688868864899405e+00
4.443326687812805176e+01 -4.908335912227630615e+01 -9.758149674977119048e-01
3.562626004219055176e+01 -3.796775853633880615e+01 -7.943269303883369048e-01
4.555008816719055176e+01 -4.833030736446380615e+01 -9.201661637867744048e-01
5.556339383125305176e+01 -6.898533666133880615e+01 -1.005600123747711905e+00
5.593375515937805176e+01 -6.801768529415130615e+01 -9.633790544117744048e-01
5.619852566719055176e+01 -6.693479955196380615e+01 -9.203645280445869048e-01
5.656961941719055176e+01 -6.599766576290130615e+01 -8.791352799977119048e-01
5.686356472969055176e+01 -6.498826634883880615e+01 -8.377076676930244048e-01
5.711722683906555176e+01 -6.394969213008880615e+01 -7.964479020680244048e-01
3.561942410469055176e+01 -3.797581517696380615e+01 -5.511476090992744048e-01
5.770060086250305176e+01 -6.201097142696380615e+01 -7.163392594898994048e-01
3.561490750312805176e+01 -3.798643529415130615e+01 -3.092805436695869048e-01
3.562113308906555176e+01 -3.800938451290130615e+01 -6.602492843521190480e-02
3.914835476875305176e+01 -4.777354466915130615e+01 9.025558914291309520e-02
3.964359402656555176e+01 -4.739561498165130615e+01 1.169889875804130952e-01
4.081900906562805176e+01 -4.891001927852630615e+01 4.230040022288505952e-01
3.924442410469055176e+01 -4.793821752071380615e+01 6.678007551585380952e-01
4.065030789375305176e+01 -4.769358861446380615e+01 7.318113752757255952e-01
4.004923367500305176e+01 -4.900364720821380615e+01 9.819334455882255952e-01
3.970719265937805176e+01 -4.753575170040130615e+01 9.816893049632255952e-01
4.053251004219055176e+01 -4.756651341915130615e+01 1.019149632111663095e+00
4.016678738594055176e+01 -4.814073216915130615e+01 1.288696140900725595e+00
4.031949734687805176e+01 -4.732066380977630615e+01 1.302734226838225595e+00
3.975919461250305176e+01 -4.866746556758880615e+01 1.558196873322600595e+00
3.969486355781555176e+01 -4.755979955196380615e+01 1.559829563752288095e+00
4.047770047187805176e+01 -4.753770482540130615e+01 1.598861546174163095e+00
3.944352078437805176e+01 -4.827720677852630615e+01 1.834884495392913095e+00
4.018229031562805176e+01 -4.820054662227630615e+01 1.873779148713225595e+00
4.077396512031555176e+01 -4.792723119258880615e+01 1.906356663361663095e+00
8.516640901565551758e+00 -6.679428458213806152e+00 -8.153077653492744048e-01
8.602822542190551758e+00 -6.605453848838806152e+00 -8.104096940602119048e-01
8.689858675003051758e+00 -6.531845450401306152e+00 -8.058320573414619048e-01
8.780190706253051758e+00 -6.461166739463806152e+00 -8.014527848805244048e-01
8.870400667190551758e+00 -6.390610098838806152e+00 -7.970887712086494048e-01
8.960732698440551758e+00 -6.319809317588806152e+00 -7.927094987477119048e-01
9.051675081253051758e+00 -6.248764395713806152e+00 -7.883149674977119048e-01
9.139809846878051758e+00 -6.175155997276306152e+00 -7.840119889820869048e-01
9.303139925003051758e+00 -7.563949942588806152e+00 -8.184205583180244048e-01
9.402993440628051758e+00 -7.487289786338806152e+00 -8.136140397633369048e-01
9.507241487503051758e+00 -7.415024161338806152e+00 -8.087770036305244048e-01
9.607827425003051758e+00 -7.337753653526306152e+00 -8.039399674977119048e-01
9.708413362503051758e+00 -7.260483145713806152e+00 -7.991029313648994048e-01
9.809121370315551758e+00 -7.183212637901306152e+00 -7.942658952320869048e-01
9.906045198440551758e+00 -7.100937247276306152e+00 -7.894288590992744048e-01
1.000711941719055176e+01 -7.023300528526306152e+00 -7.845613053883369048e-01
1.026029324531555176e+01 -8.640365958213806152e+00 -8.215486100758369048e-01
1.037259793281555176e+01 -8.556015372276306152e+00 -8.161927751148994048e-01
1.048502469062805176e+01 -8.471542716026306152e+00 -8.108216813648994048e-01
1.059818387031555176e+01 -8.386459708213806152e+00 -8.054200700367744048e-01
1.071122097969055176e+01 -8.301620841026306152e+00 -8.000337174977119048e-01
1.082450222969055176e+01 -8.216415762901306152e+00 -7.946321061695869048e-01
1.093839383125305176e+01 -8.130844473838806152e+00 -7.891847184742744048e-01
1.105228543281555176e+01 -8.045273184776306152e+00 -7.837525895680244048e-01
1.133622097969055176e+01 -9.850693106651306152e+00 -8.185731462086494048e-01
1.147818875312805176e+01 -9.775131583213806152e+00 -8.130647233570869048e-01
1.162369656562805176e+01 -9.702011466026306152e+00 -8.080750993336494048e-01
1.177042508125305176e+01 -9.628280997276306152e+00 -8.030244401539619048e-01
1.191776394844055176e+01 -9.554306387901306152e+00 -7.979585221852119048e-01
1.206583523750305176e+01 -9.479965567588806152e+00 -7.928620866383369048e-01
1.221537137031555176e+01 -9.404770255088806152e+00 -7.877198747242744048e-01
1.235746121406555176e+01 -9.321762442588806152e+00 -7.825624040211494048e-01
1.301517605781555176e+01 -1.173838841915130615e+01 -8.305512956227119048e-01
1.318070340156555176e+01 -1.165135228633880615e+01 -8.244020036305244048e-01
1.333036160469055176e+01 -1.154576146602630615e+01 -8.174287370289619048e-01
1.348087430000305176e+01 -1.143943822383880615e+01 -8.103944352711494048e-01
1.363138699531555176e+01 -1.133311498165130615e+01 -8.033753923023994048e-01
1.378238797187805176e+01 -1.122654759883880615e+01 -7.963258317555244048e-01
1.393424344062805176e+01 -1.111936986446380615e+01 -7.892457536305244048e-01
1.408609890937805176e+01 -1.101219213008880615e+01 -7.821504167164619048e-01
1.488956570625305176e+01 -1.384666478633880615e+01 -8.282319596852119048e-01
1.509000515937805176e+01 -1.375645482540130615e+01 -8.207551530445869048e-01
1.530619168281555176e+01 -1.368101537227630615e+01 -8.143006852711494048e-01
1.553251004219055176e+01 -1.361253392696380615e+01 -8.080903581227119048e-01
1.575284695625305176e+01 -1.353587377071380615e+01 -8.015290788258369048e-01
1.596866726875305176e+01 -1.345176732540130615e+01 -7.946626237477119048e-01
1.618705105781555176e+01 -1.336680638790130615e+01 -7.877198747242744048e-01
1.639200711250305176e+01 -1.326707494258880615e+01 -7.807466081227119048e-01
1.756412625312805176e+01 -1.685508763790130615e+01 -8.285523942555244048e-01
1.782706570625305176e+01 -1.677403295040130615e+01 -8.206941178883369048e-01
1.809256863594055176e+01 -1.669224584102630615e+01 -8.127442887867744048e-01
1.836148953437805176e+01 -1.660911595821380615e+01 -8.047029069508369048e-01
1.864371609687805176e+01 -1.653746068477630615e+01 -7.969667008961494048e-01
1.893387722969055176e+01 -1.646983373165130615e+01 -7.892915299977119048e-01
1.922855496406555176e+01 -1.640110814571380615e+01 -7.814942887867744048e-01
1.952579617500305176e+01 -1.633201634883880615e+01 -7.736512712086494048e-01
2.138614773750305176e+01 -2.115403783321380615e+01 -8.262635758961494048e-01
2.179508328437805176e+01 -2.114866673946380615e+01 -8.183442643727119048e-01
2.220133328437805176e+01 -2.113243138790130615e+01 -8.092195085133369048e-01
2.269291043281555176e+01 -2.119688451290130615e+01 -8.027192643727119048e-01
2.307828640937805176e+01 -2.114170873165130615e+01 -7.930909684742744048e-01
2.358866238594055176e+01 -2.120726048946380615e+01 -7.862855485523994048e-01
2.409757351875305176e+01 -2.125853002071380615e+01 -7.796937516773994048e-01
2.450064969062805176e+01 -2.119712865352630615e+01 -7.694703630055244048e-01
2.945768094062805176e+01 -3.023008763790130615e+01 -8.658906510914619048e-01
3.026554226875305176e+01 -3.048448216915130615e+01 -8.581697038258369048e-01
3.083121609687805176e+01 -3.045567357540130615e+01 -8.445893815602119048e-01
3.140848660469055176e+01 -3.042625463008880615e+01 -8.307191423023994048e-01
3.199369168281555176e+01 -3.039634740352630615e+01 -8.166505387867744048e-01
3.258890652656555176e+01 -3.036595189571380615e+01 -8.023377946461494048e-01
3.319669461250305176e+01 -3.033482396602630615e+01 -7.877351335133369048e-01
3.381339383125305176e+01 -3.030357396602630615e+01 -7.729188493336494048e-01
4.554630398750305176e+01 -4.832261693477630615e+01 -9.199830583180244048e-01
4.571512722969055176e+01 -4.751512181758880615e+01 -8.864442399586494048e-01
4.600699734687805176e+01 -4.685423314571380615e+01 -8.551332048023994048e-01
4.629776883125305176e+01 -4.619676244258880615e+01 -8.239594987477119048e-01
4.658487820625305176e+01 -4.554673802852630615e+01 -7.931672624195869048e-01
4.686979031562805176e+01 -4.490232884883880615e+01 -7.626039079273994048e-01
4.715360379219055176e+01 -4.426097142696380615e+01 -7.322084001148994048e-01
4.774979519844055176e+01 -4.393577611446380615e+01 -7.053987077320869048e-01
5.770157742500305176e+01 -6.200767552852630615e+01 -7.162019303883369048e-01
5.826627469062805176e+01 -6.136546361446380615e+01 -6.790467790211494048e-01
5.987857937812805176e+01 -6.185704076290130615e+01 -6.494905046070869048e-01
6.156827664375305176e+01 -6.238353002071380615e+01 -6.189118913258369048e-01
6.312027859687805176e+01 -6.272715795040130615e+01 -5.861970475758369048e-01
6.470768094062805176e+01 -6.306907689571380615e+01 -5.524293473805244048e-01
6.615958523750305176e+01 -6.323374974727630615e+01 -5.166780046070869048e-01
9.140176057815551758e+00 -6.175033926963806152e+00 -7.840119889820869048e-01
9.240395784378051758e+00 -6.112655997276306152e+00 -7.802888444508369048e-01
9.336953401565551758e+00 -6.046005606651306152e+00 -7.765504411305244048e-01
9.434365510940551758e+00 -5.978866934776306152e+00 -7.727815202320869048e-01
9.531777620315551758e+00 -5.911606192588806152e+00 -7.690125993336494048e-01
9.629678010940551758e+00 -5.843979239463806152e+00 -7.652284196461494048e-01
9.728432893753051758e+00 -5.775864005088806152e+00 -7.614137223805244048e-01
9.822671175003051758e+00 -5.703720450401306152e+00 -7.575990251148994048e-01
1.000736355781555176e+01 -7.022934317588806152e+00 -7.845460465992744048e-01
1.010379910469055176e+01 -6.940292716026306152e+00 -7.797090104664619048e-01
1.021451687812805176e+01 -6.870590567588806152e+00 -7.753907731617744048e-01
1.032425808906555176e+01 -6.798447012901306152e+00 -7.712251237477119048e-01
1.043424344062805176e+01 -6.726303458213806152e+00 -7.670594743336494048e-01
1.054483914375305176e+01 -6.653671622276306152e+00 -7.628633073414619048e-01
1.065079617500305176e+01 -6.575790762901306152e+00 -7.586518815602119048e-01
1.076236844062805176e+01 -6.502426505088806152e+00 -7.544251969898994048e-01
1.105265164375305176e+01 -8.045029044151306152e+00 -7.837373307789619048e-01
1.116568875312805176e+01 -7.958114981651306152e+00 -7.785646012867744048e-01
1.129020047187805176e+01 -7.881332755088806152e+00 -7.739717057789619048e-01
1.141568875312805176e+01 -7.803696036338806152e+00 -7.693177751148994048e-01
1.154166531562805176e+01 -7.725937247276306152e+00 -7.646638444508369048e-01
1.166825222969055176e+01 -7.647812247276306152e+00 -7.599793962086494048e-01
1.179593777656555176e+01 -7.568832755088806152e+00 -7.552491715992744048e-01
1.192398953437805176e+01 -7.489731192588806152e+00 -7.505036882008369048e-01
1.235819363594055176e+01 -9.321762442588806152e+00 -7.825624040211494048e-01
1.251029324531555176e+01 -9.247055411338806152e+00 -7.773744157398994048e-01
1.265543484687805176e+01 -9.164169669151306152e+00 -7.721559098805244048e-01
1.280204129219055176e+01 -9.080429434776306152e+00 -7.668916276539619048e-01
1.294901394844055176e+01 -8.996445059776306152e+00 -7.615968278492744048e-01
1.309696316719055176e+01 -8.911972403526306152e+00 -7.562867692555244048e-01
1.324637722969055176e+01 -8.826523184776306152e+00 -7.509004167164619048e-01
1.338736844062805176e+01 -8.733383536338806152e+00 -7.455445817555244048e-01
1.408658719062805176e+01 -1.101170384883880615e+01 -7.821351579273994048e-01
1.425028347969055176e+01 -1.091502416133880615e+01 -7.758180192555244048e-01
1.442362332344055176e+01 -1.082566869258880615e+01 -7.698060563648994048e-01
1.459903836250305176e+01 -1.073545873165130615e+01 -7.637330583180244048e-01
1.477506375312805176e+01 -1.064500463008880615e+01 -7.576295426930244048e-01
1.495243191719055176e+01 -1.055381810665130615e+01 -7.514802507008369048e-01
1.513163113594055176e+01 -1.046153295040130615e+01 -7.452699235523994048e-01
1.535440945625305176e+01 -1.040525853633880615e+01 -7.405702165211494048e-01
1.639298367500305176e+01 -1.326707494258880615e+01 -7.807466081227119048e-01
1.662040066719055176e+01 -1.318687474727630615e+01 -7.736970475758369048e-01
1.683512234687805176e+01 -1.309153783321380615e+01 -7.666169694508369048e-01
1.705240750312805176e+01 -1.299510228633880615e+01 -7.594300798023994048e-01
1.730887722969055176e+01 -1.293235814571380615e+01 -7.534486344898994048e-01
1.759354519844055176e+01 -1.289061009883880615e+01 -7.481538346852119048e-01
1.788407254219055176e+01 -1.284812963008880615e+01 -7.427522233570869048e-01
1.811356472969055176e+01 -1.274998509883880615e+01 -7.359010270680244048e-01
1.952713894844055176e+01 -1.633213841915130615e+01 -7.736360124195869048e-01
1.982047390937805176e+01 -1.625462377071380615e+01 -7.657472184742744048e-01
2.011734890937805176e+01 -1.617601048946380615e+01 -7.577516130055244048e-01
2.049466824531555176e+01 -1.616551244258880615e+01 -7.516633561695869048e-01
2.088517117500305176e+01 -1.616087377071380615e+01 -7.456513932789619048e-01
2.125296902656555176e+01 -1.612864720821380615e+01 -7.387086442555244048e-01
2.157022976875305176e+01 -1.604478490352630615e+01 -7.301789811695869048e-01
2.207206082344055176e+01 -1.611412084102630615e+01 -7.258607438648994048e-01
2.450272488594055176e+01 -2.119749486446380615e+01 -7.694551042164619048e-01
2.495670437812805176e+01 -2.117808568477630615e+01 -7.603303483570869048e-01
2.554349637031555176e+01 -2.127439916133880615e+01 -7.528688005055244048e-01
2.611136746406555176e+01 -2.133836400508880615e+01 -7.451936296070869048e-01
2.669339871406555176e+01 -2.140415990352630615e+01 -7.373353532398994048e-01
2.741214871406555176e+01 -2.157823216915130615e+01 -7.315522721852119048e-01
2.818277859687805176e+01 -2.177830541133880615e+01 -7.268220475758369048e-01
2.971842312812805176e+01 -2.261106908321380615e+01 -7.340394548023994048e-01
3.381607937812805176e+01 -3.030406224727630615e+01 -7.728730729664619048e-01
3.443131375312805176e+01 -3.025962865352630615e+01 -7.577973893727119048e-01
3.494022488594055176e+01 -3.010398900508880615e+01 -7.406465104664619048e-01
3.568448758125305176e+01 -3.015538060665130615e+01 -7.265321305836494048e-01
3.700589871406555176e+01 -3.071373021602630615e+01 -7.198030046070869048e-01
3.921329617500305176e+01 -3.201915013790130615e+01 -7.231751969898994048e-01
4.123758816719055176e+01 -3.309751927852630615e+01 -7.216188005055244048e-01
4.278104519844055176e+01 -3.371189916133880615e+01 -7.122804215992744048e-01
4.775846219062805176e+01 -4.394114720821380615e+01 -7.053681901539619048e-01
5.022477078437805176e+01 -4.540159642696380615e+01 -6.963502458180244048e-01
5.227066922187805176e+01 -4.639061009883880615e+01 -6.808167985523994048e-01
5.494608426094055176e+01 -4.789671361446380615e+01 -6.681977799977119048e-01
5.752787137031555176e+01 -4.924144017696380615e+01 -6.520844987477119048e-01
5.900248074531555176e+01 -4.953245580196380615e+01 -6.256410173023994048e-01
9.823159456253051758e+00 -5.703598380088806152e+00 -7.575990251148994048e-01
9.921303987503051758e+00 -5.634140372276306152e+00 -7.537690690602119048e-01
1.001554226875305176e+01 -5.560531973838806152e+00 -7.499238542164619048e-01
1.011039090156555176e+01 -5.486191153526306152e+00 -7.460481217945869048e-01
1.020548367500305176e+01 -5.411850333213806152e+00 -7.421723893727119048e-01
1.030094265937805176e+01 -5.337143301963806152e+00 -7.382813981617744048e-01
1.039737820625305176e+01 -5.261825919151306152e+00 -7.343598893727119048e-01
1.048880887031555176e+01 -5.182724356651306152e+00 -7.304536393727119048e-01
1.076297879219055176e+01 -6.502304434776306152e+00 -7.544251969898994048e-01
1.086893582344055176e+01 -6.423447012901306152e+00 -7.501985124195869048e-01
1.098124051094055176e+01 -6.348739981651306152e+00 -7.459107926930244048e-01
1.108890652656555176e+01 -6.268661856651306152e+00 -7.416230729664619048e-01
1.119669461250305176e+01 -6.188461661338806152e+00 -7.373200944508369048e-01
1.130509305000305176e+01 -6.107895255088806152e+00 -7.330018571461494048e-01
1.140848660469055176e+01 -6.021957755088806152e+00 -7.286683610523994048e-01
1.152433133125305176e+01 -5.945175528526306152e+00 -7.245942643727119048e-01
1.192447781562805176e+01 -7.489487051963806152e+00 -7.504884294117744048e-01
1.204642605781555176e+01 -7.404159903526306152e+00 -7.457429460133369048e-01
1.216922879219055176e+01 -7.318222403526306152e+00 -7.409669450367744048e-01
1.229313015937805176e+01 -7.231552481651306152e+00 -7.361604264820869048e-01
1.241727566719055176e+01 -7.144760489463806152e+00 -7.313233903492744048e-01
1.254227566719055176e+01 -7.057358145713806152e+00 -7.264710954273994048e-01
1.274552273750305176e+01 -7.026962637901306152e+00 -7.248231462086494048e-01
1.299271512031555176e+01 -7.025864005088806152e+00 -7.248231462086494048e-01
1.338810086250305176e+01 -8.733383536338806152e+00 -7.455445817555244048e-01
1.354032254219055176e+01 -8.648300528526306152e+00 -7.401124528492744048e-01
1.368460965156555176e+01 -8.555038809776306152e+00 -7.346803239430244048e-01
1.383036160469055176e+01 -8.460800528526306152e+00 -7.291871598805244048e-01
1.400858426094055176e+01 -8.391342520713806152e+00 -7.248994401539619048e-01
1.433487820625305176e+01 -8.432724356651306152e+00 -7.260133317555244048e-01
1.463895535469055176e+01 -8.449570059776306152e+00 -7.258912614430244048e-01
1.494059109687805176e+01 -8.459335684776306152e+00 -7.258302262867744048e-01
1.535575222969055176e+01 -1.040550267696380615e+01 -7.405702165211494048e-01
1.557169461250305176e+01 -1.034007298946380615e+01 -7.357789567555244048e-01
1.579068875312805176e+01 -1.027366673946380615e+01 -7.309266618336494048e-01
1.616214871406555176e+01 -1.032481420040130615e+01 -7.309266618336494048e-01
1.654825711250305176e+01 -1.037998998165130615e+01 -7.310182145680244048e-01
1.686832547187805176e+01 -1.037620580196380615e+01 -7.286225846852119048e-01
1.723026394844055176e+01 -1.039671361446380615e+01 -7.271424821461494048e-01
1.775223660469055176e+01 -1.052842748165130615e+01 -7.301484635914619048e-01
1.811502957344055176e+01 -1.275022923946380615e+01 -7.359010270680244048e-01
1.846427273750305176e+01 -1.274876439571380615e+01 -7.315980485523994048e-01
1.885990262031555176e+01 -1.277793920040130615e+01 -7.288056901539619048e-01
1.964505887031555176e+01 -1.310862767696380615e+01 -7.362062028492744048e-01
2.005716824531555176e+01 -1.312791478633880615e+01 -7.327729753102119048e-01
2.083304715156555176e+01 -1.341746556758880615e+01 -7.383119157398994048e-01
2.176017117500305176e+01 -1.379966771602630615e+01 -7.466584733570869048e-01
2.256559109687805176e+01 -1.406968724727630615e+01 -7.516328385914619048e-01
2.207499051094055176e+01 -1.611546361446380615e+01 -7.258760026539619048e-01
2.286649441719055176e+01 -1.641441380977630615e+01 -7.280122331227119048e-01
2.397989773750305176e+01 -1.695506322383880615e+01 -7.363587907398994048e-01
2.501358914375305176e+01 -1.739976537227630615e+01 -7.415772965992744048e-01
2.651896023750305176e+01 -1.818736302852630615e+01 -7.553865007008369048e-01
2.811100125312805176e+01 -1.899937474727630615e+01 -7.690583757008369048e-01
2.947342801094055176e+01 -1.959397923946380615e+01 -7.763063005055244048e-01
3.100760769844055176e+01 -2.028086888790130615e+01 -7.852174333180244048e-01
2.972953152656555176e+01 -2.261875951290130615e+01 -7.341615251148994048e-01
3.149430203437805176e+01 -2.359751927852630615e+01 -7.436982682789619048e-01
3.329007840156555176e+01 -2.455052220821380615e+01 -7.505799821461494048e-01
3.514713406562805176e+01 -2.549961888790130615e+01 -7.571870378102119048e-01
3.615482449531555176e+01 -2.573423802852630615e+01 -7.490693620289619048e-01
3.695523953437805176e+01 -2.578648412227630615e+01 -7.370301774586494048e-01
3.794095730781555176e+01 -2.595945775508880615e+01 -7.278749040211494048e-01
3.921085476875305176e+01 -2.632164037227630615e+01 -7.204438737477119048e-01
4.278556180000305176e+01 -3.371324193477630615e+01 -7.122346452320869048e-01
4.366983914375305176e+01 -3.373838841915130615e+01 -6.943208268727119048e-01
4.496915555000305176e+01 -3.408360326290130615e+01 -6.799775651539619048e-01
4.617545437812805176e+01 -3.432066380977630615e+01 -6.634217790211494048e-01
4.807779812812805176e+01 -3.507725560665130615e+01 -6.521913102711494048e-01
5.156925320625305176e+01 -3.700303685665130615e+01 -6.524507096852119048e-01
5.294193387031555176e+01 -3.723704564571380615e+01 -6.322175553883369048e-01
5.262174344062805176e+01 -3.619822728633880615e+01 -5.986787370289619048e-01
5.657706570625305176e+01 -4.449644505977630615e+01 -5.045014909352119048e-01
5.541983914375305176e+01 -4.262254369258880615e+01 -4.658662370289619048e-01
5.447220730781555176e+01 -4.096604955196380615e+01 -4.298402360523994048e-01
5.382816433906555176e+01 -3.959495580196380615e+01 -3.965150407398994048e-01
5.327909207344055176e+01 -3.833079564571380615e+01 -3.646699479664619048e-01
5.294852566719055176e+01 -3.725828588008880615e+01 -3.342896989430244048e-01
5.262809109687805176e+01 -3.621885716915130615e+01 -3.048249772633369048e-01
5.660721707344055176e+01 -4.454051244258880615e+01 -1.710359147633369048e-01
5.544071316719055176e+01 -4.265782201290130615e+01 -1.419374040211494048e-01
5.448551297187805176e+01 -4.099436986446380615e+01 -1.140595964039619048e-01
5.384098172187805176e+01 -3.962217748165130615e+01 -8.695998702896190480e-02
5.328580594062805176e+01 -3.835276830196380615e+01 -6.073012863052440480e-02
5.295511746406555176e+01 -3.727964818477630615e+01 -3.459182296646190480e-02
5.263456082344055176e+01 -3.623960912227630615e+01 -9.262233122711904798e-03
5.663712430000305176e+01 -4.458433568477630615e+01 1.611174055491630952e-01
5.546146512031555176e+01 -4.269310033321380615e+01 1.806333967601005952e-01
5.449881863594055176e+01 -4.102256810665130615e+01 2.003019758616630952e-01
5.385379910469055176e+01 -3.964939916133880615e+01 2.211759992991630952e-01
5.329264187812805176e+01 -3.837461888790130615e+01 2.417753645335380952e-01
5.296170926094055176e+01 -3.730088841915130615e+01 2.636869856272880952e-01
5.264090847969055176e+01 -3.626023900508880615e+01 2.849119612132255952e-01
6.434903836250305176e+01 -4.996946752071380615e+01 6.218718000804130952e-01
6.427420926094055176e+01 -4.886192357540130615e+01 6.496122785960380952e-01
6.485721707344055176e+01 -4.829270970821380615e+01 6.861113020335380952e-01
6.278580594062805176e+01 -4.568223607540130615e+01 6.837156721507255952e-01
6.287845730781555176e+01 -4.477732884883880615e+01 7.137907453929130952e-01
7.110050320625305176e+01 -4.987754857540130615e+01 8.681028791819755952e-01
6.485550808906555176e+01 -5.040452611446380615e+01 1.008956761017913095e+00
6.429068875312805176e+01 -4.889610326290130615e+01 1.023834080353850595e+00
6.607376980781555176e+01 -4.926768529415130615e+01 1.084930271760100595e+00
6.459244656562805176e+01 -4.709019505977630615e+01 1.080169529572600595e+00
6.216593289375305176e+01 -4.426060521602630615e+01 1.054199070588225595e+00
6.406546902656555176e+01 -4.471360814571380615e+01 1.117889256135100595e+00
5.706632351875305176e+01 -4.405943334102630615e+01 1.191024632111663095e+00
6.555790066719055176e+01 -4.993174779415130615e+01 1.428344578400725595e+00
6.669156765937805176e+01 -4.977342259883880615e+01 1.480529636994475595e+00
6.201871609687805176e+01 -4.513206517696380615e+01 1.380630345002288095e+00
6.203189969062805176e+01 -4.417881810665130615e+01 1.401946873322600595e+00
6.339029812812805176e+01 -4.423521459102630615e+01 1.461028904572600595e+00
6.478690457344055176e+01 -5.039134252071380615e+01 1.765823216096038095e+00
6.443766140937805176e+01 -4.905564916133880615e+01 1.774795384064788095e+00
6.666642117500305176e+01 -4.977513158321380615e+01 1.865081638947600595e+00
6.268985867500305176e+01 -4.566783177852630615e+01 1.757354588166350595e+00
6.585843777656555176e+01 -4.708030736446380615e+01 1.878356785431975595e+00
6.253995633125305176e+01 -4.362718236446380615e+01 1.788925022736663095e+00
6.484061551094055176e+01 -5.045652806758880615e+01 2.146087498322600595e+00
6.442691922187805176e+01 -4.906797826290130615e+01 2.147613377228850595e+00
6.456217312812805176e+01 -4.814402806758880615e+01 2.169219822541350595e+00
6.505777859687805176e+01 -4.750914037227630615e+01 2.204299778596038095e+00
7.182633328437805176e+01 -5.159764134883880615e+01 2.478545994416350595e+00
6.401944851875305176e+01 -4.473838841915130615e+01 2.198577732697600595e+00
6.990287137031555176e+01 -5.347959935665130615e+01 2.759734959260100595e+00
6.561527371406555176e+01 -4.899205052852630615e+01 2.588119358674163095e+00
6.528214383125305176e+01 -4.770237767696380615e+01 2.587203831330413095e+00
6.478983426094055176e+01 -4.940110814571380615e+01 2.914092869416350595e+00
6.647281765937805176e+01 -4.863963353633880615e+01 3.018615574494475595e+00
6.577176785469055176e+01 -4.915721166133880615e+01 3.353652805939788095e+00
6.503556180000305176e+01 -5.022129857540130615e+01 1.754974217072600595e+00
6.435379910469055176e+01 -4.860984838008880615e+01 1.754775852814788095e+00
6.511197781562805176e+01 -4.816490209102630615e+01 1.798644871369475595e+00
6.253812527656555176e+01 -4.516331517696380615e+01 1.737762303010100595e+00
6.364127469062805176e+01 -4.500962865352630615e+01 1.791961521760100595e+00
6.262821316719055176e+01 -4.328746068477630615e+01 1.778549046174163095e+00
6.495072293281555176e+01 -5.017405736446380615e+01 2.135391087189788095e+00
6.440812039375305176e+01 -4.867430150508880615e+01 2.133254856721038095e+00
6.499466824531555176e+01 -4.809434545040130615e+01 2.172256321564788095e+00
6.565763211250305176e+01 -4.757029759883880615e+01 2.214156956330413095e+00
7.206192898750305176e+01 -5.134104955196380615e+01 2.471603245392913095e+00
6.573233914375305176e+01 -4.975181615352630615e+01 2.568618626252288095e+00
6.517765164375305176e+01 -4.825840795040130615e+01 2.559493870392913095e+00
6.597269558906555176e+01 -4.783262670040130615e+01 2.608032078400725595e+00
7.213175320625305176e+01 -5.141624486446380615e+01 2.888900608674163095e+00
6.412040066719055176e+01 -4.442222630977630615e+01 2.555816502228850595e+00
7.103251004219055176e+01 -5.285679662227630615e+01 3.222976536408538095e+00
6.702005887031555176e+01 -4.865574681758880615e+01 3.039413303986663095e+00
6.548893094062805176e+01 -4.811570775508880615e+01 2.584396214142913095e+00
6.588773465156555176e+01 -4.737181127071380615e+01 2.617050022736663095e+00
6.278153347969055176e+01 -4.303892552852630615e+01 2.513458103791350595e+00
6.475174832344055176e+01 -4.968992650508880615e+01 2.907241673127288095e+00
6.596854519844055176e+01 -4.958287084102630615e+01 2.978759617463225595e+00
7.117704129219055176e+01 -5.256175267696380615e+01 3.243484348908538095e+00
6.319120144844055176e+01 -4.335850560665130615e+01 2.895416111603850595e+00
6.558158230781555176e+01 -4.929820287227630615e+01 3.349975437775725595e+00
6.598868680000305176e+01 -4.854856908321380615e+01 3.381851048127288095e+00
6.259427762031555176e+01 -4.294248998165130615e+01 3.227142185822600595e+00
7.044645047187805176e+01 -5.107859838008880615e+01 2.353469700471038095e+00
7.210599637031555176e+01 -5.118724095821380615e+01 2.436920017853850595e+00
6.269596219062805176e+01 -4.309739720821380615e+01 2.119857639924163095e+00
6.452799344062805176e+01 -4.343186986446380615e+01 2.209518284455413095e+00
7.071122097969055176e+01 -5.365562474727630615e+01 2.744125218049163095e+00
6.504410672187805176e+01 -4.802342259883880615e+01 2.532470554963225595e+00
6.591825222969055176e+01 -4.762315404415130615e+01 2.588043064728850595e+00
7.222257351875305176e+01 -5.130088841915130615e+01 2.870239109650725595e+00
6.467154812812805176e+01 -4.355796849727630615e+01 2.592529148713225595e+00
6.612296414375305176e+01 -4.889439427852630615e+01 2.974899143830413095e+00
6.714737820625305176e+01 -4.859227025508880615e+01 3.039871067658538095e+00
6.414566922187805176e+01 -4.421153295040130615e+01 2.931823582306975595e+00
6.321158719062805176e+01 -4.252549779415130615e+01 2.902450413361663095e+00
6.551468777656555176e+01 -4.954246556758880615e+01 3.329391331330413095e+00
6.602481961250305176e+01 -4.884178197383880615e+01 3.370010227814788095e+00
6.166483426094055176e+01 -3.924082982540130615e+01 3.233383030549163095e+00
6.278824734687805176e+01 -3.897288548946380615e+01 3.310928196564788095e+00
6.358207058906555176e+01 -4.283384740352630615e+01 3.695663303986663095e+00
6.430216336250305176e+01 -4.224668920040130615e+01 3.755065769806975595e+00
6.223453640937805176e+01 -3.861497533321380615e+01 3.683013767853850595e+00
6.278592801094055176e+01 -4.202024877071380615e+01 2.248473972931975595e+00
6.057499051094055176e+01 -3.931504857540130615e+01 2.204574436799163095e+00
6.085709500312805176e+01 -3.845433080196380615e+01 2.246490330353850595e+00
6.148465847969055176e+01 -3.784373509883880615e+01 2.302581638947600595e+00
6.618583035469055176e+01 -4.937706029415130615e+01 2.668670506135100595e+00
6.605912137031555176e+01 -4.804759252071380615e+01 2.697387547150725595e+00
6.269083523750305176e+01 -4.310154759883880615e+01 2.629241795197600595e+00
6.313675808906555176e+01 -4.230943334102630615e+01 2.677841038361663095e+00
6.127591824531555176e+01 -3.985081517696380615e+01 2.632705540314788095e+00
6.281253933906555176e+01 -3.986814916133880615e+01 2.725051731721038095e+00
6.113651394844055176e+01 -3.763023412227630615e+01 2.685027928010100595e+00
6.613053250312805176e+01 -4.936595189571380615e+01 3.114349217072600595e+00
6.084928250312805176e+01 -3.957066380977630615e+01 3.014617771760100595e+00
6.502665066719055176e+01 -4.146690404415130615e+01 3.237914890900725595e+00
6.235038113594055176e+01 -3.850083959102630615e+01 3.139312595978850595e+00
6.365458035469055176e+01 -4.275254857540130615e+01 3.537383885041350595e+00
6.421585965156555176e+01 -4.203831517696380615e+01 3.591049046174163095e+00
6.186100125312805176e+01 -3.925120580196380615e+01 3.492339939728850595e+00
6.209342312812805176e+01 -3.835093724727630615e+01 3.529922337189788095e+00
6.348172879219055176e+01 -4.242601048946380615e+01 3.034759373322600595e+00
6.155631375312805176e+01 -3.990550267696380615e+01 2.978729099885100595e+00
6.553153347969055176e+01 -4.163438451290130615e+01 3.190429539338225595e+00
6.226334500312805176e+01 -3.824253880977630615e+01 3.071288914338225595e+00
6.376993680000305176e+01 -4.267051732540130615e+01 3.472823948517913095e+00
6.415006375312805176e+01 -4.181285130977630615e+01 3.519500584260100595e+00
6.197403836250305176e+01 -3.914500463008880615e+01 3.435882420197600595e+00
