6.863545328378677368e+00 -7.282746195793151855e+00 -8.831586261745485444e-01
6.950581461191177368e+00 -7.208771586418151855e+00 -8.775739093776735444e-01
7.040181070566177368e+00 -7.138825297355651855e+00 -8.725537677761110444e-01
7.130146890878677368e+00 -7.068634867668151855e+00 -8.675183673854860444e-01
7.219624429941177368e+00 -6.998810648918151855e+00 -8.625134845729860444e-01
7.309101969003677368e+00 -6.929108500480651855e+00 -8.575086017604860444e-01
7.398823648691177368e+00 -6.859162211418151855e+00 -8.524732013698610444e-01
7.485249429941177368e+00 -6.785797953605651855e+00 -8.474988361354860444e-01
7.421894937753677368e+00 -8.122101664543151855e+00 -8.839826007839235444e-01
7.541523844003677368e+00 -8.077912211418151855e+00 -8.805798908229860444e-01
7.647969156503677368e+00 -8.013825297355651855e+00 -8.755902667995485444e-01
7.739033609628677368e+00 -7.927033305168151855e+00 -8.694714923854860444e-01
7.849629312753677368e+00 -7.868317484855651855e+00 -8.651227375026735444e-01
7.960713297128677368e+00 -7.809845805168151855e+00 -8.608045001979860444e-01
8.067891031503677368e+00 -7.744782328605651855e+00 -8.563641925807985444e-01
8.179585367441177368e+00 -7.685944437980651855e+00 -8.520154376979860444e-01
8.110615640878677368e+00 -9.157257914543151855e+00 -8.868970294948610444e-01
8.257222086191177368e+00 -9.130646586418151855e+00 -8.842572589870485444e-01
8.405171304941177368e+00 -9.103913187980651855e+00 -8.816022296901735444e-01
8.555073648691177368e+00 -9.076813578605651855e+00 -8.789014240261110444e-01
8.677754312753677368e+00 -9.010895609855651855e+00 -8.739575763698610444e-01
8.794819742441177368e+00 -8.936798930168151855e+00 -8.685254474636110444e-01
8.920674234628677368e+00 -8.873200297355651855e+00 -8.637189289089235444e-01
9.046406656503677368e+00 -8.809723734855651855e+00 -8.588971515651735444e-01
9.316914469003677368e+00 -1.096804893016815186e+01 -9.195813556667360444e-01
9.415303140878677368e+00 -1.083255088329315186e+01 -9.102887531276735444e-01
9.510395914316177368e+00 -1.069412314891815186e+01 -9.012555500026735444e-01
9.605122476816177368e+00 -1.055630576610565186e+01 -8.922528644557985444e-01
9.698872476816177368e+00 -1.041983115673065186e+01 -8.833417316432985444e-01
9.849018961191177368e+00 -1.036135947704315186e+01 -8.784894367214235444e-01
9.991475015878677368e+00 -1.029031455516815186e+01 -8.729657550807985444e-01
1.010988321900367737e+01 -1.018850791454315186e+01 -8.662518878932985444e-01
1.153188028931617737e+01 -1.429141318798065186e+01 -1.003169002151111044e+00
1.125807657837867737e+01 -1.353982627391815186e+01 -9.650067707057985444e-01
1.069069376587867737e+01 -1.239346396923065186e+01 -9.085797687526735444e-01
1.067702189087867737e+01 -1.206753623485565186e+01 -8.907727619167360444e-01
1.080971232056617737e+01 -1.195340049266815186e+01 -8.828687091823610444e-01
1.101637735962867737e+01 -1.193936240673065186e+01 -8.796185871120485444e-01
1.122633829712867737e+01 -1.192508018016815186e+01 -8.763074298854860444e-01
1.143825235962867737e+01 -1.191079795360565186e+01 -8.729657550807985444e-01
1.219765177369117737e+01 -1.529605185985565186e+01 -9.540204425807985444e-01
1.261757364869117737e+01 -1.554031455516815186e+01 -9.598798175807985444e-01
1.309633341431617737e+01 -1.585366904735565186e+01 -9.689435382839235444e-01
1.366713419556617737e+01 -1.627664268016815186e+01 -9.822949787136110444e-01
1.371230021119117737e+01 -1.595449912548065186e+01 -9.650678058620485444e-01
1.265114298462867737e+01 -1.414883506298065186e+01 -8.878430744167360444e-01
1.275697794556617737e+01 -1.395169150829315186e+01 -8.761548419948610444e-01
1.300075235962867737e+01 -1.393728721141815186e+01 -8.723248859401735444e-01
1.313527384400367737e+01 -1.670889365673065186e+01 -9.079999347682985444e-01
1.364626017212867737e+01 -1.705703818798065186e+01 -9.157056232448610444e-01
1.428517618775367737e+01 -1.756863486766815186e+01 -9.289960285182985444e-01
1.486488810181617737e+01 -1.796853721141815186e+01 -9.379834552761110444e-01
1.561940470337867737e+01 -1.858792197704315186e+01 -9.544019123073610444e-01
1.635719767212867737e+01 -1.915335166454315186e+01 -9.685315509792360444e-01
1.719240275025367737e+01 -1.981643760204315186e+01 -9.856213947292360444e-01
1.628017130494117737e+01 -1.818692100048065186e+01 -9.237775226589235444e-01
1.419630900025367737e+01 -1.830801475048065186e+01 -8.526563068386110444e-01
1.489174357056617737e+01 -1.889321982860565186e+01 -8.644208332057985444e-01
1.555727091431617737e+01 -1.940469443798065186e+01 -8.729047199245485444e-01
1.635475626587867737e+01 -2.007278525829315186e+01 -8.862409015651735444e-01
1.724049845337867737e+01 -2.082962119579315186e+01 -9.017133136745485444e-01
1.816371622681617737e+01 -2.159915244579315186e+01 -9.169873615261110444e-01
1.901833048462867737e+01 -2.223794639110565186e+01 -9.286450763698610444e-01
2.008437052369117737e+01 -2.311917197704315186e+01 -9.459790607448610444e-01
1.544215860962867737e+01 -2.018582236766815186e+01 -7.860669513698610444e-01
1.630165567994117737e+01 -2.097244346141815186e+01 -7.981366535182985444e-01
1.722292032837867737e+01 -2.180801475048065186e+01 -8.107709308620485444e-01
1.825746622681617737e+01 -2.275967490673065186e+01 -8.254804035182985444e-01
1.931715860962867737e+01 -2.370083701610565186e+01 -8.392133136745485444e-01
2.036769571900367737e+01 -2.458340537548065186e+01 -8.507947345729860444e-01
2.151320353150367737e+01 -2.554592978954315186e+01 -8.634137531276735444e-01
2.291774454712867737e+01 -2.679824912548065186e+01 -8.818158527370485444e-01
1.677931681275367737e+01 -2.220230185985565186e+01 -7.021588703151735444e-01
1.772267618775367737e+01 -2.306973350048065186e+01 -7.098035236354860444e-01
1.889809122681617737e+01 -2.422720420360565186e+01 -7.221326251979860444e-01
2.006496134400367737e+01 -2.531472861766815186e+01 -7.321271320339235444e-01
2.127724161744117737e+01 -2.641384971141815186e+01 -7.413892169948610444e-01
2.311342325806617737e+01 -2.830154502391815186e+01 -7.635449787136110444e-01
2.743068400025367737e+01 -3.338223350048065186e+01 -8.390759845729860444e-01
2.915993204712867737e+01 -3.489614951610565186e+01 -8.503217121120485444e-01
1.785939493775367737e+01 -2.383438193798065186e+01 -5.899457355495485444e-01
1.897865763306617737e+01 -2.492617881298065186e+01 -5.942029376979860444e-01
2.048634806275367737e+01 -2.652310264110565186e+01 -6.040753742214235444e-01
2.195375528931617737e+01 -2.798648154735565186e+01 -6.106976886745485444e-01
2.596034708619117737e+01 -3.288455283641815186e+01 -6.583203693386110444e-01
2.830897989869117737e+01 -3.533206260204315186e+01 -6.723737140651735444e-01
3.384291544556617737e+01 -4.187967002391815186e+01 -7.310284992214235444e-01
5.517409220337867737e+01 -6.862393271923065186e+01 -1.006419124221423544e+00
1.919801798462867737e+01 -2.585611045360565186e+01 -4.638471027370485444e-01
1.889894571900367737e+01 -2.481997764110565186e+01 -4.430188556667360444e-01
2.238466349244117737e+01 -2.926736533641815186e+01 -4.646405597682985444e-01
2.605849161744117737e+01 -3.378286826610565186e+01 -4.824323078151735444e-01
2.868642130494117737e+01 -3.666030967235565186e+01 -4.849500080104860444e-01
2.061635294556617737e+01 -2.799917685985565186e+01 -3.150433917995485444e-01
1.890395060181617737e+01 -2.483853232860565186e+01 -2.925824542995485444e-01
2.612050333619117737e+01 -3.465957725048065186e+01 -3.000134845729860444e-01
2.880336466431617737e+01 -3.766690146923065186e+01 -2.862195392604860444e-01
3.846461954712867737e+01 -5.017361533641815186e+01 -2.788953205104860444e-01
3.946742716431617737e+01 -5.044680869579315186e+01 -2.522382160182985444e-01
3.933412638306617737e+01 -4.918570029735565186e+01 -2.232617755886110444e-01
1.872841349244117737e+01 -2.517300498485565186e+01 -1.561383625026735444e-01
1.979445353150367737e+01 -2.616006553173065186e+01 -1.388348957057985444e-01
2.892421427369117737e+01 -3.871353232860565186e+01 -7.888311347923604444e-02
3.741371622681617737e+01 -4.982608115673065186e+01 -1.107305488548604444e-02
3.873573771119117737e+01 -5.056936728954315186e+01 2.072626152076395556e-02
2.090846720337867737e+01 -2.536904990673065186e+01 -8.153814277611104444e-02
3.920216837525367737e+01 -4.903140342235565186e+01 7.066827812232645556e-02
3.875673380494117737e+01 -4.740762412548065186e+01 8.951288261451395556e-02
1.870424357056617737e+01 -2.514810264110565186e+01 -5.061091994861044441e-03
1.986623087525367737e+01 -2.627725303173065186e+01 1.915460624732645556e-02
4.312807169556617737e+01 -5.920010459423065186e+01 3.366442302707639556e-01
1.885878458619117737e+01 -2.366909873485565186e+01 2.643304863013895556e-02
3.870082560181617737e+01 -5.054238975048065186e+01 3.187609294895139556e-01
1.939699259400367737e+01 -2.333511435985565186e+01 5.325799980201395556e-02
1.882362833619117737e+01 -2.533902060985565186e+01 1.477861980442014556e-01
1.962819376587867737e+01 -2.593850791454315186e+01 1.727648357395139556e-01
4.320717325806617737e+01 -5.933914268016815186e+01 6.825914958957639556e-01
3.655141153931617737e+01 -4.865152060985565186e+01 5.563707927707639556e-01
2.093971720337867737e+01 -2.543350303173065186e+01 2.342882732395139556e-01
3.883791056275367737e+01 -4.755288779735565186e+01 6.666918376926389556e-01
1.906349650025367737e+01 -2.511795127391815186e+01 3.122606853488889556e-01
2.063942423462867737e+01 -2.681448447704315186e+01 3.643999675754514556e-01
1.904823771119117737e+01 -2.395767295360565186e+01 3.235521892551389556e-01
1.934181681275367737e+01 -2.328103721141815186e+01 3.434954265598264556e-01
2.102882853150367737e+01 -2.499307334423065186e+01 4.003801921848264556e-01
3.966005411744117737e+01 -4.864102256298065186e+01 9.812517742160764556e-01
2.026002970337867737e+01 -2.752493369579315186e+01 5.047350505832639556e-01
2.069838419556617737e+01 -2.691153037548065186e+01 5.293169597629514556e-01
3.849892130494117737e+01 -5.144387900829315186e+01 1.202519474411388956e+00
3.691054239869117737e+01 -4.813052451610565186e+01 1.149830875778576456e+00
2.104005900025367737e+01 -2.559195029735565186e+01 5.539904216770139556e-01
2.117397013306617737e+01 -2.519656455516815186e+01 5.628557781223264556e-01
2.038844767212867737e+01 -2.773074424266815186e+01 6.749468425754514556e-01
2.056776896119117737e+01 -2.735879600048065186e+01 6.848803142551389556e-01
3.676442423462867737e+01 -5.011465537548065186e+01 1.421773014450451456e+00
3.680019083619117737e+01 -4.906509482860565186e+01 1.426518497848888956e+00
1.904042521119117737e+01 -2.342324912548065186e+01 6.195116619113889556e-01
2.024391642212867737e+01 -2.452420127391815186e+01 6.759996990207639556e-01
3.904457560181617737e+01 -4.892581260204315186e+01 1.539662418747326456e+00
3.936977091431617737e+01 -4.830447471141815186e+01 1.557530460739513956e+00
1.918202677369117737e+01 -2.592471396923065186e+01 7.757616619113889556e-01
1.895070353150367737e+01 -2.498538291454315186e+01 7.619982341770139556e-01
1.989564982056617737e+01 -2.577603232860565186e+01 8.120623210910764556e-01
2.107802286744117737e+01 -2.685928428173065186e+01 8.747912029270139556e-01
1.902809610962867737e+01 -2.341665732860565186e+01 7.646227458957639556e-01
1.942189493775367737e+01 -2.342056357860565186e+01 7.851763347629514556e-01
1.977064982056617737e+01 -2.335537803173065186e+01 8.033342937473264556e-01
3.905251017212867737e+01 -4.791226279735565186e+01 1.834141788864513956e+00
7.485615640878677368e+00 -6.785675883293151855e+00 -8.474988361354860444e-01
7.574238687753677368e+00 -6.715119242668151855e+00 -8.425092121120485444e-01
7.659932047128677368e+00 -6.641022562980651855e+00 -8.375348468776735444e-01
7.747090250253677368e+00 -6.568146586418151855e+00 -8.326520343776735444e-01
7.849507242441177368e+00 -6.513947367668151855e+00 -8.290814777370485444e-01
7.952290445566177368e+00 -6.459626078605651855e+00 -8.254804035182985444e-01
8.043721109628677368e+00 -6.390900492668151855e+00 -8.208875080104860444e-01
8.127095133066177368e+00 -6.313629984855651855e+00 -8.159894367214235444e-01
8.180317789316177368e+00 -7.686188578605651855e+00 -8.520306964870485444e-01
8.287007242441177368e+00 -7.620392680168151855e+00 -8.475751300807985444e-01
8.397847086191177368e+00 -7.559113383293151855e+00 -8.431043048854860444e-01
8.501606851816177368e+00 -7.487946391105651855e+00 -8.382977863307985444e-01
8.605244547128677368e+00 -7.416901469230651855e+00 -8.335065265651735444e-01
8.709004312753677368e+00 -7.345612406730651855e+00 -8.287152667995485444e-01
8.816304117441177368e+00 -7.277253031730651855e+00 -8.244122882839235444e-01
8.913472086191177368e+00 -7.197907328605651855e+00 -8.190869709011110444e-01
9.047139078378677368e+00 -8.809845805168151855e+00 -8.588971515651735444e-01
9.167500406503677368e+00 -8.738678812980651855e+00 -8.539685626979860444e-01
9.288350015878677368e+00 -8.667145609855651855e+00 -8.490247150417360444e-01
9.404072672128677368e+00 -8.588166117668151855e+00 -8.436383625026735444e-01
9.520161539316177368e+00 -8.509919047355651855e+00 -8.382977863307985444e-01
9.636494547128677368e+00 -8.431549906730651855e+00 -8.329572101589235444e-01
9.753559976816177368e+00 -8.352814555168151855e+00 -8.275708576198610444e-01
9.870381265878677368e+00 -8.274079203605651855e+00 -8.222150226589235444e-01
1.011061564087867737e+01 -1.018850791454315186e+01 -8.662366291042360444e-01
1.023659220337867737e+01 -1.009646689891815186e+01 -8.595837970729860444e-01
1.035597696900367737e+01 -9.995880961418151855e+00 -8.528699298854860444e-01
1.047585001587867737e+01 -9.895050883293151855e+00 -8.461408039089235444e-01
1.059523478150367737e+01 -9.794464945793151855e+00 -8.394269367214235444e-01
1.071449747681617737e+01 -9.694001078605651855e+00 -8.327130695339235444e-01
1.083437052369117737e+01 -9.593171000480651855e+00 -8.259839435573610444e-01
1.094643107056617737e+01 -9.484650492668151855e+00 -8.192548175807985444e-01
1.143947306275367737e+01 -1.191140830516815186e+01 -8.729810138698610444e-01
1.155800333619117737e+01 -1.177493369579315186e+01 -8.643445392604860444e-01
1.167531290650367737e+01 -1.163797080516815186e+01 -8.556928058620485444e-01
1.182680216431617737e+01 -1.154238975048065186e+01 -8.489179035182985444e-01
1.202553263306617737e+01 -1.150344932079315186e+01 -8.446912189479860444e-01
1.222633829712867737e+01 -1.146402060985565186e+01 -8.404187580104860444e-01
1.243019571900367737e+01 -1.142410361766815186e+01 -8.361005207057985444e-01
1.262526407837867737e+01 -1.137234580516815186e+01 -8.312329669948610444e-01
1.300233927369117737e+01 -1.393814170360565186e+01 -8.723401447292360444e-01
1.326210489869117737e+01 -1.393972861766815186e+01 -8.683881183620485444e-01
1.350001993775367737e+01 -1.390872275829315186e+01 -8.635968585964235444e-01
1.367799845337867737e+01 -1.379971396923065186e+01 -8.556775470729860444e-01
1.387587442994117737e+01 -1.371450889110565186e+01 -8.486890216823610444e-01
1.408730021119117737e+01 -1.364334189891815186e+01 -8.422192951198610444e-01
1.430116739869117737e+01 -1.357132041454315186e+01 -8.356732746120485444e-01
1.449940958619117737e+01 -1.348050010204315186e+01 -8.289136310573610444e-01
1.628004923462867737e+01 -1.818545615673065186e+01 -9.237164875026735444e-01
1.564772501587867737e+01 -1.697000205516815186e+01 -8.770245929714235444e-01
1.574940958619117737e+01 -1.670864951610565186e+01 -8.630628009792360444e-01
1.612526407837867737e+01 -1.678384482860565186e+01 -8.604077716823610444e-01
1.644118204712867737e+01 -1.677969443798065186e+01 -8.549909015651735444e-01
1.665797892212867737e+01 -1.665371787548065186e+01 -8.454846759792360444e-01
1.690492716431617737e+01 -1.655960166454315186e+01 -8.370007892604860444e-01
1.717360392212867737e+01 -1.648867881298065186e+01 -8.292340656276735444e-01
2.009157267212867737e+01 -2.312661826610565186e+01 -9.461621662136110444e-01
2.125795450806617737e+01 -2.409158408641815186e+01 -9.654340167995485444e-01
2.256801310181617737e+01 -2.518753135204315186e+01 -9.867505451198610444e-01
1.964308634400367737e+01 -2.107376182079315186e+01 -8.649091144557985444e-01
1.973415079712867737e+01 -2.071536338329315186e+01 -8.475751300807985444e-01
2.017751017212867737e+01 -2.077566611766815186e+01 -8.415784259792360444e-01
2.057240763306617737e+01 -2.076883018016815186e+01 -8.343457599636110444e-01
2.099452677369117737e+01 -2.078677451610565186e+01 -8.269299884792360444e-01
2.294411173462867737e+01 -2.683035361766815186e+01 -8.825024982448610444e-01
2.438332071900367737e+01 -2.806668174266815186e+01 -8.996381183620485444e-01
2.802772989869117737e+01 -3.198428428173065186e+01 -9.744519611354860444e-01
2.920766153931617737e+01 -3.273050010204315186e+01 -9.778241535182985444e-01
2.955556192994117737e+01 -3.244497764110565186e+01 -9.586591144557985444e-01
2.954530802369117737e+01 -3.174063193798065186e+01 -9.307660480495485444e-01
2.864589396119117737e+01 -3.003140342235565186e+01 -8.826856037136110444e-01
2.906288614869117737e+01 -2.985989463329315186e+01 -8.665112873073610444e-01
2.954555216431617737e+01 -3.539321982860565186e+01 -8.586377521511110444e-01
3.501442423462867737e+01 -4.156997764110565186e+01 -9.449567218776735444e-01
4.412086954712867737e+01 -5.200784385204315186e+01 -1.094218196487048544e+00
4.461513224244117737e+01 -5.151492393016815186e+01 -1.063776912307361044e+00
4.465675821900367737e+01 -5.048709189891815186e+01 -1.025340022658923544e+00
4.404384317994117737e+01 -4.871695029735565186e+01 -9.764661212917360444e-01
3.523683634400367737e+01 -3.760134971141815186e+01 -7.949780841823610444e-01
4.516066446900367737e+01 -4.796389853954315186e+01 -9.208173175807985444e-01
5.517397013306617737e+01 -6.861892783641815186e+01 -1.006251277541736044e+00
5.554433146119117737e+01 -6.765127646923065186e+01 -9.640302082057985444e-01
5.580910196900367737e+01 -6.656839072704315186e+01 -9.210156818386110444e-01
5.618019571900367737e+01 -6.563125693798065186e+01 -8.797864337917360444e-01
5.647414103150367737e+01 -6.462185752391815186e+01 -8.383588214870485444e-01
5.672780314087867737e+01 -6.358328330516815186e+01 -7.970990558620485444e-01
3.523000040650367737e+01 -3.760940635204315186e+01 -5.517987628932985444e-01
5.731117716431617737e+01 -6.164456260204315186e+01 -7.169904132839235444e-01
3.522548380494117737e+01 -3.762002646923065186e+01 -3.099316974636110444e-01
3.523170939087867737e+01 -3.764297568798065186e+01 -6.667608222923604444e-02
3.875893107056617737e+01 -4.740713584423065186e+01 8.960443534888895556e-02
3.925417032837867737e+01 -4.702920615673065186e+01 1.163378337863889556e-01
4.042958536744117737e+01 -4.854361045360565186e+01 4.223528484348264556e-01
3.885500040650367737e+01 -4.757180869579315186e+01 6.671496013645139556e-01
4.026088419556617737e+01 -4.732717978954315186e+01 7.311602214817014556e-01
3.965980997681617737e+01 -4.863723838329315186e+01 9.812822917942014556e-01
3.931776896119117737e+01 -4.716934287548065186e+01 9.810381511692014556e-01
4.014308634400367737e+01 -4.720010459423065186e+01 1.018498478317638956e+00
3.977736368775367737e+01 -4.777432334423065186e+01 1.288044987106701456e+00
3.993007364869117737e+01 -4.695425498485565186e+01 1.302083073044201456e+00
3.936977091431617737e+01 -4.830105674266815186e+01 1.557545719528576456e+00
3.930543985962867737e+01 -4.719339072704315186e+01 1.559178409958263956e+00
4.008827677369117737e+01 -4.717129600048065186e+01 1.598210392380138956e+00
3.905409708619117737e+01 -4.791079795360565186e+01 1.834233341598888956e+00
3.979286661744117737e+01 -4.783413779735565186e+01 1.873127994919201456e+00
4.038454142212867737e+01 -4.756082236766815186e+01 1.905705509567638956e+00
8.127217203378677368e+00 -6.313019633293151855e+00 -8.159589191432985444e-01
8.213398844003677368e+00 -6.239045023918151855e+00 -8.110608478542360444e-01
8.300434976816177368e+00 -6.165436625480651855e+00 -8.064832111354860444e-01
8.390767008066177368e+00 -6.094757914543151855e+00 -8.021039386745485444e-01
8.480976969003677368e+00 -6.024201273918151855e+00 -7.977399250026735444e-01
8.571309000253677368e+00 -5.953400492668151855e+00 -7.933606525417360444e-01
8.662251383066177368e+00 -5.882355570793151855e+00 -7.889661212917360444e-01
8.750386148691177368e+00 -5.808747172355651855e+00 -7.846631427761110444e-01
8.913716226816177368e+00 -7.197541117668151855e+00 -8.190717121120485444e-01
9.013569742441177368e+00 -7.120880961418151855e+00 -8.142651935573610444e-01
9.117817789316177368e+00 -7.048615336418151855e+00 -8.094281574245485444e-01
9.218403726816177368e+00 -6.971344828605651855e+00 -8.045911212917360444e-01
9.318989664316177368e+00 -6.894074320793151855e+00 -7.997540851589235444e-01
9.419697672128677368e+00 -6.816803812980651855e+00 -7.949170490261110444e-01
9.516621500253677368e+00 -6.734528422355651855e+00 -7.900800128932985444e-01
9.617695719003677368e+00 -6.656891703605651855e+00 -7.852124591823610444e-01
9.870869547128677368e+00 -8.273957133293151855e+00 -8.221997638698610444e-01
9.983174234628677368e+00 -8.189606547355651855e+00 -8.168439289089235444e-01
1.009560099244117737e+01 -8.105133891105651855e+00 -8.114728351589235444e-01
1.020876017212867737e+01 -8.020050883293151855e+00 -8.060712238307985444e-01
1.032179728150367737e+01 -7.935212016105651855e+00 -8.006848712917360444e-01
1.043507853150367737e+01 -7.850006937980651855e+00 -7.952832599636110444e-01
1.054897013306617737e+01 -7.764435648918151855e+00 -7.898358722682985444e-01
1.066286173462867737e+01 -7.678864359855651855e+00 -7.844037433620485444e-01
1.094679728150367737e+01 -9.484284281730651855e+00 -8.192243000026735444e-01
1.108876505494117737e+01 -9.408722758293151855e+00 -8.137158771511110444e-01
1.123427286744117737e+01 -9.335602641105651855e+00 -8.087262531276735444e-01
1.138100138306617737e+01 -9.261872172355651855e+00 -8.036755939479860444e-01
1.152834025025367737e+01 -9.187897562980651855e+00 -7.986096759792360444e-01
1.167641153931617737e+01 -9.113556742668151855e+00 -7.935132404323610444e-01
1.182594767212867737e+01 -9.038361430168151855e+00 -7.883710285182985444e-01
1.196803751587867737e+01 -8.955353617668151855e+00 -7.832135578151735444e-01
1.262575235962867737e+01 -1.137197959423065186e+01 -8.312024494167360444e-01
1.279127970337867737e+01 -1.128494346141815186e+01 -8.250531574245485444e-01
1.294093790650367737e+01 -1.117935264110565186e+01 -8.180798908229860444e-01
1.309145060181617737e+01 -1.107302939891815186e+01 -8.110455890651735444e-01
1.324196329712867737e+01 -1.096670615673065186e+01 -8.040265460964235444e-01
1.339296427369117737e+01 -1.086013877391815186e+01 -7.969769855495485444e-01
1.354481974244117737e+01 -1.075296103954315186e+01 -7.898969074245485444e-01
1.369667521119117737e+01 -1.064578330516815186e+01 -7.828015705104860444e-01
1.450014200806617737e+01 -1.348025596141815186e+01 -8.288831134792360444e-01
1.470058146119117737e+01 -1.339004600048065186e+01 -8.214063068386110444e-01
1.491676798462867737e+01 -1.331460654735565186e+01 -8.149518390651735444e-01
1.514308634400367737e+01 -1.324612510204315186e+01 -8.087415119167360444e-01
1.536342325806617737e+01 -1.316946494579315186e+01 -8.021802326198610444e-01
1.557924357056617737e+01 -1.308535850048065186e+01 -7.953137775417360444e-01
1.579762735962867737e+01 -1.300039756298065186e+01 -7.883710285182985444e-01
1.600258341431617737e+01 -1.290066611766815186e+01 -7.813977619167360444e-01
1.717470255494117737e+01 -1.648867881298065186e+01 -8.292035480495485444e-01
1.743764200806617737e+01 -1.640762412548065186e+01 -8.213452716823610444e-01
1.770314493775367737e+01 -1.632583701610565186e+01 -8.133954425807985444e-01
1.797206583619117737e+01 -1.624270713329315186e+01 -8.053540607448610444e-01
1.825429239869117737e+01 -1.617105185985565186e+01 -7.976178546901735444e-01
1.854445353150367737e+01 -1.610342490673065186e+01 -7.899426837917360444e-01
1.883913126587867737e+01 -1.603469932079315186e+01 -7.821454425807985444e-01
1.913637247681617737e+01 -1.596560752391815186e+01 -7.743024250026735444e-01
2.099672403931617737e+01 -2.078762900829315186e+01 -8.269147296901735444e-01
2.140565958619117737e+01 -2.078225791454315186e+01 -8.189954181667360444e-01
2.181190958619117737e+01 -2.076602256298065186e+01 -8.098706623073610444e-01
2.230348673462867737e+01 -2.083047568798065186e+01 -8.033704181667360444e-01
2.268886271119117737e+01 -2.077529990673065186e+01 -7.937421222682985444e-01
2.319923868775367737e+01 -2.084085166454315186e+01 -7.869367023464235444e-01
2.370814982056617737e+01 -2.089212119579315186e+01 -7.803449054714235444e-01
2.411122599244117737e+01 -2.083071982860565186e+01 -7.701215167995485444e-01
2.906825724244117737e+01 -2.986367881298065186e+01 -8.665418048854860444e-01
2.987611857056617737e+01 -3.011807334423065186e+01 -8.588208576198610444e-01
3.044179239869117737e+01 -3.008926475048065186e+01 -8.452405353542360444e-01
3.101906290650367737e+01 -3.005984580516815186e+01 -8.313702960964235444e-01
3.160426798462867737e+01 -3.002993857860565186e+01 -8.173016925807985444e-01
3.219948282837867737e+01 -2.999954307079315186e+01 -8.029889484401735444e-01
3.280727091431617737e+01 -2.996841514110565186e+01 -7.883862873073610444e-01
3.342397013306617737e+01 -2.993716514110565186e+01 -7.735700031276735444e-01
4.515688028931617737e+01 -4.795620810985565186e+01 -9.206342121120485444e-01
4.532570353150367737e+01 -4.714871299266815186e+01 -8.870953937526735444e-01
4.561757364869117737e+01 -4.648782432079315186e+01 -8.557843585964235444e-01
4.590834513306617737e+01 -4.583035361766815186e+01 -8.246106525417360444e-01
4.619545450806617737e+01 -4.518032920360565186e+01 -7.938184162136110444e-01
4.648036661744117737e+01 -4.453592002391815186e+01 -7.632550617214235444e-01
4.676418009400367737e+01 -4.389456260204315186e+01 -7.328595539089235444e-01
4.736037150025367737e+01 -4.356936728954315186e+01 -7.060498615261110444e-01
5.731215372681617737e+01 -6.164126670360565186e+01 -7.168530841823610444e-01
5.787685099244117737e+01 -6.099905478954315186e+01 -6.796979328151735444e-01
5.948915567994117737e+01 -6.149063193798065186e+01 -6.501416584011110444e-01
6.117885294556617737e+01 -6.201712119579315186e+01 -6.195630451198610444e-01
6.273085489869117737e+01 -6.236074912548065186e+01 -5.868482013698610444e-01
6.431825724244117737e+01 -6.270266807079315186e+01 -5.530805011745485444e-01
6.577016153931617737e+01 -6.286734092235565186e+01 -5.173291584011110444e-01
8.750752359628677368e+00 -5.808625102043151855e+00 -7.846631427761110444e-01
8.850972086191177368e+00 -5.746247172355651855e+00 -7.809399982448610444e-01
8.947529703378677368e+00 -5.679596781730651855e+00 -7.772015949245485444e-01
9.044941812753677368e+00 -5.612458109855651855e+00 -7.734326740261110444e-01
9.142353922128677368e+00 -5.545197367668151855e+00 -7.696637531276735444e-01
9.240254312753677368e+00 -5.477570414543151855e+00 -7.658795734401735444e-01
9.339009195566177368e+00 -5.409455180168151855e+00 -7.620648761745485444e-01
9.433247476816177368e+00 -5.337311625480651855e+00 -7.582501789089235444e-01
9.617939859628677368e+00 -6.656525492668151855e+00 -7.851972003932985444e-01
9.714375406503677368e+00 -6.573883891105651855e+00 -7.803601642604860444e-01
9.825093179941177368e+00 -6.504181742668151855e+00 -7.760419269557985444e-01
9.934834390878677368e+00 -6.432038187980651855e+00 -7.718762775417360444e-01
1.004481974244117737e+01 -6.359894633293151855e+00 -7.677106281276735444e-01
1.015541544556617737e+01 -6.287262797355651855e+00 -7.635144611354860444e-01
1.026137247681617737e+01 -6.209381937980651855e+00 -7.593030353542360444e-01
1.037294474244117737e+01 -6.136017680168151855e+00 -7.550763507839235444e-01
1.066322794556617737e+01 -7.678620219230651855e+00 -7.843884845729860444e-01
1.077626505494117737e+01 -7.591706156730651855e+00 -7.792157550807985444e-01
1.090077677369117737e+01 -7.514923930168151855e+00 -7.746228595729860444e-01
1.102626505494117737e+01 -7.437287211418151855e+00 -7.699689289089235444e-01
1.115224161744117737e+01 -7.359528422355651855e+00 -7.653149982448610444e-01
1.127882853150367737e+01 -7.281403422355651855e+00 -7.606305500026735444e-01
1.140651407837867737e+01 -7.202423930168151855e+00 -7.559003253932985444e-01
1.153456583619117737e+01 -7.123322367668151855e+00 -7.511548419948610444e-01
1.196876993775367737e+01 -8.955353617668151855e+00 -7.832135578151735444e-01
1.212086954712867737e+01 -8.880646586418151855e+00 -7.780255695339235444e-01
1.226601114869117737e+01 -8.797760844230651855e+00 -7.728070636745485444e-01
1.241261759400367737e+01 -8.714020609855651855e+00 -7.675427814479860444e-01
1.255959025025367737e+01 -8.630036234855651855e+00 -7.622479816432985444e-01
1.270753946900367737e+01 -8.545563578605651855e+00 -7.569379230495485444e-01
1.285695353150367737e+01 -8.460114359855651855e+00 -7.515515705104860444e-01
1.299794474244117737e+01 -8.366974711418151855e+00 -7.461957355495485444e-01
1.369716349244117737e+01 -1.064529502391815186e+01 -7.827863117214235444e-01
1.386085978150367737e+01 -1.054861533641815186e+01 -7.764691730495485444e-01
1.403419962525367737e+01 -1.045925986766815186e+01 -7.704572101589235444e-01
1.420961466431617737e+01 -1.036904990673065186e+01 -7.643842121120485444e-01
1.438564005494117737e+01 -1.027859580516815186e+01 -7.582806964870485444e-01
1.456300821900367737e+01 -1.018740928173065186e+01 -7.521314044948610444e-01
1.474220743775367737e+01 -1.009512412548065186e+01 -7.459210773464235444e-01
1.496498575806617737e+01 -1.003884971141815186e+01 -7.412213703151735444e-01
1.600355997681617737e+01 -1.290066611766815186e+01 -7.813977619167360444e-01
1.623097696900367737e+01 -1.282046592235565186e+01 -7.743482013698610444e-01
1.644569864869117737e+01 -1.272512900829315186e+01 -7.672681232448610444e-01
1.666298380494117737e+01 -1.262869346141815186e+01 -7.600812335964235444e-01
1.691945353150367737e+01 -1.256594932079315186e+01 -7.540997882839235444e-01
1.720412150025367737e+01 -1.252420127391815186e+01 -7.488049884792360444e-01
1.749464884400367737e+01 -1.248172080516815186e+01 -7.434033771511110444e-01
1.772414103150367737e+01 -1.238357627391815186e+01 -7.365521808620485444e-01
1.913771525025367737e+01 -1.596572959423065186e+01 -7.742871662136110444e-01
1.943105021119117737e+01 -1.588821494579315186e+01 -7.663983722682985444e-01
1.972792521119117737e+01 -1.580960166454315186e+01 -7.584027667995485444e-01
2.010524454712867737e+01 -1.579910361766815186e+01 -7.523145099636110444e-01
2.049574747681617737e+01 -1.579446494579315186e+01 -7.463025470729860444e-01
2.086354532837867737e+01 -1.576223838329315186e+01 -7.393597980495485444e-01
2.118080607056617737e+01 -1.567837607860565186e+01 -7.308301349636110444e-01
2.168263712525367737e+01 -1.574771201610565186e+01 -7.265118976589235444e-01
2.411330118775367737e+01 -2.083108603954315186e+01 -7.701062580104860444e-01
2.456728067994117737e+01 -2.081167685985565186e+01 -7.609815021511110444e-01
2.515407267212867737e+01 -2.090799033641815186e+01 -7.535199542995485444e-01
2.572194376587867737e+01 -2.097195518016815186e+01 -7.458447834011110444e-01
2.630397501587867737e+01 -2.103775107860565186e+01 -7.379865070339235444e-01
2.702272501587867737e+01 -2.121182334423065186e+01 -7.322034259792360444e-01
2.779335489869117737e+01 -2.141189658641815186e+01 -7.274732013698610444e-01
2.932899942994117737e+01 -2.224466025829315186e+01 -7.346906085964235444e-01
3.342665567994117737e+01 -2.993765342235565186e+01 -7.735242267604860444e-01
3.404189005494117737e+01 -2.989321982860565186e+01 -7.584485431667360444e-01
3.455080118775367737e+01 -2.973758018016815186e+01 -7.412976642604860444e-01
3.529506388306617737e+01 -2.978897178173065186e+01 -7.271832843776735444e-01
3.661647501587867737e+01 -3.034732139110565186e+01 -7.204541584011110444e-01
3.882387247681617737e+01 -3.165274131298065186e+01 -7.238263507839235444e-01
4.084816446900367737e+01 -3.273111045360565186e+01 -7.222699542995485444e-01
4.239162150025367737e+01 -3.334549033641815186e+01 -7.129315753932985444e-01
4.736903849244117737e+01 -4.357473838329315186e+01 -7.060193439479860444e-01
4.983534708619117737e+01 -4.503518760204315186e+01 -6.970013996120485444e-01
5.188124552369117737e+01 -4.602420127391815186e+01 -6.814679523464235444e-01
5.455666056275367737e+01 -4.753030478954315186e+01 -6.688489337917360444e-01
5.713844767212867737e+01 -4.887503135204315186e+01 -6.527356525417360444e-01
5.861305704712867737e+01 -4.916604697704315186e+01 -6.262921710964235444e-01
9.433735758066177368e+00 -5.337189555168151855e+00 -7.582501789089235444e-01
9.531880289316177368e+00 -5.267731547355651855e+00 -7.544202228542360444e-01
9.626118570566177368e+00 -5.194123148918151855e+00 -7.505750080104860444e-01
9.720967203378677368e+00 -5.119782328605651855e+00 -7.466992755886110444e-01
9.816059976816177368e+00 -5.045441508293151855e+00 -7.428235431667360444e-01
9.911518961191177368e+00 -4.970734477043151855e+00 -7.389325519557985444e-01
1.000795450806617737e+01 -4.895417094230651855e+00 -7.350110431667360444e-01
1.009938517212867737e+01 -4.816315531730651855e+00 -7.311047931667360444e-01
1.037355509400367737e+01 -6.135895609855651855e+00 -7.550763507839235444e-01
1.047951212525367737e+01 -6.057038187980651855e+00 -7.508496662136110444e-01
1.059181681275367737e+01 -5.982331156730651855e+00 -7.465619464870485444e-01
1.069948282837867737e+01 -5.902253031730651855e+00 -7.422742267604860444e-01
1.080727091431617737e+01 -5.822052836418151855e+00 -7.379712482448610444e-01
1.091566935181617737e+01 -5.741486430168151855e+00 -7.336530109401735444e-01
1.101906290650367737e+01 -5.655548930168151855e+00 -7.293195148464235444e-01
1.113490763306617737e+01 -5.578766703605651855e+00 -7.252454181667360444e-01
1.153505411744117737e+01 -7.123078227043151855e+00 -7.511395832057985444e-01
1.165700235962867737e+01 -7.037751078605651855e+00 -7.463940998073610444e-01
1.177980509400367737e+01 -6.951813578605651855e+00 -7.416180988307985444e-01
1.190370646119117737e+01 -6.865143656730651855e+00 -7.368115802761110444e-01
1.202785196900367737e+01 -6.778351664543151855e+00 -7.319745441432985444e-01
1.215285196900367737e+01 -6.690949320793151855e+00 -7.271222492214235444e-01
1.235609903931617737e+01 -6.660553812980651855e+00 -7.254743000026735444e-01
1.260329142212867737e+01 -6.659455180168151855e+00 -7.254743000026735444e-01
1.299867716431617737e+01 -8.366974711418151855e+00 -7.461957355495485444e-01
1.315089884400367737e+01 -8.281891703605651855e+00 -7.407636066432985444e-01
1.329518595337867737e+01 -8.188629984855651855e+00 -7.353314777370485444e-01
1.344093790650367737e+01 -8.094391703605651855e+00 -7.298383136745485444e-01
1.361916056275367737e+01 -8.024933695793151855e+00 -7.255505939479860444e-01
1.394545450806617737e+01 -8.066315531730651855e+00 -7.266644855495485444e-01
1.424953165650367737e+01 -8.083161234855651855e+00 -7.265424152370485444e-01
1.455116739869117737e+01 -8.092926859855651855e+00 -7.264813800807985444e-01
1.496632853150367737e+01 -1.003909385204315186e+01 -7.412213703151735444e-01
1.518227091431617737e+01 -9.973664164543151855e+00 -7.364301105495485444e-01
1.540126505494117737e+01 -9.907257914543151855e+00 -7.315778156276735444e-01
1.577272501587867737e+01 -9.958405375480651855e+00 -7.315778156276735444e-01
1.615883341431617737e+01 -1.001358115673065186e+01 -7.316693683620485444e-01
1.647890177369117737e+01 -1.000979697704315186e+01 -7.292737384792360444e-01
1.684084025025367737e+01 -1.003030478954315186e+01 -7.277936359401735444e-01
1.736281290650367737e+01 -1.016201865673065186e+01 -7.307996173854860444e-01
1.772560587525367737e+01 -1.238382041454315186e+01 -7.365521808620485444e-01
1.807484903931617737e+01 -1.238235557079315186e+01 -7.322492023464235444e-01
1.847047892212867737e+01 -1.241153037548065186e+01 -7.294568439479860444e-01
1.925563517212867737e+01 -1.274221885204315186e+01 -7.368573566432985444e-01
1.966774454712867737e+01 -1.276150596141815186e+01 -7.334241291042360444e-01
2.044362345337867737e+01 -1.305105674266815186e+01 -7.389630695339235444e-01
2.137074747681617737e+01 -1.343325889110565186e+01 -7.473096271511110444e-01
2.217616739869117737e+01 -1.370327842235565186e+01 -7.522839923854860444e-01
2.168556681275367737e+01 -1.574905478954315186e+01 -7.265271564479860444e-01
2.247707071900367737e+01 -1.604800498485565186e+01 -7.286633869167360444e-01
2.359047403931617737e+01 -1.658865439891815186e+01 -7.370099445339235444e-01
2.462416544556617737e+01 -1.703335654735565186e+01 -7.422284503932985444e-01
2.612953653931617737e+01 -1.782095420360565186e+01 -7.560376544948610444e-01
2.772157755494117737e+01 -1.863296592235565186e+01 -7.697095294948610444e-01
2.908400431275367737e+01 -1.922757041454315186e+01 -7.769574542995485444e-01
3.061818400025367737e+01 -1.991446006298065186e+01 -7.858685871120485444e-01
2.934010782837867737e+01 -2.225235068798065186e+01 -7.348126789089235444e-01
3.110487833619117737e+01 -2.323111045360565186e+01 -7.443494220729860444e-01
3.290065470337867737e+01 -2.418411338329315186e+01 -7.512311359401735444e-01
3.475771036744117737e+01 -2.513321006298065186e+01 -7.578381916042360444e-01
3.576540079712867737e+01 -2.536782920360565186e+01 -7.497205158229860444e-01
3.656581583619117737e+01 -2.542007529735565186e+01 -7.376813312526735444e-01
3.755153360962867737e+01 -2.559304893016815186e+01 -7.285260578151735444e-01
3.882143107056617737e+01 -2.595523154735565186e+01 -7.210950275417360444e-01
4.239613810181617737e+01 -3.334683310985565186e+01 -7.128857990261110444e-01
4.328041544556617737e+01 -3.337197959423065186e+01 -6.949719806667360444e-01
4.457973185181617737e+01 -3.371719443798065186e+01 -6.806287189479860444e-01
4.578603067994117737e+01 -3.395425498485565186e+01 -6.640729328151735444e-01
4.768837442994117737e+01 -3.471084678173065186e+01 -6.528424640651735444e-01
5.117982950806617737e+01 -3.663662803173065186e+01 -6.531018634792360444e-01
5.255251017212867737e+01 -3.687063682079315186e+01 -6.328687091823610444e-01
5.223231974244117737e+01 -3.583181846141815186e+01 -5.993298908229860444e-01
5.618764200806617737e+01 -4.413003623485565186e+01 -5.051526447292360444e-01
5.503041544556617737e+01 -4.225613486766815186e+01 -4.665173908229860444e-01
5.408278360962867737e+01 -4.059964072704315186e+01 -4.304913898464235444e-01
5.343874064087867737e+01 -3.922854697704315186e+01 -3.971661945339235444e-01
5.288966837525367737e+01 -3.796438682079315186e+01 -3.653211017604860444e-01
5.255910196900367737e+01 -3.689187705516815186e+01 -3.349408527370485444e-01
5.223866739869117737e+01 -3.585244834423065186e+01 -3.054761310573610444e-01
5.621779337525367737e+01 -4.417410361766815186e+01 -1.716870685573610444e-01
5.505128946900367737e+01 -4.229141318798065186e+01 -1.425885578151735444e-01
5.409608927369117737e+01 -4.062796103954315186e+01 -1.147107501979860444e-01
5.345155802369117737e+01 -3.925576865673065186e+01 -8.761114082298604444e-02
5.289638224244117737e+01 -3.798635947704315186e+01 -6.138128242454854444e-02
5.256569376587867737e+01 -3.691323935985565186e+01 -3.524297676048604444e-02
5.224513712525367737e+01 -3.587320029735565186e+01 -9.913386916736044441e-03
5.624770060181617737e+01 -4.421792685985565186e+01 1.604662517551389556e-01
5.507204142212867737e+01 -4.232669150829315186e+01 1.799822429660764556e-01
5.410939493775367737e+01 -4.065615928173065186e+01 1.996508220676389556e-01
5.346437540650367737e+01 -3.928299033641815186e+01 2.205248455051389556e-01
5.290321817994117737e+01 -3.800821006298065186e+01 2.411242107395139556e-01
5.257228556275367737e+01 -3.693447959423065186e+01 2.630358318332639556e-01
5.225148478150367737e+01 -3.589383018016815186e+01 2.842608074192014556e-01
6.395961466431617737e+01 -4.960305869579315186e+01 6.212206462863889556e-01
6.388478556275367737e+01 -4.849551475048065186e+01 6.489611248020139556e-01
6.446779337525367737e+01 -4.792630088329315186e+01 6.854601482395139556e-01
6.239638224244117737e+01 -4.531582725048065186e+01 6.830645183567014556e-01
6.248903360962867737e+01 -4.441092002391815186e+01 7.131395915988889556e-01
7.071107950806617737e+01 -4.951113975048065186e+01 8.674517253879514556e-01
6.446608439087867737e+01 -5.003811728954315186e+01 1.008305607223888956e+00
6.390126505494117737e+01 -4.852969443798065186e+01 1.023182926559826456e+00
6.568434610962867737e+01 -4.890127646923065186e+01 1.084279117966076456e+00
6.420302286744117737e+01 -4.672378623485565186e+01 1.079518375778576456e+00
6.177650919556617737e+01 -4.389419639110565186e+01 1.053547916794201456e+00
6.367604532837867737e+01 -4.434719932079315186e+01 1.117238102341076456e+00
5.667689982056617737e+01 -4.369302451610565186e+01 1.190373478317638956e+00
6.516847696900367737e+01 -4.956533896923065186e+01 1.427693424606701456e+00
6.630214396119117737e+01 -4.940701377391815186e+01 1.479878483200451456e+00
6.162929239869117737e+01 -4.476565635204315186e+01 1.379979191208263956e+00
6.164247599244117737e+01 -4.381240928173065186e+01 1.401295719528576456e+00
6.300087442994117737e+01 -4.386880576610565186e+01 1.460377750778576456e+00
6.439748087525367737e+01 -5.002493369579315186e+01 1.765172062302013956e+00
6.404823771119117737e+01 -4.868924033641815186e+01 1.774144230270763956e+00
6.627699747681617737e+01 -4.940872275829315186e+01 1.864430485153576456e+00
6.230043497681617737e+01 -4.530142295360565186e+01 1.756703434372326456e+00
6.546901407837867737e+01 -4.671389853954315186e+01 1.877705631637951456e+00
6.215053263306617737e+01 -4.326077353954315186e+01 1.788273868942638956e+00
6.445119181275367737e+01 -5.009011924266815186e+01 2.145436344528576456e+00
6.403749552369117737e+01 -4.870156943798065186e+01 2.146962223434826456e+00
6.417274942994117737e+01 -4.777761924266815186e+01 2.168568668747326456e+00
6.466835489869117737e+01 -4.714273154735565186e+01 2.203648624802013956e+00
7.143690958619117737e+01 -5.123123252391815186e+01 2.477894840622326456e+00
6.363002482056617737e+01 -4.437197959423065186e+01 2.197926578903576456e+00
6.951344767212867737e+01 -5.311319053173065186e+01 2.759083805466076456e+00
6.522585001587867737e+01 -4.862564170360565186e+01 2.587468204880138956e+00
6.489272013306617737e+01 -4.733596885204315186e+01 2.586552677536388956e+00
6.440041056275367737e+01 -4.903469932079315186e+01 2.913441715622326456e+00
6.608339396119117737e+01 -4.827322471141815186e+01 3.017964420700451456e+00
6.538234415650367737e+01 -4.879080283641815186e+01 3.353001652145763956e+00
6.464613810181617737e+01 -4.985488975048065186e+01 1.754323063278576456e+00
6.396437540650367737e+01 -4.824343955516815186e+01 1.754124699020763956e+00
6.472255411744117737e+01 -4.779849326610565186e+01 1.797993717575451456e+00
6.214870157837867737e+01 -4.479690635204315186e+01 1.737111149216076456e+00
6.325185099244117737e+01 -4.464321982860565186e+01 1.791310367966076456e+00
6.223878946900367737e+01 -4.292105185985565186e+01 1.777897892380138956e+00
6.456129923462867737e+01 -4.980764853954315186e+01 2.134739933395763956e+00
6.401869669556617737e+01 -4.830789268016815186e+01 2.132603702927013956e+00
6.460524454712867737e+01 -4.772793662548065186e+01 2.171605167770763956e+00
6.526820841431617737e+01 -4.720388877391815186e+01 2.213505802536388956e+00
7.167250528931617737e+01 -5.097464072704315186e+01 2.470952091598888956e+00
6.534291544556617737e+01 -4.938540732860565186e+01 2.567967472458263956e+00
6.478822794556617737e+01 -4.789199912548065186e+01 2.558842716598888956e+00
6.558327189087867737e+01 -4.746621787548065186e+01 2.607380924606701456e+00
7.174232950806617737e+01 -5.104983603954315186e+01 2.888249454880138956e+00
6.373097696900367737e+01 -4.405581748485565186e+01 2.555165348434826456e+00
7.064308634400367737e+01 -5.249038779735565186e+01 3.222325382614513956e+00
6.663063517212867737e+01 -4.828933799266815186e+01 3.038762150192638956e+00
6.509950724244117737e+01 -4.774929893016815186e+01 2.583745060348888956e+00
6.549831095337867737e+01 -4.700540244579315186e+01 2.616398868942638956e+00
6.239210978150367737e+01 -4.267251670360565186e+01 2.512806949997326456e+00
6.436232462525367737e+01 -4.932351768016815186e+01 2.906590519333263956e+00
6.557912150025367737e+01 -4.921646201610565186e+01 2.978108463669201456e+00
7.078761759400367737e+01 -5.219534385204315186e+01 3.242833195114513956e+00
6.280177775025367737e+01 -4.299209678173065186e+01 2.894764957809826456e+00
6.519215860962867737e+01 -4.893179404735565186e+01 3.349324283981701456e+00
6.559926310181617737e+01 -4.818216025829315186e+01 3.381199894333263956e+00
6.220485392212867737e+01 -4.257608115673065186e+01 3.226491032028576456e+00
7.005702677369117737e+01 -5.071218955516815186e+01 2.352818546677013956e+00
7.171657267212867737e+01 -5.082083213329315186e+01 2.436268864059826456e+00
6.230653849244117737e+01 -4.273098838329315186e+01 2.119206486130138956e+00
6.413856974244117737e+01 -4.306546103954315186e+01 2.208867130661388956e+00
7.032179728150367737e+01 -5.328921592235565186e+01 2.743474064255138956e+00
6.465468302369117737e+01 -4.765701377391815186e+01 2.531819401169201456e+00
6.552882853150367737e+01 -4.725674521923065186e+01 2.587391910934826456e+00
7.183314982056617737e+01 -5.093447959423065186e+01 2.869587955856701456e+00
6.428212442994117737e+01 -4.319155967235565186e+01 2.591877994919201456e+00
6.573354044556617737e+01 -4.852798545360565186e+01 2.974247990036388956e+00
6.675795450806617737e+01 -4.822586143016815186e+01 3.039219913864513956e+00
6.375624552369117737e+01 -4.384512412548065186e+01 2.931172428512951456e+00
6.282216349244117737e+01 -4.215908896923065186e+01 2.901799259567638956e+00
6.512526407837867737e+01 -4.917605674266815186e+01 3.328740177536388956e+00
6.563539591431617737e+01 -4.847537314891815186e+01 3.369359074020763956e+00
6.127541056275367737e+01 -3.887442100048065186e+01 3.232731876755138956e+00
6.239882364869117737e+01 -3.860647666454315186e+01 3.310277042770763956e+00
6.319264689087867737e+01 -4.246743857860565186e+01 3.695012150192638956e+00
6.391273966431617737e+01 -4.188028037548065186e+01 3.754414616012951456e+00
6.184511271119117737e+01 -3.824856650829315186e+01 3.682362614059826456e+00
6.239650431275367737e+01 -4.165383994579315186e+01 2.247822819137951456e+00
6.018556681275367737e+01 -3.894863975048065186e+01 2.203923283005138956e+00
6.046767130494117737e+01 -3.808792197704315186e+01 2.245839176559826456e+00
6.109523478150367737e+01 -3.747732627391815186e+01 2.301930485153576456e+00
6.579640665650367737e+01 -4.901065146923065186e+01 2.668019352341076456e+00
6.566969767212867737e+01 -4.768118369579315186e+01 2.696736393356701456e+00
6.230141153931617737e+01 -4.273513877391815186e+01 2.628590641403576456e+00
6.274733439087867737e+01 -4.194302451610565186e+01 2.677189884567638956e+00
6.088649454712867737e+01 -3.948440635204315186e+01 2.632054386520763956e+00
6.242311564087867737e+01 -3.950174033641815186e+01 2.724400577927013956e+00
6.074709025025367737e+01 -3.726382529735565186e+01 2.684376774216076456e+00
6.574110880494117737e+01 -4.899954307079315186e+01 3.113698063278576456e+00
6.045985880494117737e+01 -3.920425498485565186e+01 3.013966617966076456e+00
6.463722696900367737e+01 -4.110049521923065186e+01 3.237263737106701456e+00
6.196095743775367737e+01 -3.813443076610565186e+01 3.138661442184826456e+00
6.326515665650367737e+01 -4.238613975048065186e+01 3.536732731247326456e+00
6.382643595337867737e+01 -4.167190635204315186e+01 3.590397892380138956e+00
6.147157755494117737e+01 -3.888479697704315186e+01 3.491688785934826456e+00
6.170399942994117737e+01 -3.798452842235565186e+01 3.529271183395763956e+00
6.309230509400367737e+01 -4.205960166454315186e+01 3.034108219528576456e+00
6.116689005494117737e+01 -3.953909385204315186e+01 2.978077946091076456e+00
6.514210978150367737e+01 -4.126797568798065186e+01 3.189778385544201456e+00
6.187392130494117737e+01 -3.787612998485565186e+01 3.070637760544201456e+00
6.338051310181617737e+01 -4.230410850048065186e+01 3.472172794723888956e+00
6.376064005494117737e+01 -4.144644248485565186e+01 3.518849430466076456e+00
6.158461466431617737e+01 -3.877859580516815186e+01 3.435231266403576456e+00
