7.378565341234207153e+00 -7.898538231849670410e+00 -8.789655212545710583e-01
7.479883700609207153e+00 -7.840554833412170410e+00 -8.745404724264460583e-01
7.577906161546707153e+00 -7.777566552162170410e+00 -8.700543884420710583e-01
7.676905184984207153e+00 -7.714944481849670410e+00 -8.655988220358210583e-01
7.775660067796707153e+00 -7.652444481849670410e+00 -8.611585144186335583e-01
7.874537020921707153e+00 -7.589944481849670410e+00 -8.567029480123835583e-01
7.973902255296707153e+00 -7.527078270912170410e+00 -8.522321228170710583e-01
8.069727450609207153e+00 -7.460183739662170410e+00 -8.477765564108210583e-01
8.168604403734207153e+00 -9.091531395912170410e+00 -8.988629821920710583e-01
8.142481356859207153e+00 -8.820535302162170410e+00 -8.814221862936335583e-01
8.281763583421707153e+00 -8.796243309974670410e+00 -8.789350036764460583e-01
8.394556552171707153e+00 -8.731668114662170410e+00 -8.742505554342585583e-01
8.508936434984207153e+00 -8.669656395912170410e+00 -8.697492126608210583e-01
8.618799716234207153e+00 -8.600930809974670410e+00 -8.648206237936335583e-01
8.725245028734207153e+00 -8.526834130287170410e+00 -8.598767761373835583e-01
8.835352450609207153e+00 -8.457986474037170410e+00 -8.549329284811335583e-01
9.014795809984207153e+00 -1.036985170841217041e+01 -9.103833679342585583e-01
9.103907138109207153e+00 -1.024143373966217041e+01 -9.019147400045710583e-01
9.192408114671707153e+00 -1.011387026309967041e+01 -8.935224060201960583e-01
9.280542880296707153e+00 -9.986917138099670410e+00 -8.851453308248835583e-01
9.391748934984207153e+00 -9.894509911537170410e+00 -8.787366394186335583e-01
9.510035067796707153e+00 -9.811868309974670410e+00 -8.728620056295710583e-01
9.624659091234207153e+00 -9.723611474037170410e+00 -8.666669372701960583e-01
9.738672763109207153e+00 -9.635598778724670410e+00 -8.605023864889460583e-01
1.006276944279670715e+01 -1.195310366153717041e+01 -9.236585144186335583e-01
1.009108975529670715e+01 -1.170151674747467041e+01 -9.085675720358210583e-01
1.018349698185920715e+01 -1.154892885684967041e+01 -8.989392761373835583e-01
1.027553799748420715e+01 -1.139719545841217041e+01 -8.893567566061335583e-01
1.038833096623420715e+01 -1.127744448184967041e+01 -8.814221862936335583e-01
1.057326748967170715e+01 -1.125681459903717041e+01 -8.784314636373835583e-01
1.075503018498420715e+01 -1.122776186466217041e+01 -8.750134948873835583e-01
1.086159756779670715e+01 -1.109934389591217041e+01 -8.670331482076960583e-01
1.189016202092170715e+01 -1.471201479434967041e+01 -9.723798278951960583e-01
1.230056241154670715e+01 -1.496506655216217041e+01 -9.808637146139460583e-01
1.276101163029670715e+01 -1.527488100528717041e+01 -9.917584900045710583e-01
1.194729092717170715e+01 -1.376487123966217041e+01 -9.209729675436335583e-01
1.204165127873420715e+01 -1.357053530216217041e+01 -9.094068054342585583e-01
1.213503506779670715e+01 -1.337827455997467041e+01 -8.979627136373835583e-01
1.222768643498420715e+01 -1.318735659122467041e+01 -8.865949157858210583e-01
1.231911709904670715e+01 -1.299924623966217041e+01 -8.753949646139460583e-01
1.272793057560920715e+01 -1.598154604434967041e+01 -9.318524841451960583e-01
1.324416592717170715e+01 -1.636387026309967041e+01 -9.425946716451960583e-01
1.381106045842170715e+01 -1.679819643497467041e+01 -9.556867126608210583e-01
1.438186123967170715e+01 -1.721299135684967041e+01 -9.677411560201960583e-01
1.502480557560920715e+01 -1.770603334903717041e+01 -9.826184753561335583e-01
1.571181729435920715e+01 -1.823301088809967041e+01 -9.985181335592585583e-01
1.410232022404670715e+01 -1.568222963809967041e+01 -8.957654480123835583e-01
1.419863370060920715e+01 -1.544944155216217041e+01 -8.832684997701960583e-01
1.375808194279670715e+01 -1.754221498966217041e+01 -8.868085388326960583e-01
1.426113370060920715e+01 -1.787217104434967041e+01 -8.930951599264460583e-01
1.497622159123420715e+01 -1.848887026309967041e+01 -9.088269714498835583e-01
1.561049893498420715e+01 -1.895810854434967041e+01 -9.191876892233210583e-01
1.633291104435920715e+01 -1.952524721622467041e+01 -9.325238708639460583e-01
1.717946866154670715e+01 -2.023130190372467041e+01 -9.500409607076960583e-01
1.813479092717170715e+01 -2.104490053653717041e+01 -9.705792907858210583e-01
1.901650479435920715e+01 -2.172446596622467041e+01 -9.862500671530085583e-01
1.496145108342170715e+01 -1.936533510684967041e+01 -8.327161316061335583e-01
1.564431241154670715e+01 -1.992221987247467041e+01 -8.423596862936335583e-01
1.639577725529670715e+01 -2.054868471622467041e+01 -8.528882507467585583e-01
1.716860440373420715e+01 -2.117087709903717041e+01 -8.634320739889460583e-01
1.800869229435920715e+01 -2.185532534122467041e+01 -8.752576355123835583e-01
1.901552823185920715e+01 -2.273105776309967041e+01 -8.917523864889460583e-01
2.003286221623420715e+01 -2.357602846622467041e+01 -9.075299743795710583e-01
2.112710049748420715e+01 -2.448093569278717041e+01 -9.235211853170710583e-01
1.602480557560920715e+01 -2.097861635684967041e+01 -7.530499939108210583e-01
1.697817471623420715e+01 -2.190122377872467041e+01 -7.666303161764460583e-01
1.799502041935920715e+01 -2.286985170841217041e+01 -7.805310730123835583e-01
1.906630948185920715e+01 -2.386618959903717041e+01 -7.942487243795710583e-01
2.018422940373420715e+01 -2.487986147403717041e+01 -8.075543884420710583e-01
2.144704678654670715e+01 -2.604087221622467041e+01 -8.231946472311335583e-01
2.296291592717170715e+01 -2.748069155216217041e+01 -8.437482360983210583e-01
2.684878018498420715e+01 -3.194114077091217041e+01 -9.260999206686335583e-01
1.737649014592170715e+01 -2.302878725528717041e+01 -6.640912536764460583e-01
1.843288663029670715e+01 -2.406028139591217041e+01 -6.728345398092585583e-01
1.954714444279670715e+01 -2.512485659122467041e+01 -6.812268737936335583e-01
2.072304776310920715e+01 -2.622214663028717041e+01 -6.891919616842585583e-01
2.250759366154670715e+01 -2.811179506778717041e+01 -7.090741638326960583e-01
2.658938077092170715e+01 -3.303403627872467041e+01 -7.754346374655085583e-01
2.866970303654670715e+01 -3.508091127872467041e+01 -7.931958679342585583e-01
3.371767666935920715e+01 -4.090195620059967041e+01 -8.659955505514460583e-01
1.846425870060920715e+01 -2.468174135684967041e+01 -5.469953064108210583e-01
1.985366299748420715e+01 -2.617112123966217041e+01 -5.537854675436335583e-01
2.137002041935920715e+01 -2.777329409122467041e+01 -5.604840759420710583e-01
2.402993252873420715e+01 -3.091770327091217041e+01 -5.825940612936335583e-01
2.687526944279670715e+01 -3.418174135684967041e+01 -6.031629089498835583e-01
2.952700284123420715e+01 -3.703818666934967041e+01 -6.165601257467585583e-01
5.644521573185920715e+01 -7.204477846622467041e+01 -9.392072204733210583e-01
5.689516690373420715e+01 -7.112131655216217041e+01 -8.977796081686335583e-01
1.986391690373420715e+01 -2.680735170841217041e+01 -4.157086853170710583e-01
1.904751065373420715e+01 -2.499009096622467041e+01 -3.914319519186335583e-01
2.454726651310920715e+01 -3.238450014591217041e+01 -4.225903991842585583e-01
2.707253506779670715e+01 -3.524253237247467041e+01 -4.222394470358210583e-01
3.149331143498420715e+01 -4.060398256778717041e+01 -4.313794616842585583e-01
3.972609952092170715e+01 -4.876816713809967041e+01 -3.987103943014460583e-01
1.854311612248420715e+01 -2.482248842716217041e+01 -2.551557068014460583e-01
1.888161709904670715e+01 -2.475559389591217041e+01 -2.421552185201960583e-01
2.694130948185920715e+01 -3.586521303653717041e+01 -2.331067566061335583e-01
3.199331143498420715e+01 -4.223325502872467041e+01 -2.129041198873835583e-01
4.439931729435920715e+01 -5.853598940372467041e+01 -1.789380554342585583e-01
3.834304288029670715e+01 -4.905332338809967041e+01 -1.595899109030085583e-01
3.966262295842170715e+01 -4.870542299747467041e+01 -1.053449157858210583e-01
1.851992276310920715e+01 -2.479831850528717041e+01 -1.089459900045710583e-01
1.881936123967170715e+01 -2.467417299747467041e+01 -9.559454957488355831e-02
3.251528409123420715e+01 -4.395554506778717041e+01 2.072319944855394169e-02
3.701894620060920715e+01 -4.937851870059967041e+01 7.715020140167894169e-02
3.764394620060920715e+01 -4.917905580997467041e+01 1.038378234719914417e-01
2.062368252873420715e+01 -2.497666323184967041e+01 -3.593268434050855831e-02
3.862221768498420715e+01 -4.839475405216217041e+01 1.549852844094914417e-01
3.845424893498420715e+01 -4.714878237247467041e+01 1.735552306985539417e-01
1.864052823185920715e+01 -2.499143373966217041e+01 3.984246214386644169e-02
1.962526944279670715e+01 -2.587815248966217041e+01 6.326470335480394169e-02
3.610329678654670715e+01 -4.917417299747467041e+01 3.321550842141789417e-01
3.736440518498420715e+01 -4.988913881778717041e+01 3.699053283548039417e-01
3.759108975529670715e+01 -4.912595522403717041e+01 3.910234924173039417e-01
1.920913174748420715e+01 -2.306284487247467041e+01 9.227166136261644169e-02
1.926943448185920715e+01 -2.595420229434967041e+01 2.016619201516789417e-01
4.245864346623420715e+01 -5.971030580997467041e+01 7.532518859719914417e-01
4.283144620060920715e+01 -5.894980776309967041e+01 7.781847473001164417e-01
3.637185147404670715e+01 -4.850119936466217041e+01 6.374224181985539417e-01
2.028872159123420715e+01 -2.509995424747467041e+01 2.547167297219914417e-01
1.899282315373420715e+01 -2.277829897403717041e+01 2.292498107766789417e-01
2.013332608342170715e+01 -2.727353823184967041e+01 3.822191711282414417e-01
1.931191495060920715e+01 -2.543625795841217041e+01 3.606737609719914417e-01
3.563161709904670715e+01 -4.853098452091217041e+01 8.867205139016789417e-01
1.870778897404670715e+01 -2.343943178653717041e+01 3.510149474954289417e-01
2.035415127873420715e+01 -2.464158022403717041e+01 4.137743469094914417e-01
3.874453213810920715e+01 -4.861741030216217041e+01 1.024156426987616442e+00
1.869729092717170715e+01 -2.397849428653717041e+01 4.904497619485539417e-01
1.872512295842170715e+01 -2.347422182559967041e+01 4.942034240579289417e-01
1.868044522404670715e+01 -2.288437807559967041e+01 4.949511047219914417e-01
2.078457120060920715e+01 -2.523850405216217041e+01 5.825975890969914417e-01
3.875539639592170715e+01 -4.761972963809967041e+01 1.320176934800116442e+00
1.959157803654670715e+01 -2.647629702091217041e+01 6.767595764016789417e-01
2.040224698185920715e+01 -2.707529604434967041e+01 7.164324279641789417e-01
2.038234952092170715e+01 -2.643503725528717041e+01 7.153032775735539417e-01
1.943960049748420715e+01 -2.449973452091217041e+01 6.705492492532414417e-01
1.977199795842170715e+01 -2.441318666934967041e+01 6.871813293313664417e-01
1.986501553654670715e+01 -2.399607241153717041e+01 6.922625060891789417e-01
3.842019131779670715e+01 -4.822471010684967041e+01 1.589784478745428942e+00
3.897048428654670715e+01 -4.792038881778717041e+01 1.617479180893866442e+00
1.897268155217170715e+01 -2.554966127872467041e+01 7.981127258157414417e-01
2.003554776310920715e+01 -2.654306948184967041e+01 8.556536193704289417e-01
1.961550381779670715e+01 -2.533262026309967041e+01 8.304308410501164417e-01
1.839187100529670715e+01 -2.302073061466217041e+01 7.601793762063664417e-01
1.935109952092170715e+01 -2.383762514591217041e+01 8.126085754251164417e-01
1.911855557560920715e+01 -2.298887026309967041e+01 7.981737609719914417e-01
3.916811612248420715e+01 -4.924289858341217041e+01 1.918413018784491442e+00
3.975380948185920715e+01 -4.896445620059967041e+01 1.949937676987616442e+00
8.070093661546707153e+00 -7.460183739662170410e+00 -8.477765564108210583e-01
8.168604403734207153e+00 -7.396340966224670410e+00 -8.433209900045710583e-01
8.263941317796707153e+00 -7.328225731849670410e+00 -8.388501648092585583e-01
8.361353427171707153e+00 -7.261819481849670410e+00 -8.344861511373835583e-01
8.466578036546707153e+00 -7.205056786537170410e+00 -8.307782653951960583e-01
8.572168856859207153e+00 -7.147927880287170410e+00 -8.270551208639460583e-01
8.670435458421707153e+00 -7.081033349037170410e+00 -8.226758484030085583e-01
8.755274325609207153e+00 -6.999490380287170410e+00 -8.175946716451960583e-01
8.835840731859207153e+00 -8.457986474037170410e+00 -8.549329284811335583e-01
8.941675692796707153e+00 -8.383401513099670410e+00 -8.500043396139460583e-01
9.051783114671707153e+00 -8.313821434974670410e+00 -8.450452331686335583e-01
9.158350497484207153e+00 -8.238626122474670410e+00 -8.400708679342585583e-01
9.264795809984207153e+00 -8.163674950599670410e+00 -8.351117614889460583e-01
9.371363192796707153e+00 -8.088601708412170410e+00 -8.301373962545710583e-01
9.474146395921707153e+00 -8.008157372474670410e+00 -8.251630310201960583e-01
9.580957919359207153e+00 -7.932839989662170410e+00 -8.201886657858210583e-01
9.739161044359207153e+00 -9.635354638099670410e+00 -8.604871276998835583e-01
9.847681552171707153e+00 -9.540383934974670410e+00 -8.542615417623835583e-01
9.956202059984207153e+00 -9.445291161537170410e+00 -8.480512146139460583e-01
1.006496670842170715e+01 -9.350076317787170410e+00 -8.418256286764460583e-01
1.017336514592170715e+01 -9.255227684974670410e+00 -8.356305603170710583e-01
1.028164151310920715e+01 -9.160379052162170410e+00 -8.294354919576960583e-01
1.039028409123420715e+01 -9.065286278724670410e+00 -8.232099060201960583e-01
1.050075772404670715e+01 -8.973123192787170410e+00 -8.171674255514460583e-01
1.086208584904670715e+01 -1.109909975528717041e+01 -8.670026306295710583e-01
1.097561123967170715e+01 -1.098056948184967041e+01 -8.590680603170710583e-01
1.108242276310920715e+01 -1.085434877872467041e+01 -8.511334900045710583e-01
1.120083096623420715e+01 -1.074253237247467041e+01 -8.439160827780085583e-01
1.132070401310920715e+01 -1.063340151309967041e+01 -8.368512634420710583e-01
1.148720791935920715e+01 -1.057956850528717041e+01 -8.325025085592585583e-01
1.166872647404670715e+01 -1.054001772403717041e+01 -8.288251403951960583e-01
1.184255459904670715e+01 -1.048984682559967041e+01 -8.250257019186335583e-01
1.231936123967170715e+01 -1.299851381778717041e+01 -8.753644470358210583e-01
1.248086026310920715e+01 -1.290268862247467041e+01 -8.685590271139460583e-01
1.263711026310920715e+01 -1.279929506778717041e+01 -8.614331726217585583e-01
1.279421475529670715e+01 -1.269541323184967041e+01 -8.542615417623835583e-01
1.295119717717170715e+01 -1.259153139591217041e+01 -8.471051696920710583e-01
1.310842373967170715e+01 -1.248752748966217041e+01 -8.399182800436335583e-01
1.326650479435920715e+01 -1.238291323184967041e+01 -8.327008728170710583e-01
1.343715909123420715e+01 -1.229294741153717041e+01 -8.261090759420710583e-01
1.419875577092170715e+01 -1.544846498966217041e+01 -8.832227234030085583e-01
1.429824307560920715e+01 -1.522373354434967041e+01 -8.703137878561335583e-01
1.451528409123420715e+01 -1.514939272403717041e+01 -8.636609558248835583e-01
1.478811123967170715e+01 -1.513950502872467041e+01 -8.594037536764460583e-01
1.495022061467170715e+01 -1.499302065372467041e+01 -8.499890808248835583e-01
1.511123135685920715e+01 -1.484555971622467041e+01 -8.405286316061335583e-01
1.529763272404670715e+01 -1.472641909122467041e+01 -8.321210388326960583e-01
1.549624112248420715e+01 -1.462131655216217041e+01 -8.247663025045710583e-01
1.902175381779670715e+01 -2.172971498966217041e+01 -9.864026550436335583e-01
1.713808682560920715e+01 -1.884983217716217041e+01 -8.874799255514460583e-01
1.724074795842170715e+01 -1.855942690372467041e+01 -8.725720886373835583e-01
1.734255459904670715e+01 -1.827146303653717041e+01 -8.578168396139460583e-01
1.771462491154670715e+01 -1.831382143497467041e+01 -8.534833435201960583e-01
1.804690030217170715e+01 -1.830112612247467041e+01 -8.473187927389460583e-01
1.834450772404670715e+01 -1.824106752872467041e+01 -8.395978454733210583e-01
1.859792569279670715e+01 -1.812827455997467041e+01 -8.302136901998835583e-01
2.113149502873420715e+01 -2.448471987247467041e+01 -9.235822204733210583e-01
2.229262784123420715e+01 -2.543015444278717041e+01 -9.402143005514460583e-01
2.352944424748420715e+01 -2.642331850528717041e+01 -9.564496521139460583e-01
2.491640713810920715e+01 -2.754929506778717041e+01 -9.761182312155085583e-01
2.134865811467170715e+01 -2.268027651309967041e+01 -8.430921081686335583e-01
2.230349209904670715e+01 -2.331223452091217041e+01 -8.506452087545710583e-01
2.268325284123420715e+01 -2.324668276309967041e+01 -8.412305359030085583e-01
2.313454678654670715e+01 -2.325779116153717041e+01 -8.327924255514460583e-01
2.685439541935920715e+01 -3.194626772403717041e+01 -9.261762146139460583e-01
2.864809659123420715e+01 -3.354734194278717041e+01 -9.467603210592585583e-01
3.033657315373420715e+01 -3.494126284122467041e+01 -9.618054870748835583e-01
3.155495694279670715e+01 -3.568930971622467041e+01 -9.628125671530085583e-01
3.188930752873420715e+01 -3.533701479434967041e+01 -9.417554382467585583e-01
3.222280362248420715e+01 -3.498557436466217041e+01 -9.207593444967585583e-01
3.251101163029670715e+01 -3.458139955997467041e+01 -8.987714294576960583e-01
3.360695889592170715e+01 -3.509568178653717041e+01 -8.936139587545710583e-01
3.373366788029670715e+01 -4.091965639591217041e+01 -8.662091735983210583e-01
4.934780362248420715e+01 -5.997422182559967041e+01 -1.128049993910821058e+00
4.928078702092170715e+01 -5.863950502872467041e+01 -1.083448553481133558e+00
4.872439053654670715e+01 -5.673484194278717041e+01 -1.031583929457696058e+00
4.912807705998420715e+01 -5.604343569278717041e+01 -9.972669128561335583e-01
4.936941006779670715e+01 -5.516965639591217041e+01 -9.607831482076960583e-01
4.953444913029670715e+01 -5.421970522403717041e+01 -9.235974792623835583e-01
4.971987393498420715e+01 -5.331577455997467041e+01 -8.874799255514460583e-01
5.689602139592170715e+01 -7.111716616153717041e+01 -8.976270202780085583e-01
5.734719327092170715e+01 -7.020993959903717041e+01 -8.565198425436335583e-01
5.770510342717170715e+01 -6.919931948184967041e+01 -8.148480896139460583e-01
5.808681729435920715e+01 -6.823044741153717041e+01 -7.737866882467585583e-01
5.849062588810920715e+01 -6.730857241153717041e+01 -7.335645202780085583e-01
5.899257901310920715e+01 -6.651621401309967041e+01 -6.945783142233210583e-01
5.963442471623420715e+01 -6.588926088809967041e+01 -6.567670349264460583e-01
6.110244229435920715e+01 -6.620322573184967041e+01 -6.246778015280085583e-01
3.972939541935920715e+01 -4.876889955997467041e+01 -3.986341003561335583e-01
3.966591885685920715e+01 -4.870615541934967041e+01 -1.052533630514460583e-01
3.878750088810920715e+01 -4.655625307559967041e+01 -8.376898805144605831e-02
3.845644620060920715e+01 -4.714817202091217041e+01 1.736467834329289417e-01
3.998647549748420715e+01 -4.810776674747467041e+01 2.110155578469914417e-01
4.084914639592170715e+01 -4.819626772403717041e+01 5.350359435891789417e-01
3.894484952092170715e+01 -4.681467592716217041e+01 7.666338439798039417e-01
3.983156827092170715e+01 -4.694089663028717041e+01 8.031939025735539417e-01
4.048855069279670715e+01 -4.676084291934967041e+01 8.339403625344914417e-01
3.944692471623420715e+01 -4.747617495059967041e+01 1.066423272690741442e+00
3.960293057560920715e+01 -4.667344057559967041e+01 1.081529473862616442e+00
3.875087979435920715e+01 -4.761020815372467041e+01 1.319993829331366442e+00
3.927028897404670715e+01 -4.726950991153717041e+01 1.347581719956366442e+00
3.948855069279670715e+01 -4.654905092716217041e+01 1.362809991440741442e+00
3.897060635685920715e+01 -4.791709291934967041e+01 1.617479180893866442e+00
3.940566495060920715e+01 -4.746238100528717041e+01 1.641313409409491442e+00
4.015224698185920715e+01 -4.740061342716217041e+01 1.678697442612616442e+00
3.959536221623420715e+01 -4.875364077091217041e+01 1.941072320542303942e+00
3.937880948185920715e+01 -4.744724428653717041e+01 1.926591729721991442e+00
4.011721280217170715e+01 -4.737595522403717041e+01 1.967012261948553942e+00
8.755518466234207153e+00 -6.999246239662170410e+00 -8.175794128561335583e-01
8.843531161546707153e+00 -6.921121239662170410e+00 -8.125134948873835583e-01
8.927515536546707153e+00 -6.838601708412170410e+00 -8.074323181295710583e-01
9.019312411546707153e+00 -6.763894677162170410e+00 -8.028851989889460583e-01
9.111475497484207153e+00 -6.689797997474670410e+00 -7.983685974264460583e-01
9.203760653734207153e+00 -6.615701317787170410e+00 -7.938519958639460583e-01
9.296412020921707153e+00 -6.541116356849670410e+00 -7.893201355123835583e-01
9.389795809984207153e+00 -6.467385888099670410e+00 -7.851392273092585583e-01
9.581202059984207153e+00 -7.932595849037170410e+00 -8.201581482076960583e-01
9.683374911546707153e+00 -7.851663231849670410e+00 -8.151837829733210583e-01
9.790186434984207153e+00 -7.775491356849670410e+00 -8.101941589498835583e-01
9.893091708421707153e+00 -7.694070458412170410e+00 -8.051892761373835583e-01
9.995874911546707153e+00 -7.612771630287170410e+00 -8.001843933248835583e-01
1.009878018498420715e+01 -7.531350731849670410e+00 -7.951795105123835583e-01
1.019765713810920715e+01 -7.444680809974670410e+00 -7.901746276998835583e-01
1.030092862248420715e+01 -7.363015770912170410e+00 -7.851544860983210583e-01
1.050112393498420715e+01 -8.972879052162170410e+00 -8.171369079733210583e-01
1.062990811467170715e+01 -8.900857567787170410e+00 -8.125440124655085583e-01
1.075942471623420715e+01 -8.828591942787170410e+00 -8.079358581686335583e-01
1.089003995060920715e+01 -8.755715966224670410e+00 -8.032819275045710583e-01
1.102089932560920715e+01 -8.682595849037170410e+00 -7.986127380514460583e-01
1.115249112248420715e+01 -8.609231591224670410e+00 -7.939282898092585583e-01
1.128505948185920715e+01 -8.535134911537170410e+00 -7.891980651998835583e-01
1.141799405217170715e+01 -8.461038231849670410e+00 -7.844525818014460583e-01
1.184353116154670715e+01 -1.049021303653717041e+01 -8.250409607076960583e-01
1.201723721623420715e+01 -1.043784487247467041e+01 -8.206464294576960583e-01
1.215493252873420715e+01 -1.034409487247467041e+01 -8.146344665670710583e-01
1.229348233342170715e+01 -1.024961245059967041e+01 -8.085767273092585583e-01
1.243215420842170715e+01 -1.015513002872467041e+01 -8.025342468405085583e-01
1.257119229435920715e+01 -1.006040346622467041e+01 -7.964612487936335583e-01
1.271108487248420715e+01 -9.965066552162170410e+00 -7.903424743795710583e-01
1.284084561467170715e+01 -9.859719872474670410e+00 -7.841626648092585583e-01
1.343789151310920715e+01 -1.229294741153717041e+01 -8.261090759420710583e-01
1.361611416935920715e+01 -1.220969545841217041e+01 -8.201276306295710583e-01
1.379543545842170715e+01 -1.212607729434967041e+01 -8.141004089498835583e-01
1.397658780217170715e+01 -1.204148256778717041e+01 -8.080274109030085583e-01
1.415835049748420715e+01 -1.195676577091217041e+01 -8.019238952780085583e-01
1.434133389592170715e+01 -1.187143862247467041e+01 -7.957898620748835583e-01
1.452614834904670715e+01 -1.178513491153717041e+01 -7.895795349264460583e-01
1.471157315373420715e+01 -1.169858705997467041e+01 -7.833692077780085583e-01
1.549721768498420715e+01 -1.462131655216217041e+01 -8.247510437155085583e-01
1.572768643498420715e+01 -1.455002748966217041e+01 -8.178540710592585583e-01
1.594582608342170715e+01 -1.446225893497467041e+01 -8.108502868795710583e-01
1.622500088810920715e+01 -1.443552553653717041e+01 -8.059979919576960583e-01
1.648488858342170715e+01 -1.438486635684967041e+01 -8.002301696920710583e-01
1.672561123967170715e+01 -1.431064760684967041e+01 -7.935925964498835583e-01
1.696950772404670715e+01 -1.423545229434967041e+01 -7.868634704733210583e-01
1.720192959904670715e+01 -1.414670717716217041e+01 -7.801953796530085583e-01
1.859890225529670715e+01 -1.812803041934967041e+01 -8.301984314108210583e-01
1.884585049748420715e+01 -1.800559389591217041e+01 -8.207837585592585583e-01
1.909438565373420715e+01 -1.788230288028717041e+01 -8.113233093405085583e-01
1.934316495060920715e+01 -1.775571596622467041e+01 -8.017102722311335583e-01
1.969106534123420715e+01 -1.773130190372467041e+01 -7.950574401998835583e-01
2.008205655217170715e+01 -1.774460756778717041e+01 -7.894116882467585583e-01
2.044887784123420715e+01 -1.772458803653717041e+01 -7.826673034811335583e-01
2.074538663029670715e+01 -1.763034975528717041e+01 -7.737256530905085583e-01
2.313625577092170715e+01 -2.325803530216217041e+01 -8.327771667623835583e-01
2.358669522404670715e+01 -2.325925600528717041e+01 -8.242017273092585583e-01
2.457485440373420715e+01 -2.383432924747467041e+01 -8.281842712545710583e-01
2.493545010685920715e+01 -2.370871889591217041e+01 -8.160993103170710583e-01
2.540212491154670715e+01 -2.369089663028717041e+01 -8.064404968405085583e-01
2.586733487248420715e+01 -2.366269838809967041e+01 -7.963696960592585583e-01
2.627822354435920715e+01 -2.356980288028717041e+01 -7.855512146139460583e-01
2.684792569279670715e+01 -2.362876284122467041e+01 -7.770825866842585583e-01
3.361025479435920715e+01 -3.509702455997467041e+01 -8.935834411764460583e-01
3.425747159123420715e+01 -3.508139955997467041e+01 -8.785687927389460583e-01
3.483706143498420715e+01 -3.497983705997467041e+01 -8.617841247701960583e-01
3.526088955998420715e+01 -3.470054018497467041e+01 -8.417493347311335583e-01
3.586660245060920715e+01 -3.461081850528717041e+01 -8.248425964498835583e-01
3.632619717717170715e+01 -3.436179506778717041e+01 -8.051434997701960583e-01
3.692446377873420715e+01 -3.424533998966217041e+01 -7.873822693014460583e-01
3.742653897404670715e+01 -3.402781069278717041e+01 -7.679425720358210583e-01
4.971889737248420715e+01 -5.331101381778717041e+01 -8.873425964498835583e-01
4.989724209904670715e+01 -5.241550600528717041e+01 -8.518201355123835583e-01
5.007290127873420715e+01 -5.153257143497467041e+01 -8.168164734030085583e-01
5.024672940373420715e+01 -5.065940248966217041e+01 -7.821790222311335583e-01
5.041787198185920715e+01 -4.980173647403717041e+01 -7.481519226217585583e-01
5.066201260685920715e+01 -4.903293764591217041e+01 -7.153455261373835583e-01
5.157497647404670715e+01 -4.894211733341217041e+01 -6.889478210592585583e-01
5.368667080998420715e+01 -5.001670229434967041e+01 -6.723767761373835583e-01
6.111110928654670715e+01 -6.620847475528717041e+01 -6.246015075826960583e-01
6.252187588810920715e+01 -6.642295229434967041e+01 -5.909101013326960583e-01
6.402199795842170715e+01 -6.670115053653717041e+01 -5.566541198873835583e-01
6.556850674748420715e+01 -6.698825991153717041e+01 -5.213452819967585583e-01
6.633840420842170715e+01 -6.643308413028717041e+01 -4.819470886373835583e-01
9.390162020921707153e+00 -6.467263817787170410e+00 -7.851239685201960583e-01
9.492701083421707153e+00 -6.401834130287170410e+00 -7.812787536764460583e-01
9.591211825609207153e+00 -6.332009911537170410e+00 -7.774182800436335583e-01
9.690577059984207153e+00 -6.261575341224670410e+00 -7.735425476217585583e-01
9.789942294359207153e+00 -6.191018700599670410e+00 -7.696515564108210583e-01
9.889795809984207153e+00 -6.120217919349670410e+00 -7.657453064108210583e-01
9.990381747484207153e+00 -6.048928856849670410e+00 -7.618085388326960583e-01
1.008632901310920715e+01 -5.973367333412170410e+00 -7.578870300436335583e-01
1.030141690373420715e+01 -7.362771630287170410e+00 -7.851544860983210583e-01
1.040664151310920715e+01 -7.282571434974670410e+00 -7.805768493795710583e-01
1.052346280217170715e+01 -7.212381005287170410e+00 -7.763043884420710583e-01
1.063564541935920715e+01 -7.136453270912170410e+00 -7.719861511373835583e-01
1.074795010685920715e+01 -7.060403466224670410e+00 -7.676831726217585583e-01
1.086098721623420715e+01 -6.983987450599670410e+00 -7.633496765280085583e-01
1.096901944279670715e+01 -6.901956200599670410e+00 -7.590009216451960583e-01
1.108291104435920715e+01 -6.824807763099670410e+00 -7.546216491842585583e-01
1.141836026310920715e+01 -8.460794091224670410e+00 -7.844373230123835583e-01
1.154531338810920715e+01 -8.379739403724670410e+00 -7.796765808248835583e-01
1.167299893498420715e+01 -8.298318505287170410e+00 -7.749005798483210583e-01
1.180178311467170715e+01 -8.216165184974670410e+00 -7.700635437155085583e-01
1.193081143498420715e+01 -8.133767724037170410e+00 -7.652265075826960583e-01
1.206057217717170715e+01 -8.051126122474670410e+00 -7.603742126608210583e-01
1.219143155217170715e+01 -7.967630028724670410e+00 -7.554608825826960583e-01
1.232253506779670715e+01 -7.884011864662170410e+00 -7.505475525045710583e-01
1.284121182560920715e+01 -9.859353661537170410e+00 -7.841321472311335583e-01
1.299477627873420715e+01 -9.776345849037170410e+00 -7.785474304342585583e-01
1.314431241154670715e+01 -9.687966942787170410e+00 -7.731153015280085583e-01
1.329519131779670715e+01 -9.598733544349670410e+00 -7.676068786764460583e-01
1.344655850529670715e+01 -9.509378075599670410e+00 -7.621137146139460583e-01
1.359878018498420715e+01 -9.419290184974670410e+00 -7.565595153951960583e-01
1.375246670842170715e+01 -9.328469872474670410e+00 -7.509747985983210583e-01
1.389699795842170715e+01 -9.229226708412170410e+00 -7.453900818014460583e-01
1.471206143498420715e+01 -1.169822084903717041e+01 -7.833386901998835583e-01
1.489052823185920715e+01 -1.160288393497467041e+01 -7.770825866842585583e-01
1.507009366154670715e+01 -1.150693666934967041e+01 -7.707654480123835583e-01
1.525173428654670715e+01 -1.141013491153717041e+01 -7.644025329733210583e-01
1.545449307560920715e+01 -1.133152163028717041e+01 -7.587720398092585583e-01
1.568361905217170715e+01 -1.127366030216217041e+01 -7.539502624655085583e-01
1.591665127873420715e+01 -1.121482241153717041e+01 -7.490521911764460583e-01
1.613125088810920715e+01 -1.113791811466217041e+01 -7.434064392233210583e-01
1.720290616154670715e+01 -1.414670717716217041e+01 -7.801801208639460583e-01
1.748012784123420715e+01 -1.409824526309967041e+01 -7.740766052389460583e-01
1.773317959904670715e+01 -1.402231752872467041e+01 -7.675458435201960583e-01
1.796010830998420715e+01 -1.391758120059967041e+01 -7.599469665670710583e-01
1.819375088810920715e+01 -1.381736147403717041e+01 -7.525006775045710583e-01
1.846670010685920715e+01 -1.374924623966217041e+01 -7.460767273092585583e-01
1.878420498967170715e+01 -1.371470034122467041e+01 -7.407208923483210583e-01
1.908718350529670715e+01 -1.366330873966217041e+01 -7.353192810201960583e-01
2.074648526310920715e+01 -1.763010561466217041e+01 -7.736951355123835583e-01
2.103518155217170715e+01 -1.752402651309967041e+01 -7.646771911764460583e-01
2.143935635685920715e+01 -1.752329409122467041e+01 -7.585126403951960583e-01
2.185378506779670715e+01 -1.752243959903717041e+01 -7.521802429342585583e-01
2.227590420842170715e+01 -1.752170717716217041e+01 -7.457410339498835583e-01
2.270717862248420715e+01 -1.752085268497467041e+01 -7.391644958639460583e-01
2.318691495060920715e+01 -1.755259096622467041e+01 -7.332593444967585583e-01
2.399099209904670715e+01 -1.785227358341217041e+01 -7.341901306295710583e-01
2.685097745060920715e+01 -2.362986147403717041e+01 -7.770825866842585583e-01
2.737075284123420715e+01 -2.362827455997467041e+01 -7.673627380514460583e-01
2.791677334904670715e+01 -2.364109194278717041e+01 -7.568494323873835583e-01
2.837221768498420715e+01 -2.355710756778717041e+01 -7.449628357076960583e-01
2.884658291935920715e+01 -2.348459780216217041e+01 -7.331983093405085583e-01
2.973122647404670715e+01 -2.376841127872467041e+01 -7.283154968405085583e-01
3.103762295842170715e+01 -2.439536440372467041e+01 -7.305280212545710583e-01
3.247402432560920715e+01 -2.509873354434967041e+01 -7.324964050436335583e-01
3.742824795842170715e+01 -3.402695620059967041e+01 -7.678662780905085583e-01
3.791774991154670715e+01 -3.379160463809967041e+01 -7.482739929342585583e-01
3.850124600529670715e+01 -3.363938295841217041e+01 -7.297498230123835583e-01
3.964577725529670715e+01 -3.399472963809967041e+01 -7.179700378561335583e-01
4.138918545842170715e+01 -3.486643373966217041e+01 -7.124310974264460583e-01
4.377321866154670715e+01 -3.625766909122467041e+01 -7.123548034811335583e-01
4.574270108342170715e+01 -3.721372377872467041e+01 -7.050305847311335583e-01
4.712990811467170715e+01 -3.762046205997467041e+01 -6.898633484030085583e-01
5.383498623967170715e+01 -5.015879213809967041e+01 -6.735059265280085583e-01
5.628579190373420715e+01 -5.149460756778717041e+01 -6.574536804342585583e-01
5.845888760685920715e+01 -5.249411928653717041e+01 -6.368390564108210583e-01
6.016018155217170715e+01 -5.299155580997467041e+01 -6.108838562155085583e-01
1.008681729435920715e+01 -5.973245263099670410e+00 -7.578870300436335583e-01
1.018679288029670715e+01 -5.900491356849670410e+00 -7.539350036764460583e-01
1.028249600529670715e+01 -5.823342919349670410e+00 -7.499829773092585583e-01
1.037893155217170715e+01 -5.745706200599670410e+00 -7.459851745748835583e-01
1.047536709904670715e+01 -5.667825341224670410e+00 -7.420026306295710583e-01
1.057229092717170715e+01 -5.589578270912170410e+00 -7.379895691061335583e-01
1.066994717717170715e+01 -5.510842919349670410e+00 -7.339612487936335583e-01
1.076259854435920715e+01 -5.428079247474670410e+00 -7.299481872701960583e-01
1.108339932560920715e+01 -6.824685692787170410e+00 -7.546063903951960583e-01
1.119143155217170715e+01 -6.741677880287170410e+00 -7.502423767233210583e-01
1.130593350529670715e+01 -6.663064599037170410e+00 -7.458173278951960583e-01
1.141543057560920715e+01 -6.578958153724670410e+00 -7.413922790670710583e-01
1.152504971623420715e+01 -6.494607567787170410e+00 -7.369519714498835583e-01
1.163527920842170715e+01 -6.409890770912170410e+00 -7.324964050436335583e-01
1.174013760685920715e+01 -6.319680809974670410e+00 -7.280255798483210583e-01
1.190432217717170715e+01 -6.273172020912170410e+00 -7.259503845358210583e-01
1.232302334904670715e+01 -7.883767724037170410e+00 -7.505322937155085583e-01
1.244765713810920715e+01 -7.793435692787170410e+00 -7.456189636373835583e-01
1.257302334904670715e+01 -7.702737450599670410e+00 -7.406751159811335583e-01
1.269948819279670715e+01 -7.611184716224670410e+00 -7.357007507467585583e-01
1.282619717717170715e+01 -7.519387841224670410e+00 -7.306958679342585583e-01
1.296206143498420715e+01 -7.433694481849670410e+00 -7.260266784811335583e-01
1.321486905217170715e+01 -7.433938622474670410e+00 -7.260266784811335583e-01
1.350319913029670715e+01 -7.456277489662170410e+00 -7.272321228170710583e-01
1.389773038029670715e+01 -9.229104638099670410e+00 -7.453748230123835583e-01
1.405434659123420715e+01 -9.138650536537170410e+00 -7.397290710592585583e-01
1.420217373967170715e+01 -9.039407372474670410e+00 -7.340680603170710583e-01
1.435146573185920715e+01 -8.939187645912170410e+00 -7.283612732076960583e-01
1.461428311467170715e+01 -8.927590966224670410e+00 -7.268048767233210583e-01
1.493361905217170715e+01 -8.954324364662170410e+00 -7.270184997701960583e-01
1.526394131779670715e+01 -8.982034325599670410e+00 -7.272321228170710583e-01
1.567458584904670715e+01 -9.062844872474670410e+00 -7.303449157858210583e-01
1.613247159123420715e+01 -1.113791811466217041e+01 -7.433911804342585583e-01
1.633144620060920715e+01 -1.104490053653717041e+01 -7.374249939108210583e-01
1.658913663029670715e+01 -1.099741518497467041e+01 -7.332440857076960583e-01
1.690920498967170715e+01 -1.099460756778717041e+01 -7.307874206686335583e-01
1.723610928654670715e+01 -1.099179995059967041e+01 -7.282849792623835583e-01
1.777224209904670715e+01 -1.114365541934967041e+01 -7.317945007467585583e-01
1.822024014592170715e+01 -1.121531069278717041e+01 -7.320386413717585583e-01
1.885427334904670715e+01 -1.141550600528717041e+01 -7.371808532858210583e-01
1.908889248967170715e+01 -1.366367495059967041e+01 -7.353192810201960583e-01
1.956887295842170715e+01 -1.375510561466217041e+01 -7.337018493795710583e-01
1.997756436467170715e+01 -1.377695620059967041e+01 -7.302686218405085583e-01
2.044301846623420715e+01 -1.383469545841217041e+01 -7.278577331686335583e-01
2.134353116154670715e+01 -1.422556459903717041e+01 -7.359906677389460583e-01
2.228481534123420715e+01 -1.462375795841217041e+01 -7.440015319967585583e-01
2.331984952092170715e+01 -1.506711733341217041e+01 -7.530652526998835583e-01
2.442556241154670715e+01 -1.553672182559967041e+01 -7.632886413717585583e-01
2.399489834904670715e+01 -1.785422670841217041e+01 -7.342206482076960583e-01
2.498635342717170715e+01 -1.828965151309967041e+01 -7.385846618795710583e-01
2.589431241154670715e+01 -1.862961733341217041e+01 -7.400800232076960583e-01
2.720131924748420715e+01 -1.926499330997467041e+01 -7.484723571920710583e-01
2.875173428654670715e+01 -2.005722963809967041e+01 -7.600995544576960583e-01
3.010048916935920715e+01 -2.065122377872467041e+01 -7.661115173483210583e-01
3.168129971623420715e+01 -2.138315737247467041e+01 -7.747022155905085583e-01
3.300832608342170715e+01 -2.188718569278717041e+01 -7.771741394186335583e-01
3.248867276310920715e+01 -2.510935366153717041e+01 -7.326489929342585583e-01
3.437075284123420715e+01 -2.614487612247467041e+01 -7.402173523092585583e-01
3.603750088810920715e+01 -2.694968569278717041e+01 -7.412854675436335583e-01
3.716005948185920715e+01 -2.726926577091217041e+01 -7.338239196920710583e-01
3.800222256779670715e+01 -2.734287416934967041e+01 -7.215711120748835583e-01
3.887026455998420715e+01 -2.741892397403717041e+01 -7.089368347311335583e-01
3.990542080998420715e+01 -2.760068666934967041e+01 -6.987287048483210583e-01
4.091506436467170715e+01 -2.774289858341217041e+01 -6.862164978170710583e-01
4.713418057560920715e+01 -3.762131655216217041e+01 -6.897870544576960583e-01
4.819899991154670715e+01 -3.772397768497467041e+01 -6.705609802389460583e-01
4.941799405217170715e+01 -3.793015444278717041e+01 -6.518384460592585583e-01
5.068508389592170715e+01 -3.814426577091217041e+01 -6.323834900045710583e-01
5.179836514592170715e+01 -3.821177065372467041e+01 -6.107923034811335583e-01
5.267763760685920715e+01 -3.807578432559967041e+01 -5.866986755514460583e-01
5.230398038029670715e+01 -3.697568666934967041e+01 -5.538465026998835583e-01
5.198586514592170715e+01 -3.594382631778717041e+01 -5.223371032858210583e-01
5.633034756779670715e+01 -4.454465639591217041e+01 -4.168073181295710583e-01
5.502578213810920715e+01 -4.254490053653717041e+01 -3.810254577780085583e-01
5.401662686467170715e+01 -4.083725893497467041e+01 -3.478375915670710583e-01
5.330544522404670715e+01 -3.941428530216217041e+01 -3.168927673483210583e-01
5.268801358342170715e+01 -3.809983217716217041e+01 -2.873212341451960583e-01
5.231032803654670715e+01 -3.699631655216217041e+01 -2.589398864889460583e-01
5.199196866154670715e+01 -3.596372377872467041e+01 -2.314893249655085583e-01
5.635988858342170715e+01 -4.458786928653717041e+01 -8.399786988738355831e-02
5.504616788029670715e+01 -4.257932436466217041e+01 -5.865302125457105831e-02
5.403591397404670715e+01 -4.086997377872467041e+01 -3.397955934050855831e-02
5.331789639592170715e+01 -3.944077455997467041e+01 -9.702825942071058307e-03
5.269997647404670715e+01 -3.812522280216217041e+01 1.388726194855394169e-02
5.231667569279670715e+01 -3.701694643497467041e+01 3.772149046417894169e-02
5.199819424748420715e+01 -3.598386538028717041e+01 6.106743772980394169e-02
5.638930752873420715e+01 -4.463096010684967041e+01 2.474993224954289417e-01
5.506643155217170715e+01 -4.261374819278717041e+01 2.623308654641789417e-01
5.405520108342170715e+01 -4.090244448184967041e+01 2.785204406594914417e-01
5.333034756779670715e+01 -3.946714174747467041e+01 2.960985656594914417e-01
5.271181729435920715e+01 -3.815061342716217041e+01 3.137224670266789417e-01
5.232302334904670715e+01 -3.703745424747467041e+01 3.329638000344914417e-01
5.200441983342170715e+01 -3.600388491153717041e+01 3.522203918313664417e-01
5.626272061467170715e+01 -4.361362612247467041e+01 6.011675353860539417e-01
6.324624112248420715e+01 -4.831369936466217041e+01 7.316606994485539417e-01
6.403786709904670715e+01 -4.792368471622467041e+01 7.702349181985539417e-01
6.110781338810920715e+01 -4.465024721622467041e+01 7.490252014016789417e-01
6.189724209904670715e+01 -4.429526674747467041e+01 7.884996887063664417e-01
6.254738858342170715e+01 -4.383042299747467041e+01 8.239000793313664417e-01
5.625039151310920715e+01 -4.362168276309967041e+01 9.308947082376164417e-01
6.449709561467170715e+01 -4.934055483341217041e+01 1.126848077378241442e+00
6.388637784123420715e+01 -4.782431948184967041e+01 1.137361383042303942e+00
6.390236905217170715e+01 -4.682798159122467041e+01 1.160814141831366442e+00
6.119375088810920715e+01 -4.378171694278717041e+01 1.123201226792303942e+00
6.311123135685920715e+01 -4.426706850528717041e+01 1.188096856675116442e+00
5.624929288029670715e+01 -4.363877260684967041e+01 1.259126519761053942e+00
6.432802823185920715e+01 -4.922495424747467041e+01 1.496446466050116442e+00
6.570070889592170715e+01 -4.927549135684967041e+01 1.554780816636053942e+00
6.139748623967170715e+01 -4.491172182559967041e+01 1.456193780503241442e+00
6.190688565373420715e+01 -4.433994448184967041e+01 1.489671563706366442e+00
6.167348721623420715e+01 -4.321982729434967041e+01 1.503892755112616442e+00
6.344619229435920715e+01 -4.853513491153717041e+01 1.842622613511053942e+00
6.592385342717170715e+01 -4.947226870059967041e+01 1.942598199448553942e+00
6.486684659123420715e+01 -4.761301577091217041e+01 1.925004815659491442e+00
6.178225186467170715e+01 -4.426438295841217041e+01 1.837999200425116442e+00
6.164309170842170715e+01 -4.321567690372467041e+01 1.849504327378241442e+00
6.375539639592170715e+01 -4.880442202091217041e+01 2.222871636948553942e+00
6.389357998967170715e+01 -4.788999330997467041e+01 2.242936944565741442e+00
6.435366299748420715e+01 -4.723594057559967041e+01 2.275499200425116442e+00
6.497793057560920715e+01 -4.670420229434967041e+01 2.314592218003241442e+00
6.457558682560920715e+01 -4.948594057559967041e+01 2.631776666245428942e+00
6.524538663029670715e+01 -4.897763979434967041e+01 2.673784112534491442e+00
6.460634854435920715e+01 -4.745139467716217041e+01 2.656709527573553942e+00
6.605373623967170715e+01 -4.753940737247467041e+01 2.733934259018866442e+00
6.457387784123420715e+01 -4.846750795841217041e+01 3.015703057846991442e+00
6.538405850529670715e+01 -4.807334291934967041e+01 3.065797662339178942e+00
6.506142666935920715e+01 -4.887314760684967041e+01 3.417619561753241442e+00
6.449636319279670715e+01 -4.696201479434967041e+01 2.586046075425116442e+00
6.400405362248420715e+01 -4.866074526309967041e+01 2.912935113511053942e+00
6.568703702092170715e+01 -4.789927065372467041e+01 3.017457818589178942e+00
6.498598721623420715e+01 -4.841684877872467041e+01 3.352495050034491442e+00
6.424978116154670715e+01 -4.948093569278717041e+01 1.753816461167303942e+00
6.356801846623420715e+01 -4.786948549747467041e+01 1.753618096909491442e+00
6.432619717717170715e+01 -4.742453920841217041e+01 1.797487115464178942e+00
6.175234463810920715e+01 -4.442295229434967041e+01 1.736604547104803942e+00
6.285549405217170715e+01 -4.426926577091217041e+01 1.790803765854803942e+00
6.184243252873420715e+01 -4.254709780216217041e+01 1.777391290268866442e+00
6.416494229435920715e+01 -4.943369448184967041e+01 2.134233331284491442e+00
6.362233975529670715e+01 -4.793393862247467041e+01 2.132097100815741442e+00
6.420888760685920715e+01 -4.735398256778717041e+01 2.171098565659491442e+00
6.487185147404670715e+01 -4.682993471622467041e+01 2.212999200425116442e+00
7.127614834904670715e+01 -5.060068666934967041e+01 2.470445489487616442e+00
6.494655850529670715e+01 -4.901145327091217041e+01 2.567460870346991442e+00
6.439187100529670715e+01 -4.751804506778717041e+01 2.558336114487616442e+00
6.518691495060920715e+01 -4.709226381778717041e+01 2.606874322495428942e+00
7.134597256779670715e+01 -5.067588198184967041e+01 2.887742852768866442e+00
6.333462002873420715e+01 -4.368186342716217041e+01 2.554658746323553942e+00
7.024672940373420715e+01 -5.211643373966217041e+01 3.221818780503241442e+00
6.623427823185920715e+01 -4.791538393497467041e+01 3.038255548081366442e+00
6.470315030217170715e+01 -4.737534487247467041e+01 2.583238458237616442e+00
6.510195401310920715e+01 -4.663144838809967041e+01 2.615892266831366442e+00
6.199575284123420715e+01 -4.229856264591217041e+01 2.512300347886053942e+00
6.396596768498420715e+01 -4.894956362247467041e+01 2.906083917221991442e+00
6.518276455998420715e+01 -4.884250795841217041e+01 2.977601861557928942e+00
7.039126065373420715e+01 -5.182138979434967041e+01 3.242326593003241442e+00
6.240542080998420715e+01 -4.261814272403717041e+01 2.894258355698553942e+00
6.479580166935920715e+01 -4.855783998966217041e+01 3.348817681870428942e+00
6.520290616154670715e+01 -4.780820620059967041e+01 3.380693292221991442e+00
6.180849698185920715e+01 -4.220212709903717041e+01 3.225984429917303942e+00
6.966066983342170715e+01 -5.033823549747467041e+01 2.352311944565741442e+00
7.132021573185920715e+01 -5.044687807559967041e+01 2.435762261948553942e+00
6.191018155217170715e+01 -4.235703432559967041e+01 2.118699884018866442e+00
6.374221280217170715e+01 -4.269150698184967041e+01 2.208360528550116442e+00
6.992544034123420715e+01 -5.291526186466217041e+01 2.742967462143866442e+00
6.425832608342170715e+01 -4.728305971622467041e+01 2.531312799057928942e+00
6.513247159123420715e+01 -4.688279116153717041e+01 2.586885308823553942e+00
7.143679288029670715e+01 -5.056052553653717041e+01 2.869081353745428942e+00
6.388576748967170715e+01 -4.281760561466217041e+01 2.591371392807928942e+00
6.533718350529670715e+01 -4.815403139591217041e+01 2.973741387925116442e+00
6.636159756779670715e+01 -4.785190737247467041e+01 3.038713311753241442e+00
6.335988858342170715e+01 -4.347117006778717041e+01 2.930665826401678942e+00
6.242580655217170715e+01 -4.178513491153717041e+01 2.901292657456366442e+00
6.472890713810920715e+01 -4.880210268497467041e+01 3.328233575425116442e+00
6.523903897404670715e+01 -4.810141909122467041e+01 3.368852471909491442e+00
6.087905362248420715e+01 -3.850046694278717041e+01 3.232225274643866442e+00
6.200246670842170715e+01 -3.823252260684967041e+01 3.309770440659491442e+00
6.279628995060920715e+01 -4.209348452091217041e+01 3.694505548081366442e+00
6.351638272404670715e+01 -4.150632631778717041e+01 3.753908013901678942e+00
6.144875577092170715e+01 -3.787461245059967041e+01 3.681856011948553942e+00
6.200014737248420715e+01 -4.127988588809967041e+01 2.247316217026678942e+00
5.978920987248420715e+01 -3.857468569278717041e+01 2.203416680893866442e+00
6.007131436467170715e+01 -3.771396791934967041e+01 2.245332574448553942e+00
6.069887784123420715e+01 -3.710337221622467041e+01 2.301423883042303942e+00
6.540004971623420715e+01 -4.863669741153717041e+01 2.667512750229803942e+00
6.527334073185920715e+01 -4.730722963809967041e+01 2.696229791245428942e+00
6.190505459904670715e+01 -4.236118471622467041e+01 2.628084039292303942e+00
6.235097745060920715e+01 -4.156907045841217041e+01 2.676683282456366442e+00
6.049013760685920715e+01 -3.911045229434967041e+01 2.631547784409491442e+00
6.202675870060920715e+01 -3.912778627872467041e+01 2.723893975815741442e+00
6.035073330998420715e+01 -3.688987123966217041e+01 2.683870172104803942e+00
6.534475186467170715e+01 -4.862558901309967041e+01 3.113191461167303942e+00
6.006350186467170715e+01 -3.883030092716217041e+01 3.013460015854803942e+00
6.424087002873420715e+01 -4.072654116153717041e+01 3.236757134995428942e+00
6.156460049748420715e+01 -3.776047670841217041e+01 3.138154840073553942e+00
6.286879971623420715e+01 -4.201218569278717041e+01 3.536226129136053942e+00
6.343007901310920715e+01 -4.129795229434967041e+01 3.589891290268866442e+00
6.107522061467170715e+01 -3.851084291934967041e+01 3.491182183823553942e+00
6.130764248967170715e+01 -3.761057436466217041e+01 3.528764581284491442e+00
6.269594815373420715e+01 -4.168564760684967041e+01 3.033601617417303942e+00
6.077053311467170715e+01 -3.916513979434967041e+01 2.977571343979803942e+00
6.474575284123420715e+01 -4.089402163028717041e+01 3.189271783432928942e+00
6.147756436467170715e+01 -3.750217592716217041e+01 3.070131158432928942e+00
6.298415616154670715e+01 -4.193015444278717041e+01 3.471666192612616442e+00
6.336428311467170715e+01 -4.107248842716217041e+01 3.518342828354803942e+00
6.118825772404670715e+01 -3.840464174747467041e+01 3.434724664292303942e+00
