6.980900108814239502e+00 -7.522683262825012207e+00 -8.794601760106104393e-01
7.082218468189239502e+00 -7.464699864387512207e+00 -8.750351271824854393e-01
7.180240929126739502e+00 -7.401711583137512207e+00 -8.705490431981104393e-01
7.279239952564239502e+00 -7.339089512825012207e+00 -8.660934767918604393e-01
7.377994835376739502e+00 -7.276589512825012207e+00 -8.616531691746729393e-01
7.476871788501739502e+00 -7.214089512825012207e+00 -8.571976027684229393e-01
7.576237022876739502e+00 -7.151223301887512207e+00 -8.527267775731104393e-01
7.672062218189239502e+00 -7.084328770637512207e+00 -8.482712111668604393e-01
7.770939171314239502e+00 -8.715676426887512207e+00 -8.993576369481104393e-01
7.744816124439239502e+00 -8.444680333137512207e+00 -8.819168410496729393e-01
7.884098351001739502e+00 -8.420388340950012207e+00 -8.794296584324854393e-01
7.996891319751739502e+00 -8.355813145637512207e+00 -8.747452101902979393e-01
8.111271202564239502e+00 -8.293801426887512207e+00 -8.702438674168604393e-01
8.221134483814239502e+00 -8.225075840950012207e+00 -8.653152785496729393e-01
8.327579796314239502e+00 -8.150979161262512207e+00 -8.603714308934229393e-01
8.437687218189239502e+00 -8.082131505012512207e+00 -8.554275832371729393e-01
8.617130577564239502e+00 -9.993996739387512207e+00 -9.108780226902979393e-01
8.706241905689239502e+00 -9.865578770637512207e+00 -9.024093947606104393e-01
8.794742882251739502e+00 -9.738015294075012207e+00 -8.940170607762354393e-01
8.882877647876739502e+00 -9.611062169075012207e+00 -8.856399855809229393e-01
8.994083702564239502e+00 -9.518654942512512207e+00 -8.792312941746729393e-01
9.112369835376739502e+00 -9.436013340950012207e+00 -8.733566603856104393e-01
9.226993858814239502e+00 -9.347756505012512207e+00 -8.671615920262354393e-01
9.341007530689239502e+00 -9.259743809700012207e+00 -8.609970412449854393e-01
9.665104210376739502e+00 -1.157724869251251221e+01 -9.241531691746729393e-01
9.693424522876739502e+00 -1.132566177845001221e+01 -9.090622267918604393e-01
9.785831749439239502e+00 -1.117307388782501221e+01 -8.994339308934229393e-01
9.877872765064239502e+00 -1.102134048938751221e+01 -8.898514113621729393e-01
9.990665733814239502e+00 -1.090158951282501221e+01 -8.819168410496729393e-01
1.017560225725173950e+01 -1.088095963001251221e+01 -8.789261183934229393e-01
1.035736495256423950e+01 -1.085190689563751221e+01 -8.755081496434229393e-01
1.046393233537673950e+01 -1.072348892688751221e+01 -8.675278029637354393e-01
1.149249678850173950e+01 -1.433615982532501221e+01 -9.728744826512354393e-01
1.190289717912673950e+01 -1.458921158313751221e+01 -9.813583693699854393e-01
1.236334639787673950e+01 -1.489902603626251221e+01 -9.922531447606104393e-01
1.154962569475173950e+01 -1.338901627063751221e+01 -9.214676222996729393e-01
1.164398604631423950e+01 -1.319468033313751221e+01 -9.099014601902979393e-01
1.173736983537673950e+01 -1.300241959095001221e+01 -8.984573683934229393e-01
1.183002120256423950e+01 -1.281150162220001221e+01 -8.870895705418604393e-01
1.192145186662673950e+01 -1.262339127063751221e+01 -8.758896193699854393e-01
1.233026534318923950e+01 -1.560569107532501221e+01 -9.323471389012354393e-01
1.284650069475173950e+01 -1.598801529407501221e+01 -9.430893264012354393e-01
1.341339522600173950e+01 -1.642234146595001221e+01 -9.561813674168604393e-01
1.398419600725173950e+01 -1.683713638782501221e+01 -9.682358107762354393e-01
1.462714034318923950e+01 -1.733017838001251221e+01 -9.831131301121729393e-01
1.531415206193923950e+01 -1.785715591907501221e+01 -9.990127883152979393e-01
1.370465499162673950e+01 -1.530637466907501221e+01 -8.962601027684229393e-01
1.380096846818923950e+01 -1.507358658313751221e+01 -8.837631545262354393e-01
1.336041671037673950e+01 -1.716636002063751221e+01 -8.873031935887354393e-01
1.386346846818923950e+01 -1.749631607532501221e+01 -8.935898146824854393e-01
1.457855635881423950e+01 -1.811301529407501221e+01 -9.093216262059229393e-01
1.521283370256423950e+01 -1.858225357532501221e+01 -9.196823439793604393e-01
1.593524581193923950e+01 -1.914939224720001221e+01 -9.330185256199854393e-01
1.678180342912673950e+01 -1.985544693470001221e+01 -9.505356154637354393e-01
1.773712569475173950e+01 -2.066904556751251221e+01 -9.710739455418604393e-01
1.861883956193923950e+01 -2.134861099720001221e+01 -9.867447219090479393e-01
1.456378585100173950e+01 -1.898948013782501221e+01 -8.332107863621729393e-01
1.524664717912673950e+01 -1.954636490345001221e+01 -8.428543410496729393e-01
1.599811202287673950e+01 -2.017282974720001221e+01 -8.533829055027979393e-01
1.677093917131423950e+01 -2.079502213001251221e+01 -8.639267287449854393e-01
1.761102706193923950e+01 -2.147947037220001221e+01 -8.757522902684229393e-01
1.861786299943923950e+01 -2.235520279407501221e+01 -8.922470412449854393e-01
1.963519698381423950e+01 -2.320017349720001221e+01 -9.080246291356104393e-01
2.072943526506423950e+01 -2.410508072376251221e+01 -9.240158400731104393e-01
1.562714034318923950e+01 -2.060276138782501221e+01 -7.535446486668604393e-01
1.658050948381423950e+01 -2.152536880970001221e+01 -7.671249709324854393e-01
1.759735518693923950e+01 -2.249399673938751221e+01 -7.810257277684229393e-01
1.866864424943923950e+01 -2.349033463001251221e+01 -7.947433791356104393e-01
1.978656417131423950e+01 -2.450400650501251221e+01 -8.080490431981104393e-01
2.104938155412673950e+01 -2.566501724720001221e+01 -8.236893019871729393e-01
2.256525069475173950e+01 -2.710483658313751221e+01 -8.442428908543604393e-01
2.645111495256423950e+01 -3.156528580188751221e+01 -9.265945754246729393e-01
1.697882491350173950e+01 -2.265293228626251221e+01 -6.645859084324854393e-01
1.803522139787673950e+01 -2.368442642688751221e+01 -6.733291945652979393e-01
1.914947921037673950e+01 -2.474900162220001221e+01 -6.817215285496729393e-01
2.032538253068923950e+01 -2.584629166126251221e+01 -6.896866164402979393e-01
2.210992842912673950e+01 -2.773594009876251221e+01 -7.095688185887354393e-01
2.619171553850173950e+01 -3.265818130970001221e+01 -7.759292922215479393e-01
2.827203780412673950e+01 -3.470505630970001221e+01 -7.936905226902979393e-01
3.332001143693923950e+01 -4.052610123157501221e+01 -8.664902053074854393e-01
1.806659346818923950e+01 -2.430588638782501221e+01 -5.474899611668604393e-01
1.945599776506423950e+01 -2.579526627063751221e+01 -5.542801222996729393e-01
2.097235518693923950e+01 -2.739743912220001221e+01 -5.609787306981104393e-01
2.363226729631423950e+01 -3.054184830188751221e+01 -5.830887160496729393e-01
2.647760421037673950e+01 -3.380588638782501221e+01 -6.036575637059229393e-01
2.912933760881423950e+01 -3.666233170032501221e+01 -6.170547805027979393e-01
5.604755049943923950e+01 -7.166892349720001221e+01 -9.397018752293604393e-01
5.649750167131423950e+01 -7.074546158313751221e+01 -8.982742629246729393e-01
1.946625167131423950e+01 -2.643149673938751221e+01 -4.162033400731104393e-01
1.864984542131423950e+01 -2.461423599720001221e+01 -3.919266066746729393e-01
2.414960128068923950e+01 -3.200864517688751221e+01 -4.230850539402979393e-01
2.667486983537673950e+01 -3.486667740345001221e+01 -4.227341017918604393e-01
3.109564620256423950e+01 -4.022812759876251221e+01 -4.318741164402979393e-01
3.932843428850173950e+01 -4.839231216907501221e+01 -3.992050490574854393e-01
1.814545089006423950e+01 -2.444663345813751221e+01 -2.556503615574854393e-01
1.848395186662673950e+01 -2.437973892688751221e+01 -2.426498732762354393e-01
2.654364424943923950e+01 -3.548935806751251221e+01 -2.336014113621729393e-01
3.159564620256423950e+01 -4.185740005970001221e+01 -2.133987746434229393e-01
4.400165206193923950e+01 -5.816013443470001221e+01 -1.794327101902979393e-01
3.794537764787673950e+01 -4.867746841907501221e+01 -1.600845656590479393e-01
3.926495772600173950e+01 -4.832956802845001221e+01 -1.058395705418604393e-01
1.812225753068923950e+01 -2.442246353626251221e+01 -1.094406447606104393e-01
1.842169600725173950e+01 -2.429831802845001221e+01 -9.608920433092293933e-02
3.211761885881423950e+01 -4.357969009876251221e+01 2.022854469251456067e-02
3.662128096818923950e+01 -4.900266373157501221e+01 7.665554664563956067e-02
3.724628096818923950e+01 -4.880320084095001221e+01 1.033431687159520607e-01
2.022601729631423950e+01 -2.460080826282501221e+01 -3.642733909654793933e-02
3.822455245256423950e+01 -4.801889908313751221e+01 1.544906296534520607e-01
3.805658370256423950e+01 -4.677292740345001221e+01 1.730605759425145607e-01
1.824286299943923950e+01 -2.461557877063751221e+01 3.934780738782706067e-02
1.922760421037673950e+01 -2.550229752063751221e+01 6.277004859876456067e-02
3.570563155412673950e+01 -4.879831802845001221e+01 3.316604294581395607e-01
3.696673995256423950e+01 -4.951328384876251221e+01 3.694106735987645607e-01
3.719342452287673950e+01 -4.875010025501251221e+01 3.905288376612645607e-01
1.881146651506423950e+01 -2.268698990345001221e+01 9.177700660657706067e-02
1.887176924943923950e+01 -2.557834732532501221e+01 2.011672653956395607e-01
4.206097823381423950e+01 -5.933445084095001221e+01 7.527572312159520607e-01
4.243378096818923950e+01 -5.857395279407501221e+01 7.776900925440770607e-01
3.597418624162673950e+01 -4.812534439563751221e+01 6.369277634425145607e-01
1.989105635881423950e+01 -2.472409927845001221e+01 2.542220749659520607e-01
1.859515792131423950e+01 -2.240244400501251221e+01 2.287551560206395607e-01
1.973566085100173950e+01 -2.689768326282501221e+01 3.817245163722020607e-01
1.891424971818923950e+01 -2.506040298938751221e+01 3.601791062159520607e-01
3.523395186662673950e+01 -4.815512955188751221e+01 8.862258591456395607e-01
1.831012374162673950e+01 -2.306357681751251221e+01 3.505202927393895607e-01
1.995648604631423950e+01 -2.426572525501251221e+01 4.132796921534520607e-01
3.834686690568923950e+01 -4.824155533313751221e+01 1.023661772231577061e+00
1.829962569475173950e+01 -2.360263931751251221e+01 4.899551071925145607e-01
1.832745772600173950e+01 -2.309836685657501221e+01 4.937087693018895607e-01
1.828277999162673950e+01 -2.250852310657501221e+01 4.944564499659520607e-01
2.038690596818923950e+01 -2.486264908313751221e+01 5.821029343409520607e-01
3.835773116350173950e+01 -4.724387466907501221e+01 1.319682280044077061e+00
1.919391280412673950e+01 -2.610044205188751221e+01 6.762649216456395607e-01
2.000458174943923950e+01 -2.669944107532501221e+01 7.159377732081395607e-01
1.998468428850173950e+01 -2.605918228626251221e+01 7.148086228175145607e-01
1.904193526506423950e+01 -2.412387955188751221e+01 6.700545944972020607e-01
1.937433272600173950e+01 -2.403733170032501221e+01 6.866866745753270607e-01
1.946735030412673950e+01 -2.362021744251251221e+01 6.917678513331395607e-01
3.802252608537673950e+01 -4.784885513782501221e+01 1.589289823989389561e+00
3.857281905412673950e+01 -4.754453384876251221e+01 1.616984526137827061e+00
1.857501631975173950e+01 -2.517380630970001221e+01 7.976180710597020607e-01
1.963788253068923950e+01 -2.616721451282501221e+01 8.551589646143895607e-01
1.921783858537673950e+01 -2.495676529407501221e+01 8.299361862940770607e-01
1.799420577287673950e+01 -2.264487564563751221e+01 7.596847214503270607e-01
1.895343428850173950e+01 -2.346177017688751221e+01 8.121139206690770607e-01
1.872089034318923950e+01 -2.261301529407501221e+01 7.976791062159520607e-01
3.877045089006423950e+01 -4.886704361438751221e+01 1.917918364028452061e+00
3.935614424943923950e+01 -4.858860123157501221e+01 1.949443022231577061e+00
7.672428429126739502e+00 -7.084328770637512207e+00 -8.482712111668604393e-01
7.770939171314239502e+00 -7.020485997200012207e+00 -8.438156447606104393e-01
7.866276085376739502e+00 -6.952370762825012207e+00 -8.393448195652979393e-01
7.963688194751739502e+00 -6.885964512825012207e+00 -8.349808058934229393e-01
8.068912804126739502e+00 -6.829201817512512207e+00 -8.312729201512354393e-01
8.174503624439239502e+00 -6.772072911262512207e+00 -8.275497756199854393e-01
8.272770226001739502e+00 -6.705178380012512207e+00 -8.231705031590479393e-01
8.357609093189239502e+00 -6.623635411262512207e+00 -8.180893264012354393e-01
8.438175499439239502e+00 -8.082131505012512207e+00 -8.554275832371729393e-01
8.544010460376739502e+00 -8.007546544075012207e+00 -8.504989943699854393e-01
8.654117882251739502e+00 -7.937966465950012207e+00 -8.455398879246729393e-01
8.760685265064239502e+00 -7.862771153450012207e+00 -8.405655226902979393e-01
8.867130577564239502e+00 -7.787819981575012207e+00 -8.356064162449854393e-01
8.973697960376739502e+00 -7.712746739387512207e+00 -8.306320510106104393e-01
9.076481163501739502e+00 -7.632302403450012207e+00 -8.256576857762354393e-01
9.183292686939239502e+00 -7.556985020637512207e+00 -8.206833205418604393e-01
9.341495811939239502e+00 -9.259499669075012207e+00 -8.609817824559229393e-01
9.450016319751739502e+00 -9.164528965950012207e+00 -8.547561965184229393e-01
9.558536827564239502e+00 -9.069436192512512207e+00 -8.485458693699854393e-01
9.667301476001739502e+00 -8.974221348762512207e+00 -8.423202834324854393e-01
9.775699913501739502e+00 -8.879372715950012207e+00 -8.361252150731104393e-01
9.883976280689239502e+00 -8.784524083137512207e+00 -8.299301467137354393e-01
9.992618858814239502e+00 -8.689431309700012207e+00 -8.237045607762354393e-01
1.010309249162673950e+01 -8.597268223762512207e+00 -8.176620803074854393e-01
1.046442061662673950e+01 -1.072324478626251221e+01 -8.674972853856104393e-01
1.057794600725173950e+01 -1.060471451282501221e+01 -8.595627150731104393e-01
1.068475753068923950e+01 -1.047849380970001221e+01 -8.516281447606104393e-01
1.080316573381423950e+01 -1.036667740345001221e+01 -8.444107375340479393e-01
1.092303878068923950e+01 -1.025754654407501221e+01 -8.373459181981104393e-01
1.108954268693923950e+01 -1.020371353626251221e+01 -8.329971633152979393e-01
1.127106124162673950e+01 -1.016416275501251221e+01 -8.293197951512354393e-01
1.144488936662673950e+01 -1.011399185657501221e+01 -8.255203566746729393e-01
1.192169600725173950e+01 -1.262265884876251221e+01 -8.758591017918604393e-01
1.208319503068923950e+01 -1.252683365345001221e+01 -8.690536818699854393e-01
1.223944503068923950e+01 -1.242344009876251221e+01 -8.619278273777979393e-01
1.239654952287673950e+01 -1.231955826282501221e+01 -8.547561965184229393e-01
1.255353194475173950e+01 -1.221567642688751221e+01 -8.475998244481104393e-01
1.271075850725173950e+01 -1.211167252063751221e+01 -8.404129347996729393e-01
1.286883956193923950e+01 -1.200705826282501221e+01 -8.331955275731104393e-01
1.303949385881423950e+01 -1.191709244251251221e+01 -8.266037306981104393e-01
1.380109053850173950e+01 -1.507261002063751221e+01 -8.837173781590479393e-01
1.390057784318923950e+01 -1.484787857532501221e+01 -8.708084426121729393e-01
1.411761885881423950e+01 -1.477353775501251221e+01 -8.641556105809229393e-01
1.439044600725173950e+01 -1.476365005970001221e+01 -8.598984084324854393e-01
1.455255538225173950e+01 -1.461716568470001221e+01 -8.504837355809229393e-01
1.471356612443923950e+01 -1.446970474720001221e+01 -8.410232863621729393e-01
1.489996749162673950e+01 -1.435056412220001221e+01 -8.326156935887354393e-01
1.509857589006423950e+01 -1.424546158313751221e+01 -8.252609572606104393e-01
1.862408858537673950e+01 -2.135386002063751221e+01 -9.868973097996729393e-01
1.674042159318923950e+01 -1.847397720813751221e+01 -8.879745803074854393e-01
1.684308272600173950e+01 -1.818357193470001221e+01 -8.730667433934229393e-01
1.694488936662673950e+01 -1.789560806751251221e+01 -8.583114943699854393e-01
1.731695967912673950e+01 -1.793796646595001221e+01 -8.539779982762354393e-01
1.764923506975173950e+01 -1.792527115345001221e+01 -8.478134474949854393e-01
1.794684249162673950e+01 -1.786521255970001221e+01 -8.400925002293604393e-01
1.820026046037673950e+01 -1.775241959095001221e+01 -8.307083449559229393e-01
2.073382979631423950e+01 -2.410886490345001221e+01 -9.240768752293604393e-01
2.189496260881423950e+01 -2.505429947376251221e+01 -9.407089553074854393e-01
2.313177901506423950e+01 -2.604746353626251221e+01 -9.569443068699854393e-01
2.451874190568923950e+01 -2.717344009876251221e+01 -9.766128859715479393e-01
2.095099288225173950e+01 -2.230442154407501221e+01 -8.435867629246729393e-01
2.190582686662673950e+01 -2.293637955188751221e+01 -8.511398635106104393e-01
2.228558760881423950e+01 -2.287082779407501221e+01 -8.417251906590479393e-01
2.273688155412673950e+01 -2.288193619251251221e+01 -8.332870803074854393e-01
2.645673018693923950e+01 -3.157041275501251221e+01 -9.266708693699854393e-01
2.825043135881423950e+01 -3.317148697376251221e+01 -9.472549758152979393e-01
2.993890792131423950e+01 -3.456540787220001221e+01 -9.623001418309229393e-01
3.115729171037673950e+01 -3.531345474720001221e+01 -9.633072219090479393e-01
3.149164229631423950e+01 -3.496115982532501221e+01 -9.422500930027979393e-01
3.182513839006423950e+01 -3.460971939563751221e+01 -9.212539992527979393e-01
3.211334639787673950e+01 -3.420554459095001221e+01 -8.992660842137354393e-01
3.320929366350173950e+01 -3.471982681751251221e+01 -8.941086135106104393e-01
3.333600264787673950e+01 -4.054380142688751221e+01 -8.667038283543604393e-01
4.895013839006423950e+01 -5.959836685657501221e+01 -1.128544648666860439e+00
4.888312178850173950e+01 -5.826365005970001221e+01 -1.083943208237172939e+00
4.832672530412673950e+01 -5.635898697376251221e+01 -1.032078584213735439e+00
4.873041182756423950e+01 -5.566758072376251221e+01 -9.977615676121729393e-01
4.897174483537673950e+01 -5.479380142688751221e+01 -9.612778029637354393e-01
4.913678389787673950e+01 -5.384385025501251221e+01 -9.240921340184229393e-01
4.932220870256423950e+01 -5.293991959095001221e+01 -8.879745803074854393e-01
5.649835616350173950e+01 -7.074131119251251221e+01 -8.981216750340479393e-01
5.694952803850173950e+01 -6.983408463001251221e+01 -8.570144972996729393e-01
5.730743819475173950e+01 -6.882346451282501221e+01 -8.153427443699854393e-01
5.768915206193923950e+01 -6.785459244251251221e+01 -7.742813430027979393e-01
5.809296065568923950e+01 -6.693271744251251221e+01 -7.340591750340479393e-01
5.859491378068923950e+01 -6.614035904407501221e+01 -6.950729689793604393e-01
5.923675948381423950e+01 -6.551340591907501221e+01 -6.572616896824854393e-01
6.070477706193923950e+01 -6.582737076282501221e+01 -6.251724562840479393e-01
3.933173018693923950e+01 -4.839304459095001221e+01 -3.991287551121729393e-01
3.926825362443923950e+01 -4.833030045032501221e+01 -1.057480178074854393e-01
3.838983565568923950e+01 -4.618039810657501221e+01 -8.426364280748543933e-02
3.805878096818923950e+01 -4.677231705188751221e+01 1.731521286768895607e-01
3.958881026506423950e+01 -4.773191177845001221e+01 2.105209030909520607e-01
4.045148116350173950e+01 -4.782041275501251221e+01 5.345412888331395607e-01
3.854718428850173950e+01 -4.643882095813751221e+01 7.661391892237645607e-01
3.943390303850173950e+01 -4.656504166126251221e+01 8.026992478175145607e-01
4.009088546037673950e+01 -4.638498795032501221e+01 8.334457077784520607e-01
3.904925948381423950e+01 -4.710031998157501221e+01 1.065928617934702061e+00
3.920526534318923950e+01 -4.629758560657501221e+01 1.081034819106577061e+00
3.835321456193923950e+01 -4.723435318470001221e+01 1.319499174575327061e+00
3.887262374162673950e+01 -4.689365494251251221e+01 1.347087065200327061e+00
3.909088546037673950e+01 -4.617319595813751221e+01 1.362315336684702061e+00
3.857294112443923950e+01 -4.754123795032501221e+01 1.616984526137827061e+00
3.900799971818923950e+01 -4.708652603626251221e+01 1.640818754653452061e+00
3.975458174943923950e+01 -4.702475845813751221e+01 1.678202787856577061e+00
3.919769698381423950e+01 -4.837778580188751221e+01 1.940577665786264561e+00
3.898114424943923950e+01 -4.707138931751251221e+01 1.926097074965952061e+00
3.971954756975173950e+01 -4.700010025501251221e+01 1.966517607192514561e+00
8.357853233814239502e+00 -6.623391270637512207e+00 -8.180740676121729393e-01
8.445865929126739502e+00 -6.545266270637512207e+00 -8.130081496434229393e-01
8.529850304126739502e+00 -6.462746739387512207e+00 -8.079269728856104393e-01
8.621647179126739502e+00 -6.388039708137512207e+00 -8.033798537449854393e-01
8.713810265064239502e+00 -6.313943028450012207e+00 -7.988632521824854393e-01
8.806095421314239502e+00 -6.239846348762512207e+00 -7.943466506199854393e-01
8.898746788501739502e+00 -6.165261387825012207e+00 -7.898147902684229393e-01
8.992130577564239502e+00 -6.091530919075012207e+00 -7.856338820652979393e-01
9.183536827564239502e+00 -7.556740880012512207e+00 -8.206528029637354393e-01
9.285709679126739502e+00 -7.475808262825012207e+00 -8.156784377293604393e-01
9.392521202564239502e+00 -7.399636387825012207e+00 -8.106888137059229393e-01
9.495426476001739502e+00 -7.318215489387512207e+00 -8.056839308934229393e-01
9.598209679126739502e+00 -7.236916661262512207e+00 -8.006790480809229393e-01
9.701114952564239502e+00 -7.155495762825012207e+00 -7.956741652684229393e-01
9.799991905689239502e+00 -7.068825840950012207e+00 -7.906692824559229393e-01
9.903263390064239502e+00 -6.987160801887512207e+00 -7.856491408543604393e-01
1.010345870256423950e+01 -8.597024083137512207e+00 -8.176315627293604393e-01
1.023224288225173950e+01 -8.525002598762512207e+00 -8.130386672215479393e-01
1.036175948381423950e+01 -8.452736973762512207e+00 -8.084305129246729393e-01
1.049237471818923950e+01 -8.379860997200012207e+00 -8.037765822606104393e-01
1.062323409318923950e+01 -8.306740880012512207e+00 -7.991073928074854393e-01
1.075482589006423950e+01 -8.233376622200012207e+00 -7.944229445652979393e-01
1.088739424943923950e+01 -8.159279942512512207e+00 -7.896927199559229393e-01
1.102032881975173950e+01 -8.085183262825012207e+00 -7.849472365574854393e-01
1.144586592912673950e+01 -1.011435806751251221e+01 -8.255356154637354393e-01
1.161957198381423950e+01 -1.006198990345001221e+01 -8.211410842137354393e-01
1.175726729631423950e+01 -9.968239903450012207e+00 -8.151291213231104393e-01
1.189581710100173950e+01 -9.873757481575012207e+00 -8.090713820652979393e-01
1.203448897600173950e+01 -9.779275059700012207e+00 -8.030289015965479393e-01
1.217352706193923950e+01 -9.684548497200012207e+00 -7.969559035496729393e-01
1.231341964006423950e+01 -9.589211583137512207e+00 -7.908371291356104393e-01
1.244318038225173950e+01 -9.483864903450012207e+00 -7.846573195652979393e-01
1.304022628068923950e+01 -1.191709244251251221e+01 -8.266037306981104393e-01
1.321844893693923950e+01 -1.183384048938751221e+01 -8.206222853856104393e-01
1.339777022600173950e+01 -1.175022232532501221e+01 -8.145950637059229393e-01
1.357892256975173950e+01 -1.166562759876251221e+01 -8.085220656590479393e-01
1.376068526506423950e+01 -1.158091080188751221e+01 -8.024185500340479393e-01
1.394366866350173950e+01 -1.149558365345001221e+01 -7.962845168309229393e-01
1.412848311662673950e+01 -1.140927994251251221e+01 -7.900741896824854393e-01
1.431390792131423950e+01 -1.132273209095001221e+01 -7.838638625340479393e-01
1.509955245256423950e+01 -1.424546158313751221e+01 -8.252456984715479393e-01
1.533002120256423950e+01 -1.417417252063751221e+01 -8.183487258152979393e-01
1.554816085100173950e+01 -1.408640396595001221e+01 -8.113449416356104393e-01
1.582733565568923950e+01 -1.405967056751251221e+01 -8.064926467137354393e-01
1.608722335100173950e+01 -1.400901138782501221e+01 -8.007248244481104393e-01
1.632794600725173950e+01 -1.393479263782501221e+01 -7.940872512059229393e-01
1.657184249162673950e+01 -1.385959732532501221e+01 -7.873581252293604393e-01
1.680426436662673950e+01 -1.377085220813751221e+01 -7.806900344090479393e-01
1.820123702287673950e+01 -1.775217545032501221e+01 -8.306930861668604393e-01
1.844818526506423950e+01 -1.762973892688751221e+01 -8.212784133152979393e-01
1.869672042131423950e+01 -1.750644791126251221e+01 -8.118179640965479393e-01
1.894549971818923950e+01 -1.737986099720001221e+01 -8.022049269871729393e-01
1.929340010881423950e+01 -1.735544693470001221e+01 -7.955520949559229393e-01
1.968439131975173950e+01 -1.736875259876251221e+01 -7.899063430027979393e-01
2.005121260881423950e+01 -1.734873306751251221e+01 -7.831619582371729393e-01
2.034772139787673950e+01 -1.725449478626251221e+01 -7.742203078465479393e-01
2.273859053850173950e+01 -2.288218033313751221e+01 -8.332718215184229393e-01
2.318902999162673950e+01 -2.288340103626251221e+01 -8.246963820652979393e-01
2.417718917131423950e+01 -2.345847427845001221e+01 -8.286789260106104393e-01
2.453778487443923950e+01 -2.333286392688751221e+01 -8.165939650731104393e-01
2.500445967912673950e+01 -2.331504166126251221e+01 -8.069351515965479393e-01
2.546966964006423950e+01 -2.328684341907501221e+01 -7.968643508152979393e-01
2.588055831193923950e+01 -2.319394791126251221e+01 -7.860458693699854393e-01
2.645026046037673950e+01 -2.325290787220001221e+01 -7.775772414402979393e-01
3.321258956193923950e+01 -3.472116959095001221e+01 -8.940780959324854393e-01
3.385980635881423950e+01 -3.470554459095001221e+01 -8.790634474949854393e-01
3.443939620256423950e+01 -3.460398209095001221e+01 -8.622787795262354393e-01
3.486322432756423950e+01 -3.432468521595001221e+01 -8.422439894871729393e-01
3.546893721818923950e+01 -3.423496353626251221e+01 -8.253372512059229393e-01
3.592853194475173950e+01 -3.398594009876251221e+01 -8.056381545262354393e-01
3.652679854631423950e+01 -3.386948502063751221e+01 -7.878769240574854393e-01
3.702887374162673950e+01 -3.365195572376251221e+01 -7.684372267918604393e-01
4.932123214006423950e+01 -5.293515884876251221e+01 -8.878372512059229393e-01
4.949957686662673950e+01 -5.203965103626251221e+01 -8.523147902684229393e-01
4.967523604631423950e+01 -5.115671646595001221e+01 -8.173111281590479393e-01
4.984906417131423950e+01 -5.028354752063751221e+01 -7.826736769871729393e-01
5.002020674943923950e+01 -4.942588150501251221e+01 -7.486465773777979393e-01
5.026434737443923950e+01 -4.865708267688751221e+01 -7.158401808934229393e-01
5.117731124162673950e+01 -4.856626236438751221e+01 -6.894424758152979393e-01
5.328900557756423950e+01 -4.964084732532501221e+01 -6.728714308934229393e-01
6.071344405412673950e+01 -6.583261978626251221e+01 -6.250961623387354393e-01
6.212421065568923950e+01 -6.604709732532501221e+01 -5.914047560887354393e-01
6.362433272600173950e+01 -6.632529556751251221e+01 -5.571487746434229393e-01
6.517084151506423950e+01 -6.661240494251251221e+01 -5.218399367527979393e-01
6.594073897600173950e+01 -6.605722916126251221e+01 -4.824417433934229393e-01
8.992496788501739502e+00 -6.091408848762512207e+00 -7.856186232762354393e-01
9.095035851001739502e+00 -6.025979161262512207e+00 -7.817734084324854393e-01
9.193546593189239502e+00 -5.956154942512512207e+00 -7.779129347996729393e-01
9.292911827564239502e+00 -5.885720372200012207e+00 -7.740372023777979393e-01
9.392277061939239502e+00 -5.815163731575012207e+00 -7.701462111668604393e-01
9.492130577564239502e+00 -5.744362950325012207e+00 -7.662399611668604393e-01
9.592716515064239502e+00 -5.673073887825012207e+00 -7.623031935887354393e-01
9.688663780689239502e+00 -5.597512364387512207e+00 -7.583816847996729393e-01
9.903751671314239502e+00 -6.986916661262512207e+00 -7.856491408543604393e-01
1.000897628068923950e+01 -6.906716465950012207e+00 -7.810715041356104393e-01
1.012579756975173950e+01 -6.836526036262512207e+00 -7.767990431981104393e-01
1.023798018693923950e+01 -6.760598301887512207e+00 -7.724808058934229393e-01
1.035028487443923950e+01 -6.684548497200012207e+00 -7.681778273777979393e-01
1.046332198381423950e+01 -6.608132481575012207e+00 -7.638443312840479393e-01
1.057135421037673950e+01 -6.526101231575012207e+00 -7.594955764012354393e-01
1.068524581193923950e+01 -6.448952794075012207e+00 -7.551163039402979393e-01
1.102069503068923950e+01 -8.084939122200012207e+00 -7.849319777684229393e-01
1.114764815568923950e+01 -8.003884434700012207e+00 -7.801712355809229393e-01
1.127533370256423950e+01 -7.922463536262512207e+00 -7.753952346043604393e-01
1.140411788225173950e+01 -7.840310215950012207e+00 -7.705581984715479393e-01
1.153314620256423950e+01 -7.757912755012512207e+00 -7.657211623387354393e-01
1.166290694475173950e+01 -7.675271153450012207e+00 -7.608688674168604393e-01
1.179376631975173950e+01 -7.591775059700012207e+00 -7.559555373387354393e-01
1.192486983537673950e+01 -7.508156895637512207e+00 -7.510422072606104393e-01
1.244354659318923950e+01 -9.483498692512512207e+00 -7.846268019871729393e-01
1.259711104631423950e+01 -9.400490880012512207e+00 -7.790420851902979393e-01
1.274664717912673950e+01 -9.312111973762512207e+00 -7.736099562840479393e-01
1.289752608537673950e+01 -9.222878575325012207e+00 -7.681015334324854393e-01
1.304889327287673950e+01 -9.133523106575012207e+00 -7.626083693699854393e-01
1.320111495256423950e+01 -9.043435215950012207e+00 -7.570541701512354393e-01
1.335480147600173950e+01 -8.952614903450012207e+00 -7.514694533543604393e-01
1.349933272600173950e+01 -8.853371739387512207e+00 -7.458847365574854393e-01
1.431439620256423950e+01 -1.132236588001251221e+01 -7.838333449559229393e-01
1.449286299943923950e+01 -1.122702896595001221e+01 -7.775772414402979393e-01
1.467242842912673950e+01 -1.113108170032501221e+01 -7.712601027684229393e-01
1.485406905412673950e+01 -1.103427994251251221e+01 -7.648971877293604393e-01
1.505682784318923950e+01 -1.095566666126251221e+01 -7.592666945652979393e-01
1.528595381975173950e+01 -1.089780533313751221e+01 -7.544449172215479393e-01
1.551898604631423950e+01 -1.083896744251251221e+01 -7.495468459324854393e-01
1.573358565568923950e+01 -1.076206314563751221e+01 -7.439010939793604393e-01
1.680524092912673950e+01 -1.377085220813751221e+01 -7.806747756199854393e-01
1.708246260881423950e+01 -1.372239029407501221e+01 -7.745712599949854393e-01
1.733551436662673950e+01 -1.364646255970001221e+01 -7.680404982762354393e-01
1.756244307756423950e+01 -1.354172623157501221e+01 -7.604416213231104393e-01
1.779608565568923950e+01 -1.344150650501251221e+01 -7.529953322606104393e-01
1.806903487443923950e+01 -1.337339127063751221e+01 -7.465713820652979393e-01
1.838653975725173950e+01 -1.333884537220001221e+01 -7.412155471043604393e-01
1.868951827287673950e+01 -1.328745377063751221e+01 -7.358139357762354393e-01
2.034882003068923950e+01 -1.725425064563751221e+01 -7.741897902684229393e-01
2.063751631975173950e+01 -1.714817154407501221e+01 -7.651718459324854393e-01
2.104169112443923950e+01 -1.714743912220001221e+01 -7.590072951512354393e-01
2.145611983537673950e+01 -1.714658463001251221e+01 -7.526748976902979393e-01
2.187823897600173950e+01 -1.714585220813751221e+01 -7.462356887059229393e-01
2.230951339006423950e+01 -1.714499771595001221e+01 -7.396591506199854393e-01
2.278924971818923950e+01 -1.717673599720001221e+01 -7.337539992527979393e-01
2.359332686662673950e+01 -1.747641861438751221e+01 -7.346847853856104393e-01
2.645331221818923950e+01 -2.325400650501251221e+01 -7.775772414402979393e-01
2.697308760881423950e+01 -2.325241959095001221e+01 -7.678573928074854393e-01
2.751910811662673950e+01 -2.326523697376251221e+01 -7.573440871434229393e-01
2.797455245256423950e+01 -2.318125259876251221e+01 -7.454574904637354393e-01
2.844891768693923950e+01 -2.310874283313751221e+01 -7.336929640965479393e-01
2.933356124162673950e+01 -2.339255630970001221e+01 -7.288101515965479393e-01
3.063995772600173950e+01 -2.401950943470001221e+01 -7.310226760106104393e-01
3.207635909318923950e+01 -2.472287857532501221e+01 -7.329910597996729393e-01
3.703058272600173950e+01 -3.365110123157501221e+01 -7.683609328465479393e-01
3.752008467912673950e+01 -3.341574966907501221e+01 -7.487686476902979393e-01
3.810358077287673950e+01 -3.326352798938751221e+01 -7.302444777684229393e-01
3.924811202287673950e+01 -3.361887466907501221e+01 -7.184646926121729393e-01
4.099152022600173950e+01 -3.449057877063751221e+01 -7.129257521824854393e-01
4.337555342912673950e+01 -3.588181412220001221e+01 -7.128494582371729393e-01
4.534503585100173950e+01 -3.683786880970001221e+01 -7.055252394871729393e-01
4.673224288225173950e+01 -3.724460709095001221e+01 -6.903580031590479393e-01
5.343732100725173950e+01 -4.978293716907501221e+01 -6.740005812840479393e-01
5.588812667131423950e+01 -5.111875259876251221e+01 -6.579483351902979393e-01
5.806122237443923950e+01 -5.211826431751251221e+01 -6.373337111668604393e-01
5.976251631975173950e+01 -5.261570084095001221e+01 -6.113785109715479393e-01
9.689152061939239502e+00 -5.597390294075012207e+00 -7.583816847996729393e-01
9.789127647876739502e+00 -5.524636387825012207e+00 -7.544296584324854393e-01
9.884830772876739502e+00 -5.447487950325012207e+00 -7.504776320652979393e-01
9.981266319751739502e+00 -5.369851231575012207e+00 -7.464798293309229393e-01
1.007770186662673950e+01 -5.291970372200012207e+00 -7.424972853856104393e-01
1.017462569475173950e+01 -5.213723301887512207e+00 -7.384842238621729393e-01
1.027228194475173950e+01 -5.134987950325012207e+00 -7.344559035496729393e-01
1.036493331193923950e+01 -5.052224278450012207e+00 -7.304428420262354393e-01
1.068573409318923950e+01 -6.448830723762512207e+00 -7.551010451512354393e-01
1.079376631975173950e+01 -6.365822911262512207e+00 -7.507370314793604393e-01
1.090826827287673950e+01 -6.287209630012512207e+00 -7.463119826512354393e-01
1.101776534318923950e+01 -6.203103184700012207e+00 -7.418869338231104393e-01
1.112738448381423950e+01 -6.118752598762512207e+00 -7.374466262059229393e-01
1.123761397600173950e+01 -6.034035801887512207e+00 -7.329910597996729393e-01
1.134247237443923950e+01 -5.943825840950012207e+00 -7.285202346043604393e-01
1.150665694475173950e+01 -5.897317051887512207e+00 -7.264450392918604393e-01
1.192535811662673950e+01 -7.507912755012512207e+00 -7.510269484715479393e-01
1.204999190568923950e+01 -7.417580723762512207e+00 -7.461136183934229393e-01
1.217535811662673950e+01 -7.326882481575012207e+00 -7.411697707371729393e-01
1.230182296037673950e+01 -7.235329747200012207e+00 -7.361954055027979393e-01
1.242853194475173950e+01 -7.143532872200012207e+00 -7.311905226902979393e-01
1.256439620256423950e+01 -7.057839512825012207e+00 -7.265213332371729393e-01
1.281720381975173950e+01 -7.058083653450012207e+00 -7.265213332371729393e-01
1.310553389787673950e+01 -7.080422520637512207e+00 -7.277267775731104393e-01
1.350006514787673950e+01 -8.853249669075012207e+00 -7.458694777684229393e-01
1.365668135881423950e+01 -8.762795567512512207e+00 -7.402237258152979393e-01
1.380450850725173950e+01 -8.663552403450012207e+00 -7.345627150731104393e-01
1.395380049943923950e+01 -8.563332676887512207e+00 -7.288559279637354393e-01
1.421661788225173950e+01 -8.551735997200012207e+00 -7.272995314793604393e-01
1.453595381975173950e+01 -8.578469395637512207e+00 -7.275131545262354393e-01
1.486627608537673950e+01 -8.606179356575012207e+00 -7.277267775731104393e-01
1.527692061662673950e+01 -8.686989903450012207e+00 -7.308395705418604393e-01
1.573480635881423950e+01 -1.076206314563751221e+01 -7.438858351902979393e-01
1.593378096818923950e+01 -1.066904556751251221e+01 -7.379196486668604393e-01
1.619147139787673950e+01 -1.062156021595001221e+01 -7.337387404637354393e-01
1.651153975725173950e+01 -1.061875259876251221e+01 -7.312820754246729393e-01
1.683844405412673950e+01 -1.061594498157501221e+01 -7.287796340184229393e-01
1.737457686662673950e+01 -1.076780045032501221e+01 -7.322891555027979393e-01
1.782257491350173950e+01 -1.083945572376251221e+01 -7.325332961277979393e-01
1.845660811662673950e+01 -1.103965103626251221e+01 -7.376755080418604393e-01
1.869122725725173950e+01 -1.328781998157501221e+01 -7.358139357762354393e-01
1.917120772600173950e+01 -1.337925064563751221e+01 -7.341965041356104393e-01
1.957989913225173950e+01 -1.340110123157501221e+01 -7.307632765965479393e-01
2.004535323381423950e+01 -1.345884048938751221e+01 -7.283523879246729393e-01
2.094586592912673950e+01 -1.384970963001251221e+01 -7.364853224949854393e-01
2.188715010881423950e+01 -1.424790298938751221e+01 -7.444961867527979393e-01
2.292218428850173950e+01 -1.469126236438751221e+01 -7.535599074559229393e-01
2.402789717912673950e+01 -1.516086685657501221e+01 -7.637832961277979393e-01
2.359723311662673950e+01 -1.747837173938751221e+01 -7.347153029637354393e-01
2.458868819475173950e+01 -1.791379654407501221e+01 -7.390793166356104393e-01
2.549664717912673950e+01 -1.825376236438751221e+01 -7.405746779637354393e-01
2.680365401506423950e+01 -1.888913834095001221e+01 -7.489670119481104393e-01
2.835406905412673950e+01 -1.968137466907501221e+01 -7.605942092137354393e-01
2.970282393693923950e+01 -2.027536880970001221e+01 -7.666061721043604393e-01
3.128363448381423950e+01 -2.100730240345001221e+01 -7.751968703465479393e-01
3.261066085100173950e+01 -2.151133072376251221e+01 -7.776687941746729393e-01
3.209100753068923950e+01 -2.473349869251251221e+01 -7.331436476902979393e-01
3.397308760881423950e+01 -2.576902115345001221e+01 -7.407120070652979393e-01
3.563983565568923950e+01 -2.657383072376251221e+01 -7.417801222996729393e-01
3.676239424943923950e+01 -2.689341080188751221e+01 -7.343185744481104393e-01
3.760455733537673950e+01 -2.696701920032501221e+01 -7.220657668309229393e-01
3.847259932756423950e+01 -2.704306900501251221e+01 -7.094314894871729393e-01
3.950775557756423950e+01 -2.722483170032501221e+01 -6.992233596043604393e-01
4.051739913225173950e+01 -2.736704361438751221e+01 -6.867111525731104393e-01
4.673651534318923950e+01 -3.724546158313751221e+01 -6.902817092137354393e-01
4.780133467912673950e+01 -3.734812271595001221e+01 -6.710556349949854393e-01
4.902032881975173950e+01 -3.755429947376251221e+01 -6.523331008152979393e-01
5.028741866350173950e+01 -3.776841080188751221e+01 -6.328781447606104393e-01
5.140069991350173950e+01 -3.783591568470001221e+01 -6.112869582371729393e-01
5.227997237443923950e+01 -3.769992935657501221e+01 -5.871933303074854393e-01
5.190631514787673950e+01 -3.659983170032501221e+01 -5.543411574559229393e-01
5.158819991350173950e+01 -3.556797134876251221e+01 -5.228317580418604393e-01
5.593268233537673950e+01 -4.416880142688751221e+01 -4.173019728856104393e-01
5.462811690568923950e+01 -4.216904556751251221e+01 -3.815201125340479393e-01
5.361896163225173950e+01 -4.046140396595001221e+01 -3.483322463231104393e-01
5.290777999162673950e+01 -3.903843033313751221e+01 -3.173874221043604393e-01
5.229034835100173950e+01 -3.772397720813751221e+01 -2.878158889012354393e-01
5.191266280412673950e+01 -3.662046158313751221e+01 -2.594345412449854393e-01
5.159430342912673950e+01 -3.558786880970001221e+01 -2.319839797215479393e-01
5.596222335100173950e+01 -4.421201431751251221e+01 -8.449252464342293933e-02
5.464850264787673950e+01 -4.220346939563751221e+01 -5.914767601061043933e-02
5.363824874162673950e+01 -4.049411880970001221e+01 -3.447421409654793933e-02
5.292023116350173950e+01 -3.906491959095001221e+01 -1.019748069811043933e-02
5.230231124162673950e+01 -3.774936783313751221e+01 1.339260719251456067e-02
5.191901046037673950e+01 -3.664109146595001221e+01 3.722683570813956067e-02
5.160052901506423950e+01 -3.560801041126251221e+01 6.057278297376456067e-02
5.599164229631423950e+01 -4.425510513782501221e+01 2.470046677393895607e-01
5.466876631975173950e+01 -4.223789322376251221e+01 2.618362107081395607e-01
5.365753585100173950e+01 -4.052658951282501221e+01 2.780257859034520607e-01
5.293268233537673950e+01 -3.909128677845001221e+01 2.956039109034520607e-01
5.231415206193923950e+01 -3.777475845813751221e+01 3.132278122706395607e-01
5.192535811662673950e+01 -3.666159927845001221e+01 3.324691452784520607e-01
5.160675460100173950e+01 -3.562802994251251221e+01 3.517257370753270607e-01
5.586505538225173950e+01 -4.323777115345001221e+01 6.006728806300145607e-01
6.284857589006423950e+01 -4.793784439563751221e+01 7.311660446925145607e-01
6.364020186662673950e+01 -4.754782974720001221e+01 7.697402634425145607e-01
6.071014815568923950e+01 -4.427439224720001221e+01 7.485305466456395607e-01
6.149957686662673950e+01 -4.391941177845001221e+01 7.880050339503270607e-01
6.214972335100173950e+01 -4.345456802845001221e+01 8.234054245753270607e-01
5.585272628068923950e+01 -4.324582779407501221e+01 9.304000534815770607e-01
6.409943038225173950e+01 -4.896469986438751221e+01 1.126353422622202061e+00
6.348871260881423950e+01 -4.744846451282501221e+01 1.136866728286264561e+00
6.350470381975173950e+01 -4.645212662220001221e+01 1.160319487075327061e+00
6.079608565568923950e+01 -4.340586197376251221e+01 1.122706572036264561e+00
6.271356612443923950e+01 -4.389121353626251221e+01 1.187602201919077061e+00
5.585162764787673950e+01 -4.326291763782501221e+01 1.258631865005014561e+00
6.393036299943923950e+01 -4.884909927845001221e+01 1.495951811294077061e+00
6.530304366350173950e+01 -4.889963638782501221e+01 1.554286161880014561e+00
6.099982100725173950e+01 -4.453586685657501221e+01 1.455699125747202061e+00
6.150922042131423950e+01 -4.396408951282501221e+01 1.489176908950327061e+00
6.127582198381423950e+01 -4.284397232532501221e+01 1.503398100356577061e+00
6.304852706193923950e+01 -4.815927994251251221e+01 1.842127958755014561e+00
6.552618819475173950e+01 -4.909641373157501221e+01 1.942103544692514561e+00
6.446918135881423950e+01 -4.723716080188751221e+01 1.924510160903452061e+00
6.138458663225173950e+01 -4.388852798938751221e+01 1.837504545669077061e+00
6.124542647600173950e+01 -4.283982193470001221e+01 1.849009672622202061e+00
6.335773116350173950e+01 -4.842856705188751221e+01 2.222376982192514561e+00
6.349591475725173950e+01 -4.751413834095001221e+01 2.242442289809702061e+00
6.395599776506423950e+01 -4.686008560657501221e+01 2.275004545669077061e+00
6.458026534318923950e+01 -4.632834732532501221e+01 2.314097563247202061e+00
6.417792159318923950e+01 -4.911008560657501221e+01 2.631282011489389561e+00
6.484772139787673950e+01 -4.860178482532501221e+01 2.673289457778452061e+00
6.420868331193923950e+01 -4.707553970813751221e+01 2.656214872817514561e+00
6.565607100725173950e+01 -4.716355240345001221e+01 2.733439604262827061e+00
6.417621260881423950e+01 -4.809165298938751221e+01 3.015208403090952061e+00
6.498639327287673950e+01 -4.769748795032501221e+01 3.065303007583139561e+00
6.466376143693923950e+01 -4.849729263782501221e+01 3.417124906997202061e+00
6.409869796037673950e+01 -4.658615982532501221e+01 2.585551420669077061e+00
6.360638839006423950e+01 -4.828489029407501221e+01 2.912440458755014561e+00
6.528937178850173950e+01 -4.752341568470001221e+01 3.016963163833139561e+00
6.458832198381423950e+01 -4.804099380970001221e+01 3.352000395278452061e+00
6.385211592912673950e+01 -4.910508072376251221e+01 1.753321806411264561e+00
6.317035323381423950e+01 -4.749363052845001221e+01 1.753123442153452061e+00
6.392853194475173950e+01 -4.704868423938751221e+01 1.796992460708139561e+00
6.135467940568923950e+01 -4.404709732532501221e+01 1.736109892348764561e+00
6.245782881975173950e+01 -4.389341080188751221e+01 1.790309111098764561e+00
6.144476729631423950e+01 -4.217124283313751221e+01 1.776896635512827061e+00
6.376727706193923950e+01 -4.905783951282501221e+01 2.133738676528452061e+00
6.322467452287673950e+01 -4.755808365345001221e+01 2.131602446059702061e+00
6.381122237443923950e+01 -4.697812759876251221e+01 2.170603910903452061e+00
6.447418624162673950e+01 -4.645407974720001221e+01 2.212504545669077061e+00
7.087848311662673950e+01 -5.022483170032501221e+01 2.469950834731577061e+00
6.454889327287673950e+01 -4.863559830188751221e+01 2.566966215590952061e+00
6.399420577287673950e+01 -4.714219009876251221e+01 2.557841459731577061e+00
6.478924971818923950e+01 -4.671640884876251221e+01 2.606379667739389561e+00
7.094830733537673950e+01 -5.030002701282501221e+01 2.887248198012827061e+00
6.293695479631423950e+01 -4.330600845813751221e+01 2.554164091567514561e+00
6.984906417131423950e+01 -5.174057877063751221e+01 3.221324125747202061e+00
6.583661299943923950e+01 -4.753952896595001221e+01 3.037760893325327061e+00
6.430548506975173950e+01 -4.699948990345001221e+01 2.582743803481577061e+00
6.470428878068923950e+01 -4.625559341907501221e+01 2.615397612075327061e+00
6.159808760881423950e+01 -4.192270767688751221e+01 2.511805693130014561e+00
6.356830245256423950e+01 -4.857370865345001221e+01 2.905589262465952061e+00
6.478509932756423950e+01 -4.846665298938751221e+01 2.977107206801889561e+00
6.999359542131423950e+01 -5.144553482532501221e+01 3.241831938247202061e+00
6.200775557756423950e+01 -4.224228775501251221e+01 2.893763700942514561e+00
6.439813643693923950e+01 -4.818198502063751221e+01 3.348323027114389561e+00
6.480524092912673950e+01 -4.743235123157501221e+01 3.380198637465952061e+00
6.141083174943923950e+01 -4.182627213001251221e+01 3.225489775161264561e+00
6.926300460100173950e+01 -4.996238052845001221e+01 2.351817289809702061e+00
7.092255049943923950e+01 -5.007102310657501221e+01 2.435267607192514561e+00
6.151251631975173950e+01 -4.198117935657501221e+01 2.118205229262827061e+00
6.334454756975173950e+01 -4.231565201282501221e+01 2.207865873794077061e+00
6.952777510881423950e+01 -5.253940689563751221e+01 2.742472807387827061e+00
6.386066085100173950e+01 -4.690720474720001221e+01 2.530818144301889561e+00
6.473480635881423950e+01 -4.650693619251251221e+01 2.586390654067514561e+00
7.103912764787673950e+01 -5.018467056751251221e+01 2.868586698989389561e+00
6.348810225725173950e+01 -4.244175064563751221e+01 2.590876738051889561e+00
6.493951827287673950e+01 -4.777817642688751221e+01 2.973246733169077061e+00
6.596393233537673950e+01 -4.747605240345001221e+01 3.038218656997202061e+00
6.296222335100173950e+01 -4.309531509876251221e+01 2.930171171645639561e+00
6.202814131975173950e+01 -4.140927994251251221e+01 2.900798002700327061e+00
6.433124190568923950e+01 -4.842624771595001221e+01 3.327738920669077061e+00
6.484137374162673950e+01 -4.772556412220001221e+01 3.368357817153452061e+00
6.048138839006423950e+01 -3.812461197376251221e+01 3.231730619887827061e+00
6.160480147600173950e+01 -3.785666763782501221e+01 3.309275785903452061e+00
6.239862471818923950e+01 -4.171762955188751221e+01 3.694010893325327061e+00
6.311871749162673950e+01 -4.113047134876251221e+01 3.753413359145639561e+00
6.105109053850173950e+01 -3.749875748157501221e+01 3.681361357192514561e+00
6.160248214006423950e+01 -4.090403091907501221e+01 2.246821562270639561e+00
5.939154464006423950e+01 -3.819883072376251221e+01 2.202922026137827061e+00
5.967364913225173950e+01 -3.733811295032501221e+01 2.244837919692514561e+00
6.030121260881423950e+01 -3.672751724720001221e+01 2.300929228286264561e+00
6.500238448381423950e+01 -4.826084244251251221e+01 2.667018095473764561e+00
6.487567549943923950e+01 -4.693137466907501221e+01 2.695735136489389561e+00
6.150738936662673950e+01 -4.198532974720001221e+01 2.627589384536264561e+00
6.195331221818923950e+01 -4.119321548938751221e+01 2.676188627700327061e+00
6.009247237443923950e+01 -3.873459732532501221e+01 2.631053129653452061e+00
6.162909346818923950e+01 -3.875193130970001221e+01 2.723399321059702061e+00
5.995306807756423950e+01 -3.651401627063751221e+01 2.683375517348764561e+00
6.494708663225173950e+01 -4.824973404407501221e+01 3.112696806411264561e+00
5.966583663225173950e+01 -3.845444595813751221e+01 3.012965361098764561e+00
6.384320479631423950e+01 -4.035068619251251221e+01 3.236262480239389561e+00
6.116693526506423950e+01 -3.738462173938751221e+01 3.137660185317514561e+00
6.247113448381423950e+01 -4.163633072376251221e+01 3.535731474380014561e+00
6.303241378068923950e+01 -4.092209732532501221e+01 3.589396635512827061e+00
6.067755538225173950e+01 -3.813498795032501221e+01 3.490687529067514561e+00
6.090997725725173950e+01 -3.723471939563751221e+01 3.528269926528452061e+00
6.229828292131423950e+01 -4.130979263782501221e+01 3.033106962661264561e+00
6.037286788225173950e+01 -3.878928482532501221e+01 2.977076689223764561e+00
6.434808760881423950e+01 -4.051816666126251221e+01 3.188777128676889561e+00
6.107989913225173950e+01 -3.712632095813751221e+01 3.069636503676889561e+00
6.258649092912673950e+01 -4.155429947376251221e+01 3.471171537856577061e+00
6.296661788225173950e+01 -4.069663345813751221e+01 3.517848173598764561e+00
6.079059249162673950e+01 -3.802878677845001221e+01 3.434230009536264561e+00
