7.440609484910964966e+00 -8.052852660417556763e+00 -8.809955684351677974e-01
7.551327258348464966e+00 -8.005855590105056763e+00 -8.773639766382927974e-01
7.653988391160964966e+00 -7.946407347917556763e+00 -8.731983272242302974e-01
7.757381945848464966e+00 -7.886592894792556763e+00 -8.690021602320427974e-01
7.856380969285964966e+00 -7.821285277605056763e+00 -8.644397823023552974e-01
7.955990344285964966e+00 -7.756465941667556763e+00 -8.599231807398552974e-01
8.055965930223464966e+00 -7.691402465105056763e+00 -8.553760615992302974e-01
8.152401477098464966e+00 -7.622188597917556763e+00 -8.508594600367302974e-01
8.086117297410964966e+00 -9.033443480730056763e+00 -8.861530391382927974e-01
8.221615344285964966e+00 -9.002437621355056763e+00 -8.836200801539177974e-01
8.362362414598464966e+00 -8.976924926042556763e+00 -8.810871211695427974e-01
8.481991320848464966e+00 -8.918697386980056763e+00 -8.768756953882927974e-01
8.584896594285964966e+00 -8.837154418230056763e+00 -8.712452022242302974e-01
8.687557727098464966e+00 -8.755611449480056763e+00 -8.656299678492302974e-01
8.786068469285964966e+00 -8.667842894792556763e+00 -8.599384395289177974e-01
8.888485461473464966e+00 -8.586666136980056763e+00 -8.543384639429802974e-01
9.183041125535964966e+00 -1.069811633229255676e+01 -9.185016719507927974e-01
9.269222766160964966e+00 -1.055858996510505676e+01 -9.095447627711052974e-01
9.354794055223464966e+00 -1.042028430104255676e+01 -9.006488887476677974e-01
9.439877063035964966e+00 -1.028258898854255676e+01 -8.917987910914177974e-01
9.523983508348464966e+00 -1.014660266041755676e+01 -8.830707637476677974e-01
9.628353625535964966e+00 -1.004015734791755676e+01 -8.759601680445427974e-01
9.741146594285964966e+00 -9.945064574480056763e+00 -8.694904414820427974e-01
9.853329211473464966e+00 -9.850460082292556763e+00 -8.630359737086052974e-01
1.055205968022346497e+01 -1.277624133229255676e+01 -9.535816280054802974e-01
1.024224522709846497e+01 -1.200548937916755676e+01 -9.127033321070427974e-01
1.032720616459846497e+01 -1.183556750416755676e+01 -9.023426143336052974e-01
1.041143468022346497e+01 -1.166698840260505676e+01 -8.920429317164177974e-01
1.049444249272346497e+01 -1.150060656666755676e+01 -8.818958369898552974e-01
1.061089757084846497e+01 -1.138268664479255676e+01 -8.741596309351677974e-01
1.082171300053596497e+01 -1.139062121510505676e+01 -8.726184932398552974e-01
1.098235753178596497e+01 -1.132970812916755676e+01 -8.680713740992302974e-01
1.188360264897346497e+01 -1.479919055104255676e+01 -9.628894893336052974e-01
1.234405186772346497e+01 -1.512694934010505676e+01 -9.745319453882927974e-01
1.284100010991096497e+01 -1.548900988698005676e+01 -9.875324336695427974e-01
1.242815831303596497e+01 -1.453722766041755676e+01 -9.425342647242302974e-01
1.222149327397346497e+01 -1.390807726979255676e+01 -9.119861690211052974e-01
1.230718663334846497e+01 -1.369823840260505676e+01 -8.999164668726677974e-01
1.239202550053596497e+01 -1.349047473073005676e+01 -8.879688350367302974e-01
1.247552159428596497e+01 -1.328588488698005676e+01 -8.762195674586052974e-01
1.278643468022346497e+01 -1.617382434010505676e+01 -9.251239864039177974e-01
1.331585362553596497e+01 -1.657494738698005676e+01 -9.363239375757927974e-01
1.383318760991096497e+01 -1.693615344166755676e+01 -9.462879268336052974e-01
1.446441319584846497e+01 -1.743737414479255676e+01 -9.614093867945427974e-01
1.508868077397346497e+01 -1.790380480885505676e+01 -9.749134151148552974e-01
1.577984288334846497e+01 -1.843651965260505676e+01 -9.906757442164177974e-01
1.432525303959846497e+01 -1.607629016041755676e+01 -8.970783321070427974e-01
1.441827061772346497e+01 -1.583129504323005676e+01 -8.842914668726677974e-01
1.383538487553596497e+01 -1.777135851979255676e+01 -8.791950313257927974e-01
1.435015538334846497e+01 -1.811681750416755676e+01 -8.857563106226677974e-01
1.507146885991096497e+01 -1.874206164479255676e+01 -9.013355342554802974e-01
1.566766026616096497e+01 -1.915563586354255676e+01 -9.095600215601677974e-01
1.643767979741096497e+01 -1.978930285573005676e+01 -9.246509639429802974e-01
1.733025792241096497e+01 -2.055773547291755676e+01 -9.436786739039177974e-01
1.823003819584846497e+01 -2.129626086354255676e+01 -9.612415401148552974e-01
1.904888585209846497e+01 -2.189355090260505676e+01 -9.738452998804802974e-01
1.504314854741096497e+01 -1.961083605885505676e+01 -8.230579463648552974e-01
1.575433018803596497e+01 -2.020885851979255676e+01 -8.334491817164177974e-01
1.650091221928596497e+01 -2.082690051198005676e+01 -8.432758418726677974e-01
1.734319737553596497e+01 -2.154674914479255676e+01 -8.560474483179802974e-01
1.820428135991096497e+01 -2.225793078541755676e+01 -8.680713740992302974e-01
1.913946202397346497e+01 -2.303380969166755676e+01 -8.812702266382927974e-01
2.017229893803596497e+01 -2.389916613698005676e+01 -8.969867793726677974e-01
2.127361729741096497e+01 -2.481322863698005676e+01 -9.125965205836052974e-01
1.610540440678596497e+01 -2.123107531666755676e+01 -7.411487666773552974e-01
1.706438878178596497e+01 -2.216308215260505676e+01 -7.542865840601677974e-01
1.807610753178596497e+01 -2.312524035573005676e+01 -7.673481074976677974e-01
1.914776280522346497e+01 -2.412365344166755676e+01 -7.804096309351677974e-01
2.026153233647346497e+01 -2.513329699635505676e+01 -7.929218379664177974e-01
2.168438389897346497e+01 -2.651525500416755676e+01 -8.123767940211052974e-01
2.340484288334846497e+01 -2.822802355885505676e+01 -8.374622432398552974e-01
2.703057530522346497e+01 -3.235778430104255676e+01 -9.098499385523552974e-01
1.742559483647346497e+01 -2.324413684010505676e+01 -6.488330928492302974e-01
1.852166417241096497e+01 -2.433715441823005676e+01 -6.578815547632927974e-01
1.964568760991096497e+01 -2.541735461354255676e+01 -6.657856074976677974e-01
2.086846593022346497e+01 -2.658288195729255676e+01 -6.740558711695427974e-01
2.286126378178596497e+01 -2.876708605885505676e+01 -6.971729365992302974e-01
2.672747471928596497e+01 -3.340905383229255676e+01 -7.556598750757927974e-01
2.888872960209846497e+01 -3.556933215260505676e+01 -7.736805049586052974e-01
3.402850010991096497e+01 -4.153283312916755676e+01 -8.444202510523552974e-01
1.761504796147346497e+01 -2.354186633229255676e+01 -5.139301387476677974e-01
1.998443272709846497e+01 -2.652135851979255676e+01 -5.367878047632927974e-01
2.158538487553596497e+01 -2.824963000416755676e+01 -5.436695186304802974e-01
2.487798741459846497e+01 -3.230346301198005676e+01 -5.728443233179802974e-01
2.692242100834846497e+01 -3.444115832448005676e+01 -5.795734492945427974e-01
3.188409093022346497e+01 -4.046313098073005676e+01 -6.209247676539177974e-01
5.632745030522346497e+01 -7.227184680104255676e+01 -8.888996211695427974e-01
5.684698155522346497e+01 -7.143566516041755676e+01 -8.492115108179802974e-01
1.801702550053596497e+01 -2.416247180104255676e+01 -3.784778682398552974e-01
2.177727940678596497e+01 -2.919787219166755676e+01 -3.951557246851677974e-01
2.492278721928596497e+01 -3.311791613698005676e+01 -4.014118282007927974e-01
2.713445714116096497e+01 -3.553112414479255676e+01 -3.968036739039177974e-01
3.251897862553596497e+01 -4.226098254323005676e+01 -4.080341426539177974e-01
3.834856846928596497e+01 -4.825182726979255676e+01 -3.861682979273552974e-01
3.894646885991096497e+01 -4.801000598073005676e+01 -3.614338008570427974e-01
2.197564366459846497e+01 -3.018871691823005676e+01 -2.383258907007927974e-01
2.479864171147346497e+01 -3.370385363698005676e+01 -2.231128780054802974e-01
2.709344151616096497e+01 -3.629162219166755676e+01 -2.058094112086052974e-01
3.371844151616096497e+01 -4.492809680104255676e+01 -1.790912715601677974e-01
3.709588292241096497e+01 -4.866430285573005676e+01 -1.504352657007927974e-01
3.752691319584846497e+01 -4.820617297291755676e+01 -1.257160274195427974e-01
3.813677647709846497e+01 -4.798803332448005676e+01 -9.890633503673029736e-02
3.888457921147346497e+01 -4.794823840260505676e+01 -7.301216999766779736e-02
1.788653233647346497e+01 -2.398485949635505676e+01 -9.358101765391779736e-02
2.711822178959846497e+01 -3.716906359791755676e+01 -8.024987380480297361e-03
1.778387120366096497e+01 -2.274901965260505676e+01 -7.409554402110529736e-02
3.626299718022346497e+01 -4.857409289479255676e+01 1.077892216038947026e-01
1.962273839116096497e+01 -2.429442980885505676e+01 -3.677254597423029736e-02
3.759161046147346497e+01 -4.831408312916755676e+01 1.605998905492072026e-01
3.785711339116096497e+01 -4.763280871510505676e+01 1.829692753148322026e-01
3.771160557866096497e+01 -4.642931750416755676e+01 2.003032596898322026e-01
1.867010167241096497e+01 -2.518700793385505676e+01 6.120413859608220264e-02
4.115288975834846497e+01 -5.807372668385505676e+01 4.368907841038947026e-01
1.766790440678596497e+01 -2.258971789479255676e+01 6.063956340076970264e-02
1.785857823491096497e+01 -2.234618762135505676e+01 7.167166789295720264e-02
1.964642003178596497e+01 -2.433776476979255676e+01 1.109935673070197026e-01
3.763982823491096497e+01 -4.839965441823005676e+01 4.462291630101447026e-01
1.852703526616096497e+01 -2.498009875416755676e+01 2.059032352757697026e-01
4.149749425053596497e+01 -5.861071398854255676e+01 7.778484257054572026e-01
3.479790928959846497e+01 -4.756579211354255676e+01 6.249706180882697026e-01
3.845953038334846497e+01 -5.174755480885505676e+01 7.294322880101447026e-01
1.816155675053596497e+01 -2.227367785573005676e+01 2.212688358617072026e-01
3.859551671147346497e+01 -4.972643664479255676e+01 7.578288944554572026e-01
1.787749913334846497e+01 -2.400207141041755676e+01 3.325206669163947026e-01
1.939397862553596497e+01 -2.570934680104255676e+01 3.857128055882697026e-01
3.480291417241096497e+01 -4.759264758229255676e+01 8.997661503148322026e-01
1.825445225834846497e+01 -2.241296008229255676e+01 3.603374393773322026e-01
1.970708897709846497e+01 -2.389782336354255676e+01 4.131328495335822026e-01
1.939642003178596497e+01 -2.632519152760505676e+01 5.364543827367072026e-01
1.943670323491096497e+01 -2.578393176198005676e+01 5.403758915257697026e-01
3.515850499272346497e+01 -4.813085559010505676e+01 1.190674963791394703e+00
1.887322667241096497e+01 -2.382360461354255676e+01 5.214397342992072026e-01
3.578741124272346497e+01 -4.693407824635505676e+01 1.224564734299207203e+00
1.989507725834846497e+01 -2.416527941823005676e+01 5.678874882054572026e-01
3.794524815678596497e+01 -4.681090930104255676e+01 1.325822058517957203e+00
1.940740635991096497e+01 -2.635338976979255676e+01 6.922466190648322026e-01
3.595354893803596497e+01 -5.041796496510505676e+01 1.509202185471082203e+00
3.506097081303596497e+01 -4.800817492604255676e+01 1.463654700119519703e+00
1.776470616459846497e+01 -2.225024035573005676e+01 6.104289921117072026e-01
3.838482335209846497e+01 -5.058568957448005676e+01 1.627671423752332203e+00
1.994854405522346497e+01 -2.424865344166755676e+01 7.181865604710822026e-01
3.762481358647346497e+01 -4.741747668385505676e+01 1.591752234299207203e+00
3.818841221928596497e+01 -4.714916613698005676e+01 1.619584265549207203e+00
1.838592198491096497e+01 -2.480785754323005676e+01 7.886516483617072026e-01
1.867718175053596497e+01 -2.467309191823005676e+01 8.025218876195197026e-01
1.980865147709846497e+01 -2.576317980885505676e+01 8.654643925023322026e-01
3.583746007084846497e+01 -4.808507922291755676e+01 1.782868567307019703e+00
1.813323643803596497e+01 -2.227196887135505676e+01 7.652599247288947026e-01
1.865459874272346497e+01 -2.248595812916755676e+01 7.931835087132697026e-01
3.840423253178596497e+01 -4.848241809010505676e+01 1.917924109299207203e+00
3.881219151616096497e+01 -4.798803332448005676e+01 1.938828650314832203e+00
8.152889758348464966e+00 -7.622188597917556763e+00 -8.508442012476677974e-01
8.251888781785964966e+00 -7.556148558855056763e+00 -8.463123408961052974e-01
8.347713977098464966e+00 -7.485713988542556763e+00 -8.417804805445427974e-01
8.443905383348464966e+00 -7.415035277605056763e+00 -8.372333614039177974e-01
8.539974719285964966e+00 -7.344478636980056763e+00 -8.326862422632927974e-01
8.636044055223464966e+00 -7.273799926042556763e+00 -8.281391231226677974e-01
8.732479602098464966e+00 -7.202755004167556763e+00 -8.235614864039177974e-01
8.825130969285964966e+00 -7.127803832292556763e+00 -8.190143672632927974e-01
8.888851672410964966e+00 -8.586421996355056763e+00 -8.543232051539177974e-01
8.986141711473464966e+00 -8.498531371355056763e+00 -8.486621944117302974e-01
9.088070422410964966e+00 -8.416744261980056763e+00 -8.430622188257927974e-01
9.185482531785964966e+00 -8.328609496355056763e+00 -8.374012080836052974e-01
9.282528430223464966e+00 -8.240963011980056763e+00 -8.317554561304802974e-01
9.379452258348464966e+00 -8.153438597917556763e+00 -8.261249629664177974e-01
9.474422961473464966e+00 -8.063106566667556763e+00 -8.206470576929802974e-01
9.583431750535964966e+00 -7.989620238542556763e+00 -8.158710567164177974e-01
9.853695422410964966e+00 -9.850215941667556763e+00 -8.630207149195427974e-01
9.961361438035964966e+00 -9.749874144792556763e+00 -8.566272823023552974e-01
1.006878331303596497e+01 -9.649776488542556763e+00 -8.502338496851677974e-01
1.017657139897346497e+01 -9.549312621355056763e+00 -8.438251582789177974e-01
1.028374913334846497e+01 -9.449459105730056763e+00 -8.374469844507927974e-01
1.039080479741096497e+01 -9.349605590105056763e+00 -8.310840694117302974e-01
1.049810460209846497e+01 -9.249630004167556763e+00 -8.247058955836052974e-01
1.062762120366096497e+01 -9.175899535417556763e+00 -8.197467891382927974e-01
1.098321202397346497e+01 -1.132995226979255676e+01 -8.680713740992302974e-01
1.114385655522346497e+01 -1.126733019948005676e+01 -8.629749385523552974e-01
1.129803135991096497e+01 -1.119506457448005676e+01 -8.577869502711052974e-01
1.145354893803596497e+01 -1.112206652760505676e+01 -8.525684444117302974e-01
1.160247471928596497e+01 -1.104101184010505676e+01 -8.469379512476677974e-01
1.173919346928596497e+01 -1.094421008229255676e+01 -8.405445186304802974e-01
1.187652257084846497e+01 -1.084716418385505676e+01 -8.341358272242302974e-01
1.200652745366096497e+01 -1.074218371510505676e+01 -8.277576533961052974e-01
1.247564366459846497e+01 -1.328490832448005676e+01 -8.761585323023552974e-01
1.255315831303596497e+01 -1.307629016041755676e+01 -8.645923701929802974e-01
1.272271397709846497e+01 -1.298669055104255676e+01 -8.581684199976677974e-01
1.289178135991096497e+01 -1.289428332448005676e+01 -8.516071407007927974e-01
1.306084874272346497e+01 -1.280187609791755676e+01 -8.450306026148552974e-01
1.323064854741096497e+01 -1.270898059010505676e+01 -8.384388057398552974e-01
1.340166905522346497e+01 -1.261547473073005676e+01 -8.317859737086052974e-01
1.357488682866096497e+01 -1.252453234791755676e+01 -8.252552119898552974e-01
1.441827061772346497e+01 -1.583007434010505676e+01 -8.842304317164177974e-01
1.451433995366096497e+01 -1.559338000416755676e+01 -8.710468379664177974e-01
1.472137120366096497e+01 -1.549987414479255676e+01 -8.637378780054802974e-01
1.502276280522346497e+01 -1.551928332448005676e+01 -8.605640498804802974e-01
1.520843175053596497e+01 -1.539403918385505676e+01 -8.520343867945427974e-01
1.539434483647346497e+01 -1.526855090260505676e+01 -8.434742061304802974e-01
1.558562901616096497e+01 -1.514733508229255676e+01 -8.350666133570427974e-01
1.579558995366096497e+01 -1.504772570729255676e+01 -8.279865352320427974e-01
1.905401280522346497e+01 -2.189855578541755676e+01 -9.739826289820427974e-01
2.004974034428596497e+01 -2.269091418385505676e+01 -9.926441280054802974e-01
1.744048741459846497e+01 -1.891918566823005676e+01 -8.685749141382927974e-01
1.753826573491096497e+01 -1.861913684010505676e+01 -8.536518184351677974e-01
1.786748936772346497e+01 -1.860461047291755676e+01 -8.475635615992302974e-01
1.823614171147346497e+01 -1.863073351979255676e+01 -8.426044551539177974e-01
1.853423741459846497e+01 -1.856603625416755676e+01 -8.348072139429802974e-01
1.883453038334846497e+01 -1.850072863698005676e+01 -8.269489375757927974e-01
2.127801182866096497e+01 -2.481701281666755676e+01 -9.126575557398552974e-01
2.242791417241096497e+01 -2.574804309010505676e+01 -9.282672969507927974e-01
2.372149327397346497e+01 -2.681322863698005676e+01 -9.456470576929802974e-01
2.518194249272346497e+01 -2.802953723073005676e+01 -9.667957393336052974e-01
2.589471104741096497e+01 -2.828844836354255676e+01 -9.634693233179802974e-01
2.277434971928596497e+01 -2.399938586354255676e+01 -8.493488399195427974e-01
2.363787510991096497e+01 -2.448180773854255676e+01 -8.530567256617302974e-01
2.451324132084846497e+01 -2.495177844166755676e+01 -8.551929561304802974e-01
2.703606846928596497e+01 -3.236242297291755676e+01 -9.099109737086052974e-01
2.889239171147346497e+01 -3.404601672291755676e+01 -9.310291377711052974e-01
3.117303135991096497e+01 -3.618334582448005676e+01 -9.595325557398552974e-01
3.705706456303596497e+01 -4.265441516041755676e+01 -1.068709191482042797e+00
3.830315831303596497e+01 -4.326293566823005676e+01 -1.063460168044542797e+00
3.557574132084846497e+01 -3.913683703541755676e+01 -9.709156123804802974e-01
3.557061436772346497e+01 -3.831078723073005676e+01 -9.402759639429802974e-01
3.529925206303596497e+01 -3.720458605885505676e+01 -9.051807490992302974e-01
3.403875401616096497e+01 -4.154308703541755676e+01 -8.445118037867302974e-01
4.961748936772346497e+01 -6.063940051198005676e+01 -1.093565758864855297e+00
4.983306553959846497e+01 -5.964416125416755676e+01 -1.054594811599230297e+00
5.009270909428596497e+01 -5.871899035573005676e+01 -1.016859826247667797e+00
5.031487706303596497e+01 -5.777013781666755676e+01 -9.792774287867302974e-01
5.043194249272346497e+01 -5.671508410573005676e+01 -9.407795039820427974e-01
5.054717686772346497e+01 -5.567650988698005676e+01 -9.028919307398552974e-01
5.065984776616096497e+01 -5.466112902760505676e+01 -8.658435908961052974e-01
5.684844639897346497e+01 -7.143212512135505676e+01 -8.490741817164177974e-01
5.729827550053596497e+01 -7.051781848073005676e+01 -8.088367549586052974e-01
5.779876378178596497e+01 -6.968078234791755676e+01 -7.694995967554802974e-01
5.821014073491096497e+01 -6.873925402760505676e+01 -7.295520869898552974e-01
5.878130772709846497e+01 -6.801012805104255676e+01 -6.914661494898552974e-01
5.948284581303596497e+01 -6.744140246510505676e+01 -6.545398799586052974e-01
6.078094151616096497e+01 -6.755907824635505676e+01 -6.214588252711052974e-01
6.211651280522346497e+01 -6.769652941823005676e+01 -5.879047481226677974e-01
3.894976475834846497e+01 -4.801073840260505676e+01 -3.613575069117302974e-01
3.801018956303596497e+01 -4.580834582448005676e+01 -5.358773152110529736e-02
3.771380284428596497e+01 -4.642870715260505676e+01 2.003948124242072026e-01
3.920965245366096497e+01 -4.736742785573005676e+01 2.374278934788947026e-01
3.849981358647346497e+01 -4.647423937916755676e+01 5.093395145726447026e-01
4.004620030522346497e+01 -4.744176867604255676e+01 5.556194217992072026e-01
3.813628819584846497e+01 -4.602550891041755676e+01 7.815715702367072026e-01
3.903411534428596497e+01 -4.618615344166755676e+01 8.180248173070197026e-01
3.968536046147346497e+01 -4.601708605885505676e+01 8.479778202367072026e-01
3.810808995366096497e+01 -4.600768664479255676e+01 1.058518591721082203e+00
3.881841710209846497e+01 -4.593273547291755676e+01 1.091645422775769703e+00
3.794085362553596497e+01 -4.680163195729255676e+01 1.325654211838269703e+00
3.848504307866096497e+01 -4.651122668385505676e+01 1.353638830978894703e+00
3.869439366459846497e+01 -4.579491809010505676e+01 1.367554846603894703e+00
3.818853428959846497e+01 -4.714587023854255676e+01 1.619584265549207203e+00
3.861736729741096497e+01 -4.670019152760505676e+01 1.642426672775769703e+00
3.936065343022346497e+01 -4.665319445729255676e+01 1.679307165939832203e+00
3.881231358647346497e+01 -4.798461535573005676e+01 1.938828650314832203e+00
3.859380772709846497e+01 -4.668859484791755676e+01 1.922944250900769703e+00
3.932635167241096497e+01 -4.662878039479255676e+01 1.962723913986707203e+00
8.825497180223464966e+00 -7.127559691667556763e+00 -8.189991084742302974e-01
8.921078234910964966e+00 -7.055660277605056763e+00 -8.144367305445427974e-01
9.012997180223464966e+00 -6.979488402605056763e+00 -8.098896114039177974e-01
9.105526477098464966e+00 -6.903072386980056763e+00 -8.053119746851677974e-01
9.197689563035964966e+00 -6.826656371355056763e+00 -8.007495967554802974e-01
9.290096789598464966e+00 -6.750240355730056763e+00 -7.961872188257927974e-01
9.382870227098464966e+00 -6.673458129167556763e+00 -7.915943233179802974e-01
9.471493273973464966e+00 -6.592891722917556763e+00 -7.870472041773552974e-01
9.584042102098464966e+00 -7.989620238542556763e+00 -8.158710567164177974e-01
9.697201281785964966e+00 -7.920162230730056763e+00 -8.116901485132927974e-01
9.815853625535964966e+00 -7.855953246355056763e+00 -8.075092403101677974e-01
9.930477648973464966e+00 -7.785762816667556763e+00 -8.032825557398552974e-01
1.004510167241096497e+01 -7.715450316667556763e+00 -7.990406123804802974e-01
1.016021397709846497e+01 -7.644893676042556763e+00 -7.947986690211052974e-01
1.027080968022346497e+01 -7.568233519792556763e+00 -7.905109492945427974e-01
1.038689854741096497e+01 -7.497066527605056763e+00 -7.862232295679802974e-01
1.062847569584846497e+01 -9.176021605730056763e+00 -8.197620479273552974e-01
1.074786046147346497e+01 -9.090084105730056763e+00 -8.144825069117302974e-01
1.087749913334846497e+01 -9.014766722917556763e+00 -8.097980586695427974e-01
1.100835850834846497e+01 -8.938838988542556763e+00 -8.050678340601677974e-01
1.113921788334846497e+01 -8.862789183855056763e+00 -8.003376094507927974e-01
1.127068760991096497e+01 -8.786373168230056763e+00 -7.955768672632927974e-01
1.140337803959846497e+01 -8.709346801042556763e+00 -7.907856074976677974e-01
1.153606846928596497e+01 -8.632320433855056763e+00 -7.859790889429802974e-01
1.200713780522346497e+01 -1.074193957448005676e+01 -8.277423946070427974e-01
1.214544346928596497e+01 -1.064611437916755676e+01 -8.213184444117302974e-01
1.227715733647346497e+01 -1.054211047291755676e+01 -8.149250117945427974e-01
1.240948155522346497e+01 -1.043774035573005676e+01 -8.085010615992302974e-01
1.254156163334846497e+01 -1.033337023854255676e+01 -8.020771114039177974e-01
1.269268468022346497e+01 -1.024804309010505676e+01 -7.965686885523552974e-01
1.284734776616096497e+01 -1.016442492604255676e+01 -7.911060420679802974e-01
1.299346593022346497e+01 -1.007177355885505676e+01 -7.856433955836052974e-01
1.357574132084846497e+01 -1.252441027760505676e+01 -8.252399532007927974e-01
1.376617100834846497e+01 -1.245116809010505676e+01 -8.197620479273552974e-01
1.395818760991096497e+01 -1.237719348073005676e+01 -8.142383662867302974e-01
1.415252354741096497e+01 -1.230248644948005676e+01 -8.086536494898552974e-01
1.434771397709846497e+01 -1.222741320729255676e+01 -8.030384151148552974e-01
1.454449132084846497e+01 -1.215160754323005676e+01 -7.973926631617302974e-01
1.474065831303596497e+01 -1.207213976979255676e+01 -7.915485469507927974e-01
1.492608311772346497e+01 -1.198083117604255676e+01 -7.852161494898552974e-01
1.579644444584846497e+01 -1.504748156666755676e+01 -8.279560176539177974e-01
1.602886632084846497e+01 -1.497082141041755676e+01 -8.208911983179802974e-01
1.624810460209846497e+01 -1.487682726979255676e+01 -8.137195674586052974e-01
1.646966221928596497e+01 -1.478161242604255676e+01 -8.064716426539177974e-01
1.672808507084846497e+01 -1.472387316823005676e+01 -8.005207149195427974e-01
1.700616124272346497e+01 -1.468236926198005676e+01 -7.950733272242302974e-01
1.725164464116096497e+01 -1.460241320729255676e+01 -7.882373897242302974e-01
1.748492100834846497e+01 -1.450854113698005676e+01 -7.814777461695427974e-01
1.883575108647346497e+01 -1.850085070729255676e+01 -8.269184199976677974e-01
1.913152745366096497e+01 -1.842614367604255676e+01 -8.190143672632927974e-01
1.943047764897346497e+01 -1.835070422291755676e+01 -8.110340205836052974e-01
1.977703526616096497e+01 -1.832018664479255676e+01 -8.042591182398552974e-01
2.016338780522346497e+01 -1.832677844166755676e+01 -7.984760371851677974e-01
2.055755284428596497e+01 -1.833337023854255676e+01 -7.925708858179802974e-01
2.087640050053596497e+01 -1.825512316823005676e+01 -7.841480342554802974e-01
2.119598057866096497e+01 -1.817443469166755676e+01 -7.756183711695427974e-01
2.451665928959846497e+01 -2.495385363698005676e+01 -8.552082149195427974e-01
2.493145421147346497e+01 -2.488366320729255676e+01 -8.445575801539177974e-01
2.537078526616096497e+01 -2.483349230885505676e+01 -8.333576289820427974e-01
2.577825596928596497e+01 -2.473974230885505676e+01 -8.218982783961052974e-01
2.618914464116096497e+01 -2.464525988698005676e+01 -8.103321162867302974e-01
2.660467198491096497e+01 -2.454943469166755676e+01 -7.986438838648552974e-01
2.720867589116096497e+01 -2.463525012135505676e+01 -7.916095821070427974e-01
2.777129796147346497e+01 -2.466894152760505676e+01 -7.823474971461052974e-01
3.530254796147346497e+01 -3.720568469166755676e+01 -9.051349727320427974e-01
3.596307042241096497e+01 -3.716625598073005676e+01 -8.891285030054802974e-01
3.661150792241096497e+01 -3.710107043385505676e+01 -8.724353877711052974e-01
3.693401768803596497e+01 -3.667321398854255676e+01 -8.495472041773552974e-01
3.725420811772346497e+01 -3.624828723073005676e+01 -8.268116084742302974e-01
3.767913487553596497e+01 -3.593346789479255676e+01 -8.058307735132927974e-01
3.814251378178596497e+01 -3.565295031666755676e+01 -7.852619258570427974e-01
3.872637608647346497e+01 -3.549071887135505676e+01 -7.664173213648552974e-01
5.065899327397346497e+01 -5.465624621510505676e+01 -8.656910030054802974e-01
5.079974034428596497e+01 -5.369262316823005676e+01 -8.298023311304802974e-01
5.093877843022346497e+01 -5.274499133229255676e+01 -7.944782344507927974e-01
5.107622960209846497e+01 -5.180907824635505676e+01 -7.595966426539177974e-01
5.132867100834846497e+01 -5.101452258229255676e+01 -7.265613643336052974e-01
5.190984776616096497e+01 -5.056908801198005676e+01 -6.969745723414177974e-01
5.358294346928596497e+01 -5.121776965260505676e+01 -6.766346065211052974e-01
5.578570225834846497e+01 -5.234740832448005676e+01 -6.591022578882927974e-01
6.212188389897346497e+01 -6.769775012135505676e+01 -5.877674190211052974e-01
6.344109776616096497e+01 -6.778759387135505676e+01 -5.530994502711052974e-01
6.477886632084846497e+01 -6.786913684010505676e+01 -5.176380244898552974e-01
6.569488194584846497e+01 -6.746618273854255676e+01 -4.795063106226677974e-01
9.471859484910964966e+00 -6.592647582292556763e+00 -7.870319453882927974e-01
9.564877063035964966e+00 -6.516109496355056763e+00 -7.825458614039177974e-01
9.663143664598464966e+00 -6.444210082292556763e+00 -7.786396114039177974e-01
9.762264758348464966e+00 -6.371700316667556763e+00 -7.747181026148552974e-01
9.861263781785964966e+00 -6.299190551042556763e+00 -7.707965938257927974e-01
9.960751086473464966e+00 -6.226314574480056763e+00 -7.668445674586052974e-01
1.006097081303596497e+01 -6.152950316667556763e+00 -7.628772823023552974e-01
1.015642979741096497e+01 -6.075435668230056763e+00 -7.589099971461052974e-01
1.038738682866096497e+01 -7.496944457292556763e+00 -7.862079707789177974e-01
1.049786046147346497e+01 -7.419429808855056763e+00 -7.819202510523552974e-01
1.061443760991096497e+01 -7.347042113542556763e+00 -7.775867549586052974e-01
1.072625401616096497e+01 -7.268550902605056763e+00 -7.732380000757927974e-01
1.083831456303596497e+01 -7.190059691667556763e+00 -7.688739864039177974e-01
1.095074132084846497e+01 -7.111202269792556763e+00 -7.644947139429802974e-01
1.105828526616096497e+01 -7.026607543230056763e+00 -7.601001826929802974e-01
1.117168858647346497e+01 -6.947139769792556763e+00 -7.556903926539177974e-01
1.153655675053596497e+01 -8.631954222917556763e+00 -7.859638301539177974e-01
1.166326573491096497e+01 -8.547847777605056763e+00 -7.811420528101677974e-01
1.179058507084846497e+01 -8.463375121355056763e+00 -7.762897578882927974e-01
1.191900303959846497e+01 -8.378170043230056763e+00 -7.714069453882927974e-01
1.204754307866096497e+01 -8.292720824480056763e+00 -7.665088740992302974e-01
1.217669346928596497e+01 -8.207027465105056763e+00 -7.615802852320427974e-01
1.230694249272346497e+01 -8.120479613542556763e+00 -7.566211787867302974e-01
1.243731358647346497e+01 -8.033809691667556763e+00 -7.516620723414177974e-01
1.299395421147346497e+01 -1.007152941823005676e+01 -7.856281367945427974e-01
1.315118077397346497e+01 -9.988521605730056763e+00 -7.801349727320427974e-01
1.330035069584846497e+01 -9.896358519792556763e+00 -7.746112910914177974e-01
1.345074132084846497e+01 -9.803218871355056763e+00 -7.690418330836052974e-01
1.361089757084846497e+01 -9.718380004167556763e+00 -7.638538448023552974e-01
1.379424718022346497e+01 -9.652706176042556763e+00 -7.595508662867302974e-01
1.398028233647346497e+01 -9.586177855730056763e+00 -7.552021114039177974e-01
1.415545323491096497e+01 -9.508785277605056763e+00 -7.507465449976677974e-01
1.492681553959846497e+01 -1.198046496510505676e+01 -7.851856319117302974e-01
1.510491612553596497e+01 -1.188024523854255676e+01 -7.788227168726677974e-01
1.528423741459846497e+01 -1.177929309010505676e+01 -7.724140254664177974e-01
1.546526768803596497e+01 -1.167736437916755676e+01 -7.659290401148552974e-01
1.566875889897346497e+01 -1.159496691823005676e+01 -7.602375117945427974e-01
1.589788487553596497e+01 -1.153295519948005676e+01 -7.553241817164177974e-01
1.613067296147346497e+01 -1.146996691823005676e+01 -7.503498164820427974e-01
1.634429600834846497e+01 -1.138793566823005676e+01 -7.445819942164177974e-01
1.748601964116096497e+01 -1.450854113698005676e+01 -7.814624873804802974e-01
1.774126866459846497e+01 -1.443297961354255676e+01 -7.744739619898552974e-01
1.798504307866096497e+01 -1.434289172291755676e+01 -7.675159541773552974e-01
1.823223546147346497e+01 -1.425158312916755676e+01 -7.604816524195427974e-01
1.848113682866096497e+01 -1.415966418385505676e+01 -7.533863155054802974e-01
1.877422764897346497e+01 -1.410412219166755676e+01 -7.474506465601677974e-01
1.909356358647346497e+01 -1.406554797291755676e+01 -7.419880000757927974e-01
1.939751866459846497e+01 -1.400939562916755676e+01 -7.365100948023552974e-01
2.119756749272346497e+01 -1.817455676198005676e+01 -7.756031123804802974e-01
2.150738194584846497e+01 -1.807970812916755676e+01 -7.669056026148552974e-01
2.190557530522346497e+01 -1.806408312916755676e+01 -7.602985469507927974e-01
2.232500889897346497e+01 -1.805920031666755676e+01 -7.538288203882927974e-01
2.275213292241096497e+01 -1.805431750416755676e+01 -7.472522823023552974e-01
2.318853428959846497e+01 -1.804955676198005676e+01 -7.405384151148552974e-01
2.371416905522346497e+01 -1.811303332448005676e+01 -7.354114619898552974e-01
2.450030186772346497e+01 -1.838988879323005676e+01 -7.355335323023552974e-01
2.777337315678596497e+01 -2.466906359791755676e+01 -7.823169795679802974e-01
2.819500401616096497e+01 -2.455443957448005676e+01 -7.700489131617302974e-01
2.866741612553596497e+01 -2.448180773854255676e+01 -7.575824824976677974e-01
2.910210850834846497e+01 -2.436388781666755676e+01 -7.449482051539177974e-01
2.954058507084846497e+01 -2.424499133229255676e+01 -7.321918574976677974e-01
3.050762608647346497e+01 -2.459142687916755676e+01 -7.282398311304802974e-01
3.148516514897346497e+01 -2.492016223073005676e+01 -7.243640987086052974e-01
3.347625401616096497e+01 -2.609508898854255676e+01 -7.345874873804802974e-01
3.872686436772346497e+01 -3.548864367604255676e+01 -7.663257686304802974e-01
3.907928135991096497e+01 -3.509411242604255676e+01 -7.442615596461052974e-01
3.961443760991096497e+01 -3.487316516041755676e+01 -7.245777217554802974e-01
4.080975010991096497e+01 -3.525671008229255676e+01 -7.126758662867302974e-01
4.297198155522346497e+01 -3.649291613698005676e+01 -7.109821407007927974e-01
4.529546788334846497e+01 -3.780846789479255676e+01 -7.086933223414177974e-01
4.701055577397346497e+01 -3.851989367604255676e+01 -6.975086299586052974e-01
4.818523839116096497e+01 -3.872472766041755676e+01 -6.795185176539177974e-01
5.579497960209846497e+01 -5.235277941823005676e+01 -6.590412227320427974e-01
5.774004796147346497e+01 -5.316759875416755676e+01 -6.375568477320427974e-01
5.947454503178596497e+01 -5.372814562916755676e+01 -6.128376094507927974e-01
6.095391514897346497e+01 -5.400268176198005676e+01 -5.849445430445427974e-01
1.015679600834846497e+01 -6.075191527605056763e+00 -7.589099971461052974e-01
1.025640538334846497e+01 -6.000484496355056763e+00 -7.549274532007927974e-01
1.035137608647346497e+01 -5.921382933855056763e+00 -7.509296504664177974e-01
1.044707921147346497e+01 -5.841548949480056763e+00 -7.469165889429802974e-01
1.054290440678596497e+01 -5.761714965105056763e+00 -7.429035274195427974e-01
1.063909581303596497e+01 -5.681514769792556763e+00 -7.388599483179802974e-01
1.073601964116096497e+01 -5.600826293230056763e+00 -7.348011104273552974e-01
1.082769444584846497e+01 -5.515987426042556763e+00 -7.307575313257927974e-01
1.117217686772346497e+01 -6.946895629167556763e+00 -7.556751338648552974e-01
1.127935460209846497e+01 -6.861324340105056763e+00 -7.512653438257927974e-01
1.139336827397346497e+01 -6.780513793230056763e+00 -7.468097774195427974e-01
1.150201085209846497e+01 -6.693843871355056763e+00 -7.423389522242302974e-01
1.161077550053596497e+01 -6.607051879167556763e+00 -7.378528682398552974e-01
1.172015050053596497e+01 -6.519893676042556763e+00 -7.333667842554802974e-01
1.182391026616096497e+01 -6.427120238542556763e+00 -7.288654414820427974e-01
1.199761632084846497e+01 -6.386348754167556763e+00 -7.272327510523552974e-01
1.243792393803596497e+01 -8.033687621355056763e+00 -7.516468135523552974e-01
1.256170323491096497e+01 -7.940181761980056763e+00 -7.466724483179802974e-01
1.268609288334846497e+01 -7.846431761980056763e+00 -7.416828242945427974e-01
1.281145909428596497e+01 -7.751705199480056763e+00 -7.366474239039177974e-01
1.293706944584846497e+01 -7.656856566667556763e+00 -7.315967647242302974e-01
1.308172276616096497e+01 -7.575801879167556763e+00 -7.272937862086052974e-01
1.333538487553596497e+01 -7.574947386980056763e+00 -7.272937862086052974e-01
1.360393956303596497e+01 -7.581050902605056763e+00 -7.276599971461052974e-01
1.415630772709846497e+01 -9.508663207292556763e+00 -7.507465449976677974e-01
1.432500889897346497e+01 -9.423580199480056763e+00 -7.454364864039177974e-01
1.448931553959846497e+01 -9.333004027605056763e+00 -7.402942744898552974e-01
1.467437413334846497e+01 -9.256343871355056763e+00 -7.357929317164177974e-01
1.491729405522346497e+01 -9.223751097917556763e+00 -7.333057490992302974e-01
1.517535069584846497e+01 -9.198604613542556763e+00 -7.311542598414177974e-01
1.543975499272346497e+01 -9.172847777605056763e+00 -7.289417354273552974e-01
1.579766514897346497e+01 -9.212520629167556763e+00 -7.301776973414177974e-01
1.634502843022346497e+01 -1.138781359791755676e+01 -7.445667354273552974e-01
1.654388096928596497e+01 -1.129052355885505676e+01 -7.385395137476677974e-01
1.680547764897346497e+01 -1.124254992604255676e+01 -7.344196407007927974e-01
1.712737706303596497e+01 -1.123778918385505676e+01 -7.319324580836052974e-01
1.745599034428596497e+01 -1.123290637135505676e+01 -7.293994990992302974e-01
1.819378331303596497e+01 -1.153820422291755676e+01 -7.387836543726677974e-01
1.855083897709846497e+01 -1.153490832448005676e+01 -7.361286250757927974e-01
1.924700596928596497e+01 -1.177733996510505676e+01 -7.428272334742302974e-01
1.939910557866096497e+01 -1.400976184010505676e+01 -7.364948360132927974e-01
1.984063389897346497e+01 -1.406408312916755676e+01 -7.336567012476677974e-01
2.025310948491096497e+01 -1.408483508229255676e+01 -7.302082149195427974e-01
2.094903233647346497e+01 -1.432433703541755676e+01 -7.335651485132927974e-01
2.169683507084846497e+01 -1.458837512135505676e+01 -7.374561397242302974e-01
2.266985753178596497e+01 -1.500780871510505676e+01 -7.459400264429802974e-01
2.382366612553596497e+01 -1.553771594166755676e+01 -7.574451533961052974e-01
2.501971104741096497e+01 -1.606945422291755676e+01 -7.693317500757927974e-01
2.450433018803596497e+01 -1.839196398854255676e+01 -7.355487910914177974e-01
2.533562901616096497e+01 -1.868639758229255676e+01 -7.361133662867302974e-01
2.636333897709846497e+01 -1.912108996510505676e+01 -7.397602168726677974e-01
2.781707432866096497e+01 -1.987047961354255676e+01 -7.505786983179802974e-01
2.914056065678596497e+01 -2.047765734791755676e+01 -7.572620479273552974e-01
3.066460850834846497e+01 -2.120458605885505676e+01 -7.661274043726677974e-01
3.215777257084846497e+01 -2.186535266041755676e+01 -7.726581660914177974e-01
3.317205479741096497e+01 -2.213280871510505676e+01 -7.694843379664177974e-01
3.348907139897346497e+01 -2.610424426198005676e+01 -7.347095576929802974e-01
3.490777257084846497e+01 -2.673876574635505676e+01 -7.342823115992302974e-01
3.674908116459846497e+01 -2.768261340260505676e+01 -7.373035518336052974e-01
3.760808995366096497e+01 -2.777965930104255676e+01 -7.258136836695427974e-01
3.845232823491096497e+01 -2.784862902760505676e+01 -7.134845821070427974e-01
3.932256749272346497e+01 -2.792004016041755676e+01 -7.007892696070427974e-01
4.021477940678596497e+01 -2.798778918385505676e+01 -6.887806026148552974e-01
4.161162999272346497e+01 -2.841442492604255676e+01 -6.806324092554802974e-01
4.818743565678596497e+01 -3.872387316823005676e+01 -6.794269649195427974e-01
4.907000401616096497e+01 -3.865636828541755676e+01 -6.581256953882927974e-01
4.987994053959846497e+01 -3.851220324635505676e+01 -6.355884639429802974e-01
5.079229405522346497e+01 -3.843420031666755676e+01 -6.132648555445427974e-01
5.170135167241096497e+01 -3.833935168385505676e+01 -5.903919307398552974e-01
5.213628819584846497e+01 -3.786083605885505676e+01 -5.637806026148552974e-01
5.165301182866096497e+01 -3.668163684010505676e+01 -5.314167110132927974e-01
5.133733800053596497e+01 -3.565722277760505676e+01 -5.010822383570427974e-01
5.604815343022346497e+01 -4.454101184010505676e+01 -3.914325801539177974e-01
5.461565831303596497e+01 -4.243114855885505676e+01 -3.568561641382927974e-01
5.359429600834846497e+01 -4.071264269948005676e+01 -3.250568477320427974e-01
5.276311925053596497e+01 -3.919530871510505676e+01 -2.952106563257927974e-01
5.214788487553596497e+01 -3.788549426198005676e+01 -2.669056026148552974e-01
5.165923741459846497e+01 -3.670153430104255676e+01 -2.396381465601677974e-01
5.134331944584846497e+01 -3.567663195729255676e+01 -2.133472530054802974e-01
5.607720616459846497e+01 -4.458349230885505676e+01 -5.955391804454279736e-02
5.463653233647346497e+01 -4.246569445729255676e+01 -3.620797077891779736e-02
5.361309483647346497e+01 -4.074462512135505676e+01 -1.302987019298029736e-02
5.277532628178596497e+01 -3.922106555104255676e+01 9.446326096082202639e-03
5.215948155522346497e+01 -3.791027453541755676e+01 3.178519328358220264e-02
5.166546300053596497e+01 -3.672155383229255676e+01 5.387991984608220264e-02
5.134930089116096497e+01 -3.569604113698005676e+01 7.608145793201970264e-02
5.610613682866096497e+01 -4.462572863698005676e+01 2.709972294163947026e-01
5.465935948491096497e+01 -4.250170519948005676e+01 2.830974491429572026e-01
5.363201573491096497e+01 -4.077648547291755676e+01 2.976695926976447026e-01
5.278741124272346497e+01 -3.924670031666755676e+01 3.127147587132697026e-01
5.217120030522346497e+01 -3.793493273854255676e+01 3.291026981663947026e-01
5.167156651616096497e+01 -3.674145129323005676e+01 3.459789188695197026e-01
5.135528233647346497e+01 -3.571545031666755676e+01 3.641216190648322026e-01
5.605645421147346497e+01 -4.367174914479255676e+01 6.238262089085822026e-01
6.266912510991096497e+01 -4.809972766041755676e+01 7.506267460179572026e-01
6.519622471928596497e+01 -4.909289172291755676e+01 8.163616092992072026e-01
6.325225499272346497e+01 -4.655065539479255676e+01 8.097698124242072026e-01
6.074285557866096497e+01 -4.365307238698005676e+01 7.935954960179572026e-01
6.239092686772346497e+01 -4.394823840260505676e+01 8.452159794163947026e-01
5.605230382084846497e+01 -4.368615344166755676e+01 9.532176884007697026e-01
6.342535069584846497e+01 -4.873095324635505676e+01 1.133027258713269703e+00
6.304192784428596497e+01 -4.740575793385505676e+01 1.146912756760144703e+00
6.344854405522346497e+01 -4.672228625416755676e+01 1.177827063400769703e+00
6.110735753178596497e+01 -4.394836047291755676e+01 1.146332922775769703e+00
6.013860753178596497e+01 -4.228857043385505676e+01 1.144486609299207203e+00
5.606451085209846497e+01 -4.371386340260505676e+01 1.281357947189832203e+00
6.305376866459846497e+01 -4.844994738698005676e+01 1.491440955002332203e+00
6.295440343022346497e+01 -4.735558703541755676e+01 1.507950964767957203e+00
6.248162510991096497e+01 -4.599023059010505676e+01 1.513581457932019703e+00
6.396697667241096497e+01 -4.614220812916755676e+01 1.574448767502332203e+00
6.056414464116096497e+01 -4.262328723073005676e+01 1.497010413010144703e+00
6.336211827397346497e+01 -4.871935656666755676e+01 1.870301428635144703e+00
6.389312413334846497e+01 -4.811950305104255676e+01 1.904664221603894703e+00
6.418926671147346497e+01 -4.733605578541755676e+01 1.931061926682019703e+00
6.390044835209846497e+01 -4.611059191823005676e+01 1.937348547775769703e+00
6.056365635991096497e+01 -4.264062121510505676e+01 1.837983313400769703e+00
6.272747471928596497e+01 -4.721422961354255676e+01 2.227189246017957203e+00
6.392205479741096497e+01 -4.714782336354255676e+01 2.287934485275769703e+00
6.443560460209846497e+01 -4.653698351979255676e+01 2.321747961838269703e+00
7.063714268803596497e+01 -5.017162707448005676e+01 2.586518469650769703e+00
6.371075108647346497e+01 -4.801403430104255676e+01 2.635850134689832203e+00
6.346685460209846497e+01 -4.681310656666755676e+01 2.635178747971082203e+00
6.440301182866096497e+01 -4.653136828541755676e+01 2.688386145432019703e+00
6.361590245366096497e+01 -4.795824816823005676e+01 2.998841467697644703e+00
6.448150303959846497e+01 -4.762170031666755676e+01 3.050965491135144703e+00
6.535516026616096497e+01 -4.727611926198005676e+01 3.105591955978894703e+00
6.321319249272346497e+01 -4.791283801198005676e+01 2.911668005783582203e+00
6.489617589116096497e+01 -4.715136340260505676e+01 3.016190710861707203e+00
6.419512608647346497e+01 -4.766894152760505676e+01 3.351227942307019703e+00
6.345892003178596497e+01 -4.873302844166755676e+01 1.752549353439832203e+00
6.277715733647346497e+01 -4.712157824635505676e+01 1.752350989182019703e+00
6.353533604741096497e+01 -4.667663195729255676e+01 1.796220007736707203e+00
6.096148350834846497e+01 -4.367504504323005676e+01 1.735337439377332203e+00
6.206463292241096497e+01 -4.352135851979255676e+01 1.789536658127332203e+00
6.105157139897346497e+01 -4.179919055104255676e+01 1.776124182541394703e+00
6.337408116459846497e+01 -4.868578723073005676e+01 2.132966223557019703e+00
6.283147862553596497e+01 -4.718603137135505676e+01 2.130829993088269703e+00
6.341802647709846497e+01 -4.660607531666755676e+01 2.169831457932019703e+00
6.408099034428596497e+01 -4.608202746510505676e+01 2.211732092697644703e+00
7.048528721928596497e+01 -4.985277941823005676e+01 2.469178381760144703e+00
6.415569737553596497e+01 -4.826354601979255676e+01 2.566193762619519703e+00
6.360100987553596497e+01 -4.677013781666755676e+01 2.557069006760144703e+00
6.439605382084846497e+01 -4.634435656666755676e+01 2.605607214767957203e+00
7.055511143803596497e+01 -4.992797473073005676e+01 2.886475745041394703e+00
6.254375889897346497e+01 -4.293395617604255676e+01 2.553391638596082203e+00
6.945586827397346497e+01 -5.136852648854255676e+01 3.220551672775769703e+00
6.544341710209846497e+01 -4.716747668385505676e+01 3.036988440353894703e+00
6.391228917241096497e+01 -4.662743762135505676e+01 2.581971350510144703e+00
6.431109288334846497e+01 -4.588354113698005676e+01 2.614625159103894703e+00
6.120489171147346497e+01 -4.155065539479255676e+01 2.511033240158582203e+00
6.317510655522346497e+01 -4.820165637135505676e+01 2.904816809494519703e+00
6.439190343022346497e+01 -4.809460070729255676e+01 2.976334753830457203e+00
6.960039952397346497e+01 -5.107348254323005676e+01 3.241059485275769703e+00
6.161455968022346497e+01 -4.187023547291755676e+01 2.892991247971082203e+00
6.400494053959846497e+01 -4.780993273854255676e+01 3.347550574142957203e+00
6.441204503178596497e+01 -4.706029894948005676e+01 3.379426184494519703e+00
6.101763585209846497e+01 -4.145421984791755676e+01 3.224717322189832203e+00
6.886980870366096497e+01 -4.959032824635505676e+01 2.351044836838269703e+00
7.052935460209846497e+01 -4.969897082448005676e+01 2.434495154221082203e+00
6.111932042241096497e+01 -4.160912707448005676e+01 2.117432776291394703e+00
6.295135167241096497e+01 -4.194359973073005676e+01 2.207093420822644703e+00
6.913457921147346497e+01 -5.216735461354255676e+01 2.741700354416394703e+00
6.346746495366096497e+01 -4.653515246510505676e+01 2.530045691330457203e+00
6.434161046147346497e+01 -4.613488391041755676e+01 2.585618201096082203e+00
7.064593175053596497e+01 -4.981261828541755676e+01 2.867814246017957203e+00
6.309490635991096497e+01 -4.206969836354255676e+01 2.590104285080457203e+00
6.454632237553596497e+01 -4.740612414479255676e+01 2.972474280197644703e+00
6.557073643803596497e+01 -4.710400012135505676e+01 3.037446204025769703e+00
6.256902745366096497e+01 -4.272326281666755676e+01 2.929398718674207203e+00
6.163494542241096497e+01 -4.103722766041755676e+01 2.900025549728894703e+00
6.393804600834846497e+01 -4.805419543385505676e+01 3.326966467697644703e+00
6.444817784428596497e+01 -4.735351184010505676e+01 3.367585364182019703e+00
6.008819249272346497e+01 -3.775255969166755676e+01 3.230958166916394703e+00
6.121160557866096497e+01 -3.748461535573005676e+01 3.308503332932019703e+00
6.200542882084846497e+01 -4.134557726979255676e+01 3.693238440353894703e+00
6.272552159428596497e+01 -4.075841906666755676e+01 3.752640906174207203e+00
6.065789464116096497e+01 -3.712670519948005676e+01 3.680588904221082203e+00
6.120928624272346497e+01 -4.053197863698005676e+01 2.246049109299207203e+00
5.899834874272346497e+01 -3.782677844166755676e+01 2.202149573166394703e+00
5.928045323491096497e+01 -3.696606066823005676e+01 2.244065466721082203e+00
5.990801671147346497e+01 -3.635546496510505676e+01 2.300156775314832203e+00
6.460918858647346497e+01 -4.788879016041755676e+01 2.666245642502332203e+00
6.448247960209846497e+01 -4.655932238698005676e+01 2.694962683517957203e+00
6.111419346928596497e+01 -4.161327746510505676e+01 2.626816931564832203e+00
6.156011632084846497e+01 -4.082116320729255676e+01 2.675416174728894703e+00
5.969927647709846497e+01 -3.836254504323005676e+01 2.630280676682019703e+00
6.123589757084846497e+01 -3.837987902760505676e+01 2.722626868088269703e+00
5.955987218022346497e+01 -3.614196398854255676e+01 2.682603064377332203e+00
6.455389073491096497e+01 -4.787768176198005676e+01 3.111924353439832203e+00
5.927264073491096497e+01 -3.808239367604255676e+01 3.012192908127332203e+00
6.345000889897346497e+01 -3.997863391041755676e+01 3.235490027267957203e+00
6.077373936772346497e+01 -3.701256945729255676e+01 3.136887732346082203e+00
6.207793858647346497e+01 -4.126427844166755676e+01 3.534959021408582203e+00
6.263921788334846497e+01 -4.055004504323005676e+01 3.588624182541394703e+00
6.028435948491096497e+01 -3.776293566823005676e+01 3.489915076096082203e+00
6.051678135991096497e+01 -3.686266711354255676e+01 3.527497473557019703e+00
6.190508702397346497e+01 -4.093774035573005676e+01 3.032334509689832203e+00
5.997967198491096497e+01 -3.841723254323005676e+01 2.976304236252332203e+00
6.395489171147346497e+01 -4.014611437916755676e+01 3.188004675705457203e+00
6.068670323491096497e+01 -3.675426867604255676e+01 3.068864050705457203e+00
6.219329503178596497e+01 -4.118224719166755676e+01 3.470399084885144703e+00
6.257342198491096497e+01 -4.032458117604255676e+01 3.517075720627332203e+00
6.039739659428596497e+01 -3.765673449635505676e+01 3.433457556564832203e+00
