7.069736719131469727e+00 -7.132728517055511475e+00 -8.804871455300542493e-01
7.150669336318969727e+00 -7.059974610805511475e+00 -8.746277705300542493e-01
7.228428125381469727e+00 -6.983070313930511475e+00 -8.687226191628667493e-01
7.312290430068969727e+00 -6.914588868618011475e+00 -8.634583369363042493e-01
7.397251367568969727e+00 -6.848304688930511475e+00 -8.583313838113042493e-01
7.482212305068969727e+00 -6.782020509243011475e+00 -8.532044306863042493e-01
7.567295312881469727e+00 -6.715492188930511475e+00 -8.480774775613042493e-01
7.648472070693969727e+00 -6.644813477993011475e+00 -8.429047480691167493e-01
7.625889062881469727e+00 -7.949623048305511475e+00 -8.854462519753667493e-01
7.737949609756469727e+00 -7.904212892055511475e+00 -8.816925898659917493e-01
7.846103906631469727e+00 -7.852333009243011475e+00 -8.772065058816167493e-01
7.951938867568969727e+00 -7.795692384243011475e+00 -8.726746455300542493e-01
8.057529687881469727e+00 -7.739173829555511475e+00 -8.681580439675542493e-01
8.163608789443969727e+00 -7.682411134243011475e+00 -8.636261836159917493e-01
8.264927148818969727e+00 -7.618446290493011475e+00 -8.589112177956792493e-01
8.362827539443969727e+00 -7.550453126430511475e+00 -8.536164179909917493e-01
8.258823633193969727e+00 -8.879432618618011475e+00 -8.882843867409917493e-01
8.385532617568969727e+00 -8.835487306118011475e+00 -8.843781367409917493e-01
8.513096094131469727e+00 -8.791419923305511475e+00 -8.804413691628667493e-01
8.614048242568969727e+00 -8.708778321743011475e+00 -8.741394892800542493e-01
8.704624414443969727e+00 -8.612953126430511475e+00 -8.670288935769292493e-01
8.794834375381469727e+00 -8.517616212368011475e+00 -8.599488154519292493e-01
8.894321680068969727e+00 -8.434120118618011475e+00 -8.536011592019292493e-01
9.000766992568969727e+00 -8.360511720180511475e+00 -8.478485957253667493e-01
9.076206445693969727e+00 -1.007987207174301147e+01 -8.963257685769292493e-01
9.195102930068969727e+00 -9.999549806118011475e+00 -8.896576777566167493e-01
9.338901758193969727e+00 -9.954139649868011475e+00 -8.852936640847417493e-01
9.505405664443969727e+00 -9.937049806118011475e+00 -8.824860468972417493e-01
9.673252344131469727e+00 -9.919959962368011475e+00 -8.796784297097417493e-01
9.801304101943969727e+00 -9.847694337368011475e+00 -8.737732783425542493e-01
9.926670312881469727e+00 -9.770545899868011475e+00 -8.675934687722417493e-01
1.004605507850646973e+01 -9.686073243618011475e+00 -8.613831416238042493e-01
1.017728066444396973e+01 -1.169681543111801147e+01 -9.117676631081792493e-01
1.020218300819396973e+01 -1.144779199361801147e+01 -8.966004267800542493e-01
1.035513710975646973e+01 -1.138468164205551147e+01 -8.908478633034917493e-01
1.052774453163146973e+01 -1.134647363424301147e+01 -8.863160029519292493e-01
1.070120644569396973e+01 -1.130789941549301147e+01 -8.817536250222417493e-01
1.087625527381896973e+01 -1.126908105611801147e+01 -8.771454707253667493e-01
1.103982949256896973e+01 -1.121219629049301147e+01 -8.716217890847417493e-01
1.116421914100646973e+01 -1.110489648580551147e+01 -8.636109248269292493e-01
1.214236855506896973e+01 -1.458011621236801147e+01 -9.667908564675542493e-01
1.231387734413146973e+01 -1.448050683736801147e+01 -9.580323115456792493e-01
1.206692910194396973e+01 -1.379300683736801147e+01 -9.235016718972417493e-01
1.201260781288146973e+01 -1.339261621236801147e+01 -9.019867793191167493e-01
1.213113808631896973e+01 -1.323807519674301147e+01 -8.914887324441167493e-01
1.224918007850646973e+01 -1.308451074361801147e+01 -8.810364619363042493e-01
1.249063515663146973e+01 -1.309110254049301147e+01 -8.776032343972417493e-01
1.272330117225646973e+01 -1.308280175924301147e+01 -8.739258662331792493e-01
1.443875527381896973e+01 -1.795120996236801147e+01 -1.008554162131616749e+00
1.465066933631896973e+01 -1.783866113424301147e+01 -9.987580195534917493e-01
1.486307168006896973e+01 -1.772574609518051147e+01 -9.889313593972417493e-01
1.507693886756896973e+01 -1.761209863424301147e+01 -9.790436640847417493e-01
1.547708535194396973e+01 -1.774942773580551147e+01 -9.788147822488042493e-01
1.477420449256896973e+01 -1.642093652486801147e+01 -9.224945918191167493e-01
1.427762246131896973e+01 -1.540592187643051147e+01 -8.787171259988042493e-01
1.457083535194396973e+01 -1.542740625143051147e+01 -8.744141474831792493e-01
1.483462929725646973e+01 -1.854019922018051147e+01 -9.188019648659917493e-01
1.519546914100646973e+01 -1.862906640768051147e+01 -9.154602900613042493e-01
1.576968789100646973e+01 -1.900772851705551147e+01 -9.210144892800542493e-01
1.627859902381896973e+01 -1.927335351705551147e+01 -9.230744258034917493e-01
1.709952187538146973e+01 -1.994351953268051147e+01 -9.381348506081792493e-01
1.799820351600646973e+01 -2.068241113424301147e+01 -9.548584834206792493e-01
1.888553261756896973e+01 -2.136832422018051147e+01 -9.699799433816167493e-01
1.993069863319396973e+01 -2.222098535299301147e+01 -9.891602412331792493e-01
1.583877968788146973e+01 -2.002152246236801147e+01 -8.472992793191167493e-01
1.645706582069396973e+01 -2.044876855611801147e+01 -8.516327754128667493e-01
1.713699746131896973e+01 -2.093839257955551147e+01 -8.572632685769292493e-01
1.792618203163146973e+01 -2.154972070455551147e+01 -8.657318965066167493e-01
1.889822793006896973e+01 -2.237686914205551147e+01 -8.794800654519292493e-01
1.995132851600646973e+01 -2.327005761861801147e+01 -8.942505732644292493e-01
2.107999062538146973e+01 -2.421561425924301147e+01 -9.095551386941167493e-01
2.233377480506896973e+01 -2.527530664205551147e+01 -9.269654170144292493e-01
1.684012246131896973e+01 -2.150003808736801147e+01 -7.599732295144292493e-01
1.777359414100646973e+01 -2.234903711080551147e+01 -7.699524775613042493e-01
1.882059121131896973e+01 -2.331546777486801147e+01 -7.817170039284917493e-01
1.999258828163146973e+01 -2.440445703268051147e+01 -7.951905146706792493e-01
2.122977089881896973e+01 -2.553067773580551147e+01 -8.084504023659917493e-01
2.275711464881896973e+01 -2.698600000143051147e+01 -8.274933711159917493e-01
2.414700722694396973e+01 -2.819388574361801147e+01 -8.400360957253667493e-01
2.567129921913146973e+01 -2.951639550924301147e+01 -8.536927119363042493e-01
1.780423378944396973e+01 -2.292520898580551147e+01 -6.546418086159917493e-01
1.932046914100646973e+01 -2.458206933736801147e+01 -6.719452754128667493e-01
2.051492714881896973e+01 -2.570963281393051147e+01 -6.789490595925542493e-01
2.178262734413146973e+01 -2.688138574361801147e+01 -6.854340449441167493e-01
2.358572793006896973e+01 -2.872037500143051147e+01 -7.011200801003667493e-01
2.553799843788146973e+01 -3.067252343893051147e+01 -7.166230097878667493e-01
3.087039589881896973e+01 -3.690714257955551147e+01 -7.927033320534917493e-01
3.344192910194396973e+01 -3.938138574361801147e+01 -8.095032588113042493e-01
1.934231972694396973e+01 -2.519437402486801147e+01 -5.441986933816167493e-01
2.082181191444396973e+01 -2.675138086080551147e+01 -5.490662470925542493e-01
2.233255410194396973e+01 -2.827945703268051147e+01 -5.519654170144292493e-01
2.423831582069396973e+01 -3.027725976705551147e+01 -5.579926386941167493e-01
2.700931191444396973e+01 -3.335330957174301147e+01 -5.725037470925542493e-01
3.157974648475646973e+01 -3.867166894674301147e+01 -6.046692744363042493e-01
6.064517617225646973e+01 -7.546952050924301147e+01 -9.092804804909917493e-01
6.117276406288146973e+01 -7.457022851705551147e+01 -8.621155634988042493e-01
2.082522988319396973e+01 -2.738455957174301147e+01 -4.073120967019292493e-01
2.240579628944396973e+01 -2.904166406393051147e+01 -4.018341914284917493e-01
2.436429238319396973e+01 -3.115287011861801147e+01 -3.977753535378667493e-01
2.305484414100646973e+01 -2.866019433736801147e+01 -3.687531367409917493e-01
3.183780312538146973e+01 -3.988675683736801147e+01 -3.990265742409917493e-01
4.367068886756896973e+01 -5.239603418111801147e+01 -3.598267451394292493e-01
2.231216835975646973e+01 -2.958243554830551147e+01 -2.470490351784917493e-01
2.194632363319396973e+01 -2.839444726705551147e+01 -2.296540156472417493e-01
2.309537148475646973e+01 -2.938040918111801147e+01 -2.123658076394292493e-01
3.195230507850646973e+01 -4.094315332174301147e+01 -1.829468623269292493e-01
4.226126503944396973e+01 -5.398221582174301147e+01 -1.377045527566167493e-01
4.224161171913146973e+01 -5.281058496236801147e+01 -1.077362910378667493e-01
4.277957558631896973e+01 -5.238870996236801147e+01 -7.650154982692924932e-02
4.359915566444396973e+01 -5.232889550924301147e+01 -4.416817580349174932e-02
2.217667031288146973e+01 -2.939725488424301147e+01 -7.322091017849174932e-02
2.231155800819396973e+01 -2.893338769674301147e+01 -5.828255568630424932e-02
2.240164589881896973e+01 -2.841678613424301147e+01 -4.302376662380424932e-02
2.359744668006896973e+01 -2.943558496236801147e+01 -1.783150588161674932e-02
4.143240761756896973e+01 -5.288687890768051147e+01 1.721709355246332507e-01
2.290189003944396973e+01 -2.664566797018051147e+01 1.695853318088325068e-02
4.244913125038146973e+01 -5.089212793111801147e+01 2.596190556418207507e-01
2.208084511756896973e+01 -2.927030175924301147e+01 9.816580857150825068e-02
2.243375039100646973e+01 -2.912308496236801147e+01 1.160948857199457507e-01
2.251504921913146973e+01 -2.859000390768051147e+01 1.295989140402582507e-01
3.983255410194396973e+01 -5.185733789205551147e+01 4.366820439230707507e-01
2.256277871131896973e+01 -2.680460351705551147e+01 1.651824101340082507e-01
2.287015175819396973e+01 -2.661698144674301147e+01 1.819213017355707507e-01
4.272317910194396973e+01 -5.126309961080551147e+01 5.720427616965082507e-01
3.292056679725646973e+01 -4.523355859518051147e+01 5.262969120871332507e-01
2.225589394569396973e+01 -2.888053125143051147e+01 2.843993290793207507e-01
3.963711953163146973e+01 -5.274967187643051147e+01 7.183440312277582507e-01
2.404446816444396973e+01 -3.008048242330551147e+01 3.479979618918207507e-01
2.256436562538146973e+01 -2.681937402486801147e+01 3.295806034933832507e-01
2.283865761756896973e+01 -2.658853906393051147e+01 3.455870732199457507e-01
2.210709023475646973e+01 -2.933658593893051147e+01 4.443114384543207507e-01
2.318301796913146973e+01 -3.023038476705551147e+01 4.862273320090082507e-01
2.401016640663146973e+01 -3.072635644674301147e+01 5.206206425558832507e-01
3.975821328163146973e+01 -5.180216211080551147e+01 1.043402014626195751e+00
4.231106972694396973e+01 -5.414786523580551147e+01 1.140310583962133251e+00
2.248880410194396973e+01 -2.673184961080551147e+01 4.923766240011957507e-01
2.459537148475646973e+01 -2.888114160299301147e+01 5.699217900168207507e-01
4.305875039100646973e+01 -5.173636621236801147e+01 1.203909216774633251e+00
2.372879433631896973e+01 -3.103128808736801147e+01 6.878111943136957507e-01
2.406851601600646973e+01 -3.082303613424301147e+01 7.058013066183832507e-01
2.413309121131896973e+01 -3.023111718893051147e+01 7.136290654074457507e-01
4.093838906288146973e+01 -5.231449121236801147e+01 1.403356848610570751e+00
2.241446328163146973e+01 -2.664566797018051147e+01 6.532652958761957507e-01
2.369974160194396973e+01 -2.773172754049301147e+01 7.115691288840082507e-01
4.288907265663146973e+01 -5.154386132955551147e+01 1.510626135719945751e+00
2.392703652381896973e+01 -3.063785547018051147e+01 8.833220585715082507e-01
2.263187050819396973e+01 -2.816959375143051147e+01 8.233244999777582507e-01
2.450723671913146973e+01 -3.008927148580551147e+01 9.167082890402582507e-01
4.339432168006896973e+01 -5.448331445455551147e+01 1.837286291969945751e+00
2.439651894569396973e+01 -2.864969629049301147e+01 9.164336308371332507e-01
2.328726601600646973e+01 -2.661930078268051147e+01 8.656218632590082507e-01
7.648716211318969727e+00 -6.644325196743011475e+00 -8.428742304909917493e-01
7.732578516006469727e+00 -6.577186524868011475e+00 -8.377472773659917493e-01
7.812900781631469727e+00 -6.505409181118011475e+00 -8.325592890847417493e-01
7.897251367568969727e+00 -6.438026368618011475e+00 -8.276917353738042493e-01
7.984409570693969727e+00 -6.374427735805511475e+00 -8.230988398659917493e-01
8.071567773818969727e+00 -6.310584962368011475e+00 -8.184906855691167493e-01
8.159214258193969727e+00 -6.246498048305511475e+00 -8.138520136941167493e-01
8.243198633193969727e+00 -6.178749024868011475e+00 -8.092286006081792493e-01
8.363071680068969727e+00 -7.550208985805511475e+00 -8.536011592019292493e-01
8.458286523818969727e+00 -7.478553712368011475e+00 -8.483979121316167493e-01
8.541660547256469727e+00 -7.392616212368011475e+00 -8.419281855691167493e-01
8.621128320693969727e+00 -7.301551759243011475e+00 -8.354279414284917493e-01
8.699985742568969727e+00 -7.211097657680511475e+00 -8.289734736550542493e-01
8.778721094131469727e+00 -7.121009767055511475e+00 -8.225342646706792493e-01
8.859531641006469727e+00 -7.033119142055511475e+00 -8.165375605691167493e-01
8.955967187881469727e+00 -6.963539063930511475e+00 -8.114716426003667493e-01
9.001011133193969727e+00 -8.360145509243011475e+00 -8.478333369363042493e-01
9.104038476943969727e+00 -8.281898438930511475e+00 -8.421112910378667493e-01
9.207065820693969727e+00 -8.203529298305511475e+00 -8.363892451394292493e-01
9.325718164443969727e+00 -8.142860352993011475e+00 -8.317353144753667493e-01
9.452793359756469727e+00 -8.091712892055511475e+00 -8.276612177956792493e-01
9.580600976943969727e+00 -8.040321290493011475e+00 -8.235566035378667493e-01
9.709873437881469727e+00 -7.988319337368011475e+00 -8.194214717019292493e-01
9.823154687881469727e+00 -7.918373048305511475e+00 -8.141877070534917493e-01
1.004654335975646973e+01 -9.685829102993011475e+00 -8.613526240456792493e-01
1.017276406288146973e+01 -9.609779298305511475e+00 -8.551880732644292493e-01
1.029349160194396973e+01 -9.526161134243011475e+00 -8.489472285378667493e-01
1.041482949256896973e+01 -9.442176759243011475e+00 -8.426911250222417493e-01
1.053592324256896973e+01 -9.358192384243011475e+00 -8.364350215066167493e-01
1.065726113319396973e+01 -9.274208009243011475e+00 -8.301636592019292493e-01
1.077933144569396973e+01 -9.189613282680511475e+00 -8.238617793191167493e-01
1.089480996131896973e+01 -9.098182618618011475e+00 -8.175446406472417493e-01
1.116458535194396973e+01 -1.110440820455551147e+01 -8.635804072488042493e-01
1.129703164100646973e+01 -1.100748437643051147e+01 -8.563630000222417493e-01
1.145694375038146973e+01 -1.094351953268051147e+01 -8.507477656472417493e-01
1.161844277381896973e+01 -1.087882226705551147e+01 -8.450867549050542493e-01
1.178055214881896973e+01 -1.081400293111801147e+01 -8.394104853738042493e-01
1.194363808631896973e+01 -1.074869531393051147e+01 -8.336884394753667493e-01
1.209952187538146973e+01 -1.067276757955551147e+01 -8.274170771706792493e-01
1.225174355506896973e+01 -1.059232324361801147e+01 -8.209320918191167493e-01
1.272427773475646973e+01 -1.308292382955551147e+01 -8.739258662331792493e-01
1.293533730506896973e+01 -1.304349511861801147e+01 -8.682038203347417493e-01
1.309585976600646973e+01 -1.293936914205551147e+01 -8.601319209206792493e-01
1.325735878944396973e+01 -1.283463281393051147e+01 -8.519989863503667493e-01
1.341873574256896973e+01 -1.273001855611801147e+01 -8.438813105691167493e-01
1.358060097694396973e+01 -1.262503808736801147e+01 -8.357483759988042493e-01
1.374332070350646973e+01 -1.251956933736801147e+01 -8.275544062722417493e-01
1.390640664100646973e+01 -1.241458886861801147e+01 -8.198792353738042493e-01
1.457205605506896973e+01 -1.542777246236801147e+01 -8.744141474831792493e-01
1.486587929725646973e+01 -1.544364160299301147e+01 -8.700653926003667493e-01
1.516519570350646973e+01 -1.545987695455551147e+01 -8.656250849831792493e-01
1.542569375038146973e+01 -1.542240136861801147e+01 -8.591095820534917493e-01
1.568069863319396973e+01 -1.537540429830551147e+01 -8.521973506081792493e-01
1.593875527381896973e+01 -1.532791894674301147e+01 -8.452088252175542493e-01
1.620059609413146973e+01 -1.527970117330551147e+01 -8.381134883034917493e-01
1.642776894569396973e+01 -1.519058984518051147e+01 -8.295227900613042493e-01
1.993668007850646973e+01 -2.222684472799301147e+01 -9.893128291238042493e-01
1.732242226600646973e+01 -1.849832910299301147e+01 -8.642212763894292493e-01
1.812222695350646973e+01 -1.906168359518051147e+01 -8.741394892800542493e-01
1.824332070350646973e+01 -1.878592675924301147e+01 -8.584076777566167493e-01
1.874783730506896973e+01 -1.896305078268051147e+01 -8.565155879128667493e-01
1.898953652381896973e+01 -1.882547754049301147e+01 -8.449494258034917493e-01
1.920999550819396973e+01 -1.866129297018051147e+01 -8.332154170144292493e-01
1.952371621131896973e+01 -1.860037988424301147e+01 -8.238312617409917493e-01
2.234293007850646973e+01 -2.528507226705551147e+01 -9.271790400613042493e-01
2.372684121131896973e+01 -2.645499414205551147e+01 -9.465882197488042493e-01
2.529483437538146973e+01 -2.779276269674301147e+01 -9.691254511941167493e-01
2.470120644569396973e+01 -2.648978418111801147e+01 -9.251953974831792493e-01
2.257168984413146973e+01 -2.343729394674301147e+01 -8.396698847878667493e-01
2.326272988319396973e+01 -2.372513574361801147e+01 -8.361756220925542493e-01
2.387820839881896973e+01 -2.390641015768051147e+01 -8.297516718972417493e-01
2.440054726600646973e+01 -2.397122949361801147e+01 -8.203217402566167493e-01
2.567752480506896973e+01 -2.952213281393051147e+01 -8.537690058816167493e-01
2.770242714881896973e+01 -3.140299218893051147e+01 -8.770844355691167493e-01
3.304507851600646973e+01 -3.723416894674301147e+01 -9.741761103738042493e-01
3.363834023475646973e+01 -3.715555566549301147e+01 -9.552246943581792493e-01
3.487491250038146973e+01 -3.782144922018051147e+01 -9.497010127175542493e-01
3.481375527381896973e+01 -3.696207422018051147e+01 -9.161164179909917493e-01
3.508902382850646973e+01 -3.649820703268051147e+01 -8.898255244363042493e-01
3.587064003944396973e+01 -3.659928125143051147e+01 -8.732392207253667493e-01
3.344998574256896973e+01 -3.938858789205551147e+01 -8.095490351784917493e-01
5.309878945350646973e+01 -6.296121972799301147e+01 -1.112085045920679249e+00
5.235709023475646973e+01 -6.075516504049301147e+01 -1.051416100608179249e+00
5.274551796913146973e+01 -5.995963281393051147e+01 -1.010171593772241749e+00
5.324148964881896973e+01 -5.930496972799301147e+01 -9.710480586159917493e-01
5.354874062538146973e+01 -5.843961328268051147e+01 -9.295899287331792493e-01
5.389322304725646973e+01 -5.762577050924301147e+01 -8.889710322488042493e-01
5.423270058631896973e+01 -5.682230371236801147e+01 -8.488861933816167493e-01
6.117374062538146973e+01 -7.456620019674301147e+01 -8.619477168191167493e-01
6.174576210975646973e+01 -7.373404687643051147e+01 -8.151490107644292493e-01
6.212759804725646973e+01 -7.267887109518051147e+01 -7.669617549050542493e-01
6.271194863319396973e+01 -7.187747949361801147e+01 -7.208039179909917493e-01
6.335660195350646973e+01 -7.115885156393051147e+01 -6.755005732644292493e-01
6.459012246131896973e+01 -7.111893457174301147e+01 -6.341034785378667493e-01
6.629422402381896973e+01 -7.157975000143051147e+01 -5.944001093972417493e-01
4.367435097694396973e+01 -5.239688867330551147e+01 -3.597351924050542493e-01
4.360281777381896973e+01 -5.232975000143051147e+01 -4.406136428005424932e-02
4.272049355506896973e+01 -5.013870996236801147e+01 -1.902169142849174932e-02
4.245157265663146973e+01 -5.089163964986801147e+01 2.597258671652582507e-01
4.429922890663146973e+01 -5.212552636861801147e+01 3.056548222433832507e-01
4.272378945350646973e+01 -5.126029199361801147e+01 5.721190556418207507e-01
4.399771523475646973e+01 -5.177384179830551147e+01 6.184142216574457507e-01
3.958292031288146973e+01 -4.165421289205551147e+01 6.237242802511957507e-01
4.397940468788146973e+01 -5.177445214986801147e+01 9.328368290793207507e-01
4.409048867225646973e+01 -5.083145898580551147e+01 9.535277470480707507e-01
3.943118691444396973e+01 -4.150223535299301147e+01 8.857939823996332507e-01
4.306094765663146973e+01 -5.173538964986801147e+01 1.204016028298070751e+00
4.394827675819396973e+01 -5.175894922018051147e+01 1.248342810524633251e+00
4.361124062538146973e+01 -5.026932519674301147e+01 1.250540076149633251e+00
3.928152871131896973e+01 -4.135269922018051147e+01 1.147375403298070751e+00
4.288919472694396973e+01 -5.154032129049301147e+01 1.510671912087133251e+00
4.298172402381896973e+01 -5.057767480611801147e+01 1.524572668923070751e+00
4.374771523475646973e+01 -5.045865625143051147e+01 1.564840613259008251e+00
3.911380410194396973e+01 -4.118253320455551147e+01 1.406194983376195751e+00
2.328812050819396973e+01 -2.661844629049301147e+01 8.656676396261957507e-01
4.360342812538146973e+01 -5.137564843893051147e+01 1.862875281227758251e+00
3.898074746131896973e+01 -4.105118554830551147e+01 1.663122473610570751e+00
8.243564844131469727e+00 -6.178504884243011475e+00 -8.092133418191167493e-01
8.340244531631469727e+00 -6.124183595180511475e+00 -8.053528681863042493e-01
8.433262109756469727e+00 -6.065101563930511475e+00 -8.014161006081792493e-01
8.527012109756469727e+00 -6.005653321743011475e+00 -7.974640742409917493e-01
8.620762109756469727e+00 -5.946083009243011475e+00 -7.934967890847417493e-01
8.715000391006469727e+00 -5.886390626430511475e+00 -7.895142451394292493e-01
8.809849023818969727e+00 -5.826087892055511475e+00 -7.855011836159917493e-01
8.900669336318969727e+00 -5.761756837368011475e+00 -7.814728633034917493e-01
8.956333398818969727e+00 -6.963294923305511475e+00 -8.114411250222417493e-01
9.048374414443969727e+00 -6.888465821743011475e+00 -8.063446894753667493e-01
9.144809961318969727e+00 -6.818031251430511475e+00 -8.012635127175542493e-01
9.237583398818969727e+00 -6.742713868618011475e+00 -7.961213008034917493e-01
9.341465234756469727e+00 -6.678871095180511475e+00 -7.917572871316167493e-01
9.446567773818969727e+00 -6.615516602993011475e+00 -7.874237910378667493e-01
9.547397851943969727e+00 -6.546546876430511475e+00 -7.830140009988042493e-01
9.653232812881469727e+00 -6.482582032680511475e+00 -7.786347285378667493e-01
9.823642969131469727e+00 -7.918250977993011475e+00 -8.141724482644292493e-01
9.926670312881469727e+00 -7.836341798305511475e+00 -8.085266963113042493e-01
1.002981972694396973e+01 -7.754188477993011475e+00 -8.028809443581792493e-01
1.013345742225646973e+01 -7.671668946743011475e+00 -7.972046748269292493e-01
1.023709511756896973e+01 -7.589271485805511475e+00 -7.915284052956792493e-01
1.035501503944396973e+01 -7.520790040493011475e+00 -7.866913691628667493e-01
1.047781777381896973e+01 -7.455482423305511475e+00 -7.820221797097417493e-01
1.060696816444396973e+01 -7.395667970180511475e+00 -7.777039424050542493e-01
1.089542031288146973e+01 -9.098182618618011475e+00 -8.175446406472417493e-01
1.101846718788146973e+01 -9.014686524868011475e+00 -8.112275019753667493e-01
1.113541054725646973e+01 -8.923866212368011475e+00 -8.048951045144292493e-01
1.125430703163146973e+01 -8.834022462368011475e+00 -7.985932246316167493e-01
1.139126992225646973e+01 -8.762489259243011475e+00 -7.932831660378667493e-01
1.152896523475646973e+01 -8.690467774868011475e+00 -7.879425898659917493e-01
1.166788125038146973e+01 -8.617835938930511475e+00 -7.825409785378667493e-01
1.179898476600646973e+01 -8.537025392055511475e+00 -7.770783320534917493e-01
1.225235390663146973e+01 -1.059207910299301147e+01 -8.209168330300542493e-01
1.240445351600646973e+01 -1.051041406393051147e+01 -8.146607295144292493e-01
1.254849648475646973e+01 -1.041873925924301147e+01 -8.079163447488042493e-01
1.269815468788146973e+01 -1.033109277486801147e+01 -8.013398066628667493e-01
1.284817910194396973e+01 -1.024332422018051147e+01 -7.947632685769292493e-01
1.299881386756896973e+01 -1.015518945455551147e+01 -7.881409541238042493e-01
1.315079140663146973e+01 -1.006620019674301147e+01 -7.814728633034917493e-01
1.331241250038146973e+01 -9.986244142055511475e+00 -7.752167597878667493e-01
1.390738320350646973e+01 -1.241471093893051147e+01 -8.198639765847417493e-01
1.409048867225646973e+01 -1.233036035299301147e+01 -8.123566523659917493e-01
1.426834511756896973e+01 -1.223868554830551147e+01 -8.049866572488042493e-01
1.447720742225646973e+01 -1.217630761861801147e+01 -7.987763301003667493e-01
1.468753457069396973e+01 -1.211344140768051147e+01 -7.925354853738042493e-01
1.490005898475646973e+01 -1.204984277486801147e+01 -7.862183467019292493e-01
1.511551308631896973e+01 -1.198551172018051147e+01 -7.798096552956792493e-01
1.532010293006896973e+01 -1.190860742330551147e+01 -7.733704463113042493e-01
1.642898964881896973e+01 -1.519083398580551147e+01 -8.295227900613042493e-01
1.664322304725646973e+01 -1.508524316549301147e+01 -8.205658808816167493e-01
1.685879921913146973e+01 -1.497891992330551147e+01 -8.115631953347417493e-01
1.707645058631896973e+01 -1.487149804830551147e+01 -8.024536982644292493e-01
1.730447793006896973e+01 -1.477359765768051147e+01 -7.936646357644292493e-01
1.757413125038146973e+01 -1.471451562643051147e+01 -7.861420527566167493e-01
1.784817910194396973e+01 -1.465457910299301147e+01 -7.785126582253667493e-01
1.812466835975646973e+01 -1.459403222799301147e+01 -7.707917109597417493e-01
1.952579140663146973e+01 -1.860135644674301147e+01 -8.238312617409917493e-01
1.984915566444396973e+01 -1.854605859518051147e+01 -8.147522822488042493e-01
2.021023964881896973e+01 -1.852518457174301147e+01 -8.058564082253667493e-01
2.055276894569396973e+01 -1.847696679830551147e+01 -7.967163935769292493e-01
2.091531777381896973e+01 -1.844449609518051147e+01 -7.879425898659917493e-01
2.129129433631896973e+01 -1.841898339986801147e+01 -7.792145625222417493e-01
2.174856972694396973e+01 -1.846463769674301147e+01 -7.729432002175542493e-01
2.226334023475646973e+01 -1.855680078268051147e+01 -7.670227900613042493e-01
2.440543007850646973e+01 -2.397501367330551147e+01 -8.203675166238042493e-01
2.497855019569396973e+01 -2.408280175924301147e+01 -8.118225947488042493e-01
2.553677773475646973e+01 -2.416104882955551147e+01 -8.023316279519292493e-01
2.617935585975646973e+01 -2.431217187643051147e+01 -7.940918818581792493e-01
2.693497109413146973e+01 -2.456388086080551147e+01 -7.876679316628667493e-01
2.753641152381896973e+01 -2.464237207174301147e+01 -7.771851435769292493e-01
2.807925820350646973e+01 -2.464859765768051147e+01 -7.648560420144292493e-01
2.895022988319396973e+01 -2.495975488424301147e+01 -7.583863154519292493e-01
3.587796425819396973e+01 -3.660465234518051147e+01 -8.732544795144292493e-01
3.732132363319396973e+01 -3.740140527486801147e+01 -8.676850215066167493e-01
3.783426308631896973e+01 -3.716910547018051147e+01 -8.446595088113042493e-01
3.829117226600646973e+01 -3.687064355611801147e+01 -8.204132929909917493e-01
3.921451210975646973e+01 -3.704557031393051147e+01 -8.031708613503667493e-01
3.987125039100646973e+01 -3.693326562643051147e+01 -7.812592402566167493e-01
4.061832070350646973e+01 -3.689615625143051147e+01 -7.600190058816167493e-01
4.162271523475646973e+01 -3.709415429830551147e+01 -7.415863886941167493e-01
5.423355507850646973e+01 -5.681937402486801147e+01 -8.487336054909917493e-01
5.452383828163146973e+01 -5.597354882955551147e+01 -8.083893672097417493e-01
5.477957558631896973e+01 -5.510306543111801147e+01 -7.681366816628667493e-01
5.525210976600646973e+01 -5.446598047018051147e+01 -7.302338496316167493e-01
5.581021523475646973e+01 -5.392337793111801147e+01 -6.933380976784917493e-01
5.811856484413146973e+01 -5.512393945455551147e+01 -6.700226679909917493e-01
6.079849648475646973e+01 -5.661441797018051147e+01 -6.465851679909917493e-01
6.316397500038146973e+01 -5.772696679830551147e+01 -6.182801142800542493e-01
8.900791406631469727e+00 -5.761390626430511475e+00 -7.814423457253667493e-01
8.995273828506469727e+00 -5.699867188930511475e+00 -7.774140254128667493e-01
9.085727930068969727e+00 -5.634071290493011475e+00 -7.733246699441167493e-01
9.174106836318969727e+00 -5.565101563930511475e+00 -7.690216914284917493e-01
9.265049219131469727e+00 -5.498451173305511475e+00 -7.648865595925542493e-01
9.356113672256469727e+00 -5.431312501430511475e+00 -7.607209101784917493e-01
9.452549219131469727e+00 -5.367469727993011475e+00 -7.568146601784917493e-01
9.545688867568969727e+00 -5.300575196743011475e+00 -7.529541865456792493e-01
9.653721094131469727e+00 -6.482337892055511475e+00 -7.786347285378667493e-01
9.761753320693969727e+00 -6.419471681118011475e+00 -7.746521845925542493e-01
9.876255273818969727e+00 -6.361488282680511475e+00 -7.707001582253667493e-01
9.987339258193969727e+00 -6.298377931118011475e+00 -7.667176142800542493e-01
1.008707070350646973e+01 -6.225013673305511475e+00 -7.620484248269292493e-01
1.017728066444396973e+01 -6.142616212368011475e+00 -7.567841426003667493e-01
1.026956582069396973e+01 -6.061195313930511475e+00 -7.518708125222417493e-01
1.039078164100646973e+01 -6.003822267055511475e+00 -7.482697383034917493e-01
1.060733437538146973e+01 -7.395423829555511475e+00 -7.776886836159917493e-01
1.073196816444396973e+01 -7.330116212368011475e+00 -7.733399287331792493e-01
1.085757851600646973e+01 -7.264198243618011475e+00 -7.689606562722417493e-01
1.098209023475646973e+01 -7.195472657680511475e+00 -7.643982783425542493e-01
1.108316445350646973e+01 -7.105384767055511475e+00 -7.585694209206792493e-01
1.118436074256896973e+01 -7.015052735805511475e+00 -7.527253047097417493e-01
1.130215859413146973e+01 -6.937782227993011475e+00 -7.476593867409917493e-01
1.144363808631896973e+01 -6.879676759243011475e+00 -7.437226191628667493e-01
1.179922890663146973e+01 -8.536537110805511475e+00 -7.770478144753667493e-01
1.194229531288146973e+01 -8.465980470180511475e+00 -7.716919795144292493e-01
1.208853554725646973e+01 -8.396644532680511475e+00 -7.667633906472417493e-01
1.221524453163146973e+01 -8.307533204555511475e+00 -7.607666865456792493e-01
1.236758828163146973e+01 -8.240516602993011475e+00 -7.559449092019292493e-01
1.253482460975646973e+01 -8.184730470180511475e+00 -7.516877070534917493e-01
1.268680214881896973e+01 -8.112953126430511475e+00 -7.465760127175542493e-01
1.283133339881896973e+01 -8.033973634243011475e+00 -7.414643183816167493e-01
1.331302285194396973e+01 -9.986000001430511475e+00 -7.752015009988042493e-01
1.348550820350646973e+01 -9.914466798305511475e+00 -7.696167842019292493e-01
1.365982460975646973e+01 -9.842201173305511475e+00 -7.639862910378667493e-01
1.383621621131896973e+01 -9.769081056118011475e+00 -7.582642451394292493e-01
1.401382851600646973e+01 -9.695472657680511475e+00 -7.525269404519292493e-01
1.419302773475646973e+01 -9.621131837368011475e+00 -7.467133418191167493e-01
1.437466835975646973e+01 -9.545814454555511475e+00 -7.408387080300542493e-01
1.455752968788146973e+01 -9.470130860805511475e+00 -7.349182978738042493e-01
1.532071328163146973e+01 -1.190824121236801147e+01 -7.733399287331792493e-01
1.554520058631896973e+01 -1.184757226705551147e+01 -7.668244258034917493e-01
1.575967812538146973e+01 -1.177420800924301147e+01 -7.602326289284917493e-01
1.597720742225646973e+01 -1.169974511861801147e+01 -7.535492793191167493e-01
1.619644570350646973e+01 -1.162467187643051147e+01 -7.468201533425542493e-01
1.641824746131896973e+01 -1.154874414205551147e+01 -7.400147334206792493e-01
1.664346718788146973e+01 -1.147183984518051147e+01 -7.331025019753667493e-01
1.685599160194396973e+01 -1.138236230611801147e+01 -7.262055293191167493e-01
1.812552285194396973e+01 -1.459366601705551147e+01 -7.707611933816167493e-01
1.839737343788146973e+01 -1.452445214986801147e+01 -7.629639521706792493e-01
1.867850136756896973e+01 -1.445951074361801147e+01 -7.552277461159917493e-01
1.897317910194396973e+01 -1.440116113424301147e+01 -7.475983515847417493e-01
1.927579140663146973e+01 -1.434610742330551147e+01 -7.400147334206792493e-01
1.965762734413146973e+01 -1.435465234518051147e+01 -7.343232051003667493e-01
2.005008339881896973e+01 -1.436331933736801147e+01 -7.284790888894292493e-01
2.055301308631896973e+01 -1.445719140768051147e+01 -7.251221552956792493e-01
2.226529335975646973e+01 -1.855728906393051147e+01 -7.670075312722417493e-01
2.263248085975646973e+01 -1.849930566549301147e+01 -7.571656123269292493e-01
2.304617714881896973e+01 -1.847769922018051147e+01 -7.473847285378667493e-01
2.350455117225646973e+01 -1.848709863424301147e+01 -7.389161006081792493e-01
2.404227089881896973e+01 -1.855863183736801147e+01 -7.318055049050542493e-01
2.460953164100646973e+01 -1.864383691549301147e+01 -7.247712031472417493e-01
2.527042031288146973e+01 -1.879434961080551147e+01 -7.197510615456792493e-01
2.652127480506896973e+01 -1.942105859518051147e+01 -7.248169795144292493e-01
2.895499062538146973e+01 -2.496256250143051147e+01 -7.584015742409917493e-01
2.976407265663146973e+01 -2.519266504049301147e+01 -7.499787226784917493e-01
3.037430214881896973e+01 -2.521952050924301147e+01 -7.371918574441167493e-01
3.122330117225646973e+01 -2.544693750143051147e+01 -7.277466670144292493e-01
3.274918007850646973e+01 -2.625284570455551147e+01 -7.281281367409917493e-01
3.431863808631896973e+01 -2.705228418111801147e+01 -7.272431269753667493e-01
3.647110390663146973e+01 -2.829959863424301147e+01 -7.326294795144292493e-01
3.887942910194396973e+01 -2.969840234518051147e+01 -7.388092890847417493e-01
4.162869668006896973e+01 -3.709720605611801147e+01 -7.415558711159917493e-01
4.235709023475646973e+01 -3.701273339986801147e+01 -7.189576045144292493e-01
4.410293984413146973e+01 -3.785025781393051147e+01 -7.071625605691167493e-01
4.697098183631896973e+01 -3.964627832174301147e+01 -7.049042597878667493e-01
4.968765664100646973e+01 -4.122257226705551147e+01 -6.976715937722417493e-01
5.182168984413146973e+01 -4.221390527486801147e+01 -6.819397822488042493e-01
5.311270546913146973e+01 -4.242813867330551147e+01 -6.567170039284917493e-01
5.432889199256896973e+01 -4.255460351705551147e+01 -6.298920527566167493e-01
6.317508339881896973e+01 -5.773355859518051147e+01 -6.182038203347417493e-01
6.490921425819396973e+01 -5.818595117330551147e+01 -5.836731806863042493e-01
6.072684121131896973e+01 -4.890897363424301147e+01 -3.587281123269292493e-01
5.917532753944396973e+01 -4.660477441549301147e+01 -3.181092158425542493e-01
6.076358437538146973e+01 -4.896280664205551147e+01 4.027470480707506795e-04
5.920047402381896973e+01 -4.664737695455551147e+01 2.867728318088325068e-02
6.080069375038146973e+01 -4.901700586080551147e+01 3.620360478293207507e-01
5.922586464881896973e+01 -4.669034570455551147e+01 3.777526005636957507e-01
6.013504433631896973e+01 -4.749124902486801147e+01 1.094427405251195751e+00
6.013357949256896973e+01 -4.751212304830551147e+01 1.447256384743383251e+00
9.546055078506469727e+00 -5.300453126430511475e+00 -7.529389277566167493e-01
9.642368555068969727e+00 -5.235511720180511475e+00 -7.490174189675542493e-01
9.735752344131469727e+00 -5.167274415493011475e+00 -7.451264277566167493e-01
9.829868555068969727e+00 -5.098426759243011475e+00 -7.411896601784917493e-01
9.924350976943969727e+00 -5.029334962368011475e+00 -7.372681513894292493e-01
1.001932168006896973e+01 -4.959876954555511475e+00 -7.333008662331792493e-01
1.011514687538146973e+01 -4.889808595180511475e+00 -7.293183222878667493e-01
1.020743203163146973e+01 -4.816810548305511475e+00 -7.253815547097417493e-01
1.039139199256896973e+01 -6.003822267055511475e+00 -7.482697383034917493e-01
1.050626015663146973e+01 -5.939735352993011475e+00 -7.445618525613042493e-01
1.062894082069396973e+01 -5.880775392055511475e+00 -7.408997431863042493e-01
1.074625039100646973e+01 -5.815467774868011475e+00 -7.371155634988042493e-01
1.086417031288146973e+01 -5.749793946743011475e+00 -7.333161250222417493e-01
1.098318886756896973e+01 -5.683509767055511475e+00 -7.294709101784917493e-01
1.109610390663146973e+01 -5.611122071743011475e+00 -7.255494013894292493e-01
1.120730996131896973e+01 -5.536781251430511475e+00 -7.211701289284917493e-01
1.144424843788146973e+01 -6.879676759243011475e+00 -7.437226191628667493e-01
1.157876992225646973e+01 -6.814125001430511475e+00 -7.396637812722417493e-01
1.171463418006896973e+01 -6.747962892055511475e+00 -7.355744258034917493e-01
1.185232949256896973e+01 -6.680946290493011475e+00 -7.314392939675542493e-01
1.199075722694396973e+01 -6.613441407680511475e+00 -7.272736445534917493e-01
1.213064980506896973e+01 -6.545204102993011475e+00 -7.230469599831792493e-01
1.227481484413146973e+01 -6.477943360805511475e+00 -7.188813105691167493e-01
1.248489785194396973e+01 -6.456581056118011475e+00 -7.174469843972417493e-01
1.283206582069396973e+01 -8.033973634243011475e+00 -7.414643183816167493e-01
1.298709511756896973e+01 -7.962074220180511475e+00 -7.362610713113042493e-01
1.313541054725646973e+01 -7.882728517055511475e+00 -7.310578242409917493e-01
1.328567910194396973e+01 -7.802406251430511475e+00 -7.257935420144292493e-01
1.343668007850646973e+01 -7.721717774868011475e+00 -7.204834834206792493e-01
1.365616250038146973e+01 -7.690467774868011475e+00 -7.177216426003667493e-01
1.390250039100646973e+01 -7.674354493618011475e+00 -7.157227412331792493e-01
1.414346718788146973e+01 -7.650672852993011475e+00 -7.137085810769292493e-01
1.455826210975646973e+01 -9.470008790493011475e+00 -7.349030390847417493e-01
1.473538613319396973e+01 -9.387123048305511475e+00 -7.289673701394292493e-01
1.491421914100646973e+01 -9.303504884243011475e+00 -7.229554072488042493e-01
1.514004921913146973e+01 -9.253456056118011475e+00 -7.184082881081792493e-01
1.556058144569396973e+01 -9.349159181118011475e+00 -7.202851191628667493e-01
1.592972207069396973e+01 -9.396766602993011475e+00 -7.199341670144292493e-01
1.632962441444396973e+01 -9.458167970180511475e+00 -7.200867549050542493e-01
1.686453652381896973e+01 -9.608680665493011475e+00 -7.240387812722417493e-01
1.685709023475646973e+01 -1.138224023580551147e+01 -7.261902705300542493e-01
1.710220742225646973e+01 -1.131656640768051147e+01 -7.194153681863042493e-01
1.757840371131896973e+01 -1.143094629049301147e+01 -7.197968379128667493e-01
1.805105996131896973e+01 -1.153043359518051147e+01 -7.194458857644292493e-01
1.866946816444396973e+01 -1.173123925924301147e+01 -7.226502314675542493e-01
1.924844765663146973e+01 -1.188736718893051147e+01 -7.240082636941167493e-01
1.993960976600646973e+01 -1.211124414205551147e+01 -7.275635615456792493e-01
2.083658242225646973e+01 -1.246695703268051147e+01 -7.361542597878667493e-01
2.055569863319396973e+01 -1.445829004049301147e+01 -7.251221552956792493e-01
2.106143593788146973e+01 -1.454288476705551147e+01 -7.215515986550542493e-01
2.194400429725646973e+01 -1.491629785299301147e+01 -7.263733759988042493e-01
2.282938027381896973e+01 -1.526737207174301147e+01 -7.300660029519292493e-01
2.395621132850646973e+01 -1.578128808736801147e+01 -7.380463496316167493e-01
2.539456582069396973e+01 -1.649869531393051147e+01 -7.512604609597417493e-01
2.673892617225646973e+01 -1.710684961080551147e+01 -7.605378047097417493e-01
2.871170449256896973e+01 -1.813272851705551147e+01 -7.807099238503667493e-01
2.653189492225646973e+01 -1.942838281393051147e+01 -7.249543086159917493e-01
2.818777871131896973e+01 -2.034940332174301147e+01 -7.362152949441167493e-01
3.049405312538146973e+01 -2.174137109518051147e+01 -7.560364619363042493e-01
3.221060585975646973e+01 -2.260343164205551147e+01 -7.633911982644292493e-01
3.410452675819396973e+01 -2.355545800924301147e+01 -7.715393916238042493e-01
3.613528847694396973e+01 -2.455838769674301147e+01 -7.794587031472417493e-01
3.736417031288146973e+01 -2.491580957174301147e+01 -7.738282099831792493e-01
3.846353554725646973e+01 -2.515287011861801147e+01 -7.640015498269292493e-01
3.889651894569396973e+01 -2.971048730611801147e+01 -7.389313593972417493e-01
4.052994179725646973e+01 -3.040763086080551147e+01 -7.323548213113042493e-01
4.158597207069396973e+01 -3.060037988424301147e+01 -7.168976679909917493e-01
4.272891640663146973e+01 -3.083475488424301147e+01 -7.012879267800542493e-01
4.412979531288146973e+01 -3.124246972799301147e+01 -6.873871699441167493e-01
4.600540566444396973e+01 -3.197257226705551147e+01 -6.767670527566167493e-01
4.977359414100646973e+01 -3.404251855611801147e+01 -6.816193476784917493e-01
5.452713418006896973e+01 -3.671964257955551147e+01 -6.905915156472417493e-01
5.433597207069396973e+01 -4.255741113424301147e+01 -6.298157588113042493e-01
5.558450722694396973e+01 -4.268399804830551147e+01 -6.022583857644292493e-01
5.687698769569396973e+01 -4.281851953268051147e+01 -5.738617793191167493e-01
5.655093789100646973e+01 -4.165665429830551147e+01 -5.352265254128667493e-01
5.615787148475646973e+01 -4.047061914205551147e+01 -4.973694697488042493e-01
5.581106972694396973e+01 -3.934513086080551147e+01 -4.607636347878667493e-01
5.556375527381896973e+01 -3.831375879049301147e+01 -4.253632441628667493e-01
5.548147988319396973e+01 -3.742435449361801147e+01 -3.914124384988042493e-01
5.916580605506896973e+01 -4.659366601705551147e+01 -3.179566279519292493e-01
5.805862832069396973e+01 -4.472025293111801147e+01 -2.802216426003667493e-01
5.723831582069396973e+01 -4.312723535299301147e+01 -2.445313349831792493e-01
5.656375527381896973e+01 -4.168643945455551147e+01 -2.102295771706792493e-01
5.616580605506896973e+01 -4.049613183736801147e+01 -1.771332636941167493e-01
5.581863808631896973e+01 -3.936991113424301147e+01 -1.449524775613042493e-01
5.556558632850646973e+01 -3.833377832174301147e+01 -1.133667842019292493e-01
5.548331093788146973e+01 -3.744400781393051147e+01 -8.220833693630424932e-02
5.919095253944396973e+01 -4.663626855611801147e+01 2.876883591525825068e-02
5.808255410194396973e+01 -4.476053613424301147e+01 5.725699509494575068e-02
5.725357460975646973e+01 -4.315982812643051147e+01 8.548575486057075068e-02
5.657645058631896973e+01 -4.171622461080551147e+01 1.133025273215082507e-01
5.617361855506896973e+01 -4.052140039205551147e+01 1.415923222433832507e-01
5.582632851600646973e+01 -3.939456933736801147e+01 1.693633183371332507e-01
5.556741738319396973e+01 -3.835367578268051147e+01 1.971037968527582507e-01
5.548526406288146973e+01 -3.746353906393051147e+01 2.254698857199457507e-01
5.921634316444396973e+01 -4.667911523580551147e+01 3.777678593527582507e-01
5.810647988319396973e+01 -4.480118554830551147e+01 3.969328984152582507e-01
5.726895546913146973e+01 -4.319242089986801147e+01 4.157775029074457507e-01
6.773599648475646973e+01 -5.047318261861801147e+01 5.699370488058832507e-01
6.566702675819396973e+01 -4.782230371236801147e+01 5.784361943136957507e-01
6.714310097694396973e+01 -4.791617578268051147e+01 6.301787480246332507e-01
6.465445351600646973e+01 -4.505887597799301147e+01 6.316741093527582507e-01
6.705887246131896973e+01 -4.582205957174301147e+01 6.963866337668207507e-01
6.778921914100646973e+01 -5.272293847799301147e+01 8.975737675558832507e-01
6.912772011756896973e+01 -5.269425195455551147e+01 9.529479130636957507e-01
6.566080117225646973e+01 -4.887149804830551147e+01 9.238188847433832507e-01
6.629642128944396973e+01 -4.832804101705551147e+01 9.656584843527582507e-01
7.612613320350646973e+01 -5.469132226705551147e+01 1.179510413063695751e+00
6.474148964881896973e+01 -4.514456933736801147e+01 9.956725224386957507e-01
6.485501503944396973e+01 -4.425528711080551147e+01 1.026373206032445751e+00
6.013382363319396973e+01 -4.748685449361801147e+01 1.094503699196508251e+00
6.809048867225646973e+01 -5.299332422018051147e+01 1.299642859352758251e+00
6.775113320350646973e+01 -5.161783593893051147e+01 1.321066199196508251e+00
6.749783730506896973e+01 -5.033414453268051147e+01 1.343862830055883251e+00
6.588064980506896973e+01 -4.803177636861801147e+01 1.333166418923070751e+00
6.556265664100646973e+01 -4.677347558736801147e+01 1.352438269509008251e+00
6.721817421913146973e+01 -4.699039453268051147e+01 1.420141516579320751e+00
6.392105507850646973e+01 -4.360318750143051147e+01 1.365560828102758251e+00
6.013235878944396973e+01 -4.750772851705551147e+01 1.447317419899633251e+00
6.822269082069396973e+01 -5.312613672018051147e+01 1.702688513649633251e+00
6.968448281288146973e+01 -5.318936914205551147e+01 1.771383582009008251e+00
6.830447793006896973e+01 -5.099039453268051147e+01 1.757223425759008251e+00
6.570804238319396973e+01 -4.792215722799301147e+01 1.705251990212133251e+00
6.522635293006896973e+01 -4.654276269674301147e+01 1.714803992165258251e+00
6.748953652381896973e+01 -4.721305078268051147e+01 1.807592688454320751e+00
6.569058632850646973e+01 -4.490128320455551147e+01 1.775991736305883251e+00
6.774380898475646973e+01 -5.275955957174301147e+01 2.084173499001195751e+00
6.765091347694396973e+01 -5.158597558736801147e+01 2.103887854469945751e+00
6.830936074256896973e+01 -5.101822656393051147e+01 2.149755774391820751e+00
7.355997109413146973e+01 -5.397830957174301147e+01 2.359121619118383251e+00
7.521951699256896973e+01 -5.408695214986801147e+01 2.442571936501195751e+00
6.580948281288146973e+01 -4.599710839986801147e+01 2.125509558571508251e+00
6.764151406288146973e+01 -4.633158105611801147e+01 2.215170203102758251e+00
7.382474160194396973e+01 -5.655533593893051147e+01 2.749777136696508251e+00
6.815762734413146973e+01 -5.092313379049301147e+01 2.538122473610570751e+00
6.903177285194396973e+01 -5.052286523580551147e+01 2.593694983376195751e+00
7.533609414100646973e+01 -5.420059961080551147e+01 2.875891028298070751e+00
6.778506875038146973e+01 -4.645767968893051147e+01 2.598181067360570751e+00
6.923648476600646973e+01 -5.179410547018051147e+01 2.980551062477758251e+00
7.026089882850646973e+01 -5.149198144674301147e+01 3.045522986305883251e+00
6.725918984413146973e+01 -4.711124414205551147e+01 2.937475500954320751e+00
6.632510781288146973e+01 -4.542520898580551147e+01 2.908102332009008251e+00
6.862820839881896973e+01 -5.244217675924301147e+01 3.335043249977758251e+00
6.913834023475646973e+01 -5.174149316549301147e+01 3.375662146462133251e+00
6.477835488319396973e+01 -4.214054101705551147e+01 3.239034949196508251e+00
6.590176796913146973e+01 -4.187259668111801147e+01 3.316580115212133251e+00
6.669559121131896973e+01 -4.573355859518051147e+01 3.701315222634008251e+00
6.741568398475646973e+01 -4.514640039205551147e+01 3.760717688454320751e+00
6.534805703163146973e+01 -4.151468652486801147e+01 3.688665686501195751e+00
6.589944863319396973e+01 -4.491995996236801147e+01 2.254125891579320751e+00
6.368851113319396973e+01 -4.221475976705551147e+01 2.210226355446508251e+00
6.397061562538146973e+01 -4.135404199361801147e+01 2.252142249001195751e+00
6.459817910194396973e+01 -4.074344629049301147e+01 2.308233557594945751e+00
6.929935097694396973e+01 -5.227677148580551147e+01 2.674322424782445751e+00
6.917264199256896973e+01 -5.094730371236801147e+01 2.703039465798070751e+00
6.580435585975646973e+01 -4.600125879049301147e+01 2.634893713844945751e+00
6.625027871131896973e+01 -4.520914453268051147e+01 2.683492957009008251e+00
6.438943886756896973e+01 -4.275052636861801147e+01 2.638357458962133251e+00
6.592605996131896973e+01 -4.276786035299301147e+01 2.730703650368383251e+00
6.425003457069396973e+01 -4.052994531393051147e+01 2.690679846657445751e+00
6.924405312538146973e+01 -5.226566308736801147e+01 3.120001135719945751e+00
6.396280312538146973e+01 -4.247037500143051147e+01 3.020269690407445751e+00
6.814017128944396973e+01 -4.436661523580551147e+01 3.243566809548070751e+00
6.546390175819396973e+01 -4.140055078268051147e+01 3.144964514626195751e+00
6.676810097694396973e+01 -4.565225976705551147e+01 3.543035803688695751e+00
6.732938027381896973e+01 -4.493802636861801147e+01 3.596700964821508251e+00
6.497452187538146973e+01 -4.215091699361801147e+01 3.497991858376195751e+00
6.520694375038146973e+01 -4.125064843893051147e+01 3.535574255837133251e+00
6.659524941444396973e+01 -4.532572168111801147e+01 3.040411291969945751e+00
6.466983437538146973e+01 -4.280521386861801147e+01 2.984381018532445751e+00
6.864505410194396973e+01 -4.453409570455551147e+01 3.196081457985570751e+00
6.537686562538146973e+01 -4.114225000143051147e+01 3.076940832985570751e+00
6.688345742225646973e+01 -4.557022851705551147e+01 3.478475867165258251e+00
6.726358437538146973e+01 -4.471256250143051147e+01 3.525152502907445751e+00
6.508755898475646973e+01 -4.204471582174301147e+01 3.441534338844945751e+00
