6.682322978973388672e+00 -6.774742871522903442e+00 -8.810681157279702802e-01
6.763255596160888672e+00 -6.701988965272903442e+00 -8.752087407279702802e-01
6.841014385223388672e+00 -6.625084668397903442e+00 -8.693035893607827802e-01
6.924876689910888672e+00 -6.556603223085403442e+00 -8.640393071342202802e-01
7.009837627410888672e+00 -6.490319043397903442e+00 -8.589123540092202802e-01
7.094798564910888672e+00 -6.424034863710403442e+00 -8.537854008842202802e-01
7.179881572723388672e+00 -6.357506543397903442e+00 -8.486584477592202802e-01
7.261058330535888672e+00 -6.286827832460403442e+00 -8.434857182670327802e-01
7.238475322723388672e+00 -7.591637402772903442e+00 -8.860272221732827802e-01
7.350535869598388672e+00 -7.546227246522903442e+00 -8.822735600639077802e-01
7.458690166473388672e+00 -7.494347363710403442e+00 -8.777874760795327802e-01
7.564525127410888672e+00 -7.437706738710403442e+00 -8.732556157279702802e-01
7.670115947723388672e+00 -7.381188184022903442e+00 -8.687390141654702802e-01
7.776195049285888672e+00 -7.324425488710403442e+00 -8.642071538139077802e-01
7.877513408660888672e+00 -7.260460644960403442e+00 -8.594921879935952802e-01
7.975413799285888672e+00 -7.192467480897903442e+00 -8.541973881889077802e-01
7.871409893035888672e+00 -8.521446973085403442e+00 -8.888653569389077802e-01
7.998118877410888672e+00 -8.477501660585403442e+00 -8.849591069389077802e-01
8.125682353973388672e+00 -8.433434277772903442e+00 -8.810223393607827802e-01
8.226634502410888672e+00 -8.350792676210403442e+00 -8.747204594779702802e-01
8.317210674285888672e+00 -8.254967480897903442e+00 -8.676098637748452802e-01
8.407420635223388672e+00 -8.159630566835403442e+00 -8.605297856498452802e-01
8.506907939910888672e+00 -8.076134473085403442e+00 -8.541821293998452802e-01
8.613353252410888672e+00 -8.002526074647903442e+00 -8.484295659232827802e-01
8.688792705535888672e+00 -9.721886426210403442e+00 -8.969067387748452802e-01
8.807689189910888672e+00 -9.641564160585403442e+00 -8.902386479545327802e-01
8.951488018035888672e+00 -9.596154004335403442e+00 -8.858746342826577802e-01
9.117991924285888672e+00 -9.579064160585403442e+00 -8.830670170951577802e-01
9.285838603973388672e+00 -9.561974316835403442e+00 -8.802593999076577802e-01
9.413890361785888672e+00 -9.489708691835403442e+00 -8.743542485404702802e-01
9.539256572723388672e+00 -9.412560254335403442e+00 -8.681744389701577802e-01
9.658641338348388672e+00 -9.328087598085403442e+00 -8.619641118217202802e-01
9.789866924285888672e+00 -1.133882978558540344e+01 -9.123486333060952802e-01
9.814769268035888672e+00 -1.108980634808540344e+01 -8.971813969779702802e-01
9.967723369598388672e+00 -1.102669599652290344e+01 -8.914288335014077802e-01
1.014033079147338867e+01 -1.098848798871040344e+01 -8.868969731498452802e-01
1.031379270553588867e+01 -1.094991376996040344e+01 -8.823345952201577802e-01
1.048884153366088867e+01 -1.091109541058540344e+01 -8.777264409232827802e-01
1.065241575241088867e+01 -1.085421064496040344e+01 -8.722027592826577802e-01
1.077680540084838867e+01 -1.074691084027290344e+01 -8.641918950248452802e-01
1.175495481491088867e+01 -1.422213056683540344e+01 -9.673718266654702802e-01
1.192646360397338867e+01 -1.412252119183540344e+01 -9.586132817435952802e-01
1.167951536178588867e+01 -1.343502119183540344e+01 -9.240826420951577802e-01
1.162519407272338867e+01 -1.303463056683540344e+01 -9.025677495170327802e-01
1.174372434616088867e+01 -1.288008955121040344e+01 -8.920697026420327802e-01
1.186176633834838867e+01 -1.272652509808540344e+01 -8.816174321342202802e-01
1.210322141647338867e+01 -1.273311689496040344e+01 -8.781842045951577802e-01
1.233588743209838867e+01 -1.272481611371040344e+01 -8.745068364310952802e-01
1.405134153366088867e+01 -1.759322431683540344e+01 -1.009135132329532780e+00
1.426325559616088867e+01 -1.748067548871040344e+01 -9.993389897514077802e-01
1.447565793991088867e+01 -1.736776044964790344e+01 -9.895123295951577802e-01
1.468952512741088867e+01 -1.725411298871040344e+01 -9.796246342826577802e-01
1.508967161178588867e+01 -1.739144209027290344e+01 -9.793957524467202802e-01
1.438679075241088867e+01 -1.606295087933540344e+01 -9.230755620170327802e-01
1.389020872116088867e+01 -1.504793623089790344e+01 -8.792980961967202802e-01
1.418342161178588867e+01 -1.506942060589790344e+01 -8.749951176810952802e-01
1.444721555709838867e+01 -1.818221357464790344e+01 -9.193829350639077802e-01
1.480805540084838867e+01 -1.827108076214790344e+01 -9.160412602592202802e-01
1.538227415084838867e+01 -1.864974287152290344e+01 -9.215954594779702802e-01
1.589118528366088867e+01 -1.891536787152290344e+01 -9.236553960014077802e-01
1.671210813522338867e+01 -1.958553388714790344e+01 -9.387158208060952802e-01
1.761078977584838867e+01 -2.032442548871040344e+01 -9.554394536185952802e-01
1.849811887741088867e+01 -2.101033857464790344e+01 -9.705609135795327802e-01
1.954328489303588867e+01 -2.186299970746040344e+01 -9.897412114310952802e-01
1.545136594772338867e+01 -1.966353681683540344e+01 -8.478802495170327802e-01
1.606965208053588867e+01 -2.009078291058540344e+01 -8.522137456107827802e-01
1.674958372116088867e+01 -2.058040693402290344e+01 -8.578442387748452802e-01
1.753876829147338867e+01 -2.119173505902290344e+01 -8.663128667045327802e-01
1.851081418991088867e+01 -2.201888349652290344e+01 -8.800610356498452802e-01
1.956391477584838867e+01 -2.291207197308540344e+01 -8.948315434623452802e-01
2.069257688522338867e+01 -2.385762861371040344e+01 -9.101361088920327802e-01
2.194636106491088867e+01 -2.491732099652290344e+01 -9.275463872123452802e-01
1.645270872116088867e+01 -2.114205244183540344e+01 -7.605541997123452802e-01
1.738618040084838867e+01 -2.199105146527290344e+01 -7.705334477592202802e-01
1.843317747116088867e+01 -2.295748212933540344e+01 -7.822979741264077802e-01
1.960517454147338867e+01 -2.404647138714790344e+01 -7.957714848685952802e-01
2.084235715866088867e+01 -2.517269209027290344e+01 -8.090313725639077802e-01
2.236970090866088867e+01 -2.662801435589790344e+01 -8.280743413139077802e-01
2.375959348678588867e+01 -2.783590009808540344e+01 -8.406170659232827802e-01
2.528388547897338867e+01 -2.915840986371040344e+01 -8.542736821342202802e-01
1.741682004928588867e+01 -2.256722334027290344e+01 -6.552227788139077802e-01
1.893305540084838867e+01 -2.422408369183540344e+01 -6.725262456107827802e-01
2.012751340866088867e+01 -2.535164716839790344e+01 -6.795300297904702802e-01
2.139521360397338867e+01 -2.652340009808540344e+01 -6.860150151420327802e-01
2.319831418991088867e+01 -2.836238935589790344e+01 -7.017010502982827802e-01
2.515058469772338867e+01 -3.031453779339790344e+01 -7.172039799857827802e-01
3.048298215866088867e+01 -3.654915693402290344e+01 -7.932843022514077802e-01
3.305451536178588867e+01 -3.902340009808540344e+01 -8.100842290092202802e-01
1.895490598678588867e+01 -2.483638837933540344e+01 -5.447796635795327802e-01
2.043439817428588867e+01 -2.639339521527290344e+01 -5.496472172904702802e-01
2.194514036178588867e+01 -2.792147138714790344e+01 -5.525463872123452802e-01
2.385090208053588867e+01 -2.991927412152290344e+01 -5.585736088920327802e-01
2.662189817428588867e+01 -3.299532392621040344e+01 -5.730847172904702802e-01
3.119233274459838867e+01 -3.831368330121040344e+01 -6.052502446342202802e-01
6.025776243209838867e+01 -7.511153486371040344e+01 -9.098614506889077802e-01
6.078535032272338867e+01 -7.421224287152290344e+01 -8.626965336967202802e-01
2.043781614303588867e+01 -2.702657392621040344e+01 -4.078930668998452802e-01
2.201838254928588867e+01 -2.868367841839790344e+01 -4.024151616264077802e-01
2.397687864303588867e+01 -3.079488447308540344e+01 -3.983563237357827802e-01
2.266743040084838867e+01 -2.830220869183540344e+01 -3.693341069389077802e-01
3.145038938522338867e+01 -3.952877119183540344e+01 -3.996075444389077802e-01
4.328327512741088867e+01 -5.203804853558540344e+01 -3.604077153373452802e-01
2.192475461959838867e+01 -2.922444990277290344e+01 -2.476300053764077802e-01
2.155890989303588867e+01 -2.803646162152290344e+01 -2.302349858451577802e-01
2.270795774459838867e+01 -2.902242353558540344e+01 -2.129467778373452802e-01
3.156489133834838867e+01 -4.058516767621040344e+01 -1.835278325248452802e-01
4.187385129928588867e+01 -5.362423017621040344e+01 -1.382855229545327802e-01
4.185419797897338867e+01 -5.245259931683540344e+01 -1.083172612357827802e-01
4.239216184616088867e+01 -5.203072431683540344e+01 -7.708252002484528020e-02
4.321174192428588867e+01 -5.197090986371040344e+01 -4.474914600140778020e-02
2.178925657272338867e+01 -2.903926923871040344e+01 -7.380188037640778020e-02
2.192414426803588867e+01 -2.857540205121040344e+01 -5.886352588422028020e-02
2.201423215866088867e+01 -2.805880048871040344e+01 -4.360473682172028020e-02
2.321003293991088867e+01 -2.907759931683540344e+01 -1.841247607953278020e-02
4.104499387741088867e+01 -5.252889326214790344e+01 1.715899653267172198e-01
2.251447629928588867e+01 -2.628768232464790344e+01 1.637756298296721980e-02
4.206171751022338867e+01 -5.053414228558540344e+01 2.590380854439047198e-01
2.169343137741088867e+01 -2.891231611371040344e+01 9.758483837359221980e-02
2.204633665084838867e+01 -2.876509931683540344e+01 1.155139155220297198e-01
2.212763547897338867e+01 -2.823201826214790344e+01 1.290179438423422198e-01
3.944514036178588867e+01 -5.149935224652290344e+01 4.361010737251547198e-01
2.217536497116088867e+01 -2.644661787152290344e+01 1.646014399360922198e-01
2.248273801803588867e+01 -2.625899580121040344e+01 1.813403315376547198e-01
4.233576536178588867e+01 -5.090511396527290344e+01 5.714617914985922198e-01
3.253315305709838867e+01 -4.487557294964790344e+01 5.257159418892172198e-01
2.186848020553588867e+01 -2.852254560589790344e+01 2.838183588814047198e-01
3.924970579147338867e+01 -5.239168623089790344e+01 7.177630610298422198e-01
2.365705442428588867e+01 -2.972249677777290344e+01 3.474169916939047198e-01
2.217695188522338867e+01 -2.646138837933540344e+01 3.289996332954672198e-01
2.245124387741088867e+01 -2.623055341839790344e+01 3.450061030220297198e-01
2.171967649459838867e+01 -2.897860029339790344e+01 4.437304682564047198e-01
2.279560422897338867e+01 -2.987239912152290344e+01 4.856463618110922198e-01
2.362275266647338867e+01 -3.036837080121040344e+01 5.200396723579672198e-01
3.937079954147338867e+01 -5.144417646527290344e+01 1.042821044428279720e+00
4.192365598678588867e+01 -5.378987959027290344e+01 1.139729613764217220e+00
2.210139036178588867e+01 -2.637386396527290344e+01 4.917956538032797198e-01
2.420795774459838867e+01 -2.852315595746040344e+01 5.693408198189047198e-01
4.267133665084838867e+01 -5.137838056683540344e+01 1.203328246576717220e+00
2.334138059616088867e+01 -3.067330244183540344e+01 6.872302241157797198e-01
2.368110227584838867e+01 -3.046505048871040344e+01 7.052203364204672198e-01
2.374567747116088867e+01 -2.987313154339790344e+01 7.130480952095297198e-01
4.055097532272338867e+01 -5.195650556683540344e+01 1.402775878412654720e+00
2.202704954147338867e+01 -2.628768232464790344e+01 6.526843256782797198e-01
2.331232786178588867e+01 -2.737374189496040344e+01 7.109881586860922198e-01
4.250165891647338867e+01 -5.118587568402290344e+01 1.510045165522029720e+00
2.353962278366088867e+01 -3.027986982464790344e+01 8.827410883735922198e-01
2.224445676803588867e+01 -2.781160810589790344e+01 8.227435297798422198e-01
2.411982297897338867e+01 -2.973128584027290344e+01 9.161273188423422198e-01
4.300690793991088867e+01 -5.412532880902290344e+01 1.836705321772029720e+00
2.400910520553588867e+01 -2.829171064496040344e+01 9.158526606392172198e-01
2.289985227584838867e+01 -2.626131513714790344e+01 8.650408930610922198e-01
7.261302471160888672e+00 -6.286339551210403442e+00 -8.434552006889077802e-01
7.345164775848388672e+00 -6.219200879335403442e+00 -8.383282475639077802e-01
7.425487041473388672e+00 -6.147423535585403442e+00 -8.331402592826577802e-01
7.509837627410888672e+00 -6.080040723085403442e+00 -8.282727055717202802e-01
7.596995830535888672e+00 -6.016442090272903442e+00 -8.236798100639077802e-01
7.684154033660888672e+00 -5.952599316835403442e+00 -8.190716557670327802e-01
7.771800518035888672e+00 -5.888512402772903442e+00 -8.144329838920327802e-01
7.855784893035888672e+00 -5.820763379335403442e+00 -8.098095708060952802e-01
7.975657939910888672e+00 -7.192223340272903442e+00 -8.541821293998452802e-01
8.070872783660888672e+00 -7.120568066835403442e+00 -8.489788823295327802e-01
8.154246807098388672e+00 -7.034630566835403442e+00 -8.425091557670327802e-01
8.233714580535888672e+00 -6.943566113710403442e+00 -8.360089116264077802e-01
8.312572002410888672e+00 -6.853112012147903442e+00 -8.295544438529702802e-01
8.391307353973388672e+00 -6.763024121522903442e+00 -8.231152348685952802e-01
8.472117900848388672e+00 -6.675133496522903442e+00 -8.171185307670327802e-01
8.568553447723388672e+00 -6.605553418397903442e+00 -8.120526127982827802e-01
8.613597393035888672e+00 -8.002159863710403442e+00 -8.484143071342202802e-01
8.716624736785888672e+00 -7.923912793397903442e+00 -8.426922612357827802e-01
8.819652080535888672e+00 -7.845543652772903442e+00 -8.369702153373452802e-01
8.938304424285888672e+00 -7.784874707460403442e+00 -8.323162846732827802e-01
9.065379619598388672e+00 -7.733727246522903442e+00 -8.282421879935952802e-01
9.193187236785888672e+00 -7.682335644960403442e+00 -8.241375737357827802e-01
9.322459697723388672e+00 -7.630333691835403442e+00 -8.200024418998452802e-01
9.435740947723388672e+00 -7.560387402772903442e+00 -8.147686772514077802e-01
9.659129619598388672e+00 -9.327843457460403442e+00 -8.619335942435952802e-01
9.785350322723388672e+00 -9.251793652772903442e+00 -8.557690434623452802e-01
9.906077861785888672e+00 -9.168175488710403442e+00 -8.495281987357827802e-01
1.002741575241088867e+01 -9.084191113710403442e+00 -8.432720952201577802e-01
1.014850950241088867e+01 -9.000206738710403442e+00 -8.370159917045327802e-01
1.026984739303588867e+01 -8.916222363710403442e+00 -8.307446293998452802e-01
1.039191770553588867e+01 -8.831627637147903442e+00 -8.244427495170327802e-01
1.050739622116088867e+01 -8.740196973085403442e+00 -8.181256108451577802e-01
1.077717161178588867e+01 -1.074642255902290344e+01 -8.641613774467202802e-01
1.090961790084838867e+01 -1.064949873089790344e+01 -8.569439702201577802e-01
1.106953001022338867e+01 -1.058553388714790344e+01 -8.513287358451577802e-01
1.123102903366088867e+01 -1.052083662152290344e+01 -8.456677251029702802e-01
1.139313840866088867e+01 -1.045601728558540344e+01 -8.399914555717202802e-01
1.155622434616088867e+01 -1.039070966839790344e+01 -8.342694096732827802e-01
1.171210813522338867e+01 -1.031478193402290344e+01 -8.279980473685952802e-01
1.186432981491088867e+01 -1.023433759808540344e+01 -8.215130620170327802e-01
1.233686399459838867e+01 -1.272493818402290344e+01 -8.745068364310952802e-01
1.254792356491088867e+01 -1.268550947308540344e+01 -8.687847905326577802e-01
1.270844602584838867e+01 -1.258138349652290344e+01 -8.607128911185952802e-01
1.286994504928588867e+01 -1.247664716839790344e+01 -8.525799565482827802e-01
1.303132200241088867e+01 -1.237203291058540344e+01 -8.444622807670327802e-01
1.319318723678588867e+01 -1.226705244183540344e+01 -8.363293461967202802e-01
1.335590696334838867e+01 -1.216158369183540344e+01 -8.281353764701577802e-01
1.351899290084838867e+01 -1.205660322308540344e+01 -8.204602055717202802e-01
1.418464231491088867e+01 -1.506978681683540344e+01 -8.749951176810952802e-01
1.447846555709838867e+01 -1.508565595746040344e+01 -8.706463627982827802e-01
1.477778196334838867e+01 -1.510189130902290344e+01 -8.662060551810952802e-01
1.503828001022338867e+01 -1.506441572308540344e+01 -8.596905522514077802e-01
1.529328489303588867e+01 -1.501741865277290344e+01 -8.527783208060952802e-01
1.555134153366088867e+01 -1.496993330121040344e+01 -8.457897954154702802e-01
1.581318235397338867e+01 -1.492171552777290344e+01 -8.386944585014077802e-01
1.604035520553588867e+01 -1.483260419964790344e+01 -8.301037602592202802e-01
1.954926633834838867e+01 -2.186885908246040344e+01 -9.898937993217202802e-01
1.693500852584838867e+01 -1.814034345746040344e+01 -8.648022465873452802e-01
1.773481321334838867e+01 -1.870369794964790344e+01 -8.747204594779702802e-01
1.785590696334838867e+01 -1.842794111371040344e+01 -8.589886479545327802e-01
1.836042356491088867e+01 -1.860506513714790344e+01 -8.570965581107827802e-01
1.860212278366088867e+01 -1.846749189496040344e+01 -8.455303960014077802e-01
1.882258176803588867e+01 -1.830330732464790344e+01 -8.337963872123452802e-01
1.913630247116088867e+01 -1.824239423871040344e+01 -8.244122319389077802e-01
2.195551633834838867e+01 -2.492708662152290344e+01 -9.277600102592202802e-01
2.333942747116088867e+01 -2.609700849652290344e+01 -9.471691899467202802e-01
2.490742063522338867e+01 -2.743477705121040344e+01 -9.697064213920327802e-01
2.431379270553588867e+01 -2.613179853558540344e+01 -9.257763676810952802e-01
2.218427610397338867e+01 -2.307930830121040344e+01 -8.402508549857827802e-01
2.287531614303588867e+01 -2.336715009808540344e+01 -8.367565922904702802e-01
2.349079465866088867e+01 -2.354842451214790344e+01 -8.303326420951577802e-01
2.401313352584838867e+01 -2.361324384808540344e+01 -8.209027104545327802e-01
2.529011106491088867e+01 -2.916414716839790344e+01 -8.543499760795327802e-01
2.731501340866088867e+01 -3.104500654339790344e+01 -8.776654057670327802e-01
3.265766477584838867e+01 -3.687618330121040344e+01 -9.747570805717202802e-01
3.325092649459838867e+01 -3.679757001996040344e+01 -9.558056645560952802e-01
3.448749876022338867e+01 -3.746346357464790344e+01 -9.502819829154702802e-01
3.442634153366088867e+01 -3.660408857464790344e+01 -9.166973881889077802e-01
3.470161008834838867e+01 -3.614022138714790344e+01 -8.904064946342202802e-01
3.548322629928588867e+01 -3.624129560589790344e+01 -8.738201909232827802e-01
3.306257200241088867e+01 -3.903060224652290344e+01 -8.101300053764077802e-01
5.271137571334838867e+01 -6.260323408246040344e+01 -1.112666016118595280e+00
5.196967649459838867e+01 -6.039717939496040344e+01 -1.051997070806095280e+00
5.235810422897338867e+01 -5.960164716839790344e+01 -1.010752563970157780e+00
5.285407590866088867e+01 -5.894698408246040344e+01 -9.716290288139077802e-01
5.316132688522338867e+01 -5.808162763714790344e+01 -9.301708989310952802e-01
5.350580930709838867e+01 -5.726778486371040344e+01 -8.895520024467202802e-01
5.384528684616088867e+01 -5.646431806683540344e+01 -8.494671635795327802e-01
6.078632688522338867e+01 -7.420821455121040344e+01 -8.625286870170327802e-01
6.135834836959838867e+01 -7.337606123089790344e+01 -8.157299809623452802e-01
6.174018430709838867e+01 -7.232088544964790344e+01 -7.675427251029702802e-01
6.232453489303588867e+01 -7.151949384808540344e+01 -7.213848881889077802e-01
6.296918821334838867e+01 -7.080086591839790344e+01 -6.760815434623452802e-01
6.420270872116088867e+01 -7.076094892621040344e+01 -6.346844487357827802e-01
6.590681028366088867e+01 -7.122176435589790344e+01 -5.949810795951577802e-01
4.328693723678588867e+01 -5.203890302777290344e+01 -3.603161626029702802e-01
4.321540403366088867e+01 -5.197176435589790344e+01 -4.464233447797028020e-02
4.233307981491088867e+01 -4.978072431683540344e+01 -1.960266162640778020e-02
4.206415891647338867e+01 -5.053365400433540344e+01 2.591448969673422198e-01
4.391181516647338867e+01 -5.176754072308540344e+01 3.050738520454672198e-01
4.233637571334838867e+01 -5.090230634808540344e+01 5.715380854439047198e-01
4.361030149459838867e+01 -5.141585615277290344e+01 6.178332514595297198e-01
3.919550657272338867e+01 -4.129622724652290344e+01 6.231433100532797198e-01
4.359199094772338867e+01 -5.141646650433540344e+01 9.322558588814047198e-01
4.370307493209838867e+01 -5.047347334027290344e+01 9.529467768501547198e-01
3.904377317428588867e+01 -4.114424970746040344e+01 8.852130122017172198e-01
4.267353391647338867e+01 -5.137740400433540344e+01 1.203435058100154720e+00
4.356086301803588867e+01 -5.140096357464790344e+01 1.247761840326717220e+00
4.322382688522338867e+01 -4.991133955121040344e+01 1.249959105951717220e+00
3.889411497116088867e+01 -4.099471357464790344e+01 1.146794433100154720e+00
4.250178098678588867e+01 -5.118233564496040344e+01 1.510090941889217220e+00
4.259431028366088867e+01 -5.021968916058540344e+01 1.523991698725154720e+00
4.336030149459838867e+01 -5.010067060589790344e+01 1.564259643061092220e+00
3.872639036178588867e+01 -4.082454755902290344e+01 1.405614013178279720e+00
2.290070676803588867e+01 -2.626046064496040344e+01 8.650866694282797198e-01
4.321601438522338867e+01 -5.101766279339790344e+01 1.862294311029842220e+00
3.859333372116088867e+01 -4.069319990277290344e+01 1.662541503412654720e+00
7.856151103973388672e+00 -5.820519238710403442e+00 -8.097943120170327802e-01
7.952830791473388672e+00 -5.766197949647903442e+00 -8.059338383842202802e-01
8.045848369598388672e+00 -5.707115918397903442e+00 -8.019970708060952802e-01
8.139598369598388672e+00 -5.647667676210403442e+00 -7.980450444389077802e-01
8.233348369598388672e+00 -5.588097363710403442e+00 -7.940777592826577802e-01
8.327586650848388672e+00 -5.528404980897903442e+00 -7.900952153373452802e-01
8.422435283660888672e+00 -5.468102246522903442e+00 -7.860821538139077802e-01
8.513255596160888672e+00 -5.403771191835403442e+00 -7.820538335014077802e-01
8.568919658660888672e+00 -6.605309277772903442e+00 -8.120220952201577802e-01
8.660960674285888672e+00 -6.530480176210403442e+00 -8.069256596732827802e-01
8.757396221160888672e+00 -6.460045605897903442e+00 -8.018444829154702802e-01
8.850169658660888672e+00 -6.384728223085403442e+00 -7.967022710014077802e-01
8.954051494598388672e+00 -6.320885449647903442e+00 -7.923382573295327802e-01
9.059154033660888672e+00 -6.257530957460403442e+00 -7.880047612357827802e-01
9.159984111785888672e+00 -6.188561230897903442e+00 -7.835949711967202802e-01
9.265819072723388672e+00 -6.124596387147903442e+00 -7.792156987357827802e-01
9.436229228973388672e+00 -7.560265332460403442e+00 -8.147534184623452802e-01
9.539256572723388672e+00 -7.478356152772903442e+00 -8.091076665092202802e-01
9.642405986785888672e+00 -7.396202832460403442e+00 -8.034619145560952802e-01
9.746043682098388672e+00 -7.313683301210403442e+00 -7.977856450248452802e-01
9.849681377410888672e+00 -7.231285840272903442e+00 -7.921093754935952802e-01
9.967601299285888672e+00 -7.162804394960403442e+00 -7.872723393607827802e-01
1.009040403366088867e+01 -7.097496777772903442e+00 -7.826031499076577802e-01
1.021955442428588867e+01 -7.037682324647903442e+00 -7.782849126029702802e-01
1.050800657272338867e+01 -8.740196973085403442e+00 -8.181256108451577802e-01
1.063105344772338867e+01 -8.656700879335403442e+00 -8.118084721732827802e-01
1.074799680709838867e+01 -8.565880566835403442e+00 -8.054760747123452802e-01
1.086689329147338867e+01 -8.476036816835403442e+00 -7.991741948295327802e-01
1.100385618209838867e+01 -8.404503613710403442e+00 -7.938641362357827802e-01
1.114155149459838867e+01 -8.332482129335403442e+00 -7.885235600639077802e-01
1.128046751022338867e+01 -8.259850293397903442e+00 -7.831219487357827802e-01
1.141157102584838867e+01 -8.179039746522903442e+00 -7.776593022514077802e-01
1.186494016647338867e+01 -1.023409345746040344e+01 -8.214978032279702802e-01
1.201703977584838867e+01 -1.015242841839790344e+01 -8.152416997123452802e-01
1.216108274459838867e+01 -1.006075361371040344e+01 -8.084973149467202802e-01
1.231074094772338867e+01 -9.973107129335403442e+00 -8.019207768607827802e-01
1.246076536178588867e+01 -9.885338574647903442e+00 -7.953442387748452802e-01
1.261140012741088867e+01 -9.797203809022903442e+00 -7.887219243217202802e-01
1.276337766647338867e+01 -9.708214551210403442e+00 -7.820538335014077802e-01
1.292499876022338867e+01 -9.628258496522903442e+00 -7.757977299857827802e-01
1.351996946334838867e+01 -1.205672529339790344e+01 -8.204449467826577802e-01
1.370307493209838867e+01 -1.197237470746040344e+01 -8.129376225639077802e-01
1.388093137741088867e+01 -1.188069990277290344e+01 -8.055676274467202802e-01
1.408979368209838867e+01 -1.181832197308540344e+01 -7.993573002982827802e-01
1.430012083053588867e+01 -1.175545576214790344e+01 -7.931164555717202802e-01
1.451264524459838867e+01 -1.169185712933540344e+01 -7.867993168998452802e-01
1.472809934616088867e+01 -1.162752607464790344e+01 -7.803906254935952802e-01
1.493268918991088867e+01 -1.155062177777290344e+01 -7.739514165092202802e-01
1.604157590866088867e+01 -1.483284834027290344e+01 -8.301037602592202802e-01
1.625580930709838867e+01 -1.472725751996040344e+01 -8.211468510795327802e-01
1.647138547897338867e+01 -1.462093427777290344e+01 -8.121441655326577802e-01
1.668903684616088867e+01 -1.451351240277290344e+01 -8.030346684623452802e-01
1.691706418991088867e+01 -1.441561201214790344e+01 -7.942456059623452802e-01
1.718671751022338867e+01 -1.435652998089790344e+01 -7.867230229545327802e-01
1.746076536178588867e+01 -1.429659345746040344e+01 -7.790936284232827802e-01
1.773725461959838867e+01 -1.423604658246040344e+01 -7.713726811576577802e-01
1.913837766647338867e+01 -1.824337080121040344e+01 -8.244122319389077802e-01
1.946174192428588867e+01 -1.818807294964790344e+01 -8.153332524467202802e-01
1.982282590866088867e+01 -1.816719892621040344e+01 -8.064373784232827802e-01
2.016535520553588867e+01 -1.811898115277290344e+01 -7.972973637748452802e-01
2.052790403366088867e+01 -1.808651044964790344e+01 -7.885235600639077802e-01
2.090388059616088867e+01 -1.806099775433540344e+01 -7.797955327201577802e-01
2.136115598678588867e+01 -1.810665205121040344e+01 -7.735241704154702802e-01
2.187592649459838867e+01 -1.819881513714790344e+01 -7.676037602592202802e-01
2.401801633834838867e+01 -2.361702802777290344e+01 -8.209484868217202802e-01
2.459113645553588867e+01 -2.372481611371040344e+01 -8.124035649467202802e-01
2.514936399459838867e+01 -2.380306318402290344e+01 -8.029125981498452802e-01
2.579194211959838867e+01 -2.395418623089790344e+01 -7.946728520560952802e-01
2.654755735397338867e+01 -2.420589521527290344e+01 -7.882489018607827802e-01
2.714899778366088867e+01 -2.428438642621040344e+01 -7.777661137748452802e-01
2.769184446334838867e+01 -2.429061201214790344e+01 -7.654370122123452802e-01
2.856281614303588867e+01 -2.460176923871040344e+01 -7.589672856498452802e-01
3.549055051803588867e+01 -3.624666669964790344e+01 -8.738354497123452802e-01
3.693390989303588867e+01 -3.704341962933540344e+01 -8.682659917045327802e-01
3.744684934616088867e+01 -3.681111982464790344e+01 -8.452404790092202802e-01
3.790375852584838867e+01 -3.651265791058540344e+01 -8.209942631889077802e-01
3.882709836959838867e+01 -3.668758466839790344e+01 -8.037518315482827802e-01
3.948383665084838867e+01 -3.657527998089790344e+01 -7.818402104545327802e-01
4.023090696334838867e+01 -3.653817060589790344e+01 -7.605999760795327802e-01
4.123530149459838867e+01 -3.673616865277290344e+01 -7.421673588920327802e-01
5.384614133834838867e+01 -5.646138837933540344e+01 -8.493145756889077802e-01
5.413642454147338867e+01 -5.561556318402290344e+01 -8.089703374076577802e-01
5.439216184616088867e+01 -5.474507978558540344e+01 -7.687176518607827802e-01
5.486469602584838867e+01 -5.410799482464790344e+01 -7.308148198295327802e-01
5.542280149459838867e+01 -5.356539228558540344e+01 -6.939190678764077802e-01
5.773115110397338867e+01 -5.476595380902290344e+01 -6.706036381889077802e-01
6.041108274459838867e+01 -5.625643232464790344e+01 -6.471661381889077802e-01
6.277656126022338867e+01 -5.736898115277290344e+01 -6.188610844779702802e-01
8.513377666473388672e+00 -5.403404980897903442e+00 -7.820233159232827802e-01
8.607860088348388672e+00 -5.341881543397903442e+00 -7.779949956107827802e-01
8.698314189910888672e+00 -5.276085644960403442e+00 -7.739056401420327802e-01
8.786693096160888672e+00 -5.207115918397903442e+00 -7.696026616264077802e-01
8.877635478973388672e+00 -5.140465527772903442e+00 -7.654675297904702802e-01
8.968699932098388672e+00 -5.073326855897903442e+00 -7.613018803764077802e-01
9.065135478973388672e+00 -5.009484082460403442e+00 -7.573956303764077802e-01
9.158275127410888672e+00 -4.942589551210403442e+00 -7.535351567435952802e-01
9.266307353973388672e+00 -6.124352246522903442e+00 -7.792156987357827802e-01
9.374339580535888672e+00 -6.061486035585403442e+00 -7.752331547904702802e-01
9.488841533660888672e+00 -6.003502637147903442e+00 -7.712811284232827802e-01
9.599925518035888672e+00 -5.940392285585403442e+00 -7.672985844779702802e-01
9.699656963348388672e+00 -5.867028027772903442e+00 -7.626293950248452802e-01
9.789866924285888672e+00 -5.784630566835403442e+00 -7.573651127982827802e-01
9.882152080535888672e+00 -5.703209668397903442e+00 -7.524517827201577802e-01
1.000336790084838867e+01 -5.645836621522903442e+00 -7.488507085014077802e-01
1.021992063522338867e+01 -7.037438184022903442e+00 -7.782696538139077802e-01
1.034455442428588867e+01 -6.972130566835403442e+00 -7.739208989310952802e-01
1.047016477584838867e+01 -6.906212598085403442e+00 -7.695416264701577802e-01
1.059467649459838867e+01 -6.837487012147903442e+00 -7.649792485404702802e-01
1.069575071334838867e+01 -6.747399121522903442e+00 -7.591503911185952802e-01
1.079694700241088867e+01 -6.657067090272903442e+00 -7.533062749076577802e-01
1.091474485397338867e+01 -6.579796582460403442e+00 -7.482403569389077802e-01
1.105622434616088867e+01 -6.521691113710403442e+00 -7.443035893607827802e-01
1.141181516647338867e+01 -8.178551465272903442e+00 -7.776287846732827802e-01
1.155488157272338867e+01 -8.107994824647903442e+00 -7.722729497123452802e-01
1.170112180709838867e+01 -8.038658887147903442e+00 -7.673443608451577802e-01
1.182783079147338867e+01 -7.949547559022903442e+00 -7.613476567435952802e-01
1.198017454147338867e+01 -7.882530957460403442e+00 -7.565258793998452802e-01
1.214741086959838867e+01 -7.826744824647903442e+00 -7.522686772514077802e-01
1.229938840866088867e+01 -7.754967480897903442e+00 -7.471569829154702802e-01
1.244391965866088867e+01 -7.675987988710403442e+00 -7.420452885795327802e-01
1.292560911178588867e+01 -9.628014355897903442e+00 -7.757824711967202802e-01
1.309809446334838867e+01 -9.556481152772903442e+00 -7.701977543998452802e-01
1.327241086959838867e+01 -9.484215527772903442e+00 -7.645672612357827802e-01
1.344880247116088867e+01 -9.411095410585403442e+00 -7.588452153373452802e-01
1.362641477584838867e+01 -9.337487012147903442e+00 -7.531079106498452802e-01
1.380561399459838867e+01 -9.263146191835403442e+00 -7.472943120170327802e-01
1.398725461959838867e+01 -9.187828809022903442e+00 -7.414196782279702802e-01
1.417011594772338867e+01 -9.112145215272903442e+00 -7.354992680717202802e-01
1.493329954147338867e+01 -1.155025556683540344e+01 -7.739208989310952802e-01
1.515778684616088867e+01 -1.148958662152290344e+01 -7.674053960014077802e-01
1.537226438522338867e+01 -1.141622236371040344e+01 -7.608135991264077802e-01
1.558979368209838867e+01 -1.134175947308540344e+01 -7.541302495170327802e-01
1.580903196334838867e+01 -1.126668623089790344e+01 -7.474011235404702802e-01
1.603083372116088867e+01 -1.119075849652290344e+01 -7.405957036185952802e-01
1.625605344772338867e+01 -1.111385419964790344e+01 -7.336834721732827802e-01
1.646857786178588867e+01 -1.102437666058540344e+01 -7.267864995170327802e-01
1.773810911178588867e+01 -1.423568037152290344e+01 -7.713421635795327802e-01
1.800995969772338867e+01 -1.416646650433540344e+01 -7.635449223685952802e-01
1.829108762741088867e+01 -1.410152509808540344e+01 -7.558087163139077802e-01
1.858576536178588867e+01 -1.404317548871040344e+01 -7.481793217826577802e-01
1.888837766647338867e+01 -1.398812177777290344e+01 -7.405957036185952802e-01
1.927021360397338867e+01 -1.399666669964790344e+01 -7.349041752982827802e-01
1.966266965866088867e+01 -1.400533369183540344e+01 -7.290600590873452802e-01
2.016559934616088867e+01 -1.409920576214790344e+01 -7.257031254935952802e-01
2.187787961959838867e+01 -1.819930341839790344e+01 -7.675885014701577802e-01
2.224506711959838867e+01 -1.814132001996040344e+01 -7.577465825248452802e-01
2.265876340866088867e+01 -1.811971357464790344e+01 -7.479656987357827802e-01
2.311713743209838867e+01 -1.812911298871040344e+01 -7.394970708060952802e-01
2.365485715866088867e+01 -1.820064619183540344e+01 -7.323864751029702802e-01
2.422211790084838867e+01 -1.828585126996040344e+01 -7.253521733451577802e-01
2.488300657272338867e+01 -1.843636396527290344e+01 -7.203320317435952802e-01
2.613386106491088867e+01 -1.906307294964790344e+01 -7.253979497123452802e-01
2.856757688522338867e+01 -2.460457685589790344e+01 -7.589825444389077802e-01
2.937665891647338867e+01 -2.483467939496040344e+01 -7.505596928764077802e-01
2.998688840866088867e+01 -2.486153486371040344e+01 -7.377728276420327802e-01
3.083588743209838867e+01 -2.508895185589790344e+01 -7.283276372123452802e-01
3.236176633834838867e+01 -2.589486005902290344e+01 -7.287091069389077802e-01
3.393122434616088867e+01 -2.669429853558540344e+01 -7.278240971732827802e-01
3.608369016647338867e+01 -2.794161298871040344e+01 -7.332104497123452802e-01
3.849201536178588867e+01 -2.934041669964790344e+01 -7.393902592826577802e-01
4.124128293991088867e+01 -3.673922041058540344e+01 -7.421368413139077802e-01
4.196967649459838867e+01 -3.665474775433540344e+01 -7.195385747123452802e-01
4.371552610397338867e+01 -3.749227216839790344e+01 -7.077435307670327802e-01
4.658356809616088867e+01 -3.928829267621040344e+01 -7.054852299857827802e-01
4.930024290084838867e+01 -4.086458662152290344e+01 -6.982525639701577802e-01
5.143427610397338867e+01 -4.185591962933540344e+01 -6.825207524467202802e-01
5.272529172897338867e+01 -4.207015302777290344e+01 -6.572979741264077802e-01
5.394147825241088867e+01 -4.219661787152290344e+01 -6.304730229545327802e-01
6.278766965866088867e+01 -5.737557294964790344e+01 -6.187847905326577802e-01
6.452180051803588867e+01 -5.782796552777290344e+01 -5.842541508842202802e-01
6.033942747116088867e+01 -4.855098798871040344e+01 -3.593090825248452802e-01
5.878791379928588867e+01 -4.624678876996040344e+01 -3.186901860404702802e-01
6.037617063522338867e+01 -4.860482099652290344e+01 -1.782231498452802043e-04
5.881306028366088867e+01 -4.628939130902290344e+01 2.809631298296721980e-02
6.041328001022338867e+01 -4.865902021527290344e+01 3.614550776314047198e-01
5.883845090866088867e+01 -4.633236005902290344e+01 3.771716303657797198e-01
5.974763059616088867e+01 -4.713326337933540344e+01 1.093846435053279720e+00
5.974616575241088867e+01 -4.715413740277290344e+01 1.446675414545467220e+00
9.158641338348388672e+00 -4.942467480897903442e+00 -7.535198979545327802e-01
9.254954814910888672e+00 -4.877526074647903442e+00 -7.495983891654702802e-01
9.348338603973388672e+00 -4.809288769960403442e+00 -7.457073979545327802e-01
9.442454814910888672e+00 -4.740441113710403442e+00 -7.417706303764077802e-01
9.536937236785888672e+00 -4.671349316835403442e+00 -7.378491215873452802e-01
9.631907939910888672e+00 -4.601891309022903442e+00 -7.338818364310952802e-01
9.727733135223388672e+00 -4.531822949647903442e+00 -7.298992924857827802e-01
9.820018291473388672e+00 -4.458824902772903442e+00 -7.259625249076577802e-01
1.000397825241088867e+01 -5.645836621522903442e+00 -7.488507085014077802e-01
1.011884641647338867e+01 -5.581749707460403442e+00 -7.451428227592202802e-01
1.024152708053588867e+01 -5.522789746522903442e+00 -7.414807133842202802e-01
1.035883665084838867e+01 -5.457482129335403442e+00 -7.376965336967202802e-01
1.047675657272338867e+01 -5.391808301210403442e+00 -7.338970952201577802e-01
1.059577512741088867e+01 -5.325524121522903442e+00 -7.300518803764077802e-01
1.070869016647338867e+01 -5.253136426210403442e+00 -7.261303715873452802e-01
1.081989622116088867e+01 -5.178795605897903442e+00 -7.217510991264077802e-01
1.105683469772338867e+01 -6.521691113710403442e+00 -7.443035893607827802e-01
1.119135618209838867e+01 -6.456139355897903442e+00 -7.402447514701577802e-01
1.132722043991088867e+01 -6.389977246522903442e+00 -7.361553960014077802e-01
1.146491575241088867e+01 -6.322960644960403442e+00 -7.320202641654702802e-01
1.160334348678588867e+01 -6.255455762147903442e+00 -7.278546147514077802e-01
1.174323606491088867e+01 -6.187218457460403442e+00 -7.236279301810952802e-01
1.188740110397338867e+01 -6.119957715272903442e+00 -7.194622807670327802e-01
1.209748411178588867e+01 -6.098595410585403442e+00 -7.180279545951577802e-01
1.244465208053588867e+01 -7.675987988710403442e+00 -7.420452885795327802e-01
1.259968137741088867e+01 -7.604088574647903442e+00 -7.368420415092202802e-01
1.274799680709838867e+01 -7.524742871522903442e+00 -7.316387944389077802e-01
1.289826536178588867e+01 -7.444420605897903442e+00 -7.263745122123452802e-01
1.304926633834838867e+01 -7.363732129335403442e+00 -7.210644536185952802e-01
1.326874876022338867e+01 -7.332482129335403442e+00 -7.183026127982827802e-01
1.351508665084838867e+01 -7.316368848085403442e+00 -7.163037114310952802e-01
1.375605344772338867e+01 -7.292687207460403442e+00 -7.142895512748452802e-01
1.417084836959838867e+01 -9.112023144960403442e+00 -7.354840092826577802e-01
1.434797239303588867e+01 -9.029137402772903442e+00 -7.295483403373452802e-01
1.452680540084838867e+01 -8.945519238710403442e+00 -7.235363774467202802e-01
1.475263547897338867e+01 -8.895470410585403442e+00 -7.189892583060952802e-01
1.517316770553588867e+01 -8.991173535585403442e+00 -7.208660893607827802e-01
1.554230833053588867e+01 -9.038780957460403442e+00 -7.205151372123452802e-01
1.594221067428588867e+01 -9.100182324647903442e+00 -7.206677251029702802e-01
1.647712278366088867e+01 -9.250695019960403442e+00 -7.246197514701577802e-01
1.646967649459838867e+01 -1.102425459027290344e+01 -7.267712407279702802e-01
1.671479368209838867e+01 -1.095858076214790344e+01 -7.199963383842202802e-01
1.719098997116088867e+01 -1.107296064496040344e+01 -7.203778081107827802e-01
1.766364622116088867e+01 -1.117244794964790344e+01 -7.200268559623452802e-01
1.828205442428588867e+01 -1.137325361371040344e+01 -7.232312016654702802e-01
1.886103391647338867e+01 -1.152938154339790344e+01 -7.245892338920327802e-01
1.955219602584838867e+01 -1.175325849652290344e+01 -7.281445317435952802e-01
2.044916868209838867e+01 -1.210897138714790344e+01 -7.367352299857827802e-01
2.016828489303588867e+01 -1.410030439496040344e+01 -7.257031254935952802e-01
2.067402219772338867e+01 -1.418489912152290344e+01 -7.221325688529702802e-01
2.155659055709838867e+01 -1.455831220746040344e+01 -7.269543461967202802e-01
2.244196653366088867e+01 -1.490938642621040344e+01 -7.306469731498452802e-01
2.356879758834838867e+01 -1.542330244183540344e+01 -7.386273198295327802e-01
2.500715208053588867e+01 -1.614070966839790344e+01 -7.518414311576577802e-01
2.635151243209838867e+01 -1.674886396527290344e+01 -7.611187749076577802e-01
2.832429075241088867e+01 -1.777474287152290344e+01 -7.812908940482827802e-01
2.614448118209838867e+01 -1.907039716839790344e+01 -7.255352788139077802e-01
2.780036497116088867e+01 -1.999141767621040344e+01 -7.367962651420327802e-01
3.010663938522338867e+01 -2.138338544964790344e+01 -7.566174321342202802e-01
3.182319211959838867e+01 -2.224544599652290344e+01 -7.639721684623452802e-01
3.371711301803588867e+01 -2.319747236371040344e+01 -7.721203618217202802e-01
3.574787473678588867e+01 -2.420040205121040344e+01 -7.800396733451577802e-01
3.697675657272338867e+01 -2.455782392621040344e+01 -7.744091801810952802e-01
3.807612180709838867e+01 -2.479488447308540344e+01 -7.645825200248452802e-01
3.850910520553588867e+01 -2.935250166058540344e+01 -7.395123295951577802e-01
4.014252805709838867e+01 -3.004964521527290344e+01 -7.329357915092202802e-01
4.119855833053588867e+01 -3.024239423871040344e+01 -7.174786381889077802e-01
4.234150266647338867e+01 -3.047676923871040344e+01 -7.018688969779702802e-01
4.374238157272338867e+01 -3.088448408246040344e+01 -6.879681401420327802e-01
4.561799192428588867e+01 -3.161458662152290344e+01 -6.773480229545327802e-01
4.938618040084838867e+01 -3.368453291058540344e+01 -6.822003178764077802e-01
5.413972043991088867e+01 -3.636165693402290344e+01 -6.911724858451577802e-01
5.394855833053588867e+01 -4.219942548871040344e+01 -6.303967290092202802e-01
5.519709348678588867e+01 -4.232601240277290344e+01 -6.028393559623452802e-01
5.648957395553588867e+01 -4.246053388714790344e+01 -5.744427495170327802e-01
5.616352415084838867e+01 -4.129866865277290344e+01 -5.358074956107827802e-01
5.577045774459838867e+01 -4.011263349652290344e+01 -4.979504399467202802e-01
5.542365598678588867e+01 -3.898714521527290344e+01 -4.613446049857827802e-01
5.517634153366088867e+01 -3.795577314496040344e+01 -4.259442143607827802e-01
5.509406614303588867e+01 -3.706636884808540344e+01 -3.919934086967202802e-01
5.877839231491088867e+01 -4.623568037152290344e+01 -3.185375981498452802e-01
5.767121458053588867e+01 -4.436226728558540344e+01 -2.808026127982827802e-01
5.685090208053588867e+01 -4.276924970746040344e+01 -2.451123051810952802e-01
5.617634153366088867e+01 -4.132845380902290344e+01 -2.108105473685952802e-01
5.577839231491088867e+01 -4.013814619183540344e+01 -1.777142338920327802e-01
5.543122434616088867e+01 -3.901192548871040344e+01 -1.455334477592202802e-01
5.517817258834838867e+01 -3.797579267621040344e+01 -1.139477543998452802e-01
5.509589719772338867e+01 -3.708602216839790344e+01 -8.278930713422028020e-02
5.880353879928588867e+01 -4.627828291058540344e+01 2.818786571734221980e-02
5.769514036178588867e+01 -4.440255048871040344e+01 5.667602489702971980e-02
5.686616086959838867e+01 -4.280184248089790344e+01 8.490478466265471980e-02
5.618903684616088867e+01 -4.135823896527290344e+01 1.127215571235922198e-01
5.578620481491088867e+01 -4.016341474652290344e+01 1.410113520454672198e-01
5.543891477584838867e+01 -3.903658369183540344e+01 1.687823481392172198e-01
5.518000364303588867e+01 -3.799569013714790344e+01 1.965228266548422198e-01
5.509785032272338867e+01 -3.710555341839790344e+01 2.248889155220297198e-01
5.882892942428588867e+01 -4.632112959027290344e+01 3.771868891548422198e-01
5.771906614303588867e+01 -4.444319990277290344e+01 3.963519282173422198e-01
5.688154172897338867e+01 -4.283443525433540344e+01 4.151965327095297198e-01
6.734858274459838867e+01 -5.011519697308540344e+01 5.693560786079672198e-01
6.527961301803588867e+01 -4.746431806683540344e+01 5.778552241157797198e-01
6.675568723678588867e+01 -4.755819013714790344e+01 6.295977778267172198e-01
6.426703977584838867e+01 -4.470089033246040344e+01 6.310931391548422198e-01
6.667145872116088867e+01 -4.546407392621040344e+01 6.958056635689047198e-01
6.740180540084838867e+01 -5.236495283246040344e+01 8.969927973579672198e-01
6.874030637741088867e+01 -5.233626630902290344e+01 9.523669428657797198e-01
6.527338743209838867e+01 -4.851351240277290344e+01 9.232379145454672198e-01
6.590900754928588867e+01 -4.797005537152290344e+01 9.650775141548422198e-01
7.573871946334838867e+01 -5.433333662152290344e+01 1.178929442865779720e+00
6.435407590866088867e+01 -4.478658369183540344e+01 9.950915522407797198e-01
6.446760129928588867e+01 -4.389730146527290344e+01 1.025792235834529720e+00
5.974640989303588867e+01 -4.712886884808540344e+01 1.093922728998592220e+00
6.770307493209838867e+01 -5.263533857464790344e+01 1.299061889154842220e+00
6.736371946334838867e+01 -5.125985029339790344e+01 1.320485228998592220e+00
6.711042356491088867e+01 -4.997615888714790344e+01 1.343281859857967220e+00
6.549323606491088867e+01 -4.767379072308540344e+01 1.332585448725154720e+00
6.517524290084838867e+01 -4.641548994183540344e+01 1.351857299311092220e+00
6.683076047897338867e+01 -4.663240888714790344e+01 1.419560546381404720e+00
6.353364133834838867e+01 -4.324520185589790344e+01 1.364979857904842220e+00
5.974494504928588867e+01 -4.714974287152290344e+01 1.446736449701717220e+00
6.783527708053588867e+01 -5.276815107464790344e+01 1.702107543451717220e+00
6.929706907272338867e+01 -5.283138349652290344e+01 1.770802611811092220e+00
6.791706418991088867e+01 -5.063240888714790344e+01 1.756642455561092220e+00
6.532062864303588867e+01 -4.756417158246040344e+01 1.704671020014217220e+00
6.483893918991088867e+01 -4.618477705121040344e+01 1.714223021967342220e+00
6.710212278366088867e+01 -4.685506513714790344e+01 1.807011718256404720e+00
6.530317258834838867e+01 -4.454329755902290344e+01 1.775410766107967220e+00
6.735639524459838867e+01 -5.240157392621040344e+01 2.083592528803279720e+00
6.726349973678588867e+01 -5.122798994183540344e+01 2.103306884272029720e+00
6.792194700241088867e+01 -5.066024091839790344e+01 2.149174804193904720e+00
7.317255735397338867e+01 -5.362032392621040344e+01 2.358540648920467220e+00
7.483210325241088867e+01 -5.372896650433540344e+01 2.441990966303279720e+00
6.542206907272338867e+01 -4.563912275433540344e+01 2.124928588373592220e+00
6.725410032272338867e+01 -4.597359541058540344e+01 2.214589232904842220e+00
7.343732786178588867e+01 -5.619735029339790344e+01 2.749196166498592220e+00
6.777021360397338867e+01 -5.056514814496040344e+01 2.537541503412654720e+00
6.864435911178588867e+01 -5.016487959027290344e+01 2.593114013178279720e+00
7.494868040084838867e+01 -5.384261396527290344e+01 2.875310058100154720e+00
6.739765501022338867e+01 -4.609969404339790344e+01 2.597600097162654720e+00
6.884907102584838867e+01 -5.143611982464790344e+01 2.979970092279842220e+00
6.987348508834838867e+01 -5.113399580121040344e+01 3.044942016107967220e+00
6.687177610397338867e+01 -4.675325849652290344e+01 2.936894530756404720e+00
6.593769407272338867e+01 -4.506722334027290344e+01 2.907521361811092220e+00
6.824079465866088867e+01 -5.208419111371040344e+01 3.334462279779842220e+00
6.875092649459838867e+01 -5.138350751996040344e+01 3.375081176264217220e+00
6.439094114303588867e+01 -4.178255537152290344e+01 3.238453978998592220e+00
6.551435422897338867e+01 -4.151461103558540344e+01 3.315999145014217220e+00
6.630817747116088867e+01 -4.537557294964790344e+01 3.700734252436092220e+00
6.702827024459838867e+01 -4.478841474652290344e+01 3.760136718256404720e+00
6.496064329147338867e+01 -4.115670087933540344e+01 3.688084716303279720e+00
6.551203489303588867e+01 -4.456197431683540344e+01 2.253544921381404720e+00
6.330109739303588867e+01 -4.185677412152290344e+01 2.209645385248592220e+00
6.358320188522338867e+01 -4.099605634808540344e+01 2.251561278803279720e+00
6.421076536178588867e+01 -4.038546064496040344e+01 2.307652587397029720e+00
6.891193723678588867e+01 -5.191878584027290344e+01 2.673741454584529720e+00
6.878522825241088867e+01 -5.058931806683540344e+01 2.702458495600154720e+00
6.541694211959838867e+01 -4.564327314496040344e+01 2.634312743647029720e+00
6.586286497116088867e+01 -4.485115888714790344e+01 2.682911986811092220e+00
6.400202512741088867e+01 -4.239254072308540344e+01 2.637776488764217220e+00
6.553864622116088867e+01 -4.240987470746040344e+01 2.730122680170467220e+00
6.386262083053588867e+01 -4.017195966839790344e+01 2.690098876459529720e+00
6.885663938522338867e+01 -5.190767744183540344e+01 3.119420165522029720e+00
6.357538938522338867e+01 -4.211238935589790344e+01 3.019688720209529720e+00
6.775275754928588867e+01 -4.400862959027290344e+01 3.242985839350154720e+00
6.507648801803588867e+01 -4.104256513714790344e+01 3.144383544428279720e+00
6.638068723678588867e+01 -4.529427412152290344e+01 3.542454833490779720e+00
6.694196653366088867e+01 -4.458004072308540344e+01 3.596119994623592220e+00
6.458710813522338867e+01 -4.179293134808540344e+01 3.497410888178279720e+00
6.481953001022338867e+01 -4.089266279339790344e+01 3.534993285639217220e+00
6.620783567428588867e+01 -4.496773603558540344e+01 3.039830321772029720e+00
6.428242063522338867e+01 -4.244722822308540344e+01 2.983800048334529720e+00
6.825764036178588867e+01 -4.417611005902290344e+01 3.195500487787654720e+00
6.498945188522338867e+01 -4.078426435589790344e+01 3.076359862787654720e+00
6.649604368209838867e+01 -4.521224287152290344e+01 3.477894896967342220e+00
6.687617063522338867e+01 -4.435457685589790344e+01 3.524571532709529720e+00
6.470014524459838867e+01 -4.168673017621040344e+01 3.440953368647029720e+00
