7.196111887693405151e+00 -7.384815901517868042e+00 -8.801906832610200127e-01
7.296453684568405151e+00 -7.334889143705368042e+00 -8.759945162688325127e-01
7.394354075193405151e+00 -7.280811995267868042e+00 -8.717678316985200127e-01
7.491033762693405151e+00 -7.223805159330368042e+00 -8.673275240813325127e-01
7.582098215818405151e+00 -7.159596174955368042e+00 -8.623836764250825127e-01
7.673284739255905151e+00 -7.095387190580368042e+00 -8.574398287688325127e-01
7.764715403318405151e+00 -7.031056135892868042e+00 -8.524807223235200127e-01
7.853094309568405151e+00 -6.963307112455368042e+00 -8.475521334563325127e-01
7.771185129880905151e+00 -8.234791487455368042e+00 -8.844631441985200127e-01
7.888372629880905151e+00 -8.190968245267868042e+00 -8.807857760344575127e-01
7.980291575193405151e+00 -8.110645979642868042e+00 -8.744076022063325127e-01
8.065740793943405151e+00 -8.021046370267868042e+00 -8.677242525969575127e-01
8.150701731443405151e+00 -7.932179182767868042e+00 -8.610866793547700127e-01
8.235418528318405151e+00 -7.843556135892868042e+00 -8.544796236907075127e-01
8.317083567380905151e+00 -7.751148909330368042e+00 -8.479183443938325127e-01
8.415838450193405151e+00 -7.681935042142868042e+00 -8.425777682219575127e-01
8.451849192380905151e+00 -9.240772932767868042e+00 -8.886287936125825127e-01
8.593816965818405151e+00 -9.211598128080368042e+00 -8.855465182219575127e-01
8.743108958005905151e+00 -9.190846174955368042e+00 -8.829525240813325127e-01
8.891302317380905151e+00 -9.165333479642868042e+00 -8.800533541594575127e-01
9.005804270505905151e+00 -9.092579573392868042e+00 -8.743465670500825127e-01
9.120306223630905151e+00 -9.019825667142868042e+00 -8.686245211516450127e-01
9.235418528318405151e+00 -8.946705549955368042e+00 -8.628872164641450127e-01
9.350286692380905151e+00 -8.873707503080368042e+00 -8.571499117766450127e-01
9.348455637693405151e+00 -1.056560203433036804e+01 -8.993252047453950127e-01
9.463079661130905151e+00 -1.046916648745536804e+01 -8.917263277922700127e-01
9.615667551755905151e+00 -1.042680808901786804e+01 -8.874386080657075127e-01
9.772039622068405151e+00 -1.038676902651786804e+01 -8.832424410735200127e-01
9.929144114255905151e+00 -1.034660789370536804e+01 -8.790310152922700127e-01
1.007172223925590515e+01 -1.028508445620536804e+01 -8.736599215422700127e-01
1.018646833300590515e+01 -1.018559715151786804e+01 -8.662594088469575127e-01
1.029498884081840515e+01 -1.007964012026786804e+01 -8.588741549407075127e-01
1.078839704394340515e+01 -1.269182273745536804e+01 -9.340847262297700127e-01
1.090094587206840515e+01 -1.254753562808036804e+01 -9.241512545500825127e-01
1.101276227831840515e+01 -1.240410301089286804e+01 -9.142940768157075127e-01
1.112433454394340515e+01 -1.226103660464286804e+01 -9.044368990813325127e-01
1.123493024706840515e+01 -1.211919090151786804e+01 -8.946865328703950127e-01
1.134491559863090515e+01 -1.197819969058036804e+01 -8.849819430266450127e-01
1.145453473925590515e+01 -1.183745262026786804e+01 -8.752926119719575127e-01
1.161347028613090515e+01 -1.176189109683036804e+01 -8.687313326750825127e-01
1.306061384081840515e+01 -1.604607078433036804e+01 -9.988735445891450127e-01
1.324225446581840515e+01 -1.593083640933036804e+01 -9.890926608000825127e-01
1.342304059863090515e+01 -1.581389304995536804e+01 -9.797695406828950127e-01
1.292828962206840515e+01 -1.476140281558036804e+01 -9.306057223235200127e-01
1.243549177050590515e+01 -1.375090476870536804e+01 -8.836849459563325127e-01
1.266583845019340515e+01 -1.373601219058036804e+01 -8.791073092375825127e-01
1.327374860644340515e+01 -1.420647117495536804e+01 -8.947475680266450127e-01
1.338324567675590515e+01 -1.401994773745536804e+01 -8.832882174407075127e-01
1.391779157519340515e+01 -1.731767722964286804e+01 -9.472683199797700127e-01
1.425263044238090515e+01 -1.739665672183036804e+01 -9.448879488860200127e-01
1.470319196581840515e+01 -1.763017722964286804e+01 -9.481228121672700127e-01
1.528583356738090515e+01 -1.802959129214286804e+01 -9.572475680266450127e-01
1.589227887988090515e+01 -1.844023582339286804e+01 -9.664791354094575127e-01
1.665289899706840515e+01 -1.903264304995536804e+01 -9.819973238860200127e-01
1.596222516894340515e+01 -1.770732566714286804e+01 -9.279812106047700127e-01
1.538373395800590515e+01 -1.657390281558036804e+01 -8.815639742766450127e-01
1.481220075488090515e+01 -1.864506980776786804e+01 -8.839443453703950127e-01
1.529645368456840515e+01 -1.891191551089286804e+01 -8.859279879485200127e-01
1.600079938769340515e+01 -1.947270652651786804e+01 -8.962887057219575127e-01
1.670050641894340515e+01 -1.999602195620536804e+01 -9.055965670500825127e-01
1.744537946581840515e+01 -2.055376121401786804e+01 -9.155605563078950127e-01
1.838617536425590515e+01 -2.134233543276786804e+01 -9.320705660735200127e-01
1.938361188769340515e+01 -2.216399070620536804e+01 -9.496486910735200127e-01
2.045392438769340515e+01 -2.303960105776786804e+01 -9.674709566985200127e-01
1.594769880175590515e+01 -2.032951804995536804e+01 -8.148372897063325127e-01
1.670624372363090515e+01 -2.095732566714286804e+01 -8.233974703703950127e-01
1.757770368456840515e+01 -2.171172019839286804e+01 -8.346737154875825127e-01
1.845148298144340515e+01 -2.242949363589286804e+01 -8.443020113860200127e-01
1.943146345019340515e+01 -2.325639793276786804e+01 -8.560512789641450127e-01
2.049664899706840515e+01 -2.415507957339286804e+01 -8.688076266203950127e-01
2.191693708300590515e+01 -2.546953269839286804e+01 -8.908565768157075127e-01
2.313129255175590515e+01 -2.646208640933036804e+01 -9.040249117766450127e-01
1.699274274706840515e+01 -2.188176414370536804e+01 -7.249477633391450127e-01
1.800836774706840515e+01 -2.284868308901786804e+01 -7.355526217375825127e-01
1.910162946581840515e+01 -2.387773582339286804e+01 -7.464931734953950127e-01
2.025971052050590515e+01 -2.494475242495536804e+01 -7.571590670500825127e-01
2.183038923144340515e+01 -2.652116844058036804e+01 -7.767513522063325127e-01
2.325910016894340515e+01 -2.783623191714286804e+01 -7.898739108000825127e-01
2.502863141894340515e+01 -2.953032371401786804e+01 -8.087185152922700127e-01
2.739069196581840515e+01 -3.190422508120536804e+01 -8.383053072844575127e-01
1.837702009081840515e+01 -2.393657371401786804e+01 -6.250026949797700127e-01
1.957343122363090515e+01 -2.512199851870536804e+01 -6.316555270110200127e-01
2.077264997363090515e+01 -2.625407859683036804e+01 -6.362941988860200127e-01
2.252008649706840515e+01 -2.808842918276786804e+01 -6.496914156828950127e-01
2.390827009081840515e+01 -2.935307762026786804e+01 -6.534298190032075127e-01
2.674616071581840515e+01 -3.248369285464286804e+01 -6.806209811125825127e-01
3.164996930956840515e+01 -3.816374656558036804e+01 -7.372768649016450127e-01
5.546381208300590515e+01 -6.772234031558036804e+01 -1.083163095370395013e+00
1.972662946581840515e+01 -2.594170066714286804e+01 -5.025966891203950127e-01
2.115582868456840515e+01 -2.742216941714286804e+01 -5.034816988860200127e-01
2.155365583300590515e+01 -2.737212058901786804e+01 -4.888790377532075127e-01
2.479889509081840515e+01 -3.126054832339286804e+01 -5.078304537688325127e-01
2.941107770800590515e+01 -3.683708640933036804e+01 -5.363491305266450127e-01
3.252716657519340515e+01 -4.018523094058036804e+01 -5.421627291594575127e-01
2.103363630175590515e+01 -2.788567039370536804e+01 -3.569210299407075127e-01
2.174005720019340515e+01 -2.828032371401786804e+01 -3.431423434172700127e-01
2.162592145800590515e+01 -2.748711082339286804e+01 -3.255337008391450127e-01
2.932074567675590515e+01 -3.754607078433036804e+01 -3.392818697844575127e-01
3.475836774706840515e+01 -4.411650535464286804e+01 -3.337276705657075127e-01
4.210248395800590515e+01 -5.181755515933036804e+01 -2.912319430266450127e-01
4.283405134081840515e+01 -5.166106101870536804e+01 -2.609279879485200127e-01
2.090448591113090515e+01 -2.770793601870536804e+01 -1.929043063078950127e-01
2.134479352831840515e+01 -2.772160789370536804e+01 -1.764705904875825127e-01
2.177997419238090515e+01 -2.771843406558036804e+01 -1.598385104094575127e-01
3.578400251269340515e+01 -4.653093406558036804e+01 -9.105188931570751265e-02
4.073724958300590515e+01 -5.226030418276786804e+01 -4.390223111258251265e-02
4.113605329394340515e+01 -5.167851707339286804e+01 -1.437647427664501265e-02
4.276422712206840515e+01 -5.159489890933036804e+01 4.966466341866748735e-02
2.141290876269340515e+01 -2.847319480776786804e+01 -2.380640591727001265e-02
2.152826520800590515e+01 -2.800017234683036804e+01 -1.008875455008251265e-02
2.170709821581840515e+01 -2.762810203433036804e+01 5.002187832729987349e-03
4.647479841113090515e+01 -6.139165183901786804e+01 3.066379300202299873e-01
2.173114606738090515e+01 -2.644817039370536804e+01 3.072850619210498735e-02
4.123480817675590515e+01 -5.183330222964286804e+01 2.934695950592924873e-01
2.376788923144340515e+01 -2.795439597964286804e+01 8.216588412179248735e-02
4.323505231738090515e+01 -5.221965476870536804e+01 3.685886136139799873e-01
2.143353864550590515e+01 -2.851714012026786804e+01 1.440250149811674873e-01
2.158136579394340515e+01 -2.809038230776786804e+01 1.578189602936674873e-01
2.242584821581840515e+01 -2.866057273745536804e+01 1.847049466217924873e-01
4.657550641894340515e+01 -6.155925437808036804e+01 6.674930325592924873e-01
2.210358259081840515e+01 -2.579594871401786804e+01 2.200748196686674873e-01
4.169306012988090515e+01 -5.027202293276786804e+01 6.498080960358549873e-01
2.168109723925590515e+01 -2.889714500308036804e+01 3.191196194733549873e-01
2.218720075488090515e+01 -2.898149558901786804e+01 3.404514065827299873e-01
3.899506208300590515e+01 -5.218474265933036804e+01 8.025943509186674873e-01
2.183746930956840515e+01 -2.721880027651786804e+01 3.481570950592924873e-01
2.177033063769340515e+01 -2.652617332339286804e+01 3.544284573639799873e-01
2.380548688769340515e+01 -2.802922508120536804e+01 4.280673733796049873e-01
4.238727399706840515e+01 -5.118230125308036804e+01 9.744540921296049873e-01
2.250446149706840515e+01 -2.945512840151786804e+01 5.238620511139799873e-01
4.062055036425590515e+01 -5.451591941714286804e+01 1.163861440762417487e+00
2.344147321581840515e+01 -2.946086570620536804e+01 5.696231595124174873e-01
4.024396345019340515e+01 -5.058256980776786804e+01 1.184033559903042487e+00
2.388300153613090515e+01 -2.814336082339286804e+01 6.041385403717924873e-01
2.136530134081840515e+01 -2.845634910464286804e+01 6.463138333405424873e-01
2.302020856738090515e+01 -3.021721336245536804e+01 7.210056058014799873e-01
2.335700055956840515e+01 -3.002299949526786804e+01 7.386142483796049873e-01
2.337494489550590515e+01 -2.938200828433036804e+01 7.434512845124174873e-01
2.294574567675590515e+01 -2.815129539370536804e+01 7.288181058014799873e-01
2.248651716113090515e+01 -2.692204734683036804e+01 7.126132718171049873e-01
2.291156598925590515e+01 -2.688737937808036804e+01 7.356540433014799873e-01
4.209479352831840515e+01 -5.085393211245536804e+01 1.579938100918667487e+00
2.258783552050590515e+01 -3.028227683901786804e+01 8.767368069733549873e-01
2.181122419238090515e+01 -2.847661277651786804e+01 8.379031888092924873e-01
3.928619977831840515e+01 -5.266960594058036804e+01 1.729474233731167487e+00
2.329462262988090515e+01 -2.928398582339286804e+01 9.165469876374174873e-01
4.023895856738090515e+01 -5.172319480776786804e+01 1.783475088223354987e+00
2.173212262988090515e+01 -2.592802879214286804e+01 8.396579495514799873e-01
2.368683454394340515e+01 -2.791313621401786804e+01 9.410983792389799873e-01
4.271735212206840515e+01 -5.167375633120536804e+01 1.919842886074917487e+00
7.853582590818405151e+00 -6.963185042142868042e+00 -8.475368746672700127e-01
7.944158762693405151e+00 -6.897999495267868042e+00 -8.425930270110200127e-01
8.032049387693405151e+00 -6.829395979642868042e+00 -8.376796969328950127e-01
8.120306223630905151e+00 -6.760426253080368042e+00 -8.327358492766450127e-01
8.195379465818405151e+00 -6.676563948392868042e+00 -8.267238863860200127e-01
8.269354075193405151e+00 -6.591847151517868042e+00 -8.206814059172700127e-01
8.356023997068405151e+00 -6.521412581205368042e+00 -8.156307467375825127e-01
8.442205637693405151e+00 -6.450978010892868042e+00 -8.108547457610200127e-01
8.416204661130905151e+00 -7.681812971830368042e+00 -8.425625094328950127e-01
8.520452708005905151e+00 -7.619068831205368042e+00 -8.379696139250825127e-01
8.639471262693405151e+00 -7.573902815580368042e+00 -8.342159518157075127e-01
8.755560129880905151e+00 -7.523365706205368042e+00 -8.304012545500825127e-01
8.871893137693405151e+00 -7.472584456205368042e+00 -8.265712984953950127e-01
8.989080637693405151e+00 -7.421559065580368042e+00 -8.227260836516450127e-01
9.099920481443405151e+00 -7.361866682767868042e+00 -8.186062106047700127e-01
9.199285715818405151e+00 -7.289234846830368042e+00 -8.133571871672700127e-01
9.350897043943405151e+00 -8.873707503080368042e+00 -8.571346529875825127e-01
9.461004465818405151e+00 -8.794483870267868042e+00 -8.513668307219575127e-01
9.571356028318405151e+00 -8.715016096830368042e+00 -8.455684908782075127e-01
9.682317942380905151e+00 -8.635304182767868042e+00 -8.397548922453950127e-01
9.792913645505905151e+00 -8.555714339017868042e+00 -8.339412936125825127e-01
9.903875559568405151e+00 -8.476002424955368042e+00 -8.281276949797700127e-01
1.001520368456840515e+01 -8.395802229642868042e+00 -8.222835787688325127e-01
1.012640973925590515e+01 -8.315846174955368042e+00 -8.164547213469575127e-01
1.029547712206840515e+01 -1.007927390933036804e+01 -8.588436373625825127e-01
1.041034528613090515e+01 -9.981617659330368042e+00 -8.514889010344575127e-01
1.053510114550590515e+01 -9.895924299955368042e+00 -8.451412447844575127e-01
1.067841169238090515e+01 -9.831227034330368042e+00 -8.398769625578950127e-01
1.082111188769340515e+01 -9.765309065580368042e+00 -8.345516451750825127e-01
1.097431012988090515e+01 -9.710255354642868042e+00 -8.297909029875825127e-01
1.112921735644340515e+01 -9.654469221830368042e+00 -8.249691256438325127e-01
1.127789899706840515e+01 -9.590992659330368042e+00 -8.201168307219575127e-01
1.161420270800590515e+01 -1.176176902651786804e+01 -8.687160738860200127e-01
1.176862165331840515e+01 -1.167949363589286804e+01 -8.621242770110200127e-01
1.192377302050590515e+01 -1.159672996401786804e+01 -8.554867037688325127e-01
1.208002302050590515e+01 -1.151347801089286804e+01 -8.488186129485200127e-01
1.223651716113090515e+01 -1.142998191714286804e+01 -8.421352633391450127e-01
1.239362165331840515e+01 -1.134624168276786804e+01 -8.354213961516450127e-01
1.255182477831840515e+01 -1.126189109683036804e+01 -8.286617525969575127e-01
1.271027204394340515e+01 -1.117729637026786804e+01 -8.219021090422700127e-01
1.338361188769340515e+01 -1.401921531558036804e+01 -8.832424410735200127e-01
1.353156110644340515e+01 -1.388335105776786804e+01 -8.732174166594575127e-01
1.370014020800590515e+01 -1.377275535464286804e+01 -8.647335299407075127e-01
1.386176130175590515e+01 -1.365202781558036804e+01 -8.558071383391450127e-01
1.402301618456840515e+01 -1.353154441714286804e+01 -8.468960055266450127e-01
1.418439313769340515e+01 -1.341093894839286804e+01 -8.379696139250825127e-01
1.434650251269340515e+01 -1.328972312808036804e+01 -8.290127047453950127e-01
1.451776716113090515e+01 -1.317924949526786804e+01 -8.209865816985200127e-01
1.538410016894340515e+01 -1.657292625308036804e+01 -8.815029391203950127e-01
1.553461286425590515e+01 -1.638860008120536804e+01 -8.695400484953950127e-01
1.585333845019340515e+01 -1.641106101870536804e+01 -8.648708590422700127e-01
1.616669294238090515e+01 -1.641911765933036804e+01 -8.595608004485200127e-01
1.639105817675590515e+01 -1.631755515933036804e+01 -8.503902682219575127e-01
1.664667341113090515e+01 -1.624980613589286804e+01 -8.423488863860200127e-01
1.692413923144340515e+01 -1.620207664370536804e+01 -8.349025973235200127e-01
1.718646833300590515e+01 -1.613469383120536804e+01 -8.267544039641450127e-01
2.045929548144340515e+01 -2.304472801089286804e+01 -9.675930270110200127e-01
2.175592634081840515e+01 -2.415984031558036804e+01 -9.919918307219575127e-01
1.928619977831840515e+01 -2.061650535464286804e+01 -8.788021334563325127e-01
1.940326520800590515e+01 -2.030473777651786804e+01 -8.618343600188325127e-01
1.968475934863090515e+01 -2.019267722964286804e+01 -8.506649264250825127e-01
2.021613141894340515e+01 -2.036516258120536804e+01 -8.474148043547700127e-01
2.055963727831840515e+01 -2.030998679995536804e+01 -8.383053072844575127e-01
2.093219587206840515e+01 -2.028313133120536804e+01 -8.291652926360200127e-01
2.313727399706840515e+01 -2.646782371401786804e+01 -9.041164645110200127e-01
2.446039411425590515e+01 -2.754741355776786804e+01 -9.185665377532075127e-01
2.621539899706840515e+01 -2.910234519839286804e+01 -9.430111178313325127e-01
2.779730817675590515e+01 -3.037578269839286804e+01 -9.595211275969575127e-01
2.845270368456840515e+01 -3.050151512026786804e+01 -9.491146334563325127e-01
2.543390485644340515e+01 -2.638164207339286804e+01 -8.449733981047700127e-01
2.604755231738090515e+01 -2.651152488589286804e+01 -8.357418307219575127e-01
2.709601423144340515e+01 -2.710966941714286804e+01 -8.361233004485200127e-01
2.739960309863090515e+01 -3.191313621401786804e+01 -8.384121188078950127e-01
3.197504255175590515e+01 -3.694536277651786804e+01 -9.129818209563325127e-01
3.501190778613090515e+01 -3.988066551089286804e+01 -9.465053805266450127e-01
4.193402692675590515e+01 -4.734160301089286804e+01 -1.053286386386020013e+00
4.241901227831840515e+01 -4.692827293276786804e+01 -1.023836923495395013e+00
4.045050641894340515e+01 -4.368901512026786804e+01 -9.493892916594575127e-01
4.094623395800590515e+01 -4.334111472964286804e+01 -9.222286471282075127e-01
4.187775251269340515e+01 -4.347697898745536804e+01 -9.023464449797700127e-01
5.546649762988090515e+01 -6.772087547183036804e+01 -1.083041025057895013e+00
5.583295270800590515e+01 -6.677226707339286804e+01 -1.037936044589145013e+00
5.597846052050590515e+01 -6.556853172183036804e+01 -9.903133639250825127e-01
5.630817243456840515e+01 -6.460698387026786804e+01 -9.458645113860200127e-01
5.670123884081840515e+01 -6.374040672183036804e+01 -9.029110201750825127e-01
5.696320173144340515e+01 -6.273540183901786804e+01 -8.589351900969575127e-01
5.723834821581840515e+01 -6.175883933901786804e+01 -8.155849703703950127e-01
5.766156598925590515e+01 -6.096745750308036804e+01 -7.744320162688325127e-01
4.283771345019340515e+01 -5.166191551089286804e+01 -2.608211764250825127e-01
3.869098493456840515e+01 -4.085051414370536804e+01 -9.782679165945751265e-02
4.142621442675590515e+01 -4.988274070620536804e+01 4.099767123116748735e-02
3.867780134081840515e+01 -4.085381004214286804e+01 1.630069485749174873e-01
4.323627302050590515e+01 -5.221733543276786804e+01 3.686801663483549873e-01
4.319916364550590515e+01 -5.107768699526786804e+01 3.903629056061674873e-01
4.295416852831840515e+01 -4.971135398745536804e+01 4.099551907624174873e-01
3.866657087206840515e+01 -4.085942527651786804e+01 4.238101712311674873e-01
4.169550153613090515e+01 -5.027165672183036804e+01 6.499149075592924873e-01
4.320770856738090515e+01 -5.111125633120536804e+01 7.023898831452299873e-01
4.300910016894340515e+01 -4.980095359683036804e+01 7.174960843171049873e-01
3.804694196581840515e+01 -4.017644187808036804e+01 6.712619534577299873e-01
4.238702985644340515e+01 -5.117839500308036804e+01 9.744998684967924873e-01
4.201117536425590515e+01 -4.963506004214286804e+01 9.777499905671049873e-01
4.300726911425590515e+01 -4.982085105776786804e+01 1.022641347988979987e+00
3.790912458300590515e+01 -4.003838035464286804e+01 9.237949124421049873e-01
4.301727887988090515e+01 -5.091838523745536804e+01 1.317944692715542487e+00
4.267218610644340515e+01 -4.943181297183036804e+01 1.317212270840542487e+00
3.798578473925590515e+01 -4.014336082339286804e+01 1.184064077481167487e+00
4.209491559863090515e+01 -5.085039207339286804e+01 1.579953359707729987e+00
4.258234235644340515e+01 -5.039580222964286804e+01 1.609692739590542487e+00
4.281561872363090515e+01 -4.963005515933036804e+01 1.626553701504604987e+00
3.797174665331840515e+01 -4.014543601870536804e+01 1.441403555020229987e+00
4.271747419238090515e+01 -5.167021629214286804e+01 1.919858144863979987e+00
4.252277204394340515e+01 -5.034367820620536804e+01 1.912808584317104987e+00
3.796002790331840515e+01 -4.015007469058036804e+01 1.697400259121792487e+00
8.442327708005905151e+00 -6.450489729642868042e+00 -8.108089693938325127e-01
8.538885325193405151e+00 -6.390919417142868042e+00 -8.065975436125825127e-01
8.634466379880905151e+00 -6.329762190580368042e+00 -8.025539645110200127e-01
8.730657786130905151e+00 -6.267994612455368042e+00 -7.984646090422700127e-01
8.827093333005905151e+00 -6.206349104642868042e+00 -7.943752535735200127e-01
8.923773020505905151e+00 -6.144337385892868042e+00 -7.902706393157075127e-01
9.021185129880905151e+00 -6.081837385892868042e+00 -7.861355074797700127e-01
9.114202708005905151e+00 -6.015064924955368042e+00 -7.819545992766450127e-01
9.199407786130905151e+00 -7.288746565580368042e+00 -8.133266695891450127e-01
9.294012278318405151e+00 -7.210621565580368042e+00 -8.080623873625825127e-01
9.393255442380905151e+00 -7.137135237455368042e+00 -8.027828463469575127e-01
9.491277903318405151e+00 -7.061329573392868042e+00 -7.976711520110200127e-01
9.599065989255905151e+00 -6.995655745267868042e+00 -7.932003268157075127e-01
9.707342356443405151e+00 -6.929615706205368042e+00 -7.886989840422700127e-01
9.810980051755905151e+00 -6.857838362455368042e+00 -7.841366061125825127e-01
9.920110911130905151e+00 -6.791187971830368042e+00 -7.796047457610200127e-01
1.012653180956840515e+01 -8.315357893705368042e+00 -8.164242037688325127e-01
1.023261091113090515e+01 -8.229298323392868042e+00 -8.105648287688325127e-01
1.033881208300590515e+01 -8.143238753080368042e+00 -8.046901949797700127e-01
1.044562360644340515e+01 -8.056568831205368042e+00 -7.987850436125825127e-01
1.056488630175590515e+01 -7.982960432767868042e+00 -7.936428316985200127e-01
1.068805524706840515e+01 -7.912525862455368042e+00 -7.886684664641450127e-01
1.081220075488090515e+01 -7.841358870267868042e+00 -7.836635836516450127e-01
1.093659040331840515e+01 -7.770069807767868042e+00 -7.786434420500825127e-01
1.127838727831840515e+01 -9.590626448392868042e+00 -8.200863131438325127e-01
1.140900251269340515e+01 -9.506153792142868042e+00 -8.136928805266450127e-01
1.154010602831840515e+01 -9.421192854642868042e+00 -8.076504000578950127e-01
1.168231794238090515e+01 -9.346241682767868042e+00 -8.020962008391450127e-01
1.182489606738090515e+01 -9.271046370267868042e+00 -7.965420016203950127e-01
1.196832868456840515e+01 -9.195362776517868042e+00 -7.909572848235200127e-01
1.211310407519340515e+01 -9.119068831205368042e+00 -7.853115328703950127e-01
1.224188825488090515e+01 -9.026905745267868042e+00 -7.792385348235200127e-01
1.271063825488090515e+01 -1.117680808901786804e+01 -8.218563326750825127e-01
1.286420270800590515e+01 -1.108586570620536804e+01 -8.150966891203950127e-01
1.301862165331840515e+01 -1.099443504214286804e+01 -8.082912691985200127e-01
1.317426130175590515e+01 -1.090227195620536804e+01 -8.014248141203950127e-01
1.333002302050590515e+01 -1.080986472964286804e+01 -7.945583590422700127e-01
1.348920270800590515e+01 -1.071977683901786804e+01 -7.877834566985200127e-01
1.367438337206840515e+01 -1.065300437808036804e+01 -7.820156344328950127e-01
1.386066266894340515e+01 -1.058586570620536804e+01 -7.762172945891450127e-01
1.451862165331840515e+01 -1.317924949526786804e+01 -8.209713229094575127e-01
1.479913923144340515e+01 -1.318608543276786804e+01 -8.168514498625825127e-01
1.502606794238090515e+01 -1.313029929995536804e+01 -8.107021578703950127e-01
1.523273298144340515e+01 -1.304900047183036804e+01 -8.035000094328950127e-01
1.544037458300590515e+01 -1.296733543276786804e+01 -7.962520846282075127e-01
1.564972516894340515e+01 -1.288493797183036804e+01 -7.889583834563325127e-01
1.586151716113090515e+01 -1.280144187808036804e+01 -7.815578707610200127e-01
1.606964704394340515e+01 -1.271306297183036804e+01 -7.744777926360200127e-01
1.718744489550590515e+01 -1.613457176089286804e+01 -8.267238863860200127e-01
1.742926618456840515e+01 -1.604118797183036804e+01 -8.179348238860200127e-01
1.770929548144340515e+01 -1.598552390933036804e+01 -8.103206881438325127e-01
1.800275251269340515e+01 -1.593803855776786804e+01 -8.028743990813325127e-01
1.829926130175590515e+01 -1.589018699526786804e+01 -7.953670748625825127e-01
1.860004255175590515e+01 -1.584160301089286804e+01 -7.877529391203950127e-01
1.890619489550590515e+01 -1.579228660464286804e+01 -7.800014742766450127e-01
1.920966169238090515e+01 -1.573674461245536804e+01 -7.719906100188325127e-01
2.093317243456840515e+01 -2.028276512026786804e+01 -8.291195162688325127e-01
2.130267927050590515e+01 -2.024577781558036804e+01 -8.198269137297700127e-01
2.165619489550590515e+01 -2.018535301089286804e+01 -8.090389498625825127e-01
2.199396345019340515e+01 -2.010100242495536804e+01 -7.982052096282075127e-01
2.238910505175590515e+01 -2.007182762026786804e+01 -7.887295016203950127e-01
2.279096052050590515e+01 -2.004216453433036804e+01 -7.790859469328950127e-01
2.317743512988090515e+01 -1.998869773745536804e+01 -7.694423922453950127e-01
2.364984723925590515e+01 -2.001311179995536804e+01 -7.608364352141450127e-01
2.710199567675590515e+01 -2.711418601870536804e+01 -8.361690768157075127e-01
2.785577985644340515e+01 -2.735905906558036804e+01 -8.286770113860200127e-01
2.864069196581840515e+01 -2.761650535464286804e+01 -8.209865816985200127e-01
2.922626325488090515e+01 -2.764336082339286804e+01 -8.082149752532075127e-01
2.985639020800590515e+01 -2.770561668276786804e+01 -7.958706149016450127e-01
3.045892927050590515e+01 -2.772649070620536804e+01 -7.824276217375825127e-01
3.144989606738090515e+01 -2.811443015933036804e+01 -7.754085787688325127e-01
3.211725446581840515e+01 -2.816643211245536804e+01 -7.617519625578950127e-01
4.187994977831840515e+01 -4.347612449526786804e+01 -9.022396334563325127e-01
4.284845563769340515e+01 -4.363054344058036804e+01 -8.821895846282075127e-01
4.323309919238090515e+01 -4.314177390933036804e+01 -8.525722750578950127e-01
4.358539411425590515e+01 -4.261833640933036804e+01 -8.224819430266450127e-01
4.431122419238090515e+01 -4.248332664370536804e+01 -7.975795992766450127e-01
4.489606305956840515e+01 -4.219560691714286804e+01 -7.704799899016450127e-01
4.541547223925590515e+01 -4.183513328433036804e+01 -7.422817477141450127e-01
4.619110700488090515e+01 -4.172136375308036804e+01 -7.168758639250825127e-01
5.766156598925590515e+01 -6.096306297183036804e+01 -7.742641695891450127e-01
5.790314313769340515e+01 -5.998369285464286804e+01 -7.316768893157075127e-01
5.844989606738090515e+01 -5.934428855776786804e+01 -6.921261080657075127e-01
6.016095563769340515e+01 -5.991679832339286804e+01 -6.611049899016450127e-01
6.251801130175590515e+01 -6.110808250308036804e+01 -6.328609713469575127e-01
6.427203962206840515e+01 -6.162480613589286804e+01 -5.985439547453950127e-01
6.632074567675590515e+01 -6.238225242495536804e+01 -5.639827975188325127e-01
9.114813059568405151e+00 -6.015186995267868042e+00 -7.819698580657075127e-01
9.211736887693405151e+00 -5.951344221830368042e+00 -7.778042086516450127e-01
9.304388254880905151e+00 -5.882984846830368042e+00 -7.735927828703950127e-01
9.397772043943405151e+00 -5.814015120267868042e+00 -7.693508395110200127e-01
9.491033762693405151e+00 -5.744923323392868042e+00 -7.650936373625825127e-01
9.589178293943405151e+00 -5.679371565580368042e+00 -7.610958346282075127e-01
9.688177317380905151e+00 -5.613331526517868042e+00 -7.570675143157075127e-01
9.783758372068405151e+00 -5.543995589017868042e+00 -7.531002291594575127e-01
9.920721262693405151e+00 -6.791187971830368042e+00 -7.796047457610200127e-01
1.002887555956840515e+01 -6.722828596830368042e+00 -7.753017672453950127e-01
1.014716169238090515e+01 -6.662770003080368042e+00 -7.712276705657075127e-01
1.026154157519340515e+01 -6.597340315580368042e+00 -7.671077975188325127e-01
1.035944196581840515e+01 -6.516895979642868042e+00 -7.620266207610200127e-01
1.045160505175590515e+01 -6.430836409330368042e+00 -7.565792330657075127e-01
1.056390973925590515e+01 -6.361012190580368042e+00 -7.524898775969575127e-01
1.068915387988090515e+01 -6.301686018705368042e+00 -7.487819918547700127e-01
1.093744489550590515e+01 -7.770191878080368042e+00 -7.786434420500825127e-01
1.106464216113090515e+01 -7.700489729642868042e+00 -7.740352877532075127e-01
1.119464704394340515e+01 -7.631886214017868042e+00 -7.695034274016450127e-01
1.131867048144340515e+01 -7.556080549955368042e+00 -7.645290621672700127e-01
1.142218610644340515e+01 -7.461598128080368042e+00 -7.584865816985200127e-01
1.154865095019340515e+01 -7.386646956205368042e+00 -7.535732516203950127e-01
1.169501325488090515e+01 -7.326832503080368042e+00 -7.495144137297700127e-01
1.184235212206840515e+01 -7.266529768705368042e+00 -7.454250582610200127e-01
1.224262067675590515e+01 -9.026905745267868042e+00 -7.792385348235200127e-01
1.238031598925590515e+01 -8.942311018705368042e+00 -7.730892428313325127e-01
1.251849958300590515e+01 -8.856861799955368042e+00 -7.672909029875825127e-01
1.267243024706840515e+01 -8.783741682767868042e+00 -7.621029147063325127e-01
1.282697126269340515e+01 -8.710255354642868042e+00 -7.568844088469575127e-01
1.298297712206840515e+01 -8.636036604642868042e+00 -7.516201266203950127e-01
1.314069196581840515e+01 -8.561085432767868042e+00 -7.462948092375825127e-01
1.329059430956840515e+01 -8.478443831205368042e+00 -7.409694918547700127e-01
1.386188337206840515e+01 -1.058623191714286804e+01 -7.762325533782075127e-01
1.404266950488090515e+01 -1.051140281558036804e+01 -7.703884371672700127e-01
1.422504255175590515e+01 -1.043596336245536804e+01 -7.644832858000825127e-01
1.440985700488090515e+01 -1.035942527651786804e+01 -7.585018404875825127e-01
1.459589216113090515e+01 -1.028252097964286804e+01 -7.524898775969575127e-01
1.478351423144340515e+01 -1.020476219058036804e+01 -7.464168795500825127e-01
1.497369977831840515e+01 -1.012614890933036804e+01 -7.402675875578950127e-01
1.516510602831840515e+01 -1.004692527651786804e+01 -7.340725191985200127e-01
1.607111188769340515e+01 -1.271342918276786804e+01 -7.744777926360200127e-01
1.630927106738090515e+01 -1.265092918276786804e+01 -7.675960787688325127e-01
1.653607770800590515e+01 -1.257426902651786804e+01 -7.606533297453950127e-01
1.676618024706840515e+01 -1.249638816714286804e+01 -7.536190279875825127e-01
1.699799177050590515e+01 -1.241789695620536804e+01 -7.465084322844575127e-01
1.723248884081840515e+01 -1.233842918276786804e+01 -7.393215426360200127e-01
1.747040387988090515e+01 -1.225786277651786804e+01 -7.320431002532075127e-01
1.775897809863090515e+01 -1.221721336245536804e+01 -7.266720065032075127e-01
1.921137067675590515e+01 -1.573735496401786804e+01 -7.719753512297700127e-01
1.951178571581840515e+01 -1.567375633120536804e+01 -7.639187106047700127e-01
1.983478376269340515e+01 -1.562639304995536804e+01 -7.562587984953950127e-01
2.015167829394340515e+01 -1.556645652651786804e+01 -7.480953463469575127e-01
2.047223493456840515e+01 -1.550590965151786804e+01 -7.398403414641450127e-01
2.088629743456840515e+01 -1.552141258120536804e+01 -7.337063082610200127e-01
2.133234235644340515e+01 -1.555461570620536804e+01 -7.279232272063325127e-01
2.194318220019340515e+01 -1.571745750308036804e+01 -7.256649264250825127e-01
2.365265485644340515e+01 -2.001421043276786804e+01 -7.608364352141450127e-01
2.417902204394340515e+01 -2.007964012026786804e+01 -7.532528170500825127e-01
2.477936384081840515e+01 -2.020146629214286804e+01 -7.459743746672700127e-01
2.536554548144340515e+01 -2.029485008120536804e+01 -7.384670504485200127e-01
2.596832868456840515e+01 -2.039116355776786804e+01 -7.307613619719575127e-01
2.690021345019340515e+01 -2.076018211245536804e+01 -7.288234957610200127e-01
2.812335798144340515e+01 -2.135124656558036804e+01 -7.320125826750825127e-01
2.941718122363090515e+01 -2.196916648745536804e+01 -7.341488131438325127e-01
3.212164899706840515e+01 -2.816862937808036804e+01 -7.617367037688325127e-01
3.276996442675590515e+01 -2.818840476870536804e+01 -7.473629244719575127e-01
3.343292829394340515e+01 -2.820830222964286804e+01 -7.326687106047700127e-01
3.437811872363090515e+01 -2.846806785464286804e+01 -7.214840182219575127e-01
3.618024274706840515e+01 -2.946757957339286804e+01 -7.214992770110200127e-01
3.820282575488090515e+01 -3.060564109683036804e+01 -7.222011813078950127e-01
4.068536970019340515e+01 -3.207463523745536804e+01 -7.261074313078950127e-01
4.232550641894340515e+01 -3.276848289370536804e+01 -7.169979342375825127e-01
4.619550153613090515e+01 -4.172258445620536804e+01 -7.168148287688325127e-01
4.800372907519340515e+01 -4.256950828433036804e+01 -7.014492281828950127e-01
5.060065290331840515e+01 -4.409380027651786804e+01 -6.914852389250825127e-01
5.388751813769340515e+01 -4.616081687808036804e+01 -6.842678316985200127e-01
5.662531110644340515e+01 -4.764128562808036804e+01 -6.687801608000825127e-01
5.915961286425590515e+01 -4.886479637026786804e+01 -6.486843356047700127e-01
5.888324567675590515e+01 -4.662859031558036804e+01 -5.683773287688325127e-01
5.891742536425590515e+01 -4.667863914370536804e+01 -2.207668551360200127e-01
5.895148298144340515e+01 -4.672844383120536804e+01 1.255161038483549873e-01
9.784002512693405151e+00 -5.543751448392868042e+00 -7.530849703703950127e-01
9.882879465818405151e+00 -5.476490706205368042e+00 -7.490413912688325127e-01
9.978582590818405151e+00 -5.405811995267868042e+00 -7.450435885344575127e-01
1.007526227831840515e+01 -5.334522932767868042e+00 -7.410152682219575127e-01
1.017206403613090515e+01 -5.262989729642868042e+00 -7.369716891203950127e-01
1.026935407519340515e+01 -5.191090315580368042e+00 -7.328975924407075127e-01
1.036762067675590515e+01 -5.118458479642868042e+00 -7.287929781828950127e-01
1.046198102831840515e+01 -5.042896956205368042e+00 -7.247646578703950127e-01
1.069000837206840515e+01 -6.301808089017868042e+00 -7.487819918547700127e-01
1.080829450488090515e+01 -6.235279768705368042e+00 -7.449520358000825127e-01
1.093512555956840515e+01 -6.174244612455368042e+00 -7.411525973235200127e-01
1.105597516894340515e+01 -6.106373518705368042e+00 -7.372310885344575127e-01
1.117743512988090515e+01 -6.038136214017868042e+00 -7.332943209563325127e-01
1.128973981738090515e+01 -5.961720198392868042e+00 -7.288387545500825127e-01
1.139642927050590515e+01 -5.879566878080368042e+00 -7.243221529875825127e-01
1.152008649706840515e+01 -5.809376448392868042e+00 -7.202785738860200127e-01
1.184284040331840515e+01 -7.266407698392868042e+00 -7.454097994719575127e-01
1.198261091113090515e+01 -7.198048323392868042e+00 -7.411983736907075127e-01
1.211957380175590515e+01 -7.125782698392868042e+00 -7.367580660735200127e-01
1.225116559863090515e+01 -7.047169417142868042e+00 -7.319362887297700127e-01
1.238336774706840515e+01 -6.968067854642868042e+00 -7.271145113860200127e-01
1.251666852831840515e+01 -6.888478010892868042e+00 -7.222316988860200127e-01
1.269684430956840515e+01 -6.841358870267868042e+00 -7.192257174407075127e-01
1.290936872363090515e+01 -6.815479964017868042e+00 -7.174099215422700127e-01
1.329132673144340515e+01 -8.478321760892868042e+00 -7.409694918547700127e-01
1.345258161425590515e+01 -8.403370589017868042e+00 -7.355678805266450127e-01
1.360651227831840515e+01 -8.320484846830368042e+00 -7.301510104094575127e-01
1.376239606738090515e+01 -8.236500471830368042e+00 -7.246578463469575127e-01
1.393988630175590515e+01 -8.168141096830368042e+00 -7.199428805266450127e-01
1.419330427050590515e+01 -8.154591292142868042e+00 -7.179134615813325127e-01
1.445355817675590515e+01 -8.140553206205368042e+00 -7.158230074797700127e-01
1.499078962206840515e+01 -8.322315901517868042e+00 -7.237575777922700127e-01
1.516596052050590515e+01 -1.004680320620536804e+01 -7.340572604094575127e-01
1.535101911425590515e+01 -9.959889143705368042e+00 -7.278316744719575127e-01
1.553790876269340515e+01 -9.872120589017868042e+00 -7.215450533782075127e-01
1.588776227831840515e+01 -9.909107893705368042e+00 -7.205074557219575127e-01
1.628143903613090515e+01 -9.973072737455368042e+00 -7.205074557219575127e-01
1.675934430956840515e+01 -1.009172508120536804e+01 -7.227047213469575127e-01
1.725287458300590515e+01 -1.020988914370536804e+01 -7.247493990813325127e-01
1.773859235644340515e+01 -1.031193992495536804e+01 -7.260006197844575127e-01
1.776068708300590515e+01 -1.221757957339286804e+01 -7.266720065032075127e-01
1.820136091113090515e+01 -1.229643699526786804e+01 -7.247036227141450127e-01
1.881610700488090515e+01 -1.250468894839286804e+01 -7.276638277922700127e-01
1.922919294238090515e+01 -1.253789207339286804e+01 -7.242763766203950127e-01
1.976202985644340515e+01 -1.265556785464286804e+01 -7.236812838469575127e-01
2.048151227831840515e+01 -1.290166160464286804e+01 -7.272518404875825127e-01
2.138898298144340515e+01 -1.326762840151786804e+01 -7.345760592375825127e-01
2.238580915331840515e+01 -1.367607566714286804e+01 -7.435940035735200127e-01
2.194598981738090515e+01 -1.571855613589286804e+01 -7.256801852141450127e-01
2.247577497363090515e+01 -1.580034324526786804e+01 -7.211483248625825127e-01
2.359064313769340515e+01 -1.633916160464286804e+01 -7.290828951750825127e-01
2.486493512988090515e+01 -1.697124168276786804e+01 -7.389248141203950127e-01
2.626349470019340515e+01 -1.766533347964286804e+01 -7.497280367766450127e-01
2.809369489550590515e+01 -1.864665672183036804e+01 -7.673519381438325127e-01
3.007977887988090515e+01 -1.969072410464286804e+01 -7.854946383391450127e-01
3.182086774706840515e+01 -2.050505515933036804e+01 -7.966030367766450127e-01
2.942084333300590515e+01 -2.197063133120536804e+01 -7.341335543547700127e-01
3.129974958300590515e+01 -2.303166648745536804e+01 -7.449825533782075127e-01
3.321881696581840515e+01 -2.407048484683036804e+01 -7.530544527922700127e-01
3.534601423144340515e+01 -2.521648094058036804e+01 -7.628048190032075127e-01
3.695538923144340515e+01 -2.590568992495536804e+01 -7.622249850188325127e-01
3.802167341113090515e+01 -2.614311668276786804e+01 -7.520321139250825127e-01
3.910504743456840515e+01 -2.636687156558036804e+01 -7.420528658782075127e-01
4.030475446581840515e+01 -2.665227195620536804e+01 -7.314327486907075127e-01
4.233197614550590515e+01 -3.277141258120536804e+01 -7.169674166594575127e-01
4.351190778613090515e+01 -3.304423972964286804e+01 -7.010982760344575127e-01
4.474030134081840515e+01 -3.332793113589286804e+01 -6.845577486907075127e-01
4.611884137988090515e+01 -3.369829246401786804e+01 -6.681850680266450127e-01
4.807501813769340515e+01 -3.448296043276786804e+01 -6.558101900969575127e-01
5.267133161425590515e+01 -3.720903465151786804e+01 -6.637447604094575127e-01
5.485321637988090515e+01 -3.801689597964286804e+01 -6.471126803313325127e-01
5.474371930956840515e+01 -3.711479637026786804e+01 -6.118191012297700127e-01
5.887091657519340515e+01 -4.661491844058036804e+01 -5.681789645110200127e-01
5.767340680956840515e+01 -4.466301414370536804e+01 -5.238826998625825127e-01
5.672333356738090515e+01 -4.296428367495536804e+01 -4.828823336516450127e-01
5.604608747363090515e+01 -4.152263328433036804e+01 -4.446285494719575127e-01
5.553485700488090515e+01 -4.024773094058036804e+01 -4.084499606047700127e-01
5.518964216113090515e+01 -3.912761375308036804e+01 -3.738888033782075127e-01
5.485919782519340515e+01 -3.803935691714286804e+01 -3.401668795500825127e-01
5.474555036425590515e+01 -3.713383933901786804e+01 -3.078029879485200127e-01
5.890509626269340515e+01 -4.666496726870536804e+01 -2.206447848235200127e-01
5.769708845019340515e+01 -4.470305320620536804e+01 -1.862056979094575127e-01
5.673834821581840515e+01 -4.299638816714286804e+01 -1.534603365813325127e-01
5.606061384081840515e+01 -4.155351707339286804e+01 -1.217220553313325127e-01
5.554254743456840515e+01 -4.027251121401786804e+01 -9.102137173758251265e-02
5.519708845019340515e+01 -3.915178367495536804e+01 -6.087000455008251265e-02
5.486530134081840515e+01 -3.806206199526786804e+01 -3.142054165945751265e-02
5.474725934863090515e+01 -3.715300437808036804e+01 -2.032113925082512651e-03
5.893915387988090515e+01 -4.671477195620536804e+01 1.255618802155424873e-01
5.772064802050590515e+01 -4.474284812808036804e+01 1.500674954499174873e-01
5.675348493456840515e+01 -4.302837058901786804e+01 1.745120755280424873e-01
5.607514020800590515e+01 -4.158427879214286804e+01 1.997348538483549873e-01
5.555023786425590515e+01 -4.029729148745536804e+01 2.249271145905424873e-01
5.520453473925590515e+01 -3.917595359683036804e+01 2.506839505280424873e-01
5.487140485644340515e+01 -3.808464500308036804e+01 2.758609524811674873e-01
5.474909040331840515e+01 -3.717204734683036804e+01 3.022281399811674873e-01
6.673529645800590515e+01 -5.215947410464286804e+01 6.013309231842924873e-01
6.667023298144340515e+01 -5.102068015933036804e+01 6.316806546296049873e-01
6.720966169238090515e+01 -5.037346336245536804e+01 6.718265286530424873e-01
6.453839704394340515e+01 -4.725163719058036804e+01 6.668826809967924873e-01
6.552460309863090515e+01 -4.699492332339286804e+01 7.118808499421049873e-01
6.493219587206840515e+01 -4.555083152651786804e+01 7.357608548249174873e-01
6.414960309863090515e+01 -4.400542137026786804e+01 7.536136380280424873e-01
6.666400739550590515e+01 -5.103923484683036804e+01 1.020093130215542487e+00
6.758075544238090515e+01 -5.068925926089286804e+01 1.067670034512417487e+00
6.500385114550590515e+01 -4.763310691714286804e+01 1.046231435879604987e+00
6.406830427050590515e+01 -4.591582176089286804e+01 1.055356191738979987e+00
6.460675641894340515e+01 -4.533134910464286804e+01 1.093823598965542487e+00
6.426935407519340515e+01 -4.411320945620536804e+01 1.113766836270229987e+00
6.685211774706840515e+01 -5.230315086245536804e+01 1.384122060879604987e+00
6.796393415331840515e+01 -5.210869285464286804e+01 1.438901113613979987e+00
6.661310407519340515e+01 -4.994975730776786804e+01 1.432156728848354987e+00
6.458600446581840515e+01 -4.733256980776786804e+01 1.406506704434292487e+00
6.416925641894340515e+01 -4.601372215151786804e+01 1.420727895840542487e+00
6.388690778613090515e+01 -4.385661765933036804e+01 1.463833974942104987e+00
6.713324567675590515e+01 -5.255815574526786804e+01 1.785596059903042487e+00
6.680951520800590515e+01 -5.120329734683036804e+01 1.799878286465542487e+00
6.727301618456840515e+01 -5.049345847964286804e+01 1.838101553067104987e+00
7.283319684863090515e+01 -5.372697898745536804e+01 2.036435293301479987e+00
6.832538434863090515e+01 -4.918108054995536804e+01 1.918255972012417487e+00
6.492011091113090515e+01 -4.560637351870536804e+01 1.832074331387417487e+00
6.489728376269340515e+01 -4.461113426089286804e+01 1.853009389981167487e+00
6.719220563769340515e+01 -5.263054344058036804e+01 2.180386709317104987e+00
6.678778669238090515e+01 -5.120927879214286804e+01 2.186749624356167487e+00
6.728510114550590515e+01 -5.052629539370536804e+01 2.225888418301479987e+00
6.909393903613090515e+01 -5.086137840151786804e+01 2.313779043301479987e+00
7.442438337206840515e+01 -5.382243797183036804e+01 2.534665273770229987e+00
6.620599958300590515e+01 -4.658159324526786804e+01 2.245816396817104987e+00
6.685639020800590515e+01 -4.605534812808036804e+01 2.291928457363979987e+00
6.791278669238090515e+01 -5.213945457339286804e+01 2.624341177090542487e+00
6.828961774706840515e+01 -5.134270164370536804e+01 2.658505605801479987e+00
6.832965680956840515e+01 -5.029411765933036804e+01 2.678036855801479987e+00
6.536041852831840515e+01 -4.499004051089286804e+01 2.599774526699917487e+00
6.772211286425590515e+01 -5.200957176089286804e+01 3.009534048184292487e+00
6.807575055956840515e+01 -5.119743797183036804e+01 3.041653799160854987e+00
7.358380720019340515e+01 -5.438249656558036804e+01 3.325467275723354987e+00
6.521552106738090515e+01 -4.490605613589286804e+01 2.959607290371792487e+00
6.526105329394340515e+01 -4.496062156558036804e+01 3.328427480801479987e+00
6.445075055956840515e+01 -4.582524558901786804e+01 1.713666128262417487e+00
6.671393415331840515e+01 -4.649553367495536804e+01 1.806454824551479987e+00
6.491498395800590515e+01 -4.418376609683036804e+01 1.774853872403042487e+00
6.696820661425590515e+01 -5.204204246401786804e+01 2.083035635098354987e+00
6.687531110644340515e+01 -5.086845847964286804e+01 2.102749990567104987e+00
6.753375837206840515e+01 -5.030070945620536804e+01 2.148617910488979987e+00
7.278436872363090515e+01 -5.326079246401786804e+01 2.357983755215542487e+00
7.444391462206840515e+01 -5.336943504214286804e+01 2.441434072598354987e+00
6.503388044238090515e+01 -4.527959129214286804e+01 2.124371694668667487e+00
6.686591169238090515e+01 -4.561406394839286804e+01 2.214032339199917487e+00
7.304913923144340515e+01 -5.583781883120536804e+01 2.748639272793667487e+00
6.738202497363090515e+01 -5.020561668276786804e+01 2.536984609707729987e+00
6.825617048144340515e+01 -4.980534812808036804e+01 2.592557119473354987e+00
7.456049177050590515e+01 -5.348308250308036804e+01 2.874753164395229987e+00
6.700946637988090515e+01 -4.574016258120536804e+01 2.597043203457729987e+00
6.846088239550590515e+01 -5.107658836245536804e+01 2.979413198574917487e+00
6.948529645800590515e+01 -5.077446433901786804e+01 3.044385122403042487e+00
6.648358747363090515e+01 -4.639372703433036804e+01 2.936337637051479987e+00
6.554950544238090515e+01 -4.470769187808036804e+01 2.906964468106167487e+00
6.785260602831840515e+01 -5.172465965151786804e+01 3.333905386074917487e+00
6.836273786425590515e+01 -5.102397605776786804e+01 3.374524282559292487e+00
6.400275251269340515e+01 -4.142302390933036804e+01 3.237897085293667487e+00
6.512616559863090515e+01 -4.115507957339286804e+01 3.315442251309292487e+00
6.591998884081840515e+01 -4.501604148745536804e+01 3.700177358731167487e+00
6.664008161425590515e+01 -4.442888328433036804e+01 3.759579824551479987e+00
6.457245466113090515e+01 -4.079716941714286804e+01 3.687527822598354987e+00
6.512384626269340515e+01 -4.420244285464286804e+01 2.252988027676479987e+00
6.291290876269340515e+01 -4.149724265933036804e+01 2.209088491543667487e+00
6.319501325488090515e+01 -4.063652488589286804e+01 2.251004385098354987e+00
6.382257673144340515e+01 -4.002592918276786804e+01 2.307095693692104987e+00
6.852374860644340515e+01 -5.155925437808036804e+01 2.673184560879604987e+00
6.839703962206840515e+01 -5.022978660464286804e+01 2.701901601895229987e+00
6.502875348925590515e+01 -4.528374168276786804e+01 2.633755849942104987e+00
6.547467634081840515e+01 -4.449162742495536804e+01 2.682355093106167487e+00
6.361383649706840515e+01 -4.203300926089286804e+01 2.637219595059292487e+00
6.515045759081840515e+01 -4.205034324526786804e+01 2.729565786465542487e+00
6.347443220019340515e+01 -3.981242820620536804e+01 2.689541982754604987e+00
6.846845075488090515e+01 -5.154814597964286804e+01 3.118863271817104987e+00
6.318720075488090515e+01 -4.175285789370536804e+01 3.019131826504604987e+00
6.736456891894340515e+01 -4.364909812808036804e+01 3.242428945645229987e+00
6.468829938769340515e+01 -4.068303367495536804e+01 3.143826650723354987e+00
6.599249860644340515e+01 -4.493474265933036804e+01 3.541897939785854987e+00
6.655377790331840515e+01 -4.422050926089286804e+01 3.595563100918667487e+00
6.419891950488090515e+01 -4.143339988589286804e+01 3.496853994473354987e+00
6.443134137988090515e+01 -4.053313133120536804e+01 3.534436391934292487e+00
6.581964704394340515e+01 -4.460820457339286804e+01 3.039273428067104987e+00
6.389423200488090515e+01 -4.208769676089286804e+01 2.983243154629604987e+00
6.786945173144340515e+01 -4.381657859683036804e+01 3.194943594082729987e+00
6.460126325488090515e+01 -4.042473289370536804e+01 3.075802969082729987e+00
6.610785505175590515e+01 -4.485271140933036804e+01 3.477338003262417487e+00
6.648798200488090515e+01 -4.399504539370536804e+01 3.524014639004604987e+00
6.431195661425590515e+01 -4.132719871401786804e+01 3.440396474942104987e+00
