6.812740266323089600e+00 -7.029135942459106445e+00 -8.807759570423456807e-01
6.913082063198089600e+00 -6.979209184646606445e+00 -8.765797900501581807e-01
7.010982453823089600e+00 -6.925132036209106445e+00 -8.723531054798456807e-01
7.107662141323089600e+00 -6.868125200271606445e+00 -8.679127978626581807e-01
7.198726594448089600e+00 -6.803916215896606445e+00 -8.629689502064081807e-01
7.289913117885589600e+00 -6.739707231521606445e+00 -8.580251025501581807e-01
7.381343781948089600e+00 -6.675376176834106445e+00 -8.530659961048456807e-01
7.469722688198089600e+00 -6.607627153396606445e+00 -8.481374072376581807e-01
7.387813508510589600e+00 -7.879111528396606445e+00 -8.850484179798456807e-01
7.505001008510589600e+00 -7.835288286209106445e+00 -8.813710498157831807e-01
7.596919953823089600e+00 -7.754966020584106445e+00 -8.749928759876581807e-01
7.682369172573089600e+00 -7.665366411209106445e+00 -8.683095263782831807e-01
7.767330110073089600e+00 -7.576499223709106445e+00 -8.616719531360956807e-01
7.852046906948089600e+00 -7.487876176834106445e+00 -8.550648974720331807e-01
7.933711946010589600e+00 -7.395468950271606445e+00 -8.485036181751581807e-01
8.032466828823089600e+00 -7.326255083084106445e+00 -8.431630420032831807e-01
8.068477571010589600e+00 -8.885092973709106445e+00 -8.892140673939081807e-01
8.210445344448089600e+00 -8.855918169021606445e+00 -8.861317920032831807e-01
8.359737336635589600e+00 -8.835166215896606445e+00 -8.835377978626581807e-01
8.507930696010589600e+00 -8.809653520584106445e+00 -8.806386279407831807e-01
8.622432649135589600e+00 -8.736899614334106445e+00 -8.749318408314081807e-01
8.736934602260589600e+00 -8.664145708084106445e+00 -8.692097949329706807e-01
8.852046906948089600e+00 -8.591025590896606445e+00 -8.634724902454706807e-01
8.966915071010589600e+00 -8.518027544021606445e+00 -8.577351855579706807e-01
8.965084016323089600e+00 -1.020992207527160645e+01 -8.999104785267206807e-01
9.079708039760589600e+00 -1.011348652839660645e+01 -8.923116015735956807e-01
9.232295930385589600e+00 -1.007112812995910645e+01 -8.880238818470331807e-01
9.388668000698089600e+00 -1.003108906745910645e+01 -8.838277148548456807e-01
9.545772492885589600e+00 -9.990927934646606445e+00 -8.796162890735956807e-01
9.688350617885589600e+00 -9.929404497146606445e+00 -8.742451953235956807e-01
9.803096711635589600e+00 -9.829917192459106445e+00 -8.668446826282831807e-01
9.911617219448089600e+00 -9.723960161209106445e+00 -8.594594287220331807e-01
1.040502542257308960e+01 -1.233614277839660645e+01 -9.346700000110956807e-01
1.051757425069808960e+01 -1.219185566902160645e+01 -9.247365283314081807e-01
1.062939065694808960e+01 -1.204842305183410645e+01 -9.148793505970331807e-01
1.074096292257308960e+01 -1.190535664558410645e+01 -9.050221728626581807e-01
1.085155862569808960e+01 -1.176351094245910645e+01 -8.952718066517206807e-01
1.096154397726058960e+01 -1.162251973152160645e+01 -8.855672168079706807e-01
1.107116311788558960e+01 -1.148177266120910645e+01 -8.758778857532831807e-01
1.123009866476058960e+01 -1.140621113777160645e+01 -8.693166064564081807e-01
1.267724221944808960e+01 -1.569039082527160645e+01 -9.994588183704706807e-01
1.285888284444808960e+01 -1.557515645027160645e+01 -9.896779345814081807e-01
1.303966897726058960e+01 -1.545821309089660645e+01 -9.803548144642206807e-01
1.254491800069808960e+01 -1.440572285652160645e+01 -9.311909961048456807e-01
1.205212014913558960e+01 -1.339522480964660645e+01 -8.842702197376581807e-01
1.228246682882308960e+01 -1.338033223152160645e+01 -8.796925830189081807e-01
1.289037698507308960e+01 -1.385079121589660645e+01 -8.953328418079706807e-01
1.299987405538558960e+01 -1.366426777839660645e+01 -8.838734912220331807e-01
1.353441995382308960e+01 -1.696199727058410645e+01 -9.478535937610956807e-01
1.386925882101058960e+01 -1.704097676277160645e+01 -9.454732226673456807e-01
1.431982034444808960e+01 -1.727449727058410645e+01 -9.487080859485956807e-01
1.490246194601058960e+01 -1.767391133308410645e+01 -9.578328418079706807e-01
1.550890725851058960e+01 -1.808455586433410645e+01 -9.670644091907831807e-01
1.626952737569808960e+01 -1.867696309089660645e+01 -9.825825976673456807e-01
1.557885354757308960e+01 -1.735164570808410645e+01 -9.285664843860956807e-01
1.500036233663558960e+01 -1.621822285652160645e+01 -8.821492480579706807e-01
1.442882913351058960e+01 -1.828938984870910645e+01 -8.845296191517206807e-01
1.491308206319808960e+01 -1.855623555183410645e+01 -8.865132617298456807e-01
1.561742776632308960e+01 -1.911702656745910645e+01 -8.968739795032831807e-01
1.631713479757308960e+01 -1.964034199714660645e+01 -9.061818408314081807e-01
1.706200784444808960e+01 -2.019808125495910645e+01 -9.161458300892206807e-01
1.800280374288558960e+01 -2.098665547370910645e+01 -9.326558398548456807e-01
1.900024026632308960e+01 -2.180831074714660645e+01 -9.502339648548456807e-01
2.007055276632308960e+01 -2.268392109870910645e+01 -9.680562304798456807e-01
1.556432718038558960e+01 -1.997383809089660645e+01 -8.154225634876581807e-01
1.632287210226058960e+01 -2.060164570808410645e+01 -8.239827441517206807e-01
1.719433206319808960e+01 -2.135604023933410645e+01 -8.352589892689081807e-01
1.806811136007308960e+01 -2.207381367683410645e+01 -8.448872851673456807e-01
1.904809182882308960e+01 -2.290071797370910645e+01 -8.566365527454706807e-01
2.011327737569808960e+01 -2.379939961433410645e+01 -8.693929004017206807e-01
2.153356546163558960e+01 -2.511385273933410645e+01 -8.914418505970331807e-01
2.274792093038558960e+01 -2.610640645027160645e+01 -9.046101855579706807e-01
1.660937112569808960e+01 -2.152608418464660645e+01 -7.255330371204706807e-01
1.762499612569808960e+01 -2.249300312995910645e+01 -7.361378955189081807e-01
1.871825784444808960e+01 -2.352205586433410645e+01 -7.470784472767206807e-01
1.987633889913558960e+01 -2.458907246589660645e+01 -7.577443408314081807e-01
2.144701761007308960e+01 -2.616548848152160645e+01 -7.773366259876581807e-01
2.287572854757308960e+01 -2.748055195808410645e+01 -7.904591845814081807e-01
2.464525979757308960e+01 -2.917464375495910645e+01 -8.093037890735956807e-01
2.700732034444808960e+01 -3.154854512214660645e+01 -8.388905810657831807e-01
1.799364846944808960e+01 -2.358089375495910645e+01 -6.255879687610956807e-01
1.919005960226058960e+01 -2.476631855964660645e+01 -6.322408007923456807e-01
2.038927835226058960e+01 -2.589839863777160645e+01 -6.368794726673456807e-01
2.213671487569808960e+01 -2.773274922370910645e+01 -6.502766894642206807e-01
2.352489846944808960e+01 -2.899739766120910645e+01 -6.540150927845331807e-01
2.636278909444808960e+01 -3.212801289558410645e+01 -6.812062548939081807e-01
3.126659768819808960e+01 -3.780806660652160645e+01 -7.378621386829706807e-01
5.508044046163558960e+01 -6.736666035652160645e+01 -1.083748369151720681e+00
1.934325784444808960e+01 -2.558602070808410645e+01 -5.031819629017206807e-01
2.077245706319808960e+01 -2.706648945808410645e+01 -5.040669726673456807e-01
2.117028421163558960e+01 -2.701644062995910645e+01 -4.894643115345331807e-01
2.441552346944808960e+01 -3.090486836433410645e+01 -5.084157275501581807e-01
2.902770608663558960e+01 -3.648140645027160645e+01 -5.369344043079706807e-01
3.214379495382308960e+01 -3.982955098152160645e+01 -5.427480029407831807e-01
2.065026468038558960e+01 -2.752999043464660645e+01 -3.575063037220331807e-01
2.135668557882308960e+01 -2.792464375495910645e+01 -3.437276171985956807e-01
2.124254983663558960e+01 -2.713143086433410645e+01 -3.261189746204706807e-01
2.893737405538558960e+01 -3.719039082527160645e+01 -3.398671435657831807e-01
3.437499612569808960e+01 -4.376082539558410645e+01 -3.343129443470331807e-01
4.171911233663558960e+01 -5.146187520027160645e+01 -2.918172168079706807e-01
4.245067971944808960e+01 -5.130538105964660645e+01 -2.615132617298456807e-01
2.052111428976058960e+01 -2.735225605964660645e+01 -1.934895800892206807e-01
2.096142190694808960e+01 -2.736592793464660645e+01 -1.770558642689081807e-01
2.139660257101058960e+01 -2.736275410652160645e+01 -1.604237841907831807e-01
3.540063089132308960e+01 -4.617525410652160645e+01 -9.163716309703318075e-02
4.035387796163558960e+01 -5.190462422370910645e+01 -4.448750489390818075e-02
4.075268167257308960e+01 -5.132283711433410645e+01 -1.496174805797068075e-02
4.238085550069808960e+01 -5.123921895027160645e+01 4.907938963734181925e-02
2.102953714132308960e+01 -2.811751484870910645e+01 -2.439167969859568075e-02
2.114489358663558960e+01 -2.764449238777160645e+01 -1.067402833140818075e-02
2.132372659444808960e+01 -2.727242207527160645e+01 4.416914051404319252e-03
4.609142678976058960e+01 -6.103597187995910645e+01 3.060526562389043193e-01
2.134777444601058960e+01 -2.609249043464660645e+01 3.014323241077931925e-02
4.085143655538558960e+01 -5.147762227058410645e+01 2.928843212779668193e-01
2.338451761007308960e+01 -2.759871602058410645e+01 8.158061034046681925e-02
4.285168069601058960e+01 -5.186397480964660645e+01 3.680033398326543193e-01
2.105016702413558960e+01 -2.816146016120910645e+01 1.434397411998418193e-01
2.119799417257308960e+01 -2.773470234870910645e+01 1.572336865123418193e-01
2.204247659444808960e+01 -2.830489277839660645e+01 1.841196728404668193e-01
4.619213479757308960e+01 -6.120357441902160645e+01 6.669077587779668193e-01
2.172021096944808960e+01 -2.544026875495910645e+01 2.194895458873418193e-01
4.130968850851058960e+01 -4.991634297370910645e+01 6.492228222545293193e-01
2.129772561788558960e+01 -2.854146504402160645e+01 3.185343456920293193e-01
2.180382913351058960e+01 -2.862581562995910645e+01 3.398661328014043193e-01
3.861169046163558960e+01 -5.182906270027160645e+01 8.020090771373418193e-01
2.145409768819808960e+01 -2.686312031745910645e+01 3.475718212779668193e-01
2.138695901632308960e+01 -2.617049336433410645e+01 3.538431835826543193e-01
2.342211526632308960e+01 -2.767354512214660645e+01 4.274820995982793193e-01
4.200390237569808960e+01 -5.082662129402160645e+01 9.738688183482793193e-01
2.212108987569808960e+01 -2.909944844245910645e+01 5.232767773326543193e-01
4.023717874288558960e+01 -5.416023945808410645e+01 1.163276166981091819e+00
2.305810159444808960e+01 -2.910518574714660645e+01 5.690378857310918193e-01
3.986059182882308960e+01 -5.022688984870910645e+01 1.183448286121716819e+00
2.349962991476058960e+01 -2.778768086433410645e+01 6.035532665904668193e-01
2.098192971944808960e+01 -2.810066914558410645e+01 6.457285595592168193e-01
2.263683694601058960e+01 -2.986153340339660645e+01 7.204203320201543193e-01
2.297362893819808960e+01 -2.966731953620910645e+01 7.380289745982793193e-01
2.299157327413558960e+01 -2.902632832527160645e+01 7.428660107310918193e-01
2.256237405538558960e+01 -2.779561543464660645e+01 7.282328320201543193e-01
2.210314553976058960e+01 -2.656636738777160645e+01 7.120279980357793193e-01
2.252819436788558960e+01 -2.653169941902160645e+01 7.350687695201543193e-01
4.171142190694808960e+01 -5.049825215339660645e+01 1.579352827137341819e+00
2.220446389913558960e+01 -2.992659687995910645e+01 8.761515331920293193e-01
2.142785257101058960e+01 -2.812093281745910645e+01 8.373179150279668193e-01
3.890282815694808960e+01 -5.231392598152160645e+01 1.728888959949841819e+00
2.291125100851058960e+01 -2.892830586433410645e+01 9.159617138560918193e-01
3.985558694601058960e+01 -5.136751484870910645e+01 1.782889814442029319e+00
2.134875100851058960e+01 -2.557234883308410645e+01 8.390726757701543193e-01
2.330346292257308960e+01 -2.755745625495910645e+01 9.405131054576543193e-01
4.233398050069808960e+01 -5.131807637214660645e+01 1.919257612293591819e+00
7.470210969448089600e+00 -6.607505083084106445e+00 -8.481221484485956807e-01
7.560787141323089600e+00 -6.542319536209106445e+00 -8.431783007923456807e-01
7.648677766323089600e+00 -6.473716020584106445e+00 -8.382649707142206807e-01
7.736934602260589600e+00 -6.404746294021606445e+00 -8.333211230579706807e-01
7.812007844448089600e+00 -6.320883989334106445e+00 -8.273091601673456807e-01
7.885982453823089600e+00 -6.236167192459106445e+00 -8.212666796985956807e-01
7.972652375698089600e+00 -6.165732622146606445e+00 -8.162160205189081807e-01
8.058834016323089600e+00 -6.095298051834106445e+00 -8.114400195423456807e-01
8.032833039760589600e+00 -7.326133012771606445e+00 -8.431477832142206807e-01
8.137081086635589600e+00 -7.263388872146606445e+00 -8.385548877064081807e-01
8.256099641323089600e+00 -7.218222856521606445e+00 -8.348012255970331807e-01
8.372188508510589600e+00 -7.167685747146606445e+00 -8.309865283314081807e-01
8.488521516323089600e+00 -7.116904497146606445e+00 -8.271565722767206807e-01
8.605709016323089600e+00 -7.065879106521606445e+00 -8.233113574329706807e-01
8.716548860073089600e+00 -7.006186723709106445e+00 -8.191914843860956807e-01
8.815914094448089600e+00 -6.933554887771606445e+00 -8.139424609485956807e-01
8.967525422573089600e+00 -8.518027544021606445e+00 -8.577199267689081807e-01
9.077632844448089600e+00 -8.438803911209106445e+00 -8.519521045032831807e-01
9.187984406948089600e+00 -8.359336137771606445e+00 -8.461537646595331807e-01
9.298946321010589600e+00 -8.279624223709106445e+00 -8.403401660267206807e-01
9.409542024135589600e+00 -8.200034379959106445e+00 -8.345265673939081807e-01
9.520503938198089600e+00 -8.120322465896606445e+00 -8.287129687610956807e-01
9.631832063198089600e+00 -8.040122270584106445e+00 -8.228688525501581807e-01
9.743038117885589600e+00 -7.960166215896606445e+00 -8.170399951282831807e-01
9.912105500698089600e+00 -9.723593950271606445e+00 -8.594289111439081807e-01
1.002697366476058960e+01 -9.625937700271606445e+00 -8.520741748157831807e-01
1.015172952413558960e+01 -9.540244340896606445e+00 -8.457265185657831807e-01
1.029504007101058960e+01 -9.475547075271606445e+00 -8.404622363392206807e-01
1.043774026632308960e+01 -9.409629106521606445e+00 -8.351369189564081807e-01
1.059093850851058960e+01 -9.354575395584106445e+00 -8.303761767689081807e-01
1.074584573507308960e+01 -9.298789262771606445e+00 -8.255543994251581807e-01
1.089452737569808960e+01 -9.235312700271606445e+00 -8.207021045032831807e-01
1.123083108663558960e+01 -1.140608906745910645e+01 -8.693013476673456807e-01
1.138525003194808960e+01 -1.132381367683410645e+01 -8.627095507923456807e-01
1.154040139913558960e+01 -1.124105000495910645e+01 -8.560719775501581807e-01
1.169665139913558960e+01 -1.115779805183410645e+01 -8.494038867298456807e-01
1.185314553976058960e+01 -1.107430195808410645e+01 -8.427205371204706807e-01
1.201025003194808960e+01 -1.099056172370910645e+01 -8.360066699329706807e-01
1.216845315694808960e+01 -1.090621113777160645e+01 -8.292470263782831807e-01
1.232690042257308960e+01 -1.082161641120910645e+01 -8.224873828235956807e-01
1.300024026632308960e+01 -1.366353535652160645e+01 -8.838277148548456807e-01
1.314818948507308960e+01 -1.352767109870910645e+01 -8.738026904407831807e-01
1.331676858663558960e+01 -1.341707539558410645e+01 -8.653188037220331807e-01
1.347838968038558960e+01 -1.329634785652160645e+01 -8.563924121204706807e-01
1.363964456319808960e+01 -1.317586445808410645e+01 -8.474812793079706807e-01
1.380102151632308960e+01 -1.305525898933410645e+01 -8.385548877064081807e-01
1.396313089132308960e+01 -1.293404316902160645e+01 -8.295979785267206807e-01
1.413439553976058960e+01 -1.282356953620910645e+01 -8.215718554798456807e-01
1.500072854757308960e+01 -1.621724629402160645e+01 -8.820882129017206807e-01
1.515124124288558960e+01 -1.603292012214660645e+01 -8.701253222767206807e-01
1.546996682882308960e+01 -1.605538105964660645e+01 -8.654561328235956807e-01
1.578332132101058960e+01 -1.606343770027160645e+01 -8.601460742298456807e-01
1.600768655538558960e+01 -1.596187520027160645e+01 -8.509755420032831807e-01
1.626330178976058960e+01 -1.589412617683410645e+01 -8.429341601673456807e-01
1.654076761007308960e+01 -1.584639668464660645e+01 -8.354878711048456807e-01
1.680309671163558960e+01 -1.577901387214660645e+01 -8.273396777454706807e-01
2.007592386007308960e+01 -2.268904805183410645e+01 -9.681783007923456807e-01
2.137255471944808960e+01 -2.380416035652160645e+01 -9.925771045032831807e-01
1.890282815694808960e+01 -2.026082539558410645e+01 -8.793874072376581807e-01
1.901989358663558960e+01 -1.994905781745910645e+01 -8.624196338001581807e-01
1.930138772726058960e+01 -1.983699727058410645e+01 -8.512502002064081807e-01
1.983275979757308960e+01 -2.000948262214660645e+01 -8.480000781360956807e-01
2.017626565694808960e+01 -1.995430684089660645e+01 -8.388905810657831807e-01
2.054882425069808960e+01 -1.992745137214660645e+01 -8.297505664173456807e-01
2.275390237569808960e+01 -2.611214375495910645e+01 -9.047017382923456807e-01
2.407702249288558960e+01 -2.719173359870910645e+01 -9.191518115345331807e-01
2.583202737569808960e+01 -2.874666523933410645e+01 -9.435963916126581807e-01
2.741393655538558960e+01 -3.002010273933410645e+01 -9.601064013782831807e-01
2.806933206319808960e+01 -3.014583516120910645e+01 -9.496999072376581807e-01
2.505053323507308960e+01 -2.602596211433410645e+01 -8.455586718860956807e-01
2.566418069601058960e+01 -2.615584492683410645e+01 -8.363271045032831807e-01
2.671264261007308960e+01 -2.675398945808410645e+01 -8.367085742298456807e-01
2.701623147726058960e+01 -3.155745625495910645e+01 -8.389973925892206807e-01
3.159167093038558960e+01 -3.658968281745910645e+01 -9.135670947376581807e-01
3.462853616476058960e+01 -3.952498555183410645e+01 -9.470906543079706807e-01
4.155065530538558960e+01 -4.698592305183410645e+01 -1.053871660167345681e+00
4.203564065694808960e+01 -4.657259297370910645e+01 -1.024422197276720681e+00
4.006713479757308960e+01 -4.333333516120910645e+01 -9.499745654407831807e-01
4.056286233663558960e+01 -4.298543477058410645e+01 -9.228139209095331807e-01
4.149438089132308960e+01 -4.312129902839660645e+01 -9.029317187610956807e-01
5.508312600851058960e+01 -6.736519551277160645e+01 -1.083626298839220681e+00
5.544958108663558960e+01 -6.641658711433410645e+01 -1.038521318370470681e+00
5.559508889913558960e+01 -6.521285176277160645e+01 -9.908986377064081807e-01
5.592480081319808960e+01 -6.425130391120910645e+01 -9.464497851673456807e-01
5.631786721944808960e+01 -6.338472676277160645e+01 -9.034962939564081807e-01
5.657983011007308960e+01 -6.237972187995910645e+01 -8.595204638782831807e-01
5.685497659444808960e+01 -6.140315937995910645e+01 -8.161702441517206807e-01
5.727819436788558960e+01 -6.061177754402160645e+01 -7.750172900501581807e-01
4.245434182882308960e+01 -5.130623555183410645e+01 -2.614064502064081807e-01
3.830761331319808960e+01 -4.049483418464660645e+01 -9.841206544078318075e-02
4.104284280538558960e+01 -4.952706074714660645e+01 4.041239744984181925e-02
3.829442971944808960e+01 -4.049813008308410645e+01 1.624216747935918193e-01
4.285290139913558960e+01 -5.186165547370910645e+01 3.680948925670293193e-01
4.281579202413558960e+01 -5.072200703620910645e+01 3.897776318248418193e-01
4.257079690694808960e+01 -4.935567402839660645e+01 4.093699169810918193e-01
3.828319925069808960e+01 -4.050374531745910645e+01 4.232248974498418193e-01
4.131212991476058960e+01 -4.991597676277160645e+01 6.493296337779668193e-01
4.282433694601058960e+01 -5.075557637214660645e+01 7.018046093639043193e-01
4.262572854757308960e+01 -4.944527363777160645e+01 7.169108105357793193e-01
3.766357034444808960e+01 -3.982076191902160645e+01 6.706766796764043193e-01
4.200365823507308960e+01 -5.082271504402160645e+01 9.739145947154668193e-01
4.162780374288558960e+01 -4.927938008308410645e+01 9.771647167857793193e-01
4.262389749288558960e+01 -4.946517109870910645e+01 1.022056074207654319e+00
3.752575296163558960e+01 -3.968270039558410645e+01 9.232096386607793193e-01
4.263390725851058960e+01 -5.056270527839660645e+01 1.317359418934216819e+00
4.228881448507308960e+01 -4.907613301277160645e+01 1.316626997059216819e+00
3.760241311788558960e+01 -3.978768086433410645e+01 1.183478803699841819e+00
4.171154397726058960e+01 -5.049471211433410645e+01 1.579368085926404319e+00
4.219897073507308960e+01 -5.004012227058410645e+01 1.609107465809216819e+00
4.243224710226058960e+01 -4.927437520027160645e+01 1.625968427723279319e+00
3.758837503194808960e+01 -3.978975605964660645e+01 1.440818281238904319e+00
4.233410257101058960e+01 -5.131453633308410645e+01 1.919272871082654319e+00
4.213940042257308960e+01 -4.998799824714660645e+01 1.912223310535779319e+00
3.757665628194808960e+01 -3.979439473152160645e+01 1.696814985340466819e+00
8.058956086635589600e+00 -6.094809770584106445e+00 -8.113942431751581807e-01
8.155513703823089600e+00 -6.035239458084106445e+00 -8.071828173939081807e-01
8.251094758510589600e+00 -5.974082231521606445e+00 -8.031392382923456807e-01
8.347286164760589600e+00 -5.912314653396606445e+00 -7.990498828235956807e-01
8.443721711635589600e+00 -5.850669145584106445e+00 -7.949605273548456807e-01
8.540401399135589600e+00 -5.788657426834106445e+00 -7.908559130970331807e-01
8.637813508510589600e+00 -5.726157426834106445e+00 -7.867207812610956807e-01
8.730831086635589600e+00 -5.659384965896606445e+00 -7.825398730579706807e-01
8.816036164760589600e+00 -6.933066606521606445e+00 -8.139119433704706807e-01
8.910640656948089600e+00 -6.854941606521606445e+00 -8.086476611439081807e-01
9.009883821010589600e+00 -6.781455278396606445e+00 -8.033681201282831807e-01
9.107906281948089600e+00 -6.705649614334106445e+00 -7.982564257923456807e-01
9.215694367885589600e+00 -6.639975786209106445e+00 -7.937856005970331807e-01
9.323970735073089600e+00 -6.573935747146606445e+00 -7.892842578235956807e-01
9.427608430385589600e+00 -6.502158403396606445e+00 -7.847218798939081807e-01
9.536739289760589600e+00 -6.435508012771606445e+00 -7.801900195423456807e-01
9.743160188198089600e+00 -7.959677934646606445e+00 -8.170094775501581807e-01
9.849239289760589600e+00 -7.873618364334106445e+00 -8.111501025501581807e-01
9.955440461635589600e+00 -7.787558794021606445e+00 -8.052754687610956807e-01
1.006225198507308960e+01 -7.700888872146606445e+00 -7.993703173939081807e-01
1.018151468038558960e+01 -7.627280473709106445e+00 -7.942281054798456807e-01
1.030468362569808960e+01 -7.556845903396606445e+00 -7.892537402454706807e-01
1.042882913351058960e+01 -7.485678911209106445e+00 -7.842488574329706807e-01
1.055321878194808960e+01 -7.414389848709106445e+00 -7.792287158314081807e-01
1.089501565694808960e+01 -9.234946489334106445e+00 -8.206715869251581807e-01
1.102563089132308960e+01 -9.150473833084106445e+00 -8.142781543079706807e-01
1.115673440694808960e+01 -9.065512895584106445e+00 -8.082356738392206807e-01
1.129894632101058960e+01 -8.990561723709106445e+00 -8.026814746204706807e-01
1.144152444601058960e+01 -8.915366411209106445e+00 -7.971272754017206807e-01
1.158495706319808960e+01 -8.839682817459106445e+00 -7.915425586048456807e-01
1.172973245382308960e+01 -8.763388872146606445e+00 -7.858968066517206807e-01
1.185851663351058960e+01 -8.671225786209106445e+00 -7.798238086048456807e-01
1.232726663351058960e+01 -1.082112812995910645e+01 -8.224416064564081807e-01
1.248083108663558960e+01 -1.073018574714660645e+01 -8.156819629017206807e-01
1.263525003194808960e+01 -1.063875508308410645e+01 -8.088765429798456807e-01
1.279088968038558960e+01 -1.054659199714660645e+01 -8.020100879017206807e-01
1.294665139913558960e+01 -1.045418477058410645e+01 -7.951436328235956807e-01
1.310583108663558960e+01 -1.036409687995910645e+01 -7.883687304798456807e-01
1.329101175069808960e+01 -1.029732441902160645e+01 -7.826009082142206807e-01
1.347729104757308960e+01 -1.023018574714660645e+01 -7.768025683704706807e-01
1.413525003194808960e+01 -1.282356953620910645e+01 -8.215565966907831807e-01
1.441576761007308960e+01 -1.283040547370910645e+01 -8.174367236439081807e-01
1.464269632101058960e+01 -1.277461934089660645e+01 -8.112874316517206807e-01
1.484936136007308960e+01 -1.269332051277160645e+01 -8.040852832142206807e-01
1.505700296163558960e+01 -1.261165547370910645e+01 -7.968373584095331807e-01
1.526635354757308960e+01 -1.252925801277160645e+01 -7.895436572376581807e-01
1.547814553976058960e+01 -1.244576191902160645e+01 -7.821431445423456807e-01
1.568627542257308960e+01 -1.235738301277160645e+01 -7.750630664173456807e-01
1.680407327413558960e+01 -1.577889180183410645e+01 -8.273091601673456807e-01
1.704589456319808960e+01 -1.568550801277160645e+01 -8.185200976673456807e-01
1.732592386007308960e+01 -1.562984395027160645e+01 -8.109059619251581807e-01
1.761938089132308960e+01 -1.558235859870910645e+01 -8.034596728626581807e-01
1.791588968038558960e+01 -1.553450703620910645e+01 -7.959523486439081807e-01
1.821667093038558960e+01 -1.548592305183410645e+01 -7.883382129017206807e-01
1.852282327413558960e+01 -1.543660664558410645e+01 -7.805867480579706807e-01
1.882629007101058960e+01 -1.538106465339660645e+01 -7.725758838001581807e-01
2.054980081319808960e+01 -1.992708516120910645e+01 -8.297047900501581807e-01
2.091930764913558960e+01 -1.989009785652160645e+01 -8.204121875110956807e-01
2.127282327413558960e+01 -1.982967305183410645e+01 -8.096242236439081807e-01
2.161059182882308960e+01 -1.974532246589660645e+01 -7.987904834095331807e-01
2.200573343038558960e+01 -1.971614766120910645e+01 -7.893147754017206807e-01
2.240758889913558960e+01 -1.968648457527160645e+01 -7.796712207142206807e-01
2.279406350851058960e+01 -1.963301777839660645e+01 -7.700276660267206807e-01
2.326647561788558960e+01 -1.965743184089660645e+01 -7.614217089954706807e-01
2.671862405538558960e+01 -2.675850605964660645e+01 -8.367543505970331807e-01
2.747240823507308960e+01 -2.700337910652160645e+01 -8.292622851673456807e-01
2.825732034444808960e+01 -2.726082539558410645e+01 -8.215718554798456807e-01
2.884289163351058960e+01 -2.728768086433410645e+01 -8.088002490345331807e-01
2.947301858663558960e+01 -2.734993672370910645e+01 -7.964558886829706807e-01
3.007555764913558960e+01 -2.737081074714660645e+01 -7.830128955189081807e-01
3.106652444601058960e+01 -2.775875020027160645e+01 -7.759938525501581807e-01
3.173388284444808960e+01 -2.781075215339660645e+01 -7.623372363392206807e-01
4.149657815694808960e+01 -4.312044453620910645e+01 -9.028249072376581807e-01
4.246508401632308960e+01 -4.327486348152160645e+01 -8.827748584095331807e-01
4.284972757101058960e+01 -4.278609395027160645e+01 -8.531575488392206807e-01
4.320202249288558960e+01 -4.226265645027160645e+01 -8.230672168079706807e-01
4.392785257101058960e+01 -4.212764668464660645e+01 -7.981648730579706807e-01
4.451269143819808960e+01 -4.183992695808410645e+01 -7.710652636829706807e-01
4.503210061788558960e+01 -4.147945332527160645e+01 -7.428670214954706807e-01
4.580773538351058960e+01 -4.136568379402160645e+01 -7.174611377064081807e-01
5.727819436788558960e+01 -6.060738301277160645e+01 -7.748494433704706807e-01
5.751977151632308960e+01 -5.962801289558410645e+01 -7.322621630970331807e-01
5.806652444601058960e+01 -5.898860859870910645e+01 -6.927113818470331807e-01
5.977758401632308960e+01 -5.956111836433410645e+01 -6.616902636829706807e-01
6.213463968038558960e+01 -6.075240254402160645e+01 -6.334462451282831807e-01
6.388866800069808960e+01 -6.126912617683410645e+01 -5.991292285267206807e-01
6.593737405538558960e+01 -6.202657246589660645e+01 -5.645680713001581807e-01
8.731441438198089600e+00 -5.659507036209106445e+00 -7.825551318470331807e-01
8.828365266323089600e+00 -5.595664262771606445e+00 -7.783894824329706807e-01
8.921016633510589600e+00 -5.527304887771606445e+00 -7.741780566517206807e-01
9.014400422573089600e+00 -5.458335161209106445e+00 -7.699361132923456807e-01
9.107662141323089600e+00 -5.389243364334106445e+00 -7.656789111439081807e-01
9.205806672573089600e+00 -5.323691606521606445e+00 -7.616811084095331807e-01
9.304805696010589600e+00 -5.257651567459106445e+00 -7.576527880970331807e-01
9.400386750698089600e+00 -5.188315629959106445e+00 -7.536855029407831807e-01
9.537349641323089600e+00 -6.435508012771606445e+00 -7.801900195423456807e-01
9.645503938198089600e+00 -6.367148637771606445e+00 -7.758870410267206807e-01
9.763790071010589600e+00 -6.307090044021606445e+00 -7.718129443470331807e-01
9.878169953823089600e+00 -6.241660356521606445e+00 -7.676930713001581807e-01
9.976070344448089600e+00 -6.161216020584106445e+00 -7.626118945423456807e-01
1.006823343038558960e+01 -6.075156450271606445e+00 -7.571645068470331807e-01
1.018053811788558960e+01 -6.005332231521606445e+00 -7.530751513782831807e-01
1.030578225851058960e+01 -5.946006059646606445e+00 -7.493672656360956807e-01
1.055407327413558960e+01 -7.414511919021606445e+00 -7.792287158314081807e-01
1.068127053976058960e+01 -7.344809770584106445e+00 -7.746205615345331807e-01
1.081127542257308960e+01 -7.276206254959106445e+00 -7.700887011829706807e-01
1.093529886007308960e+01 -7.200400590896606445e+00 -7.651143359485956807e-01
1.103881448507308960e+01 -7.105918169021606445e+00 -7.590718554798456807e-01
1.116527932882308960e+01 -7.030966997146606445e+00 -7.541585254017206807e-01
1.131164163351058960e+01 -6.971152544021606445e+00 -7.500996875110956807e-01
1.145898050069808960e+01 -6.910849809646606445e+00 -7.460103320423456807e-01
1.185924905538558960e+01 -8.671225786209106445e+00 -7.798238086048456807e-01
1.199694436788558960e+01 -8.586631059646606445e+00 -7.736745166126581807e-01
1.213512796163558960e+01 -8.501181840896606445e+00 -7.678761767689081807e-01
1.228905862569808960e+01 -8.428061723709106445e+00 -7.626881884876581807e-01
1.244359964132308960e+01 -8.354575395584106445e+00 -7.574696826282831807e-01
1.259960550069808960e+01 -8.280356645584106445e+00 -7.522054004017206807e-01
1.275732034444808960e+01 -8.205405473709106445e+00 -7.468800830189081807e-01
1.290722268819808960e+01 -8.122763872146606445e+00 -7.415547656360956807e-01
1.347851175069808960e+01 -1.023055195808410645e+01 -7.768178271595331807e-01
1.365929788351058960e+01 -1.015572285652160645e+01 -7.709737109485956807e-01
1.384167093038558960e+01 -1.008028340339660645e+01 -7.650685595814081807e-01
1.402648538351058960e+01 -1.000374531745910645e+01 -7.590871142689081807e-01
1.421252053976058960e+01 -9.926841020584106445e+00 -7.530751513782831807e-01
1.440014261007308960e+01 -9.849082231521606445e+00 -7.470021533314081807e-01
1.459032815694808960e+01 -9.770468950271606445e+00 -7.408528613392206807e-01
1.478173440694808960e+01 -9.691245317459106445e+00 -7.346577929798456807e-01
1.568774026632308960e+01 -1.235774922370910645e+01 -7.750630664173456807e-01
1.592589944601058960e+01 -1.229524922370910645e+01 -7.681813525501581807e-01
1.615270608663558960e+01 -1.221858906745910645e+01 -7.612386035267206807e-01
1.638280862569808960e+01 -1.214070820808410645e+01 -7.542043017689081807e-01
1.661462014913558960e+01 -1.206221699714660645e+01 -7.470937060657831807e-01
1.684911721944808960e+01 -1.198274922370910645e+01 -7.399068164173456807e-01
1.708703225851058960e+01 -1.190218281745910645e+01 -7.326283740345331807e-01
1.737560647726058960e+01 -1.186153340339660645e+01 -7.272572802845331807e-01
1.882799905538558960e+01 -1.538167500495910645e+01 -7.725606250110956807e-01
1.912841409444808960e+01 -1.531807637214660645e+01 -7.645039843860956807e-01
1.945141214132308960e+01 -1.527071309089660645e+01 -7.568440722767206807e-01
1.976830667257308960e+01 -1.521077656745910645e+01 -7.486806201282831807e-01
2.008886331319808960e+01 -1.515022969245910645e+01 -7.404256152454706807e-01
2.050292581319808960e+01 -1.516573262214660645e+01 -7.342915820423456807e-01
2.094897073507308960e+01 -1.519893574714660645e+01 -7.285085009876581807e-01
2.155981057882308960e+01 -1.536177754402160645e+01 -7.262502002064081807e-01
2.326928323507308960e+01 -1.965853047370910645e+01 -7.614217089954706807e-01
2.379565042257308960e+01 -1.972396016120910645e+01 -7.538380908314081807e-01
2.439599221944808960e+01 -1.984578633308410645e+01 -7.465596484485956807e-01
2.498217386007308960e+01 -1.993917012214660645e+01 -7.390523242298456807e-01
2.558495706319808960e+01 -2.003548359870910645e+01 -7.313466357532831807e-01
2.651684182882308960e+01 -2.040450215339660645e+01 -7.294087695423456807e-01
2.773998636007308960e+01 -2.099556660652160645e+01 -7.325978564564081807e-01
2.903380960226058960e+01 -2.161348652839660645e+01 -7.347340869251581807e-01
3.173827737569808960e+01 -2.781294941902160645e+01 -7.623219775501581807e-01
3.238659280538558960e+01 -2.783272480964660645e+01 -7.479481982532831807e-01
3.304955667257308960e+01 -2.785262227058410645e+01 -7.332539843860956807e-01
3.399474710226058960e+01 -2.811238789558410645e+01 -7.220692920032831807e-01
3.579687112569808960e+01 -2.911189961433410645e+01 -7.220845507923456807e-01
3.781945413351058960e+01 -3.024996113777160645e+01 -7.227864550892206807e-01
4.030199807882308960e+01 -3.171895527839660645e+01 -7.266927050892206807e-01
4.194213479757308960e+01 -3.241280293464660645e+01 -7.175832080189081807e-01
4.581212991476058960e+01 -4.136690449714660645e+01 -7.174001025501581807e-01
4.762035745382308960e+01 -4.221382832527160645e+01 -7.020345019642206807e-01
5.021728128194808960e+01 -4.373812031745910645e+01 -6.920705127064081807e-01
5.350414651632308960e+01 -4.580513691902160645e+01 -6.848531054798456807e-01
5.624193948507308960e+01 -4.728560566902160645e+01 -6.693654345814081807e-01
5.877624124288558960e+01 -4.850911641120910645e+01 -6.492696093860956807e-01
5.849987405538558960e+01 -4.627291035652160645e+01 -5.689626025501581807e-01
5.853405374288558960e+01 -4.632295918464660645e+01 -2.213521289173456807e-01
5.856811136007308960e+01 -4.637276387214660645e+01 1.249308300670293193e-01
9.400630891323089600e+00 -5.188071489334106445e+00 -7.536702441517206807e-01
9.499507844448089600e+00 -5.120810747146606445e+00 -7.496266650501581807e-01
9.595210969448089600e+00 -5.050132036209106445e+00 -7.456288623157831807e-01
9.691890656948089600e+00 -4.978842973709106445e+00 -7.416005420032831807e-01
9.788692414760589600e+00 -4.907309770584106445e+00 -7.375569629017206807e-01
9.885982453823089600e+00 -4.835410356521606445e+00 -7.334828662220331807e-01
9.984249055385589600e+00 -4.762778520584106445e+00 -7.293782519642206807e-01
1.007860940694808960e+01 -4.687216997146606445e+00 -7.253499316517206807e-01
1.030663675069808960e+01 -5.946128129959106445e+00 -7.493672656360956807e-01
1.042492288351058960e+01 -5.879599809646606445e+00 -7.455373095814081807e-01
1.055175393819808960e+01 -5.818564653396606445e+00 -7.417378711048456807e-01
1.067260354757308960e+01 -5.750693559646606445e+00 -7.378163623157831807e-01
1.079406350851058960e+01 -5.682456254959106445e+00 -7.338795947376581807e-01
1.090636819601058960e+01 -5.606040239334106445e+00 -7.294240283314081807e-01
1.101305764913558960e+01 -5.523886919021606445e+00 -7.249074267689081807e-01
1.113671487569808960e+01 -5.453696489334106445e+00 -7.208638476673456807e-01
1.145946878194808960e+01 -6.910727739334106445e+00 -7.459950732532831807e-01
1.159923928976058960e+01 -6.842368364334106445e+00 -7.417836474720331807e-01
1.173620218038558960e+01 -6.770102739334106445e+00 -7.373433398548456807e-01
1.186779397726058960e+01 -6.691489458084106445e+00 -7.325215625110956807e-01
1.199999612569808960e+01 -6.612387895584106445e+00 -7.276997851673456807e-01
1.213329690694808960e+01 -6.532798051834106445e+00 -7.228169726673456807e-01
1.231347268819808960e+01 -6.485678911209106445e+00 -7.198109912220331807e-01
1.252599710226058960e+01 -6.459800004959106445e+00 -7.179951953235956807e-01
1.290795511007308960e+01 -8.122641801834106445e+00 -7.415547656360956807e-01
1.306920999288558960e+01 -8.047690629959106445e+00 -7.361531543079706807e-01
1.322314065694808960e+01 -7.964804887771606445e+00 -7.307362841907831807e-01
1.337902444601058960e+01 -7.880820512771606445e+00 -7.252431201282831807e-01
1.355651468038558960e+01 -7.812461137771606445e+00 -7.205281543079706807e-01
1.380993264913558960e+01 -7.798911333084106445e+00 -7.184987353626581807e-01
1.407018655538558960e+01 -7.784873247146606445e+00 -7.164082812610956807e-01
1.460741800069808960e+01 -7.966635942459106445e+00 -7.243428515735956807e-01
1.478258889913558960e+01 -9.691123247146606445e+00 -7.346425341907831807e-01
1.496764749288558960e+01 -9.604209184646606445e+00 -7.284169482532831807e-01
1.515453714132308960e+01 -9.516440629959106445e+00 -7.221303271595331807e-01
1.550439065694808960e+01 -9.553427934646606445e+00 -7.210927295032831807e-01
1.589806741476058960e+01 -9.617392778396606445e+00 -7.210927295032831807e-01
1.637597268819808960e+01 -9.736045122146606445e+00 -7.232899951282831807e-01
1.686950296163558960e+01 -9.854209184646606445e+00 -7.253346728626581807e-01
1.735522073507308960e+01 -9.956259965896606445e+00 -7.265858935657831807e-01
1.737731546163558960e+01 -1.186189961433410645e+01 -7.272572802845331807e-01
1.781798928976058960e+01 -1.194075703620910645e+01 -7.252888964954706807e-01
1.843273538351058960e+01 -1.214900898933410645e+01 -7.282491015735956807e-01
1.884582132101058960e+01 -1.218221211433410645e+01 -7.248616504017206807e-01
1.937865823507308960e+01 -1.229988789558410645e+01 -7.242665576282831807e-01
2.009814065694808960e+01 -1.254598164558410645e+01 -7.278371142689081807e-01
2.100561136007308960e+01 -1.291194844245910645e+01 -7.351613330189081807e-01
2.200243753194808960e+01 -1.332039570808410645e+01 -7.441792773548456807e-01
2.156261819601058960e+01 -1.536287617683410645e+01 -7.262654589954706807e-01
2.209240335226058960e+01 -1.544466328620910645e+01 -7.217335986439081807e-01
2.320727151632308960e+01 -1.598348164558410645e+01 -7.296681689564081807e-01
2.448156350851058960e+01 -1.661556172370910645e+01 -7.395100879017206807e-01
2.588012307882308960e+01 -1.730965352058410645e+01 -7.503133105579706807e-01
2.771032327413558960e+01 -1.829097676277160645e+01 -7.679372119251581807e-01
2.969640725851058960e+01 -1.933504414558410645e+01 -7.860799121204706807e-01
3.143749612569808960e+01 -2.014937520027160645e+01 -7.971883105579706807e-01
2.903747171163558960e+01 -2.161495137214660645e+01 -7.347188281360956807e-01
3.091637796163558960e+01 -2.267598652839660645e+01 -7.455678271595331807e-01
3.283544534444808960e+01 -2.371480488777160645e+01 -7.536397265735956807e-01
3.496264261007308960e+01 -2.486080098152160645e+01 -7.633900927845331807e-01
3.657201761007308960e+01 -2.555000996589660645e+01 -7.628102588001581807e-01
3.763830178976058960e+01 -2.578743672370910645e+01 -7.526173877064081807e-01
3.872167581319808960e+01 -2.601119160652160645e+01 -7.426381396595331807e-01
3.992138284444808960e+01 -2.629659199714660645e+01 -7.320180224720331807e-01
4.194860452413558960e+01 -3.241573262214660645e+01 -7.175526904407831807e-01
4.312853616476058960e+01 -3.268855977058410645e+01 -7.016835498157831807e-01
4.435692971944808960e+01 -3.297225117683410645e+01 -6.851430224720331807e-01
4.573546975851058960e+01 -3.334261250495910645e+01 -6.687703418079706807e-01
4.769164651632308960e+01 -3.412728047370910645e+01 -6.563954638782831807e-01
5.228795999288558960e+01 -3.685335469245910645e+01 -6.643300341907831807e-01
5.446984475851058960e+01 -3.766121602058410645e+01 -6.476979541126581807e-01
5.436034768819808960e+01 -3.675911641120910645e+01 -6.124043750110956807e-01
5.848754495382308960e+01 -4.625923848152160645e+01 -5.687642382923456807e-01
5.729003518819808960e+01 -4.430733418464660645e+01 -5.244679736439081807e-01
5.633996194601058960e+01 -4.260860371589660645e+01 -4.834676074329706807e-01
5.566271585226058960e+01 -4.116695332527160645e+01 -4.452138232532831807e-01
5.515148538351058960e+01 -3.989205098152160645e+01 -4.090352343860956807e-01
5.480627053976058960e+01 -3.877193379402160645e+01 -3.744740771595331807e-01
5.447582620382308960e+01 -3.768367695808410645e+01 -3.407521533314081807e-01
5.436217874288558960e+01 -3.677815937995910645e+01 -3.083882617298456807e-01
5.852172464132308960e+01 -4.630928730964660645e+01 -2.212300586048456807e-01
5.731371682882308960e+01 -4.434737324714660645e+01 -1.867909716907831807e-01
5.635497659444808960e+01 -4.264070820808410645e+01 -1.540456103626581807e-01
5.567724221944808960e+01 -4.119783711433410645e+01 -1.223073291126581807e-01
5.515917581319808960e+01 -3.991683125495910645e+01 -9.160664551890818075e-02
5.481371682882308960e+01 -3.879610371589660645e+01 -6.145527833140818075e-02
5.448192971944808960e+01 -3.770638203620910645e+01 -3.200581544078318075e-02
5.436388772726058960e+01 -3.679732441902160645e+01 -2.617387706408180748e-03
5.855578225851058960e+01 -4.635909199714660645e+01 1.249766064342168193e-01
5.733727639913558960e+01 -4.438716816902160645e+01 1.494822216685918193e-01
5.637011331319808960e+01 -4.267269062995910645e+01 1.739268017467168193e-01
5.569176858663558960e+01 -4.122859883308410645e+01 1.991495800670293193e-01
5.516686624288558960e+01 -3.994161152839660645e+01 2.243418408092168193e-01
5.482116311788558960e+01 -3.882027363777160645e+01 2.500986767467168193e-01
5.448803323507308960e+01 -3.772896504402160645e+01 2.752756786998418193e-01
5.436571878194808960e+01 -3.681636738777160645e+01 3.016428661998418193e-01
6.635192483663558960e+01 -5.180379414558410645e+01 6.007456494029668193e-01
6.628686136007308960e+01 -5.066500020027160645e+01 6.310953808482793193e-01
6.682629007101058960e+01 -5.001778340339660645e+01 6.712412548717168193e-01
6.415502542257308960e+01 -4.689595723152160645e+01 6.662974072154668193e-01
6.514123147726058960e+01 -4.663924336433410645e+01 7.112955761607793193e-01
6.454882425069808960e+01 -4.519515156745910645e+01 7.351755810435918193e-01
6.376623147726058960e+01 -4.364974141120910645e+01 7.530283642467168193e-01
6.628063577413558960e+01 -5.068355488777160645e+01 1.019507856434216819e+00
6.719738382101058960e+01 -5.033357930183410645e+01 1.067084760731091819e+00
6.462047952413558960e+01 -4.727742695808410645e+01 1.045646162098279319e+00
6.368493264913558960e+01 -4.556014180183410645e+01 1.054770917957654319e+00
6.422338479757308960e+01 -4.497566914558410645e+01 1.093238325184216819e+00
6.388598245382308960e+01 -4.375752949714660645e+01 1.113181562488904319e+00
6.646874612569808960e+01 -5.194747090339660645e+01 1.383536787098279319e+00
6.758056253194808960e+01 -5.175301289558410645e+01 1.438315839832654319e+00
6.622973245382308960e+01 -4.959407734870910645e+01 1.431571455067029319e+00
6.420263284444808960e+01 -4.697688984870910645e+01 1.405921430652966819e+00
6.378588479757308960e+01 -4.565804219245910645e+01 1.420142622059216819e+00
6.350353616476058960e+01 -4.350093770027160645e+01 1.463248701160779319e+00
6.674987405538558960e+01 -5.220247578620910645e+01 1.785010786121716819e+00
6.642614358663558960e+01 -5.084761738777160645e+01 1.799293012684216819e+00
6.688964456319808960e+01 -5.013777852058410645e+01 1.837516279285779319e+00
7.244982522726058960e+01 -5.337129902839660645e+01 2.035850019520154319e+00
6.794201272726058960e+01 -4.882540059089660645e+01 1.917670698231091819e+00
6.453673928976058960e+01 -4.525069355964660645e+01 1.831489057606091819e+00
6.451391214132308960e+01 -4.425545430183410645e+01 1.852424116199841819e+00
6.680883401632308960e+01 -5.227486348152160645e+01 2.179801435535779319e+00
6.640441507101058960e+01 -5.085359883308410645e+01 2.186164350574841819e+00
6.690172952413558960e+01 -5.017061543464660645e+01 2.225303144520154319e+00
6.871056741476058960e+01 -5.050569844245910645e+01 2.313193769520154319e+00
7.404101175069808960e+01 -5.346675801277160645e+01 2.534079999988904319e+00
6.582262796163558960e+01 -4.622591328620910645e+01 2.245231123035779319e+00
6.647301858663558960e+01 -4.569966816902160645e+01 2.291343183582654319e+00
6.752941507101058960e+01 -5.178377461433410645e+01 2.623755903309216819e+00
6.790624612569808960e+01 -5.098702168464660645e+01 2.657920332020154319e+00
6.794628518819808960e+01 -4.993843770027160645e+01 2.677451582020154319e+00
6.497704690694808960e+01 -4.463436055183410645e+01 2.599189252918591819e+00
6.733874124288558960e+01 -5.165389180183410645e+01 3.008948774402966819e+00
6.769237893819808960e+01 -5.084175801277160645e+01 3.041068525379529319e+00
7.320043557882308960e+01 -5.402681660652160645e+01 3.324882001942029319e+00
6.483214944601058960e+01 -4.455037617683410645e+01 2.959022016590466819e+00
6.487768167257308960e+01 -4.460494160652160645e+01 3.327842207020154319e+00
6.406737893819808960e+01 -4.546956562995910645e+01 1.713080854481091819e+00
6.633056253194808960e+01 -4.613985371589660645e+01 1.805869550770154319e+00
6.453161233663558960e+01 -4.382808613777160645e+01 1.774268598621716819e+00
6.658483499288558960e+01 -5.168636250495910645e+01 2.082450361317029319e+00
6.649193948507308960e+01 -5.051277852058410645e+01 2.102164716785779319e+00
6.715038675069808960e+01 -4.994502949714660645e+01 2.148032636707654319e+00
7.240099710226058960e+01 -5.290511250495910645e+01 2.357398481434216819e+00
7.406054300069808960e+01 -5.301375508308410645e+01 2.440848798817029319e+00
6.465050882101058960e+01 -4.492391133308410645e+01 2.123786420887341819e+00
6.648254007101058960e+01 -4.525838398933410645e+01 2.213447065418591819e+00
7.266576761007308960e+01 -5.548213887214660645e+01 2.748053999012341819e+00
6.699865335226058960e+01 -4.984993672370910645e+01 2.536399335926404319e+00
6.787279886007308960e+01 -4.944966816902160645e+01 2.591971845692029319e+00
7.417712014913558960e+01 -5.312740254402160645e+01 2.874167890613904319e+00
6.662609475851058960e+01 -4.538448262214660645e+01 2.596457929676404319e+00
6.807751077413558960e+01 -5.072090840339660645e+01 2.978827924793591819e+00
6.910192483663558960e+01 -5.041878437995910645e+01 3.043799848621716819e+00
6.610021585226058960e+01 -4.603804707527160645e+01 2.935752363270154319e+00
6.516613382101058960e+01 -4.435201191902160645e+01 2.906379194324841819e+00
6.746923440694808960e+01 -5.136897969245910645e+01 3.333320112293591819e+00
6.797936624288558960e+01 -5.066829609870910645e+01 3.373939008777966819e+00
6.361938089132308960e+01 -4.106734395027160645e+01 3.237311811512341819e+00
6.474279397726058960e+01 -4.079939961433410645e+01 3.314856977527966819e+00
6.553661721944808960e+01 -4.466036152839660645e+01 3.699592084949841819e+00
6.625670999288558960e+01 -4.407320332527160645e+01 3.758994550770154319e+00
6.418908303976058960e+01 -4.044148945808410645e+01 3.686942548817029319e+00
6.474047464132308960e+01 -4.384676289558410645e+01 2.252402753895154319e+00
6.252953714132308960e+01 -4.114156270027160645e+01 2.208503217762341819e+00
6.281164163351058960e+01 -4.028084492683410645e+01 2.250419111317029319e+00
6.343920511007308960e+01 -3.967024922370910645e+01 2.306510419910779319e+00
6.814037698507308960e+01 -5.120357441902160645e+01 2.672599287098279319e+00
6.801366800069808960e+01 -4.987410664558410645e+01 2.701316328113904319e+00
6.464538186788558960e+01 -4.492806172370910645e+01 2.633170576160779319e+00
6.509130471944808960e+01 -4.413594746589660645e+01 2.681769819324841819e+00
6.323046487569808960e+01 -4.167732930183410645e+01 2.636634321277966819e+00
6.476708596944808960e+01 -4.169466328620910645e+01 2.728980512684216819e+00
6.309106057882308960e+01 -3.945674824714660645e+01 2.688956708973279319e+00
6.808507913351058960e+01 -5.119246602058410645e+01 3.118277998035779319e+00
6.280382913351058960e+01 -4.139717793464660645e+01 3.018546552723279319e+00
6.698119729757308960e+01 -4.329341816902160645e+01 3.241843671863904319e+00
6.430492776632308960e+01 -4.032735371589660645e+01 3.143241376942029319e+00
6.560912698507308960e+01 -4.457906270027160645e+01 3.541312666004529319e+00
6.617040628194808960e+01 -4.386482930183410645e+01 3.594977827137341819e+00
6.381554788351058960e+01 -4.107771992683410645e+01 3.496268720692029319e+00
6.404796975851058960e+01 -4.017745137214660645e+01 3.533851118152966819e+00
6.543627542257308960e+01 -4.425252461433410645e+01 3.038688154285779319e+00
6.351086038351058960e+01 -4.173201680183410645e+01 2.982657880848279319e+00
6.748608011007308960e+01 -4.346089863777160645e+01 3.194358320301404319e+00
6.421789163351058960e+01 -4.006905293464660645e+01 3.075217695301404319e+00
6.572448343038558960e+01 -4.449703145027160645e+01 3.476752729481091819e+00
6.610461038351058960e+01 -4.363936543464660645e+01 3.523429365223279319e+00
6.392858499288558960e+01 -4.097151875495910645e+01 3.439811201160779319e+00
