7.211380153894424438e+00 -7.524307489395141602e+00 -8.808470613672341187e-01
7.304886013269424438e+00 -7.462295770645141602e+00 -8.761015779687966187e-01
7.395340114831924438e+00 -7.395645380020141602e+00 -8.713103182031716187e-01
7.486038357019424438e+00 -7.328872919082641602e+00 -8.665037996484841187e-01
7.576492458581924438e+00 -7.262222528457641602e+00 -8.617125398828591187e-01
7.666824489831924438e+00 -7.195572137832641602e+00 -8.569212801172341187e-01
7.757400661706924438e+00 -7.128799676895141602e+00 -8.521147615625466187e-01
7.844314724206924438e+00 -7.057876825332641602e+00 -8.472929842187966187e-01
7.843826442956924438e+00 -8.469009637832641602e+00 -8.896971590234841187e-01
7.939651638269424438e+00 -8.390518426895141602e+00 -8.840971834375466187e-01
8.043289333581924438e+00 -8.323257684707641602e+00 -8.789091951562966187e-01
8.140213161706924438e+00 -8.245620965957641602e+00 -8.733702547266091187e-01
8.237381130456924438e+00 -8.169327020645141602e+00 -8.679076082422341187e-01
8.334549099206924438e+00 -8.093155145645141602e+00 -8.624602205469216187e-01
8.428665310144424438e+00 -8.012466669082641602e+00 -8.570280916406716187e-01
8.525711208581924438e+00 -7.936538934707641602e+00 -8.515807039453591187e-01
8.622635036706924438e+00 -9.632461786270141602e+00 -9.009581453516091187e-01
8.704544216394424438e+00 -9.509048700332641602e+00 -8.926421053125466187e-01
8.734085232019424438e+00 -9.312515497207641602e+00 -8.800383455469216187e-01
8.868362575769424438e+00 -9.266494989395141602e+00 -8.762846834375466187e-01
8.979202419519424438e+00 -9.187637567520141602e+00 -8.705931551172341187e-01
9.102249294519424438e+00 -9.125259637832641602e+00 -8.658781892969216187e-01
9.220535427331924438e+00 -9.055069208145141602e+00 -8.606902010156716187e-01
9.338089138269424438e+00 -8.984390497207641602e+00 -8.554869539453591187e-01
9.553299099206924438e+00 -1.102296471595764160e+01 -9.117918855859841187e-01
9.653396755456924438e+00 -1.089649987220764160e+01 -9.029875642969216187e-01
9.749710232019424438e+00 -1.076637291908264160e+01 -8.943816072656716187e-01
9.845901638269424438e+00 -1.063661217689514160e+01 -8.858061678125466187e-01
9.959549099206924438e+00 -1.053334069252014160e+01 -8.786345369531716187e-01
1.012690749764442444e+01 -1.050245690345764160e+01 -8.752928621484841187e-01
1.025032058358192444e+01 -1.041078209877014160e+01 -8.687315828516091187e-01
1.036726394295692444e+01 -1.031166100502014160e+01 -8.621550447656716187e-01
1.178376784920692444e+01 -1.435096764564514160e+01 -9.994994051172341187e-01
1.125691238045692444e+01 -1.323988366127014160e+01 -9.438048250391091187e-01
1.078645339608192444e+01 -1.225123620033264160e+01 -8.942595369531716187e-01
1.088826003670692444e+01 -1.209828209877014160e+01 -8.845549471094216187e-01
1.107576003670692444e+01 -1.206581139564514160e+01 -8.805418855859841187e-01
1.130415359139442444e+01 -1.208534264564514160e+01 -8.789549715234841187e-01
1.153742995858192444e+01 -1.210536217689514160e+01 -8.773375398828591187e-01
1.175373855233192444e+01 -1.209950280189514160e+01 -8.744688875391091187e-01
1.263899245858192444e+01 -1.563209557533264160e+01 -9.642973787500466187e-01
1.295137038826942444e+01 -1.571791100502014160e+01 -9.637175447656716187e-01
1.347065749764442444e+01 -1.608998131752014160e+01 -9.755583650781716187e-01
1.399250808358192444e+01 -1.644398522377014160e+01 -9.864226228906716187e-01
1.291694656014442444e+01 -1.459217858314514160e+01 -9.057494051172341187e-01
1.283735671639442444e+01 -1.414674401283264160e+01 -8.837462312891091187e-01
1.295906081795692444e+01 -1.397792077064514160e+01 -8.732329256250466187e-01
1.323371902108192444e+01 -1.400904870033264160e+01 -8.713713533594216187e-01
1.354658523201942444e+01 -1.699244713783264160e+01 -9.173308260156716187e-01
1.396467605233192444e+01 -1.720375084877014160e+01 -9.203520662500466187e-01
1.462117019295692444e+01 -1.774098229408264160e+01 -9.350310213281716187e-01
1.524226394295692444e+01 -1.819923424720764160e+01 -9.465056307031716187e-01
1.592134109139442444e+01 -1.871351647377014160e+01 -9.596739656641091187e-01
1.668782058358192444e+01 -1.931788659095764160e+01 -9.757109529687966187e-01
1.751716628670692444e+01 -1.997254967689514160e+01 -9.930754549219216187e-01
1.570112624764442444e+01 -1.719105553627014160e+01 -8.900328523828591187e-01
1.461164870858192444e+01 -1.858876061439514160e+01 -8.632536775781716187e-01
1.523701491951942444e+01 -1.906898522377014160e+01 -8.722411043359841187e-01
1.586299148201942444e+01 -1.952381920814514160e+01 -8.794585115625466187e-01
1.665205398201942444e+01 -2.017994713783264160e+01 -8.930083162500466187e-01
1.753157058358192444e+01 -2.092823815345764160e+01 -9.088621980859841187e-01
1.842488113045692444e+01 -2.165748620033264160e+01 -9.236021883203591187e-01
1.938630691170692444e+01 -2.243788170814514160e+01 -9.400053865625466187e-01
2.043659988045692444e+01 -2.329566979408264160e+01 -9.573851473047341187e-01
1.579670730233192444e+01 -2.036549401283264160e+01 -7.955962068750466187e-01
1.666975417733192444e+01 -2.117005944252014160e+01 -8.087492830469216187e-01
1.758772292733192444e+01 -2.199842858314514160e+01 -8.218565828516091187e-01
1.849580398201942444e+01 -2.276979088783264160e+01 -8.328734285547341187e-01
1.950471511483192444e+01 -2.364198327064514160e+01 -8.457213289453591187e-01
2.059577956795692444e+01 -2.458131432533264160e+01 -8.594542391016091187e-01
2.172444167733192444e+01 -2.552198815345764160e+01 -8.723936922266091187e-01
2.295124831795692444e+01 -2.654481530189514160e+01 -8.864928133203591187e-01
1.708113113045692444e+01 -2.229188561439514160e+01 -7.120085603906716187e-01
1.811274734139442444e+01 -2.328785729408264160e+01 -7.229185945703591187e-01
1.919209304451942444e+01 -2.430299401283264160e+01 -7.333250887109841187e-01
2.036885085701942444e+01 -2.540284752845764160e+01 -7.444182283594216187e-01
2.158772292733192444e+01 -2.650880455970764160e+01 -7.546873933984841187e-01
2.328486648201942444e+01 -2.820326256752014160e+01 -7.747069246484841187e-01
2.542561355233192444e+01 -3.040138268470764160e+01 -8.021880037500466187e-01
2.984004226326942444e+01 -3.543275475502014160e+01 -8.773527986719216187e-01
1.816877761483192444e+01 -2.392604088783264160e+01 -6.021910555078591187e-01
1.952204909920692444e+01 -2.535816979408264160e+01 -6.121245271875466187e-01
2.088166823983192444e+01 -2.673146080970764160e+01 -6.199370271875466187e-01
2.219599929451942444e+01 -2.797352623939514160e+01 -6.246519930078591187e-01
2.415864577889442444e+01 -3.004713463783264160e+01 -6.389494783594216187e-01
2.870307937264442444e+01 -3.549513268470764160e+01 -6.936217195703591187e-01
3.150154128670692444e+01 -3.840980553627014160e+01 -7.126189119531716187e-01
5.539826980233192444e+01 -6.839442467689514160e+01 -1.044528091640671619e+00
1.961994948983192444e+01 -2.610475182533264160e+01 -4.800749666406716187e-01
2.003498855233192444e+01 -2.611940026283264160e+01 -4.678221590234841187e-01
2.119953933358192444e+01 -2.719813561439514160e+01 -4.641295320703591187e-01
2.619075027108192444e+01 -3.358436608314514160e+01 -5.003996736719216187e-01
2.903718581795692444e+01 -3.675526452064514160e+01 -5.071593172266091187e-01
3.510517898201942444e+01 -4.411512780189514160e+01 -5.392943269922341187e-01
2.013252273201942444e+01 -2.688246178627014160e+01 -3.281279451562966187e-01
2.267756667733192444e+01 -2.999671959877014160e+01 -3.239012605859841187e-01
2.124604812264442444e+01 -2.727650475502014160e+01 -3.021422273828591187e-01
2.904988113045692444e+01 -3.760743737220764160e+01 -3.096800691797341187e-01
3.992488113045692444e+01 -5.171913170814514160e+01 -3.128386385156716187e-01
4.061726394295692444e+01 -5.154518151283264160e+01 -2.853270418359841187e-01
4.052778640389442444e+01 -5.032936120033264160e+01 -2.552672273828591187e-01
2.011921706795692444e+01 -2.687428307533264160e+01 -1.700163728906716187e-01
2.000483718514442444e+01 -2.609828209877014160e+01 -1.569701082422341187e-01
2.896784988045692444e+01 -3.835133385658264160e+01 -1.056395418359841187e-01
4.513557448983192444e+01 -6.018568444252014160e+01 -7.098282070359118734e-03
4.588105788826942444e+01 -5.992189049720764160e+01 2.552500894526588127e-02
3.956221023201942444e+01 -5.014772057533264160e+01 1.443186929682838127e-02
4.038337722420692444e+01 -5.016029381752014160e+01 4.366770914057838127e-02
3.989924636483192444e+01 -4.847572350502014160e+01 6.348887613276588127e-02
1.965571609139442444e+01 -2.619300866127014160e+01 -1.623829671879661873e-02
2.007991042733192444e+01 -2.621961998939514160e+01 -1.162613125046618734e-03
2.125312820076942444e+01 -2.731056237220764160e+01 2.409068277339088127e-02
4.492903152108192444e+01 -5.992115807533264160e+01 3.391694181249533813e-01
2.016218581795692444e+01 -2.460755944252014160e+01 3.162852457026588127e-02
3.970637527108192444e+01 -5.036280846595764160e+01 3.131226651952658813e-01
4.026509109139442444e+01 -4.896827721595764160e+01 3.619050138280783813e-01
2.004743972420692444e+01 -2.679066491127014160e+01 1.457337491796408813e-01
2.019563308358192444e+01 -2.640065026283264160e+01 1.575593107030783813e-01
3.750251784920692444e+01 -5.062171959877014160e+01 5.181092374608908813e-01
3.763044753670692444e+01 -4.970094323158264160e+01 5.368775480077658813e-01
2.021662917733192444e+01 -2.469325280189514160e+01 1.834229581640158813e-01
2.201301589608192444e+01 -2.656422448158264160e+01 2.302521817968283813e-01
4.013691726326942444e+01 -4.882313561439514160e+01 6.532868497655783813e-01
2.013410964608192444e+01 -2.693226647377014160e+01 3.066376798437033813e-01
2.098677077889442444e+01 -2.695228600502014160e+01 3.430756681249533813e-01
3.744221511483192444e+01 -4.945753502845764160e+01 8.214234464452658813e-01
2.027107253670692444e+01 -2.477894616127014160e+01 3.353089444921408813e-01
2.062934890389442444e+01 -2.471217370033264160e+01 3.518036954687033813e-01
2.208979812264442444e+01 -2.609242272377014160e+01 4.009980314062033813e-01
4.083430495858192444e+01 -4.974488854408264160e+01 9.691285245702658813e-01
2.014668288826942444e+01 -2.696302819252014160e+01 4.655274503515158813e-01
2.164497390389442444e+01 -2.854859948158264160e+01 5.241059415624533813e-01
3.751557937264442444e+01 -5.068348717689514160e+01 1.106320297031203381e+00
3.780220046639442444e+01 -4.998426842689514160e+01 1.124722396640578381e+00
2.118476882576942444e+01 -2.604664635658264160e+01 5.205659024999533813e-01
2.021150222420692444e+01 -2.416004967689514160e+01 4.886597745702658813e-01
2.229451003670692444e+01 -2.637391686439514160e+01 5.700348966405783813e-01
2.017829909920692444e+01 -2.702235436439514160e+01 6.263856046483908813e-01
2.172700515389442444e+01 -2.868141198158264160e+01 6.971711271093283813e-01
2.176045241951942444e+01 -2.808668541908264160e+01 6.999787442968283813e-01
2.028266921639442444e+01 -2.538185143470764160e+01 6.363495939062033813e-01
2.007429519295692444e+01 -2.452967858314514160e+01 6.290101163671408813e-01
2.025984206795692444e+01 -2.423573327064514160e+01 6.391877286718283813e-01
2.236006179451942444e+01 -2.647181725502014160e+01 7.360352628515158813e-01
4.054548659920692444e+01 -4.941297936439514160e+01 1.555340682773390881e+00
2.150923171639442444e+01 -2.902906823158264160e+01 8.560914151952658813e-01
2.023225417733192444e+01 -2.650086998939514160e+01 7.879761808202658813e-01
2.030317702889442444e+01 -2.600611901283264160e+01 7.915467374608908813e-01
2.211946120858192444e+01 -2.797560143470764160e+01 8.866700284765158813e-01
2.012776198983192444e+01 -2.461402916908264160e+01 7.820099942968283813e-01
2.055574050545692444e+01 -2.464540123939514160e+01 8.043030851171408813e-01
2.100898757576942444e+01 -2.469886803627014160e+01 8.279236905858908813e-01
4.022590652108192444e+01 -4.902015709877014160e+01 1.836987411289015881e+00
7.844680935144424438e+00 -7.057632684707641602e+00 -8.472777254297341187e-01
7.934158474206924438e+00 -6.990127801895141602e+00 -8.424864656641091187e-01
8.020340114831924438e+00 -6.918106317520141602e+00 -8.376646883203591187e-01
8.106643825769424438e+00 -6.845840692520141602e+00 -8.328123933984841187e-01
8.192825466394424438e+00 -6.773941278457641602e+00 -8.279906160547341187e-01
8.278885036706924438e+00 -6.701919794082641602e+00 -8.231688387109841187e-01
8.365310817956924438e+00 -6.629776239395141602e+00 -8.183318025781716187e-01
8.447586208581924438e+00 -6.553604364395141602e+00 -8.134947664453591187e-01
8.525955349206924438e+00 -7.936294794082641602e+00 -8.515654451562966187e-01
8.619217067956924438e+00 -7.855606317520141602e+00 -8.461638338281716187e-01
8.715774685144424438e+00 -7.779190301895141602e+00 -8.407317049219216187e-01
8.809280544519424438e+00 -7.698135614395141602e+00 -8.353148348047341187e-01
8.902542263269424438e+00 -7.617569208145141602e+00 -8.299132234766091187e-01
9.012649685144424438e+00 -7.556656122207641602e+00 -8.257780916406716187e-01
9.119705349206924438e+00 -7.490982294082641602e+00 -8.216429598047341187e-01
9.214553982019424438e+00 -7.411758661270141602e+00 -8.163329012109841187e-01
9.338577419519424438e+00 -8.984268426895141602e+00 -8.554716951562966187e-01
9.452102810144424438e+00 -8.907974481582641602e+00 -8.502531892969216187e-01
9.565872341394424438e+00 -8.831436395645141602e+00 -8.450346834375466187e-01
9.680374294519424438e+00 -8.754654169082641602e+00 -8.397856600000466187e-01
9.794632107019424438e+00 -8.677871942520141602e+00 -8.345366365625466187e-01
9.909011989831924438e+00 -8.600845575332641602e+00 -8.292876131250466187e-01
1.003718581795692444e+01 -8.538345575332641602e+00 -8.248625642969216187e-01
1.015583816170692444e+01 -8.464859247207641602e+00 -8.197966463281716187e-01
1.036775222420692444e+01 -1.031141686439514160e+01 -8.621397859766091187e-01
1.050190749764442444e+01 -1.023414635658264160e+01 -8.562804109766091187e-01
1.063081374764442444e+01 -1.014967370033264160e+01 -8.504057771875466187e-01
1.076045241951942444e+01 -1.006459069252014160e+01 -8.445158846094216187e-01
1.088984695076942444e+01 -9.979751825332641602e+00 -8.386107332422341187e-01
1.101972976326942444e+01 -9.894668817520141602e+00 -8.327055818750466187e-01
1.115022292733192444e+01 -9.808975458145141602e+00 -8.267699129297341187e-01
1.127449050545692444e+01 -9.716690301895141602e+00 -8.208647615625466187e-01
1.175434890389442444e+01 -1.209925866127014160e+01 -8.744536287500466187e-01
1.188887038826942444e+01 -1.198646569252014160e+01 -8.669005281641091187e-01
1.202351394295692444e+01 -1.187367272377014160e+01 -8.593474275781716187e-01
1.215864577889442444e+01 -1.176051354408264160e+01 -8.517638094141091187e-01
1.229316726326942444e+01 -1.164772057533264160e+01 -8.442259676172341187e-01
1.242781081795692444e+01 -1.153492760658264160e+01 -8.366728670312966187e-01
1.256282058358192444e+01 -1.142176842689514160e+01 -8.290892488672341187e-01
1.269734206795692444e+01 -1.130897545814514160e+01 -8.215514070703591187e-01
1.323518386483192444e+01 -1.400978112220764160e+01 -8.714018709375466187e-01
1.352949538826942444e+01 -1.405970788002014160e+01 -8.695402986719216187e-01
1.377876296639442444e+01 -1.404664635658264160e+01 -8.655577547266091187e-01
1.397590652108192444e+01 -1.396485924720764160e+01 -8.587675935937966187e-01
1.415205398201942444e+01 -1.385719323158264160e+01 -8.509245760156716187e-01
1.432868972420692444e+01 -1.374928307533264160e+01 -8.430662996484841187e-01
1.450642409920692444e+01 -1.364051842689514160e+01 -8.351622469141091187e-01
1.467378249764442444e+01 -1.352027916908264160e+01 -8.273039705469216187e-01
1.570137038826942444e+01 -1.718995690345764160e+01 -8.899718172266091187e-01
1.580696120858192444e+01 -1.693763756752014160e+01 -8.762694246484841187e-01
1.591157546639442444e+01 -1.668775963783264160e+01 -8.626891023828591187e-01
1.630171218514442444e+01 -1.678639245033264160e+01 -8.610564119531716187e-01
1.656269851326942444e+01 -1.672291588783264160e+01 -8.537932283594216187e-01
1.674763503670692444e+01 -1.656752038002014160e+01 -8.434172517969216187e-01
1.693318191170692444e+01 -1.641151452064514160e+01 -8.329802400781716187e-01
1.717597976326942444e+01 -1.632081627845764160e+01 -8.247404939844216187e-01
2.044355788826942444e+01 -2.330287194252014160e+01 -9.575682527734841187e-01
2.156562820076942444e+01 -2.420863366127014160e+01 -9.759245760156716187e-01
2.284944167733192444e+01 -2.526954674720764160e+01 -9.971495516016091187e-01
1.978266921639442444e+01 -2.100917077064514160e+01 -8.685637361719216187e-01
1.989106765389442444e+01 -2.068006920814514160e+01 -8.520232088281716187e-01
2.024543777108192444e+01 -2.064271569252014160e+01 -8.435850984766091187e-01
2.057917800545692444e+01 -2.057423424720764160e+01 -8.349028475000466187e-01
2.093586745858192444e+01 -2.052821373939514160e+01 -8.260374910547341187e-01
2.299494948983192444e+01 -2.659913659095764160e+01 -8.877135164453591187e-01
2.454353347420692444e+01 -2.797670006752014160e+01 -9.091978914453591187e-01
2.598738113045692444e+01 -2.916017174720764160e+01 -9.251433260156716187e-01
2.942854323983192444e+01 -3.270338463783264160e+01 -9.924040682031716187e-01
2.977778640389442444e+01 -3.242604088783264160e+01 -9.734526521875466187e-01
2.680879226326942444e+01 -2.828773522377014160e+01 -8.716917879297341187e-01
2.708686843514442444e+01 -2.800355553627014160e+01 -8.540373689844216187e-01
2.824409499764442444e+01 -2.870497155189514160e+01 -8.568297273828591187e-01
2.985371413826942444e+01 -3.544776940345764160e+01 -8.775664217187966187e-01
3.213117995858192444e+01 -3.756703209877014160e+01 -8.987761385156716187e-01
4.047273269295692444e+01 -4.708876061439514160e+01 -1.041445816250046619e+00
4.570552077889442444e+01 -5.244325280189514160e+01 -1.108096206875046619e+00
4.389509597420692444e+01 -4.920570397377014160e+01 -1.033892715664109119e+00
4.215522781014442444e+01 -4.616151452064514160e+01 -9.650603182031716187e-01
3.711482253670692444e+01 -3.945387291908264160e+01 -8.436003572656716187e-01
4.309712234139442444e+01 -4.532325768470764160e+01 -9.104948885156716187e-01
5.539790359139442444e+01 -6.838893151283264160e+01 -1.044360244960984119e+00
5.567390456795692444e+01 -6.731373620033264160e+01 -1.000735367031296619e+00
5.592732253670692444e+01 -6.623133873939514160e+01 -9.575072176172341187e-01
5.624140945076942444e+01 -6.523866295814514160e+01 -9.155608064844216187e-01
5.655036941170692444e+01 -6.426185631752014160e+01 -8.743010408594216187e-01
5.681440749764442444e+01 -6.324964928627014160e+01 -8.331175691797341187e-01
3.644331374764442444e+01 -3.870411705970764160e+01 -5.841399080469216187e-01
5.735639968514442444e+01 -6.129103112220764160e+01 -7.525511629297341187e-01
3.642610183358192444e+01 -3.870069909095764160e+01 -3.373137361719216187e-01
4.126362624764442444e+01 -5.021205163002014160e+01 -2.277708894922341187e-01
3.641560378670692444e+01 -3.870484948158264160e+01 -8.928211996098411873e-02
3.990156570076942444e+01 -4.847511315345764160e+01 6.358042886714088127e-02
4.042219558358192444e+01 -4.811341881752014160e+01 9.100047281245338127e-02
3.640754714608192444e+01 -3.871180748939514160e+01 1.573914640233908813e-01
4.171150222420692444e+01 -4.976417565345764160e+01 4.025086515233908813e-01
3.640290847420692444e+01 -3.872267174720764160e+01 4.041108243749533813e-01
4.013935866951942444e+01 -4.882276940345764160e+01 6.533936612890158813e-01
4.045747390389442444e+01 -4.819825768470764160e+01 6.768006437108908813e-01
3.640657058358192444e+01 -3.874317955970764160e+01 6.523865812108908813e-01
4.083406081795692444e+01 -4.974098229408264160e+01 9.691590421483908813e-01
4.048835769295692444e+01 -4.825733971595764160e+01 9.698762052343283813e-01
4.132856765389442444e+01 -4.828797936439514160e+01 1.007855331210890881e+00
4.094087234139442444e+01 -4.885060143470764160e+01 1.280957137851515881e+00
4.111799636483192444e+01 -4.804676842689514160e+01 1.296521102695265881e+00
4.054560866951942444e+01 -4.940956139564514160e+01 1.555371200351515881e+00
4.049494948983192444e+01 -4.830604577064514160e+01 1.558392440585890881e+00
4.127400222420692444e+01 -4.826039147377014160e+01 1.597210799960890881e+00
4.022749343514442444e+01 -4.901869225502014160e+01 1.837063705234328381e+00
4.097248855233192444e+01 -4.893153405189514160e+01 1.876217757968703381e+00
4.159724441170692444e+01 -4.868202233314514160e+01 1.910656844882765881e+00
8.447952419519424438e+00 -6.553360223770141602e+00 -8.134795076562966187e-01
8.533157497644424438e+00 -6.480484247207641602e+00 -8.086577303125466187e-01
8.614578396081924438e+00 -6.403335809707641602e+00 -8.038206941797341187e-01
8.696487575769424438e+00 -6.325943231582641602e+00 -7.989531404687966187e-01
8.784134060144424438e+00 -6.255142450332641602e+00 -7.945586092187966187e-01
8.873245388269424438e+00 -6.185562372207641602e+00 -7.902403719141091187e-01
8.967849880456924438e+00 -6.120498895645141602e+00 -7.862578279687966187e-01
9.063308864831924438e+00 -6.056289911270141602e+00 -7.826109773828591187e-01
9.214798122644424438e+00 -7.411392450332641602e+00 -8.163023836328591187e-01
9.304641872644424438e+00 -7.326553583145141602e+00 -8.109770662500466187e-01
9.405960232019424438e+00 -7.253921747207641602e+00 -8.061247713281716187e-01
9.505081325769424438e+00 -7.177871942520141602e+00 -8.013487703516091187e-01
9.604080349206924438e+00 -7.101944208145141602e+00 -7.965880281641091187e-01
9.703323513269424438e+00 -7.025894403457641602e+00 -7.918272859766091187e-01
9.798782497644424438e+00 -6.945083856582641602e+00 -7.870665437891091187e-01
9.898391872644424438e+00 -6.868789911270141602e+00 -7.822752840234841187e-01
1.015608230233192444e+01 -8.464370965957641602e+00 -8.197661287500466187e-01
1.025617995858192444e+01 -8.370010614395141602e+00 -8.138304598047341187e-01
1.036067214608192444e+01 -8.280166864395141602e+00 -8.081541902734841187e-01
1.047200027108192444e+01 -8.196792840957641602e+00 -8.028593904687966187e-01
1.058320632576942444e+01 -8.113418817520141602e+00 -7.975493318750466187e-01
1.069477859139442444e+01 -8.029800653457641602e+00 -7.922392732812966187e-01
1.080696120858192444e+01 -7.945694208145141602e+00 -7.868834383203591187e-01
1.091902175545692444e+01 -7.861709833145141602e+00 -7.815428621484841187e-01
1.127485671639442444e+01 -9.716324090957641602e+00 -8.208342439844216187e-01
1.140644851326942444e+01 -9.631607294082641602e+00 -8.148833162500466187e-01
1.153230300545692444e+01 -9.539810419082641602e+00 -8.089476473047341187e-01
1.165901198983192444e+01 -9.447525262832641602e+00 -8.029662019922341187e-01
1.178559890389442444e+01 -9.355362176895141602e+00 -7.969847566797341187e-01
1.191255202889442444e+01 -9.262832880020141602e+00 -7.910033113672341187e-01
1.205854812264442444e+01 -9.188003778457641602e+00 -7.859068758203591187e-01
1.219819656014442444e+01 -9.106338739395141602e+00 -7.808409578516091187e-01
1.269783034920692444e+01 -1.130848717689514160e+01 -8.215208894922341187e-01
1.283125320076942444e+01 -1.119447350502014160e+01 -8.142119295312966187e-01
1.300007644295692444e+01 -1.111781334877014160e+01 -8.086119539453591187e-01
1.317060866951942444e+01 -1.104042077064514160e+01 -8.029356844141091187e-01
1.334175124764442444e+01 -1.096278405189514160e+01 -7.972441560937966187e-01
1.351411452889442444e+01 -1.088453698158264160e+01 -7.915068514062966187e-01
1.368830886483192444e+01 -1.080543541908264160e+01 -7.857085115625466187e-01
1.386311355233192444e+01 -1.072608971595764160e+01 -7.798949129297341187e-01
1.467427077889442444e+01 -1.351979088783264160e+01 -8.272734529687966187e-01
1.485676589608192444e+01 -1.341566491127014160e+01 -8.193083650781716187e-01
1.505012527108192444e+01 -1.332154870033264160e+01 -8.122435457422341187e-01
1.525813308358192444e+01 -1.324000573158264160e+01 -8.056212312891091187e-01
1.546723952889442444e+01 -1.315809655189514160e+01 -7.989531404687966187e-01
1.567805495858192444e+01 -1.307557702064514160e+01 -7.922392732812966187e-01
1.589131179451942444e+01 -1.299195885658264160e+01 -7.854491121484841187e-01
1.609162917733192444e+01 -1.289442467689514160e+01 -7.786436922266091187e-01
1.717720046639442444e+01 -1.632081627845764160e+01 -8.247099764062966187e-01
1.743244948983192444e+01 -1.624086022377014160e+01 -8.170500642969216187e-01
1.769013991951942444e+01 -1.616004967689514160e+01 -8.092985994531716187e-01
1.799726882576942444e+01 -1.612660241127014160e+01 -8.030119783594216187e-01
1.827668777108192444e+01 -1.606031823158264160e+01 -7.956114656641091187e-01
1.855940261483192444e+01 -1.599317955970764160e+01 -7.881194002344216187e-01
1.884638991951942444e+01 -1.592506432533264160e+01 -7.805205232812966187e-01
1.918806472420692444e+01 -1.590711998939514160e+01 -7.744170076562966187e-01
2.093769851326942444e+01 -2.052882409095764160e+01 -8.260222322656716187e-01
2.129243484139442444e+01 -2.047462487220764160e+01 -8.170805818750466187e-01
2.167366042733192444e+01 -2.044288659095764160e+01 -8.078795320703591187e-01
2.207148757576942444e+01 -2.042005944252014160e+01 -7.995024568750466187e-01
2.255268874764442444e+01 -2.047731041908264160e+01 -7.930479891016091187e-01
2.301972976326942444e+01 -2.050965905189514160e+01 -7.857695467187966187e-01
2.338215652108192444e+01 -2.042701745033264160e+01 -7.762328035547341187e-01
2.377229323983192444e+01 -2.036756920814514160e+01 -7.664061433984841187e-01
2.825276198983192444e+01 -2.871241784095764160e+01 -8.569365389062966187e-01
2.886799636483192444e+01 -2.878187584877014160e+01 -8.463316805078591187e-01
2.937678542733192444e+01 -2.872291588783264160e+01 -8.329039461328591187e-01
2.982087722420692444e+01 -2.858485436439514160e+01 -8.176909334375466187e-01
3.056440749764442444e+01 -2.875196862220764160e+01 -8.082304842187966187e-01
3.128462234139442444e+01 -2.887745690345764160e+01 -7.975951082422341187e-01
3.185981765389442444e+01 -2.884059166908264160e+01 -7.836027986719216187e-01
3.244294753670692444e+01 -2.880311608314514160e+01 -7.694121248437966187e-01
4.309883132576942444e+01 -4.532203698158264160e+01 -9.104033357812966187e-01
4.355549636483192444e+01 -4.488893151283264160e+01 -8.830748445703591187e-01
4.401203933358192444e+01 -4.445582604408264160e+01 -8.557463533594216187e-01
4.453340163826942444e+01 -4.408778405189514160e+01 -8.291808016016091187e-01
4.500544753670692444e+01 -4.366908288002014160e+01 -8.020048982812966187e-01
4.529035964608192444e+01 -4.306031823158264160e+01 -7.724791414453591187e-01
4.555879226326942444e+01 -4.243898034095764160e+01 -7.429076082422341187e-01
4.627961745858192444e+01 -4.226795983314514160e+01 -7.186308748437966187e-01
5.735493484139442444e+01 -6.128492760658264160e+01 -7.523833162500466187e-01
5.759297195076942444e+01 -6.029652428627014160e+01 -7.125883943750466187e-01
5.850654616951942444e+01 -6.005018639564514160e+01 -6.786375887109841187e-01
6.011225906014442444e+01 -6.051551842689514160e+01 -6.490507967187966187e-01
6.186335769295692444e+01 -6.109364342689514160e+01 -6.191740877344216187e-01
6.374092116951942444e+01 -6.175367760658264160e+01 -5.884734041406716187e-01
6.536787429451942444e+01 -6.211085534095764160e+01 -5.546751863672341187e-01
9.063797146081924438e+00 -6.056167840957641602e+00 -7.825957185937966187e-01
9.162674099206924438e+00 -5.994644403457641602e+00 -7.789336092187966187e-01
9.258011013269424438e+00 -5.928848505020141602e+00 -7.752409822656716187e-01
9.354202419519424438e+00 -5.862442255020141602e+00 -7.715178377344216187e-01
9.444656521081924438e+00 -5.790909051895141602e+00 -7.674437410547341187e-01
9.522537380456924438e+00 -5.707779169082641602e+00 -7.625304109766091187e-01
9.600540310144424438e+00 -5.624283075332641602e+00 -7.575865633203591187e-01
9.674026638269424438e+00 -5.537369012832641602e+00 -7.526884920312966187e-01
9.898880153894424438e+00 -6.868667840957641602e+00 -7.822600252344216187e-01
1.000349441170692444e+01 -6.796402215957641602e+00 -7.780791170312966187e-01
1.011579909920692444e+01 -6.730606317520141602e+00 -7.740050203516091187e-01
1.022407546639442444e+01 -6.659561395645141602e+00 -7.699004060937966187e-01
1.033247390389442444e+01 -6.588272333145141602e+00 -7.657957918359841187e-01
1.044148269295692444e+01 -6.516739130020141602e+00 -7.616606600000466187e-01
1.054609695076942444e+01 -6.439956903457641602e+00 -7.575102693750466187e-01
1.065620437264442444e+01 -6.367569208145141602e+00 -7.533293611719216187e-01
1.091963210701942444e+01 -7.861587762832641602e+00 -7.815428621484841187e-01
1.104170241951942444e+01 -7.786636590957641602e+00 -7.770415193750466187e-01
1.116426101326942444e+01 -7.710830926895141602e+00 -7.725096590234841187e-01
1.128791823983192444e+01 -7.634414911270141602e+00 -7.679167635156716187e-01
1.141194167733192444e+01 -7.557754755020141602e+00 -7.633391267969216187e-01
1.153657546639442444e+01 -7.480728387832641602e+00 -7.587157137109841187e-01
1.166242995858192444e+01 -7.402969598770141602e+00 -7.540617830469216187e-01
1.178852859139442444e+01 -7.325088739395141602e+00 -7.493925935937966187e-01
1.219892898201942444e+01 -9.106216669082641602e+00 -7.808256990625466187e-01
1.234834304451942444e+01 -9.032730340957641602e+00 -7.757292635156716187e-01
1.249104323983192444e+01 -8.951187372207641602e+00 -7.706023103906716187e-01
1.263520827889442444e+01 -8.868911981582641602e+00 -7.654143221094216187e-01
1.277973952889442444e+01 -8.786270380020141602e+00 -7.602110750391091187e-01
1.292524734139442444e+01 -8.703140497207641602e+00 -7.549925691797341187e-01
1.307209792733192444e+01 -8.619156122207641602e+00 -7.496977693750466187e-01
1.321089187264442444e+01 -8.527603387832641602e+00 -7.444334871484841187e-01
1.386396804451942444e+01 -1.072608971595764160e+01 -7.798796541406716187e-01
1.403279128670692444e+01 -1.063917565345764160e+01 -7.740355379297341187e-01
1.420283523201942444e+01 -1.055152916908264160e+01 -7.681303865625466187e-01
1.437483230233192444e+01 -1.046290612220764160e+01 -7.621794588281716187e-01
1.454743972420692444e+01 -1.037391686439514160e+01 -7.561980135156716187e-01
1.472126784920692444e+01 -1.028431725502014160e+01 -7.501707918359841187e-01
1.489717116951942444e+01 -1.019374108314514160e+01 -7.440672762109841187e-01
1.507356277108192444e+01 -1.010267663002014160e+01 -7.379485017969216187e-01
1.609284988045692444e+01 -1.289454674720764160e+01 -7.786284334375466187e-01
1.631477370858192444e+01 -1.281544518470764160e+01 -7.717467195703591187e-01
1.652449050545692444e+01 -1.272181725502014160e+01 -7.648039705469216187e-01
1.673677077889442444e+01 -1.262721276283264160e+01 -7.577849275781716187e-01
1.695747390389442444e+01 -1.253858971595764160e+01 -7.509642488672341187e-01
1.723371902108192444e+01 -1.249598717689514160e+01 -7.457762605859841187e-01
1.751545730233192444e+01 -1.245240807533264160e+01 -7.404814607812966187e-01
1.778022781014442444e+01 -1.239088463783264160e+01 -7.350340730859841187e-01
1.919026198983192444e+01 -1.590797448158264160e+01 -7.744322664453591187e-01
1.953852859139442444e+01 -1.588990807533264160e+01 -7.685118562891091187e-01
1.980952468514442444e+01 -1.579286217689514160e+01 -7.600890047266091187e-01
2.013899245858192444e+01 -1.574452233314514160e+01 -7.530547029687966187e-01
2.051557937264442444e+01 -1.573402428627014160e+01 -7.470732576562966187e-01
2.082002273201942444e+01 -1.565284752845764160e+01 -7.388945467187966187e-01
2.118489089608192444e+01 -1.561805748939514160e+01 -7.319670564844216187e-01
2.169917312264442444e+01 -1.570411705970764160e+01 -7.284117586328591187e-01
2.377436843514442444e+01 -2.036805748939514160e+01 -7.663756258203591187e-01
2.423579421639442444e+01 -2.036988854408264160e+01 -7.581511385156716187e-01
2.479646316170692444e+01 -2.045509362220764160e+01 -7.509032137109841187e-01
2.533967605233192444e+01 -2.051002526283264160e+01 -7.434721834375466187e-01
2.589570632576942444e+01 -2.056617760658264160e+01 -7.358580476953591187e-01
2.665083327889442444e+01 -2.078541588783264160e+01 -7.316466219141091187e-01
2.755781570076942444e+01 -2.111524987220764160e+01 -7.303191072656716187e-01
2.883833327889442444e+01 -2.173878502845764160e+01 -7.339964754297341187e-01
3.244673171639442444e+01 -2.880458092689514160e+01 -7.693816072656716187e-01
3.302827468514442444e+01 -2.875489830970764160e+01 -7.549467928125466187e-01
3.362031570076942444e+01 -2.870399498939514160e+01 -7.402373201562966187e-01
3.422541823983192444e+01 -2.865223717689514160e+01 -7.252226717187966187e-01
3.559626784920692444e+01 -2.927833580970764160e+01 -7.207671053125466187e-01
3.742988601326942444e+01 -3.027333092689514160e+01 -7.210875398828591187e-01
4.000996413826942444e+01 -3.185621666908264160e+01 -7.287932283594216187e-01
4.148945632576942444e+01 -3.243421959877014160e+01 -7.201109773828591187e-01
4.628474441170692444e+01 -4.226966881752014160e+01 -7.185698396875466187e-01
4.793025222420692444e+01 -4.296876549720764160e+01 -7.033873445703591187e-01
5.044111648201942444e+01 -4.443031334877014160e+01 -6.947203523828591187e-01
5.301704421639442444e+01 -4.587147545814514160e+01 -6.836882478906716187e-01
5.544917312264442444e+01 -4.710975670814514160e+01 -6.687804109766091187e-01
5.788826003670692444e+01 -4.828419518470764160e+01 -6.513548738672341187e-01
5.838545241951942444e+01 -4.672511315345764160e+01 -5.817747957422341187e-01
5.841780105233192444e+01 -4.677235436439514160e+01 -2.355681307031716187e-01
5.844990554451942444e+01 -4.681935143470764160e+01 1.092957608983908813e-01
9.674392849206924438e+00 -5.537124872207641602e+00 -7.526884920312966187e-01
9.751297146081924438e+00 -5.453018426895141602e+00 -7.477751619531716187e-01
9.823806911706924438e+00 -5.365249872207641602e+00 -7.428770906641091187e-01
9.903762966394424438e+00 -5.282608270645141602e+00 -7.383604891016091187e-01
1.001435866951942444e+01 -5.224136590957641602e+00 -7.355833894922341187e-01
1.012934890389442444e+01 -5.167618036270141602e+00 -7.329741365625466187e-01
1.024580398201942444e+01 -5.110367059707641602e+00 -7.303191072656716187e-01
1.035810866951942444e+01 -5.049087762832641602e+00 -7.276793367578591187e-01
1.065681472420692444e+01 -6.367569208145141602e+00 -7.533293611719216187e-01
1.076155105233192444e+01 -6.289810419082641602e+00 -7.491637117578591187e-01
1.087226882576942444e+01 -6.216079950332641602e+00 -7.449370271875466187e-01
1.097846999764442444e+01 -6.137222528457641602e+00 -7.406950838281716187e-01
1.108503738045692444e+01 -6.058120965957641602e+00 -7.364531404687966187e-01
1.119197097420692444e+01 -5.978653192520141602e+00 -7.321806795312966187e-01
1.129414382576942444e+01 -5.894058465957641602e+00 -7.279082185937966187e-01
1.140229812264442444e+01 -5.813736200332641602e+00 -7.236052400781716187e-01
1.178938308358192444e+01 -7.325088739395141602e+00 -7.493925935937966187e-01
1.190962234139442444e+01 -7.241104364395141602e+00 -7.447081453516091187e-01
1.203071609139442444e+01 -7.156631708145141602e+00 -7.400084383203591187e-01
1.215278640389442444e+01 -7.071304559707641602e+00 -7.352629549219216187e-01
1.227522292733192444e+01 -6.985733270645141602e+00 -7.305022127344216187e-01
1.239851394295692444e+01 -6.899673700332641602e+00 -7.257109529687966187e-01
1.255867019295692444e+01 -6.839493036270141602e+00 -7.223997957422341187e-01
1.275764480233192444e+01 -6.806045770645141602e+00 -7.206297762109841187e-01
1.321162429451942444e+01 -8.527481317520141602e+00 -7.444182283594216187e-01
1.336128249764442444e+01 -8.443863153457641602e+00 -7.390776521875466187e-01
1.350337234139442444e+01 -8.352310419082641602e+00 -7.337370760156716187e-01
1.364680495858192444e+01 -8.259659051895141602e+00 -7.283354646875466187e-01
1.380159011483192444e+01 -8.175308465957641602e+00 -7.233305818750466187e-01
1.411299148201942444e+01 -8.208267450332641602e+00 -7.241545564844216187e-01
1.440986648201942444e+01 -8.223037958145141602e+00 -7.240477449609841187e-01
1.470454421639442444e+01 -8.230972528457641602e+00 -7.240019685937966187e-01
1.507453933358192444e+01 -1.010267663002014160e+01 -7.379332430078591187e-01
1.524421706795692444e+01 -1.000404381752014160e+01 -7.317992098047341187e-01
1.541523757576942444e+01 -9.904556512832641602e+00 -7.256041414453591187e-01
1.570991531014442444e+01 -9.900650262832641602e+00 -7.234526521875466187e-01
1.612568679451942444e+01 -9.985733270645141602e+00 -7.250090486719216187e-01
1.652363601326942444e+01 -1.004786705970764160e+01 -7.255278475000466187e-01
1.691047683358192444e+01 -1.009217858314514160e+01 -7.251921541406716187e-01
1.741255202889442444e+01 -1.021315026283264160e+01 -7.280150301172341187e-01
1.778181472420692444e+01 -1.239112877845764160e+01 -7.350340730859841187e-01
1.810237136483192444e+01 -1.237159752845764160e+01 -7.302580721094216187e-01
1.848616042733192444e+01 -1.239698815345764160e+01 -7.275420076562966187e-01
1.888240066170692444e+01 -1.242335534095764160e+01 -7.247343904687966187e-01
1.961640945076942444e+01 -1.270497155189514160e+01 -7.306853182031716187e-01
2.017402663826942444e+01 -1.283338952064514160e+01 -7.311278230859841187e-01
2.115022292733192444e+01 -1.326014733314514160e+01 -7.415648348047341187e-01
2.186421218514442444e+01 -1.347108483314514160e+01 -7.449828035547341187e-01
2.170210281014442444e+01 -1.570533776283264160e+01 -7.284270174219216187e-01
2.251252761483192444e+01 -1.602467370033264160e+01 -7.315855867578591187e-01
2.312361159920692444e+01 -1.616102623939514160e+01 -7.292509920312966187e-01
2.429548659920692444e+01 -1.672706627845764160e+01 -7.385283357812966187e-01
2.557331863045692444e+01 -1.734474205970764160e+01 -7.486601717187966187e-01
2.714900222420692444e+01 -1.815467858314514160e+01 -7.633238680078591187e-01
2.900788894295692444e+01 -1.913124108314514160e+01 -7.815886385156716187e-01
3.035835281014442444e+01 -1.968666100502014160e+01 -7.879057771875466187e-01
2.884260573983192444e+01 -2.174073815345764160e+01 -7.340117342187966187e-01
3.051716628670692444e+01 -2.265455651283264160e+01 -7.433653719141091187e-01
3.216816726326942444e+01 -2.350111413002014160e+01 -7.493010408594216187e-01
3.421125808358192444e+01 -2.461085534095764160e+01 -7.604399568750466187e-01
3.569721999764442444e+01 -2.523109459877014160e+01 -7.606383211328591187e-01
3.665950027108192444e+01 -2.541334557533264160e+01 -7.514830476953591187e-01
3.744734206795692444e+01 -2.544154381752014160e+01 -7.400084383203591187e-01
3.862983718514442444e+01 -2.574476647377014160e+01 -7.321501619531716187e-01
4.149360671639442444e+01 -3.243519616127014160e+01 -7.200499422266091187e-01
4.243281570076942444e+01 -3.252699303627014160e+01 -7.038451082422341187e-01
4.353596511483192444e+01 -3.273158288002014160e+01 -6.886168367578591187e-01
4.468464675545692444e+01 -3.294447350502014160e+01 -6.727629549219216187e-01
4.597468581795692444e+01 -3.324366784095764160e+01 -6.573210603906716187e-01
4.876057448983192444e+01 -3.465370202064514160e+01 -6.541014558984841187e-01
5.314558425545692444e+01 -3.717970299720764160e+01 -6.611204988672341187e-01
5.327058425545692444e+01 -3.646791100502014160e+01 -6.304198152734841187e-01
5.837312331795692444e+01 -4.671107506752014160e+01 -5.815764314844216187e-01
5.688471999764442444e+01 -4.450770592689514160e+01 -5.377379305078591187e-01
5.582759109139442444e+01 -4.271900963783264160e+01 -4.984312898828591187e-01
5.500508132576942444e+01 -4.116322350502014160e+01 -4.618407137109841187e-01
5.435945144295692444e+01 -3.978871178627014160e+01 -4.275084383203591187e-01
5.392439284920692444e+01 -3.860890221595764160e+01 -3.950987703516091187e-01
5.359162917733192444e+01 -3.752931237220764160e+01 -3.638335115625466187e-01
5.327302566170692444e+01 -3.648597741127014160e+01 -3.335295564844216187e-01
5.840534988045692444e+01 -4.675831627845764160e+01 -2.354460603906716187e-01
5.690742507576942444e+01 -4.454566979408264160e+01 -2.032500154687966187e-01
5.584858718514442444e+01 -4.275453209877014160e+01 -1.728545076562966187e-01
5.501863113045692444e+01 -4.119178795814514160e+01 -1.436644441797341187e-01
5.437239089608192444e+01 -3.981617760658264160e+01 -1.155730135156716187e-01
5.393122878670692444e+01 -3.863111901283264160e+01 -8.809193441410911873e-02
5.359834304451942444e+01 -3.755104088783264160e+01 -6.109913656254661873e-02
5.327546706795692444e+01 -3.650404381752014160e+01 -3.493031332035911873e-02
5.843745437264442444e+01 -4.680531334877014160e+01 1.093415372655783813e-01
5.693342605233192444e+01 -4.458619713783264160e+01 1.298493497655783813e-01
5.586946120858192444e+01 -4.278981041908264160e+01 1.513489835546408813e-01
5.503205886483192444e+01 -4.122035241127014160e+01 1.730927579687033813e-01
5.438533034920692444e+01 -3.984364342689514160e+01 1.949586026952658813e-01
5.393806472420692444e+01 -3.865333580970764160e+01 2.174500577733908813e-01
5.360493484139442444e+01 -3.757252526283264160e+01 2.401856534765158813e-01
5.327790847420692444e+01 -3.652198815345764160e+01 2.622040860937033813e-01
6.623786941170692444e+01 -5.123158288002014160e+01 6.079529874608908813e-01
6.551887527108192444e+01 -4.958522057533264160e+01 6.285828702733908813e-01
6.383479323983192444e+01 -4.722999596595764160e+01 6.347779386327658813e-01
6.316133132576942444e+01 -4.571620202064514160e+01 6.533021085546408813e-01
6.426155105233192444e+01 -4.556312584877014160e+01 6.986664884374533813e-01
6.325263991951942444e+01 -4.384840416908264160e+01 7.108582608983908813e-01
5.845051589608192444e+01 -4.588270592689514160e+01 8.258637540624533813e-01
6.542671218514442444e+01 -5.059425377845764160e+01 9.804352872655783813e-01
6.545588698983192444e+01 -4.955641198158264160e+01 1.007733260898390881e+00
6.689851394295692444e+01 -4.964051842689514160e+01 1.062130843906203381e+00
6.335591140389442444e+01 -4.588502526283264160e+01 1.017987167148390881e+00
6.280708327889442444e+01 -4.449415612220764160e+01 1.031536971835890881e+00
6.305744948983192444e+01 -4.372462487220764160e+01 1.060742294101515881e+00
5.780500808358192444e+01 -4.536659264564514160e+01 1.152661239414015881e+00
6.576533523201942444e+01 -5.089112877845764160e+01 1.369686996249953381e+00
6.645967116951942444e+01 -5.037733483314514160e+01 1.410885726718703381e+00
6.512446609139442444e+01 -4.827735924720764160e+01 1.400723373203078381e+00
6.285469070076942444e+01 -4.552174401283264160e+01 1.365246688632765881e+00
6.304890456795692444e+01 -4.469471764564514160e+01 1.392041122226515881e+00
6.350141921639442444e+01 -4.406959557533264160e+01 1.427288924960890881e+00
5.780378738045692444e+01 -4.538502526283264160e+01 1.493130599765578381e+00
6.582283034920692444e+01 -5.095973229408264160e+01 1.756527816562453381e+00
6.514106765389442444e+01 -4.934828209877014160e+01 1.756329452304640881e+00
6.589924636483192444e+01 -4.890333580970764160e+01 1.800198470859328381e+00
6.332539382576942444e+01 -4.590174889564514160e+01 1.739315902499953381e+00
6.442854323983192444e+01 -4.574806237220764160e+01 1.793515121249953381e+00
6.341548171639442444e+01 -4.402589440345764160e+01 1.780102645664015881e+00
6.573799148201942444e+01 -5.091249108314514160e+01 2.136944686679640881e+00
6.519538894295692444e+01 -4.941273522377014160e+01 2.134808456210890881e+00
6.578193679451942444e+01 -4.883277916908264160e+01 2.173809921054640881e+00
6.644490066170692444e+01 -4.830873131752014160e+01 2.215710555820265881e+00
7.284919753670692444e+01 -5.207948327064514160e+01 2.473156844882765881e+00
6.651960769295692444e+01 -5.049024987220764160e+01 2.570172225742140881e+00
6.596492019295692444e+01 -4.899684166908264160e+01 2.561047469882765881e+00
6.675996413826942444e+01 -4.857106041908264160e+01 2.609585677890578381e+00
7.291902175545692444e+01 -5.215467858314514160e+01 2.890454208164015881e+00
6.490766921639442444e+01 -4.516066002845764160e+01 2.557370101718703381e+00
7.181977859139442444e+01 -5.359523034095764160e+01 3.224530135898390881e+00
6.780732741951942444e+01 -4.939418053627014160e+01 3.040966903476515881e+00
6.627619948983192444e+01 -4.885414147377014160e+01 2.585949813632765881e+00
6.667500320076942444e+01 -4.811024498939514160e+01 2.618603622226515881e+00
6.356880202889442444e+01 -4.377735924720764160e+01 2.515011703281203381e+00
6.553901687264442444e+01 -5.042836022377014160e+01 2.908795272617140881e+00
6.675581374764442444e+01 -5.032130455970764160e+01 2.980313216953078381e+00
7.196430984139442444e+01 -5.330018639564514160e+01 3.245037948398390881e+00
6.397846999764442444e+01 -4.409693932533264160e+01 2.896969711093703381e+00
6.636885085701942444e+01 -5.003663659095764160e+01 3.351529037265578381e+00
6.677595534920692444e+01 -4.928700280189514160e+01 3.383404647617140881e+00
6.338154616951942444e+01 -4.368092370033264160e+01 3.228695785312453381e+00
7.123371902108192444e+01 -5.181703209877014160e+01 2.355023299960890881e+00
7.289326491951942444e+01 -5.192567467689514160e+01 2.438473617343703381e+00
6.348323073983192444e+01 -4.383583092689514160e+01 2.121411239414015881e+00
6.531526198983192444e+01 -4.417030358314514160e+01 2.211071883945265881e+00
7.149848952889442444e+01 -5.439405846595764160e+01 2.745678817539015881e+00
6.583137527108192444e+01 -4.876185631752014160e+01 2.534024154453078381e+00
6.670552077889442444e+01 -4.836158776283264160e+01 2.589596664218703381e+00
7.300984206795692444e+01 -5.203932213783264160e+01 2.871792709140578381e+00
6.545881667733192444e+01 -4.429640221595764160e+01 2.594082748203078381e+00
6.691023269295692444e+01 -4.963282799720764160e+01 2.976452743320265881e+00
6.793464675545692444e+01 -4.933070397377014160e+01 3.041424667148390881e+00
6.493293777108192444e+01 -4.494996666908264160e+01 2.933377181796828381e+00
6.399885573983192444e+01 -4.326393151283264160e+01 2.904004012851515881e+00
6.630195632576942444e+01 -5.028089928627014160e+01 3.330944930820265881e+00
6.681208816170692444e+01 -4.958021569252014160e+01 3.371563827304640881e+00
6.245210281014442444e+01 -3.997926354408264160e+01 3.234936630039015881e+00
6.357551589608192444e+01 -3.971131920814514160e+01 3.312481796054640881e+00
6.436933913826942444e+01 -4.357228112220764160e+01 3.697216903476515881e+00
6.508943191170692444e+01 -4.298512291908264160e+01 3.756619369296828381e+00
6.302180495858192444e+01 -3.935340905189514160e+01 3.684567367343703381e+00
6.357319656014442444e+01 -4.275868248939514160e+01 2.250027572421828381e+00
6.136225906014442444e+01 -4.005348229408264160e+01 2.206128036289015881e+00
6.164436355233192444e+01 -3.919276452064514160e+01 2.248043929843703381e+00
6.227192702889442444e+01 -3.858216881752014160e+01 2.304135238437453381e+00
6.697309890389442444e+01 -5.011549401283264160e+01 2.670224105624953381e+00
6.684638991951942444e+01 -4.878602623939514160e+01 2.698941146640578381e+00
6.347810378670692444e+01 -4.383998131752014160e+01 2.630795394687453381e+00
6.392402663826942444e+01 -4.304786705970764160e+01 2.679394637851515881e+00
6.206318679451942444e+01 -4.058924889564514160e+01 2.634259139804640881e+00
6.359980788826942444e+01 -4.060658288002014160e+01 2.726605331210890881e+00
6.192378249764442444e+01 -3.836866784095764160e+01 2.686581527499953381e+00
6.691780105233192444e+01 -5.010438561439514160e+01 3.115902816562453381e+00
6.163655105233192444e+01 -4.030909752845764160e+01 3.016171371249953381e+00
6.581391921639442444e+01 -4.220533776283264160e+01 3.239468490390578381e+00
6.313764968514442444e+01 -3.923927330970764160e+01 3.140866195468703381e+00
6.444184890389442444e+01 -4.349098229408264160e+01 3.538937484531203381e+00
6.500312820076942444e+01 -4.277674889564514160e+01 3.592602645664015881e+00
6.264826980233192444e+01 -3.998963952064514160e+01 3.493893539218703381e+00
6.288069167733192444e+01 -3.908937096595764160e+01 3.531475936679640881e+00
6.426899734139442444e+01 -4.316444420814514160e+01 3.036312972812453381e+00
6.234358230233192444e+01 -4.064393639564514160e+01 2.980282699374953381e+00
6.631880202889442444e+01 -4.237281823158264160e+01 3.191983138828078381e+00
6.305061355233192444e+01 -3.898097252845764160e+01 3.072842513828078381e+00
6.455720534920692444e+01 -4.340895104408264160e+01 3.474377548007765881e+00
6.493733230233192444e+01 -4.255128502845764160e+01 3.521054183749953381e+00
6.276130691170692444e+01 -3.988343834877014160e+01 3.437436019687453381e+00
