6.818316817283630371e+00 -7.155981421470642090e+00 -8.816696258378158291e-01
6.911822676658630371e+00 -7.093969702720642090e+00 -8.769241424393783291e-01
7.002276778221130371e+00 -7.027319312095642090e+00 -8.721328826737533291e-01
7.092975020408630371e+00 -6.960546851158142090e+00 -8.673263641190658291e-01
7.183429121971130371e+00 -6.893896460533142090e+00 -8.625351043534408291e-01
7.273761153221130371e+00 -6.827246069908142090e+00 -8.577438445878158291e-01
7.364337325096130371e+00 -6.760473608970642090e+00 -8.529373260331283291e-01
7.451251387596130371e+00 -6.689550757408142090e+00 -8.481155486893783291e-01
7.450763106346130371e+00 -8.100683569908142090e+00 -8.905197234940658291e-01
7.546588301658630371e+00 -8.022192358970642090e+00 -8.849197479081283291e-01
7.650225996971130371e+00 -7.954931616783142090e+00 -8.797317596268783291e-01
7.747149825096130371e+00 -7.877294898033142090e+00 -8.741928191971908291e-01
7.844317793846130371e+00 -7.801000952720642090e+00 -8.687301727128158291e-01
7.941485762596130371e+00 -7.724829077720642090e+00 -8.632827850175033291e-01
8.035601973533630371e+00 -7.644140601158142090e+00 -8.578506561112533291e-01
8.132647871971130371e+00 -7.568212866783142090e+00 -8.524032684159408291e-01
8.229571700096130371e+00 -9.264135718345642090e+00 -9.017807098221908291e-01
8.311480879783630371e+00 -9.140722632408142090e+00 -8.934646697831283291e-01
8.341021895408630371e+00 -8.944189429283142090e+00 -8.808609100175033291e-01
8.475299239158630371e+00 -8.898168921470642090e+00 -8.771072479081283291e-01
8.586139082908630371e+00 -8.819311499595642090e+00 -8.714157195878158291e-01
8.709185957908630371e+00 -8.756933569908142090e+00 -8.667007537675033291e-01
8.827472090721130371e+00 -8.686743140220642090e+00 -8.615127654862533291e-01
8.945025801658630371e+00 -8.616064429283142090e+00 -8.563095184159408291e-01
9.160235762596130371e+00 -1.065463864803314209e+01 -9.126144500565658291e-01
9.260333418846130371e+00 -1.052817380428314209e+01 -9.038101287675033291e-01
9.356646895408630371e+00 -1.039804685115814209e+01 -8.952041717362533291e-01
9.452838301658630371e+00 -1.026828610897064209e+01 -8.866287322831283291e-01
9.566485762596130371e+00 -1.016501462459564209e+01 -8.794571014237533291e-01
9.733844161033630371e+00 -1.013413083553314209e+01 -8.761154266190658291e-01
9.857257246971130371e+00 -1.004245603084564209e+01 -8.695541473221908291e-01
9.974200606346130371e+00 -9.943334937095642090e+00 -8.629776092362533291e-01
1.139070451259613037e+01 -1.398264157772064209e+01 -1.000321969587815829e+00
1.086384904384613037e+01 -1.287155759334564209e+01 -9.446273895096908291e-01
1.039339005947113037e+01 -1.188291013240814209e+01 -8.950821014237533291e-01
1.049519670009613037e+01 -1.172995603084564209e+01 -8.853775115800033291e-01
1.068269670009613037e+01 -1.169748532772064209e+01 -8.813644500565658291e-01
1.091109025478363037e+01 -1.171701657772064209e+01 -8.797775359940658291e-01
1.114436662197113037e+01 -1.173703610897064209e+01 -8.781601043534408291e-01
1.136067521572113037e+01 -1.173117673397064209e+01 -8.752914520096908291e-01
1.224592912197113037e+01 -1.526376950740814209e+01 -9.651199432206283291e-01
1.255830705165863037e+01 -1.534958493709564209e+01 -9.645401092362533291e-01
1.307759416103363037e+01 -1.572165524959564209e+01 -9.763809295487533291e-01
1.359944474697113037e+01 -1.607565915584564209e+01 -9.872451873612533291e-01
1.252388322353363037e+01 -1.422385251522064209e+01 -9.065719695878158291e-01
1.244429337978363037e+01 -1.377841794490814209e+01 -8.845687957596908291e-01
1.256599748134613037e+01 -1.360959470272064209e+01 -8.740554900956283291e-01
1.284065568447113037e+01 -1.364072263240814209e+01 -8.721939178300033291e-01
1.315352189540863037e+01 -1.662412106990814209e+01 -9.181533904862533291e-01
1.357161271572113037e+01 -1.683542478084564209e+01 -9.211746307206283291e-01
1.422810685634613037e+01 -1.737265622615814209e+01 -9.358535857987533291e-01
1.484920060634613037e+01 -1.783090817928314209e+01 -9.473281951737533291e-01
1.552827775478363037e+01 -1.834519040584564209e+01 -9.604965301346908291e-01
1.629475724697113037e+01 -1.894956052303314209e+01 -9.765335174393783291e-01
1.712410295009613037e+01 -1.960422360897064209e+01 -9.938980193925033291e-01
1.530806291103363037e+01 -1.682272946834564209e+01 -8.908554168534408291e-01
1.421858537197113037e+01 -1.822043454647064209e+01 -8.640762420487533291e-01
1.484395158290863037e+01 -1.870065915584564209e+01 -8.730636688065658291e-01
1.546992814540863037e+01 -1.915549314022064209e+01 -8.802810760331283291e-01
1.625899064540863037e+01 -1.981162106990814209e+01 -8.938308807206283291e-01
1.713850724697113037e+01 -2.055991208553314209e+01 -9.096847625565658291e-01
1.803181779384613037e+01 -2.128916013240814209e+01 -9.244247527909408291e-01
1.899324357509613037e+01 -2.206955564022064209e+01 -9.408279510331283291e-01
2.004353654384613037e+01 -2.292734372615814209e+01 -9.582077117753158291e-01
1.540364396572113037e+01 -1.999716794490814209e+01 -7.964187713456283291e-01
1.627669084072113037e+01 -2.080173337459564209e+01 -8.095718475175033291e-01
1.719465959072113037e+01 -2.163010251522064209e+01 -8.226791473221908291e-01
1.810274064540863037e+01 -2.240146481990814209e+01 -8.336959930253158291e-01
1.911165177822113037e+01 -2.327365720272064209e+01 -8.465438934159408291e-01
2.020271623134613037e+01 -2.421298825740814209e+01 -8.602768035721908291e-01
2.133137834072113037e+01 -2.515366208553314209e+01 -8.732162566971908291e-01
2.255818498134613037e+01 -2.617648923397064209e+01 -8.873153777909408291e-01
1.668806779384613037e+01 -2.192355954647064209e+01 -7.128311248612533291e-01
1.771968400478363037e+01 -2.291953122615814209e+01 -7.237411590409408291e-01
1.879902970790863037e+01 -2.393466794490814209e+01 -7.341476531815658291e-01
1.997578752040863037e+01 -2.503452146053314209e+01 -7.452407928300033291e-01
2.119465959072113037e+01 -2.614047849178314209e+01 -7.555099578690658291e-01
2.289180314540863037e+01 -2.783493649959564209e+01 -7.755294891190658291e-01
2.503255021572113037e+01 -3.003305661678314209e+01 -8.030105682206283291e-01
2.944697892665863037e+01 -3.506442868709564209e+01 -8.781753631425033291e-01
1.777571427822113037e+01 -2.355771481990814209e+01 -6.030136199784408291e-01
1.912898576259613037e+01 -2.498984372615814209e+01 -6.129470916581283291e-01
2.048860490322113037e+01 -2.636313474178314209e+01 -6.207595916581283291e-01
2.180293595790863037e+01 -2.760520017147064209e+01 -6.254745574784408291e-01
2.376558244228363037e+01 -2.967880856990814209e+01 -6.397720428300033291e-01
2.831001603603363037e+01 -3.512680661678314209e+01 -6.944442840409408291e-01
3.110847795009613037e+01 -3.804147946834564209e+01 -7.134414764237533291e-01
5.500520646572113037e+01 -6.802609860897064209e+01 -1.045350656111253329e+00
1.922688615322113037e+01 -2.573642575740814209e+01 -4.808975311112533291e-01
1.964192521572113037e+01 -2.575107419490814209e+01 -4.686447234940658291e-01
2.080647599697113037e+01 -2.682980954647064209e+01 -4.649520965409408291e-01
2.579768693447113037e+01 -3.321604001522064209e+01 -5.012222381425033291e-01
2.864412248134613037e+01 -3.638693845272064209e+01 -5.079818816971908291e-01
3.471211564540863037e+01 -4.374680173397064209e+01 -5.401168914628158291e-01
1.973945939540863037e+01 -2.651413571834564209e+01 -3.289505096268783291e-01
2.228450334072113037e+01 -2.962839353084564209e+01 -3.247238250565658291e-01
2.085298478603363037e+01 -2.690817868709564209e+01 -3.029647918534408291e-01
2.865681779384613037e+01 -3.723911130428314209e+01 -3.105026336503158291e-01
3.953181779384613037e+01 -5.135080564022064209e+01 -3.136612029862533291e-01
4.022420060634613037e+01 -5.117685544490814209e+01 -2.861496063065658291e-01
4.013472306728363037e+01 -4.996103513240814209e+01 -2.560897918534408291e-01
1.972615373134613037e+01 -2.650595700740814209e+01 -1.708389373612533291e-01
1.961177384853363037e+01 -2.572995603084564209e+01 -1.577926727128158291e-01
2.857478654384613037e+01 -3.798300778865814209e+01 -1.064621063065658291e-01
4.474251115322113037e+01 -5.981735837459564209e+01 -7.920846540940829072e-03
4.548799455165863037e+01 -5.955356442928314209e+01 2.470244447468417093e-02
3.916914689540863037e+01 -4.977939450740814209e+01 1.360930482624667093e-02
3.999031388759613037e+01 -4.979196774959564209e+01 4.284514466999667093e-02
3.950618302822113037e+01 -4.810739743709564209e+01 6.266631166218417093e-02
1.926265275478363037e+01 -2.582468259334564209e+01 -1.706086118937832907e-02
1.968684709072113037e+01 -2.585129392147064209e+01 -1.985177595628329072e-03
2.086006486415863037e+01 -2.694223630428314209e+01 2.326811830280917093e-02
4.453596818447113037e+01 -5.955283200740814209e+01 3.383468536543716709e-01
1.976912248134613037e+01 -2.423923337459564209e+01 3.080596009968417093e-02
3.931331193447113037e+01 -4.999448239803314209e+01 3.123001007246841709e-01
3.987202775478363037e+01 -4.859995114803314209e+01 3.610824493574966709e-01
1.965437638759613037e+01 -2.642233884334564209e+01 1.449111847090591709e-01
1.980256974697113037e+01 -2.603232419490814209e+01 1.567367462324966709e-01
3.710945451259613037e+01 -5.025339353084564209e+01 5.172866729903091709e-01
3.723738420009613037e+01 -4.933261716365814209e+01 5.360549835371841709e-01
1.982356584072113037e+01 -2.432492673397064209e+01 1.826003936934341709e-01
2.161995255947113037e+01 -2.619589841365814209e+01 2.294296173262466709e-01
3.974385392665863037e+01 -4.845480954647064209e+01 6.524642852949966709e-01
1.974104630947113037e+01 -2.656394040584564209e+01 3.058151153731216709e-01
2.059370744228363037e+01 -2.658395993709564209e+01 3.422531036543716709e-01
3.704915177822113037e+01 -4.908920896053314209e+01 8.206008819746841709e-01
1.987800920009613037e+01 -2.441062009334564209e+01 3.344863800215591709e-01
2.023628556728363037e+01 -2.434384763240814209e+01 3.509811309981216709e-01
2.169673478603363037e+01 -2.572409665584564209e+01 4.001754669356216709e-01
4.044124162197113037e+01 -4.937656247615814209e+01 9.683059600996841709e-01
1.975361955165863037e+01 -2.659470212459564209e+01 4.647048858809341709e-01
2.125191056728363037e+01 -2.818027341365814209e+01 5.232833770918716709e-01
3.712251603603363037e+01 -5.031516110897064209e+01 1.105497732560621671e+00
3.740913712978363037e+01 -4.961594235897064209e+01 1.123899832169996671e+00
2.079170548915863037e+01 -2.567832028865814209e+01 5.197433380293716709e-01
1.981843888759613037e+01 -2.379172360897064209e+01 4.878372100996841709e-01
2.190144670009613037e+01 -2.600559079647064209e+01 5.692123321699966709e-01
1.978523576259613037e+01 -2.665402829647064209e+01 6.255630401778091709e-01
2.133394181728363037e+01 -2.831308591365814209e+01 6.963485626387466709e-01
2.136738908290863037e+01 -2.771835935115814209e+01 6.991561798262466709e-01
1.988960587978363037e+01 -2.501352536678314209e+01 6.355270294356216709e-01
1.968123185634613037e+01 -2.416135251522064209e+01 6.281875518965591709e-01
1.986677873134613037e+01 -2.386740720272064209e+01 6.383651642012466709e-01
2.196699845790863037e+01 -2.610349118709564209e+01 7.352126983809341709e-01
4.015242326259613037e+01 -4.904465329647064209e+01 1.554518118302809171e+00
2.111616837978363037e+01 -2.866074216365814209e+01 8.552688507246841709e-01
1.983919084072113037e+01 -2.613254392147064209e+01 7.871536163496841709e-01
1.991011369228363037e+01 -2.563779294490814209e+01 7.907241729903091709e-01
2.172639787197113037e+01 -2.760727536678314209e+01 8.858474640059341709e-01
1.973469865322113037e+01 -2.424570310115814209e+01 7.811874298262466709e-01
2.016267716884613037e+01 -2.427707517147064209e+01 8.034805206465591709e-01
2.061592423915863037e+01 -2.433054196834564209e+01 8.271011261153091709e-01
3.983284318447113037e+01 -4.865183103084564209e+01 1.836164846818434171e+00
7.451617598533630371e+00 -6.689306616783142090e+00 -8.481002899003158291e-01
7.541095137596130371e+00 -6.621801733970642090e+00 -8.433090301346908291e-01
7.627276778221130371e+00 -6.549780249595642090e+00 -8.384872527909408291e-01
7.713580489158630371e+00 -6.477514624595642090e+00 -8.336349578690658291e-01
7.799762129783630371e+00 -6.405615210533142090e+00 -8.288131805253158291e-01
7.885821700096130371e+00 -6.333593726158142090e+00 -8.239914031815658291e-01
7.972247481346130371e+00 -6.261450171470642090e+00 -8.191543670487533291e-01
8.054522871971130371e+00 -6.185278296470642090e+00 -8.143173309159408291e-01
8.132892012596130371e+00 -7.567968726158142090e+00 -8.523880096268783291e-01
8.226153731346130371e+00 -7.487280249595642090e+00 -8.469863982987533291e-01
8.322711348533630371e+00 -7.410864233970642090e+00 -8.415542693925033291e-01
8.416217207908630371e+00 -7.329809546470642090e+00 -8.361373992753158291e-01
8.509478926658630371e+00 -7.249243140220642090e+00 -8.307357879471908291e-01
8.619586348533630371e+00 -7.188330054283142090e+00 -8.266006561112533291e-01
8.726642012596130371e+00 -7.122656226158142090e+00 -8.224655242753158291e-01
8.821490645408630371e+00 -7.043432593345642090e+00 -8.171554656815658291e-01
8.945514082908630371e+00 -8.615942358970642090e+00 -8.562942596268783291e-01
9.059039473533630371e+00 -8.539648413658142090e+00 -8.510757537675033291e-01
9.172809004783630371e+00 -8.463110327720642090e+00 -8.458572479081283291e-01
9.287310957908630371e+00 -8.386328101158142090e+00 -8.406082244706283291e-01
9.401568770408630371e+00 -8.309545874595642090e+00 -8.353592010331283291e-01
9.515948653221130371e+00 -8.232519507408142090e+00 -8.301101775956283291e-01
9.644122481346130371e+00 -8.170019507408142090e+00 -8.256851287675033291e-01
9.762774825096130371e+00 -8.096533179283142090e+00 -8.206192107987533291e-01
9.974688887596130371e+00 -9.943090796470642090e+00 -8.629623504471908291e-01
1.010884416103363037e+01 -9.865820288658142090e+00 -8.571029754471908291e-01
1.023775041103363037e+01 -9.781347632408142090e+00 -8.512283416581283291e-01
1.036738908290863037e+01 -9.696264624595642090e+00 -8.453384490800033291e-01
1.049678361415863037e+01 -9.611425757408142090e+00 -8.394332977128158291e-01
1.062666642665863037e+01 -9.526342749595642090e+00 -8.335281463456283291e-01
1.075715959072113037e+01 -9.440649390220642090e+00 -8.275924774003158291e-01
1.088142716884613037e+01 -9.348364233970642090e+00 -8.216873260331283291e-01
1.136128556728363037e+01 -1.173093259334564209e+01 -8.752761932206283291e-01
1.149580705165863037e+01 -1.161813962459564209e+01 -8.677230926346908291e-01
1.163045060634613037e+01 -1.150534665584564209e+01 -8.601699920487533291e-01
1.176558244228363037e+01 -1.139218747615814209e+01 -8.525863738846908291e-01
1.190010392665863037e+01 -1.127939450740814209e+01 -8.450485320878158291e-01
1.203474748134613037e+01 -1.116660153865814209e+01 -8.374954315018783291e-01
1.216975724697113037e+01 -1.105344235897064209e+01 -8.299118133378158291e-01
1.230427873134613037e+01 -1.094064939022064209e+01 -8.223739715409408291e-01
1.284212052822113037e+01 -1.364145505428314209e+01 -8.722244354081283291e-01
1.313643205165863037e+01 -1.369138181209564209e+01 -8.703628631425033291e-01
1.338569962978363037e+01 -1.367832028865814209e+01 -8.663803191971908291e-01
1.358284318447113037e+01 -1.359653317928314209e+01 -8.595901580643783291e-01
1.375899064540863037e+01 -1.348886716365814209e+01 -8.517471404862533291e-01
1.393562638759613037e+01 -1.338095700740814209e+01 -8.438888641190658291e-01
1.411336076259613037e+01 -1.327219235897064209e+01 -8.359848113846908291e-01
1.428071916103363037e+01 -1.315195310115814209e+01 -8.281265350175033291e-01
1.530830705165863037e+01 -1.682163083553314209e+01 -8.907943816971908291e-01
1.541389787197113037e+01 -1.656931149959564209e+01 -8.770919891190658291e-01
1.551851212978363037e+01 -1.631943356990814209e+01 -8.635116668534408291e-01
1.590864884853363037e+01 -1.641806638240814209e+01 -8.618789764237533291e-01
1.616963517665863037e+01 -1.635458981990814209e+01 -8.546157928300033291e-01
1.635457170009613037e+01 -1.619919431209564209e+01 -8.442398162675033291e-01
1.654011857509613037e+01 -1.604318845272064209e+01 -8.338028045487533291e-01
1.678291642665863037e+01 -1.595249021053314209e+01 -8.255630584550033291e-01
2.005049455165863037e+01 -2.293454587459564209e+01 -9.583908172440658291e-01
2.117256486415863037e+01 -2.384030759334564209e+01 -9.767471404862533291e-01
2.245637834072113037e+01 -2.490122067928314209e+01 -9.979721160721908291e-01
1.938960587978363037e+01 -2.064084470272064209e+01 -8.693863006425033291e-01
1.949800431728363037e+01 -2.031174314022064209e+01 -8.528457732987533291e-01
1.985237443447113037e+01 -2.027438962459564209e+01 -8.444076629471908291e-01
2.018611466884613037e+01 -2.020590817928314209e+01 -8.357254119706283291e-01
2.054280412197113037e+01 -2.015988767147064209e+01 -8.268600555253158291e-01
2.260188615322113037e+01 -2.623081052303314209e+01 -8.885360809159408291e-01
2.415047013759613037e+01 -2.760837399959564209e+01 -9.100204559159408291e-01
2.559431779384613037e+01 -2.879184567928314209e+01 -9.259658904862533291e-01
2.903547990322113037e+01 -3.233505856990814209e+01 -9.932266326737533291e-01
2.938472306728363037e+01 -3.205771481990814209e+01 -9.742752166581283291e-01
2.641572892665863037e+01 -2.791940915584564209e+01 -8.725143524003158291e-01
2.669380509853363037e+01 -2.763522946834564209e+01 -8.548599334550033291e-01
2.785103166103363037e+01 -2.833664548397064209e+01 -8.576522918534408291e-01
2.946065080165863037e+01 -3.507944333553314209e+01 -8.783889861893783291e-01
3.173811662197113037e+01 -3.719870603084564209e+01 -8.995987029862533291e-01
4.007966935634613037e+01 -4.672043454647064209e+01 -1.042268380720628329e+00
4.531245744228363037e+01 -5.207492673397064209e+01 -1.108918771345628329e+00
4.350203263759613037e+01 -4.883737790584564209e+01 -1.034715280134690829e+00
4.176216447353363037e+01 -4.579318845272064209e+01 -9.658828826737533291e-01
3.672175920009613037e+01 -3.908554685115814209e+01 -8.444229217362533291e-01
4.270405900478363037e+01 -4.495493161678314209e+01 -9.113174529862533291e-01
5.500484025478363037e+01 -6.802060544490814209e+01 -1.045182809431565829e+00
5.528084123134613037e+01 -6.694541013240814209e+01 -1.001557931501878329e+00
5.553425920009613037e+01 -6.586301267147064209e+01 -9.583297820878158291e-01
5.584834611415863037e+01 -6.487033689022064209e+01 -9.163833709550033291e-01
5.615730607509613037e+01 -6.389353024959564209e+01 -8.751236053300033291e-01
5.642134416103363037e+01 -6.288132321834564209e+01 -8.339401336503158291e-01
3.605025041103363037e+01 -3.833579099178314209e+01 -5.849624725175033291e-01
5.696333634853363037e+01 -6.092270505428314209e+01 -7.533737274003158291e-01
3.603303849697113037e+01 -3.833237302303314209e+01 -3.381363006425033291e-01
4.087056291103363037e+01 -4.984372556209564209e+01 -2.285934539628158291e-01
3.602254045009613037e+01 -3.833652341365814209e+01 -9.010468443156582907e-02
3.950850236415863037e+01 -4.810678708553314209e+01 6.275786439655917093e-02
4.002913224697113037e+01 -4.774509274959564209e+01 9.017790834187167093e-02
3.601448380947113037e+01 -3.834348142147064209e+01 1.565688995528091709e-01
4.131843888759613037e+01 -4.939584958553314209e+01 4.016860870528091709e-01
3.600984513759613037e+01 -3.835434567928314209e+01 4.032882599043716709e-01
3.974629533290863037e+01 -4.845444333553314209e+01 6.525710968184341709e-01
4.006441056728363037e+01 -4.782993161678314209e+01 6.759780792403091709e-01
3.601350724697113037e+01 -3.837485349178314209e+01 6.515640167403091709e-01
4.044099748134613037e+01 -4.937265622615814209e+01 9.683364776778091709e-01
4.009529435634613037e+01 -4.788901364803314209e+01 9.690536407637466709e-01
4.093550431728363037e+01 -4.791965329647064209e+01 1.007032766740309171e+00
4.054780900478363037e+01 -4.848227536678314209e+01 1.280134573380934171e+00
4.072493302822113037e+01 -4.767844235897064209e+01 1.295698538224684171e+00
4.015254533290863037e+01 -4.904123532772064209e+01 1.554548635880934171e+00
4.010188615322113037e+01 -4.793771970272064209e+01 1.557569876115309171e+00
4.088093888759613037e+01 -4.789206540584564209e+01 1.596388235490309171e+00
3.983443009853363037e+01 -4.865036618709564209e+01 1.836241140763746671e+00
4.057942521572113037e+01 -4.856320798397064209e+01 1.875395193498121671e+00
4.120418107509613037e+01 -4.831369626522064209e+01 1.909834280412184171e+00
8.054889082908630371e+00 -6.185034155845642090e+00 -8.143020721268783291e-01
8.140094161033630371e+00 -6.112158179283142090e+00 -8.094802947831283291e-01
8.221515059471130371e+00 -6.035009741783142090e+00 -8.046432586503158291e-01
8.303424239158630371e+00 -5.957617163658142090e+00 -7.997757049393783291e-01
8.391070723533630371e+00 -5.886816382408142090e+00 -7.953811736893783291e-01
8.480182051658630371e+00 -5.817236304283142090e+00 -7.910629363846908291e-01
8.574786543846130371e+00 -5.752172827720642090e+00 -7.870803924393783291e-01
8.670245528221130371e+00 -5.687963843345642090e+00 -7.834335418534408291e-01
8.821734786033630371e+00 -7.043066382408142090e+00 -8.171249481034408291e-01
8.911578536033630371e+00 -6.958227515220642090e+00 -8.117996307206283291e-01
9.012896895408630371e+00 -6.885595679283142090e+00 -8.069473357987533291e-01
9.112017989158630371e+00 -6.809545874595642090e+00 -8.021713348221908291e-01
9.211017012596130371e+00 -6.733618140220642090e+00 -7.974105926346908291e-01
9.310260176658630371e+00 -6.657568335533142090e+00 -7.926498504471908291e-01
9.405719161033630371e+00 -6.576757788658142090e+00 -7.878891082596908291e-01
9.505328536033630371e+00 -6.500463843345642090e+00 -7.830978484940658291e-01
9.763018965721130371e+00 -8.096044898033142090e+00 -8.205886932206283291e-01
9.863116621971130371e+00 -8.001684546470642090e+00 -8.146530242753158291e-01
9.967608809471130371e+00 -7.911840796470642090e+00 -8.089767547440658291e-01
1.007893693447113037e+01 -7.828466773033142090e+00 -8.036819549393783291e-01
1.019014298915863037e+01 -7.745092749595642090e+00 -7.983718963456283291e-01
1.030171525478363037e+01 -7.661474585533142090e+00 -7.930618377518783291e-01
1.041389787197113037e+01 -7.577368140220642090e+00 -7.877060027909408291e-01
1.052595841884613037e+01 -7.493383765220642090e+00 -7.823654266190658291e-01
1.088179337978363037e+01 -9.347998023033142090e+00 -8.216568084550033291e-01
1.101338517665863037e+01 -9.263281226158142090e+00 -8.157058807206283291e-01
1.113923966884613037e+01 -9.171484351158142090e+00 -8.097702117753158291e-01
1.126594865322113037e+01 -9.079199194908142090e+00 -8.037887664628158291e-01
1.139253556728363037e+01 -8.987036108970642090e+00 -7.978073211503158291e-01
1.151948869228363037e+01 -8.894506812095642090e+00 -7.918258758378158291e-01
1.166548478603363037e+01 -8.819677710533142090e+00 -7.867294402909408291e-01
1.180513322353363037e+01 -8.738012671470642090e+00 -7.816635223221908291e-01
1.230476701259613037e+01 -1.094016110897064209e+01 -8.223434539628158291e-01
1.243818986415863037e+01 -1.082614743709564209e+01 -8.150344940018783291e-01
1.260701310634613037e+01 -1.074948728084564209e+01 -8.094345184159408291e-01
1.277754533290863037e+01 -1.067209470272064209e+01 -8.037582488846908291e-01
1.294868791103363037e+01 -1.059445798397064209e+01 -7.980667205643783291e-01
1.312105119228363037e+01 -1.051621091365814209e+01 -7.923294158768783291e-01
1.329524552822113037e+01 -1.043710935115814209e+01 -7.865310760331283291e-01
1.347005021572113037e+01 -1.035776364803314209e+01 -7.807174774003158291e-01
1.428120744228363037e+01 -1.315146481990814209e+01 -8.280960174393783291e-01
1.446370255947113037e+01 -1.304733884334564209e+01 -8.201309295487533291e-01
1.465706193447113037e+01 -1.295322263240814209e+01 -8.130661102128158291e-01
1.486506974697113037e+01 -1.287167966365814209e+01 -8.064437957596908291e-01
1.507417619228363037e+01 -1.278977048397064209e+01 -7.997757049393783291e-01
1.528499162197113037e+01 -1.270725095272064209e+01 -7.930618377518783291e-01
1.549824845790863037e+01 -1.262363278865814209e+01 -7.862716766190658291e-01
1.569856584072113037e+01 -1.252609860897064209e+01 -7.794662566971908291e-01
1.678413712978363037e+01 -1.595249021053314209e+01 -8.255325408768783291e-01
1.703938615322113037e+01 -1.587253415584564209e+01 -8.178726287675033291e-01
1.729707658290863037e+01 -1.579172360897064209e+01 -8.101211639237533291e-01
1.760420548915863037e+01 -1.575827634334564209e+01 -8.038345428300033291e-01
1.788362443447113037e+01 -1.569199216365814209e+01 -7.964340301346908291e-01
1.816633927822113037e+01 -1.562485349178314209e+01 -7.889419647050033291e-01
1.845332658290863037e+01 -1.555673825740814209e+01 -7.813430877518783291e-01
1.879500138759613037e+01 -1.553879392147064209e+01 -7.752395721268783291e-01
2.054463517665863037e+01 -2.016049802303314209e+01 -8.268447967362533291e-01
2.089937150478363037e+01 -2.010629880428314209e+01 -8.179031463456283291e-01
2.128059709072113037e+01 -2.007456052303314209e+01 -8.087020965409408291e-01
2.167842423915863037e+01 -2.005173337459564209e+01 -8.003250213456283291e-01
2.215962541103363037e+01 -2.010898435115814209e+01 -7.938705535721908291e-01
2.262666642665863037e+01 -2.014133298397064209e+01 -7.865921111893783291e-01
2.298909318447113037e+01 -2.005869138240814209e+01 -7.770553680253158291e-01
2.337922990322113037e+01 -1.999924314022064209e+01 -7.672287078690658291e-01
2.785969865322113037e+01 -2.834409177303314209e+01 -8.577591033768783291e-01
2.847493302822113037e+01 -2.841354978084564209e+01 -8.471542449784408291e-01
2.898372209072113037e+01 -2.835458981990814209e+01 -8.337265106034408291e-01
2.942781388759613037e+01 -2.821652829647064209e+01 -8.185134979081283291e-01
3.017134416103363037e+01 -2.838364255428314209e+01 -8.090530486893783291e-01
3.089155900478363037e+01 -2.850913083553314209e+01 -7.984176727128158291e-01
3.146675431728363037e+01 -2.847226560115814209e+01 -7.844253631425033291e-01
3.204988420009613037e+01 -2.843479001522064209e+01 -7.702346893143783291e-01
4.270576798915863037e+01 -4.495371091365814209e+01 -9.112259002518783291e-01
4.316243302822113037e+01 -4.452060544490814209e+01 -8.838974090409408291e-01
4.361897599697113037e+01 -4.408749997615814209e+01 -8.565689178300033291e-01
4.414033830165863037e+01 -4.371945798397064209e+01 -8.300033660721908291e-01
4.461238420009613037e+01 -4.330075681209564209e+01 -8.028274627518783291e-01
4.489729630947113037e+01 -4.269199216365814209e+01 -7.733017059159408291e-01
4.516572892665863037e+01 -4.207065427303314209e+01 -7.437301727128158291e-01
4.588655412197113037e+01 -4.189963376522064209e+01 -7.194534393143783291e-01
5.696187150478363037e+01 -6.091660153865814209e+01 -7.532058807206283291e-01
5.719990861415863037e+01 -5.992819821834564209e+01 -7.134109588456283291e-01
5.811348283290863037e+01 -5.968186032772064209e+01 -6.794601531815658291e-01
5.971919572353363037e+01 -6.014719235897064209e+01 -6.498733611893783291e-01
6.147029435634613037e+01 -6.072531735897064209e+01 -6.199966522050033291e-01
6.334785783290863037e+01 -6.138535153865814209e+01 -5.892959686112533291e-01
6.497481095790863037e+01 -6.174252927303314209e+01 -5.554977508378158291e-01
8.670733809471130371e+00 -5.687841773033142090e+00 -7.834182830643783291e-01
8.769610762596130371e+00 -5.626318335533142090e+00 -7.797561736893783291e-01
8.864947676658630371e+00 -5.560522437095642090e+00 -7.760635467362533291e-01
8.961139082908630371e+00 -5.494116187095642090e+00 -7.723404022050033291e-01
9.051593184471130371e+00 -5.422582983970642090e+00 -7.682663055253158291e-01
9.129474043846130371e+00 -5.339453101158142090e+00 -7.633529754471908291e-01
9.207476973533630371e+00 -5.255957007408142090e+00 -7.584091277909408291e-01
9.280963301658630371e+00 -5.169042944908142090e+00 -7.535110565018783291e-01
9.505816817283630371e+00 -6.500341773033142090e+00 -7.830825897050033291e-01
9.610431075096130371e+00 -6.428076148033142090e+00 -7.789016815018783291e-01
9.722735762596130371e+00 -6.362280249595642090e+00 -7.748275848221908291e-01
9.831012129783630371e+00 -6.291235327720642090e+00 -7.707229705643783291e-01
9.939410567283630371e+00 -6.219946265220642090e+00 -7.666183563065658291e-01
1.004841935634613037e+01 -6.148413062095642090e+00 -7.624832244706283291e-01
1.015303361415863037e+01 -6.071630835533142090e+00 -7.583328338456283291e-01
1.026314103603363037e+01 -5.999243140220642090e+00 -7.541519256425033291e-01
1.052656877040863037e+01 -7.493261694908142090e+00 -7.823654266190658291e-01
1.064863908290863037e+01 -7.418310523033142090e+00 -7.778640838456283291e-01
1.077119767665863037e+01 -7.342504858970642090e+00 -7.733322234940658291e-01
1.089485490322113037e+01 -7.266088843345642090e+00 -7.687393279862533291e-01
1.101887834072113037e+01 -7.189428687095642090e+00 -7.641616912675033291e-01
1.114351212978363037e+01 -7.112402319908142090e+00 -7.595382781815658291e-01
1.126936662197113037e+01 -7.034643530845642090e+00 -7.548843475175033291e-01
1.139546525478363037e+01 -6.956762671470642090e+00 -7.502151580643783291e-01
1.180586564540863037e+01 -8.737890601158142090e+00 -7.816482635331283291e-01
1.195527970790863037e+01 -8.664404273033142090e+00 -7.765518279862533291e-01
1.209797990322113037e+01 -8.582861304283142090e+00 -7.714248748612533291e-01
1.224214494228363037e+01 -8.500585913658142090e+00 -7.662368865800033291e-01
1.238667619228363037e+01 -8.417944312095642090e+00 -7.610336395096908291e-01
1.253218400478363037e+01 -8.334814429283142090e+00 -7.558151336503158291e-01
1.267903459072113037e+01 -8.250830054283142090e+00 -7.505203338456283291e-01
1.281782853603363037e+01 -8.159277319908142090e+00 -7.452560516190658291e-01
1.347090470790863037e+01 -1.035776364803314209e+01 -7.807022186112533291e-01
1.363972795009613037e+01 -1.027084958553314209e+01 -7.748581024003158291e-01
1.380977189540863037e+01 -1.018320310115814209e+01 -7.689529510331283291e-01
1.398176896572113037e+01 -1.009458005428314209e+01 -7.630020232987533291e-01
1.415437638759613037e+01 -1.000559079647064209e+01 -7.570205779862533291e-01
1.432820451259613037e+01 -9.915991187095642090e+00 -7.509933563065658291e-01
1.450410783290863037e+01 -9.825415015220642090e+00 -7.448898406815658291e-01
1.468049943447113037e+01 -9.734350562095642090e+00 -7.387710662675033291e-01
1.569978654384613037e+01 -1.252622067928314209e+01 -7.794509979081283291e-01
1.592171037197113037e+01 -1.244711911678314209e+01 -7.725692840409408291e-01
1.613142716884613037e+01 -1.235349118709564209e+01 -7.656265350175033291e-01
1.634370744228363037e+01 -1.225888669490814209e+01 -7.586074920487533291e-01
1.656441056728363037e+01 -1.217026364803314209e+01 -7.517868133378158291e-01
1.684065568447113037e+01 -1.212766110897064209e+01 -7.465988250565658291e-01
1.712239396572113037e+01 -1.208408200740814209e+01 -7.413040252518783291e-01
1.738716447353363037e+01 -1.202255856990814209e+01 -7.358566375565658291e-01
1.879719865322113037e+01 -1.553964841365814209e+01 -7.752548309159408291e-01
1.914546525478363037e+01 -1.552158200740814209e+01 -7.693344207596908291e-01
1.941646134853363037e+01 -1.542453610897064209e+01 -7.609115691971908291e-01
1.974592912197113037e+01 -1.537619626522064209e+01 -7.538772674393783291e-01
2.012251603603363037e+01 -1.536569821834564209e+01 -7.478958221268783291e-01
2.042695939540863037e+01 -1.528452146053314209e+01 -7.397171111893783291e-01
2.079182755947113037e+01 -1.524973142147064209e+01 -7.327896209550033291e-01
2.130610978603363037e+01 -1.533579099178314209e+01 -7.292343231034408291e-01
2.338130509853363037e+01 -1.999973142147064209e+01 -7.671981902909408291e-01
2.384273087978363037e+01 -2.000156247615814209e+01 -7.589737029862533291e-01
2.440339982509613037e+01 -2.008676755428314209e+01 -7.517257781815658291e-01
2.494661271572113037e+01 -2.014169919490814209e+01 -7.442947479081283291e-01
2.550264298915863037e+01 -2.019785153865814209e+01 -7.366806121659408291e-01
2.625776994228363037e+01 -2.041708981990814209e+01 -7.324691863846908291e-01
2.716475236415863037e+01 -2.074692380428314209e+01 -7.311416717362533291e-01
2.844526994228363037e+01 -2.137045896053314209e+01 -7.348190399003158291e-01
3.205366837978363037e+01 -2.843625485897064209e+01 -7.702041717362533291e-01
3.263521134853363037e+01 -2.838657224178314209e+01 -7.557693572831283291e-01
3.322725236415863037e+01 -2.833566892147064209e+01 -7.410598846268783291e-01
3.383235490322113037e+01 -2.828391110897064209e+01 -7.260452361893783291e-01
3.520320451259613037e+01 -2.891000974178314209e+01 -7.215896697831283291e-01
3.703682267665863037e+01 -2.990500485897064209e+01 -7.219101043534408291e-01
3.961690080165863037e+01 -3.148789060115814209e+01 -7.296157928300033291e-01
4.109639298915863037e+01 -3.206589353084564209e+01 -7.209335418534408291e-01
4.589168107509613037e+01 -4.190134274959564209e+01 -7.193924041581283291e-01
4.753718888759613037e+01 -4.260043942928314209e+01 -7.042099090409408291e-01
5.004805314540863037e+01 -4.406198728084564209e+01 -6.955429168534408291e-01
5.262398087978363037e+01 -4.550314939022064209e+01 -6.845108123612533291e-01
5.505610978603363037e+01 -4.674143064022064209e+01 -6.696029754471908291e-01
5.749519670009613037e+01 -4.791586911678314209e+01 -6.521774383378158291e-01
5.799238908290863037e+01 -4.635678708553314209e+01 -5.825973602128158291e-01
5.802473771572113037e+01 -4.640402829647064209e+01 -2.363906951737533291e-01
5.805684220790863037e+01 -4.645102536678314209e+01 1.084731964278091709e-01
9.281329512596130371e+00 -5.168798804283142090e+00 -7.535110565018783291e-01
9.358233809471130371e+00 -5.084692358970642090e+00 -7.485977264237533291e-01
9.430743575096130371e+00 -4.996923804283142090e+00 -7.436996551346908291e-01
9.510699629783630371e+00 -4.914282202720642090e+00 -7.391830535721908291e-01
9.621295332908630371e+00 -4.855810523033142090e+00 -7.364059539628158291e-01
9.736285567283630371e+00 -4.799291968345642090e+00 -7.337967010331283291e-01
9.852740645408630371e+00 -4.742040991783142090e+00 -7.311416717362533291e-01
9.965045332908630371e+00 -4.680761694908142090e+00 -7.285019012284408291e-01
1.026375138759613037e+01 -5.999243140220642090e+00 -7.541519256425033291e-01
1.036848771572113037e+01 -5.921484351158142090e+00 -7.499862762284408291e-01
1.047920548915863037e+01 -5.847753882408142090e+00 -7.457595916581283291e-01
1.058540666103363037e+01 -5.768896460533142090e+00 -7.415176482987533291e-01
1.069197404384613037e+01 -5.689794898033142090e+00 -7.372757049393783291e-01
1.079890763759613037e+01 -5.610327124595642090e+00 -7.330032440018783291e-01
1.090108048915863037e+01 -5.525732398033142090e+00 -7.287307830643783291e-01
1.100923478603363037e+01 -5.445410132408142090e+00 -7.244278045487533291e-01
1.139631974697113037e+01 -6.956762671470642090e+00 -7.502151580643783291e-01
1.151655900478363037e+01 -6.872778296470642090e+00 -7.455307098221908291e-01
1.163765275478363037e+01 -6.788305640220642090e+00 -7.408310027909408291e-01
1.175972306728363037e+01 -6.702978491783142090e+00 -7.360855193925033291e-01
1.188215959072113037e+01 -6.617407202720642090e+00 -7.313247772050033291e-01
1.200545060634613037e+01 -6.531347632408142090e+00 -7.265335174393783291e-01
1.216560685634613037e+01 -6.471166968345642090e+00 -7.232223602128158291e-01
1.236458146572113037e+01 -6.437719702720642090e+00 -7.214523406815658291e-01
1.281856095790863037e+01 -8.159155249595642090e+00 -7.452407928300033291e-01
1.296821916103363037e+01 -8.075537085533142090e+00 -7.399002166581283291e-01
1.311030900478363037e+01 -7.983984351158142090e+00 -7.345596404862533291e-01
1.325374162197113037e+01 -7.891332983970642090e+00 -7.291580291581283291e-01
1.340852677822113037e+01 -7.806982398033142090e+00 -7.241531463456283291e-01
1.371992814540863037e+01 -7.839941382408142090e+00 -7.249771209550033291e-01
1.401680314540863037e+01 -7.854711890220642090e+00 -7.248703094315658291e-01
1.431148087978363037e+01 -7.862646460533142090e+00 -7.248245330643783291e-01
1.468147599697113037e+01 -9.734350562095642090e+00 -7.387558074784408291e-01
1.485115373134613037e+01 -9.635717749595642090e+00 -7.326217742753158291e-01
1.502217423915863037e+01 -9.536230444908142090e+00 -7.264267059159408291e-01
1.531685197353363037e+01 -9.532324194908142090e+00 -7.242752166581283291e-01
1.573262345790863037e+01 -9.617407202720642090e+00 -7.258316131425033291e-01
1.613057267665863037e+01 -9.679540991783142090e+00 -7.263504119706283291e-01
1.651741349697113037e+01 -9.723852515220642090e+00 -7.260147186112533291e-01
1.701948869228363037e+01 -9.844824194908142090e+00 -7.288375945878158291e-01
1.738875138759613037e+01 -1.202280271053314209e+01 -7.358566375565658291e-01
1.770930802822113037e+01 -1.200327146053314209e+01 -7.310806365800033291e-01
1.809309709072113037e+01 -1.202866208553314209e+01 -7.283645721268783291e-01
1.848933732509613037e+01 -1.205502927303314209e+01 -7.255569549393783291e-01
1.922334611415863037e+01 -1.233664548397064209e+01 -7.315078826737533291e-01
1.978096330165863037e+01 -1.246506345272064209e+01 -7.319503875565658291e-01
2.075715959072113037e+01 -1.289182126522064209e+01 -7.423873992753158291e-01
2.147114884853363037e+01 -1.310275876522064209e+01 -7.458053680253158291e-01
2.130903947353363037e+01 -1.533701169490814209e+01 -7.292495818925033291e-01
2.211946427822113037e+01 -1.565634763240814209e+01 -7.324081512284408291e-01
2.273054826259613037e+01 -1.579270017147064209e+01 -7.300735565018783291e-01
2.390242326259613037e+01 -1.635874021053314209e+01 -7.393509002518783291e-01
2.518025529384613037e+01 -1.697641599178314209e+01 -7.494827361893783291e-01
2.675593888759613037e+01 -1.778635251522064209e+01 -7.641464324784408291e-01
2.861482560634613037e+01 -1.876291501522064209e+01 -7.824112029862533291e-01
2.996528947353363037e+01 -1.931833493709564209e+01 -7.887283416581283291e-01
2.844954240322113037e+01 -2.137241208553314209e+01 -7.348342986893783291e-01
3.012410295009613037e+01 -2.228623044490814209e+01 -7.441879363846908291e-01
3.177510392665863037e+01 -2.313278806209564209e+01 -7.501236053300033291e-01
3.381819474697113037e+01 -2.424252927303314209e+01 -7.612625213456283291e-01
3.530415666103363037e+01 -2.486276853084564209e+01 -7.614608856034408291e-01
3.626643693447113037e+01 -2.504501950740814209e+01 -7.523056121659408291e-01
3.705427873134613037e+01 -2.507321774959564209e+01 -7.408310027909408291e-01
3.823677384853363037e+01 -2.537644040584564209e+01 -7.329727264237533291e-01
4.110054337978363037e+01 -3.206687009334564209e+01 -7.208725066971908291e-01
4.203975236415863037e+01 -3.215866696834564209e+01 -7.046676727128158291e-01
4.314290177822113037e+01 -3.236325681209564209e+01 -6.894394012284408291e-01
4.429158341884613037e+01 -3.257614743709564209e+01 -6.735855193925033291e-01
4.558162248134613037e+01 -3.287534177303314209e+01 -6.581436248612533291e-01
4.836751115322113037e+01 -3.428537595272064209e+01 -6.549240203690658291e-01
5.275252091884613037e+01 -3.681137692928314209e+01 -6.619430633378158291e-01
5.287752091884613037e+01 -3.609958493709564209e+01 -6.312423797440658291e-01
5.798005998134613037e+01 -4.634274899959564209e+01 -5.823989959550033291e-01
5.649165666103363037e+01 -4.413937985897064209e+01 -5.385604949784408291e-01
5.543452775478363037e+01 -4.235068356990814209e+01 -4.992538543534408291e-01
5.461201798915863037e+01 -4.079489743709564209e+01 -4.626632781815658291e-01
5.396638810634613037e+01 -3.942038571834564209e+01 -4.283310027909408291e-01
5.353132951259613037e+01 -3.824057614803314209e+01 -3.959213348221908291e-01
5.319856584072113037e+01 -3.716098630428314209e+01 -3.646560760331283291e-01
5.287996232509613037e+01 -3.611765134334564209e+01 -3.343521209550033291e-01
5.801228654384613037e+01 -4.638999021053314209e+01 -2.362686248612533291e-01
5.651436173915863037e+01 -4.417734372615814209e+01 -2.040725799393783291e-01
5.545552384853363037e+01 -4.238620603084564209e+01 -1.736770721268783291e-01
5.462556779384613037e+01 -4.082346189022064209e+01 -1.444870086503158291e-01
5.397932755947113037e+01 -3.944785153865814209e+01 -1.163955779862533291e-01
5.353816545009613037e+01 -3.826279294490814209e+01 -8.891449888469082907e-02
5.320527970790863037e+01 -3.718271481990814209e+01 -6.192170103312832907e-02
5.288240373134613037e+01 -3.613571774959564209e+01 -3.575287779094082907e-02
5.804439103603363037e+01 -4.643698728084564209e+01 1.085189727949966709e-01
5.654036271572113037e+01 -4.421787106990814209e+01 1.290267852949966709e-01
5.547639787197113037e+01 -4.242148435115814209e+01 1.505264190840591709e-01
5.463899552822113037e+01 -4.085202634334564209e+01 1.722701934981216709e-01
5.399226701259613037e+01 -3.947531735897064209e+01 1.941360382246841709e-01
5.354500138759613037e+01 -3.828500974178314209e+01 2.166274933028091709e-01
5.321187150478363037e+01 -3.720419919490814209e+01 2.393630890059341709e-01
5.288484513759613037e+01 -3.615366208553314209e+01 2.613815216231216709e-01
6.584480607509613037e+01 -5.086325681209564209e+01 6.071304229903091709e-01
6.512581193447113037e+01 -4.921689450740814209e+01 6.277603058028091709e-01
6.344172990322113037e+01 -4.686166989803314209e+01 6.339553741621841709e-01
6.276826798915863037e+01 -4.534787595272064209e+01 6.524795440840591709e-01
6.386848771572113037e+01 -4.519479978084564209e+01 6.978439239668716709e-01
6.285957658290863037e+01 -4.348007810115814209e+01 7.100356964278091709e-01
5.805745255947113037e+01 -4.551437985897064209e+01 8.250411895918716709e-01
6.503364884853363037e+01 -5.022592771053314209e+01 9.796127227949966709e-01
6.506282365322113037e+01 -4.918808591365814209e+01 1.006910696427809171e+00
6.650545060634613037e+01 -4.927219235897064209e+01 1.061308279435621671e+00
6.296284806728363037e+01 -4.551669919490814209e+01 1.017164602677809171e+00
6.241401994228363037e+01 -4.412583005428314209e+01 1.030714407365309171e+00
6.266438615322113037e+01 -4.335629880428314209e+01 1.059919729630934171e+00
5.741194474697113037e+01 -4.499826657772064209e+01 1.151838674943434171e+00
6.537227189540863037e+01 -5.052280271053314209e+01 1.368864431779371671e+00
6.606660783290863037e+01 -5.000900876522064209e+01 1.410063162248121671e+00
6.473140275478363037e+01 -4.790903317928314209e+01 1.399900808732496671e+00
6.246162736415863037e+01 -4.515341794490814209e+01 1.364424124162184171e+00
6.265584123134613037e+01 -4.432639157772064209e+01 1.391218557755934171e+00
6.310835587978363037e+01 -4.370126950740814209e+01 1.426466360490309171e+00
5.741072404384613037e+01 -4.501669919490814209e+01 1.492308035294996671e+00
6.542976701259613037e+01 -5.059140622615814209e+01 1.755705252091871671e+00
6.474800431728363037e+01 -4.897995603084564209e+01 1.755506887834059171e+00
6.550618302822113037e+01 -4.853500974178314209e+01 1.799375906388746671e+00
6.293233048915863037e+01 -4.553342282772064209e+01 1.738493338029371671e+00
6.403547990322113037e+01 -4.537973630428314209e+01 1.792692556779371671e+00
6.302241837978363037e+01 -4.365756833553314209e+01 1.779280081193434171e+00
6.534492814540863037e+01 -5.054416501522064209e+01 2.136122122209059171e+00
6.480232560634613037e+01 -4.904440915584564209e+01 2.133985891740309171e+00
6.538887345790863037e+01 -4.846445310115814209e+01 2.172987356584059171e+00
6.605183732509613037e+01 -4.794040524959564209e+01 2.214887991349684171e+00
7.245613420009613037e+01 -5.171115720272064209e+01 2.472334280412184171e+00
6.612654435634613037e+01 -5.012192380428314209e+01 2.569349661271559171e+00
6.557185685634613037e+01 -4.862851560115814209e+01 2.560224905412184171e+00
6.636690080165863037e+01 -4.820273435115814209e+01 2.608763113419996671e+00
7.252595841884613037e+01 -5.178635251522064209e+01 2.889631643693434171e+00
6.451460587978363037e+01 -4.479233396053314209e+01 2.556547537248121671e+00
7.142671525478363037e+01 -5.322690427303314209e+01 3.223707571427809171e+00
6.741426408290863037e+01 -4.902585446834564209e+01 3.040144339005934171e+00
6.588313615322113037e+01 -4.848581540584564209e+01 2.585127249162184171e+00
6.628193986415863037e+01 -4.774191892147064209e+01 2.617781057755934171e+00
6.317573869228363037e+01 -4.340903317928314209e+01 2.514189138810621671e+00
6.514595353603363037e+01 -5.006003415584564209e+01 2.907972708146559171e+00
6.636275041103363037e+01 -4.995297849178314209e+01 2.979490652482496671e+00
7.157124650478363037e+01 -5.293186032772064209e+01 3.244215383927809171e+00
6.358540666103363037e+01 -4.372861325740814209e+01 2.896147146623121671e+00
6.597578752040863037e+01 -4.966831052303314209e+01 3.350706472794996671e+00
6.638289201259613037e+01 -4.891867673397064209e+01 3.382582083146559171e+00
6.298848283290863037e+01 -4.331259763240814209e+01 3.227873220841871671e+00
7.084065568447113037e+01 -5.144870603084564209e+01 2.354200735490309171e+00
7.250020158290863037e+01 -5.155734860897064209e+01 2.437651052873121671e+00
6.309016740322113037e+01 -4.346750485897064209e+01 2.120588674943434171e+00
6.492219865322113037e+01 -4.380197751522064209e+01 2.210249319474684171e+00
7.110542619228363037e+01 -5.402573239803314209e+01 2.744856253068434171e+00
6.543831193447113037e+01 -4.839353024959564209e+01 2.533201589982496671e+00
6.631245744228363037e+01 -4.799326169490814209e+01 2.588774099748121671e+00
7.261677873134613037e+01 -5.167099606990814209e+01 2.870970144669996671e+00
6.506575334072113037e+01 -4.392807614803314209e+01 2.593260183732496671e+00
6.651716935634613037e+01 -4.926450192928314209e+01 2.975630178849684171e+00
6.754158341884613037e+01 -4.896237790584564209e+01 3.040602102677809171e+00
6.453987443447113037e+01 -4.458164060115814209e+01 2.932554617326246671e+00
6.360579240322113037e+01 -4.289560544490814209e+01 2.903181448380934171e+00
6.590889298915863037e+01 -4.991257321834564209e+01 3.330122366349684171e+00
6.641902482509613037e+01 -4.921188962459564209e+01 3.370741262834059171e+00
6.205903947353363037e+01 -3.961093747615814209e+01 3.234114065568434171e+00
6.318245255947113037e+01 -3.934299314022064209e+01 3.311659231584059171e+00
6.397627580165863037e+01 -4.320395505428314209e+01 3.696394339005934171e+00
6.469636857509613037e+01 -4.261679685115814209e+01 3.755796804826246671e+00
6.262874162197113037e+01 -3.898508298397064209e+01 3.683744802873121671e+00
6.318013322353363037e+01 -4.239035642147064209e+01 2.249205007951246671e+00
6.096919572353363037e+01 -3.968515622615814209e+01 2.205305471818434171e+00
6.125130021572113037e+01 -3.882443845272064209e+01 2.247221365373121671e+00
6.187886369228363037e+01 -3.821384274959564209e+01 2.303312673966871671e+00
6.658003556728363037e+01 -4.974716794490814209e+01 2.669401541154371671e+00
6.645332658290863037e+01 -4.841770017147064209e+01 2.698118582169996671e+00
6.308504045009613037e+01 -4.347165524959564209e+01 2.629972830216871671e+00
6.353096330165863037e+01 -4.267954099178314209e+01 2.678572073380934171e+00
6.167012345790863037e+01 -4.022092282772064209e+01 2.633436575334059171e+00
6.320674455165863037e+01 -4.023825681209564209e+01 2.725782766740309171e+00
6.153071916103363037e+01 -3.800034177303314209e+01 2.685758963029371671e+00
6.652473771572113037e+01 -4.973605954647064209e+01 3.115080252091871671e+00
6.124348771572113037e+01 -3.994077146053314209e+01 3.015348806779371671e+00
6.542085587978363037e+01 -4.183701169490814209e+01 3.238645925919996671e+00
6.274458634853363037e+01 -3.887094724178314209e+01 3.140043630998121671e+00
6.404878556728363037e+01 -4.312265622615814209e+01 3.538114920060621671e+00
6.461006486415863037e+01 -4.240842282772064209e+01 3.591780081193434171e+00
6.225520646572113037e+01 -3.962131345272064209e+01 3.493070974748121671e+00
6.248762834072113037e+01 -3.872104489803314209e+01 3.530653372209059171e+00
6.387593400478363037e+01 -4.279611814022064209e+01 3.035490408341871671e+00
6.195051896572113037e+01 -4.027561032772064209e+01 2.979460134904371671e+00
6.592573869228363037e+01 -4.200449216365814209e+01 3.191160574357496671e+00
6.265755021572113037e+01 -3.861264646053314209e+01 3.072019949357496671e+00
6.416414201259613037e+01 -4.304062497615814209e+01 3.473554983537184171e+00
6.454426896572113037e+01 -4.218295896053314209e+01 3.520231619279371671e+00
6.236824357509613037e+01 -3.951511228084564209e+01 3.436613455216871671e+00
