8.109295979142189026e+00 -1.709383629262447357e+00 3.586588852107581715e-01
8.156659260392189026e+00 -1.646456383168697357e+00 3.657847397029456715e-01
8.205121174454689026e+00 -1.583834312856197357e+00 3.728190414607581715e-01
8.254681721329689026e+00 -1.521212242543697357e+00 3.801432602107581715e-01
8.304974690079689026e+00 -1.458895348012447357e+00 3.875437729060706715e-01
8.356732502579689026e+00 -1.397066734731197357e+00 3.950510971248206715e-01
8.413617268204689026e+00 -1.337069176137447357e+00 4.031535141170081715e-01
8.499432697892189026e+00 -1.290987633168697357e+00 4.132548324763831715e-01
8.105267658829689026e+00 -1.710543297231197357e+00 3.944865219295081715e-01
8.154339924454689026e+00 -1.648531578481197357e+00 4.017954818904456715e-01
8.204632893204689026e+00 -1.586947105824947357e+00 4.092265121638831715e-01
8.256146565079689026e+00 -1.525362633168697357e+00 4.167948715388831715e-01
8.308514729142189026e+00 -1.464144371449947357e+00 4.244090072810706715e-01
8.362469807267189026e+00 -1.403292320668697357e+00 4.321757309138831715e-01
8.421063557267189026e+00 -1.344088219106197357e+00 4.403391830623206715e-01
8.540936604142189026e+00 -1.314486168324947357e+00 4.534007064998206715e-01
8.231366291642189026e+00 -1.786959312856197357e+00 4.411173813045081715e-01
8.279095783829689026e+00 -1.722506187856197357e+00 4.482584945857581715e-01
8.327435627579689026e+00 -1.658175133168697357e+00 4.556742660701331715e-01
8.377484455704689026e+00 -1.594210289418697357e+00 4.632426254451331715e-01
8.428265705704689026e+00 -1.530550621449947357e+00 4.708872787654456715e-01
8.480023518204689026e+00 -1.466951988637447357e+00 4.786082260310706715e-01
8.534466877579689026e+00 -1.404146812856197357e+00 4.865885727107581715e-01
8.614911213517189026e+00 -1.353975914418697357e+00 4.969798080623206715e-01
8.223431721329689026e+00 -1.785860680043697357e+00 4.772807113826331715e-01
8.271527424454689026e+00 -1.721773765981197357e+00 4.847117416560706715e-01
8.320599690079689026e+00 -1.657869957387447357e+00 4.922343246638831715e-01
8.371258869767189026e+00 -1.594271324574947357e+00 4.999247543513831715e-01
8.422650471329689026e+00 -1.530916832387447357e+00 5.076762191951331715e-01
8.474896565079689026e+00 -1.467745445668697357e+00 5.155344955623206715e-01
8.548382893204689026e+00 -1.414522789418697357e+00 5.253153793513831715e-01
8.616009846329689026e+00 -1.357760094106197357e+00 5.345774643123206715e-01
8.221356526017189026e+00 -1.788241051137447357e+00 5.141154281795081715e-01
8.269452229142189026e+00 -1.724093101918697357e+00 5.214243881404456715e-01
8.318524494767189026e+00 -1.660189293324947357e+00 5.290080063045081715e-01
8.369183674454689026e+00 -1.596529625356197357e+00 5.367594711482581715e-01
8.420453205704689026e+00 -1.533175133168697357e+00 5.445872299373206715e-01
8.472699299454689026e+00 -1.470003746449947357e+00 5.525218002498206715e-01
8.533734455704689026e+00 -1.410433433949947357e+00 5.612956039607581715e-01
8.613446369767189026e+00 -1.359835289418697357e+00 5.720683090388831715e-01
8.219281330704689026e+00 -1.790560387074947357e+00 5.507822982966956715e-01
8.267499104142189026e+00 -1.726473473012447357e+00 5.583353988826331715e-01
8.316571369767189026e+00 -1.662569664418697357e+00 5.659953109920081715e-01
8.367230549454689026e+00 -1.598909996449947357e+00 5.738230697810706715e-01
8.418500080704689026e+00 -1.535555504262447357e+00 5.817271225154456715e-01
8.470868244767189026e+00 -1.472384117543697357e+00 5.897379867732581715e-01
8.602215901017189026e+00 -1.448214195668697357e+00 6.056834213435706715e-01
8.638470783829689026e+00 -1.375399254262447357e+00 6.121226303279456715e-01
8.217572346329689026e+00 -1.793123863637447357e+00 5.876780502498206715e-01
8.265790119767189026e+00 -1.728975914418697357e+00 5.953074447810706715e-01
8.314862385392189026e+00 -1.665072105824947357e+00 6.028147689998206715e-01
8.365399494767189026e+00 -1.601351402699947357e+00 6.107188217341956715e-01
8.416791096329689026e+00 -1.538057945668697357e+00 6.186991684138831715e-01
8.469037190079689026e+00 -1.474825523793697357e+00 6.267863266170081715e-01
8.596234455704689026e+00 -1.448580406606197357e+00 6.429759018123206715e-01
8.636883869767189026e+00 -1.378023765981197357e+00 6.498728744685706715e-01
8.216473713517189026e+00 -1.796053551137447357e+00 6.246653549373206715e-01
8.264691486954689026e+00 -1.731905601918697357e+00 6.321574203670081715e-01
8.313885822892189026e+00 -1.668001793324947357e+00 6.399394027888831715e-01
8.364545002579689026e+00 -1.604342125356197357e+00 6.479197494685706715e-01
8.415936604142189026e+00 -1.540987633168697357e+00 6.559763900935706715e-01
8.468304768204689026e+00 -1.477755211293697357e+00 6.641551010310706715e-01
8.585003986954689026e+00 -1.446322105824947357e+00 6.794444076716956715e-01
8.632611408829689026e+00 -1.379244469106197357e+00 6.873332016170081715e-01
9.113934651017189026e+00 -1.548433922231197357e+00 -1.936235502361682848e-02
9.165204182267189026e+00 -1.477572105824947357e+00 -1.226701810955432848e-02
9.214032307267189026e+00 -1.405123375356197357e+00 -5.385304242366828475e-03
9.263226643204689026e+00 -1.332247398793697357e+00 1.542185992008171525e-03
9.312420979142189026e+00 -1.259310387074947357e+00 8.469676226383171525e-03
9.361737385392189026e+00 -1.186129234731197357e+00 1.541242524982067152e-02
9.411542072892189026e+00 -1.112398765981197357e+00 2.241620942950817152e-02
9.458539143204689026e+00 -1.037569664418697357e+00 2.914533540607067152e-02
9.707806721329689026e+00 -1.838839195668697357e+00 3.147993013263317152e-02
9.758465901017189026e+00 -1.760347984731197357e+00 3.889570161700817152e-02
9.810223713517189026e+00 -1.682161949574947357e+00 4.658613130450817152e-02
9.856000080704689026e+00 -1.600496910512447357e+00 5.395612642169567152e-02
9.901654377579689026e+00 -1.518953941762447357e+00 6.132612153888317152e-02
9.947430744767189026e+00 -1.437288902699947357e+00 6.871137544513317152e-02
9.990155354142189026e+00 -1.353853844106197357e+00 7.582197114825817152e-02
1.003617586195468903e+01 -1.271883629262447357e+00 8.323774263263317152e-02
1.032755769789218903e+01 -2.142244957387447357e+00 8.902082368732067152e-02
1.038615144789218903e+01 -2.059969566762447357e+00 9.716901704669567152e-02
1.044474519789218903e+01 -1.977266930043697357e+00 1.053324691951331715e-01
1.049467195570468903e+01 -1.889803551137447357e+00 1.133280746638831715e-01
1.054435457289218903e+01 -1.802401207387447357e+00 1.213084213435706715e-01
1.061271394789218903e+01 -1.722689293324947357e+00 1.298228256404456715e-01
1.069999422132968903e+01 -1.649752281606197357e+00 1.389170639216956715e-01
1.078776277601718903e+01 -1.576265953481197357e+00 1.480723373591956715e-01
1.104264558851718903e+01 -2.492342613637447357e+00 1.554118148982581715e-01
1.112028230726718903e+01 -2.410311363637447357e+00 1.649943344295081715e-01
1.120219148695468903e+01 -2.329439781606197357e+00 1.745005600154456715e-01
1.129948152601718903e+01 -2.254000328481197357e+00 1.845408432185706715e-01
1.139738191664218903e+01 -2.178011558949947357e+00 1.946726791560706715e-01
1.149638094007968903e+01 -2.101229332387447357e+00 2.049113266170081715e-01
1.159672273695468903e+01 -2.023348473012447357e+00 2.152873031795081715e-01
1.169779695570468903e+01 -1.944735191762447357e+00 2.254649154841956715e-01
1.197636140882968903e+01 -2.949068687856197357e+00 2.368174545466956715e-01
1.209196199476718903e+01 -2.873446129262447357e+00 2.482768051326331715e-01
1.220902742445468903e+01 -2.796908043324947357e+00 2.598734848201331715e-01
1.232792390882968903e+01 -2.719088219106197357e+00 2.716685287654456715e-01
1.244804109632968903e+01 -2.640597008168697357e+00 2.835856430232581715e-01
1.256962312757968903e+01 -2.561007164418697357e+00 2.956553451716956715e-01
1.269340242445468903e+01 -2.480135582387447357e+00 3.079234115779456715e-01
1.282743562757968903e+01 -2.402071617543697357e+00 3.206645004451331715e-01
1.308121980726718903e+01 -3.489473961293697357e+00 3.341532699763831715e-01
1.324601472914218903e+01 -3.423678062856197357e+00 3.489848129451331715e-01
1.340495027601718903e+01 -3.352450035512447357e+00 3.634043686091956715e-01
1.354752840101718903e+01 -3.270907066762447357e+00 3.773356430232581715e-01
1.368790926039218903e+01 -3.186678551137447357e+00 3.912669174373206715e-01
1.384440340101718903e+01 -3.107271812856197357e+00 4.059763900935706715e-01
1.408353914320468903e+01 -3.059054039418697357e+00 4.244090072810706715e-01
1.433561433851718903e+01 -3.012362144887447357e+00 4.432841293513831715e-01
1.447282136976718903e+01 -4.170138023793697357e+00 4.557810775935706715e-01
1.466605867445468903e+01 -4.100802086293697357e+00 4.730540268123206715e-01
1.484940828382968903e+01 -4.023653648793697357e+00 4.900523178279456715e-01
1.523100008070468903e+01 -4.031893394887447357e+00 5.163584701716956715e-01
1.562955965101718903e+01 -4.040499351918697357e+00 5.438548080623206715e-01
1.614433015882968903e+01 -4.090548180043697357e+00 5.772715561091956715e-01
1.672294344007968903e+01 -4.155794762074947357e+00 6.143504135310706715e-01
1.762052644789218903e+01 -4.337984703481197357e+00 6.675272934138831715e-01
1.664249910414218903e+01 -5.230013512074947357e+00 6.295939438045081715e-01
1.750199617445468903e+01 -5.449556969106197357e+00 6.821299545466956715e-01
1.828971590101718903e+01 -5.616976402699947357e+00 7.324839584529456715e-01
1.950578035414218903e+01 -5.958895348012447357e+00 8.052226059138831715e-01
2.782084383070468903e+01 -9.067232750356197357e+00 1.262711619585758172e+00
2.782694734632968903e+01 -9.080843590199947357e+00 1.395325755327945672e+00
2.783305086195468903e+01 -9.094393394887447357e+00 1.528122996538883172e+00
8.561444416642189026e+00 -1.314425133168697357e+00 3.434916488826331715e-01
2.783915437757968903e+01 -9.108065269887447357e+00 1.661805247515445672e+00
8.509930744767189026e+00 -1.292574547231197357e+00 3.769999496638831715e-01
2.783866609632968903e+01 -9.118868492543697357e+00 1.794465159624820672e+00
2.761527742445468903e+01 -8.714022301137447357e+00 1.792039012163883172e+00
2.740031160414218903e+01 -8.321505211293697357e+00 1.789811228960758172e+00
8.500409260392189026e+00 -1.291170738637447357e+00 4.133311264216956715e-01
2.851920808851718903e+01 -1.072696175426244736e+01 1.925187205523258172e+00
2.833891023695468903e+01 -1.031277718394994736e+01 1.924805735796695672e+00
2.816276277601718903e+01 -9.906710289418697357e+00 1.925232981890445672e+00
2.799100984632968903e+01 -9.510714195668697357e+00 1.925660227984195672e+00
2.782291902601718903e+01 -9.123140953481197357e+00 1.926056956499820672e+00
2.761320222914218903e+01 -8.723971031606197357e+00 1.923691844195133172e+00
2.741117586195468903e+01 -8.336458824574947357e+00 1.920853709429508172e+00
8.545209065079689026e+00 -1.316256187856197357e+00 4.537516586482581715e-01
2.851810945570468903e+01 -1.073855843394994736e+01 2.063828562945133172e+00
2.833817781507968903e+01 -1.032431282848119736e+01 2.062684153765445672e+00
2.816142000257968903e+01 -9.917696617543697357e+00 2.061570262163883172e+00
2.798917879164218903e+01 -9.521273277699947357e+00 2.060486888140445672e+00
2.782059969007968903e+01 -9.133211754262447357e+00 2.059418772906070672e+00
2.760941804945468903e+01 -8.733126305043697357e+00 2.054596995562320672e+00
2.740604890882968903e+01 -8.344820640981197357e+00 2.050080393999820672e+00
8.615887776017189026e+00 -1.354097984731197357e+00 4.970713607966956715e-01
8.617352619767189026e+00 -1.358126305043697357e+00 5.346995346248206715e-01
8.614789143204689026e+00 -1.360201500356197357e+00 5.722056381404456715e-01
8.638104572892189026e+00 -1.374910973012447357e+00 6.121073715388831715e-01
8.636883869767189026e+00 -1.377657555043697357e+00 6.498881332576331715e-01
8.632611408829689026e+00 -1.378939293324947357e+00 6.873484604060706715e-01
9.458905354142189026e+00 -1.037386558949947357e+00 2.917585298419567152e-02
9.506512776017189026e+00 -9.624964222311973572e-01 3.611860200763317152e-02
9.545575276017189026e+00 -8.838831409811973572e-01 4.267988130450817152e-02
9.584881916642189026e+00 -8.048426136374473572e-01 4.928693696857067152e-02
9.658124104142189026e+00 -7.379480823874473572e-01 5.662641450763317152e-02
9.743817463517189026e+00 -6.743494495749473572e-01 6.430158540607067152e-02
9.831097736954689026e+00 -6.097132191061973572e-01 7.211408540607067152e-02
9.915326252579689026e+00 -5.431238636374473572e-01 7.969770357013317152e-02
1.003642000257968903e+01 -1.271639488637447357e+00 8.325300142169567152e-02
1.009916414320468903e+01 -1.195894859731197357e+00 9.083661958575817152e-02
1.017753328382968903e+01 -1.125399254262447357e+00 9.909162446857067152e-02
1.025309480726718903e+01 -1.052401207387447357e+00 1.071177475154456715e-01
1.032914461195468903e+01 -9.789759144186973572e-01 1.152049057185706715e-01
1.042362703382968903e+01 -9.108606800436973572e-01 1.238413803279456715e-01
1.051603426039218903e+01 -8.403650745749473572e-01 1.322947494685706715e-01
1.061308015882968903e+01 -7.703577503561973572e-01 1.411753647029456715e-01
1.078861726820468903e+01 -1.576265953481197357e+00 1.481181137263831715e-01
1.088615144789218903e+01 -1.505404137074947357e+00 1.573954574763831715e-01
1.098515047132968903e+01 -1.433687828481197357e+00 1.667948715388831715e-01
1.108585847914218903e+01 -1.360689781606197357e+00 1.763468734920081715e-01
1.118754304945468903e+01 -1.287020348012447357e+00 1.860056869685706715e-01
1.129069246351718903e+01 -1.212313316762447357e+00 1.957865707576331715e-01
1.139555086195468903e+01 -1.136324547231197357e+00 2.057505600154456715e-01
1.150162996351718903e+01 -1.059481285512447357e+00 2.158213607966956715e-01
1.169877351820468903e+01 -1.944796226918697357e+00 2.255259506404456715e-01
1.181693758070468903e+01 -1.871493004262447357e+00 2.366953842341956715e-01
1.194633211195468903e+01 -1.800570152699947357e+00 2.480784408748206715e-01
1.207829011976718903e+01 -1.728182457387447357e+00 2.597056381404456715e-01
1.221232332289218903e+01 -1.654818199574947357e+00 2.715006820857581715e-01
1.234867586195468903e+01 -1.580050133168697357e+00 2.835093490779456715e-01
1.256632722914218903e+01 -1.529879234731197357e+00 2.987223617732581715e-01
1.280192293226718903e+01 -1.481905601918697357e+00 3.145304672420081715e-01
1.282902254164218903e+01 -2.402254723012447357e+00 3.207407943904456715e-01
1.299418367445468903e+01 -2.334322594106197357e+00 3.346110336482581715e-01
1.317985261976718903e+01 -2.271273277699947357e+00 3.494425766170081715e-01
1.340177644789218903e+01 -2.217867515981197357e+00 3.659678451716956715e-01
1.362968172132968903e+01 -2.162935875356197357e+00 3.829203598201331715e-01
1.388334383070468903e+01 -2.112826012074947357e+00 4.012003891170081715e-01
1.419144929945468903e+01 -2.075716637074947357e+00 4.220591537654456715e-01
1.451139558851718903e+01 -2.037081383168697357e+00 4.437418930232581715e-01
1.433781160414218903e+01 -3.012728355824947357e+00 4.434061996638831715e-01
1.461417879164218903e+01 -2.970797203481197357e+00 4.640818588435706715e-01
1.497074617445468903e+01 -2.954012535512447357e+00 4.882975570857581715e-01
1.548100008070468903e+01 -2.986117027699947357e+00 5.199137680232581715e-01
1.602518953382968903e+01 -3.020479820668697357e+00 5.536356918513831715e-01
1.660905183851718903e+01 -3.057467125356197357e+00 5.897990219295081715e-01
1.723722566664218903e+01 -3.096895836293697357e+00 6.287394516170081715e-01
1.839396394789218903e+01 -3.294832848012447357e+00 6.931925766170081715e-01
1.762919344007968903e+01 -4.340792320668697357e+00 6.679697982966956715e-01
1.854557527601718903e+01 -4.510958336293697357e+00 7.229166977107581715e-01
1.980534090101718903e+01 -4.791720055043697357e+00 7.959757797420081715e-01
2.239762605726718903e+01 -5.534395836293697357e+00 9.376231186091956715e-01
2.739860261976718903e+01 -8.319735191762447357e+00 1.789719676226383172e+00
2.718864168226718903e+01 -7.936617515981197357e+00 1.787674998492008172e+00
2.698356355726718903e+01 -7.562288902699947357e+00 1.785676097124820672e+00
2.678239168226718903e+01 -7.195223473012447357e+00 1.783722972124820672e+00
2.658646883070468903e+01 -6.837618492543697357e+00 1.781815623492008172e+00
2.637186922132968903e+01 -6.480013512074947357e+00 1.778199290484195672e+00
2.614872469007968903e+01 -6.125399254262447357e+00 1.773682688921695672e+00
2.593180574476718903e+01 -5.780550621449947357e+00 1.769272898882633172e+00
2.740946687757968903e+01 -8.334688805043697357e+00 1.920762156695133172e+00
2.720695222914218903e+01 -7.954134605824947357e+00 1.917801951617008172e+00
2.700480379164218903e+01 -7.580416344106197357e+00 1.913895701617008172e+00
2.680595125257968903e+01 -7.213717125356197357e+00 1.910691355913883172e+00
2.661222566664218903e+01 -6.856417320668697357e+00 1.907563304156070672e+00
2.640238679945468903e+01 -6.499910973012447357e+00 1.902878855913883172e+00
2.618046297132968903e+01 -6.145174644887447357e+00 1.897599314898258172e+00
2.596537508070468903e+01 -5.800387047231197357e+00 1.891877268999820672e+00
2.740433992445468903e+01 -8.343111656606197357e+00 2.049973582476383172e+00
2.720621980726718903e+01 -7.964022301137447357e+00 2.045914744585758172e+00
2.701237215101718903e+01 -7.593355797231197357e+00 2.041947459429508172e+00
2.682230867445468903e+01 -7.229586265981197357e+00 2.038041209429508172e+00
2.663688386976718903e+01 -6.874849937856197357e+00 2.034241770952945672e+00
2.643497957289218903e+01 -6.520662926137447357e+00 2.028779124468570672e+00
2.621732820570468903e+01 -6.166659019887447357e+00 2.021714305132633172e+00
2.600565828382968903e+01 -5.822359703481197357e+00 2.014847850054508172e+00
2.679838289320468903e+01 -6.942476890981197357e+00 2.172944163531070672e+00
2.704252351820468903e+01 -7.330965660512447357e+00 2.310639476031070672e+00
2.679154695570468903e+01 -6.949740074574947357e+00 2.298005198687320672e+00
2.702872957289218903e+01 -7.335726402699947357e+00 2.436066722124820672e+00
2.678593172132968903e+01 -6.957308433949947357e+00 2.422532176226383172e+00
2.670548738539218903e+01 -7.225435875356197357e+00 2.529770945757633172e+00
2.677262605726718903e+01 -6.962252281606197357e+00 2.546998118609195672e+00
2.683976472914218903e+01 -6.699556969106197357e+00 2.564194773882633172e+00
2.670316804945468903e+01 -7.234408043324947357e+00 2.654847239702945672e+00
2.677042879164218903e+01 -6.971102379262447357e+00 2.671967601031070672e+00
2.683756746351718903e+01 -6.708284996449947357e+00 2.689057444781070672e+00
2.670084871351718903e+01 -7.243380211293697357e+00 2.780686473101383172e+00
2.676810945570468903e+01 -6.979952476918697357e+00 2.797684764117008172e+00
2.683524812757968903e+01 -6.717074058949947357e+00 2.814652537554508172e+00
9.915692463517189026e+00 -5.429407581686973572e-01 7.972822114825817152e-02
1.000419344007968903e+01 -4.764124378561973572e-01 8.764753267169567152e-02
1.008988679945468903e+01 -4.076868519186973572e-01 9.536847993732067152e-02
1.017716707289218903e+01 -3.377405628561973572e-01 1.032267563045081715e-01
1.026542390882968903e+01 -2.670618519186973572e-01 1.111613266170081715e-01
1.035502351820468903e+01 -1.953455433249473572e-01 1.192179672420081715e-01
1.044608797132968903e+01 -1.223474964499473572e-01 1.274271957576331715e-01
1.053385652601718903e+01 -4.745735973119735718e-02 1.353617660701331715e-01
1.061356844007968903e+01 -7.701746448874473572e-01 1.412211410701331715e-01
1.070768465101718903e+01 -6.977869495749473572e-01 1.498423568904456715e-01
1.080973543226718903e+01 -6.263147816061973572e-01 1.590281479060706715e-01
1.092118562757968903e+01 -5.555140003561973572e-01 1.683665268123206715e-01
1.103410066664218903e+01 -4.836756214499473572e-01 1.778422348201331715e-01
1.114909090101718903e+01 -4.105555042624473572e-01 1.874857895076331715e-01
1.130582918226718903e+01 -3.459192737936973572e-01 1.983500473201331715e-01
1.150114168226718903e+01 -2.884241566061973572e-01 2.108927719295081715e-01
1.150162996351718903e+01 -1.059176109731197357e+00 2.158366195857581715e-01
1.160343660414218903e+01 -9.794031605124473572e-01 2.256022445857581715e-01
1.173771394789218903e+01 -9.078089222311973572e-01 2.365733139216956715e-01
1.195243562757968903e+01 -8.568445667624473572e-01 2.505351059138831715e-01
1.217423738539218903e+01 -8.041712269186973572e-01 2.649394027888831715e-01
1.240409578382968903e+01 -7.496668323874473572e-01 2.798930160701331715e-01
1.264347566664218903e+01 -6.928431019186973572e-01 2.954417221248206715e-01
1.289091219007968903e+01 -6.340662464499473572e-01 3.115244857966956715e-01
1.280350984632968903e+01 -1.481966637074947357e+00 3.146220199763831715e-01
1.305814851820468903e+01 -1.435518883168697357e+00 3.317423813045081715e-01
1.331315340101718903e+01 -1.384371422231197357e+00 3.488627426326331715e-01
1.355265535414218903e+01 -1.323519371449947357e+00 3.656474106013831715e-01
1.378532136976718903e+01 -1.256685875356197357e+00 3.823710434138831715e-01
1.410221590101718903e+01 -1.208223961293697357e+00 4.028178207576331715e-01
1.452787508070468903e+01 -1.181368492543697357e+00 4.281626693904456715e-01
1.492313875257968903e+01 -1.139071129262447357e+00 4.523020736873206715e-01
1.451347078382968903e+01 -2.037264488637447357e+00 4.438487045466956715e-01
1.484989656507968903e+01 -1.997652672231197357e+00 4.663401596248206715e-01
1.532743562757968903e+01 -1.993929527699947357e+00 4.954234115779456715e-01
1.583878816664218903e+01 -1.989901207387447357e+00 5.265513412654456715e-01
1.638480867445468903e+01 -1.985994957387447357e+00 5.597849838435706715e-01
1.696879304945468903e+01 -1.981417320668697357e+00 5.953379623591956715e-01
1.759916414320468903e+01 -1.976717613637447357e+00 6.337138168513831715e-01
1.863895906507968903e+01 -2.061312340199947357e+00 6.920329086482581715e-01
1.841972078382968903e+01 -3.302462242543697357e+00 6.944590561091956715e-01
1.951469148695468903e+01 -3.456698082387447357e+00 7.578593246638831715e-01
2.078593172132968903e+01 -3.641085289418697357e+00 8.306742660701331715e-01
2.592997469007968903e+01 -5.779085777699947357e+00 1.769181346148258172e+00
2.571806062757968903e+01 -5.442354820668697357e+00 1.765000437945133172e+00
2.551078523695468903e+01 -5.113253258168697357e+00 1.760895823687320672e+00
2.530753816664218903e+01 -4.790438316762447357e+00 1.756882762163883172e+00
2.510941804945468903e+01 -4.475802086293697357e+00 1.752961253374820672e+00
2.489982332289218903e+01 -4.163729332387447357e+00 1.747880076617008172e+00
2.466740144789218903e+01 -3.850863121449947357e+00 1.740754222124820672e+00
2.444169344007968903e+01 -3.546724937856197357e+00 1.733826731890445672e+00
2.596366609632968903e+01 -5.798922203481197357e+00 1.891785716265445672e+00
2.575346101820468903e+01 -5.462191246449947357e+00 1.886384104937320672e+00
2.554850496351718903e+01 -5.133150719106197357e+00 1.880539988726383172e+00
2.534684480726718903e+01 -4.810152672231197357e+00 1.875382518023258172e+00
2.515018953382968903e+01 -4.495333336293697357e+00 1.870347117632633172e+00
2.494657625257968903e+01 -4.184298180043697357e+00 1.864472483843570672e+00
2.471525301039218903e+01 -3.870943687856197357e+00 1.856614207476383172e+00
2.449088777601718903e+01 -3.566561363637447357e+00 1.848450755327945672e+00
2.600394929945468903e+01 -5.820894859731197357e+00 2.014741038531070672e+00
2.579765047132968903e+01 -5.484774254262447357e+00 2.008362864702945672e+00
2.559586824476718903e+01 -5.156038902699947357e+00 2.002122019976383172e+00
2.539787019789218903e+01 -4.833407066762447357e+00 1.996003245562320672e+00
2.520475496351718903e+01 -4.518831871449947357e+00 1.990037059038883172e+00
2.500602449476718903e+01 -4.208284996449947357e+00 1.983323191851383172e+00
2.477702058851718903e+01 -3.894747398793697357e+00 1.973694895952945672e+00
2.455448640882968903e+01 -3.589876793324947357e+00 1.964341258257633172e+00
1.053446687757968903e+01 -4.727425426244735718e-02 1.353922836482581715e-01
1.062785066664218903e+01 2.767691761255264282e-02 1.437388412654456715e-01
1.073527254164218903e+01 1.010411754250526428e-01 1.523753158748206715e-01
1.088541902601718903e+01 1.673863902688026428e-01 1.623850814998206715e-01
1.103532136976718903e+01 2.362340465188026428e-01 1.725474350154456715e-01
1.119950594007968903e+01 3.049596324563026428e-01 1.832896225154456715e-01
1.136918367445468903e+01 3.760045543313026428e-01 1.943980209529456715e-01
1.153666414320468903e+01 4.501012340188026428e-01 2.053233139216956715e-01
1.150224031507968903e+01 -2.883020862936973572e-01 2.109385482966956715e-01
1.169694246351718903e+01 -2.270227894186973572e-01 2.233744613826331715e-01
1.190531648695468903e+01 -1.651941761374473572e-01 2.367259018123206715e-01
1.211466707289218903e+01 -9.933724254369735718e-02 2.501078598201331715e-01
1.233085359632968903e+01 -3.128304332494735718e-02 2.639170639216956715e-01
1.255106844007968903e+01 4.000601917505264282e-02 2.780772201716956715e-01
1.275907625257968903e+01 1.179479137063026428e-01 2.917643539607581715e-01
1.302103914320468903e+01 1.899693980813026428e-01 3.079081527888831715e-01
1.289213289320468903e+01 -6.339441761374473572e-01 3.116007797420081715e-01
1.314054597914218903e+01 -5.707727894186973572e-01 3.276988022029456715e-01
1.339884676039218903e+01 -5.050989612936973572e-01 3.444376938045081715e-01
1.366874422132968903e+01 -4.365564808249473572e-01 3.619090072810706715e-01
1.394877351820468903e+01 -3.654505237936973572e-01 3.800517074763831715e-01
1.424039949476718903e+01 -2.913538441061973572e-01 3.989420883357581715e-01
1.454569734632968903e+01 -2.138391956686973572e-01 4.187174789607581715e-01
1.490507234632968903e+01 -1.404749378561973572e-01 4.410258285701331715e-01
1.492509187757968903e+01 -1.139132164418697357e+00 4.524088852107581715e-01
1.528690828382968903e+01 -1.081331871449947357e+00 4.759226791560706715e-01
1.565507234632968903e+01 -1.017977379262447357e+00 4.997416488826331715e-01
1.612699617445468903e+01 -9.693323597311973572e-01 5.285349838435706715e-01
1.666862215101718903e+01 -9.263636097311973572e-01 5.609141342341956715e-01
1.755729402601718903e+01 -9.402185901999473572e-01 6.095286361873206715e-01
1.829398836195468903e+01 -9.079309925436973572e-01 6.521769516170081715e-01
1.908183015882968903e+01 -8.705774769186973572e-01 6.974802963435706715e-01
1.864677156507968903e+01 -2.062655113637447357e+00 6.924296371638831715e-01
1.997465242445468903e+01 -2.194124840199947357e+00 7.652903549373206715e-01
2.191569246351718903e+01 -2.437166832387447357e+00 8.691416732966956715e-01
2.384660066664218903e+01 -2.403292320668697357e+00 9.868632309138831715e-01
2.346049226820468903e+01 -2.094820640981197357e+00 9.798136703670081715e-01
2.384367097914218903e+01 -2.409456871449947357e+00 1.092835520952945672e+00
2.346610750257968903e+01 -2.102511070668697357e+00 1.084229563921695672e+00
2.384061922132968903e+01 -2.415621422231197357e+00 1.198304270952945672e+00
2.347172273695468903e+01 -2.110140465199947357e+00 1.188218211382633172e+00
2.383842195570468903e+01 -2.422030113637447357e+00 1.304444407671695672e+00
2.384098543226718903e+01 -2.429354332387447357e+00 1.410401438921695672e+00
2.384354890882968903e+01 -2.436678551137447357e+00 1.516465281695133172e+00
2.339433015882968903e+01 -1.885836265981197357e+00 1.505555247515445672e+00
2.384965242445468903e+01 -2.444796226918697357e+00 1.623490428179508172e+00
2.338468660414218903e+01 -1.890535973012447357e+00 1.608811473101383172e+00
2.443998445570468903e+01 -3.545504234731197357e+00 1.733719920367008172e+00
2.421940340101718903e+01 -3.248629234731197357e+00 1.727067088335758172e+00
2.400919832289218903e+01 -2.959810875356197357e+00 1.720978831499820672e+00
2.380546297132968903e+01 -2.676973961293697357e+00 1.715211009234195672e+00
2.360673250257968903e+01 -2.401278160512447357e+00 1.709595774859195672e+00
2.341227449476718903e+01 -2.131502769887447357e+00 1.704102610796695672e+00
2.317472566664218903e+01 -1.857821129262447357e+00 1.694825267046695672e+00
2.294657625257968903e+01 -1.592440269887447357e+00 1.686020945757633172e+00
2.448917879164218903e+01 -3.565279625356197357e+00 1.848343943804508172e+00
2.427006258070468903e+01 -3.268099449574947357e+00 1.840561961382633172e+00
2.405656160414218903e+01 -2.977755211293697357e+00 1.832413768023258172e+00
2.384647859632968903e+01 -2.692843101918697357e+00 1.824952220171695672e+00
2.364176668226718903e+01 -2.415316246449947357e+00 1.817673777788883172e+00
2.344169344007968903e+01 -2.143831871449947357e+00 1.810563182085758172e+00
2.320097078382968903e+01 -1.869173668324947357e+00 1.800248240679508172e+00
2.296635164320468903e+01 -1.602205894887447357e+00 1.789612864702945672e+00
2.455277742445468903e+01 -3.588656090199947357e+00 1.964234446734195672e+00
2.433585847914218903e+01 -3.291109703481197357e+00 1.955414866656070672e+00
2.337565340101718903e+01 -1.908297203481197357e+00 1.919221018999820672e+00
2.337370027601718903e+01 -1.914400719106197357e+00 2.022721385210758172e+00
2.337724031507968903e+01 -1.921602867543697357e+00 2.127396678179508172e+00
2.338078035414218903e+01 -1.928743980824947357e+00 2.231629466265445672e+00
2.357975496351718903e+01 -2.436312340199947357e+00 2.339753245562320672e+00
2.338895906507968903e+01 -1.936800621449947357e+00 2.337052439898258172e+00
2.356681551039218903e+01 -2.440401695668697357e+00 2.443665599077945672e+00
2.337992586195468903e+01 -2.171358726918697357e+00 2.431107615679508172e+00
2.336552156507968903e+01 -1.938936851918697357e+00 2.438965892046695672e+00
2.335111726820468903e+01 -1.708529137074947357e+00 2.446198558062320672e+00
2.338041414320468903e+01 -2.178133629262447357e+00 2.536042308062320672e+00
2.336588777601718903e+01 -1.945528648793697357e+00 2.543061351031070672e+00
2.335148347914218903e+01 -1.714998863637447357e+00 2.550568675249820672e+00
2.349735750257968903e+01 -2.031649254262447357e+00 1.120286082476383172e+00
2.348551668226718903e+01 -2.036776207387447357e+00 1.230729197710758172e+00
2.347367586195468903e+01 -2.041903160512447357e+00 1.340546702593570672e+00
2.346183504164218903e+01 -2.047030113637447357e+00 1.450928782671695672e+00
2.344999422132968903e+01 -2.052157066762447357e+00 1.560700511187320672e+00
2.334721101820468903e+01 -2.038729332387447357e+00 1.663651560992008172e+00
2.308549226820468903e+01 -1.744906090199947357e+00 1.654450511187320672e+00
2.283097566664218903e+01 -1.458651207387447357e+00 1.644990061968570672e+00
2.258134187757968903e+01 -1.178438805043697357e+00 1.636231517046695672e+00
2.233866609632968903e+01 -9.060389026999473572e-01 1.627717112749820672e+00
2.210184969007968903e+01 -6.402918323874473572e-01 1.619416331499820672e+00
2.186930574476718903e+01 -3.799768909811973572e-01 1.611771678179508172e+00
2.165360750257968903e+01 -1.280848011374473572e-01 1.604691600054508172e+00
2.338627351820468903e+01 -2.054232262074947357e+00 1.777299021929508172e+00
2.313627351820468903e+01 -1.762118004262447357e+00 1.767747019976383172e+00
2.288285554945468903e+01 -1.475374840199947357e+00 1.757599925249820672e+00
2.263493074476718903e+01 -1.194735191762447357e+00 1.747666453570133172e+00
2.239384187757968903e+01 -9.219080433249473572e-01 1.738022898882633172e+00
2.215861238539218903e+01 -6.556726917624473572e-01 1.728592967242008172e+00
2.192814363539218903e+01 -3.948694691061973572e-01 1.719376658648258172e+00
2.170402254164218903e+01 -1.410852894186973572e-01 1.710404490679508172e+00
2.341044344007968903e+01 -2.066744469106197357e+00 1.890641307085758172e+00
2.314616121351718903e+01 -1.771395348012447357e+00 1.877854441851383172e+00
2.289933504164218903e+01 -1.485567711293697357e+00 1.866959666460758172e+00
2.265763582289218903e+01 -1.205660484731197357e+00 1.856278514117008172e+00
2.242265047132968903e+01 -9.334436878561973572e-01 1.845902537554508172e+00
2.219315828382968903e+01 -6.675745472311973572e-01 1.835770701617008172e+00
2.196818269789218903e+01 -4.070765003561973572e-01 1.825837229937320672e+00
2.175004304945468903e+01 -1.535974964499473572e-01 1.816788768023258172e+00
2.337516511976718903e+01 -2.097323082387447357e+00 2.443039988726383172e+00
2.335978426039218903e+01 -1.850252769887447357e+00 2.451661204546695672e+00
2.164762605726718903e+01 -2.078499644994735718e-02 1.079362010210758172e+00
2.165470613539218903e+01 -2.896370738744735718e-02 1.188294505327945672e+00
2.111967195570468903e+01 4.870275035500526428e-01 1.494690989702945672e+00
2.084379304945468903e+01 7.473424449563026428e-01 1.484315013140445672e+00
2.057426179945468903e+01 1.001614905893802643e+00 1.474183177202945672e+00
2.031266511976718903e+01 1.248441077768802643e+00 1.464341258257633172e+00
2.206950105726718903e+01 -5.992151722311973572e-01 1.631470774859195672e+00
2.183195222914218903e+01 -3.213831409811973572e-01 1.623612498492008172e+00
2.160050691664218903e+01 -4.989876598119735718e-02 1.616593455523258172e+00
2.132218660414218903e+01 2.232945933938026428e-01 1.605256175249820672e+00
2.105509676039218903e+01 4.880651012063026428e-01 1.594544505327945672e+00
2.079484285414218903e+01 7.461217418313026428e-01 1.584092234820133172e+00
2.054020418226718903e+01 9.985631480813026428e-01 1.573868846148258172e+00
2.029362215101718903e+01 1.243863441050052643e+00 1.564545726031070672e+00
2.210038484632968903e+01 -6.117273792624473572e-01 1.744706248492008172e+00
2.185270418226718903e+01 -3.319422230124473572e-01 1.735291575640445672e+00
2.161063875257968903e+01 -5.856575816869735718e-02 1.726105784624820672e+00
2.132291902601718903e+01 2.161534801125526428e-01 1.712510203570133172e+00
2.104496492445468903e+01 4.824498668313026428e-01 1.699402903765445672e+00
2.077421297132968903e+01 7.417272105813026428e-01 1.686661814898258172e+00
2.050968660414218903e+01 9.951451793313026428e-01 1.674195384234195672e+00
2.025272859632968903e+01 1.241238929331302643e+00 1.662095164507633172e+00
2.063480867445468903e+01 8.809484019875526428e-01 1.556687449663883172e+00
2.037772859632968903e+01 1.136136390268802643e+00 1.546570872515445672e+00
2.012601961195468903e+01 1.385953284800052643e+00 1.536667918413883172e+00
1.988200105726718903e+01 1.628751136362552643e+00 1.527649974077945672e+00
2.177238191664218903e+01 -2.216516956686973572e-01 1.715134715288883172e+00
2.150541414320468903e+01 5.911002308130264282e-02 1.704102610796695672e+00
2.121513094007968903e+01 3.370030894875526428e-01 1.690644358843570672e+00
2.093156160414218903e+01 6.084264293313026428e-01 1.677506541460758172e+00
2.065629304945468903e+01 8.718541637063026428e-01 1.664734935015445672e+00
2.038810457289218903e+01 1.128506995737552643e+00 1.652299021929508172e+00
2.012577547132968903e+01 1.379544593393802643e+00 1.640153025835758172e+00
1.987101472914218903e+01 1.623380042612552643e+00 1.628342723101383172e+00
2.132902254164218903e+01 1.499722816050052643e+00 1.872986888140445672e+00
2.214262117445468903e+01 1.183499671518802643e+00 2.052033518999820672e+00
2.137284578382968903e+01 1.489529944956302643e+00 1.986023997515445672e+00
2.144889558851718903e+01 1.476651526987552643e+00 2.103577708452945672e+00
2.153239168226718903e+01 1.225247718393802643e+00 2.209977244585758172e+00
2.151859773695468903e+01 9.725699573755264282e-02 1.811051463335758172e+00
2.122990144789218903e+01 3.805821910500526428e-01 1.796387767046695672e+00
2.172282136976718903e+01 1.300992347300052643e+00 1.895798777788883172e+00
2.133744539320468903e+01 1.577969886362552643e+00 1.871583079546695672e+00
2.151237215101718903e+01 1.806058265268802643e+00 1.902176951617008172e+00
2.134830965101718903e+01 1.328152991831302643e+00 1.971421336382633172e+00
2.163956941664218903e+01 1.790128089487552643e+00 2.026902293413883172e+00
2.139323152601718903e+01 1.317044593393802643e+00 2.087433909624820672e+00
2.157865633070468903e+01 1.544461585581302643e+00 2.120560740679508172e+00
2.151871980726718903e+01 1.298428870737552643e+00 2.213425730913883172e+00
2.147623933851718903e+01 1.545865394175052643e+00 2.221467112749820672e+00
2.089872469007968903e+01 6.764195933938026428e-01 1.758042430132633172e+00
2.062064851820468903e+01 9.512609019875526428e-01 1.745347117632633172e+00
2.034843172132968903e+01 1.220242835581302643e+00 1.732911204546695672e+00
2.008378328382968903e+01 1.481778480112552643e+00 1.720810984820133172e+00
1.982560457289218903e+01 1.737027503550052643e+00 1.709015940874820672e+00
1.954862703382968903e+01 1.988858558237552643e+00 1.695145701617008172e+00
1.925700105726718903e+01 2.234769202768802643e+00 1.680024241656070672e+00
2.134537996351718903e+01 1.356961585581302643e+00 1.955430125445133172e+00
2.166373933851718903e+01 1.576993323862552643e+00 2.001069163531070672e+00
2.164799226820468903e+01 1.828336097300052643e+00 2.013276194781070672e+00
2.139115633070468903e+01 1.345364905893802643e+00 2.073899363726383172e+00
2.158695711195468903e+01 1.576077796518802643e+00 2.108048533648258172e+00
2.157035554945468903e+01 2.074796058237552643e+00 2.134110545367008172e+00
2.143742097914218903e+01 1.333585120737552643e+00 2.193543528765445672e+00
2.148161043226718903e+01 1.577603675425052643e+00 2.211854075640445672e+00
2.190739168226718903e+01 2.046109534800052643e+00 2.286667918413883172e+00
2.501017488539218903e+01 2.141385413706302643e+00 2.371537303179508172e+00
2.138456453382968903e+01 1.330228187143802643e+00 2.061768626421695672e+00
2.151603426039218903e+01 1.571378089487552643e+00 2.090043162554508172e+00
2.355338777601718903e+01 2.215604163706302643e+00 2.350510691851383172e+00
2.153580965101718903e+01 1.307584144175052643e+00 2.195237254351383172e+00
2.149027742445468903e+01 1.565762855112552643e+00 2.204819773882633172e+00
2.190287508070468903e+01 2.045132972300052643e+00 2.279252146929508172e+00
2.203715242445468903e+01 2.294034339487552643e+00 2.309449290484195672e+00
2.133292879164218903e+01 1.537137366831302643e+00 1.871918772906070672e+00
2.149210847914218903e+01 1.781461097300052643e+00 1.902756785601383172e+00
1.995365633070468903e+01 2.635465003550052643e+00 1.798859690874820672e+00
2.213309969007968903e+01 1.188748694956302643e+00 2.055604075640445672e+00
2.138078035414218903e+01 1.524564124643802643e+00 1.995972727984195672e+00
2.162162508070468903e+01 1.762784339487552643e+00 2.035721873492008172e+00
2.498063386976718903e+01 2.368802405893802643e+00 2.427918528765445672e+00
2.175175203382968903e+01 1.743924476206302643e+00 2.169419383257633172e+00
1.968461336195468903e+01 2.634610511362552643e+00 1.994355296343570672e+00
2.150748933851718903e+01 1.235867835581302643e+00 2.233002757281070672e+00
2.188395418226718903e+01 1.724820472300052643e+00 2.305268382281070672e+00
2.203019441664218903e+01 1.976956702768802643e+00 2.337006663531070672e+00
2.206071199476718903e+01 2.239713050425052643e+00 2.356049632281070672e+00
2.182316316664218903e+01 2.515714026987552643e+00 2.345627879351383172e+00
2.140629304945468903e+01 1.675137855112552643e+00 1.908005809038883172e+00
2.161039461195468903e+01 2.188504554331302643e+00 1.960389231890445672e+00
1.996806062757968903e+01 2.549588538706302643e+00 1.815278147906070672e+00
2.029374422132968903e+01 2.782132484018802643e+00 1.863404368609195672e+00
2.137284578382968903e+01 1.404752112925052643e+00 2.010697459429508172e+00
2.175919832289218903e+01 1.902921058237552643e+00 2.082352732867008172e+00
1.982877840101718903e+01 2.549893714487552643e+00 1.916276072710758172e+00
2.029826082289218903e+01 2.774197913706302643e+00 1.980027293413883172e+00
2.156901277601718903e+01 1.376798011362552643e+00 2.152985667437320672e+00
2.152018465101718903e+01 1.648038245737552643e+00 2.164048289507633172e+00
2.202152742445468903e+01 2.143521644175052643e+00 2.249940013140445672e+00
2.338114656507968903e+01 2.334134437143802643e+00 2.413361643999820672e+00
2.184379304945468903e+01 2.691312171518802643e+00 2.264161204546695672e+00
2.154411043226718903e+01 1.370572425425052643e+00 2.273545359820133172e+00
2.202177156507968903e+01 1.865079261362552643e+00 2.358780955523258172e+00
2.206998933851718903e+01 2.131619788706302643e+00 2.380478953570133172e+00
2.452177156507968903e+01 2.258145667612552643e+00 2.672074412554508172e+00
2.355595125257968903e+01 2.599393226206302643e+00 2.581559275835758172e+00
2.232035554945468903e+01 1.513638831675052643e+00 2.042145823687320672e+00
2.165885652601718903e+01 1.856412269175052643e+00 1.995896434038883172e+00
2.396745027601718903e+01 1.963162757456302643e+00 2.241349314898258172e+00
1.991776765882968903e+01 2.525845862925052643e+00 1.859177684038883172e+00
2.030717195570468903e+01 2.766080237925052643e+00 1.914902781695133172e+00
1.842826570570468903e+01 3.113553382456302643e+00 1.743775462359195672e+00
2.138273347914218903e+01 1.316129066050052643e+00 2.061295603960758172e+00
2.152726472914218903e+01 1.579312659800052643e+00 2.093796824663883172e+00
2.361759676039218903e+01 1.979337073862552643e+00 2.345200633257633172e+00
1.977164949476718903e+01 2.526700355112552643e+00 1.965012644976383172e+00
2.030094636976718903e+01 2.757779456675052643e+00 2.037003611773258172e+00
1.838932527601718903e+01 3.107449866831302643e+00 1.853013133257633172e+00
2.152811922132968903e+01 1.291287757456302643e+00 2.204957102984195672e+00
2.147697176039218903e+01 1.574735023081302643e+00 2.216614817827945672e+00
2.347440828382968903e+01 2.277005530893802643e+00 2.486390208452945672e+00
2.219755281507968903e+01 2.644681312143802643e+00 2.366761302202945672e+00
1.837040437757968903e+01 3.100369788706302643e+00 1.964768504351383172e+00
2.153324617445468903e+01 1.281277991831302643e+00 2.333863352984195672e+00
2.130839265882968903e+01 1.858365394175052643e+00 2.344147776812320672e+00
2.208805574476718903e+01 2.075040198862552643e+00 2.449341868609195672e+00
2.209183992445468903e+01 2.357755042612552643e+00 2.467743968218570672e+00
2.392142976820468903e+01 2.540006019175052643e+00 2.693863963335758172e+00
1.835148347914218903e+01 3.093350745737552643e+00 2.076417063921695672e+00
2.202030672132968903e+01 1.837979651987552643e+00 2.365235423296695672e+00
2.207243074476718903e+01 2.123196937143802643e+00 2.390122508257633172e+00
2.451383699476718903e+01 2.251920081675052643e+00 2.678422068804508172e+00
2.019755281507968903e+01 2.806668616831302643e+00 2.221222972124820672e+00
1.838981355726718903e+01 3.158902503550052643e+00 2.037354563921695672e+00
2.122611726820468903e+01 1.331570960581302643e+00 2.372025584429508172e+00
2.211906160414218903e+01 2.399503089487552643e+00 2.548905467242008172e+00
2.012272371351718903e+01 2.801785804331302643e+00 2.337357615679508172e+00
1.836820711195468903e+01 3.151456214487552643e+00 2.151795481890445672e+00
2.200675691664218903e+01 1.590176917612552643e+00 2.443070506304508172e+00
2.206705965101718903e+01 1.882230140268802643e+00 2.469636058062320672e+00
2.212064851820468903e+01 2.174588538706302643e+00 2.495453929156070672e+00
2.209757722914218903e+01 2.472623206675052643e+00 2.512650584429508172e+00
1.891032136976718903e+01 2.947232581675052643e+00 2.171753977984195672e+00
1.852604402601718903e+01 3.228360511362552643e+00 2.145539378374820672e+00
2.119193758070468903e+01 1.658170081675052643e+00 2.486481761187320672e+00
2.212016023695468903e+01 1.867215491831302643e+00 2.613419627398258172e+00
2.130119051039218903e+01 2.226712562143802643e+00 2.537583445757633172e+00
2.215482820570468903e+01 2.458646155893802643e+00 2.656952952593570672e+00
1.894535554945468903e+01 2.936307288706302643e+00 2.297883128374820672e+00
1.858475984632968903e+01 3.216885901987552643e+00 2.273270701617008172e+00
2.209122957289218903e+01 2.010648109018802643e+00 2.533448313921695672e+00
2.361149324476718903e+01 2.202359534800052643e+00 2.725693797320133172e+00
1.835282625257968903e+01 3.120328284800052643e+00 2.166291331499820672e+00
1.854667390882968903e+01 3.376736976206302643e+00 2.206223582476383172e+00
2.101798738539218903e+01 1.502286292612552643e+00 2.509751414507633172e+00
2.111893953382968903e+01 1.786404944956302643e+00 2.540909861773258172e+00
2.118583406507968903e+01 2.076016761362552643e+00 2.568253611773258172e+00
2.219035066664218903e+01 2.296292640268802643e+00 2.706116770952945672e+00
2.216496004164218903e+01 2.602078773081302643e+00 2.723191355913883172e+00
1.904887117445468903e+01 3.074063636362552643e+00 2.371857737749820672e+00
1.869511140882968903e+01 3.361295081675052643e+00 2.348069285601383172e+00
1.888786043226718903e+01 3.584378577768802643e+00 2.311890696734195672e+00
2.219352449476718903e+01 1.576688148081302643e+00 2.722123240679508172e+00
2.109489168226718903e+01 1.987149573862552643e+00 2.612259959429508172e+00
2.123331941664218903e+01 2.277982093393802643e+00 2.647873973101383172e+00
2.431181062757968903e+01 2.366727210581302643e+00 3.034363841265445672e+00
1.902933992445468903e+01 3.011563636362552643e+00 2.421799754351383172e+00
1.920255769789218903e+01 3.282925941050052643e+00 2.460465525835758172e+00
2.000492586195468903e+01 3.531827308237552643e+00 2.576249217242008172e+00
1.931510652601718903e+01 3.279324866831302643e+00 2.566834544390445672e+00
1.870097078382968903e+01 3.595059730112552643e+00 2.508622264117008172e+00
1.900114168226718903e+01 3.867642737925052643e+00 2.563477610796695672e+00
1.900932039320468903e+01 2.901578284800052643e+00 2.552369212359195672e+00
2.374430574476718903e+01 2.910306312143802643e+00 3.144394969195133172e+00
1.858036531507968903e+01 3.525540687143802643e+00 2.534882640093570672e+00
1.892069734632968903e+01 3.807095862925052643e+00 2.594117259234195672e+00
1.826933015882968903e+01 4.126553870737552643e+00 2.531525706499820672e+00
1.874235261976718903e+01 4.409451819956302643e+00 2.608170603960758172e+00
1.963566316664218903e+01 4.695889808237552643e+00 2.736878489702945672e+00
2.230009187757968903e+01 2.321500159800052643e+00 3.085602854937320672e+00
2.046915926039218903e+01 2.787320472300052643e+00 2.874665354937320672e+00
1.955094636976718903e+01 3.159451819956302643e+00 2.777466868609195672e+00
1.966520418226718903e+01 3.460355140268802643e+00 2.810044383257633172e+00
1.890922273695468903e+01 3.798734046518802643e+00 2.731888865679508172e+00
1.920353426039218903e+01 4.088284827768802643e+00 2.787156199663883172e+00
1.814371980726718903e+01 4.413968421518802643e+00 2.668839549273258172e+00
1.807706941664218903e+01 4.705533362925052643e+00 2.678116893023258172e+00
1.497697176039218903e+01 5.379910804331302643e+00 1.946015452593570672e+00
1.495988191664218903e+01 5.652737952768802643e+00 1.960740184038883172e+00
1.872160066664218903e+01 3.516507484018802643e+00 2.409577464312320672e+00
1.896989168226718903e+01 3.816068030893802643e+00 2.456635569781070672e+00
1.835307039320468903e+01 4.152432776987552643e+00 2.403031443804508172e+00
1.856828035414218903e+01 4.454984046518802643e+00 2.446335887163883172e+00
1.558939851820468903e+01 5.094083167612552643e+00 2.129685496538883172e+00
1.497746004164218903e+01 5.372525550425052643e+00 2.073273753374820672e+00
1.496037019789218903e+01 5.645474769175052643e+00 2.087235545367008172e+00
1.987858308851718903e+01 3.441129066050052643e+00 2.693467234820133172e+00
1.892289461195468903e+01 3.809171058237552643e+00 2.596940135210758172e+00
1.965678133070468903e+01 4.095120765268802643e+00 2.703553294390445672e+00
1.795133699476718903e+01 4.463040687143802643e+00 2.514435862749820672e+00
1.963688386976718903e+01 4.737454749643802643e+00 2.738679026812320672e+00
1.558817781507968903e+01 5.086453773081302643e+00 2.259018992632633172e+00
1.497794832289218903e+01 5.365079261362552643e+00 2.200623606890445672e+00
1.496085847914218903e+01 5.638150550425052643e+00 2.214493846148258172e+00
1.966447176039218903e+01 3.443936683237552643e+00 2.817078685015445672e+00
1.891093172132968903e+01 3.800687171518802643e+00 2.740540599077945672e+00
1.847831453382968903e+01 4.130154944956302643e+00 2.704331492632633172e+00
1.985319246351718903e+01 4.402249671518802643e+00 2.896500682085758172e+00
1.795353426039218903e+01 4.757840491831302643e+00 2.673768138140445672e+00
1.922147859632968903e+01 5.051846839487552643e+00 2.853486155718570672e+00
1.497831453382968903e+01 5.357694007456302643e+00 2.327408885210758172e+00
1.496134676039218903e+01 5.630826331675052643e+00 2.341874217242008172e+00
2.737809480726718903e+01 6.954251624643802643e+00 3.990403269976383172e+00
