7.005264498293399811e+01 -4.713334816694259644e+01 2.806021807249635458e+00
1.922793795168399811e+01 -1.216410988569259644e+01 1.132300493773072958e+00
7.170279146730899811e+01 -4.412931984663009644e+01 3.037802813109010458e+00
7.007986666262149811e+01 -4.885514992475509644e+01 3.116980669554322958e+00
6.898367525637149811e+01 -4.726078957319259644e+01 3.109091875609010458e+00
7.000161959230899811e+01 -4.713151711225509644e+01 3.182166216429322958e+00
8.155679537355899811e+01 -5.398185890913009644e+01 3.674368975218385458e+00
8.221560885012149811e+01 -5.346257179975509644e+01 3.739462969359010458e+00
1.922989107668399811e+01 -1.217326515913009644e+01 1.228293535765260458e+00
6.968167330324649811e+01 -4.777446144819259644e+01 3.516532061155885458e+00
6.963736177980899811e+01 -4.448759621381759644e+01 3.639319536741822958e+00
6.993142916262149811e+01 -4.388176125288009644e+01 3.683264849241822958e+00
6.977762056887149811e+01 -4.300090187788009644e+01 3.706168291624635458e+00
6.863076998293399811e+01 -4.790678566694259644e+01 3.813864824827760458e+00
6.912149263918399811e+01 -4.742167824506759644e+01 3.869711992796510458e+00
6.917715670168399811e+01 -4.663896340131759644e+01 3.901847002562135458e+00
6.964871431887149811e+01 -4.613749855756759644e+01 3.954840776976197958e+00
7.135757662355899811e+01 -4.644474953413009644e+01 4.070868609007447958e+00
6.994180513918399811e+01 -4.391862648725509644e+01 4.056006548460572958e+00
7.201004244387149811e+01 -4.441056984663009644e+01 4.190116045530885458e+00
6.867349459230899811e+01 -4.714555519819259644e+01 4.221228716429322958e+00
7.067495943605899811e+01 -4.603068703413009644e+01 4.414786455687135458e+00
7.027835299074649811e+01 -4.416093605756759644e+01 4.445960161741822958e+00
7.035928560793399811e+01 -4.342009133100509644e+01 4.476935503538697958e+00
1.946475435793399811e+01 -1.343394631147384644e+01 1.595603106077760458e+00
1.940225435793399811e+01 -1.317082375288009644e+01 1.599097368773072958e+00
1.934134127199649811e+01 -1.291264504194259644e+01 1.602027056273072958e+00
1.928140474855899811e+01 -1.265818947553634644e+01 1.604926226194947958e+00
1.922268892824649811e+01 -1.240904396772384644e+01 1.607764360960572958e+00
1.916470552980899811e+01 -1.216337746381759644e+01 1.610556719359010458e+00
1.908609224855899811e+01 -1.190886086225509644e+01 1.611914751585572958e+00
1.901053072512149811e+01 -1.166026467084884644e+01 1.612860796507447958e+00
1.948343111574649811e+01 -1.345610207319259644e+01 1.697821734007447958e+00
1.943374849855899811e+01 -1.320128029584884644e+01 1.700720903929322958e+00
1.938467623293399811e+01 -1.295054787397384644e+01 1.703574297484010458e+00
1.932632662355899811e+01 -1.269645851850509644e+01 1.705725786741822958e+00
1.926907564699649811e+01 -1.244755715131759644e+01 1.707831499632447958e+00
1.921267916262149811e+01 -1.220213478803634644e+01 1.709906694944947958e+00
1.913980318605899811e+01 -1.195054787397384644e+01 1.710745928343385458e+00
1.906436373293399811e+01 -1.170128029584884644e+01 1.711295244749635458e+00
1.943850924074649811e+01 -1.343339699506759644e+01 1.795249102171510458e+00
1.938907076418399811e+01 -1.317912453413009644e+01 1.797324297484010458e+00
1.934097506105899811e+01 -1.292949074506759644e+01 1.799948809202760458e+00
1.929287935793399811e+01 -1.268260353803634644e+01 1.801978228148072958e+00
1.924576021730899811e+01 -1.244047707319259644e+01 1.803946611937135458e+00
1.919925142824649811e+01 -1.220152443647384644e+01 1.805899736937135458e+00
1.913369967043399811e+01 -1.195451515913009644e+01 1.805853960569947958e+00
1.906619478762149811e+01 -1.171000832319259644e+01 1.806067583616822958e+00
7.114517427980899811e+01 -4.408842629194259644e+01 6.788001177366822958e+00
7.121573092043399811e+01 -4.416264504194259644e+01 7.172797319944947958e+00
7.170340181887149811e+01 -4.612968605756759644e+01 7.579672930296510458e+00
7.178982760012149811e+01 -4.539494484663009644e+01 7.985541460569947958e+00
7.218008638918399811e+01 -4.482414406538009644e+01 8.035620806273072958e+00
7.154519869387149811e+01 -4.609147804975509644e+01 8.336524126585572958e+00
7.221621920168399811e+01 -4.510868996381759644e+01 8.108389971312135458e+00
7.201162935793399811e+01 -4.583452004194259644e+01 8.465109942015260458e+00
1.927896334230899811e+01 -1.251115578413009644e+01 1.572852251585572958e+00
1.921890474855899811e+01 -1.225755470991134644e+01 1.575980303343385458e+00
1.914651705324649811e+01 -1.200047463178634644e+01 1.578223345335572958e+00
1.906656099855899811e+01 -1.174174660444259644e+01 1.579871294554322958e+00
1.898843599855899811e+01 -1.148893898725509644e+01 1.581503984984010458e+00
1.891226412355899811e+01 -1.124125832319259644e+01 1.582617876585572958e+00
1.936734224855899811e+01 -1.301536720991134644e+01 1.665289995726197958e+00
1.931826998293399811e+01 -1.276249855756759644e+01 1.668463823851197958e+00
1.926993013918399811e+01 -1.251365822553634644e+01 1.671591875609010458e+00
1.922220064699649811e+01 -1.226793068647384644e+01 1.674674150999635458e+00
1.916250826418399811e+01 -1.201872414350509644e+01 1.676840899046510458e+00
1.909317232668399811e+01 -1.176640480756759644e+01 1.678275225218385458e+00
1.902542330324649811e+01 -1.151951760053634644e+01 1.679694292601197958e+00
1.895889498293399811e+01 -1.127702492475509644e+01 1.681067583616822958e+00
1.934890963137149811e+01 -1.301158303022384644e+01 1.764990923460572958e+00
1.928970552980899811e+01 -1.275187844038009644e+01 1.766623613890260458e+00
1.923111177980899811e+01 -1.249644631147384644e+01 1.768729326780885458e+00
1.917410494387149811e+01 -1.224498146772384644e+01 1.770346758421510458e+00
1.911123873293399811e+01 -1.199412697553634644e+01 1.771414873655885458e+00
1.904190279543399811e+01 -1.174217385053634644e+01 1.771948931273072958e+00
1.897354342043399811e+01 -1.149522560834884644e+01 1.771903154905885458e+00
1.890689302980899811e+01 -1.125316017866134644e+01 1.772406694944947958e+00
7.195950533449649811e+01 -4.422319191694259644e+01 6.017310259398072958e+00
7.119400240480899811e+01 -4.295317238569259644e+01 5.976630327757447958e+00
7.102005220949649811e+01 -4.367363137006759644e+01 6.321509478148072958e+00
7.142422701418399811e+01 -4.312297219038009644e+01 6.372702715452760458e+00
7.184414888918399811e+01 -4.502824562788009644e+01 6.759574053343385458e+00
7.150699068605899811e+01 -4.400554054975509644e+01 6.745123980101197958e+00
7.245657564699649811e+01 -4.377995461225509644e+01 6.845389483030885458e+00
7.179934908449649811e+01 -4.421733254194259644e+01 7.153998491819947958e+00
7.278628756105899811e+01 -4.401091164350509644e+01 7.260993120726197958e+00
7.164016939699649811e+01 -4.496293801069259644e+01 7.509757158812135458e+00
7.227090670168399811e+01 -4.622551125288009644e+01 7.953330156859010458e+00
7.258719088137149811e+01 -4.559245461225509644e+01 7.996375200804322958e+00
7.241690279543399811e+01 -4.466227883100509644e+01 7.988043901976197958e+00
7.160489107668399811e+01 -4.582939308881759644e+01 8.270300982054322958e+00
7.198037935793399811e+01 -4.524125832319259644e+01 8.319495317991822958e+00
7.049539400637149811e+01 -4.346391457319259644e+01 4.292426226194947958e+00
6.882510592043399811e+01 -4.645536965131759644e+01 4.434393999632447958e+00
7.146780611574649811e+01 -4.656657570600509644e+01 4.646964190062135458e+00
1.919961763918399811e+01 -1.207267922163009644e+01 1.546195147093385458e+00
1.911819674074649811e+01 -1.181010597944259644e+01 1.548224566038697958e+00
1.903787447512149811e+01 -1.155174416303634644e+01 1.550238726194947958e+00
1.895950533449649811e+01 -1.129918068647384644e+01 1.552191851194947958e+00
1.888308931887149811e+01 -1.105168312788009644e+01 1.553641436155885458e+00
1.929495455324649811e+01 -1.279368752241134644e+01 1.631430742796510458e+00
1.924637056887149811e+01 -1.254210060834884644e+01 1.634970781859010458e+00
1.919864107668399811e+01 -1.229448097944259644e+01 1.638465044554322958e+00
1.914004732668399811e+01 -1.204264992475509644e+01 1.641165850218385458e+00
1.907058931887149811e+01 -1.178819435834884644e+01 1.643012163694947958e+00
1.900210787355899811e+01 -1.153746193647384644e+01 1.644827959593385458e+00
1.893509127199649811e+01 -1.129210060834884644e+01 1.646613237913697958e+00
1.886917330324649811e+01 -1.105101174116134644e+01 1.648367998655885458e+00
1.933181978762149811e+01 -1.282774513959884644e+01 1.735083696898072958e+00
1.927237154543399811e+01 -1.256822365522384644e+01 1.737082598265260458e+00
1.921353365480899811e+01 -1.231285256147384644e+01 1.739524004515260458e+00
1.914663912355899811e+01 -1.205528420209884644e+01 1.740790484007447958e+00
1.906802584230899811e+01 -1.179478615522384644e+01 1.741095659788697958e+00
1.899063326418399811e+01 -1.153837746381759644e+01 1.741400835569947958e+00
1.891543795168399811e+01 -1.128795021772384644e+01 1.741217730101197958e+00
1.884121920168399811e+01 -1.104191750288009644e+01 1.741507647093385458e+00
1.936416842043399811e+01 -1.285881203413009644e+01 1.839469072874635458e+00
1.931460787355899811e+01 -1.260533303022384644e+01 1.841345903929322958e+00
1.926590181887149811e+01 -1.235588234663009644e+01 1.843192217405885458e+00
7.105264498293399811e+01 -4.313420265913009644e+01 5.861624834593385458e+00
7.213052584230899811e+01 -4.298771828413009644e+01 5.965338823851197958e+00
7.227859713137149811e+01 -4.472941750288009644e+01 6.321585772093385458e+00
7.042837740480899811e+01 -4.278337258100509644e+01 6.187598345335572958e+00
7.152322603762149811e+01 -4.265410012006759644e+01 6.296408770140260458e+00
7.186404635012149811e+01 -4.532573097944259644e+01 6.656912920530885458e+00
7.153555513918399811e+01 -4.429850929975509644e+01 6.644995806273072958e+00
7.264590670168399811e+01 -4.417021340131759644e+01 6.759329912718385458e+00
7.151370455324649811e+01 -4.267900246381759644e+01 6.676123735960572958e+00
7.126040865480899811e+01 -4.415861672163009644e+01 7.002295610960572958e+00
7.298135592043399811e+01 -4.440702980756759644e+01 7.177619097288697958e+00
7.245572115480899811e+01 -4.411686867475509644e+01 7.516913530882447958e+00
7.222036959230899811e+01 -4.648417824506759644e+01 7.846549150999635458e+00
7.235220552980899811e+01 -4.490348976850509644e+01 7.882102129515260458e+00
7.185354830324649811e+01 -4.544889992475509644e+01 8.207297442015260458e+00
7.205691744387149811e+01 -4.561113137006759644e+01 8.621100542601197958e+00
1.910916353762149811e+01 -1.183995217084884644e+01 1.566565630491822958e+00
1.902859713137149811e+01 -1.157914894819259644e+01 1.568228838499635458e+00
1.894925142824649811e+01 -1.132255715131759644e+01 1.569861528929322958e+00
1.887173677980899811e+01 -1.107158058881759644e+01 1.571463701780885458e+00
1.879556490480899811e+01 -1.082530373334884644e+01 1.573035357054322958e+00
1.927786470949649811e+01 -1.260728615522384644e+01 1.657721636351197958e+00
1.922891451418399811e+01 -1.235569924116134644e+01 1.660880205687135458e+00
1.916043306887149811e+01 -1.209495705366134644e+01 1.663169024046510458e+00
1.910489107668399811e+01 -1.184550637006759644e+01 1.665701983030885458e+00
1.903518892824649811e+01 -1.159141701459884644e+01 1.667151567991822958e+00
1.896646334230899811e+01 -1.134098976850509644e+01 1.668570635374635458e+00
1.889859224855899811e+01 -1.109550637006759644e+01 1.669409868773072958e+00
1.883255220949649811e+01 -1.085472267866134644e+01 1.670783159788697958e+00
1.926358248293399811e+01 -1.260649269819259644e+01 1.758734819944947958e+00
1.920462252199649811e+01 -1.234831398725509644e+01 1.760367510374635458e+00
1.914029146730899811e+01 -1.209025734663009644e+01 1.761511919554322958e+00
1.906057955324649811e+01 -1.182542580366134644e+01 1.761450884398072958e+00
1.898306490480899811e+01 -1.156681984663009644e+01 1.761420366819947958e+00
1.891433931887149811e+01 -1.131688088178634644e+01 1.761954424437135458e+00
1.884707857668399811e+01 -1.107219094038009644e+01 1.762473223265260458e+00
1.878091646730899811e+01 -1.083177345991134644e+01 1.762992022093385458e+00
7.125760103762149811e+01 -4.271550148725509644e+01 5.997473833616822958e+00
7.495047213137149811e+01 -4.411137551069259644e+01 6.309393999632447958e+00
7.112564302980899811e+01 -4.346513527631759644e+01 6.349249956663697958e+00
7.110415865480899811e+01 -4.265336769819259644e+01 6.364935991819947958e+00
7.332046724855899811e+01 -4.317668312788009644e+01 6.569800493773072958e+00
7.079776217043399811e+01 -4.410087746381759644e+01 6.684210894163697958e+00
7.147342135012149811e+01 -4.371025246381759644e+01 6.760398027952760458e+00
7.175564791262149811e+01 -4.307743996381759644e+01 6.801352617796510458e+00
7.236148287355899811e+01 -4.428874367475509644e+01 7.227011797484010458e+00
7.150271822512149811e+01 -4.629484719038009644e+01 7.883719561155885458e+00
7.166531588137149811e+01 -4.559770363569259644e+01 8.301566240843385458e+00
7.214407564699649811e+01 -4.507414406538009644e+01 8.362723467405885458e+00
1.886868502199649811e+01 -1.113194435834884644e+01 1.767737505491822958e+00
1.880191256105899811e+01 -1.088798683881759644e+01 1.768561480101197958e+00
1.873623873293399811e+01 -1.064824074506759644e+01 1.769385454710572958e+00
7.070279146730899811e+01 -4.269841164350509644e+01 5.985724566038697958e+00
7.195327974855899811e+01 -4.265483254194259644e+01 6.106024859007447958e+00
7.472256685793399811e+01 -4.348173683881759644e+01 6.348487017210572958e+00
7.204666353762149811e+01 -4.518998879194259644e+01 6.440390703734010458e+00
7.089200045168399811e+01 -4.364982765913009644e+01 6.361991045530885458e+00
7.111917330324649811e+01 -4.298381203413009644e+01 6.400214312132447958e+00
7.188736177980899811e+01 -4.264702004194259644e+01 6.484366533812135458e+00
7.182071138918399811e+01 -4.508024758100509644e+01 6.808814165648072958e+00
7.146963717043399811e+01 -4.404081887006759644e+01 6.794501421507447958e+00
7.186758638918399811e+01 -4.347172707319259644e+01 6.847556231077760458e+00
7.137405611574649811e+01 -4.401371926069259644e+01 7.169379351194947958e+00
7.271011568605899811e+01 -4.401786965131759644e+01 7.312399981077760458e+00
7.141031099855899811e+01 -4.655082863569259644e+01 7.518775103148072958e+00
7.174209810793399811e+01 -4.509697121381759644e+01 7.579184649046510458e+00
7.176053072512149811e+01 -4.514189308881759644e+01 7.969428179319947958e+00
7.216751314699649811e+01 -4.457280129194259644e+01 8.024069902952760458e+00
7.189602877199649811e+01 -4.526127785444259644e+01 8.375464556273072958e+00
1.900686861574649811e+01 -1.144670265913009644e+01 1.682074663694947958e+00
1.893387056887149811e+01 -1.119194191694259644e+01 1.683188555296510458e+00
1.885684420168399811e+01 -1.093785256147384644e+01 1.683936235960572958e+00
1.878140474855899811e+01 -1.068919533491134644e+01 1.684668657835572958e+00
1.870743013918399811e+01 -1.044511574506759644e+01 1.685385820921510458e+00
1.917202974855899811e+01 -1.220848244428634644e+01 1.776236650999635458e+00
1.910281588137149811e+01 -1.194487160444259644e+01 1.777030108030885458e+00
1.903079439699649811e+01 -1.168339699506759644e+01 1.777533648069947958e+00
1.895999361574649811e+01 -1.142576760053634644e+01 1.778021929319947958e+00
1.889053560793399811e+01 -1.117357033491134644e+01 1.778494951780885458e+00
1.882217623293399811e+01 -1.092497414350509644e+01 1.778967974241822958e+00
1.875515963137149811e+01 -1.068150490522384644e+01 1.779425737913697958e+00
1.868936373293399811e+01 -1.044224709272384644e+01 1.779868242796510458e+00
7.215213228762149811e+01 -4.382231301069259644e+01 6.155295488890260458e+00
7.085269381105899811e+01 -4.222599953413009644e+01 6.070624468382447958e+00
7.499856783449649811e+01 -4.388371437788009644e+01 6.425376055296510458e+00
7.170913912355899811e+01 -4.439824074506759644e+01 6.485678789671510458e+00
7.292666842043399811e+01 -4.432914894819259644e+01 6.608176348265260458e+00
7.153433443605899811e+01 -4.266703957319259644e+01 6.506766436155885458e+00
7.111062838137149811e+01 -4.405632179975509644e+01 6.817679522093385458e+00
7.123819185793399811e+01 -4.416826027631759644e+01 7.215567705687135458e+00
7.249698092043399811e+01 -4.412993019819259644e+01 7.351264116819947958e+00
7.169534517824649811e+01 -4.614946144819259644e+01 7.621878740843385458e+00
7.230618502199649811e+01 -4.570488137006759644e+01 7.696463701780885458e+00
7.161502291262149811e+01 -4.613102883100509644e+01 8.006888506468385458e+00
7.177456881105899811e+01 -4.539897316694259644e+01 8.034445879515260458e+00
7.220059420168399811e+01 -4.483586281538009644e+01 8.090582964476197958e+00
7.153006197512149811e+01 -4.610930031538009644e+01 8.388800737913697958e+00
7.257351900637149811e+01 -4.277910012006759644e+01 6.298667070921510458e+00
7.180850435793399811e+01 -4.563432472944259644e+01 6.537070391234010458e+00
7.222097994387149811e+01 -4.506364601850509644e+01 6.593344805296510458e+00
7.295547701418399811e+01 -4.468815773725509644e+01 6.677619097288697958e+00
7.132303072512149811e+01 -4.286992043256759644e+01 6.556189653929322958e+00
7.213076998293399811e+01 -4.254814308881759644e+01 6.646613237913697958e+00
7.141775728762149811e+01 -4.459160012006759644e+01 6.910513994749635458e+00
7.139969088137149811e+01 -4.375932472944259644e+01 6.927268145140260458e+00
7.169204927980899811e+01 -4.312700051069259644e+01 6.972449419554322958e+00
7.248965670168399811e+01 -4.279484719038009644e+01 7.064459917601197958e+00
7.168155123293399811e+01 -4.562272804975509644e+01 7.308585283812135458e+00
7.225845552980899811e+01 -4.432499855756759644e+01 7.398032305296510458e+00
7.275760103762149811e+01 -4.380827492475509644e+01 7.463278887327760458e+00
7.150699068605899811e+01 -4.638310402631759644e+01 7.668784258421510458e+00
7.157632662355899811e+01 -4.559001320600509644e+01 7.688559649046510458e+00
7.224417330324649811e+01 -4.518205422163009644e+01 7.771872637327760458e+00
7.176883150637149811e+01 -4.574907082319259644e+01 8.102088091429322958e+00
1.858938814699649811e+01 -1.004435890913009644e+01 1.650199053343385458e+00
1.907473970949649811e+01 -1.181096047163009644e+01 1.738501665648072958e+00
1.899307467043399811e+01 -1.154100197553634644e+01 1.739050982054322958e+00
1.891287447512149811e+01 -1.127604836225509644e+01 1.739600298460572958e+00
1.883401705324649811e+01 -1.101506203413009644e+01 1.740149614866822958e+00
1.875674654543399811e+01 -1.075975197553634644e+01 1.740683672484010458e+00
1.868069674074649811e+01 -1.050822609663009644e+01 1.741202471312135458e+00
1.860623385012149811e+01 -1.026207131147384644e+01 1.741706011351197958e+00
1.853665377199649811e+01 -1.002226418256759644e+01 1.742484209593385458e+00
7.072781588137149811e+01 -4.271782082319259644e+01 5.936179277952760458e+00
7.067813326418399811e+01 -4.189055031538009644e+01 5.954108355101197958e+00
7.514724947512149811e+01 -4.372746437788009644e+01 6.331336138304322958e+00
7.098770357668399811e+01 -4.372087258100509644e+01 6.317633745726197958e+00
7.110867525637149811e+01 -4.298295754194259644e+01 6.348181841429322958e+00
7.162466646730899811e+01 -4.415092629194259644e+01 6.758216021116822958e+00
7.189761568605899811e+01 -4.349809426069259644e+01 6.801306841429322958e+00
7.146963717043399811e+01 -4.242936867475509644e+01 6.781211016234010458e+00
7.165725924074649811e+01 -4.420488137006759644e+01 7.150824663694947958e+00
7.216458345949649811e+01 -4.622880715131759644e+01 7.561881182249635458e+00
7.174942232668399811e+01 -4.512358254194259644e+01 7.533255693968385458e+00
7.177676607668399811e+01 -4.517534035444259644e+01 7.929099199827760458e+00
7.215115572512149811e+01 -4.458049172163009644e+01 7.981619951780885458e+00
7.158389498293399811e+01 -4.592241066694259644e+01 8.290183184202760458e+00
7.190359713137149811e+01 -4.529033058881759644e+01 8.334616777952760458e+00
7.231143404543399811e+01 -4.471452492475509644e+01 8.390952227171510458e+00
6.919766451418399811e+01 -3.883806008100509644e+01 4.643820879515260458e+00
7.006546236574649811e+01 -3.856938332319259644e+01 4.725394365843385458e+00
1.900772310793399811e+01 -1.158104103803634644e+01 1.589911577757447958e+00
1.892410494387149811e+01 -1.131120461225509644e+01 1.591864702757447958e+00
1.884195162355899811e+01 -1.104637306928634644e+01 1.593787310179322958e+00
1.876114107668399811e+01 -1.078556984663009644e+01 1.595664141234010458e+00
1.868228365480899811e+01 -1.053056496381759644e+01 1.597525713499635458e+00
1.861612154543399811e+01 -1.028605812788009644e+01 1.600150225218385458e+00
1.855142427980899811e+01 -1.004643410444259644e+01 1.602698442991822958e+00
1.848770357668399811e+01 -9.810777366161346436e+00 1.605216143187135458e+00
1.905203463137149811e+01 -1.161839455366134644e+01 1.695349810179322958e+00
1.897000338137149811e+01 -1.134886330366134644e+01 1.696494219359010458e+00
1.888955904543399811e+01 -1.108433693647384644e+01 1.697592852171510458e+00
1.881021334230899811e+01 -1.082377785444259644e+01 1.698691484984010458e+00
1.873269869387149811e+01 -1.056877297163009644e+01 1.699759600218385458e+00
1.865628267824649811e+01 -1.031755226850509644e+01 1.700812456663697958e+00
1.858145357668399811e+01 -1.007158058881759644e+01 1.701834795530885458e+00
1.850796724855899811e+01 -9.830003440380096436e+00 1.702857134398072958e+00
1.903018404543399811e+01 -1.161363381147384644e+01 1.796927568968385458e+00
1.895816256105899811e+01 -1.135045021772384644e+01 1.797843096312135458e+00
1.888736177980899811e+01 -1.109184426069259644e+01 1.798758623655885458e+00
1.881765963137149811e+01 -1.083683937788009644e+01 1.799658892210572958e+00
1.874930025637149811e+01 -1.058702248334884644e+01 1.800528643187135458e+00
1.868191744387149811e+01 -1.034068459272384644e+01 1.801398394163697958e+00
1.861587740480899811e+01 -1.009929054975509644e+01 1.802252886351197958e+00
1.855093599855899811e+01 -9.861924827098846436e+00 1.803076860960572958e+00
7.126126314699649811e+01 -4.332829445600509644e+01 6.193747637327760458e+00
7.086795260012149811e+01 -4.227958840131759644e+01 6.183325884398072958e+00
7.277151705324649811e+01 -4.261161965131759644e+01 6.362097857054322958e+00
7.120486666262149811e+01 -4.414360207319259644e+01 6.555167315062135458e+00
7.156741549074649811e+01 -4.355021828413009644e+01 6.604972002562135458e+00
7.161599947512149811e+01 -4.276432961225509644e+01 6.629370806273072958e+00
7.090408541262149811e+01 -4.398881691694259644e+01 6.913779375609010458e+00
7.298086763918399811e+01 -4.445512551069259644e+01 7.124793169554322958e+00
7.246035982668399811e+01 -4.416850441694259644e+01 7.468207476194947958e+00
7.189273287355899811e+01 -4.551286476850509644e+01 7.774298784788697958e+00
7.234109713137149811e+01 -4.496037453413009644e+01 7.835425493773072958e+00
7.185025240480899811e+01 -4.552092140913009644e+01 8.165122149046510458e+00
7.209012056887149811e+01 -4.570976418256759644e+01 8.586051104124635458e+00
1.833377291262149811e+01 -9.371019065380096436e+00 1.581366655882447958e+00
1.892776705324649811e+01 -1.118223732709884644e+01 1.675894854124635458e+00
1.885611177980899811e+01 -1.092106789350509644e+01 1.677435991819947958e+00
1.877725435793399811e+01 -1.065928810834884644e+01 1.678366777952760458e+00
1.869888521730899811e+01 -1.040080422163009644e+01 1.679221270140260458e+00
1.862210299074649811e+01 -1.014787453413009644e+01 1.680060503538697958e+00
1.854641939699649811e+01 -9.898484885692596436e+00 1.680884478148072958e+00
1.847220064699649811e+01 -9.654283225536346436e+00 1.681693193968385458e+00
1.838980318605899811e+01 -9.409043967723846436e+00 1.681800005491822958e+00
1.888565279543399811e+01 -1.116484230756759644e+01 1.776236650999635458e+00
1.881399752199649811e+01 -1.090397804975509644e+01 1.776892778929322958e+00
1.874356295168399811e+01 -1.064750832319259644e+01 1.777518389280885458e+00
1.867410494387149811e+01 -1.039457863569259644e+01 1.778143999632447958e+00
1.860611177980899811e+01 -1.014671486616134644e+01 1.778754351194947958e+00
1.853897310793399811e+01 -9.902208030223846436e+00 1.779349443968385458e+00
1.847317720949649811e+01 -9.662522971630096436e+00 1.779944536741822958e+00
1.839895845949649811e+01 -9.421617209911346436e+00 1.779791948851197958e+00
7.062881685793399811e+01 -4.262492531538009644e+01 6.085837481077760458e+00
7.071292330324649811e+01 -4.187309426069259644e+01 6.113288042601197958e+00
7.487100435793399811e+01 -4.352568215131759644e+01 6.473792192991822958e+00
7.180215670168399811e+01 -4.419999855756759644e+01 6.552329180296510458e+00
7.183645845949649811e+01 -4.258012551069259644e+01 6.591544268187135458e+00
7.207913424074649811e+01 -4.440617531538009644e+01 6.968436358030885458e+00
7.261197115480899811e+01 -4.390495461225509644e+01 7.034888384398072958e+00
7.173001314699649811e+01 -4.422172707319259644e+01 7.329138872679322958e+00
7.251541353762149811e+01 -4.387883156538009644e+01 7.419028399046510458e+00
7.244253756105899811e+01 -4.470048683881759644e+01 7.793357012327760458e+00
7.222207857668399811e+01 -4.459636086225509644e+01 8.166937944944947958e+00
1.880764986574649811e+01 -8.925523459911346436e+00 2.361075518187135458e+00
1.835281588137149811e+01 -8.899705588817596436e+00 2.409033892210572958e+00
1.879031588137149811e+01 -8.924546897411346436e+00 2.461585161741822958e+00
1.833597017824649811e+01 -8.898729026317596436e+00 2.507681963499635458e+00
1.877310396730899811e+01 -8.923570334911346436e+00 2.561484453734010458e+00
1.831900240480899811e+01 -8.897813498973846436e+00 2.606253740843385458e+00
1.875564791262149811e+01 -8.922593772411346436e+00 2.661841509398072958e+00
1.830227877199649811e+01 -8.896836936473846436e+00 2.704215166624635458e+00
1.873831392824649811e+01 -8.921617209911346436e+00 2.762107012327760458e+00
1.843972994387149811e+01 -9.506761252880096436e+00 1.651084063109010458e+00
1.834573580324649811e+01 -9.243943870067596436e+00 1.651251909788697958e+00
1.825406099855899811e+01 -8.986985862255096436e+00 1.651419756468385458e+00
1.815628267824649811e+01 -8.729966819286346436e+00 1.651053545530885458e+00
1.806070162355899811e+01 -8.478685081005096436e+00 1.650702593382447958e+00
1.796695162355899811e+01 -8.232042014598846436e+00 1.650351641234010458e+00
1.853470064699649811e+01 -9.997483909130096436e+00 1.748084185179322958e+00
1.846524263918399811e+01 -9.742295920848846436e+00 1.749350664671510458e+00
1.839700533449649811e+01 -9.491197288036346436e+00 1.750601885374635458e+00
1.829995943605899811e+01 -9.226976096630096436e+00 1.749549028929322958e+00
1.820852877199649811e+01 -8.970567405223846436e+00 1.748801348265260458e+00
1.811856295168399811e+01 -8.717881858348846436e+00 1.748053667601197958e+00
1.803042818605899811e+01 -8.470689475536346436e+00 1.747336504515260458e+00
1.794388033449649811e+01 -8.227891623973846436e+00 1.746619341429322958e+00
1.840689302980899811e+01 -8.902879416942596436e+00 2.174765703734010458e+00
1.884890963137149811e+01 -8.927964866161346436e+00 2.222876665648072958e+00
1.838980318605899811e+01 -8.901902854442596436e+00 2.274726030882447958e+00
1.883133150637149811e+01 -8.926927268505096436e+00 2.324637529905885458e+00
1.811233736574649811e+01 -8.351976096630096436e+00 2.253760454710572958e+00
1.837295748293399811e+01 -8.900926291942596436e+00 2.374076006468385458e+00
1.881387545168399811e+01 -8.925950706005096436e+00 2.425772783812135458e+00
1.810940767824649811e+01 -8.358140647411346436e+00 2.352820513304322958e+00
1.835586763918399811e+01 -8.899949729442596436e+00 2.473868486937135458e+00
1.879629732668399811e+01 -8.924974143505096436e+00 2.527381060179322958e+00
1.810635592043399811e+01 -8.364305198192596436e+00 2.451422808226197958e+00
1.833889986574649811e+01 -8.898973166942596436e+00 2.573584673460572958e+00
1.877884127199649811e+01 -8.923936545848846436e+00 2.628897783812135458e+00
1.810342623293399811e+01 -8.370530784130096436e+00 2.550604937132447958e+00
1.832193209230899811e+01 -8.898057639598846436e+00 2.672690508421510458e+00
1.876138521730899811e+01 -8.922959983348846436e+00 2.729788897093385458e+00
1.810037447512149811e+01 -8.376756370067596436e+00 2.649848101194947958e+00
1.834890963137149811e+01 -8.899644553661346436e+00 2.469992754515260458e+00
1.879336763918399811e+01 -8.924913108348846436e+00 2.523993609007447958e+00
1.810745455324649811e+01 -8.361985862255096436e+00 2.448966143187135458e+00
1.818545748293399811e+01 -8.200059592723846436e+00 2.461051104124635458e+00
1.833169771730899811e+01 -8.898667991161346436e+00 2.570212481077760458e+00
1.877554537355899811e+01 -8.923875510692596436e+00 2.626578447874635458e+00
1.810440279543399811e+01 -8.368333518505096436e+00 2.549246904905885458e+00
1.818240572512149811e+01 -8.206285178661346436e+00 2.561316607054322958e+00
1.831448580324649811e+01 -8.897691428661346436e+00 2.670889971312135458e+00
1.875796724855899811e+01 -8.922837913036346436e+00 2.728522417601197958e+00
1.810147310793399811e+01 -8.374620139598846436e+00 2.649054644163697958e+00
1.817935396730899811e+01 -8.212571799755096436e+00 2.661627886351197958e+00
1.826541353762149811e+01 -8.033738791942596436e+00 2.481986162718385458e+00
1.832144381105899811e+01 -8.898179709911346436e+00 2.578024981077760458e+00
1.876651217043399811e+01 -8.923448264598846436e+00 2.634192583616822958e+00
1.810476900637149811e+01 -8.367723166942596436e+00 2.558631060179322958e+00
1.818350435793399811e+01 -8.203843772411346436e+00 2.570990679319947958e+00
1.826236177980899811e+01 -8.040086448192596436e+00 2.583350298460572958e+00
1.830398775637149811e+01 -8.897203147411346436e+00 2.679740068968385458e+00
1.874844576418399811e+01 -8.922410666942596436e+00 2.737738726194947958e+00
1.810159517824649811e+01 -8.374192893505096436e+00 2.659567949827760458e+00
1.818045260012149811e+01 -8.210252463817596436e+00 2.671912310179322958e+00
1.825931002199649811e+01 -8.046495139598846436e+00 2.684775469359010458e+00
1.828335787355899811e+01 -7.996446311473846436e+00 2.217841265257447958e+00
1.878982760012149811e+01 -8.925096213817596436e+00 2.362372515257447958e+00
1.811477877199649811e+01 -8.346727073192596436e+00 2.295752642210572958e+00
1.819729830324649811e+01 -8.175340354442596436e+00 2.309470293577760458e+00
1.827993990480899811e+01 -8.003404319286346436e+00 2.323233721312135458e+00
1.877054049074649811e+01 -8.923997581005096436e+00 2.470038530882447958e+00
1.811136080324649811e+01 -8.353868186473846436e+00 2.401770708616822958e+00
1.819388033449649811e+01 -8.182420432567596436e+00 2.415488359984010458e+00
1.827664400637149811e+01 -8.010423362255096436e+00 2.429251787718385458e+00
1.875113131105899811e+01 -8.922898948192596436e+00 2.578192827757447958e+00
1.810794283449649811e+01 -8.360948264598846436e+00 2.507865068968385458e+00
1.819046236574649811e+01 -8.189439475536346436e+00 2.521567461546510458e+00
1.827322603762149811e+01 -8.017381370067596436e+00 2.534766314085572958e+00
1.873172213137149811e+01 -8.921800315380096436e+00 2.686255571898072958e+00
1.810464693605899811e+01 -8.368028342723846436e+00 2.613440630491822958e+00
1.818704439699649811e+01 -8.196458518505096436e+00 2.627158281859010458e+00
1.826993013918399811e+01 -8.024339377880096436e+00 2.640906450804322958e+00
6.905672326683998108e+00 7.731214821338653564e+00 1.478049395140260458e+00
7.018831506371498108e+00 7.915479958057403564e+00 1.500617144163697958e+00
7.246126428246498108e+00 8.097791969776153564e+00 1.535529253538697958e+00
1.035623385012149811e+01 6.900587379932403564e+00 1.930060503538697958e+00
1.311221529543399811e+01 6.938856422901153564e+00 2.245825884398072958e+00
1.073770357668399811e+01 7.315870583057403564e+00 1.996375200804322958e+00
6.888704553246498108e+00 7.725721657276153564e+00 1.580939409788697958e+00
7.454134240746498108e+00 7.891554176807403564e+00 1.654440996702760458e+00
7.454256311058998108e+00 8.084791481494903564e+00 1.665671465452760458e+00
5.892122521996498108e+00 8.439344704151153564e+00 1.173422930296510458e+00
1.035476900637149811e+01 6.776136696338653564e+00 1.640280840452760458e+00
8.525789514183998108e+00 7.131910622119903564e+00 1.472312090452760458e+00
1.429947115480899811e+01 6.966322243213653564e+00 2.057410357054322958e+00
8.419344201683998108e+00 7.552503883838653564e+00 1.485449907835572958e+00
7.015413537621498108e+00 7.825453102588653564e+00 1.356482622679322958e+00
7.177156701683998108e+00 8.013746559619903564e+00 1.383917925413697958e+00
7.271028771996498108e+00 8.205946266651153564e+00 1.404608843382447958e+00
8.868318811058998108e+00 8.365370094776153564e+00 1.578238604124635458e+00
1.245828463137149811e+01 6.596632301807403564e+00 1.980750200804322958e+00
1.034292818605899811e+01 7.213941872119903564e+00 1.788275835569947958e+00
8.371126428246498108e+00 7.548109352588653564e+00 1.594504473265260458e+00
6.954866662621498108e+00 7.821729958057403564e+00 1.457709429319947958e+00
7.466463342308998108e+00 7.995558083057403564e+00 1.523276445921510458e+00
7.533968225121498108e+00 8.191053688526153564e+00 1.541693804319947958e+00
7.427644982933998108e+00 8.391554176807403564e+00 1.541693804319947958e+00
1.057144381105899811e+01 6.967054665088653564e+00 1.923438189085572958e+00
1.280288912355899811e+01 7.045973122119903564e+00 2.178473589476197958e+00
6.844759240746498108e+00 7.627577126026153564e+00 1.542609331663697958e+00
6.936556115746498108e+00 7.815992653369903564e+00 1.563620684202760458e+00
7.430574670433998108e+00 7.990309059619903564e+00 1.629004595335572958e+00
7.603426232933998108e+00 8.182203590869903564e+00 1.659323809202760458e+00
8.107088342308998108e+00 8.369093239307403564e+00 1.727088091429322958e+00
6.797884240746498108e+00 8.564832985401153564e+00 1.687979815062135458e+00
7.981477990746498108e+00 8.749586403369903564e+00 1.834586260374635458e+00
1.512832857668399811e+01 8.891554176807403564e+00 2.657920000609010458e+00
6.864656701683998108e+00 7.726881325244903564e+00 1.762015459593385458e+00
7.084505334496498108e+00 7.922560036182403564e+00 1.799170610960572958e+00
7.198763146996498108e+00 8.126478493213653564e+00 1.824927446898072958e+00
7.479646936058998108e+00 8.326917946338653564e+00 1.870230791624635458e+00
7.851351037621498108e+00 8.528822243213653564e+00 1.926413652952760458e+00
7.379305139183998108e+00 8.964613258838653564e+00 1.896445391234010458e+00
1.527066256105899811e+01 9.157362282276153564e+00 2.845145342405885458e+00
8.823885217308998108e+00 8.317701637744903564e+00 1.664130327757447958e+00
8.346834436058998108e+00 8.560072243213653564e+00 1.628852007444947958e+00
1.495266939699649811e+01 8.930616676807403564e+00 2.342978594359010458e+00
8.263094201683998108e+00 9.455946266651153564e+00 1.675025103148072958e+00
7.412508264183998108e+00 7.929212868213653564e+00 1.613989946898072958e+00
7.485872521996498108e+00 8.142347633838653564e+00 1.634894487913697958e+00
7.506258264183998108e+00 8.358595192432403564e+00 1.650214312132447958e+00
1.518802095949649811e+01 8.636244118213653564e+00 2.507147905882447958e+00
8.137972131371498108e+00 9.003614723682403564e+00 1.758307573851197958e+00
6.953279748558998108e+00 9.442579567432403564e+00 1.655295488890260458e+00
7.210848107933998108e+00 7.932325661182403564e+00 1.712424395140260458e+00
8.582430139183998108e+00 8.084364235401153564e+00 1.877997515257447958e+00
7.519685998558998108e+00 8.350416481494903564e+00 1.772894976194947958e+00
6.809358850121498108e+00 8.589186012744903564e+00 1.705680010374635458e+00
6.961946740746498108e+00 8.797315895557403564e+00 1.735648272093385458e+00
1.512698580324649811e+01 8.909315407276153564e+00 2.674140093382447958e+00
1.486514498293399811e+01 9.190870583057403564e+00 2.661307451780885458e+00
7.098787561058998108e+00 7.930677711963653564e+00 1.819403765257447958e+00
7.182527795433998108e+00 8.140821754932403564e+00 1.841376421507447958e+00
8.578890100121498108e+00 8.302748024463653564e+00 2.016867754515260458e+00
7.830110803246498108e+00 8.551771461963653564e+00 1.943015215452760458e+00
1.455142427980899811e+01 8.906996071338653564e+00 2.762137529905885458e+00
8.056673303246498108e+00 9.211073219776153564e+00 2.009680864866822958e+00
1.466226412355899811e+01 9.458936989307403564e+00 2.809409258421510458e+00
1.033157564699649811e+01 8.795423805713653564e+00 1.689978716429322958e+00
1.586294771730899811e+01 8.970045387744903564e+00 2.248267290648072958e+00
1.057657076418399811e+01 9.533216774463653564e+00 1.759741900023072958e+00
1.458877779543399811e+01 9.829481422901153564e+00 2.175147173460572958e+00
7.332430139183998108e+00 8.188490211963653564e+00 1.479148027952760458e+00
7.618685021996498108e+00 8.398207008838653564e+00 1.521079180296510458e+00
8.390169396996498108e+00 8.598219215869903564e+00 1.613349077757447958e+00
1.506521822512149811e+01 8.685499489307403564e+00 2.310385820921510458e+00
1.611306978762149811e+01 8.956678688526153564e+00 2.435675737913697958e+00
9.824007287621498108e+00 9.280958473682403564e+00 1.804007647093385458e+00
6.677034631371498108e+00 9.510816872119903564e+00 1.492087481077760458e+00
1.618863131105899811e+01 9.839063942432403564e+00 2.498755571898072958e+00
7.360262170433998108e+00 8.179212868213653564e+00 1.604498980101197958e+00
7.598909631371498108e+00 8.391004860401153564e+00 1.643378374632447958e+00
7.863435998558998108e+00 8.605909645557403564e+00 1.685263750609010458e+00
1.049710299074649811e+01 9.021498024463653564e+00 1.996024248655885458e+00
1.499807955324649811e+01 9.246717751026153564e+00 2.497260210569947958e+00
6.750154748558998108e+00 9.503675758838653564e+00 1.620001909788697958e+00
9.767488732933998108e+00 9.754408180713653564e+00 1.962149736937135458e+00
7.461580529808998108e+00 8.166456520557403564e+00 1.738928911741822958e+00
7.536775842308998108e+00 8.385389626026153564e+00 1.760886309202760458e+00
6.844759240746498108e+00 8.628858864307403564e+00 1.697699663694947958e+00
7.001863732933998108e+00 8.842787086963653564e+00 1.727957842405885458e+00
1.509268404543399811e+01 8.950208961963653564e+00 2.648215410765260458e+00
7.441072717308998108e+00 9.276930153369903564e+00 1.804938433226197958e+00
6.818025842308998108e+00 9.496534645557403564e+00 1.748068926390260458e+00
4.006746545433998108e+00 9.680860817432403564e+00 1.441886065062135458e+00
7.275545373558998108e+00 8.167249977588653564e+00 1.841422197874635458e+00
7.496248498558998108e+00 8.379041969776153564e+00 1.879737017210572958e+00
7.681062951683998108e+00 8.595533668994903564e+00 1.914771196898072958e+00
6.982576623558998108e+00 8.835523903369903564e+00 1.847388384398072958e+00
1.360928560793399811e+01 8.960951149463653564e+00 2.634360430296510458e+00
7.658357873558998108e+00 9.268080055713653564e+00 1.953452227171510458e+00
9.635774865746498108e+00 9.496900856494903564e+00 2.200049517210572958e+00
3.991609826683998108e+00 9.674146950244903564e+00 1.547812578734010458e+00
3.527254357933998108e+00 9.939894020557403564e+00 1.524802324827760458e+00
7.519319787621498108e+00 9.149305641651153564e+00 2.057852861937135458e+00
1.440005709230899811e+01 9.620558083057403564e+00 2.918311235960572958e+00
4.321687951683998108e+00 9.819898903369903564e+00 1.714911577757447958e+00
3.522737756371498108e+00 1.001197654008865356e+01 1.630789873655885458e+00
3.510164514183998108e+00 1.021107321977615356e+01 1.642615435179322958e+00
4.023226037621498108e+00 9.687757790088653564e+00 1.450171587523072958e+00
3.530184045433998108e+00 9.892347633838653564e+00 1.408331987913697958e+00
3.517366662621498108e+00 1.009766989946365356e+01 1.419882891234010458e+00
3.504549279808998108e+00 1.030207663774490356e+01 1.431403276976197958e+00
6.497713342308998108e+00 1.060761862993240356e+01 1.783301470335572958e+00
7.379549279808998108e+00 8.969251930713653564e+00 1.910407183226197958e+00
8.060823693871498108e+00 9.194715797901153564e+00 2.003562090452760458e+00
1.509439302980899811e+01 9.378675758838653564e+00 2.829596636351197958e+00
4.006868615746498108e+00 9.680494606494903564e+00 1.564307329710572958e+00
3.530550256371498108e+00 9.885328590869903564e+00 1.522132036741822958e+00
3.517732873558998108e+00 1.009071189165115356e+01 1.534262774046510458e+00
3.504915490746498108e+00 1.029517966508865356e+01 1.545722124632447958e+00
6.502474084496498108e+00 1.060011130571365356e+01 1.912085650023072958e+00
1.100650240480899811e+01 8.869032204151153564e+00 2.473792192991822958e+00
7.690340295433998108e+00 9.192396461963653564e+00 2.094107744749635458e+00
1.475345064699649811e+01 9.371046364307403564e+00 2.956061480101197958e+00
3.990511193871498108e+00 9.673231422901153564e+00 1.678977129515260458e+00
3.531038537621498108e+00 9.878309547901153564e+00 1.636633989866822958e+00
3.518221154808998108e+00 1.008375388383865356e+01 1.648108599241822958e+00
3.505403771996498108e+00 1.028834372758865356e+01 1.659522173460572958e+00
6.507234826683998108e+00 1.059260398149490356e+01 2.041007158812135458e+00
1.344729830324649811e+01 1.064546042680740356e+01 2.374762651976197958e+00
6.469026818871498108e+00 1.070472556352615356e+01 1.641989824827760458e+00
8.928011193871498108e+00 1.104255515336990356e+01 1.923651812132447958e+00
8.227205529808998108e+00 9.256910622119903564e+00 1.875617144163697958e+00
1.304910494387149811e+01 9.465223610401153564e+00 2.420233843382447958e+00
4.131258264183998108e+00 9.756178200244903564e+00 1.455817339476197958e+00
3.525423303246498108e+00 9.967237770557403564e+00 1.402442095335572958e+00
3.512361779808998108e+00 1.017732077836990356e+01 1.414298174437135458e+00
3.499178186058998108e+00 1.038795310258865356e+01 1.426200029905885458e+00
6.467195764183998108e+00 1.069679099321365356e+01 1.772879717405885458e+00
8.946810021996498108e+00 1.103492575883865356e+01 2.067572710569947958e+00
7.622713342308998108e+00 9.258436501026153564e+00 1.946036455687135458e+00
9.656893029808998108e+00 9.484876930713653564e+00 2.194068071898072958e+00
4.161287561058998108e+00 9.748670876026153564e+00 1.579489824827760458e+00
3.525911584496498108e+00 9.960035622119903564e+00 1.519278643187135458e+00
3.512727990746498108e+00 1.017017966508865356e+01 1.531104204710572958e+00
3.499544396996498108e+00 1.038087302446365356e+01 1.543585894163697958e+00
6.465975061058998108e+00 1.068891745805740356e+01 1.903906939085572958e+00
8.967928186058998108e+00 1.102735739946365356e+01 2.212805864866822958e+00
7.159334436058998108e+00 9.257826149463653564e+00 2.027625200804322958e+00
1.527029635012149811e+01 9.424818336963653564e+00 3.007010576780885458e+00
4.144441857933998108e+00 9.741224586963653564e+00 1.697272417601197958e+00
3.526399865746498108e+00 9.952772438526153564e+00 1.636832354124635458e+00
3.513216271996498108e+00 1.016303855180740356e+01 1.648612139280885458e+00
3.500032678246498108e+00 1.037385398149490356e+01 1.660437700804322958e+00
6.470735803246498108e+00 1.068128806352615356e+01 2.035056231077760458e+00
8.989168420433998108e+00 1.101978904008865356e+01 2.358344194944947958e+00
7.667757287621498108e+00 1.080976706743240356e+01 2.198416826780885458e+00
1.504202486574649811e+01 1.136103659868240356e+01 3.113608477171510458e+00
1.494742037355899811e+01 1.166883689165115356e+01 3.123450396116822958e+00
3.502840295433998108e+00 1.032881003618240356e+01 1.552359697874635458e+00
6.492708459496498108e+00 1.062330466508865356e+01 1.911582109984010458e+00
8.961092248558998108e+00 1.095008689165115356e+01 2.214133379515260458e+00
1.631350924074649811e+01 1.151893454790115356e+01 3.089942095335572958e+00
9.623934045433998108e+00 1.179115134477615356e+01 2.345236895140260458e+00
3.531038537621498108e+00 9.878614723682403564e+00 1.650412676390260458e+00
3.517122521996498108e+00 1.009992820024490356e+01 1.662573931273072958e+00
3.503328576683998108e+00 1.032118064165115356e+01 1.675376055296510458e+00
6.497957482933998108e+00 1.061500388383865356e+01 2.049780962523072958e+00
7.595369592308998108e+00 1.089692527055740356e+01 2.198355791624635458e+00
1.503164888918399811e+01 1.145588523149490356e+01 3.116934893187135458e+00
1.488846041262149811e+01 1.176698142290115356e+01 3.120261309202760458e+00
9.624666467308998108e+00 1.178224021196365356e+01 2.497687456663697958e+00
3.512361779808998108e+00 1.017640525102615356e+01 1.593497393187135458e+00
3.498201623558998108e+00 1.040321189165115356e+01 1.606436846312135458e+00
6.468416467308998108e+00 1.070173484086990356e+01 1.967505571898072958e+00
8.988680139183998108e+00 1.103645163774490356e+01 2.278281328734010458e+00
1.639627291262149811e+01 1.161164695024490356e+01 3.167655108030885458e+00
9.576814904808998108e+00 1.189161521196365356e+01 2.401755449827760458e+00
9.513826623558998108e+00 1.216627341508865356e+01 2.412161943968385458e+00
3.512850061058998108e+00 1.016859275102615356e+01 1.720420000609010458e+00
3.498689904808998108e+00 1.039558249711990356e+01 1.732672808226197958e+00
6.466585412621498108e+00 1.069331198930740356e+01 2.107260820921510458e+00
9.011141076683998108e+00 1.102808982133865356e+01 2.433539507444947958e+00
1.613479830324649811e+01 1.159004050493240356e+01 3.322775957640260458e+00
1.503323580324649811e+01 1.187061911821365356e+01 3.208975908812135458e+00
9.551790490746498108e+00 1.188123923540115356e+01 2.553290484007447958e+00
6.551912561058998108e+00 1.074989157915115356e+01 2.139197466429322958e+00
1.518374849855899811e+01 1.127943259477615356e+01 3.206046221312135458e+00
1.515713717043399811e+01 1.161042624711990356e+01 3.224463579710572958e+00
1.505325533449649811e+01 1.193641501665115356e+01 3.233313677366822958e+00
9.625032678246498108e+00 1.196113425493240356e+01 2.585776445921510458e+00
3.801668420433998108e+00 1.186854392290115356e+01 1.883307573851197958e+00
3.806551232933998108e+00 1.210554343461990356e+01 1.900076983030885458e+00
4.529329553246498108e+00 1.248420554399490356e+01 1.763724443968385458e+00
1.652835299074649811e+01 1.099952536821365356e+01 3.183127520140260458e+00
1.674868990480899811e+01 1.135359030961990356e+01 3.232291338499635458e+00
1.480423189699649811e+01 1.229725486040115356e+01 3.071112749632447958e+00
3.798006311058998108e+00 1.193202048540115356e+01 1.781607744749635458e+00
3.778963342308998108e+00 1.217317038774490356e+01 1.795630571898072958e+00
4.542879357933998108e+00 1.247718650102615356e+01 1.903952715452760458e+00
8.566072717308998108e+00 1.081568747758865356e+01 2.412589190062135458e+00
8.733064904808998108e+00 1.110194236040115356e+01 2.451056597288697958e+00
1.520511080324649811e+01 1.163227683305740356e+01 3.261328814085572958e+00
1.494998385012149811e+01 1.229401999711990356e+01 3.275488970335572958e+00
9.063143029808998108e+00 1.225776511430740356e+01 2.568610308226197958e+00
3.788118615746498108e+00 1.216590720415115356e+01 1.931189653929322958e+00
8.267977014183998108e+00 1.276765280961990356e+01 2.508719561155885458e+00
1.526297213137149811e+01 1.164570456743240356e+01 3.304389116819947958e+00
1.444803072512149811e+01 1.229072409868240356e+01 3.251868364866822958e+00
9.060091271996498108e+00 1.229524070024490356e+01 2.606543657835572958e+00
3.830721154808998108e+00 1.222175437211990356e+01 1.974784014280885458e+00
4.534822717308998108e+00 1.252625876665115356e+01 2.080451128538697958e+00
8.125032678246498108e+00 1.309382468461990356e+01 2.551230547484010458e+00
4.513338342308998108e+00 1.256391745805740356e+01 1.959296343382447958e+00
8.331575646996498108e+00 1.314997702836990356e+01 2.440695879515260458e+00
8.578279748558998108e+00 1.346644431352615356e+01 2.491965410765260458e+00
1.529837252199649811e+01 1.162470847368240356e+01 3.327368853148072958e+00
1.444400240480899811e+01 1.228047019243240356e+01 3.271811602171510458e+00
1.116177584230899811e+01 1.242915183305740356e+01 2.889975664671510458e+00
8.832430139183998108e+00 1.258686667680740356e+01 2.622824785765260458e+00
4.525789514183998108e+00 1.255573874711990356e+01 2.105399248655885458e+00
8.156526818871498108e+00 1.312495261430740356e+01 2.581061480101197958e+00
3.769197717308998108e+00 1.220271140336990356e+01 1.790778276976197958e+00
4.524080529808998108e+00 1.252277976274490356e+01 1.898779985960572958e+00
8.278963342308998108e+00 1.309016257524490356e+01 2.361685869749635458e+00
8.348909631371498108e+00 1.340211325883865356e+01 2.394232866819947958e+00
1.165445162355899811e+01 1.435688620805740356e+01 2.836585161741822958e+00
9.585848107933998108e+00 1.192036277055740356e+01 2.595481035765260458e+00
3.782137170433998108e+00 1.219343405961990356e+01 1.939887163694947958e+00
