7.341890454292297363e+00 -8.215384826064109802e+00 1.204155016224831343e+00
7.425020337104797363e+00 -8.195426329970359802e+00 1.213890123646706343e+00
7.531953930854797363e+00 -8.203116759657859802e+00 1.226448107045143843e+00
7.649141430854797363e+00 -8.221854552626609802e+00 1.240242052357643843e+00
7.266084790229797363e+00 -8.250296935439109802e+00 1.238670397084206343e+00
7.347993969917297363e+00 -8.229361876845359802e+00 1.248191881459206343e+00
7.431856274604797363e+00 -8.210074767470359802e+00 1.258186388295143843e+00
7.522432446479797363e+00 -8.197684630751609802e+00 1.269035387318581343e+00
7.670137524604797363e+00 -8.253287658095359802e+00 1.287086534779518843e+00
7.268892407417297363e+00 -8.260184630751609802e+00 1.282234239857643843e+00
7.364473462104797363e+00 -8.256705626845359802e+00 1.293998766224831343e+00
7.450044751167297363e+00 -8.239066466689109802e+00 1.304405260365456343e+00
7.556490063667297363e+00 -8.245780333876609802e+00 1.317604112904518843e+00
7.268648266792297363e+00 -8.266288146376609802e+00 1.325721788685768843e+00
7.350435376167297363e+00 -8.245169982314109802e+00 1.335792589467018843e+00
7.437959790229797363e+00 -8.230277404189109802e+00 1.346687364857643843e+00
7.533784985542297363e+00 -8.223868712782859802e+00 1.358467150013893843e+00
7.268159985542297363e+00 -8.272086486220359802e+00 1.369239855092018843e+00
7.350069165229797363e+00 -8.251029357314109802e+00 1.379264879506081343e+00
7.438081860542297363e+00 -8.236686095595359802e+00 1.390419054310768843e+00
7.536958813667297363e+00 -8.234122619032859802e+00 1.403175401967018843e+00
9.714082837104797363e+00 -1.011821685731410980e+01 6.311111929826438427e-01
9.843111157417297363e+00 -1.010967193543910980e+01 6.410141470842063427e-01
9.967989087104797363e+00 -1.009453521668910980e+01 6.506577017717063427e-01
1.009518635272979736e+01 -1.007958160340785980e+01 6.604538443498313427e-01
1.028451740741729736e+01 -1.012932525575160980e+01 6.714401724748313427e-01
1.049179279804229736e+01 -1.019329009950160980e+01 6.829910757951438427e-01
1.070456135272979736e+01 -1.025896392762660980e+01 6.948318961076438427e-01
1.091574299335479736e+01 -1.031847320497035980e+01 7.065659048967063427e-01
1.097140705585479736e+01 -1.155351959168910980e+01 7.143631461076438427e-01
1.119577229022979736e+01 -1.162786041200160980e+01 7.275619986467063427e-01
1.155966389179229736e+01 -1.185039459168910980e+01 7.442093375138938427e-01
1.196335041522979736e+01 -1.210533843934535980e+01 7.626724722795188427e-01
1.248935139179229736e+01 -1.247954498231410980e+01 7.842789175920188427e-01
1.322409260272979736e+01 -1.305626617372035980e+01 8.115463736467063427e-01
1.479806721210479736e+01 -1.447429595887660980e+01 8.622208121232688427e-01
1.632492268085479736e+01 -1.579527984559535980e+01 9.139633658342063427e-01
2.028756916522979736e+01 -2.013249908387660980e+01 1.129859972279518843e+00
2.027194416522979736e+01 -2.013146148622035980e+01 1.252815294545143843e+00
2.025644123554229736e+01 -2.013042388856410980e+01 1.375083971302956343e+00
2.024081623554229736e+01 -2.012938629090785980e+01 1.497962999623268843e+00
2.019735920429229736e+01 -2.009947906434535980e+01 1.618476915638893843e+00
2.016122639179229736e+01 -1.974724517762660980e+01 1.625755358021706343e+00
2.015353596210479736e+01 -2.208409820497035980e+01 1.685157823842018843e+00
2.014254963397979736e+01 -2.172112213075160980e+01 1.693763780873268843e+00
2.013656818866729736e+01 -2.137041412293910980e+01 1.703178453724831343e+00
2.014633381366729736e+01 -2.104192291200160980e+01 1.712791490834206343e+00
2.015585529804229736e+01 -2.071996246278285980e+01 1.722206163685768843e+00
2.016525471210479736e+01 -2.040227447450160980e+01 1.731498766224831343e+00
2.016794025897979736e+01 -2.008403716981410980e+01 1.739524889271706343e+00
2.015341389179229736e+01 -1.975389800965785980e+01 1.746925401967018843e+00
2.016537678241729736e+01 -2.211492095887660980e+01 1.816261339467018843e+00
2.015695393085479736e+01 -2.175426422059535980e+01 1.823799181263893843e+00
2.014889729022979736e+01 -2.140038238465785980e+01 1.831199693959206343e+00
2.014084064960479736e+01 -2.105193267762660980e+01 1.838478136342018843e+00
2.013534748554229736e+01 -2.071379791200160980e+01 1.845771837513893843e+00
2.014572346210479736e+01 -2.039702545106410980e+01 1.854087877552956343e+00
2.014938557147979736e+01 -2.007988677918910980e+01 1.861778307240456343e+00
2.013546955585479736e+01 -1.975035797059535980e+01 1.868064928334206343e+00
1.091708576679229736e+01 -1.031932769715785980e+01 7.066116812638938427e-01
1.114401447772979736e+01 -1.039006744325160980e+01 7.192612173967063427e-01
1.150351154804229736e+01 -1.058531890809535980e+01 7.347641470842063427e-01
1.190036213397979736e+01 -1.080693756043910980e+01 7.515945914201438427e-01
1.240829670429229736e+01 -1.112419830262660980e+01 7.714920523576438427e-01
1.313022053241729736e+01 -1.162651763856410980e+01 7.973099234513938427e-01
1.364084064960479736e+01 -1.191667877137660980e+01 8.187180045060813427e-01
1.415280354022979736e+01 -1.219530425965785980e+01 8.403397086076438427e-01
1.635067951679229736e+01 -1.582048736512660980e+01 9.146957877092063427e-01
2.016049396991729736e+01 -1.974541412293910980e+01 1.625740099232643843e+00
2.012729084491729736e+01 -1.940257965028285980e+01 1.632804918568581343e+00
2.009494221210479736e+01 -1.906645904481410980e+01 1.639717150013893843e+00
2.006295979022979736e+01 -1.873564849793910980e+01 1.646522569935768843e+00
2.003170979022979736e+01 -1.841228424012660980e+01 1.653175401967018843e+00
2.000094807147979736e+01 -1.809398590028285980e+01 1.659721422474831343e+00
1.997091877460479736e+01 -1.778270660340785980e+01 1.666130113881081343e+00
1.995651447772979736e+01 -1.749083648622035980e+01 1.673378038685768843e+00
2.015280354022979736e+01 -1.975225006043910980e+01 1.746925401967018843e+00
2.013852131366729736e+01 -1.942797027528285980e+01 1.754035997670143843e+00
2.011398518085479736e+01 -1.909917388856410980e+01 1.760963487904518843e+00
2.008444416522979736e+01 -1.877007232606410980e+01 1.766777086537331343e+00
2.005551350116729736e+01 -1.844829498231410980e+01 1.772468614857643843e+00
2.002707111835479736e+01 -1.813140045106410980e+01 1.778083849232643843e+00
1.999972736835479736e+01 -1.782189117372035980e+01 1.782981920521706343e+00
1.997238361835479736e+01 -1.751763091981410980e+01 1.788368273060768843e+00
2.013485920429229736e+01 -1.974864898622035980e+01 1.868049669545143843e+00
2.012118732929229736e+01 -1.942497955262660980e+01 1.874122667592018843e+00
2.010763752460479736e+01 -1.910692535340785980e+01 1.880104112904518843e+00
2.009445393085479736e+01 -1.879338775575160980e+01 1.885994005482643843e+00
2.008139240741729736e+01 -1.848619781434535980e+01 1.891746568959206343e+00
1.415683186054229736e+01 -1.219835601747035980e+01 8.404770377092063427e-01
1.585434162616729736e+01 -1.351335845887660980e+01 8.947220328263938427e-01
1.852108967304229736e+01 -1.562468658387660980e+01 9.771805289201438427e-01
1.990158283710479736e+01 -1.661833892762660980e+01 1.582023668568581343e+00
1.985104572772979736e+01 -1.631359039247035980e+01 1.587318468373268843e+00
1.980124104022979736e+01 -1.601372466981410980e+01 1.592506456654518843e+00
1.975253498554229736e+01 -1.572057281434535980e+01 1.597587633412331343e+00
1.970541584491729736e+01 -1.543340240418910980e+01 1.602043199818581343e+00
1.995590412616729736e+01 -1.748937164247035980e+01 1.673362779896706343e+00
1.992550861835479736e+01 -1.718779693543910980e+01 1.679267931263893843e+00
1.989010822772979736e+01 -1.688677154481410980e+01 1.684715318959206343e+00
1.985531818866729736e+01 -1.659007965028285980e+01 1.690071153920143843e+00
1.982113850116729736e+01 -1.629967437684535980e+01 1.695335436146706343e+00
1.978756916522979736e+01 -1.601335845887660980e+01 1.700508165638893843e+00
1.975461018085479736e+01 -1.573302398622035980e+01 1.705574083607643843e+00
1.972226154804229736e+01 -1.545751129090785980e+01 1.710563707631081343e+00
1.997177326679229736e+01 -1.751610504090785980e+01 1.788353014271706343e+00
1.992917072772979736e+01 -1.720317779481410980e+01 1.792411852162331343e+00
1.987948811054229736e+01 -1.688933502137660980e+01 1.796440172474831343e+00
1.983114826679229736e+01 -1.658092437684535980e+01 1.799842882435768843e+00
1.978561604022979736e+01 -1.628099761903285980e+01 1.803306627552956343e+00
1.975241291522979736e+01 -1.599529205262660980e+01 1.807533312123268843e+00
1.971920979022979736e+01 -1.571489654481410980e+01 1.811042833607643843e+00
1.968734943866729736e+01 -1.543999420106410980e+01 1.815116930287331343e+00
2.019528400897979736e+01 -1.663902984559535980e+01 1.944572496693581343e+00
2.019174396991729736e+01 -1.664763580262660980e+01 2.056709337513893843e+00
2.018832600116729736e+01 -1.665630279481410980e+01 2.169548082631081343e+00
2.002878010272979736e+01 -1.653252349793910980e+01 2.267051744740456343e+00
2.001339924335479736e+01 -1.599950347840785980e+01 2.272651720326393843e+00
2.012936604022979736e+01 -1.583879791200160980e+01 2.287178087513893843e+00
2.011911213397979736e+01 -1.662078033387660980e+01 2.388008165638893843e+00
2.000827229022979736e+01 -1.600646148622035980e+01 2.382926988881081343e+00
2.012436115741729736e+01 -1.584569488465785980e+01 2.397392320912331343e+00
2.021103107929229736e+01 -1.671044097840785980e+01 2.510963487904518843e+00
2.000338947772979736e+01 -1.601335845887660980e+01 2.492683458607643843e+00
2.011935627460479736e+01 -1.585259185731410980e+01 2.507072496693581343e+00
2.030343830585479736e+01 -1.680058990418910980e+01 2.634620714467018843e+00
1.999838459491729736e+01 -1.602031646668910980e+01 2.602500963490456343e+00
2.011435139179229736e+01 -1.585948882997035980e+01 2.617424059193581343e+00
2.039731037616729736e+01 -1.689232574403285980e+01 2.760337877552956343e+00
1.999325764179229736e+01 -1.602727447450160980e+01 2.712989855092018843e+00
2.010946857929229736e+01 -1.586632476747035980e+01 2.727256822865456343e+00
1.969906818866729736e+01 -1.465056549012660980e+01 1.100593614857643843e+00
1.968686115741729736e+01 -1.465117584168910980e+01 1.204887438099831343e+00
1.967477619647979736e+01 -1.465178619325160980e+01 1.308601427357643843e+00
1.966256916522979736e+01 -1.465245757997035980e+01 1.412864733021706343e+00
1.965036213397979736e+01 -1.465306793153285980e+01 1.516532945912331343e+00
1.970468342304229736e+01 -1.543193756043910980e+01 1.602027941029518843e+00
1.965744221210479736e+01 -1.514940582215785980e+01 1.607246446888893843e+00
1.961166584491729736e+01 -1.487224517762660980e+01 1.611839342396706343e+00
1.955697834491729736e+01 -1.459172759950160980e+01 1.615776109974831343e+00
1.949008381366729736e+01 -1.430730377137660980e+01 1.618827867787331343e+00
1.942440998554229736e+01 -1.402751861512660980e+01 1.621818590443581343e+00
1.936007893085479736e+01 -1.375408111512660980e+01 1.624733019154518843e+00
1.930917561054229736e+01 -1.349449859559535980e+01 1.627830553334206343e+00
1.972165119647979736e+01 -1.545616851747035980e+01 1.710548448842018843e+00
1.968966877460479736e+01 -1.518511138856410980e+01 1.715248155873268843e+00
1.964706623554229736e+01 -1.490978179872035980e+01 1.719154405873268843e+00
1.959213459491729736e+01 -1.462840972840785980e+01 1.722129869740456343e+00
1.953293049335479736e+01 -1.434899078309535980e+01 1.724662828724831343e+00
1.946896564960479736e+01 -1.406975494325160980e+01 1.726783800404518843e+00
1.940646564960479736e+01 -1.379680572450160980e+01 1.728843736927956343e+00
1.934506428241729736e+01 -1.352904449403285980e+01 1.730888414662331343e+00
1.968661701679229736e+01 -1.543865142762660980e+01 1.815101671498268843e+00
1.965512287616729736e+01 -1.516814361512660980e+01 1.818962145131081343e+00
1.962472736835479736e+01 -1.490257965028285980e+01 1.823371935170143843e+00
1.959201252460479736e+01 -1.463823638856410980e+01 1.826988268177956343e+00
1.953354084491729736e+01 -1.435918365418910980e+01 1.828590441029518843e+00
1.948044025897979736e+01 -1.408769927918910980e+01 1.830497789662331343e+00
1.942770588397979736e+01 -1.382140289247035980e+01 1.831764269154518843e+00
1.937668049335479736e+01 -1.356047759950160980e+01 1.833595323842018843e+00
2.012973225116729736e+01 -1.583818756043910980e+01 2.287239122670143843e+00
2.024557697772979736e+01 -1.567766509950160980e+01 2.301826525013893843e+00
2.012472736835479736e+01 -1.584508453309535980e+01 2.397438097279518843e+00
2.024057209491729736e+01 -1.568450103700160980e+01 2.412010240834206343e+00
2.011972248554229736e+01 -1.585198150575160980e+01 2.507118273060768843e+00
2.023568928241729736e+01 -1.569133697450160980e+01 2.521690416615456343e+00
2.011471760272979736e+01 -1.585887847840785980e+01 2.617469835560768843e+00
2.023080646991729736e+01 -1.569811187684535980e+01 2.631446886342018843e+00
2.010983479022979736e+01 -1.586577545106410980e+01 2.727302599232643843e+00
2.022580158710479736e+01 -1.570500884950160980e+01 2.741844225209206343e+00
7.018600666522979736e+01 -4.782842193543910980e+01 2.958808946888893843e+00
7.018844807147979736e+01 -4.699809966981410980e+01 2.994102525990456343e+00
8.149691975116729736e+01 -5.364433990418910980e+01 3.443107652943581343e+00
8.218319904804229736e+01 -5.314141021668910980e+01 3.508705187123268843e+00
1.905771076679229736e+01 -1.200780425965785980e+01 1.172920275013893843e+00
6.960360920429229736e+01 -4.829448638856410980e+01 3.282264757435768843e+00
6.903634846210479736e+01 -4.707414947450160980e+01 3.291999864857643843e+00
6.914438068866729736e+01 -4.632842193543910980e+01 3.331062364857643843e+00
1.905966389179229736e+01 -1.201683746278285980e+01 1.267921495717018843e+00
6.994894611835479736e+01 -4.364861236512660980e+01 3.490684557240456343e+00
6.887045490741729736e+01 -4.781682525575160980e+01 3.630165148060768843e+00
6.918051350116729736e+01 -4.720574127137660980e+01 3.675315904896706343e+00
6.895614826679229736e+01 -4.623369537293910980e+01 3.695289659779518843e+00
7.060849201679229736e+01 -4.569963775575160980e+01 3.834556627552956343e+00
6.938351643085479736e+01 -4.411016021668910980e+01 3.805198717396706343e+00
6.989901936054229736e+01 -4.364739166200160980e+01 3.859672594349831343e+00
6.863998615741729736e+01 -4.768926177918910980e+01 3.996345567982643843e+00
6.922946369647979736e+01 -4.727214752137660980e+01 4.055671739857643843e+00
6.888559162616729736e+01 -4.621831451356410980e+01 4.066032457631081343e+00
7.050229084491729736e+01 -4.648162017762660980e+01 4.179954576771706343e+00
7.177853596210479736e+01 -4.649138580262660980e+01 4.276741075795143843e+00
6.988461506366729736e+01 -4.366826568543910980e+01 4.228492784779518843e+00
6.852499592304229736e+01 -4.764202056825160980e+01 4.365013170521706343e+00
6.939462482929229736e+01 -4.741826568543910980e+01 4.441719103138893843e+00
1.921591389179229736e+01 -1.276872955262660980e+01 1.543449449818581343e+00
1.915634357929229736e+01 -1.251769195497035980e+01 1.546745348256081343e+00
1.909762775897979736e+01 -1.227019439637660980e+01 1.550010729115456343e+00
1.904013264179229736e+01 -1.202788482606410980e+01 1.553184557240456343e+00
1.896408283710479736e+01 -1.177751861512660980e+01 1.555152941029518843e+00
1.930856525897979736e+01 -1.349321685731410980e+01 1.627800035756081343e+00
1.925973713397979736e+01 -1.323912750184535980e+01 1.631767320912331343e+00
1.921127521991729736e+01 -1.298876129090785980e+01 1.635108995717018843e+00
1.916342365741729736e+01 -1.274175201356410980e+01 1.638404894154518843e+00
1.911654865741729736e+01 -1.249956451356410980e+01 1.641639757435768843e+00
1.907028400897979736e+01 -1.226042877137660980e+01 1.644813585560768843e+00
1.902487385272979736e+01 -1.202599273622035980e+01 1.647941637318581343e+00
1.895883381366729736e+01 -1.178185211122035980e+01 1.649131822865456343e+00
1.934433186054229736e+01 -1.352770172059535980e+01 1.730842638295143843e+00
1.928427326679229736e+01 -1.326500640809535980e+01 1.732688951771706343e+00
1.922531330585479736e+01 -1.300694976747035980e+01 1.734489488881081343e+00
1.916720783710479736e+01 -1.275261627137660980e+01 1.736259508412331343e+00
1.911020100116729736e+01 -1.250353179872035980e+01 1.737999010365456343e+00
1.905404865741729736e+01 -1.225792632997035980e+01 1.739723253529518843e+00
1.899911701679229736e+01 -1.201738677918910980e+01 1.741401720326393843e+00
1.892404377460479736e+01 -1.176769195497035980e+01 1.741569567006081343e+00
1.937594807147979736e+01 -1.355919586122035980e+01 1.833564806263893843e+00
1.932553303241729736e+01 -1.330266509950160980e+01 1.835228014271706343e+00
1.927670490741729736e+01 -1.305095611512660980e+01 1.837455797474831343e+00
7.175607502460479736e+01 -4.502629791200160980e+01 6.622886705677956343e+00
7.147091877460479736e+01 -4.490886627137660980e+01 7.362525987904518843e+00
7.116354572772979736e+01 -4.637932525575160980e+01 7.693504381459206343e+00
7.202487385272979736e+01 -4.611138091981410980e+01 7.794120836537331343e+00
7.234482014179229736e+01 -4.549077545106410980e+01 7.836799669545143843e+00
7.145431721210479736e+01 -4.577666412293910980e+01 8.119422960560768843e+00
7.219357502460479736e+01 -4.542681060731410980e+01 8.207374620717018843e+00
7.183017170429229736e+01 -4.522881256043910980e+01 8.554481554310768843e+00
1.923300373554229736e+01 -1.301958404481410980e+01 1.584510851185768843e+00
1.917209064960479736e+01 -1.276140533387660980e+01 1.587440538685768843e+00
1.911215412616729736e+01 -1.250694976747035980e+01 1.590339708607643843e+00
1.905343830585479736e+01 -1.225780425965785980e+01 1.593177843373268843e+00
1.899545490741729736e+01 -1.201213775575160980e+01 1.595970201771706343e+00
1.891684162616729736e+01 -1.175762115418910980e+01 1.597328233998268843e+00
1.884128010272979736e+01 -1.150902496278285980e+01 1.598274278920143843e+00
1.931418049335479736e+01 -1.330486236512660980e+01 1.683235216420143843e+00
1.926449787616729736e+01 -1.305004058778285980e+01 1.686134386342018843e+00
1.921542561054229736e+01 -1.279930816590785980e+01 1.688987779896706343e+00
1.915707600116729736e+01 -1.254521881043910980e+01 1.691139269154518843e+00
1.909982502460479736e+01 -1.229631744325160980e+01 1.693244982045143843e+00
1.904342854022979736e+01 -1.205089507997035980e+01 1.695320177357643843e+00
1.897055256366729736e+01 -1.179930816590785980e+01 1.696159410756081343e+00
1.889511311054229736e+01 -1.155004058778285980e+01 1.696708727162331343e+00
1.926925861835479736e+01 -1.328215728700160980e+01 1.780662584584206343e+00
1.921982014179229736e+01 -1.302788482606410980e+01 1.782737779896706343e+00
1.917172443866729736e+01 -1.277825103700160980e+01 1.785362291615456343e+00
1.912362873554229736e+01 -1.253136382997035980e+01 1.787391710560768843e+00
1.907650959491729736e+01 -1.228923736512660980e+01 1.789360094349831343e+00
1.903000080585479736e+01 -1.205028472840785980e+01 1.791313219349831343e+00
1.896444904804229736e+01 -1.180327545106410980e+01 1.791267442982643843e+00
1.889694416522979736e+01 -1.155876861512660980e+01 1.791481066029518843e+00
7.097592365741729736e+01 -4.393718658387660980e+01 6.773414659779518843e+00
7.104648029804229736e+01 -4.401140533387660980e+01 7.158210802357643843e+00
7.153415119647979736e+01 -4.597844634950160980e+01 7.565086412709206343e+00
7.162057697772979736e+01 -4.524370513856410980e+01 7.970954942982643843e+00
7.201083576679229736e+01 -4.467290435731410980e+01 8.021034288685768843e+00
7.137594807147979736e+01 -4.594023834168910980e+01 8.321937608998268843e+00
7.204696857929229736e+01 -4.495745025575160980e+01 8.093803453724831343e+00
7.184237873554229736e+01 -4.568328033387660980e+01 8.450523424427956343e+00
1.910971271991729736e+01 -1.235991607606410980e+01 1.558265733998268843e+00
1.904965412616729736e+01 -1.210631500184535980e+01 1.561393785756081343e+00
1.897726643085479736e+01 -1.184923492372035980e+01 1.563636827748268843e+00
1.889731037616729736e+01 -1.159050689637660980e+01 1.565284776967018843e+00
1.881918537616729736e+01 -1.133769927918910980e+01 1.566917467396706343e+00
1.874301350116729736e+01 -1.109001861512660980e+01 1.568031358998268843e+00
1.919809162616729736e+01 -1.286412750184535980e+01 1.650703478138893843e+00
1.914901936054229736e+01 -1.261125884950160980e+01 1.653877306263893843e+00
1.910067951679229736e+01 -1.236241851747035980e+01 1.657005358021706343e+00
1.905295002460479736e+01 -1.211669097840785980e+01 1.660087633412331343e+00
1.899325764179229736e+01 -1.186748443543910980e+01 1.662254381459206343e+00
1.892392170429229736e+01 -1.161516509950160980e+01 1.663688707631081343e+00
1.885617268085479736e+01 -1.136827789247035980e+01 1.665107775013893843e+00
1.878964436054229736e+01 -1.112578521668910980e+01 1.666481066029518843e+00
1.917965900897979736e+01 -1.286034332215785980e+01 1.750404405873268843e+00
1.912045490741729736e+01 -1.260063873231410980e+01 1.752037096302956343e+00
1.906186115741729736e+01 -1.234520660340785980e+01 1.754142809193581343e+00
1.900485432147979736e+01 -1.209374175965785980e+01 1.755760240834206343e+00
1.894198811054229736e+01 -1.184288726747035980e+01 1.756828356068581343e+00
1.887265217304229736e+01 -1.159093414247035980e+01 1.757362413685768843e+00
1.880429279804229736e+01 -1.134398590028285980e+01 1.757316637318581343e+00
1.873764240741729736e+01 -1.110192047059535980e+01 1.757820177357643843e+00
7.179025471210479736e+01 -4.407195220887660980e+01 6.002723741810768843e+00
7.102475178241729736e+01 -4.280193267762660980e+01 5.962043810170143843e+00
7.085080158710479736e+01 -4.352239166200160980e+01 6.306922960560768843e+00
7.125497639179229736e+01 -4.297173248231410980e+01 6.358116197865456343e+00
7.167489826679229736e+01 -4.487700591981410980e+01 6.744987535756081343e+00
7.133774006366729736e+01 -4.385430084168910980e+01 6.730537462513893843e+00
7.228732502460479736e+01 -4.362871490418910980e+01 6.830802965443581343e+00
7.163009846210479736e+01 -4.406609283387660980e+01 7.139411974232643843e+00
7.261703693866729736e+01 -4.385967193543910980e+01 7.246406603138893843e+00
7.147091877460479736e+01 -4.481169830262660980e+01 7.495170641224831343e+00
7.210165607929229736e+01 -4.607427154481410980e+01 7.938743639271706343e+00
7.241794025897979736e+01 -4.544121490418910980e+01 7.981788683217018843e+00
7.224765217304229736e+01 -4.451103912293910980e+01 7.973457384388893843e+00
7.143564045429229736e+01 -4.567815338075160980e+01 8.255714464467018843e+00
7.181112873554229736e+01 -4.509001861512660980e+01 8.304908800404518843e+00
7.032614338397979736e+01 -4.331267486512660980e+01 4.277839708607643843e+00
6.865585529804229736e+01 -4.630412994325160980e+01 4.419807482045143843e+00
7.129855549335479736e+01 -4.641533599793910980e+01 4.632377672474831343e+00
1.903036701679229736e+01 -1.192143951356410980e+01 1.531608629506081343e+00
1.894894611835479736e+01 -1.165886627137660980e+01 1.533638048451393843e+00
1.886862385272979736e+01 -1.140050445497035980e+01 1.535652208607643843e+00
1.879025471210479736e+01 -1.114794097840785980e+01 1.537605333607643843e+00
1.871383869647979736e+01 -1.090044341981410980e+01 1.539054918568581343e+00
1.912570393085479736e+01 -1.264244781434535980e+01 1.616844225209206343e+00
1.907711994647979736e+01 -1.239086090028285980e+01 1.620384264271706343e+00
1.902939045429229736e+01 -1.214324127137660980e+01 1.623878526967018843e+00
1.897079670429229736e+01 -1.189141021668910980e+01 1.626579332631081343e+00
1.890133869647979736e+01 -1.163695465028285980e+01 1.628425646107643843e+00
1.883285725116729736e+01 -1.138622222840785980e+01 1.630241442006081343e+00
1.876584064960479736e+01 -1.114086090028285980e+01 1.632026720326393843e+00
1.869992268085479736e+01 -1.089977203309535980e+01 1.633781481068581343e+00
1.916256916522979736e+01 -1.267650543153285980e+01 1.720497179310768843e+00
1.910312092304229736e+01 -1.241698394715785980e+01 1.722496080677956343e+00
1.904428303241729736e+01 -1.216161285340785980e+01 1.724937486927956343e+00
1.897738850116729736e+01 -1.190404449403285980e+01 1.726203966420143843e+00
1.889877521991729736e+01 -1.164354644715785980e+01 1.726509142201393843e+00
1.882138264179229736e+01 -1.138713775575160980e+01 1.726814317982643843e+00
1.874618732929229736e+01 -1.113671050965785980e+01 1.726631212513893843e+00
1.867196857929229736e+01 -1.089067779481410980e+01 1.726921129506081343e+00
1.919491779804229736e+01 -1.270757232606410980e+01 1.824882555287331343e+00
1.914535725116729736e+01 -1.245409332215785980e+01 1.826759386342018843e+00
1.909665119647979736e+01 -1.220464263856410980e+01 1.828605699818581343e+00
7.088339436054229736e+01 -4.298296295106410980e+01 5.847038317006081343e+00
7.196127521991729736e+01 -4.283647857606410980e+01 5.950752306263893843e+00
7.210934650897979736e+01 -4.457817779481410980e+01 6.306999254506081343e+00
7.025912678241729736e+01 -4.263213287293910980e+01 6.173011827748268843e+00
7.135397541522979736e+01 -4.250286041200160980e+01 6.281822252552956343e+00
7.169479572772979736e+01 -4.517449127137660980e+01 6.642326402943581343e+00
7.136630451679229736e+01 -4.414726959168910980e+01 6.630409288685768843e+00
7.247665607929229736e+01 -4.401897369325160980e+01 6.744743395131081343e+00
7.134445393085479736e+01 -4.252776275575160980e+01 6.661537218373268843e+00
7.109115803241729736e+01 -4.400737701356410980e+01 6.987709093373268843e+00
7.281210529804229736e+01 -4.425579009950160980e+01 7.163032579701393843e+00
7.228647053241729736e+01 -4.396562896668910980e+01 7.502327013295143843e+00
7.205111896991729736e+01 -4.633293853700160980e+01 7.831962633412331343e+00
7.218295490741729736e+01 -4.475225006043910980e+01 7.867515611927956343e+00
7.168429768085479736e+01 -4.529766021668910980e+01 8.192710924427956343e+00
7.188766682147979736e+01 -4.545989166200160980e+01 8.606514025013893843e+00
1.893991291522979736e+01 -1.168871246278285980e+01 1.551979112904518843e+00
1.885934650897979736e+01 -1.142790924012660980e+01 1.553642320912331343e+00
1.878000080585479736e+01 -1.117131744325160980e+01 1.555275011342018843e+00
1.870248615741729736e+01 -1.092034088075160980e+01 1.556877184193581343e+00
1.862631428241729736e+01 -1.067406402528285980e+01 1.558448839467018843e+00
1.910861408710479736e+01 -1.245604644715785980e+01 1.643135118763893843e+00
1.905966389179229736e+01 -1.220445953309535980e+01 1.646293688099831343e+00
1.899118244647979736e+01 -1.194371734559535980e+01 1.648582506459206343e+00
1.893564045429229736e+01 -1.169426666200160980e+01 1.651115465443581343e+00
1.886593830585479736e+01 -1.144017730653285980e+01 1.652565050404518843e+00
1.879721271991729736e+01 -1.118975006043910980e+01 1.653984117787331343e+00
1.872934162616729736e+01 -1.094426666200160980e+01 1.654823351185768843e+00
1.866330158710479736e+01 -1.070348297059535980e+01 1.656196642201393843e+00
1.909433186054229736e+01 -1.245525299012660980e+01 1.744148302357643843e+00
1.903537189960479736e+01 -1.219707427918910980e+01 1.745780992787331343e+00
1.897104084491729736e+01 -1.193901763856410980e+01 1.746925401967018843e+00
1.889132893085479736e+01 -1.167418609559535980e+01 1.746864366810768843e+00
1.881381428241729736e+01 -1.141558013856410980e+01 1.746833849232643843e+00
1.874508869647979736e+01 -1.116564117372035980e+01 1.747367906849831343e+00
1.867782795429229736e+01 -1.092095123231410980e+01 1.747886705677956343e+00
1.861166584491729736e+01 -1.068053375184535980e+01 1.748405504506081343e+00
7.108835041522979736e+01 -4.256426177918910980e+01 5.982887316029518843e+00
7.478122150897979736e+01 -4.396013580262660980e+01 6.294807482045143843e+00
7.095639240741729736e+01 -4.331389556825160980e+01 6.334663439076393843e+00
7.093490803241729736e+01 -4.250212799012660980e+01 6.350349474232643843e+00
7.315121662616729736e+01 -4.302544341981410980e+01 6.555213976185768843e+00
7.062851154804229736e+01 -4.394963775575160980e+01 6.669624376576393843e+00
7.130417072772979736e+01 -4.355901275575160980e+01 6.745811510365456343e+00
7.158639729022979736e+01 -4.292620025575160980e+01 6.786766100209206343e+00
7.219223225116729736e+01 -4.413750396668910980e+01 7.212425279896706343e+00
7.133346760272979736e+01 -4.614360748231410980e+01 7.869133043568581343e+00
7.149606525897979736e+01 -4.544646392762660980e+01 8.286979723256081343e+00
7.197482502460479736e+01 -4.492290435731410980e+01 8.348136949818581343e+00
1.869943439960479736e+01 -1.098070465028285980e+01 1.753150987904518843e+00
1.863266193866729736e+01 -1.073674713075160980e+01 1.753974962513893843e+00
1.856698811054229736e+01 -1.049700103700160980e+01 1.754798937123268843e+00
7.053354084491729736e+01 -4.254717193543910980e+01 5.971138048451393843e+00
7.178402912616729736e+01 -4.250359283387660980e+01 6.091438341420143843e+00
7.455331623554229736e+01 -4.333049713075160980e+01 6.333900499623268843e+00
7.187741291522979736e+01 -4.503874908387660980e+01 6.425804186146706343e+00
7.072274982929229736e+01 -4.349858795106410980e+01 6.347404527943581343e+00
7.094992268085479736e+01 -4.283257232606410980e+01 6.385627794545143843e+00
7.171811115741729736e+01 -4.249578033387660980e+01 6.469780016224831343e+00
7.165146076679229736e+01 -4.492900787293910980e+01 6.794227648060768843e+00
7.130038654804229736e+01 -4.388957916200160980e+01 6.779914903920143843e+00
7.169833576679229736e+01 -4.332048736512660980e+01 6.832969713490456343e+00
7.120480549335479736e+01 -4.386247955262660980e+01 7.154792833607643843e+00
7.254086506366729736e+01 -4.386662994325160980e+01 7.297813463490456343e+00
7.124106037616729736e+01 -4.639958892762660980e+01 7.504188585560768843e+00
7.157284748554229736e+01 -4.494573150575160980e+01 7.564598131459206343e+00
7.159128010272979736e+01 -4.499065338075160980e+01 7.954841661732643843e+00
7.199826252460479736e+01 -4.442156158387660980e+01 8.009483385365456343e+00
7.172677814960479736e+01 -4.511003814637660980e+01 8.360878038685768843e+00
1.883761799335479736e+01 -1.129546295106410980e+01 1.667488146107643843e+00
1.876461994647979736e+01 -1.104070220887660980e+01 1.668602037709206343e+00
1.868759357929229736e+01 -1.078661285340785980e+01 1.669349718373268843e+00
1.861215412616729736e+01 -1.053795562684535980e+01 1.670082140248268843e+00
1.853817951679229736e+01 -1.029387603700160980e+01 1.670799303334206343e+00
1.900277912616729736e+01 -1.205724273622035980e+01 1.761650133412331343e+00
1.893356525897979736e+01 -1.179363189637660980e+01 1.762443590443581343e+00
1.886154377460479736e+01 -1.153215728700160980e+01 1.762947130482643843e+00
1.879074299335479736e+01 -1.127452789247035980e+01 1.763435411732643843e+00
1.872128498554229736e+01 -1.102233062684535980e+01 1.763908434193581343e+00
1.865292561054229736e+01 -1.077373443543910980e+01 1.764381456654518843e+00
1.858590900897979736e+01 -1.053026519715785980e+01 1.764839220326393843e+00
1.852011311054229736e+01 -1.029100738465785980e+01 1.765281725209206343e+00
7.198288166522979736e+01 -4.367107330262660980e+01 6.140708971302956343e+00
7.068344318866729736e+01 -4.207475982606410980e+01 6.056037950795143843e+00
7.482931721210479736e+01 -4.373247466981410980e+01 6.410789537709206343e+00
7.153988850116729736e+01 -4.424700103700160980e+01 6.471092272084206343e+00
7.275741779804229736e+01 -4.417790924012660980e+01 6.593589830677956343e+00
7.136508381366729736e+01 -4.251579986512660980e+01 6.492179918568581343e+00
7.094137775897979736e+01 -4.390508209168910980e+01 6.803093004506081343e+00
7.106894123554229736e+01 -4.401702056825160980e+01 7.200981188099831343e+00
7.232773029804229736e+01 -4.397869049012660980e+01 7.336677599232643843e+00
7.152609455585479736e+01 -4.599822174012660980e+01 7.607292223256081343e+00
7.213693439960479736e+01 -4.555364166200160980e+01 7.681877184193581343e+00
7.144577229022979736e+01 -4.597978912293910980e+01 7.992301988881081343e+00
7.160531818866729736e+01 -4.524773345887660980e+01 8.019859361927956343e+00
7.203134357929229736e+01 -4.468462310731410980e+01 8.075996446888893843e+00
7.136081135272979736e+01 -4.595806060731410980e+01 8.374214220326393843e+00
7.240426838397979736e+01 -4.262786041200160980e+01 6.284080553334206343e+00
7.163925373554229736e+01 -4.548308502137660980e+01 6.522483873646706343e+00
7.205172932147979736e+01 -4.491240631043910980e+01 6.578758287709206343e+00
7.278622639179229736e+01 -4.453691802918910980e+01 6.663032579701393843e+00
7.115378010272979736e+01 -4.271868072450160980e+01 6.541603136342018843e+00
7.196151936054229736e+01 -4.239690338075160980e+01 6.632026720326393843e+00
7.124850666522979736e+01 -4.444036041200160980e+01 6.895927477162331343e+00
7.123044025897979736e+01 -4.360808502137660980e+01 6.912681627552956343e+00
7.152279865741729736e+01 -4.297576080262660980e+01 6.957862901967018843e+00
7.232040607929229736e+01 -4.264360748231410980e+01 7.049873400013893843e+00
7.151230061054229736e+01 -4.547148834168910980e+01 7.293998766224831343e+00
7.208920490741729736e+01 -4.417375884950160980e+01 7.383445787709206343e+00
7.258835041522979736e+01 -4.365703521668910980e+01 7.448692369740456343e+00
7.133774006366729736e+01 -4.623186431825160980e+01 7.654197740834206343e+00
7.140707600116729736e+01 -4.543877349793910980e+01 7.673973131459206343e+00
7.207492268085479736e+01 -4.503081451356410980e+01 7.757286119740456343e+00
7.159958088397979736e+01 -4.559783111512660980e+01 8.087501573842018843e+00
1.842013752460479736e+01 -9.893119201064109802e+00 1.635612535756081343e+00
1.890548908710479736e+01 -1.165972076356410980e+01 1.723915148060768843e+00
1.882382404804229736e+01 -1.138976226747035980e+01 1.724464464467018843e+00
1.874362385272979736e+01 -1.112480865418910980e+01 1.725013780873268843e+00
1.866476643085479736e+01 -1.086382232606410980e+01 1.725563097279518843e+00
1.858749592304229736e+01 -1.060851226747035980e+01 1.726097154896706343e+00
1.851144611835479736e+01 -1.035698638856410980e+01 1.726615953724831343e+00
1.843698322772979736e+01 -1.011083160340785980e+01 1.727119493763893843e+00
1.836740314960479736e+01 -9.871024474501609802e+00 1.727897692006081343e+00
7.055856525897979736e+01 -4.256658111512660980e+01 5.921592760365456343e+00
7.050888264179229736e+01 -4.173931060731410980e+01 5.939521837513893843e+00
7.497799885272979736e+01 -4.357622466981410980e+01 6.316749620717018843e+00
7.081845295429229736e+01 -4.356963287293910980e+01 6.303047228138893843e+00
7.093942463397979736e+01 -4.283171783387660980e+01 6.333595323842018843e+00
7.145541584491729736e+01 -4.399968658387660980e+01 6.743629503529518843e+00
7.172836506366729736e+01 -4.334685455262660980e+01 6.786720323842018843e+00
7.130038654804229736e+01 -4.227812896668910980e+01 6.766624498646706343e+00
7.148800861835479736e+01 -4.405364166200160980e+01 7.136238146107643843e+00
7.199533283710479736e+01 -4.607756744325160980e+01 7.547294664662331343e+00
7.158017170429229736e+01 -4.497234283387660980e+01 7.518669176381081343e+00
7.160751545429229736e+01 -4.502410064637660980e+01 7.914512682240456343e+00
7.198190510272979736e+01 -4.442925201356410980e+01 7.967033434193581343e+00
7.141464436054229736e+01 -4.577117095887660980e+01 8.275596666615456343e+00
7.173434650897979736e+01 -4.513909088075160980e+01 8.320030260365456343e+00
7.214218342304229736e+01 -4.456328521668910980e+01 8.376365709584206343e+00
6.902841389179229736e+01 -3.868682037293910980e+01 4.629234361927956343e+00
6.989621174335479736e+01 -3.841814361512660980e+01 4.710807848256081343e+00
1.883847248554229736e+01 -1.142980132997035980e+01 1.575325060170143843e+00
1.875485432147979736e+01 -1.115996490418910980e+01 1.577278185170143843e+00
1.867270100116729736e+01 -1.089513336122035980e+01 1.579200792592018843e+00
1.859189045429229736e+01 -1.063433013856410980e+01 1.581077623646706343e+00
1.851303303241729736e+01 -1.037932525575160980e+01 1.582939195912331343e+00
1.844687092304229736e+01 -1.013481841981410980e+01 1.585563707631081343e+00
1.838217365741729736e+01 -9.895194396376609802e+00 1.588111925404518843e+00
1.831845295429229736e+01 -9.659537658095359802e+00 1.590629625599831343e+00
1.888278400897979736e+01 -1.146715484559535980e+01 1.680763292592018843e+00
1.880075275897979736e+01 -1.119762359559535980e+01 1.681907701771706343e+00
1.872030842304229736e+01 -1.093309722840785980e+01 1.683006334584206343e+00
1.864096271991729736e+01 -1.067253814637660980e+01 1.684104967396706343e+00
1.856344807147979736e+01 -1.041753326356410980e+01 1.685173082631081343e+00
1.848703205585479736e+01 -1.016631256043910980e+01 1.686225939076393843e+00
1.841220295429229736e+01 -9.920340880751609802e+00 1.687248277943581343e+00
1.833871662616729736e+01 -9.678763732314109802e+00 1.688270616810768843e+00
1.886093342304229736e+01 -1.146239410340785980e+01 1.782341051381081343e+00
1.878891193866729736e+01 -1.119921050965785980e+01 1.783256578724831343e+00
1.871811115741729736e+01 -1.094060455262660980e+01 1.784172106068581343e+00
1.864840900897979736e+01 -1.068559966981410980e+01 1.785072374623268843e+00
1.858004963397979736e+01 -1.043578277528285980e+01 1.785942125599831343e+00
1.851266682147979736e+01 -1.018944488465785980e+01 1.786811876576393843e+00
1.844662678241729736e+01 -9.948050841689109802e+00 1.787666368763893843e+00
1.838168537616729736e+01 -9.710685119032859802e+00 1.788490343373268843e+00
7.109201252460479736e+01 -4.317705474793910980e+01 6.179161119740456343e+00
7.069870197772979736e+01 -4.212834869325160980e+01 6.168739366810768843e+00
7.260226643085479736e+01 -4.246037994325160980e+01 6.347511339467018843e+00
7.103561604022979736e+01 -4.399236236512660980e+01 6.540580797474831343e+00
7.139816486835479736e+01 -4.339897857606410980e+01 6.590385484974831343e+00
7.144674885272979736e+01 -4.261308990418910980e+01 6.614784288685768843e+00
7.073483479022979736e+01 -4.383757720887660980e+01 6.899192858021706343e+00
7.281161701679229736e+01 -4.430388580262660980e+01 7.110206651967018843e+00
7.229110920429229736e+01 -4.401726470887660980e+01 7.453620958607643843e+00
7.172348225116729736e+01 -4.536162506043910980e+01 7.759712267201393843e+00
7.217184650897979736e+01 -4.480913482606410980e+01 7.820838976185768843e+00
7.168100178241729736e+01 -4.536968170106410980e+01 8.150535631459206343e+00
7.192086994647979736e+01 -4.555852447450160980e+01 8.571464586537331343e+00
1.816452229022979736e+01 -9.219779357314109802e+00 1.566780138295143843e+00
1.875851643085479736e+01 -1.103099761903285980e+01 1.661308336537331343e+00
1.868686115741729736e+01 -1.076982818543910980e+01 1.662849474232643843e+00
1.860800373554229736e+01 -1.050804840028285980e+01 1.663780260365456343e+00
1.852963459491729736e+01 -1.024956451356410980e+01 1.664634752552956343e+00
1.845285236835479736e+01 -9.996634826064109802e+00 1.665473985951393843e+00
1.837716877460479736e+01 -9.747245177626609802e+00 1.666297960560768843e+00
1.830295002460479736e+01 -9.503043517470359802e+00 1.667106676381081343e+00
1.822055256366729736e+01 -9.257804259657859802e+00 1.667213487904518843e+00
1.871640217304229736e+01 -1.101360259950160980e+01 1.761650133412331343e+00
1.864474689960479736e+01 -1.075273834168910980e+01 1.762306261342018843e+00
1.857431232929229736e+01 -1.049626861512660980e+01 1.762931871693581343e+00
1.850485432147979736e+01 -1.024333892762660980e+01 1.763557482045143843e+00
1.843686115741729736e+01 -9.995475158095359802e+00 1.764167833607643843e+00
1.836972248554229736e+01 -9.750968322157859802e+00 1.764762926381081343e+00
1.830392658710479736e+01 -9.511283263564109802e+00 1.765358019154518843e+00
1.822970783710479736e+01 -9.270377501845359802e+00 1.765205431263893843e+00
7.045956623554229736e+01 -4.247368560731410980e+01 6.071250963490456343e+00
7.054367268085479736e+01 -4.172185455262660980e+01 6.098701525013893843e+00
7.470175373554229736e+01 -4.337444244325160980e+01 6.459205675404518843e+00
7.163290607929229736e+01 -4.404875884950160980e+01 6.537742662709206343e+00
7.166720783710479736e+01 -4.242888580262660980e+01 6.576957750599831343e+00
7.190988361835479736e+01 -4.425493560731410980e+01 6.953849840443581343e+00
7.244272053241729736e+01 -4.375371490418910980e+01 7.020301866810768843e+00
7.156076252460479736e+01 -4.407048736512660980e+01 7.314552355092018843e+00
7.234616291522979736e+01 -4.372759185731410980e+01 7.404441881459206343e+00
7.227328693866729736e+01 -4.454924713075160980e+01 7.778770494740456343e+00
7.205282795429229736e+01 -4.444512115418910980e+01 8.152351427357643843e+00
1.863839924335479736e+01 -8.774283751845359802e+00 2.346489000599831343e+00
1.818356525897979736e+01 -8.748465880751609802e+00 2.394447374623268843e+00
1.862106525897979736e+01 -8.773307189345359802e+00 2.446998644154518843e+00
1.816671955585479736e+01 -8.747489318251609802e+00 2.493095445912331343e+00
1.860385334491729736e+01 -8.772330626845359802e+00 2.546897936146706343e+00
1.814975178241729736e+01 -8.746573790907859802e+00 2.591667223256081343e+00
1.858639729022979736e+01 -8.771354064345359802e+00 2.647254991810768843e+00
1.813302814960479736e+01 -8.745597228407859802e+00 2.689628649037331343e+00
1.856906330585479736e+01 -8.770377501845359802e+00 2.747520494740456343e+00
1.827047932147979736e+01 -9.355521544814109802e+00 1.636497545521706343e+00
1.817648518085479736e+01 -9.092704162001609802e+00 1.636665392201393843e+00
1.808481037616729736e+01 -8.835746154189109802e+00 1.636833238881081343e+00
1.798703205585479736e+01 -8.578727111220359802e+00 1.636467027943581343e+00
1.789145100116729736e+01 -8.327445372939109802e+00 1.636116075795143843e+00
1.779770100116729736e+01 -8.080802306532859802e+00 1.635765123646706343e+00
1.836545002460479736e+01 -9.846244201064109802e+00 1.733497667592018843e+00
1.829599201679229736e+01 -9.591056212782859802e+00 1.734764147084206343e+00
1.822775471210479736e+01 -9.339957579970359802e+00 1.736015367787331343e+00
1.813070881366729736e+01 -9.075736388564109802e+00 1.734962511342018843e+00
1.803927814960479736e+01 -8.819327697157859802e+00 1.734214830677956343e+00
1.794931232929229736e+01 -8.566642150282859802e+00 1.733467150013893843e+00
1.786117756366729736e+01 -8.319449767470359802e+00 1.732749986927956343e+00
1.777462971210479736e+01 -8.076651915907859802e+00 1.732032823842018843e+00
1.823764240741729736e+01 -8.751639708876609802e+00 2.160179186146706343e+00
1.867965900897979736e+01 -8.776725158095359802e+00 2.208290148060768843e+00
1.822055256366729736e+01 -8.750663146376609802e+00 2.260139513295143843e+00
1.866208088397979736e+01 -8.775687560439109802e+00 2.310051012318581343e+00
1.794308674335479736e+01 -8.200736388564109802e+00 2.239173937123268843e+00
1.820370686054229736e+01 -8.749686583876609802e+00 2.359489488881081343e+00
1.864462482929229736e+01 -8.774710997939109802e+00 2.411186266224831343e+00
1.794015705585479736e+01 -8.206900939345359802e+00 2.338233995717018843e+00
1.818661701679229736e+01 -8.748710021376609802e+00 2.459281969349831343e+00
1.862704670429229736e+01 -8.773734435439109802e+00 2.512794542592018843e+00
1.793710529804229736e+01 -8.213065490126609802e+00 2.436836290638893843e+00
1.816964924335479736e+01 -8.747733458876609802e+00 2.558998155873268843e+00
1.860959064960479736e+01 -8.772696837782859802e+00 2.614311266224831343e+00
1.793417561054229736e+01 -8.219291076064109802e+00 2.536018419545143843e+00
1.815268146991729736e+01 -8.746817931532859802e+00 2.658103990834206343e+00
1.859213459491729736e+01 -8.771720275282859802e+00 2.715202379506081343e+00
1.793112385272979736e+01 -8.225516662001609802e+00 2.635261583607643843e+00
1.817965900897979736e+01 -8.748404845595359802e+00 2.455406236927956343e+00
1.862411701679229736e+01 -8.773673400282859802e+00 2.509407091420143843e+00
1.793820393085479736e+01 -8.210746154189109802e+00 2.434379625599831343e+00
1.801620686054229736e+01 -8.048819884657859802e+00 2.446464586537331343e+00
1.816244709491729736e+01 -8.747428283095359802e+00 2.555625963490456343e+00
1.860629475116729736e+01 -8.772635802626609802e+00 2.611991930287331343e+00
1.793515217304229736e+01 -8.217093810439109802e+00 2.534660387318581343e+00
1.801315510272979736e+01 -8.055045470595359802e+00 2.546730089467018843e+00
1.814523518085479736e+01 -8.746451720595359802e+00 2.656303453724831343e+00
1.858871662616729736e+01 -8.771598204970359802e+00 2.713935900013893843e+00
1.793222248554229736e+01 -8.223380431532859802e+00 2.634468126576393843e+00
1.801010334491729736e+01 -8.061332091689109802e+00 2.647041368763893843e+00
1.809616291522979736e+01 -7.882499083876609802e+00 2.467399645131081343e+00
1.815219318866729736e+01 -8.746940001845359802e+00 2.563438463490456343e+00
1.859726154804229736e+01 -8.772208556532859802e+00 2.619606066029518843e+00
1.793551838397979736e+01 -8.216483458876609802e+00 2.544044542592018843e+00
1.801425373554229736e+01 -8.052604064345359802e+00 2.556404161732643843e+00
1.809311115741729736e+01 -7.888846740126609802e+00 2.568763780873268843e+00
1.813473713397979736e+01 -8.745963439345359802e+00 2.665153551381081343e+00
1.857919514179229736e+01 -8.771170958876609802e+00 2.723152208607643843e+00
1.793234455585479736e+01 -8.222953185439109802e+00 2.644981432240456343e+00
1.801120197772979736e+01 -8.059012755751609802e+00 2.657325792592018843e+00
1.809005939960479736e+01 -7.895255431532859802e+00 2.670188951771706343e+00
1.811410725116729736e+01 -7.845206603407859802e+00 2.203254747670143843e+00
1.862057697772979736e+01 -8.773856505751609802e+00 2.347785997670143843e+00
1.794552814960479736e+01 -8.195487365126609802e+00 2.281166124623268843e+00
1.802804768085479736e+01 -8.024100646376609802e+00 2.294883775990456343e+00
1.811068928241729736e+01 -7.852164611220359802e+00 2.308647203724831343e+00
1.860128986835479736e+01 -8.772757872939109802e+00 2.455452013295143843e+00
1.794211018085479736e+01 -8.202628478407859802e+00 2.387184191029518843e+00
1.802462971210479736e+01 -8.031180724501609802e+00 2.400901842396706343e+00
1.810739338397979736e+01 -7.859183654189109802e+00 2.414665270131081343e+00
1.858188068866729736e+01 -8.771659240126609802e+00 2.563606310170143843e+00
1.793869221210479736e+01 -8.209708556532859802e+00 2.493278551381081343e+00
1.802121174335479736e+01 -8.038199767470359802e+00 2.506980943959206343e+00
1.810397541522979736e+01 -7.866141662001609802e+00 2.520179796498268843e+00
1.856247150897979736e+01 -8.770560607314109802e+00 2.671669054310768843e+00
1.793539631366729736e+01 -8.216788634657859802e+00 2.598854112904518843e+00
1.801779377460479736e+01 -8.045218810439109802e+00 2.612571764271706343e+00
1.810067951679229736e+01 -7.873099669814109802e+00 2.626319933217018843e+00
6.736421704292297363e+00 7.882454529404640198e+00 1.463462877552956343e+00
6.849580883979797363e+00 8.066719666123390198e+00 1.486030626576393843e+00
7.076875805854797363e+00 8.249031677842140198e+00 1.520942735951393843e+00
1.018698322772979736e+01 7.051827087998390198e+00 1.915473985951393843e+00
1.294296467304229736e+01 7.090096130967140198e+00 2.231239366810768843e+00
1.056845295429229736e+01 7.467110291123390198e+00 1.981788683217018843e+00
6.719453930854797363e+00 7.876961365342140198e+00 1.566352892201393843e+00
7.284883618354797363e+00 8.042793884873390198e+00 1.639854479115456343e+00
7.285005688667297363e+00 8.236031189560890198e+00 1.651084947865456343e+00
5.722871899604797363e+00 8.590584412217140198e+00 1.158836412709206343e+00
1.018551838397979736e+01 6.927376404404640198e+00 1.625694322865456343e+00
8.356538891792297363e+00 7.283150330185890198e+00 1.457725572865456343e+00
1.413022053241729736e+01 7.117561951279640198e+00 2.042823839467018843e+00
8.250093579292297363e+00 7.703743591904640198e+00 1.470863390248268843e+00
6.846162915229797363e+00 7.976692810654640198e+00 1.341896105092018843e+00
7.007906079292297363e+00 8.164986267685890198e+00 1.369331407826393843e+00
7.101778149604797363e+00 8.357185974717140198e+00 1.390022325795143843e+00
8.699068188667297363e+00 8.516609802842140198e+00 1.563652086537331343e+00
1.228903400897979736e+01 6.747872009873390198e+00 1.966163683217018843e+00
1.017367756366729736e+01 7.365181580185890198e+00 1.773689317982643843e+00
8.201875805854797363e+00 7.699349060654640198e+00 1.579917955677956343e+00
6.785616040229797363e+00 7.972969666123390198e+00 1.443122911732643843e+00
7.297212719917297363e+00 8.146797791123390198e+00 1.508689928334206343e+00
7.364717602729797363e+00 8.342293396592140198e+00 1.527107286732643843e+00
