1.933784095942974091e+01 -1.394944281131029129e+01 1.614499488379806280e+00
1.927350990474224091e+01 -1.367600531131029129e+01 1.617413917090743780e+00
1.922260658442974091e+01 -1.341642279177904129e+01 1.620511451270431280e+00
1.963508217036724091e+01 -1.537809271365404129e+01 1.703229346778243780e+00
1.960309974849224091e+01 -1.510703558474779129e+01 1.707929053809493780e+00
1.956049720942974091e+01 -1.483170599490404129e+01 1.711835303809493780e+00
1.950556556880474091e+01 -1.455033392459154129e+01 1.714810767676681280e+00
1.944636146724224091e+01 -1.427091497927904129e+01 1.717343726661056280e+00
1.938239662349224091e+01 -1.399167913943529129e+01 1.719464698340743780e+00
1.931989662349224091e+01 -1.371872992068529129e+01 1.721524634864181280e+00
1.925849525630474091e+01 -1.345096869021654129e+01 1.723569312598556280e+00
1.960004799067974091e+01 -1.536057562381029129e+01 1.807782569434493780e+00
1.956855385005474091e+01 -1.509006781131029129e+01 1.811643043067306280e+00
1.953815834224224091e+01 -1.482450384646654129e+01 1.816052833106368780e+00
1.950544349849224091e+01 -1.456016058474779129e+01 1.819669166114181280e+00
1.944697181880474091e+01 -1.428110785037279129e+01 1.821271338965743780e+00
1.939387123286724091e+01 -1.400962347537279129e+01 1.823178687598556280e+00
1.934113685786724091e+01 -1.374332708865404129e+01 1.824445167090743780e+00
1.929011146724224091e+01 -1.348240179568529129e+01 1.826276221778243780e+00
2.004316322505474091e+01 -1.576011175662279129e+01 2.279920020606368780e+00
2.015900795161724091e+01 -1.559958929568529129e+01 2.294507422950118780e+00
2.003815834224224091e+01 -1.576700872927904129e+01 2.390118995215743780e+00
2.015400306880474091e+01 -1.560642523318529129e+01 2.404691138770431280e+00
2.003315345942974091e+01 -1.577390570193529129e+01 2.499799170996993780e+00
2.014912025630474091e+01 -1.561326117068529129e+01 2.514371314551681280e+00
2.002814857661724091e+01 -1.578080267459154129e+01 2.610150733496993780e+00
2.014423744380474091e+01 -1.562003607302904129e+01 2.624127784278243780e+00
2.002326576411724091e+01 -1.578769964724779129e+01 2.719983497168868780e+00
2.013923256099224091e+01 -1.562693304568529129e+01 2.734525123145431280e+00
7.009943763911724091e+01 -4.775034613162279129e+01 2.951489844825118780e+00
7.010187904536724091e+01 -4.692002386599779129e+01 2.986783423926681280e+00
8.141035072505474091e+01 -5.356626410037279129e+01 3.435788550879806280e+00
8.209663002192974091e+01 -5.306333441287279129e+01 3.501386085059493780e+00
1.897114174067974091e+01 -1.192972845584154129e+01 1.165601172950118780e+00
6.951704017817974091e+01 -4.821641058474779129e+01 3.274945655371993780e+00
6.894977943599224091e+01 -4.699607367068529129e+01 3.284680762793868780e+00
6.905781166255474091e+01 -4.625034613162279129e+01 3.323743262793868780e+00
1.897309486567974091e+01 -1.193876165896654129e+01 1.260602393653243780e+00
6.986237709224224091e+01 -4.357053656131029129e+01 3.483365455176681280e+00
6.878388588130474091e+01 -4.773874945193529129e+01 3.622846045996993780e+00
6.909394447505474091e+01 -4.712766546756029129e+01 3.667996802832931280e+00
6.886957924067974091e+01 -4.615561956912279129e+01 3.687970557715743780e+00
7.052192299067974091e+01 -4.562156195193529129e+01 3.827237525489181280e+00
6.929694740474224091e+01 -4.403208441287279129e+01 3.797879615332931280e+00
6.981245033442974091e+01 -4.356931585818529129e+01 3.852353492286056280e+00
6.855341713130474091e+01 -4.761118597537279129e+01 3.989026465918868780e+00
6.914289467036724091e+01 -4.719407171756029129e+01 4.048352637793868780e+00
6.879902260005474091e+01 -4.614023870974779129e+01 4.058713355567306280e+00
7.041572181880474091e+01 -4.640354437381029129e+01 4.172635474707931280e+00
7.169196693599224091e+01 -4.641330999881029129e+01 4.269421973731368780e+00
6.979804603755474091e+01 -4.359018988162279129e+01 4.221173682715743780e+00
6.843842689692974091e+01 -4.756394476443529129e+01 4.357694068457931280e+00
6.930805580317974091e+01 -4.734018988162279129e+01 4.434400001075118780e+00
1.912934486567974091e+01 -1.269065374881029129e+01 1.536130347754806280e+00
1.906977455317974091e+01 -1.243961615115404129e+01 1.539426246192306280e+00
1.901105873286724091e+01 -1.219211859256029129e+01 1.542691627051681280e+00
1.895356361567974091e+01 -1.194980902224779129e+01 1.545865455176681280e+00
1.887751381099224091e+01 -1.169944281131029129e+01 1.547833838965743780e+00
1.922199623286724091e+01 -1.341514105349779129e+01 1.620480933692306280e+00
1.917316810786724091e+01 -1.316105169802904129e+01 1.624448218848556280e+00
1.912470619380474091e+01 -1.291068548709154129e+01 1.627789893653243780e+00
1.907685463130474091e+01 -1.266367620974779129e+01 1.631085792090743780e+00
1.902997963130474091e+01 -1.242148870974779129e+01 1.634320655371993780e+00
1.898371498286724091e+01 -1.218235296756029129e+01 1.637494483496993780e+00
1.893830482661724091e+01 -1.194791693240404129e+01 1.640622535254806280e+00
1.887226478755474091e+01 -1.170377630740404129e+01 1.641812720801681280e+00
1.925776283442974091e+01 -1.344962591677904129e+01 1.723523536231368780e+00
1.919770424067974091e+01 -1.318693060427904129e+01 1.725369849707931280e+00
1.913874427974224091e+01 -1.292887396365404129e+01 1.727170386817306280e+00
1.908063881099224091e+01 -1.267454046756029129e+01 1.728940406348556280e+00
1.902363197505474091e+01 -1.242545599490404129e+01 1.730679908301681280e+00
1.896747963130474091e+01 -1.217985052615404129e+01 1.732404151465743780e+00
1.891254799067974091e+01 -1.193931097537279129e+01 1.734082618262618780e+00
1.883747474849224091e+01 -1.168961615115404129e+01 1.734250464942306280e+00
1.928937904536724091e+01 -1.348112005740404129e+01 1.826245704200118780e+00
1.923896400630474091e+01 -1.322458929568529129e+01 1.827908912207931280e+00
1.919013588130474091e+01 -1.297288031131029129e+01 1.830136695411056280e+00
7.166950599849224091e+01 -4.494822210818529129e+01 6.615567603614181280e+00
7.138434974849224091e+01 -4.483079046756029129e+01 7.355206885840743780e+00
7.107697670161724091e+01 -4.630124945193529129e+01 7.686185279395431280e+00
7.193830482661724091e+01 -4.603330511599779129e+01 7.786801734473556280e+00
7.225825111567974091e+01 -4.541269964724779129e+01 7.829480567481368780e+00
7.136774818599224091e+01 -4.569858831912279129e+01 8.112103858496993780e+00
7.210700599849224091e+01 -4.534873480349779129e+01 8.200055518653243780e+00
7.174360267817974091e+01 -4.515073675662279129e+01 8.547162452246993780e+00
1.914643470942974091e+01 -1.294150824099779129e+01 1.577191749121993780e+00
1.908552162349224091e+01 -1.268332953006029129e+01 1.580121436621993780e+00
1.902558510005474091e+01 -1.242887396365404129e+01 1.583020606543868780e+00
1.896686927974224091e+01 -1.217972845584154129e+01 1.585858741309493780e+00
1.890888588130474091e+01 -1.193406195193529129e+01 1.588651099707931280e+00
1.883027260005474091e+01 -1.167954535037279129e+01 1.590009131934493780e+00
1.875471107661724091e+01 -1.143094915896654129e+01 1.590955176856368780e+00
1.922761146724224091e+01 -1.322678656131029129e+01 1.675916114356368780e+00
1.917792885005474091e+01 -1.297196478396654129e+01 1.678815284278243780e+00
1.912885658442974091e+01 -1.272123236209154129e+01 1.681668677832931280e+00
1.907050697505474091e+01 -1.246714300662279129e+01 1.683820167090743780e+00
1.901325599849224091e+01 -1.221824163943529129e+01 1.685925879981368780e+00
1.895685951411724091e+01 -1.197281927615404129e+01 1.688001075293868780e+00
1.888398353755474091e+01 -1.172123236209154129e+01 1.688840308692306280e+00
1.880854408442974091e+01 -1.147196478396654129e+01 1.689389625098556280e+00
1.918268959224224091e+01 -1.320408148318529129e+01 1.773343482520431280e+00
1.913325111567974091e+01 -1.294980902224779129e+01 1.775418677832931280e+00
1.908515541255474091e+01 -1.270017523318529129e+01 1.778043189551681280e+00
1.903705970942974091e+01 -1.245328802615404129e+01 1.780072608496993780e+00
1.898994056880474091e+01 -1.221116156131029129e+01 1.782040992286056280e+00
1.894343177974224091e+01 -1.197220892459154129e+01 1.783994117286056280e+00
1.887788002192974091e+01 -1.172519964724779129e+01 1.783948340918868780e+00
1.881037513911724091e+01 -1.148069281131029129e+01 1.784161963965743780e+00
7.088935463130474091e+01 -4.385911078006029129e+01 6.766095557715743780e+00
7.095991127192974091e+01 -4.393332953006029129e+01 7.150891700293868780e+00
7.144758217036724091e+01 -4.590037054568529129e+01 7.557767310645431280e+00
7.153400795161724091e+01 -4.516562933474779129e+01 7.963635840918868780e+00
7.192426674067974091e+01 -4.459482855349779129e+01 8.013715186621993780e+00
7.128937904536724091e+01 -4.586216253787279129e+01 8.314618506934493780e+00
7.196039955317974091e+01 -4.487937445193529129e+01 8.086484351661056280e+00
7.175580970942974091e+01 -4.560520453006029129e+01 8.443204322364181280e+00
1.902314369380474091e+01 -1.228184027224779129e+01 1.550946631934493780e+00
1.896308510005474091e+01 -1.202823919802904129e+01 1.554074683692306280e+00
1.889069740474224091e+01 -1.177115911990404129e+01 1.556317725684493780e+00
1.881074135005474091e+01 -1.151243109256029129e+01 1.557965674903243780e+00
1.873261635005474091e+01 -1.125962347537279129e+01 1.559598365332931280e+00
1.865644447505474091e+01 -1.101194281131029129e+01 1.560712256934493780e+00
1.911152260005474091e+01 -1.278605169802904129e+01 1.643384376075118780e+00
1.906245033442974091e+01 -1.253318304568529129e+01 1.646558204200118780e+00
1.901411049067974091e+01 -1.228434271365404129e+01 1.649686255957931280e+00
1.896638099849224091e+01 -1.203861517459154129e+01 1.652768531348556280e+00
1.890668861567974091e+01 -1.178940863162279129e+01 1.654935279395431280e+00
1.883735267817974091e+01 -1.153708929568529129e+01 1.656369605567306280e+00
1.876960365474224091e+01 -1.129020208865404129e+01 1.657788672950118780e+00
1.870307533442974091e+01 -1.104770941287279129e+01 1.659161963965743780e+00
1.909308998286724091e+01 -1.278226751834154129e+01 1.743085303809493780e+00
1.903388588130474091e+01 -1.252256292849779129e+01 1.744717994239181280e+00
1.897529213130474091e+01 -1.226713079959154129e+01 1.746823707129806280e+00
1.891828529536724091e+01 -1.201566595584154129e+01 1.748441138770431280e+00
1.885541908442974091e+01 -1.176481146365404129e+01 1.749509254004806280e+00
1.878608314692974091e+01 -1.151285833865404129e+01 1.750043311621993780e+00
1.871772377192974091e+01 -1.126591009646654129e+01 1.749997535254806280e+00
1.865107338130474091e+01 -1.102384466677904129e+01 1.750501075293868780e+00
7.170368568599224091e+01 -4.399387640506029129e+01 5.995404639746993780e+00
7.093818275630474091e+01 -4.272385687381029129e+01 5.954724708106368780e+00
7.076423256099224091e+01 -4.344431585818529129e+01 6.299603858496993780e+00
7.116840736567974091e+01 -4.289365667849779129e+01 6.350797095801681280e+00
7.158832924067974091e+01 -4.479893011599779129e+01 6.737668433692306280e+00
7.125117103755474091e+01 -4.377622503787279129e+01 6.723218360450118780e+00
7.220075599849224091e+01 -4.355063910037279129e+01 6.823483863379806280e+00
7.154352943599224091e+01 -4.398801703006029129e+01 7.132092872168868780e+00
7.253046791255474091e+01 -4.378159613162279129e+01 7.239087501075118780e+00
7.138434974849224091e+01 -4.473362249881029129e+01 7.487851539161056280e+00
7.201508705317974091e+01 -4.599619574099779129e+01 7.931424537207931280e+00
7.233137123286724091e+01 -4.536313910037279129e+01 7.974469581153243780e+00
7.216108314692974091e+01 -4.443296331912279129e+01 7.966138282325118780e+00
7.134907142817974091e+01 -4.560007757693529129e+01 8.248395362403243780e+00
7.172455970942974091e+01 -4.501194281131029129e+01 8.297589698340743780e+00
7.023957435786724091e+01 -4.323459906131029129e+01 4.270520606543868780e+00
6.856928627192974091e+01 -4.622605413943529129e+01 4.412488379981368780e+00
7.121198646724224091e+01 -4.633726019412279129e+01 4.625058570411056280e+00
1.894379799067974091e+01 -1.184336370974779129e+01 1.524289527442306280e+00
1.886237709224224091e+01 -1.158079046756029129e+01 1.526318946387618780e+00
1.878205482661724091e+01 -1.132242865115404129e+01 1.528333106543868780e+00
1.870368568599224091e+01 -1.106986517459154129e+01 1.530286231543868780e+00
1.862726967036724091e+01 -1.082236761599779129e+01 1.531735816504806280e+00
1.903913490474224091e+01 -1.256437201052904129e+01 1.609525123145431280e+00
1.899055092036724091e+01 -1.231278509646654129e+01 1.613065162207931280e+00
1.894282142817974091e+01 -1.206516546756029129e+01 1.616559424903243780e+00
1.888422767817974091e+01 -1.181333441287279129e+01 1.619260230567306280e+00
1.881476967036724091e+01 -1.155887884646654129e+01 1.621106544043868780e+00
1.874628822505474091e+01 -1.130814642459154129e+01 1.622922339942306280e+00
1.867927162349224091e+01 -1.106278509646654129e+01 1.624707618262618780e+00
1.861335365474224091e+01 -1.082169622927904129e+01 1.626462379004806280e+00
1.907600013911724091e+01 -1.259842962771654129e+01 1.713178077246993780e+00
1.901655189692974091e+01 -1.233890814334154129e+01 1.715176978614181280e+00
1.895771400630474091e+01 -1.208353704959154129e+01 1.717618384864181280e+00
1.889081947505474091e+01 -1.182596869021654129e+01 1.718884864356368780e+00
1.881220619380474091e+01 -1.156547064334154129e+01 1.719190040137618780e+00
1.873481361567974091e+01 -1.130906195193529129e+01 1.719495215918868780e+00
1.865961830317974091e+01 -1.105863470584154129e+01 1.719312110450118780e+00
1.858539955317974091e+01 -1.081260199099779129e+01 1.719602027442306280e+00
1.910834877192974091e+01 -1.262949652224779129e+01 1.817563453223556280e+00
1.905878822505474091e+01 -1.237601751834154129e+01 1.819440284278243780e+00
1.901008217036724091e+01 -1.212656683474779129e+01 1.821286597754806280e+00
7.079682533442974091e+01 -4.290488714724779129e+01 5.839719214942306280e+00
7.187470619380474091e+01 -4.275840277224779129e+01 5.943433204200118780e+00
7.202277748286724091e+01 -4.450010199099779129e+01 6.299680152442306280e+00
7.017255775630474091e+01 -4.255405706912279129e+01 6.165692725684493780e+00
7.126740638911724091e+01 -4.242478460818529129e+01 6.274503150489181280e+00
7.160822670161724091e+01 -4.509641546756029129e+01 6.635007300879806280e+00
7.127973549067974091e+01 -4.406919378787279129e+01 6.623090186621993780e+00
7.239008705317974091e+01 -4.394089788943529129e+01 6.737424293067306280e+00
7.125788490474224091e+01 -4.244968695193529129e+01 6.654218116309493780e+00
7.100458900630474091e+01 -4.392930120974779129e+01 6.980389991309493780e+00
7.272553627192974091e+01 -4.417771429568529129e+01 7.155713477637618780e+00
7.219990150630474091e+01 -4.388755316287279129e+01 7.495007911231368780e+00
7.196454994380474091e+01 -4.625486273318529129e+01 7.824643531348556280e+00
7.209638588130474091e+01 -4.467417425662279129e+01 7.860196509864181280e+00
7.159772865474224091e+01 -4.521958441287279129e+01 8.185391822364181280e+00
7.180109779536724091e+01 -4.538181585818529129e+01 8.599194922950118780e+00
1.885334388911724091e+01 -1.161063665896654129e+01 1.544660010840743780e+00
1.877277748286724091e+01 -1.134983343631029129e+01 1.546323218848556280e+00
1.869343177974224091e+01 -1.109324163943529129e+01 1.547955909278243780e+00
1.861591713130474091e+01 -1.084226507693529129e+01 1.549558082129806280e+00
1.853974525630474091e+01 -1.059598822146654129e+01 1.551129737403243780e+00
1.902204506099224091e+01 -1.237797064334154129e+01 1.635816016700118780e+00
1.897309486567974091e+01 -1.212638372927904129e+01 1.638974586036056280e+00
1.890461342036724091e+01 -1.186564154177904129e+01 1.641263404395431280e+00
1.884907142817974091e+01 -1.161619085818529129e+01 1.643796363379806280e+00
1.877936927974224091e+01 -1.136210150271654129e+01 1.645245948340743780e+00
1.871064369380474091e+01 -1.111167425662279129e+01 1.646665015723556280e+00
1.864277260005474091e+01 -1.086619085818529129e+01 1.647504249121993780e+00
1.857673256099224091e+01 -1.062540716677904129e+01 1.648877540137618780e+00
1.900776283442974091e+01 -1.237717718631029129e+01 1.736829200293868780e+00
1.894880287349224091e+01 -1.211899847537279129e+01 1.738461890723556280e+00
1.888447181880474091e+01 -1.186094183474779129e+01 1.739606299903243780e+00
1.880475990474224091e+01 -1.159611029177904129e+01 1.739545264746993780e+00
1.872724525630474091e+01 -1.133750433474779129e+01 1.739514747168868780e+00
1.865851967036724091e+01 -1.108756536990404129e+01 1.740048804786056280e+00
1.859125892817974091e+01 -1.084287542849779129e+01 1.740567603614181280e+00
1.852509681880474091e+01 -1.060245794802904129e+01 1.741086402442306280e+00
7.100178138911724091e+01 -4.248618597537279129e+01 5.975568213965743780e+00
7.469465248286724091e+01 -4.388205999881029129e+01 6.287488379981368780e+00
7.086982338130474091e+01 -4.323581976443529129e+01 6.327344337012618780e+00
7.084833900630474091e+01 -4.242405218631029129e+01 6.343030372168868780e+00
7.306464760005474091e+01 -4.294736761599779129e+01 6.547894874121993780e+00
7.054194252192974091e+01 -4.387156195193529129e+01 6.662305274512618780e+00
7.121760170161724091e+01 -4.348093695193529129e+01 6.738492408301681280e+00
7.149982826411724091e+01 -4.284812445193529129e+01 6.779446998145431280e+00
7.210566322505474091e+01 -4.405942816287279129e+01 7.205106177832931280e+00
7.124689857661724091e+01 -4.606553167849779129e+01 7.861813941504806280e+00
7.140949623286724091e+01 -4.536838812381029129e+01 8.279660621192306280e+00
7.188825599849224091e+01 -4.484482855349779129e+01 8.340817847754806280e+00
1.861286537349224091e+01 -1.090262884646654129e+01 1.745831885840743780e+00
1.854609291255474091e+01 -1.065867132693529129e+01 1.746655860450118780e+00
1.848041908442974091e+01 -1.041892523318529129e+01 1.747479835059493780e+00
7.044697181880474091e+01 -4.246909613162279129e+01 5.963818946387618780e+00
7.169746010005474091e+01 -4.242551703006029129e+01 6.084119239356368780e+00
7.446674720942974091e+01 -4.325242132693529129e+01 6.326581397559493780e+00
7.179084388911724091e+01 -4.496067328006029129e+01 6.418485084082931280e+00
7.063618080317974091e+01 -4.342051214724779129e+01 6.340085425879806280e+00
7.086335365474224091e+01 -4.275449652224779129e+01 6.378308692481368780e+00
7.163154213130474091e+01 -4.241770453006029129e+01 6.462460914161056280e+00
7.156489174067974091e+01 -4.485093206912279129e+01 6.786908545996993780e+00
7.121381752192974091e+01 -4.381150335818529129e+01 6.772595801856368780e+00
7.161176674067974091e+01 -4.324241156131029129e+01 6.825650611426681280e+00
7.111823646724224091e+01 -4.378440374881029129e+01 7.147473731543868780e+00
7.245429603755474091e+01 -4.378855413943529129e+01 7.290494361426681280e+00
7.115449135005474091e+01 -4.632151312381029129e+01 7.496869483496993780e+00
7.148627845942974091e+01 -4.486765570193529129e+01 7.557279029395431280e+00
7.150471107661724091e+01 -4.491257757693529129e+01 7.947522559668868780e+00
7.191169349849224091e+01 -4.434348578006029129e+01 8.002164283301681280e+00
7.164020912349224091e+01 -4.503196234256029129e+01 8.353558936621993780e+00
1.875104896724224091e+01 -1.121738714724779129e+01 1.660169044043868780e+00
1.867805092036724091e+01 -1.096262640506029129e+01 1.661282935645431280e+00
1.860102455317974091e+01 -1.070853704959154129e+01 1.662030616309493780e+00
1.852558510005474091e+01 -1.045987982302904129e+01 1.662763038184493780e+00
1.845161049067974091e+01 -1.021580023318529129e+01 1.663480201270431280e+00
1.891621010005474091e+01 -1.197916693240404129e+01 1.754331031348556280e+00
1.884699623286724091e+01 -1.171555609256029129e+01 1.755124488379806280e+00
1.877497474849224091e+01 -1.145408148318529129e+01 1.755628028418868780e+00
1.870417396724224091e+01 -1.119645208865404129e+01 1.756116309668868780e+00
1.863471595942974091e+01 -1.094425482302904129e+01 1.756589332129806280e+00
1.856635658442974091e+01 -1.069565863162279129e+01 1.757062354590743780e+00
1.849933998286724091e+01 -1.045218939334154129e+01 1.757520118262618780e+00
1.843354408442974091e+01 -1.021293158084154129e+01 1.757962623145431280e+00
7.189631263911724091e+01 -4.359299749881029129e+01 6.133389869239181280e+00
7.059687416255474091e+01 -4.199668402224779129e+01 6.048718848731368780e+00
7.474274818599224091e+01 -4.365439886599779129e+01 6.403470435645431280e+00
7.145331947505474091e+01 -4.416892523318529129e+01 6.463773170020431280e+00
7.267084877192974091e+01 -4.409983343631029129e+01 6.586270728614181280e+00
7.127851478755474091e+01 -4.243772406131029129e+01 6.484860816504806280e+00
7.085480873286724091e+01 -4.382700628787279129e+01 6.795773902442306280e+00
7.098237220942974091e+01 -4.393894476443529129e+01 7.193662086036056280e+00
7.224116127192974091e+01 -4.390061468631029129e+01 7.329358497168868780e+00
7.143952552974224091e+01 -4.592014593631029129e+01 7.599973121192306280e+00
7.205036537349224091e+01 -4.547556585818529129e+01 7.674558082129806280e+00
7.135920326411724091e+01 -4.590171331912279129e+01 7.984982886817306280e+00
7.151874916255474091e+01 -4.516965765506029129e+01 8.012540259864181280e+00
7.194477455317974091e+01 -4.460654730349779129e+01 8.068677344825118780e+00
7.127424232661724091e+01 -4.587998480349779129e+01 8.366895118262618780e+00
7.231769935786724091e+01 -4.254978460818529129e+01 6.276761451270431280e+00
7.155268470942974091e+01 -4.540500921756029129e+01 6.515164771582931280e+00
7.196516029536724091e+01 -4.483433050662279129e+01 6.571439185645431280e+00
7.269965736567974091e+01 -4.445884222537279129e+01 6.655713477637618780e+00
7.106721107661724091e+01 -4.264060492068529129e+01 6.534284034278243780e+00
7.187495033442974091e+01 -4.231882757693529129e+01 6.624707618262618780e+00
7.116193763911724091e+01 -4.436228460818529129e+01 6.888608375098556280e+00
7.114387123286724091e+01 -4.353000921756029129e+01 6.905362525489181280e+00
7.143622963130474091e+01 -4.289768499881029129e+01 6.950543799903243780e+00
7.223383705317974091e+01 -4.256553167849779129e+01 7.042554297950118780e+00
7.142573158442974091e+01 -4.539341253787279129e+01 7.286679664161056280e+00
7.200263588130474091e+01 -4.409568304568529129e+01 7.376126685645431280e+00
7.250178138911724091e+01 -4.357895941287279129e+01 7.441373267676681280e+00
7.125117103755474091e+01 -4.615378851443529129e+01 7.646878638770431280e+00
7.132050697505474091e+01 -4.536069769412279129e+01 7.666654029395431280e+00
7.198835365474224091e+01 -4.495273870974779129e+01 7.749967017676681280e+00
7.151301185786724091e+01 -4.551975531131029129e+01 8.080182471778243780e+00
1.833356849849224091e+01 -9.815043397247791290e+00 1.628293433692306280e+00
1.881892006099224091e+01 -1.158164495974779129e+01 1.716596045996993780e+00
1.873725502192974091e+01 -1.131168646365404129e+01 1.717145362403243780e+00
1.865705482661724091e+01 -1.104673285037279129e+01 1.717694678809493780e+00
1.857819740474224091e+01 -1.078574652224779129e+01 1.718243995215743780e+00
1.850092689692974091e+01 -1.053043646365404129e+01 1.718778052832931280e+00
1.842487709224224091e+01 -1.027891058474779129e+01 1.719296851661056280e+00
1.835041420161724091e+01 -1.003275579959154129e+01 1.719800391700118780e+00
1.828083412349224091e+01 -9.792948670685291290e+00 1.720578589942306280e+00
7.047199623286724091e+01 -4.248850531131029129e+01 5.914273658301681280e+00
7.042231361567974091e+01 -4.166123480349779129e+01 5.932202735450118780e+00
7.489142982661724091e+01 -4.349814886599779129e+01 6.309430518653243780e+00
7.073188392817974091e+01 -4.349155706912279129e+01 6.295728126075118780e+00
7.085285560786724091e+01 -4.275364203006029129e+01 6.326276221778243780e+00
7.136884681880474091e+01 -4.392161078006029129e+01 6.736310401465743780e+00
7.164179603755474091e+01 -4.326877874881029129e+01 6.779401221778243780e+00
7.121381752192974091e+01 -4.220005316287279129e+01 6.759305396582931280e+00
7.140143959224224091e+01 -4.397556585818529129e+01 7.128919044043868780e+00
7.190876381099224091e+01 -4.599949163943529129e+01 7.539975562598556280e+00
7.149360267817974091e+01 -4.489426703006029129e+01 7.511350074317306280e+00
7.152094642817974091e+01 -4.494602484256029129e+01 7.907193580176681280e+00
7.189533607661724091e+01 -4.435117620974779129e+01 7.959714332129806280e+00
7.132807533442974091e+01 -4.569309515506029129e+01 8.268277564551681280e+00
7.164777748286724091e+01 -4.506101507693529129e+01 8.312711158301681280e+00
7.205561439692974091e+01 -4.448520941287279129e+01 8.369046607520431280e+00
6.894184486567974091e+01 -3.860874456912279129e+01 4.621915259864181280e+00
6.980964271724224091e+01 -3.834006781131029129e+01 4.703488746192306280e+00
1.875190345942974091e+01 -1.135172552615404129e+01 1.568005958106368780e+00
1.866828529536724091e+01 -1.108188910037279129e+01 1.569959083106368780e+00
1.858613197505474091e+01 -1.081705755740404129e+01 1.571881690528243780e+00
1.850532142817974091e+01 -1.055625433474779129e+01 1.573758521582931280e+00
1.842646400630474091e+01 -1.030124945193529129e+01 1.575620093848556280e+00
1.836030189692974091e+01 -1.005674261599779129e+01 1.578244605567306280e+00
1.829560463130474091e+01 -9.817118592560291290e+00 1.580792823340743780e+00
1.823188392817974091e+01 -9.581461854279041290e+00 1.583310523536056280e+00
1.879621498286724091e+01 -1.138907904177904129e+01 1.673444190528243780e+00
1.871418373286724091e+01 -1.111954779177904129e+01 1.674588599707931280e+00
1.863373939692974091e+01 -1.085502142459154129e+01 1.675687232520431280e+00
1.855439369380474091e+01 -1.059446234256029129e+01 1.676785865332931280e+00
1.847687904536724091e+01 -1.033945745974779129e+01 1.677853980567306280e+00
1.840046302974224091e+01 -1.008823675662279129e+01 1.678906837012618780e+00
1.832563392817974091e+01 -9.842265076935291290e+00 1.679929175879806280e+00
1.825214760005474091e+01 -9.600687928497791290e+00 1.680951514746993780e+00
1.877436439692974091e+01 -1.138431829959154129e+01 1.775021949317306280e+00
1.870234291255474091e+01 -1.112113470584154129e+01 1.775937476661056280e+00
1.863154213130474091e+01 -1.086252874881029129e+01 1.776853004004806280e+00
1.856183998286724091e+01 -1.060752386599779129e+01 1.777753272559493780e+00
1.849348060786724091e+01 -1.035770697146654129e+01 1.778623023536056280e+00
1.842609779536724091e+01 -1.011136908084154129e+01 1.779492774512618780e+00
1.836005775630474091e+01 -9.869975037872791290e+00 1.780347266700118780e+00
1.829511635005474091e+01 -9.632609315216541290e+00 1.781171241309493780e+00
7.100544349849224091e+01 -4.309897894412279129e+01 6.171842017676681280e+00
7.061213295161724091e+01 -4.205027288943529129e+01 6.161420264746993780e+00
7.251569740474224091e+01 -4.238230413943529129e+01 6.340192237403243780e+00
7.094904701411724091e+01 -4.391428656131029129e+01 6.533261695411056280e+00
7.131159584224224091e+01 -4.332090277224779129e+01 6.583066382911056280e+00
7.136017982661724091e+01 -4.253501410037279129e+01 6.607465186621993780e+00
7.064826576411724091e+01 -4.375950140506029129e+01 6.891873755957931280e+00
7.272504799067974091e+01 -4.422580999881029129e+01 7.102887549903243780e+00
7.220454017817974091e+01 -4.393918890506029129e+01 7.446301856543868780e+00
7.163691322505474091e+01 -4.528354925662279129e+01 7.752393165137618780e+00
7.208527748286724091e+01 -4.473105902224779129e+01 7.813519874121993780e+00
7.159443275630474091e+01 -4.529160589724779129e+01 8.143216529395431280e+00
7.183430092036724091e+01 -4.548044867068529129e+01 8.564145484473556280e+00
1.807795326411724091e+01 -9.141703553497791290e+00 1.559461036231368780e+00
1.867194740474224091e+01 -1.095292181521654129e+01 1.653989234473556280e+00
1.860029213130474091e+01 -1.069175238162279129e+01 1.655530372168868780e+00
1.852143470942974091e+01 -1.042997259646654129e+01 1.656461158301681280e+00
1.844306556880474091e+01 -1.017148870974779129e+01 1.657315650489181280e+00
1.836628334224224091e+01 -9.918559022247791290e+00 1.658154883887618780e+00
1.829059974849224091e+01 -9.669169373810291290e+00 1.658978858496993780e+00
1.821638099849224091e+01 -9.424967713654041290e+00 1.659787574317306280e+00
1.813398353755474091e+01 -9.179728455841541290e+00 1.659894385840743780e+00
1.862983314692974091e+01 -1.093552679568529129e+01 1.754331031348556280e+00
1.855817787349224091e+01 -1.067466253787279129e+01 1.754987159278243780e+00
1.848774330317974091e+01 -1.041819281131029129e+01 1.755612769629806280e+00
1.841828529536724091e+01 -1.016526312381029129e+01 1.756238379981368780e+00
1.835029213130474091e+01 -9.917399354279041290e+00 1.756848731543868780e+00
1.828315345942974091e+01 -9.672892518341541290e+00 1.757443824317306280e+00
1.821735756099224091e+01 -9.433207459747791290e+00 1.758038917090743780e+00
1.814313881099224091e+01 -9.192301698029041290e+00 1.757886329200118780e+00
7.037299720942974091e+01 -4.239560980349779129e+01 6.063931861426681280e+00
7.045710365474224091e+01 -4.164377874881029129e+01 6.091382422950118780e+00
7.461518470942974091e+01 -4.329636663943529129e+01 6.451886573340743780e+00
7.154633705317974091e+01 -4.397068304568529129e+01 6.530423560645431280e+00
7.158063881099224091e+01 -4.235080999881029129e+01 6.569638648536056280e+00
7.182331459224224091e+01 -4.417685980349779129e+01 6.946530738379806280e+00
7.235615150630474091e+01 -4.367563910037279129e+01 7.012982764746993780e+00
7.147419349849224091e+01 -4.399241156131029129e+01 7.307233253028243780e+00
7.225959388911724091e+01 -4.364951605349779129e+01 7.397122779395431280e+00
7.218671791255474091e+01 -4.447117132693529129e+01 7.771451392676681280e+00
7.196625892817974091e+01 -4.436704535037279129e+01 8.145032325293868780e+00
1.855183021724224091e+01 -8.696207948029041290e+00 2.339169898536056280e+00
1.809699623286724091e+01 -8.670390076935291290e+00 2.387128272559493780e+00
1.853449623286724091e+01 -8.695231385529041290e+00 2.439679542090743780e+00
1.808015052974224091e+01 -8.669413514435291290e+00 2.485776343848556280e+00
1.851728431880474091e+01 -8.694254823029041290e+00 2.539578834082931280e+00
1.806318275630474091e+01 -8.668497987091541290e+00 2.584348121192306280e+00
1.849982826411724091e+01 -8.693278260529041290e+00 2.639935889746993780e+00
1.804645912349224091e+01 -8.667521424591541290e+00 2.682309546973556280e+00
1.848249427974224091e+01 -8.692301698029041290e+00 2.740201392676681280e+00
1.818391029536724091e+01 -9.277445740997791290e+00 1.629178443457931280e+00
1.808991615474224091e+01 -9.014628358185291290e+00 1.629346290137618780e+00
1.799824135005474091e+01 -8.757670350372791290e+00 1.629514136817306280e+00
1.790046302974224091e+01 -8.500651307404041290e+00 1.629147925879806280e+00
1.780488197505474091e+01 -8.249369569122791290e+00 1.628796973731368780e+00
1.771113197505474091e+01 -8.002726502716541290e+00 1.628446021582931280e+00
1.827888099849224091e+01 -9.768168397247791290e+00 1.726178565528243780e+00
1.820942299067974091e+01 -9.512980408966541290e+00 1.727445045020431280e+00
1.814118568599224091e+01 -9.261881776154041290e+00 1.728696265723556280e+00
1.804413978755474091e+01 -8.997660584747791290e+00 1.727643409278243780e+00
1.795270912349224091e+01 -8.741251893341541290e+00 1.726895728614181280e+00
1.786274330317974091e+01 -8.488566346466541290e+00 1.726148047950118780e+00
1.777460853755474091e+01 -8.241373963654041290e+00 1.725430884864181280e+00
1.768806068599224091e+01 -7.998576112091541290e+00 1.724713721778243780e+00
1.815107338130474091e+01 -8.673563905060291290e+00 2.152860084082931280e+00
1.859308998286724091e+01 -8.698649354279041290e+00 2.200971045996993780e+00
1.813398353755474091e+01 -8.672587342560291290e+00 2.252820411231368780e+00
1.857551185786724091e+01 -8.697611756622791290e+00 2.302731910254806280e+00
1.785651771724224091e+01 -8.122660584747791290e+00 2.231854835059493780e+00
1.811713783442974091e+01 -8.671610780060291290e+00 2.352170386817306280e+00
1.855805580317974091e+01 -8.696635194122791290e+00 2.403867164161056280e+00
1.785358802974224091e+01 -8.128825135529041290e+00 2.330914893653243780e+00
1.810004799067974091e+01 -8.670634217560291290e+00 2.451962867286056280e+00
1.854047767817974091e+01 -8.695658631622791290e+00 2.505475440528243780e+00
1.785053627192974091e+01 -8.134989686310291290e+00 2.429517188575118780e+00
1.808308021724224091e+01 -8.669657655060291290e+00 2.551679053809493780e+00
1.852302162349224091e+01 -8.694621033966541290e+00 2.606992164161056280e+00
1.784760658442974091e+01 -8.141215272247791290e+00 2.528699317481368780e+00
1.806611244380474091e+01 -8.668742127716541290e+00 2.650784888770431280e+00
1.850556556880474091e+01 -8.693644471466541290e+00 2.707883277442306280e+00
1.784455482661724091e+01 -8.147440858185291290e+00 2.627942481543868780e+00
1.809308998286724091e+01 -8.670329041779041290e+00 2.448087134864181280e+00
1.853754799067974091e+01 -8.695597596466541290e+00 2.502087989356368780e+00
1.785163490474224091e+01 -8.132670350372791290e+00 2.427060523536056280e+00
1.792963783442974091e+01 -7.970744080841541290e+00 2.439145484473556280e+00
1.807587806880474091e+01 -8.669352479279041290e+00 2.548306861426681280e+00
1.851972572505474091e+01 -8.694559998810291290e+00 2.604672828223556280e+00
1.784858314692974091e+01 -8.139018006622791290e+00 2.527341285254806280e+00
1.792658607661724091e+01 -7.976969666779041290e+00 2.539410987403243780e+00
1.805866615474224091e+01 -8.668375916779041290e+00 2.648984351661056280e+00
1.850214760005474091e+01 -8.693522401154041290e+00 2.706616797950118780e+00
1.784565345942974091e+01 -8.145304627716541290e+00 2.627149024512618780e+00
1.792353431880474091e+01 -7.983256287872791290e+00 2.639722266700118780e+00
1.800959388911724091e+01 -7.804423280060291290e+00 2.460080543067306280e+00
1.806562416255474091e+01 -8.668864198029041290e+00 2.556119361426681280e+00
1.851069252192974091e+01 -8.694132752716541290e+00 2.612286963965743780e+00
1.784894935786724091e+01 -8.138407655060291290e+00 2.536725440528243780e+00
1.792768470942974091e+01 -7.974528260529041290e+00 2.549085059668868780e+00
1.800654213130474091e+01 -7.810770936310291290e+00 2.561444678809493780e+00
1.804816810786724091e+01 -8.667887635529041290e+00 2.657834449317306280e+00
1.849262611567974091e+01 -8.693095155060291290e+00 2.715833106543868780e+00
1.784577552974224091e+01 -8.144877381622791290e+00 2.637662330176681280e+00
1.792463295161724091e+01 -7.980936951935291290e+00 2.650006690528243780e+00
1.800349037349224091e+01 -7.817179627716541290e+00 2.662869849707931280e+00
1.802753822505474091e+01 -7.767130799591541290e+00 2.195935645606368780e+00
1.853400795161724091e+01 -8.695780701935291290e+00 2.340466895606368780e+00
1.785895912349224091e+01 -8.117411561310291290e+00 2.273847022559493780e+00
1.794147865474224091e+01 -7.946024842560291290e+00 2.287564673926681280e+00
1.802412025630474091e+01 -7.774088807404041290e+00 2.301328101661056280e+00
1.851472084224224091e+01 -8.694682069122791290e+00 2.448132911231368780e+00
1.785554115474224091e+01 -8.124552674591541290e+00 2.379865088965743780e+00
1.793806068599224091e+01 -7.953104920685291290e+00 2.393582740332931280e+00
1.802082435786724091e+01 -7.781107850372791290e+00 2.407346168067306280e+00
1.849531166255474091e+01 -8.693583436310291290e+00 2.556287208106368780e+00
1.785212318599224091e+01 -8.131632752716541290e+00 2.485959449317306280e+00
1.793464271724224091e+01 -7.960123963654041290e+00 2.499661841895431280e+00
1.801740638911724091e+01 -7.788065858185291290e+00 2.512860694434493780e+00
1.847590248286724091e+01 -8.692484803497791290e+00 2.664349952246993780e+00
1.784882728755474091e+01 -8.138712830841541290e+00 2.591535010840743780e+00
1.793122474849224091e+01 -7.967143006622791290e+00 2.605252662207931280e+00
1.801411049067974091e+01 -7.795023865997791290e+00 2.619000831153243780e+00
6.649852678179740906e+00 7.960530333220958710e+00 1.456143775489181280e+00
6.763011857867240906e+00 8.144795469939708710e+00 1.478711524512618780e+00
6.990306779742240906e+00 8.327107481658458710e+00 1.513623633887618780e+00
1.010041420161724091e+01 7.129902891814708710e+00 1.908154883887618780e+00
1.285639564692974091e+01 7.168171934783458710e+00 2.223920264746993780e+00
1.048188392817974091e+01 7.545186094939708710e+00 1.974469581153243780e+00
6.632884904742240906e+00 7.955037169158458710e+00 1.559033790137618780e+00
7.198314592242240906e+00 8.120869688689708710e+00 1.632535377051681280e+00
7.198436662554740906e+00 8.314106993377208710e+00 1.643765845801681280e+00
5.636302873492240906e+00 8.668660216033458710e+00 1.151517310645431280e+00
1.009894935786724091e+01 7.005452208220958710e+00 1.618375220801681280e+00
8.269969865679740906e+00 7.361226134002208710e+00 1.450406470801681280e+00
1.404365150630474091e+01 7.195637755095958710e+00 2.035504737403243780e+00
8.163524553179740906e+00 7.781819395720958710e+00 1.463544288184493780e+00
6.759593889117240906e+00 8.054768614470958710e+00 1.334577003028243780e+00
6.921337053179740906e+00 8.243062071502208710e+00 1.362012305762618780e+00
7.015209123492240906e+00 8.435261778533458710e+00 1.382703223731368780e+00
8.612499162554740906e+00 8.594685606658458710e+00 1.556332984473556280e+00
1.220246498286724091e+01 6.825947813689708710e+00 1.958844581153243780e+00
1.008710853755474091e+01 7.443257384002208710e+00 1.766370215918868780e+00
8.115306779742240906e+00 7.777424864470958710e+00 1.572598853614181280e+00
6.699047014117240906e+00 8.051045469939708710e+00 1.435803809668868780e+00
7.210643693804740906e+00 8.224873594939708710e+00 1.501370826270431280e+00
7.278148576617240906e+00 8.420369200408458710e+00 1.519788184668868780e+00
7.171825334429740906e+00 8.620869688689708710e+00 1.519788184668868780e+00
1.031562416255474091e+01 7.196370176970958710e+00 1.901532569434493780e+00
1.254706947505474091e+01 7.275288634002208710e+00 2.156567969825118780e+00
6.588939592242240906e+00 7.856892637908458710e+00 1.520703712012618780e+00
6.680736467242240906e+00 8.045308165252208710e+00 1.541715064551681280e+00
7.174755021929740906e+00 8.219624571502208710e+00 1.607098975684493780e+00
7.347606584429740906e+00 8.411519102752208710e+00 1.637418189551681280e+00
7.851268693804740906e+00 8.598408751189708710e+00 1.705182471778243780e+00
6.542064592242240906e+00 8.794148497283458710e+00 1.666074195411056280e+00
7.725658342242240906e+00 8.978901915252208710e+00 1.812680640723556280e+00
1.487250892817974091e+01 9.120869688689708710e+00 2.636014380957931280e+00
6.608837053179740906e+00 7.956196837127208710e+00 1.740109839942306280e+00
6.828685685992240906e+00 8.151875548064708710e+00 1.777264991309493780e+00
6.942943498492240906e+00 8.355794005095958710e+00 1.803021827246993780e+00
7.223827287554740906e+00 8.556233458220958710e+00 1.848325171973556280e+00
7.595531389117240906e+00 8.758137755095958710e+00 1.904508033301681280e+00
7.123485490679740906e+00 9.193928770720958710e+00 1.874539771582931280e+00
1.501484291255474091e+01 9.386677794158458710e+00 2.823239722754806280e+00
8.568065568804740906e+00 8.547017149627208710e+00 1.642224708106368780e+00
8.091014787554740906e+00 8.789387755095958710e+00 1.606946387793868780e+00
1.469684974849224091e+01 9.159932188689708710e+00 2.321072974707931280e+00
8.007274553179740906e+00 9.685261778533458710e+00 1.653119483496993780e+00
7.156688615679740906e+00 8.158528380095958710e+00 1.592084327246993780e+00
7.230052873492240906e+00 8.371663145720958710e+00 1.612988868262618780e+00
7.250438615679740906e+00 8.587910704314708710e+00 1.628308692481368780e+00
1.493220131099224091e+01 8.865559630095958710e+00 2.485242286231368780e+00
7.882152482867240906e+00 9.232930235564708710e+00 1.736401954200118780e+00
6.697460100054740906e+00 9.671895079314708710e+00 1.633389869239181280e+00
6.955028459429740906e+00 8.161641173064708710e+00 1.690518775489181280e+00
8.326610490679740906e+00 8.313679747283458710e+00 1.856091895606368780e+00
7.263866350054740906e+00 8.579731993377208710e+00 1.750989356543868780e+00
6.553539201617240906e+00 8.818501524627208710e+00 1.683774390723556280e+00
6.706127092242240906e+00 9.026631407439708710e+00 1.713742652442306280e+00
1.487116615474224091e+01 9.138630919158458710e+00 2.652234473731368780e+00
1.460932533442974091e+01 9.420186094939708710e+00 2.639401832129806280e+00
6.842967912554740906e+00 8.159993223845958710e+00 1.797498145606368780e+00
6.926708146929740906e+00 8.370137266814708710e+00 1.819470801856368780e+00
8.323070451617240906e+00 8.532063536345958710e+00 1.994962134864181280e+00
7.574291154742240906e+00 8.781086973845958710e+00 1.921109595801681280e+00
1.429560463130474091e+01 9.136311583220958710e+00 2.740231910254806280e+00
7.800853654742240906e+00 9.440388731658458710e+00 1.987775245215743780e+00
1.440644447505474091e+01 9.688252501189708710e+00 2.787503638770431280e+00
1.007575599849224091e+01 9.024739317595958710e+00 1.668073096778243780e+00
1.560712806880474091e+01 9.199360899627208710e+00 2.226361670996993780e+00
1.032075111567974091e+01 9.762532286345958710e+00 1.737836280371993780e+00
1.433295814692974091e+01 1.005879693478345871e+01 2.153241553809493780e+00
7.076610490679740906e+00 8.417805723845958710e+00 1.457242408301681280e+00
7.362865373492240906e+00 8.627522520720958710e+00 1.499173560645431280e+00
8.134349748492240906e+00 8.827534727752208710e+00 1.591443458106368780e+00
1.480939857661724091e+01 8.914815001189708710e+00 2.288480201270431280e+00
1.585725013911724091e+01 9.185994200408458710e+00 2.413770118262618780e+00
9.568187639117240906e+00 9.510273985564708710e+00 1.782102027442306280e+00
6.421214982867240906e+00 9.740132384002208710e+00 1.470181861426681280e+00
1.593281166255474091e+01 1.006837945431470871e+01 2.476849952246993780e+00
7.104442521929740906e+00 8.408528380095958710e+00 1.582593360450118780e+00
7.343089982867240906e+00 8.620320372283458710e+00 1.621472754981368780e+00
7.607616350054740906e+00 8.835225157439708710e+00 1.663358130957931280e+00
1.024128334224224091e+01 9.250813536345958710e+00 1.974118629004806280e+00
1.474225990474224091e+01 9.476033262908458710e+00 2.475354590918868780e+00
6.494335100054740906e+00 9.732991270720958710e+00 1.598096290137618780e+00
9.511669084429740906e+00 9.983723692595958710e+00 1.940244117286056280e+00
7.205760881304740906e+00 8.395772032439708710e+00 1.717023292090743780e+00
7.280956193804740906e+00 8.614705137908458710e+00 1.738980689551681280e+00
6.588939592242240906e+00 8.858174376189708710e+00 1.675794044043868780e+00
6.746044084429740906e+00 9.072102598845958710e+00 1.706052222754806280e+00
1.483686439692974091e+01 9.179524473845958710e+00 2.626309791114181280e+00
7.185253068804740906e+00 9.506245665252208710e+00 1.783032813575118780e+00
6.562206193804740906e+00 9.725850157439708710e+00 1.726163306739181280e+00
3.750926896929740906e+00 9.910176329314708710e+00 1.419980445411056280e+00
7.019725725054740906e+00 8.396565489470958710e+00 1.819516578223556280e+00
7.240428850054740906e+00 8.608357481658458710e+00 1.857831397559493780e+00
7.425243303179740906e+00 8.824849180877208710e+00 1.892865577246993780e+00
6.726756975054740906e+00 9.064839415252208710e+00 1.825482764746993780e+00
1.335346595942974091e+01 9.190266661345958710e+00 2.612454810645431280e+00
7.402538225054740906e+00 9.497395567595958710e+00 1.931546607520431280e+00
9.379955217242240906e+00 9.726216368377208710e+00 2.178143897559493780e+00
3.735790178179740906e+00 9.903462462127208710e+00 1.525906959082931280e+00
3.271434709429740906e+00 1.016920953243970871e+01 1.502896705176681280e+00
7.263500139117240906e+00 9.378621153533458710e+00 2.035947242286056280e+00
1.414423744380474091e+01 9.849873594939708710e+00 2.896405616309493780e+00
4.065868303179740906e+00 1.004921441525220871e+01 1.693005958106368780e+00
3.266918107867240906e+00 1.024129205197095871e+01 1.608884254004806280e+00
3.254344865679740906e+00 1.044038873165845871e+01 1.620709815528243780e+00
3.767406389117240906e+00 9.917073301970958710e+00 1.428265967871993780e+00
3.274364396929740906e+00 1.012166314572095871e+01 1.386426368262618780e+00
3.261547014117240906e+00 1.032698541134595871e+01 1.397977271582931280e+00
3.248729631304740906e+00 1.053139214962720871e+01 1.409497657325118780e+00
6.241893693804740906e+00 1.083693414181470871e+01 1.761395850684493780e+00
7.123729631304740906e+00 9.198567442595958710e+00 1.888501563575118780e+00
7.805004045367240906e+00 9.424031309783458710e+00 1.981656470801681280e+00
1.483857338130474091e+01 9.607991270720958710e+00 2.807691016700118780e+00
3.751048967242240906e+00 9.909810118377208710e+00 1.542401710059493780e+00
3.274730607867240906e+00 1.011464410275220871e+01 1.500226417090743780e+00
3.261913225054740906e+00 1.032002740353345871e+01 1.512357154395431280e+00
3.249095842242240906e+00 1.052449517697095871e+01 1.523816504981368780e+00
6.246654435992240906e+00 1.082942681759595871e+01 1.890180030371993780e+00
1.075068275630474091e+01 9.098347716033458710e+00 2.451886573340743780e+00
7.434520646929740906e+00 9.421711973845958710e+00 2.072202125098556280e+00
1.449763099849224091e+01 9.600361876189708710e+00 2.934155860450118780e+00
3.734691545367240906e+00 9.902546934783458710e+00 1.657071509864181280e+00
3.275218889117240906e+00 1.010762505978345871e+01 1.614728370215743780e+00
3.262401506304740906e+00 1.031306939572095871e+01 1.626202979590743780e+00
3.249584123492240906e+00 1.051765923947095871e+01 1.637616553809493780e+00
6.251415178179740906e+00 1.082191949337720871e+01 2.019101539161056280e+00
1.319147865474224091e+01 1.087477593868970871e+01 2.352857032325118780e+00
6.213207170367240906e+00 1.093404107540845871e+01 1.620084205176681280e+00
8.672191545367240906e+00 1.127187066525220871e+01 1.901746192481368780e+00
7.971385881304740906e+00 9.486226134002208710e+00 1.853711524512618780e+00
1.279328529536724091e+01 9.694539122283458710e+00 2.398328223731368780e+00
3.875438615679740906e+00 9.985493712127208710e+00 1.433911719825118780e+00
3.269603654742240906e+00 1.019655328243970871e+01 1.380536475684493780e+00
3.256542131304740906e+00 1.040663629025220871e+01 1.392392554786056280e+00
3.243358537554740906e+00 1.061726861447095871e+01 1.404294410254806280e+00
6.211376115679740906e+00 1.092610650509595871e+01 1.750974097754806280e+00
8.690990373492240906e+00 1.126424127072095871e+01 2.045667090918868780e+00
7.366893693804740906e+00 9.487752012908458710e+00 1.924130836036056280e+00
9.401073381304740906e+00 9.714192442595958710e+00 2.172162452246993780e+00
3.905467912554740906e+00 9.977986387908458710e+00 1.557584205176681280e+00
3.270091935992240906e+00 1.018935113400220871e+01 1.497373023536056280e+00
3.256908342242240906e+00 1.039949517697095871e+01 1.509198585059493780e+00
3.243724748492240906e+00 1.061018853634595871e+01 1.521680274512618780e+00
6.210155412554740906e+00 1.091823296993970871e+01 1.882001319434493780e+00
8.712108537554740906e+00 1.125667291134595871e+01 2.190900245215743780e+00
6.903514787554740906e+00 9.487141661345958710e+00 2.005719581153243780e+00
1.501447670161724091e+01 9.654133848845958710e+00 2.985104957129806280e+00
3.888622209429740906e+00 9.970540098845958710e+00 1.675366797950118780e+00
3.270580217242240906e+00 1.018208795040845871e+01 1.614926734473556280e+00
3.257396623492240906e+00 1.039235406368970871e+01 1.626706519629806280e+00
3.244213029742240906e+00 1.060316949337720871e+01 1.638532081153243780e+00
6.214916154742240906e+00 1.091060357540845871e+01 2.013150611426681280e+00
8.733348771929740906e+00 1.124910455197095871e+01 2.336438575293868780e+00
7.411937639117240906e+00 1.103908257931470871e+01 2.176511207129806280e+00
1.478620521724224091e+01 1.159035211056470871e+01 3.091702857520431280e+00
1.469160072505474091e+01 1.189815240353345871e+01 3.101544776465743780e+00
3.247020646929740906e+00 1.055812554806470871e+01 1.530454078223556280e+00
6.236888810992240906e+00 1.085262017697095871e+01 1.889676490332931280e+00
8.705272600054740906e+00 1.117940240353345871e+01 2.192227759864181280e+00
1.605768959224224091e+01 1.174825005978345871e+01 3.068036475684493780e+00
9.368114396929740906e+00 1.202046685665845871e+01 2.323331275489181280e+00
3.275218889117240906e+00 1.010793023556470871e+01 1.628507056739181280e+00
3.261302873492240906e+00 1.032924371212720871e+01 1.640668311621993780e+00
3.247508928179740906e+00 1.055049615353345871e+01 1.653470435645431280e+00
6.242137834429740906e+00 1.084431939572095871e+01 2.027875342871993780e+00
