6.989939272403717041e+00 -7.289642736315727234e+00 1.035740437451750040e+00
7.059397280216217041e+00 -7.263519689440727234e+00 1.043568196240812540e+00
7.132395327091217041e+00 -7.241302892565727234e+00 1.051762165967375040e+00
7.207102358341217041e+00 -7.219757482409477234e+00 1.060123982373625040e+00
7.285593569278717041e+00 -7.202118322253227234e+00 1.068867268506437540e+00
7.380686342716217041e+00 -7.201691076159477234e+00 1.079258503858000040e+00
6.901926577091217041e+00 -7.407440587878227234e+00 1.064137043897062540e+00
6.965525209903717041e+00 -7.374847814440727234e+00 1.071262898389250040e+00
7.032419741153717041e+00 -7.345734044909477234e+00 1.078953328076750040e+00
7.100901186466217041e+00 -7.317596837878227234e+00 1.086811604443937540e+00
7.172434389591217041e+00 -7.292816564440727234e+00 1.095005574170500040e+00
7.246286928653717041e+00 -7.269501134753227234e+00 1.103428425733000040e+00
7.317087709903717041e+00 -7.242401525378227234e+00 1.111546101514250040e+00
7.415110170841217041e+00 -7.244659826159477234e+00 1.122746052686125040e+00
6.897532045841217041e+00 -7.407562658190727234e+00 1.102589192334562540e+00
6.961985170841217041e+00 -7.376068517565727234e+00 1.110096516553312540e+00
7.029734194278717041e+00 -7.347992345690727234e+00 1.117985310498625040e+00
7.099070131778717041e+00 -7.320892736315727234e+00 1.126057209912687540e+00
7.171335756778717041e+00 -7.296844884753227234e+00 1.134449543897062540e+00
7.245676577091217041e+00 -7.274078771471977234e+00 1.143070759717375040e+00
7.325144350528717041e+00 -7.256622716784477234e+00 1.152287068311125040e+00
7.427195131778717041e+00 -7.263092443346977234e+00 1.164036335889250040e+00
6.900217592716217041e+00 -7.416412755846977234e+00 1.142078938428312540e+00
6.964670717716217041e+00 -7.384796544909477234e+00 1.149479451123625040e+00
7.032663881778717041e+00 -7.356903478503227234e+00 1.157490315381437540e+00
7.102243959903717041e+00 -7.329925939440727234e+00 1.165699543897062540e+00
7.174509584903717041e+00 -7.305756017565727234e+00 1.174229206983000040e+00
7.249216616153717041e+00 -7.283417150378227234e+00 1.183064045850187540e+00
7.332956850528717041e+00 -7.270599767565727234e+00 1.192966999951750040e+00
7.445749819278717041e+00 -7.288788244128227234e+00 1.206547322217375040e+00
6.902414858341217041e+00 -7.424713537096977234e+00 1.181400837842375040e+00
6.966990053653717041e+00 -7.393219396471977234e+00 1.189106526318937540e+00
7.035227358341217041e+00 -7.365448400378227234e+00 1.197269978467375040e+00
7.104929506778717041e+00 -7.338470861315727234e+00 1.205601277295500040e+00
7.179026186466217041e+00 -7.316315099596977234e+00 1.214497151318937540e+00
7.254953920841217041e+00 -7.295257970690727234e+00 1.223637165967375040e+00
7.338938295841217041e+00 -7.282562658190727234e+00 1.233769001904875040e+00
7.444529116153717041e+00 -7.292511388659477234e+00 1.246632161084562540e+00
6.908274233341217041e+00 -7.437591955065727234e+00 1.221516194287687540e+00
6.973337709903717041e+00 -7.406402990221977234e+00 1.229374470654875040e+00
7.042063295841217041e+00 -7.379120275378227234e+00 1.237705769483000040e+00
7.112986147403717041e+00 -7.353363439440727234e+00 1.246113362256437540e+00
7.185007631778717041e+00 -7.328583166003227234e+00 1.254871907178312540e+00
7.265329897403717041e+00 -7.312286779284477234e+00 1.264957966748625040e+00
7.364939272403717041e+00 -7.316986486315727234e+00 1.277393879834562540e+00
7.468454897403717041e+00 -7.324188634753227234e+00 1.290333332959562540e+00
6.907175600528717041e+00 -7.441864416003227234e+00 1.260792317334562540e+00
6.971506655216217041e+00 -7.409759923815727234e+00 1.268421711865812540e+00
7.039866030216217041e+00 -7.381866857409477234e+00 1.276798787061125040e+00
7.110666811466217041e+00 -7.356110021471977234e+00 1.285542073193937540e+00
7.199411928653717041e+00 -7.350799962878227234e+00 1.296803059522062540e+00
7.277048647403717041e+00 -7.331024572253227234e+00 1.306477131787687540e+00
7.378367006778717041e+00 -7.337250158190727234e+00 1.319447102490812540e+00
7.849192202091217041e+00 -7.644684240221977234e+00 5.720105790533125401e-01
9.051828920841217041e+00 -8.819061681628227234e+00 5.915723466314375401e-01
9.148630678653717041e+00 -8.790131017565727234e+00 5.996900224126875401e-01
9.246653139591217041e+00 -8.760773107409477234e+00 6.079145097173750401e-01
9.344919741153717041e+00 -8.731048986315727234e+00 6.161695146001875401e-01
9.447580873966217041e+00 -8.704132482409477234e+00 6.245771073736250401e-01
9.550852358341217041e+00 -8.677093908190727234e+00 6.330457353033125401e-01
9.651438295841217041e+00 -8.646271154284477234e+00 6.412549638189375401e-01
7.820017397403717041e+00 -7.618378087878227234e+00 6.138654374517500401e-01
9.805246889591217041e+00 -9.631683751940727234e+00 6.547742509283125401e-01
9.956980288028717041e+00 -9.647125646471977234e+00 6.648145341314375401e-01
1.010846954584121704e+01 -9.659210607409477234e+00 6.752973222173750401e-01
1.025690704584121704e+01 -9.665863439440727234e+00 6.855359696783125401e-01
1.040302520990371704e+01 -9.667145177721977234e+00 6.955762528814375401e-01
1.055671173334121704e+01 -9.674042150378227234e+00 7.061658524908125401e-01
1.071320587396621704e+01 -9.681061193346977234e+00 7.169690751470625401e-01
7.798166811466217041e+00 -7.600067541003227234e+00 6.555524491705000401e-01
1.110114532709121704e+01 -1.102652017772197723e+01 7.417646073736250401e-01
1.134919220209121704e+01 -1.112063638865947723e+01 7.558484696783125401e-01
1.161078888177871704e+01 -1.122256509959697723e+01 7.705732011236250401e-01
1.192804962396621704e+01 -1.137576334178447723e+01 7.870526933111250401e-01
1.244843536615371704e+01 -1.172421304881572723e+01 8.095594071783125401e-01
1.316376739740371704e+01 -1.225106851756572723e+01 8.382459306158125401e-01
1.409699493646621704e+01 -1.296914713084697723e+01 8.742719315923750401e-01
7.622751772403717041e+00 -7.414276525378227234e+00 6.920819901861250401e-01
7.510569155216217041e+00 -7.297150060534477234e+00 7.288709306158125401e-01
7.447214663028717041e+00 -7.233185216784477234e+00 7.661328935064375401e-01
7.427561342716217041e+00 -7.216888830065727234e+00 8.050122880376875401e-01
7.416575014591217041e+00 -7.209930822253227234e+00 8.439679765142500401e-01
2.079145294427871704e+01 -1.984439127147197723e+01 1.674900593701750040e+00
2.075788360834121704e+01 -1.950003091990947723e+01 1.682224812451750040e+00
7.409494936466217041e+00 -7.207306310534477234e+00 8.832898759283125401e-01
2.079157501459121704e+01 -2.150363199412822723e+01 1.755604329053312540e+00
2.080134063959121704e+01 -2.117422525584697723e+01 1.765339436475187540e+00
2.081110626459121704e+01 -2.084909097850322723e+01 1.774952473584562540e+00
2.080390411615371704e+01 -2.051315347850322723e+01 1.783268513623625040e+00
2.078913360834121704e+01 -2.017428629100322723e+01 1.790958943311125040e+00
2.077472931146621704e+01 -1.984268228709697723e+01 1.798481526318937540e+00
2.076056915521621704e+01 -1.951705972850322723e+01 1.805866780225187540e+00
7.390940248966217041e+00 -7.192108556628227234e+00 9.215436601080000401e-01
2.080695587396621704e+01 -2.153665201365947723e+01 1.886295857373625040e+00
2.079889923334121704e+01 -2.118765299022197723e+01 1.893696370068937540e+00
2.079255157709121704e+01 -2.084555093944072723e+01 1.901112141553312540e+00
2.078583770990371704e+01 -2.051010172069072723e+01 1.908344807568937540e+00
2.077179962396621704e+01 -2.017178384959697723e+01 1.914906086865812540e+00
2.075788360834121704e+01 -1.984079019725322723e+01 1.921345295850187540e+00
2.074433380365371704e+01 -1.951571695506572723e+01 1.927662434522062540e+00
7.377268373966217041e+00 -7.182220861315727234e+00 9.601789140142500401e-01
7.373117983341217041e+00 -7.182831212878227234e+00 9.992871903814375401e-01
7.372629702091217041e+00 -7.187408849596977234e+00 1.038944783154875040e+00
7.381296694278717041e+00 -7.201996251940727234e+00 1.079319539014250040e+00
7.415720522403717041e+00 -7.244965001940727234e+00 1.122822346631437540e+00
7.427805483341217041e+00 -7.263458654284477234e+00 1.164112629834562540e+00
7.446482241153717041e+00 -7.289154455065727234e+00 1.206623616162687540e+00
7.450266420841217041e+00 -7.298614904284477234e+00 1.247364582959562540e+00
7.470896303653717041e+00 -7.326569005846977234e+00 1.290653767529875040e+00
9.651926577091217041e+00 -8.646271154284477234e+00 6.412854813970625401e-01
9.757761538028717041e+00 -8.619232580065727234e+00 6.499524735845625401e-01
9.879343569278717041e+00 -8.605621740221977234e+00 6.587110185064375401e-01
1.003290802240371704e+01 -8.619171544909477234e+00 6.681867265142500401e-01
1.018940216302871704e+01 -8.633026525378227234e+00 6.778302812017500401e-01
1.034980255365371704e+01 -8.647247716784477234e+00 6.877332353033125401e-01
1.051325470209121704e+01 -8.661713048815727234e+00 6.978040360845625401e-01
1.067402130365371704e+01 -8.670929357409477234e+00 7.076917313970625401e-01
1.071442657709121704e+01 -9.681732580065727234e+00 7.170148515142500401e-01
1.090693145990371704e+01 -9.720428869128227234e+00 7.285504960455000401e-01
1.123298126459121704e+01 -9.880402013659477234e+00 7.435346269048750401e-01
1.157319122552871704e+01 -1.004501383006572723e+01 7.596021317876875401e-01
1.181952911615371704e+01 -1.011703531444072723e+01 7.732892655767500401e-01
1.226667267084121704e+01 -1.036239664256572723e+01 7.922406815923750401e-01
1.278205353021621704e+01 -1.065719644725322723e+01 8.138929032720625401e-01
1.372150665521621704e+01 -1.130514566600322723e+01 8.480268144048750401e-01
1.410224395990371704e+01 -1.297354166209697723e+01 8.744550370611250401e-01
1.627192169427871704e+01 -1.484396402537822723e+01 9.484754228033125401e-01
2.077070099115371704e+01 -1.795834390819072723e+01 1.136448445264250040e+00
2.075605255365371704e+01 -1.795822183787822723e+01 1.254108967725187540e+00
2.074152618646621704e+01 -1.795816080272197723e+01 1.371098103467375040e+00
2.072699981927871704e+01 -1.795803873240947723e+01 1.488682331983000040e+00
2.071247345209121704e+01 -1.795797769725322723e+01 1.605595173779875040e+00
2.075715118646621704e+01 -1.949826090037822723e+01 1.682209553662687540e+00
2.072455841302871704e+01 -1.916067545115947723e+01 1.689259114209562540e+00
2.069184356927871704e+01 -1.882894937694072723e+01 1.696781697217375040e+00
2.066022735834121704e+01 -1.850271646678447723e+01 1.703587117139250040e+00
2.062934356927871704e+01 -1.818356363475322723e+01 1.710239949170500040e+00
2.058857208490371704e+01 -1.785995523631572723e+01 1.716145100537687540e+00
2.053876739740371704e+01 -1.753463785350322723e+01 1.720661702100187540e+00
2.050287872552871704e+01 -1.722714273631572723e+01 1.726536335889250040e+00
2.075995880365371704e+01 -1.951541177928447723e+01 1.805851521436125040e+00
2.074079376459121704e+01 -1.919046060740947723e+01 1.812672200147062540e+00
2.071113067865371704e+01 -1.886087076365947723e+01 1.818623127881437540e+00
2.068183380365371704e+01 -1.853622476756572723e+01 1.824482502881437540e+00
2.065326935052871704e+01 -1.821853677928447723e+01 1.830219807568937540e+00
2.061786895990371704e+01 -1.789901773631572723e+01 1.835377278272062540e+00
2.056635528802871704e+01 -1.757162515819072723e+01 1.839222493115812540e+00
2.051581817865371704e+01 -1.725076334178447723e+01 1.843006672803312540e+00
2.074372345209121704e+01 -1.951400797069072723e+01 1.927631916943937540e+00
2.073041778802871704e+01 -1.919461099803447723e+01 1.933811726514250040e+00
2.071723419427871704e+01 -1.888046304881572723e+01 1.939884724561125040e+00
2.070429474115371704e+01 -1.857052652537822723e+01 1.945866169873625040e+00
1.067475372552871704e+01 -8.671051427721977234e+00 7.077222489751875401e-01
1.087824493646621704e+01 -8.713898107409477234e+00 7.190442704595625401e-01
1.118696075677871704e+01 -8.840301916003227234e+00 7.327314042486250401e-01
1.151349884271621704e+01 -8.974029943346977234e+00 7.471967362798750401e-01
1.185688263177871704e+01 -9.114593908190727234e+00 7.624250077642500401e-01
1.222016388177871704e+01 -9.262848302721977234e+00 7.785382890142500401e-01
1.289692169427871704e+01 -9.647919103503227234e+00 8.032117509283125401e-01
1.332648712396621704e+01 -9.827728673815727234e+00 8.216901444830000401e-01
1.373005157709121704e+01 -1.131192056834697723e+01 8.483014726080000401e-01
1.436554962396621704e+01 -1.167727701365947723e+01 8.745923661626875401e-01
1.519990020990371704e+01 -1.219290201365947723e+01 9.074445390142500401e-01
1.913959747552871704e+01 -1.523342935740947723e+01 1.034946980420500040e+00
1.970490509271621704e+01 -1.544827310740947723e+01 1.063480915967375040e+00
2.036677032709121704e+01 -1.522775308787822723e+01 1.118259968701750040e+00
2.087360626459121704e+01 -1.720889322459697723e+01 1.177372517529875040e+00
2.035395294427871704e+01 -1.522848550975322723e+01 1.226475300733000040e+00
2.086396270990371704e+01 -1.721304361522197723e+01 1.293293538037687540e+00
2.034113556146621704e+01 -1.522915689647197723e+01 1.334095539990812540e+00
2.085444122552871704e+01 -1.721713297069072723e+01 1.408649983350187540e+00
2.032831817865371704e+01 -1.522982828319072723e+01 1.442280354443937540e+00
2.084980255365371704e+01 -1.722537271678447723e+01 1.524876179639250040e+00
2.031550079584121704e+01 -1.523049966990947723e+01 1.549854817334562540e+00
2.084614044427871704e+01 -1.723446695506572723e+01 1.640644612256437540e+00
2.044111114740371704e+01 -1.635806314647197723e+01 1.633823933545500040e+00
2.039106231927871704e+01 -1.605758707225322723e+01 1.639149250928312540e+00
2.034186798334121704e+01 -1.576168863475322723e+01 1.644367756787687540e+00
2.029377228021621704e+01 -1.547219888865947723e+01 1.649494709912687540e+00
2.023810821771621704e+01 -1.518161050975322723e+01 1.654011311475187540e+00
2.050214630365371704e+01 -1.722561685740947723e+01 1.726505818311125040e+00
2.046674591302871704e+01 -1.692349283397197723e+01 1.732136311475187540e+00
2.043256622552871704e+01 -1.662716715037822723e+01 1.738300862256437540e+00
2.039826446771621704e+01 -1.633438150584697723e+01 1.743732991162687540e+00
2.036469513177871704e+01 -1.604751627147197723e+01 1.749073567334562540e+00
2.033161407709121704e+01 -1.576449625194072723e+01 1.754322590772062540e+00
2.029853302240371704e+01 -1.548672525584697723e+01 1.758854451123625040e+00
2.025617462396621704e+01 -1.520590250194072723e+01 1.763233723584562540e+00
2.051496368646621704e+01 -1.724905435740947723e+01 1.842976155225187540e+00
2.046552520990371704e+01 -1.693454019725322723e+01 1.846592488233000040e+00
2.041706329584121704e+01 -1.662588541209697723e+01 1.850147786084562540e+00
2.036933380365371704e+01 -1.632193033397197723e+01 1.853657307568937540e+00
2.033051544427871704e+01 -1.603097574412822723e+01 1.857655110303312540e+00
2.029780060052871704e+01 -1.574856607615947723e+01 1.862003865186125040e+00
2.026581817865371704e+01 -1.547183267772197723e+01 1.866261067334562540e+00
2.022590118646621704e+01 -1.519320718944072723e+01 1.869831623975187540e+00
2.080610138177871704e+01 -1.645101968944072723e+01 2.234303059522062540e+00
2.065326935052871704e+01 -1.660269205272197723e+01 2.330006184522062540e+00
2.077350860834121704e+01 -1.643606607615947723e+01 2.345371785108000040e+00
2.089399200677871704e+01 -1.626907388865947723e+01 2.360767903272062540e+00
2.064802032709121704e+01 -1.661001627147197723e+01 2.444263997022062540e+00
2.076825958490371704e+01 -1.644339029490947723e+01 2.459568562451750040e+00
2.088886505365371704e+01 -1.627627603709697723e+01 2.474918904248625040e+00
2.064264923334121704e+01 -1.661734049022197723e+01 2.557972493115812540e+00
2.076301056146621704e+01 -1.645065347850322723e+01 2.573231282178312540e+00
2.088361603021621704e+01 -1.628353922069072723e+01 2.588535847608000040e+00
2.063740020990371704e+01 -1.662472574412822723e+01 2.672367634717375040e+00
2.075776153802871704e+01 -1.645797769725322723e+01 2.687580647412687540e+00
2.087836700677871704e+01 -1.629074136912822723e+01 2.702839436475187540e+00
2.063202911615371704e+01 -1.663204996287822723e+01 2.786228718701750040e+00
2.075251251459121704e+01 -1.646524088084697723e+01 2.801395955029875040e+00
2.087311798334121704e+01 -1.629800455272197723e+01 2.816593708936125040e+00
1.332746368646621704e+01 -9.827911779284477234e+00 8.217359208501875401e-01
1.390461212396621704e+01 -1.010946695506572723e+01 8.451276444830000401e-01
1.445636993646621704e+01 -1.035910074412822723e+01 8.680616044439375401e-01
1.529047638177871704e+01 -1.080130045115947723e+01 8.996625565923750401e-01
1.737909942865371704e+01 -1.212106363475322723e+01 9.687085771001875401e-01
1.870148712396621704e+01 -1.285244791209697723e+01 1.017368855420500040e+00
7.047761017084121704e+01 -4.834341470897197723e+01 2.597752156201750040e+00
8.092426544427871704e+01 -5.458413736522197723e+01 2.957859578076750040e+00
2.036823517084121704e+01 -1.522805826365947723e+01 1.118336262647062540e+00
7.080011993646621704e+01 -4.860012857615947723e+01 2.991917195264250040e+00
2.035541778802871704e+01 -1.522872965037822723e+01 1.226566853467375040e+00
6.950678497552871704e+01 -4.774173013865947723e+01 3.325153889600187540e+00
7.002106720209121704e+01 -4.726565591990947723e+01 3.381397786084562540e+00
2.034260040521621704e+01 -1.522940103709697723e+01 1.334202351514250040e+00
6.932306915521621704e+01 -4.848184244334697723e+01 3.663807454053312540e+00
6.966132599115371704e+01 -4.788247720897197723e+01 3.712482991162687540e+00
6.990558868646621704e+01 -4.722061197459697723e+01 3.754612507764250040e+00
2.032978302240371704e+01 -1.523007242381572723e+01 1.442371907178312540e+00
6.913727813959121704e+01 -4.838552896678447723e+01 4.033741536084562540e+00
6.963715606927871704e+01 -4.707193033397197723e+01 4.120853962842375040e+00
2.031696563959121704e+01 -1.523074381053447723e+01 1.549961628858000040e+00
6.978193145990371704e+01 -4.803421060740947723e+01 4.480579914990812540e+00
6.931940704584121704e+01 -4.688931314647197723e+01 4.479603352490812540e+00
2.023725372552871704e+01 -1.518008463084697723e+01 1.653980793897062540e+00
2.016742950677871704e+01 -1.488327066600322723e+01 1.657276692334562540e+00
2.009882599115371704e+01 -1.459219400584697723e+01 1.660511555615812540e+00
2.003144317865371704e+01 -1.430569498240947723e+01 1.663700642529875040e+00
1.996552520990371704e+01 -1.402566568553447723e+01 1.666813435498625040e+00
1.990058380365371704e+01 -1.374996988475322723e+01 1.669880452100187540e+00
1.983710724115371704e+01 -1.348037759959697723e+01 1.672886433545500040e+00
1.978425079584121704e+01 -1.322213785350322723e+01 1.676426472608000040e+00
2.025763946771621704e+01 -1.520620767772197723e+01 1.763340535108000040e+00
2.020307403802871704e+01 -1.492050211131572723e+01 1.766636433545500040e+00
2.013593536615371704e+01 -1.462979166209697723e+01 1.769520344678312540e+00
2.007038360834121704e+01 -1.434402506053447723e+01 1.771824421826750040e+00
2.000629669427871704e+01 -1.406454508006572723e+01 1.774082722608000040e+00
1.994306427240371704e+01 -1.378939859569072723e+01 1.776310505811125040e+00
1.988178497552871704e+01 -1.352047769725322723e+01 1.777958455029875040e+00
1.982123810052871704e+01 -1.325625650584697723e+01 1.780094685498625040e+00
2.022516876459121704e+01 -1.519174234569072723e+01 1.869801106397062540e+00
2.016926056146621704e+01 -1.490518228709697723e+01 1.872013630811125040e+00
2.011432892084121704e+01 -1.462374918162822723e+01 1.874180378858000040e+00
2.006012970209121704e+01 -1.434634439647197723e+01 1.876316609326750040e+00
2.000715118646621704e+01 -1.407479898631572723e+01 1.878407063428312540e+00
1.995490509271621704e+01 -1.380709879100322723e+01 1.880466999951750040e+00
1.990375763177871704e+01 -1.354489175975322723e+01 1.882496418897062540e+00
1.985346466302871704e+01 -1.328726236522197723e+01 1.884480061475187540e+00
8.093439728021621704e+01 -5.458779947459697723e+01 2.958332600537687540e+00
8.251178985834121704e+01 -5.468582193553447723e+01 3.053379597608000040e+00
7.083783966302871704e+01 -4.609658853709697723e+01 2.723423542920500040e+00
1.979804474115371704e+01 -1.252841226756572723e+01 1.100437703076750040e+00
7.284675079584121704e+01 -4.574173013865947723e+01 2.863178791943937540e+00
7.259833770990371704e+01 -4.476590006053447723e+01 2.892063679639250040e+00
7.099811798334121704e+01 -4.298623697459697723e+01 2.874104084912687540e+00
7.131916290521621704e+01 -4.239566080272197723e+01 2.918613972608000040e+00
7.095746856927871704e+01 -4.703128091990947723e+01 3.071003498975187540e+00
1.978681427240371704e+01 -1.252963297069072723e+01 1.199482502881437540e+00
7.245722442865371704e+01 -4.471011392772197723e+01 3.268543782178312540e+00
7.091352325677871704e+01 -4.296511881053447723e+01 3.242207112256437540e+00
7.123078399896621704e+01 -4.237295572459697723e+01 3.288334431592375040e+00
7.001325470209121704e+01 -4.725759927928447723e+01 3.381199421826750040e+00
1.977570587396621704e+01 -1.253091470897197723e+01 1.297962727490812540e+00
7.121845489740371704e+01 -4.477896158397197723e+01 3.564777913037687540e+00
7.087995392084121704e+01 -4.376467935740947723e+01 3.582218708936125040e+00
7.102009063959121704e+01 -4.227725259959697723e+01 3.651951374951750040e+00
6.989985138177871704e+01 -4.721402017772197723e+01 3.754459919873625040e+00
7.131159454584121704e+01 -4.733425943553447723e+01 3.855366291943937540e+00
7.125165802240371704e+01 -4.646572916209697723e+01 3.883869709912687540e+00
1.976447540521621704e+01 -1.253213541209697723e+01 1.396961750928312540e+00
7.056830841302871704e+01 -4.440017740428447723e+01 3.912022175733000040e+00
6.963324981927871704e+01 -4.706655924022197723e+01 4.120762410108000040e+00
7.205182892084121704e+01 -4.702298013865947723e+01 4.308888020459562540e+00
1.975336700677871704e+01 -1.253335611522197723e+01 1.495426716748625040e+00
7.026691681146621704e+01 -4.424111978709697723e+01 4.269688191358000040e+00
7.098395782709121704e+01 -4.389114420115947723e+01 4.337406697217375040e+00
6.931366974115371704e+01 -4.688259927928447723e+01 4.479374470654875040e+00
7.195636993646621704e+01 -4.699380533397197723e+01 4.691944661084562540e+00
1.968818145990371704e+01 -1.249990884959697723e+01 1.591175618115812540e+00
1.960676056146621704e+01 -1.223733560740947723e+01 1.593205037061125040e+00
1.952643829584121704e+01 -1.197897379100322723e+01 1.595219197217375040e+00
1.944806915521621704e+01 -1.172641031444072723e+01 1.597172322217375040e+00
1.937165313959121704e+01 -1.147891275584697723e+01 1.598621907178312540e+00
1.978351837396621704e+01 -1.322091715037822723e+01 1.676411213818937540e+00
1.973493438959121704e+01 -1.296933023631572723e+01 1.679951252881437540e+00
1.968720489740371704e+01 -1.272171060740947723e+01 1.683445515576750040e+00
1.962861114740371704e+01 -1.246987955272197723e+01 1.686146321240812540e+00
1.955915313959121704e+01 -1.221542398631572723e+01 1.687992634717375040e+00
1.949067169427871704e+01 -1.196469156444072723e+01 1.689808430615812540e+00
1.942365509271621704e+01 -1.171933023631572723e+01 1.691593708936125040e+00
1.935773712396621704e+01 -1.147824136912822723e+01 1.693348469678312540e+00
1.982038360834121704e+01 -1.325497476756572723e+01 1.780064167920500040e+00
1.976093536615371704e+01 -1.299545328319072723e+01 1.782063069287687540e+00
1.970209747552871704e+01 -1.274008218944072723e+01 1.784504475537687540e+00
1.963520294427871704e+01 -1.248251383006572723e+01 1.785770955029875040e+00
1.955658966302871704e+01 -1.222201578319072723e+01 1.786076130811125040e+00
1.947919708490371704e+01 -1.196560709178447723e+01 1.786381306592375040e+00
1.940400177240371704e+01 -1.171517984569072723e+01 1.786198201123625040e+00
1.932978302240371704e+01 -1.146914713084697723e+01 1.786488118115812540e+00
1.985273224115371704e+01 -1.328604166209697723e+01 1.884449543897062540e+00
1.980317169427871704e+01 -1.303256265819072723e+01 1.886326374951750040e+00
1.975446563959121704e+01 -1.278311197459697723e+01 1.888172688428312540e+00
7.154120880365371704e+01 -4.356143228709697723e+01 5.906605305615812540e+00
7.261908966302871704e+01 -4.341494791209697723e+01 6.010319294873625040e+00
7.276716095209121704e+01 -4.515664713084697723e+01 6.366566243115812540e+00
7.091694122552871704e+01 -4.321060220897197723e+01 6.232578816358000040e+00
7.201178985834121704e+01 -4.308132974803447723e+01 6.341389241162687540e+00
7.235261017084121704e+01 -4.575296060740947723e+01 6.701893391553312540e+00
7.202411895990371704e+01 -4.472573892772197723e+01 6.689976277295500040e+00
7.313447052240371704e+01 -4.459744302928447723e+01 6.804310383740812540e+00
7.200226837396621704e+01 -4.310623209178447723e+01 6.721104206983000040e+00
7.174897247552871704e+01 -4.458584634959697723e+01 7.047276081983000040e+00
7.346991974115371704e+01 -4.483425943553447723e+01 7.222599568311125040e+00
7.294428497552871704e+01 -4.454409830272197723e+01 7.561894001904875040e+00
7.270893341302871704e+01 -4.691140787303447723e+01 7.891529622022062540e+00
7.284076935052871704e+01 -4.533071939647197723e+01 7.927082600537687540e+00
7.234211212396621704e+01 -4.587612955272197723e+01 8.252277913037687540e+00
7.254548126459121704e+01 -4.603836099803447723e+01 8.666081013623625040e+00
1.959772735834121704e+01 -1.226718179881572723e+01 1.611546101514250040e+00
1.951716095209121704e+01 -1.200637857615947723e+01 1.613209309522062540e+00
1.943781524896621704e+01 -1.174978677928447723e+01 1.614841999951750040e+00
1.936030060052871704e+01 -1.149881021678447723e+01 1.616444172803312540e+00
1.928412872552871704e+01 -1.125253336131572723e+01 1.618015828076750040e+00
1.976642853021621704e+01 -1.303451578319072723e+01 1.702702107373625040e+00
1.971747833490371704e+01 -1.278292886912822723e+01 1.705860676709562540e+00
1.964899688959121704e+01 -1.252218668162822723e+01 1.708149495068937540e+00
1.959345489740371704e+01 -1.227273599803447723e+01 1.710682454053312540e+00
1.952375274896621704e+01 -1.201864664256572723e+01 1.712132039014250040e+00
1.945502716302871704e+01 -1.176821939647197723e+01 1.713551106397062540e+00
1.938715606927871704e+01 -1.152273599803447723e+01 1.714390339795500040e+00
1.932111603021621704e+01 -1.128195230662822723e+01 1.715763630811125040e+00
1.975214630365371704e+01 -1.303372232615947723e+01 1.803715290967375040e+00
1.969318634271621704e+01 -1.277554361522197723e+01 1.805347981397062540e+00
1.962885528802871704e+01 -1.251748697459697723e+01 1.806492390576750040e+00
1.954914337396621704e+01 -1.225265543162822723e+01 1.806431355420500040e+00
1.947162872552871704e+01 -1.199404947459697723e+01 1.806400837842375040e+00
1.940290313959121704e+01 -1.174411050975322723e+01 1.806934895459562540e+00
1.933564239740371704e+01 -1.149942056834697723e+01 1.807453694287687540e+00
1.926948028802871704e+01 -1.125900308787822723e+01 1.807972493115812540e+00
7.174616485834121704e+01 -4.314273111522197723e+01 6.042454304639250040e+00
7.543903595209121704e+01 -4.453860513865947723e+01 6.354374470654875040e+00
7.161420685052871704e+01 -4.389236490428447723e+01 6.394230427686125040e+00
7.159272247552871704e+01 -4.308059732615947723e+01 6.409916462842375040e+00
7.380903106927871704e+01 -4.360391275584697723e+01 6.614780964795500040e+00
7.128632599115371704e+01 -4.452810709178447723e+01 6.729191365186125040e+00
7.196198517084121704e+01 -4.413748209178447723e+01 6.805378498975187540e+00
7.224421173334121704e+01 -4.350466959178447723e+01 6.846333088818937540e+00
7.285004669427871704e+01 -4.471597330272197723e+01 7.271992268506437540e+00
7.199128204584121704e+01 -4.672207681834697723e+01 7.928700032178312540e+00
7.215387970209121704e+01 -4.602493326365947723e+01 8.346546711865812540e+00
7.263263946771621704e+01 -4.550137369334697723e+01 8.407703938428312540e+00
1.935724884271621704e+01 -1.155917398631572723e+01 1.812717976514250040e+00
1.929047638177871704e+01 -1.131521646678447723e+01 1.813541951123625040e+00
1.922480255365371704e+01 -1.107547037303447723e+01 1.814365925733000040e+00
7.119135528802871704e+01 -4.312564127147197723e+01 6.030705037061125040e+00
7.244184356927871704e+01 -4.308206216990947723e+01 6.151005330029875040e+00
7.521113067865371704e+01 -4.390896646678447723e+01 6.393467488233000040e+00
7.253522735834121704e+01 -4.561721841990947723e+01 6.485371174756437540e+00
7.138056427240371704e+01 -4.407705728709697723e+01 6.406971516553312540e+00
7.160773712396621704e+01 -4.341104166209697723e+01 6.445194783154875040e+00
7.237592560052871704e+01 -4.307424966990947723e+01 6.529347004834562540e+00
7.230927520990371704e+01 -4.550747720897197723e+01 6.853794636670500040e+00
7.195820099115371704e+01 -4.446804849803447723e+01 6.839481892529875040e+00
7.235615020990371704e+01 -4.389895670115947723e+01 6.892536702100187540e+00
7.186261993646621704e+01 -4.444094888865947723e+01 7.214359822217375040e+00
7.319867950677871704e+01 -4.444509927928447723e+01 7.357380452100187540e+00
7.189887481927871704e+01 -4.697805826365947723e+01 7.563755574170500040e+00
7.223066192865371704e+01 -4.552420084178447723e+01 7.624165120068937540e+00
7.224909454584121704e+01 -4.556912271678447723e+01 8.014408650342375040e+00
7.265607696771621704e+01 -4.500003091990947723e+01 8.069050373975187540e+00
7.238459259271621704e+01 -4.568850748240947723e+01 8.420445027295500040e+00
1.949543243646621704e+01 -1.187393228709697723e+01 1.727055134717375040e+00
1.942243438959121704e+01 -1.161917154490947723e+01 1.728169026318937540e+00
1.934540802240371704e+01 -1.136508218944072723e+01 1.728916706983000040e+00
1.926996856927871704e+01 -1.111642496287822723e+01 1.729649128858000040e+00
1.919599395990371704e+01 -1.087234537303447723e+01 1.730366291943937540e+00
1.966059356927871704e+01 -1.263571207225322723e+01 1.821217122022062540e+00
1.959137970209121704e+01 -1.237210123240947723e+01 1.822010579053312540e+00
1.951935821771621704e+01 -1.211062662303447723e+01 1.822514119092375040e+00
1.944855743646621704e+01 -1.185299722850322723e+01 1.823002400342375040e+00
1.937909942865371704e+01 -1.160079996287822723e+01 1.823475422803312540e+00
1.931074005365371704e+01 -1.135220377147197723e+01 1.823948445264250040e+00
1.924372345209121704e+01 -1.110873453319072723e+01 1.824406208936125040e+00
1.917792755365371704e+01 -1.086947672069072723e+01 1.824848713818937540e+00
7.264069610834121704e+01 -4.424954263865947723e+01 6.200275959912687540e+00
7.134125763177871704e+01 -4.265322916209697723e+01 6.115604939404875040e+00
7.548713165521621704e+01 -4.431094400584697723e+01 6.470356526318937540e+00
7.219770294427871704e+01 -4.482547037303447723e+01 6.530659260693937540e+00
7.341523224115371704e+01 -4.475637857615947723e+01 6.653156819287687540e+00
7.202289825677871704e+01 -4.309426920115947723e+01 6.551746907178312540e+00
7.159919220209121704e+01 -4.448355142772197723e+01 6.862659993115812540e+00
7.172675567865371704e+01 -4.459548990428447723e+01 7.260548176709562540e+00
7.298554474115371704e+01 -4.455715982615947723e+01 7.396244587842375040e+00
7.218390899896621704e+01 -4.657669107615947723e+01 7.666859211865812540e+00
7.279474884271621704e+01 -4.613211099803447723e+01 7.741444172803312540e+00
7.210358673334121704e+01 -4.655825845897197723e+01 8.051868977490812540e+00
7.226313263177871704e+01 -4.582620279490947723e+01 8.079426350537687540e+00
7.268915802240371704e+01 -4.526309244334697723e+01 8.135563435498625040e+00
7.201862579584121704e+01 -4.653652994334697723e+01 8.433781208936125040e+00
7.306208282709121704e+01 -4.320632974803447723e+01 6.343647541943937540e+00
7.229706817865371704e+01 -4.606155435740947723e+01 6.582050862256437540e+00
7.270954376459121704e+01 -4.549087564647197723e+01 6.638325276318937540e+00
7.344404083490371704e+01 -4.511538736522197723e+01 6.722599568311125040e+00
7.181159454584121704e+01 -4.329715006053447723e+01 6.601170124951750040e+00
7.261933380365371704e+01 -4.297537271678447723e+01 6.691593708936125040e+00
7.190632110834121704e+01 -4.501882974803447723e+01 6.955494465772062540e+00
7.188825470209121704e+01 -4.418655435740947723e+01 6.972248616162687540e+00
7.218061310052871704e+01 -4.355423013865947723e+01 7.017429890576750040e+00
7.297822052240371704e+01 -4.322207681834697723e+01 7.109440388623625040e+00
7.217011505365371704e+01 -4.604995767772197723e+01 7.353565754834562540e+00
7.274701935052871704e+01 -4.475222818553447723e+01 7.443012776318937540e+00
7.324616485834121704e+01 -4.423550455272197723e+01 7.508259358350187540e+00
7.199555450677871704e+01 -4.681033365428447723e+01 7.713764729443937540e+00
7.206489044427871704e+01 -4.601724283397197723e+01 7.733540120068937540e+00
7.273273712396621704e+01 -4.560928384959697723e+01 7.816853108350187540e+00
7.225739532709121704e+01 -4.617630045115947723e+01 8.147068562451750040e+00
1.907795196771621704e+01 -1.047158853709697723e+01 1.695179524365812540e+00
1.956330353021621704e+01 -1.223819009959697723e+01 1.783482136670500040e+00
1.948163849115371704e+01 -1.196823160350322723e+01 1.784031453076750040e+00
1.940143829584121704e+01 -1.170327799022197723e+01 1.784580769483000040e+00
1.932258087396621704e+01 -1.144229166209697723e+01 1.785130085889250040e+00
1.924531036615371704e+01 -1.118698160350322723e+01 1.785664143506437540e+00
1.916926056146621704e+01 -1.093545572459697723e+01 1.786182942334562540e+00
1.909479767084121704e+01 -1.068930093944072723e+01 1.786686482373625040e+00
1.902521759271621704e+01 -1.044949381053447723e+01 1.787464680615812540e+00
7.121637970209121704e+01 -4.314505045115947723e+01 5.981159748975187540e+00
7.116669708490371704e+01 -4.231777994334697723e+01 5.999088826123625040e+00
7.563581329584121704e+01 -4.415469400584697723e+01 6.376316609326750040e+00
7.147626739740371704e+01 -4.414810220897197723e+01 6.362614216748625040e+00
7.159723907709121704e+01 -4.341018716990947723e+01 6.393162312451750040e+00
7.211323028802871704e+01 -4.457815591990947723e+01 6.803196492139250040e+00
7.238617950677871704e+01 -4.392532388865947723e+01 6.846287312451750040e+00
7.195820099115371704e+01 -4.285659830272197723e+01 6.826191487256437540e+00
7.214582306146621704e+01 -4.463211099803447723e+01 7.195805134717375040e+00
7.265314728021621704e+01 -4.665603677928447723e+01 7.606861653272062540e+00
7.223798614740371704e+01 -4.555081216990947723e+01 7.578236164990812540e+00
7.226532989740371704e+01 -4.560256998240947723e+01 7.974079670850187540e+00
7.263971954584121704e+01 -4.500772134959697723e+01 8.026600422803312540e+00
7.207245880365371704e+01 -4.634964029490947723e+01 8.335163655225187540e+00
7.239216095209121704e+01 -4.571756021678447723e+01 8.379597248975187540e+00
7.279999786615371704e+01 -4.514175455272197723e+01 8.435932698193937540e+00
6.968622833490371704e+01 -3.926528970897197723e+01 4.688801350537687540e+00
7.055402618646621704e+01 -3.899661295115947723e+01 4.770374836865812540e+00
1.949628692865371704e+01 -1.200827066600322723e+01 1.634892048779875040e+00
1.941266876459121704e+01 -1.173843424022197723e+01 1.636845173779875040e+00
1.933051544427871704e+01 -1.147360269725322723e+01 1.638767781201750040e+00
1.924970489740371704e+01 -1.121279947459697723e+01 1.640644612256437540e+00
1.917084747552871704e+01 -1.095779459178447723e+01 1.642506184522062540e+00
1.910468536615371704e+01 -1.071328775584697723e+01 1.645130696240812540e+00
1.903998810052871704e+01 -1.047366373240947723e+01 1.647678914014250040e+00
1.897626739740371704e+01 -1.023800699412822723e+01 1.650196614209562540e+00
1.954059845209121704e+01 -1.204562418162822723e+01 1.740330281201750040e+00
1.945856720209121704e+01 -1.177609293162822723e+01 1.741474690381437540e+00
1.937812286615371704e+01 -1.151156656444072723e+01 1.742573323193937540e+00
1.929877716302871704e+01 -1.125100748240947723e+01 1.743671956006437540e+00
1.922126251459121704e+01 -1.099600259959697723e+01 1.744740071240812540e+00
1.914484649896621704e+01 -1.074478189647197723e+01 1.745792927686125040e+00
1.907001739740371704e+01 -1.049881021678447723e+01 1.746815266553312540e+00
1.899653106927871704e+01 -1.025723306834697723e+01 1.747837605420500040e+00
1.951874786615371704e+01 -1.204086343944072723e+01 1.841908039990812540e+00
1.944672638177871704e+01 -1.177767984569072723e+01 1.842823567334562540e+00
1.937592560052871704e+01 -1.151907388865947723e+01 1.843739094678312540e+00
1.930622345209121704e+01 -1.126406900584697723e+01 1.844639363233000040e+00
1.923786407709121704e+01 -1.101425211131572723e+01 1.845509114209562540e+00
1.917048126459121704e+01 -1.076791422069072723e+01 1.846378865186125040e+00
1.910444122552871704e+01 -1.052652017772197723e+01 1.847233357373625040e+00
1.903949981927871704e+01 -1.028915445506572723e+01 1.848057331983000040e+00
7.174982696771621704e+01 -4.375552408397197723e+01 6.238728108350187540e+00
7.135651642084121704e+01 -4.270681802928447723e+01 6.228306355420500040e+00
7.326008087396621704e+01 -4.303884927928447723e+01 6.407078328076750040e+00
7.169343048334121704e+01 -4.457083170115947723e+01 6.600147786084562540e+00
7.205597931146621704e+01 -4.397744791209697723e+01 6.649952473584562540e+00
7.210456329584121704e+01 -4.319155924022197723e+01 6.674351277295500040e+00
7.139264923334121704e+01 -4.441604654490947723e+01 6.958759846631437540e+00
7.346943145990371704e+01 -4.488235513865947723e+01 7.169773640576750040e+00
7.294892364740371704e+01 -4.459573404490947723e+01 7.513187947217375040e+00
7.238129669427871704e+01 -4.594009439647197723e+01 7.819279255811125040e+00
7.282966095209121704e+01 -4.538760416209697723e+01 7.880405964795500040e+00
7.233881622552871704e+01 -4.594815103709697723e+01 8.210102620068937540e+00
7.257868438959121704e+01 -4.613699381053447723e+01 8.631031575147062540e+00
1.882233673334121704e+01 -9.798248693346977234e+00 1.626347126904875040e+00
1.941633087396621704e+01 -1.160946695506572723e+01 1.720875325147062540e+00
1.934467560052871704e+01 -1.134829752147197723e+01 1.722416462842375040e+00
1.926581817865371704e+01 -1.108651773631572723e+01 1.723347248975187540e+00
1.918744903802871704e+01 -1.082803384959697723e+01 1.724201741162687540e+00
1.911066681146621704e+01 -1.057510416209697723e+01 1.725040974561125040e+00
1.903498321771621704e+01 -1.032571451365947723e+01 1.725864949170500040e+00
1.896076446771621704e+01 -1.008151285350322723e+01 1.726673664990812540e+00
1.887836700677871704e+01 -9.836273595690727234e+00 1.726780476514250040e+00
1.937421661615371704e+01 -1.159207193553447723e+01 1.821217122022062540e+00
1.930256134271621704e+01 -1.133120767772197723e+01 1.821873249951750040e+00
1.923212677240371704e+01 -1.107473795115947723e+01 1.822498860303312540e+00
1.916266876459121704e+01 -1.082180826365947723e+01 1.823124470654875040e+00
1.909467560052871704e+01 -1.057394449412822723e+01 1.823734822217375040e+00
1.902753692865371704e+01 -1.032943765819072723e+01 1.824329914990812540e+00
1.896174103021621704e+01 -1.008975259959697723e+01 1.824925007764250040e+00
1.888752228021621704e+01 -9.848846837878227234e+00 1.824772419873625040e+00
7.111738067865371704e+01 -4.305215494334697723e+01 6.130817952100187540e+00
7.120148712396621704e+01 -4.230032388865947723e+01 6.158268513623625040e+00
7.535956817865371704e+01 -4.395291177928447723e+01 6.518772664014250040e+00
7.229072052240371704e+01 -4.462722818553447723e+01 6.597309651318937540e+00
7.232502228021621704e+01 -4.300735513865947723e+01 6.636524739209562540e+00
7.256769806146621704e+01 -4.483340494334697723e+01 7.013416829053312540e+00
7.310053497552871704e+01 -4.433218424022197723e+01 7.079868855420500040e+00
7.221857696771621704e+01 -4.464895670115947723e+01 7.374119343701750040e+00
7.300397735834121704e+01 -4.430606119334697723e+01 7.464008870068937540e+00
7.293110138177871704e+01 -4.512771646678447723e+01 7.838337483350187540e+00
7.271064239740371704e+01 -4.502359049022197723e+01 8.211918415967375040e+00
1.929621368646621704e+01 -9.352753087878227234e+00 2.406055989209562540e+00
1.884137970209121704e+01 -9.326935216784477234e+00 2.454014363233000040e+00
1.927887970209121704e+01 -9.351776525378227234e+00 2.506565632764250040e+00
1.882453399896621704e+01 -9.325958654284477234e+00 2.552662434522062540e+00
1.926166778802871704e+01 -9.350799962878227234e+00 2.606464924756437540e+00
1.880756622552871704e+01 -9.325043126940727234e+00 2.651234211865812540e+00
1.924421173334121704e+01 -9.349823400378227234e+00 2.706821980420500040e+00
1.879084259271621704e+01 -9.324066564440727234e+00 2.749195637647062540e+00
1.922687774896621704e+01 -9.348846837878227234e+00 2.807087483350187540e+00
1.892829376459121704e+01 -9.933990880846977234e+00 1.696064534131437540e+00
1.883429962396621704e+01 -9.671173498034477234e+00 1.696232380811125040e+00
1.874262481927871704e+01 -9.414215490221977234e+00 1.696400227490812540e+00
1.864484649896621704e+01 -9.157196447253227234e+00 1.696034016553312540e+00
1.854926544427871704e+01 -8.905914708971977234e+00 1.695683064404875040e+00
1.845551544427871704e+01 -8.659271642565727234e+00 1.695332112256437540e+00
1.902326446771621704e+01 -1.042471353709697723e+01 1.793064656201750040e+00
1.895380645990371704e+01 -1.016952554881572723e+01 1.794331135693937540e+00
1.888556915521621704e+01 -9.918426916003227234e+00 1.795582356397062540e+00
1.878852325677871704e+01 -9.654205724596977234e+00 1.794529499951750040e+00
1.869709259271621704e+01 -9.397797033190727234e+00 1.793781819287687540e+00
1.860712677240371704e+01 -9.145111486315727234e+00 1.793034138623625040e+00
1.851899200677871704e+01 -8.897919103503227234e+00 1.792316975537687540e+00
1.843244415521621704e+01 -8.655121251940727234e+00 1.791599812451750040e+00
1.889545685052871704e+01 -9.330109044909477234e+00 2.219746174756437540e+00
1.933747345209121704e+01 -9.355194494128227234e+00 2.267857136670500040e+00
1.887836700677871704e+01 -9.329132482409477234e+00 2.319706501904875040e+00
1.931989532709121704e+01 -9.354156896471977234e+00 2.369618000928312540e+00
1.860090118646621704e+01 -8.779205724596977234e+00 2.298740925733000040e+00
1.886152130365371704e+01 -9.328155919909477234e+00 2.419056477490812540e+00
1.930243927240371704e+01 -9.353180333971977234e+00 2.470753254834562540e+00
1.859797149896621704e+01 -8.785370275378227234e+00 2.397800984326750040e+00
1.884443145990371704e+01 -9.327179357409477234e+00 2.518848957959562540e+00
1.928486114740371704e+01 -9.352203771471977234e+00 2.572361531201750040e+00
1.859491974115371704e+01 -8.791534826159477234e+00 2.496403279248625040e+00
1.882746368646621704e+01 -9.326202794909477234e+00 2.618565144483000040e+00
1.926740509271621704e+01 -9.351166173815727234e+00 2.673878254834562540e+00
1.859199005365371704e+01 -8.797760412096977234e+00 2.595585408154875040e+00
1.881049591302871704e+01 -9.325287267565727234e+00 2.717670979443937540e+00
1.924994903802871704e+01 -9.350189611315727234e+00 2.774769368115812540e+00
1.858893829584121704e+01 -8.803985998034477234e+00 2.694828572217375040e+00
1.883747345209121704e+01 -9.326874181628227234e+00 2.514973225537687540e+00
1.928193145990371704e+01 -9.352142736315727234e+00 2.568974080029875040e+00
1.859601837396621704e+01 -8.789215490221977234e+00 2.493946614209562540e+00
1.867402130365371704e+01 -8.627289220690727234e+00 2.506031575147062540e+00
1.882026153802871704e+01 -9.325897619128227234e+00 2.615192952100187540e+00
1.926410919427871704e+01 -9.351105138659477234e+00 2.671558918897062540e+00
1.859296661615371704e+01 -8.795563146471977234e+00 2.594227375928312540e+00
1.867096954584121704e+01 -8.633514806628227234e+00 2.606297078076750040e+00
1.880304962396621704e+01 -9.324921056628227234e+00 2.715870442334562540e+00
1.924653106927871704e+01 -9.350067541003227234e+00 2.773502888623625040e+00
1.859003692865371704e+01 -8.801849767565727234e+00 2.694035115186125040e+00
1.866791778802871704e+01 -8.639801427721977234e+00 2.706608357373625040e+00
1.875397735834121704e+01 -8.460968419909477234e+00 2.526966633740812540e+00
1.881000763177871704e+01 -9.325409337878227234e+00 2.623005452100187540e+00
1.925507599115371704e+01 -9.350677892565727234e+00 2.679173054639250040e+00
1.859333282709121704e+01 -8.794952794909477234e+00 2.603611531201750040e+00
1.867206817865371704e+01 -8.631073400378227234e+00 2.615971150342375040e+00
1.875092560052871704e+01 -8.467316076159477234e+00 2.628330769483000040e+00
1.879255157709121704e+01 -9.324432775378227234e+00 2.724720539990812540e+00
1.923700958490371704e+01 -9.349640294909477234e+00 2.782719197217375040e+00
1.859015899896621704e+01 -8.801422521471977234e+00 2.704548420850187540e+00
1.866901642084121704e+01 -8.637482091784477234e+00 2.716892781201750040e+00
1.874787384271621704e+01 -8.473724767565727234e+00 2.729755940381437540e+00
1.877192169427871704e+01 -8.423675939440727234e+00 2.262821736279875040e+00
1.927839142084121704e+01 -9.352325841784477234e+00 2.407352986279875040e+00
1.860334259271621704e+01 -8.773956701159477234e+00 2.340733113233000040e+00
1.868586212396621704e+01 -8.602569982409477234e+00 2.354450764600187540e+00
1.876850372552871704e+01 -8.430633947253227234e+00 2.368214192334562540e+00
1.925910431146621704e+01 -9.351227208971977234e+00 2.515019001904875040e+00
1.859992462396621704e+01 -8.781097814440727234e+00 2.446751179639250040e+00
1.868244415521621704e+01 -8.609650060534477234e+00 2.460468831006437540e+00
1.876520782709121704e+01 -8.437652990221977234e+00 2.474232258740812540e+00
1.923969513177871704e+01 -9.350128576159477234e+00 2.623173298779875040e+00
1.859650665521621704e+01 -8.788177892565727234e+00 2.552845539990812540e+00
1.867902618646621704e+01 -8.616669103503227234e+00 2.566547932568937540e+00
1.876178985834121704e+01 -8.444610998034477234e+00 2.579746785108000040e+00
1.922028595209121704e+01 -9.349029943346977234e+00 2.731236042920500040e+00
1.859321075677871704e+01 -8.795257970690727234e+00 2.658421101514250040e+00
1.867560821771621704e+01 -8.623688146471977234e+00 2.672138752881437540e+00
1.875849395990371704e+01 -8.451569005846977234e+00 2.685886921826750040e+00
7.394236147403717041e+00 7.303985193371772766e+00 1.523029866162687540e+00
7.507395327091217041e+00 7.488250330090522766e+00 1.545597615186125040e+00
7.734690248966217041e+00 7.670562341809272766e+00 1.580509724561125040e+00
1.084479767084121704e+01 6.473357751965522766e+00 1.975040974561125040e+00
1.360077911615371704e+01 6.511626794934272766e+00 2.290806355420500040e+00
1.122626739740371704e+01 6.888640955090522766e+00 2.041355671826750040e+00
7.377268373966217041e+00 7.298492029309272766e+00 1.625919880811125040e+00
7.942698061466217041e+00 7.464324548840522766e+00 1.699421467725187540e+00
7.942820131778717041e+00 7.657561853528022766e+00 1.710651936475187540e+00
6.380686342716217041e+00 8.012115076184272766e+00 1.218403401318937540e+00
1.084333282709121704e+01 6.348907068371772766e+00 1.685261311475187540e+00
9.014353334903717041e+00 6.704680994153022766e+00 1.517292561475187540e+00
1.478803497552871704e+01 6.539092615246772766e+00 2.102390828076750040e+00
8.907908022403717041e+00 7.125274255871772766e+00 1.530430378858000040e+00
7.503977358341217041e+00 7.398223474621772766e+00 1.401463093701750040e+00
7.665720522403717041e+00 7.586516931653022766e+00 1.428898396436125040e+00
7.759592592716217041e+00 7.778716638684272766e+00 1.449589314404875040e+00
9.356882631778717041e+00 7.938140466809272766e+00 1.623219075147062540e+00
1.294684845209121704e+01 6.169402673840522766e+00 2.025730671826750040e+00
1.083149200677871704e+01 6.786712244153022766e+00 1.833256306592375040e+00
8.859690248966217041e+00 7.120879724621772766e+00 1.639484944287687540e+00
7.443430483341217041e+00 7.394500330090522766e+00 1.502689900342375040e+00
7.955027163028717041e+00 7.568328455090522766e+00 1.568256916943937540e+00
8.022532045841217041e+00 7.763824060559272766e+00 1.586674275342375040e+00
7.916208803653717041e+00 7.964324548840522766e+00 1.586674275342375040e+00
1.106000763177871704e+01 6.539825037121772766e+00 1.968418660108000040e+00
1.329145294427871704e+01 6.618743494153022766e+00 2.223454060498625040e+00
7.333323061466217041e+00 7.200347498059272766e+00 1.587589802686125040e+00
7.425119936466217041e+00 7.388763025403022766e+00 1.608601155225187540e+00
7.919138491153717041e+00 7.563079431653022766e+00 1.673985066358000040e+00
8.091990053653717041e+00 7.754973962903022766e+00 1.704304280225187540e+00
8.595652163028717041e+00 7.941863611340522766e+00 1.772068562451750040e+00
7.286448061466217041e+00 8.137603357434272766e+00 1.732960286084562540e+00
