7.243331126868724823e+00 -7.450195230543613434e+00 1.077072988729923964e+00
7.323043040931224823e+00 -7.431823648512363434e+00 1.085953603964298964e+00
7.412764720618724823e+00 -7.424133218824863434e+00 1.095856558065861464e+00
6.985396556556224823e+00 -7.594543375074863434e+00 1.087693105917423964e+00
7.052901439368724823e+00 -7.564147867262363434e+00 1.095230947714298964e+00
7.122847728431224823e+00 -7.536254800856113434e+00 1.103241811972111464e+00
7.196700267493724823e+00 -7.512084878981113434e+00 1.111664663534611464e+00
7.271895579993724823e+00 -7.488952554762363434e+00 1.120240102987736464e+00
7.350630931556224823e+00 -7.468933023512363434e+00 1.129212270956486464e+00
7.446211986243724823e+00 -7.467163003981113434e+00 1.139984976034611464e+00
6.987105540931224823e+00 -7.602294839918613434e+00 1.127777944784611464e+00
7.055464915931224823e+00 -7.573059000074863434e+00 1.135712515097111464e+00
7.125899486243724823e+00 -7.545654214918613434e+00 1.143891226034611464e+00
7.199874095618724823e+00 -7.521362222731113434e+00 1.152481924276798964e+00
7.275191478431224823e+00 -7.498351968824863434e+00 1.161209951620548964e+00
7.354781322181224823e+00 -7.478942789137363434e+00 1.170441519003361464e+00
7.451094798743724823e+00 -7.478088296949863434e+00 1.181580435018986464e+00
6.989791087806224823e+00 -7.611389078199863434e+00 1.168259512167423964e+00
7.058394603431224823e+00 -7.582275308668613434e+00 1.176117788534611464e+00
7.128707103431224823e+00 -7.554626382887363434e+00 1.184403310995548964e+00
7.202681712806224823e+00 -7.530212320387363434e+00 1.193116079550236464e+00
7.278487376868724823e+00 -7.507568277418613434e+00 1.202057729940861464e+00
7.366133861243724823e+00 -7.497436441481113434e+00 1.212448965292423964e+00
7.472090892493724823e+00 -7.507141031324863434e+00 1.225037466268986464e+00
6.993086986243724823e+00 -7.621337808668613434e+00 1.208725820761173964e+00
7.062178783118724823e+00 -7.592651285231113434e+00 1.216965566854923964e+00
7.133101634681224823e+00 -7.565429605543613434e+00 1.225418935995548964e+00
7.208541087806224823e+00 -7.542724527418613434e+00 1.234482656698673964e+00
7.285079173743724823e+00 -7.520812906324863434e+00 1.243653188925236464e+00
7.366744212806224823e+00 -7.503600992262363434e+00 1.253510366659611464e+00
7.464766673743724823e+00 -7.504333414137363434e+00 1.265442739706486464e+00
6.997969798743724823e+00 -7.633117593824863434e+00 1.249710928183048964e+00
7.066939525306224823e+00 -7.604064859449863434e+00 1.258026968222111464e+00
7.137740306556224823e+00 -7.576721109449863434e+00 1.266617666464298964e+00
7.224532298743724823e+00 -7.567321695387363434e+00 1.277130972128361464e+00
7.303267650306224823e+00 -7.547607339918613434e+00 1.286774526815861464e+00
7.393965892493724823e+00 -7.540466226637363434e+00 1.298249136190861464e+00
7.503218822181224823e+00 -7.553283609449863434e+00 1.311997305136173964e+00
6.994307689368724823e+00 -7.634399332106113434e+00 1.289612661581486464e+00
7.063765697181224823e+00 -7.605956949293613434e+00 1.297898184042423964e+00
7.135420970618724823e+00 -7.579528726637363434e+00 1.306702505331486464e+00
7.211348704993724823e+00 -7.557189859449863434e+00 1.316132436972111464e+00
7.291548900306224823e+00 -7.539428628981113434e+00 1.326142202597111464e+00
7.386885814368724823e+00 -7.537719644606113434e+00 1.338303457479923964e+00
7.499922923743724823e+00 -7.554870523512363434e+00 1.352951894979923964e+00
9.152754954993724823e+00 -9.158935464918613434e+00 5.982216703705489635e-01
9.255904369056224823e+00 -9.133850015699863434e+00 6.068734037689864635e-01
9.356002025306224823e+00 -9.104309000074863434e+00 6.152809965424239635e-01
9.457442454993724823e+00 -9.074340738356113434e+00 6.237954008392989635e-01
9.559371165931224823e+00 -9.044311441481113434e+00 6.323555815033614635e-01
9.662520579993724823e+00 -9.013854898512363434e+00 6.410073149017989635e-01
9.820601634681224823e+00 -9.037292398512363434e+00 6.506356108002364635e-01
9.975142650306224823e+00 -9.054382242262363434e+00 6.600655424408614635e-01
1.004923932999372482e+01 -1.015087882429361343e+01 6.661843168549239635e-01
1.017765729874372482e+01 -1.013684073835611343e+01 6.760872709564864635e-01
1.032572858780622482e+01 -1.014172355085611343e+01 6.864785063080489635e-01
1.048820417374372482e+01 -1.015875235944986343e+01 6.976326811127364635e-01
1.064665143936872482e+01 -1.016906730085611343e+01 7.085121977142989635e-01
1.093962018936872482e+01 -1.031207267194986343e+01 7.222603666596114635e-01
1.117240827530622482e+01 -1.038867179304361343e+01 7.352455961517989635e-01
1.141227643936872482e+01 -1.046722403913736343e+01 7.486428129486739635e-01
1.149320905655622482e+01 -1.174658194929361343e+01 7.602089750580489635e-01
1.177287214249372482e+01 -1.186993400007486343e+01 7.755898344330489635e-01
1.220573347061872482e+01 -1.214947501569986343e+01 7.953804838471114635e-01
1.278007429093122482e+01 -1.256439200788736343e+01 8.196572172455489635e-01
1.374027936905622482e+01 -1.336065665632486343e+01 8.555916654877364635e-01
1.576359479874372482e+01 -1.520312491804361343e+01 9.238442289642989635e-01
2.073258893936872482e+01 -2.057342521101236343e+01 1.180191885214298964e+00
2.071671979874372482e+01 -2.057238761335611343e+01 1.305359731893986464e+00
2.070231550186872482e+01 -2.057293692976236343e+01 1.431229482870548964e+00
7.790084056556224823e+00 -7.695312418043613434e+00 8.363503324799239635e-01
2.070231550186872482e+01 -2.058831778913736343e+01 1.557175527792423964e+00
7.774703197181224823e+00 -7.683776773512363434e+00 8.777932035736739635e-01
2.070255964249372482e+01 -2.127087394148111343e+01 1.664841543417423964e+00
2.069132917374372482e+01 -2.092224112898111343e+01 1.673828970175236464e+00
2.068034284561872482e+01 -2.058111564069986343e+01 1.682633291464298964e+00
2.064396589249372482e+01 -2.021905509382486343e+01 1.689713369589298964e+00
2.061076276749372482e+01 -1.986791983991861343e+01 1.696122060995548964e+00
2.057768171280622482e+01 -1.952331534773111343e+01 1.703003774862736464e+00
7.750289134681224823e+00 -7.662231363356113434e+00 9.187020170502364635e-01
2.066361921280622482e+01 -2.158673087507486343e+01 1.782044302206486464e+00
2.067314069718122482e+01 -2.125555411726236343e+01 1.791352163534611464e+00
2.068254011124372482e+01 -2.092871085554361343e+01 1.800537954550236464e+00
2.063554304093122482e+01 -2.055017081648111343e+01 1.805725942831486464e+00
2.065898054093122482e+01 -2.024938956648111343e+01 1.815583120565861464e+00
2.062785261124372482e+01 -1.989971915632486343e+01 1.821534048300236464e+00
2.059721296280622482e+01 -1.955694571882486343e+01 1.827347646933048964e+00
7.731002025306224823e+00 -7.646362222731113434e+00 9.594887602142989635e-01
2.064945905655622482e+01 -2.158782950788736343e+01 1.910508047323673964e+00
2.065983503311872482e+01 -2.125750724226236343e+01 1.918824087362736464e+00
2.067021100968122482e+01 -2.093151847273111343e+01 1.927033315878361464e+00
2.068022077530622482e+01 -2.061187735944986343e+01 1.935074697714298964e+00
2.066569440811872482e+01 -2.027130118757486343e+01 1.941178213339298964e+00
2.065129011124372482e+01 -1.993798819929361343e+01 1.947144399862736464e+00
7.727095775306224823e+00 -7.647460855543613434e+00 1.001511465292423964e+00
7.739669017493724823e+00 -7.666931070387363434e+00 1.044754873495548964e+00
7.800215892493724823e+00 -7.739501871168613434e+00 1.092942129354923964e+00
9.976119212806224823e+00 -9.054931558668613434e+00 6.600960600189864635e-01
1.014176862686872482e+01 -9.079894937574863434e+00 6.702126371674239635e-01
1.028410261124372482e+01 -9.079467691481113434e+00 6.797341215424239635e-01
1.042497175186872482e+01 -9.075012125074863434e+00 6.893624174408614635e-01
1.056779401749372482e+01 -9.070556558668613434e+00 6.991280424408614635e-01
1.075163190811872482e+01 -9.100219644606113434e+00 7.099312650971114635e-01
1.101310651749372482e+01 -9.195678628981113434e+00 7.226113188080489635e-01
1.127506940811872482e+01 -9.285766519606113434e+00 7.352761137299239635e-01
1.141398542374372482e+01 -1.046838370710611343e+01 7.487191068939864635e-01
1.165483015030622482e+01 -1.054254142194986343e+01 7.621315824799239635e-01
1.208964460343122482e+01 -1.079528800398111343e+01 7.807778227142989635e-01
1.258525007218122482e+01 -1.109295646101236343e+01 8.019417631439864635e-01
1.342240827530622482e+01 -1.169122306257486343e+01 8.325966703705489635e-01
1.407853620499372482e+01 -1.210302726179361343e+01 8.589028227142989635e-01
1.472843854874372482e+01 -1.249316398054361343e+01 8.861702787689864635e-01
1.800053327530622482e+01 -1.515155021101236343e+01 9.908913481049239635e-01
2.043205182999372482e+01 -1.733111564069986343e+01 1.636475454550236464e+00
2.057694929093122482e+01 -1.952154532819986343e+01 1.702988516073673964e+00
2.054460065811872482e+01 -1.918383780866861343e+01 1.709610830526798964e+00
2.051225202530622482e+01 -1.885192862898111343e+01 1.716706167440861464e+00
2.049735944718122482e+01 -1.854083243757486343e+01 1.724137197714298964e+00
2.048466413468122482e+01 -1.823773185163736343e+01 1.731537710409611464e+00
2.047196882218122482e+01 -1.793859855085611343e+01 1.738846670370548964e+00
2.044071882218122482e+01 -1.762847892194986343e+01 1.744156728964298964e+00
2.040421979874372482e+01 -1.731896964460611343e+01 1.749588857870548964e+00
2.059648054093122482e+01 -1.955517569929361343e+01 1.827332388143986464e+00
2.056657331436872482e+01 -1.921911612898111343e+01 1.832962881308048964e+00
2.053715436905622482e+01 -1.888928214460611343e+01 1.838486562948673964e+00
2.050822370499372482e+01 -1.856439200788736343e+01 1.843933950643986464e+00
2.048002546280622482e+01 -1.824658194929361343e+01 1.849259268026798964e+00
2.045207136124372482e+01 -1.793341056257486343e+01 1.854493032675236464e+00
2.041129987686872482e+01 -1.761480704694986343e+01 1.858658682089298964e+00
2.037516706436872482e+01 -1.730578605085611343e+01 1.863037954550236464e+00
1.127677839249372482e+01 -9.286804117262363434e+00 7.353524076752364635e-01
1.159037702530622482e+01 -9.415710367262363434e+00 7.498787748627364635e-01
1.204179304093122482e+01 -9.653503336012363434e+00 7.678231108002364635e-01
1.256339948624372482e+01 -9.938110269606113434e+00 7.880867826752364635e-01
1.298564069718122482e+01 -1.012988273054361343e+01 8.063362943939864635e-01
1.371440046280622482e+01 -1.055694571882486343e+01 8.332222807221114635e-01
1.425273054093122482e+01 -1.081726066023111343e+01 8.557595121674239635e-01
1.493632429093122482e+01 -1.117761222273111343e+01 8.824929106049239635e-01
1.800907819718122482e+01 -1.515814200788736343e+01 9.911812650971114635e-01
2.060465925186872482e+01 -1.634301749616861343e+01 1.116425405722111464e+00
2.043119733780622482e+01 -1.732940665632486343e+01 1.636460195761173964e+00
2.037858503311872482e+01 -1.701104728132486343e+01 1.641678701620548964e+00
2.032707136124372482e+01 -1.669873038679361343e+01 1.646790395956486464e+00
2.027629011124372482e+01 -1.639129630476236343e+01 1.651825796347111464e+00
2.022672956436872482e+01 -1.609075919538736343e+01 1.656754385214298964e+00
2.017777936905622482e+01 -1.579473868757486343e+01 1.661606680136173964e+00
2.013004987686872482e+01 -1.550524894148111343e+01 1.666336904745548964e+00
2.008305280655622482e+01 -1.522106925398111343e+01 1.671006094198673964e+00
2.040348737686872482e+01 -1.731744376569986343e+01 1.749573599081486464e+00
2.036759870499372482e+01 -1.701342765241861343e+01 1.754776846151798964e+00
2.033280866593122482e+01 -1.671533194929361343e+01 1.760529409628361464e+00
2.029801862686872482e+01 -1.642083732038736343e+01 1.765549551229923964e+00
2.025590436905622482e+01 -1.612585441023111343e+01 1.769944082479923964e+00
2.020915143936872482e+01 -1.583087150007486343e+01 1.773896108847111464e+00
2.016374128311872482e+01 -1.554260245710611343e+01 1.777237783651798964e+00
2.011881940811872482e+01 -1.525927726179361343e+01 1.781037222128361464e+00
2.037443464249372482e+01 -1.730426017194986343e+01 1.863007436972111464e+00
2.033891218155622482e+01 -1.700079337507486343e+01 1.867203603964298964e+00
2.030400007218122482e+01 -1.670257560163736343e+01 1.871338735800236464e+00
2.026957624405622482e+01 -1.640856925398111343e+01 1.875412832479923964e+00
2.023576276749372482e+01 -1.612054435163736343e+01 1.879395376425236464e+00
2.020255964249372482e+01 -1.583654776960611343e+01 1.883316885214298964e+00
2.016996686905622482e+01 -1.555822745710611343e+01 1.887177358847111464e+00
2.013786237686872482e+01 -1.528460685163736343e+01 1.890961538534611464e+00
2.073344343155622482e+01 -1.707824698835611343e+01 2.018021475058048964e+00
2.071208112686872482e+01 -1.707220450788736343e+01 2.132431875448673964e+00
2.070280378311872482e+01 -1.707623282819986343e+01 2.247177969198673964e+00
2.053898542374372482e+01 -1.640301505476236343e+01 2.240876089315861464e+00
2.065849225968122482e+01 -1.623730460554361343e+01 2.256012808065861464e+00
2.077763288468122482e+01 -1.607238761335611343e+01 2.271088491659611464e+00
2.069364850968122482e+01 -1.708050528913736343e+01 2.361985098104923964e+00
2.053385847061872482e+01 -1.641015616804361343e+01 2.353501211386173964e+00
2.065336530655622482e+01 -1.624444571882486343e+01 2.368592153768986464e+00
2.077250593155622482e+01 -1.607946769148111343e+01 2.384232412558048964e+00
2.068998640030622482e+01 -1.708947745710611343e+01 2.478012930136173964e+00
2.052860944718122482e+01 -1.641735831648111343e+01 2.466812978964298964e+00
2.064823835343122482e+01 -1.625158683210611343e+01 2.481858144979923964e+00
2.076737897843122482e+01 -1.608648673444986343e+01 2.496827017050236464e+00
2.047477643936872482e+01 -1.691839591413736343e+01 2.570420156698673964e+00
2.052348249405622482e+01 -1.642456046491861343e+01 2.579590688925236464e+00
2.064311140030622482e+01 -1.625866691023111343e+01 2.594590078573673964e+00
2.076225202530622482e+01 -1.609356681257486343e+01 2.609497915487736464e+00
2.054008405655622482e+01 -1.698590079694986343e+01 2.693268667440861464e+00
2.051823347061872482e+01 -1.643176261335611343e+01 2.693055044393986464e+00
2.063798444718122482e+01 -1.626580802351236343e+01 2.707978140097111464e+00
2.075712507218122482e+01 -1.610064689069986343e+01 2.722855459433048964e+00
2.063615339249372482e+01 -1.707965079694986343e+01 2.820176016073673964e+00
2.051310651749372482e+01 -1.643890372663736343e+01 2.805970083456486464e+00
2.063285749405622482e+01 -1.627294913679361343e+01 2.820847402792423964e+00
2.075199811905622482e+01 -1.610772696882486343e+01 2.835663686972111464e+00
1.494743268936872482e+01 -1.118560782819986343e+01 8.828438627533614635e-01
1.641776960343122482e+01 -1.212823478132486343e+01 9.331978666596114635e-01
1.872526472061872482e+01 -1.366046134382486343e+01 1.009156118612736464e+00
1.960880964249372482e+01 -1.408911124616861343e+01 1.045533071737736464e+00
7.069499128311872482e+01 -5.073712150007486343e+01 2.601120840292423964e+00
7.065702741593122482e+01 -4.814556876569986343e+01 2.716324697714298964e+00
6.895756452530622482e+01 -4.787213126569986343e+01 3.379593740683048964e+00
6.962931745499372482e+01 -4.750860587507486343e+01 3.442124258261173964e+00
6.909770124405622482e+01 -4.800372306257486343e+01 3.764740835409611464e+00
7.021110456436872482e+01 -4.794110099226236343e+01 3.848328481893986464e+00
6.915849225968122482e+01 -4.807989493757486343e+01 4.145600210409611464e+00
6.983940046280622482e+01 -4.771954337507486343e+01 4.211792837362736464e+00
2.023478620499372482e+01 -1.508178702741861343e+01 1.580201040487736464e+00
1.979533307999372482e+01 -1.358770743757486343e+01 1.592820059042423964e+00
1.973258893936872482e+01 -1.332128898054361343e+01 1.595810781698673964e+00
2.008232038468122482e+01 -1.521966544538736343e+01 1.670975576620548964e+00
2.001835554093122482e+01 -1.492675773054361343e+01 1.674240957479923964e+00
1.995585554093122482e+01 -1.463970939069986343e+01 1.677460561972111464e+00
1.990226667374372482e+01 -1.436285392194986343e+01 1.681137930136173964e+00
1.984977643936872482e+01 -1.409191886335611343e+01 1.684723745565861464e+00
1.979801862686872482e+01 -1.382476798444986343e+01 1.688279043417423964e+00
1.974735944718122482e+01 -1.356323233991861343e+01 1.691742788534611464e+00
1.969755475968122482e+01 -1.330615226179361343e+01 1.695160757284611464e+00
2.011808698624372482e+01 -1.525787345319986343e+01 1.781021963339298964e+00
2.005961530655622482e+01 -1.496856681257486343e+01 1.783646475058048964e+00
1.999272077530622482e+01 -1.467742911726236343e+01 1.786133657675236464e+00
1.992741315811872482e+01 -1.439123526960611343e+01 1.788056265097111464e+00
1.986357038468122482e+01 -1.411145011335611343e+01 1.789933096151798964e+00
1.980058210343122482e+01 -1.383599845319986343e+01 1.791794668417423964e+00
1.973954694718122482e+01 -1.356683341413736343e+01 1.793091665487736464e+00
1.967912214249372482e+01 -1.330236808210611343e+01 1.794876943808048964e+00
2.013725202530622482e+01 -1.528326407819986343e+01 1.890931020956486464e+00
2.009330671280622482e+01 -1.500451651960611343e+01 1.893647085409611464e+00
2.003752057999372482e+01 -1.472106925398111343e+01 1.895386587362736464e+00
1.998258893936872482e+01 -1.444177237898111343e+01 1.897095571737736464e+00
7.065641706436872482e+01 -4.814227286726236343e+01 2.716416250448673964e+00
7.071293561905622482e+01 -4.734625235944986343e+01 2.757065664511173964e+00
7.122209089249372482e+01 -4.603057853132486343e+01 2.846680532675236464e+00
7.236808698624372482e+01 -4.512432853132486343e+01 2.957840810995548964e+00
7.228166120499372482e+01 -4.426068107038736343e+01 2.990525137167423964e+00
7.095365827530622482e+01 -4.265911857038736343e+01 2.976609121542423964e+00
8.210551374405622482e+01 -5.408453360944986343e+01 3.611130605917423964e+00
8.266471784561872482e+01 -5.349188224226236343e+01 3.675064932089298964e+00
7.148112409561872482e+01 -4.300689689069986343e+01 3.370682607870548964e+00
6.963273542374372482e+01 -4.750811759382486343e+01 3.442383657675236464e+00
7.099870222061872482e+01 -4.513677970319986343e+01 3.630585561972111464e+00
7.046513288468122482e+01 -4.320538321882486343e+01 3.668824087362736464e+00
6.978605573624372482e+01 -4.764654532819986343e+01 3.827759634237736464e+00
6.939994733780622482e+01 -4.656085196882486343e+01 3.841050039511173964e+00
7.033744733780622482e+01 -4.636944571882486343e+01 3.917237173300236464e+00
7.110893171280622482e+01 -4.605364982038736343e+01 3.985718618612736464e+00
1.964958112686872482e+01 -1.238452140241861343e+01 1.421463857870548964e+00
6.984330671280622482e+01 -4.771942130476236343e+01 4.212098013143986464e+00
6.937040632218122482e+01 -4.657354728132486343e+01 4.214478384237736464e+00
7.094401472061872482e+01 -4.680364982038736343e+01 4.328827749472111464e+00
7.067509382218122482e+01 -4.580352775007486343e+01 4.342072378378361464e+00
1.963859479874372482e+01 -1.238568107038736343e+01 1.519150625448673964e+00
7.046757429093122482e+01 -4.405828849226236343e+01 4.385544668417423964e+00
1.973173444718122482e+01 -1.332000724226236343e+01 1.595780264120548964e+00
1.966923444718122482e+01 -1.305792228132486343e+01 1.599518667440861464e+00
1.960844343155622482e+01 -1.280072013288736343e+01 1.602692495565861464e+00
1.954838483780622482e+01 -1.254711905866861343e+01 1.605820547323673964e+00
1.947599714249372482e+01 -1.229003898054361343e+01 1.608063589315861464e+00
1.939604108780622482e+01 -1.203131095319986343e+01 1.609711538534611464e+00
1.931791608780622482e+01 -1.177850333601236343e+01 1.611344228964298964e+00
1.924174421280622482e+01 -1.153082267194986343e+01 1.612458120565861464e+00
1.969682233780622482e+01 -1.330493155866861343e+01 1.695130239706486464e+00
1.964775007218122482e+01 -1.305206290632486343e+01 1.698304067831486464e+00
1.959941022843122482e+01 -1.280322257429361343e+01 1.701432119589298964e+00
1.955168073624372482e+01 -1.255749503523111343e+01 1.704514394979923964e+00
1.949198835343122482e+01 -1.230828849226236343e+01 1.706681143026798964e+00
1.942265241593122482e+01 -1.205596915632486343e+01 1.708115469198673964e+00
1.935490339249372482e+01 -1.180908194929361343e+01 1.709534536581486464e+00
1.928837507218122482e+01 -1.156658927351236343e+01 1.710907827597111464e+00
1.967838972061872482e+01 -1.330114737898111343e+01 1.794831167440861464e+00
1.961918561905622482e+01 -1.304144278913736343e+01 1.796463857870548964e+00
1.956059186905622482e+01 -1.278601066023111343e+01 1.798569570761173964e+00
1.950358503311872482e+01 -1.253454581648111343e+01 1.800187002401798964e+00
1.944071882218122482e+01 -1.228369132429361343e+01 1.801255117636173964e+00
1.937138288468122482e+01 -1.203173819929361343e+01 1.801789175253361464e+00
1.930302350968122482e+01 -1.178478995710611343e+01 1.801743398886173964e+00
1.923637311905622482e+01 -1.154272452741861343e+01 1.802246938925236464e+00
7.228898542374372482e+01 -4.451275626569986343e+01 6.047150503378361464e+00
7.152348249405622482e+01 -4.324273673444986343e+01 6.006470571737736464e+00
7.134953229874372482e+01 -4.396319571882486343e+01 6.351349722128361464e+00
7.175370710343122482e+01 -4.341253653913736343e+01 6.402542959433048964e+00
7.217362897843122482e+01 -4.531780997663736343e+01 6.789414297323673964e+00
7.183647077530622482e+01 -4.429510489851236343e+01 6.774964224081486464e+00
7.278605573624372482e+01 -4.406951896101236343e+01 6.875229727011173964e+00
7.212882917374372482e+01 -4.450689689069986343e+01 7.183838735800236464e+00
7.311576765030622482e+01 -4.430047599226236343e+01 7.290833364706486464e+00
7.196964948624372482e+01 -4.525250235944986343e+01 7.539597402792423964e+00
7.260038679093122482e+01 -4.651507560163736343e+01 7.983170400839298964e+00
7.291667097061872482e+01 -4.588201896101236343e+01 8.026215444784611464e+00
7.274638288468122482e+01 -4.495184317976236343e+01 8.017884145956486464e+00
7.193437116593122482e+01 -4.611895743757486343e+01 8.300141226034611464e+00
7.230985944718122482e+01 -4.553082267194986343e+01 8.349335561972111464e+00
7.082487409561872482e+01 -4.375347892194986343e+01 4.322266470175236464e+00
6.915458600968122482e+01 -4.674493400007486343e+01 4.464234243612736464e+00
7.179728620499372482e+01 -4.685614005476236343e+01 4.676804434042423964e+00
1.952909772843122482e+01 -1.236224357038736343e+01 1.576035391073673964e+00
1.944767682999372482e+01 -1.209967032819986343e+01 1.578064810018986464e+00
1.936735456436872482e+01 -1.184130851179361343e+01 1.580078970175236464e+00
1.928898542374372482e+01 -1.158874503523111343e+01 1.582032095175236464e+00
1.921256940811872482e+01 -1.134124747663736343e+01 1.583481680136173964e+00
1.962443464249372482e+01 -1.308325187116861343e+01 1.661270986776798964e+00
1.957585065811872482e+01 -1.283166495710611343e+01 1.664811025839298964e+00
1.952812116593122482e+01 -1.258404532819986343e+01 1.668305288534611464e+00
1.946952741593122482e+01 -1.233221427351236343e+01 1.671006094198673964e+00
1.940006940811872482e+01 -1.207775870710611343e+01 1.672852407675236464e+00
1.933158796280622482e+01 -1.182702628523111343e+01 1.674668203573673964e+00
1.926457136124372482e+01 -1.158166495710611343e+01 1.676453481893986464e+00
1.919865339249372482e+01 -1.134057608991861343e+01 1.678208242636173964e+00
1.966129987686872482e+01 -1.311730948835611343e+01 1.764923940878361464e+00
1.960185163468122482e+01 -1.285778800398111343e+01 1.766922842245548964e+00
1.954301374405622482e+01 -1.260241691023111343e+01 1.769364248495548964e+00
1.947611921280622482e+01 -1.234484855085611343e+01 1.770630727987736464e+00
1.939750593155622482e+01 -1.208435050398111343e+01 1.770935903768986464e+00
1.932011335343122482e+01 -1.182794181257486343e+01 1.771241079550236464e+00
1.924491804093122482e+01 -1.157751456648111343e+01 1.771057974081486464e+00
1.917069929093122482e+01 -1.133148185163736343e+01 1.771347891073673964e+00
1.969364850968122482e+01 -1.314837638288736343e+01 1.869309316854923964e+00
1.964408796280622482e+01 -1.289489737898111343e+01 1.871186147909611464e+00
1.959538190811872482e+01 -1.264544669538736343e+01 1.873032461386173964e+00
7.138212507218122482e+01 -4.342376700788736343e+01 5.891465078573673964e+00
7.246000593155622482e+01 -4.327728263288736343e+01 5.995179067831486464e+00
7.260807722061872482e+01 -4.501898185163736343e+01 6.351426016073673964e+00
7.075785749405622482e+01 -4.307293692976236343e+01 6.217438589315861464e+00
7.185270612686872482e+01 -4.294366446882486343e+01 6.326249014120548964e+00
7.219352643936872482e+01 -4.561529532819986343e+01 6.686753164511173964e+00
7.186503522843122482e+01 -4.458807364851236343e+01 6.674836050253361464e+00
7.297538679093122482e+01 -4.445977775007486343e+01 6.789170156698673964e+00
7.184318464249372482e+01 -4.296856681257486343e+01 6.705963979940861464e+00
7.158988874405622482e+01 -4.444818107038736343e+01 7.032135854940861464e+00
7.331083600968122482e+01 -4.469659415632486343e+01 7.207459341268986464e+00
7.278520124405622482e+01 -4.440643302351236343e+01 7.546753774862736464e+00
7.254984968155622482e+01 -4.677374259382486343e+01 7.876389394979923964e+00
7.268168561905622482e+01 -4.519305411726236343e+01 7.911942373495548964e+00
7.218302839249372482e+01 -4.573846427351236343e+01 8.237137685995548964e+00
7.238639753311872482e+01 -4.590069571882486343e+01 8.650940786581486464e+00
1.943864362686872482e+01 -1.212951651960611343e+01 1.596405874472111464e+00
1.935807722061872482e+01 -1.186871329694986343e+01 1.598069082479923964e+00
1.927873151749372482e+01 -1.161212150007486343e+01 1.599701772909611464e+00
1.920121686905622482e+01 -1.136114493757486343e+01 1.601303945761173964e+00
1.912504499405622482e+01 -1.111486808210611343e+01 1.602875601034611464e+00
1.960734479874372482e+01 -1.289685050398111343e+01 1.687561880331486464e+00
1.955839460343122482e+01 -1.264526358991861343e+01 1.690720449667423964e+00
1.948991315811872482e+01 -1.238452140241861343e+01 1.693009268026798964e+00
1.943437116593122482e+01 -1.213507071882486343e+01 1.695542227011173964e+00
1.936466901749372482e+01 -1.188098136335611343e+01 1.696991811972111464e+00
1.929594343155622482e+01 -1.163055411726236343e+01 1.698410879354923964e+00
1.922807233780622482e+01 -1.138507071882486343e+01 1.699250112753361464e+00
1.916203229874372482e+01 -1.114428702741861343e+01 1.700623403768986464e+00
1.959306257218122482e+01 -1.289605704694986343e+01 1.788575063925236464e+00
1.953410261124372482e+01 -1.263787833601236343e+01 1.790207754354923964e+00
1.946977155655622482e+01 -1.237982169538736343e+01 1.791352163534611464e+00
1.939005964249372482e+01 -1.211499015241861343e+01 1.791291128378361464e+00
1.931254499405622482e+01 -1.185638419538736343e+01 1.791260610800236464e+00
1.924381940811872482e+01 -1.160644523054361343e+01 1.791794668417423964e+00
1.917655866593122482e+01 -1.136175528913736343e+01 1.792313467245548964e+00
1.911039655655622482e+01 -1.112133780866861343e+01 1.792832266073673964e+00
7.158708112686872482e+01 -4.300506583601236343e+01 6.027314077597111464e+00
7.527995222061872482e+01 -4.440093985944986343e+01 6.339234243612736464e+00
7.145512311905622482e+01 -4.375469962507486343e+01 6.379090200643986464e+00
7.143363874405622482e+01 -4.294293204694986343e+01 6.394776235800236464e+00
7.364994733780622482e+01 -4.346624747663736343e+01 6.599640737753361464e+00
7.112724225968122482e+01 -4.439044181257486343e+01 6.714051138143986464e+00
7.180290143936872482e+01 -4.399981681257486343e+01 6.790238271933048964e+00
7.208512800186872482e+01 -4.336700431257486343e+01 6.831192861776798964e+00
7.269096296280622482e+01 -4.457830802351236343e+01 7.256852041464298964e+00
7.183219831436872482e+01 -4.658441153913736343e+01 7.913559805136173964e+00
7.199479597061872482e+01 -4.588726798444986343e+01 8.331406484823673964e+00
7.247355573624372482e+01 -4.536370841413736343e+01 8.392563711386173964e+00
1.919816511124372482e+01 -1.142150870710611343e+01 1.797577749472111464e+00
1.913139265030622482e+01 -1.117755118757486343e+01 1.798401724081486464e+00
1.906571882218122482e+01 -1.093780509382486343e+01 1.799225698690861464e+00
7.103227155655622482e+01 -4.298797599226236343e+01 6.015564810018986464e+00
7.228275983780622482e+01 -4.294439689069986343e+01 6.135865102987736464e+00
7.505204694718122482e+01 -4.377130118757486343e+01 6.378327261190861464e+00
7.237614362686872482e+01 -4.547955314069986343e+01 6.470230947714298964e+00
7.122148054093122482e+01 -4.393939200788736343e+01 6.391831289511173964e+00
7.144865339249372482e+01 -4.327337638288736343e+01 6.430054556112736464e+00
7.221684186905622482e+01 -4.293658439069986343e+01 6.514206777792423964e+00
7.215019147843122482e+01 -4.536981192976236343e+01 6.838654409628361464e+00
7.179911725968122482e+01 -4.433038321882486343e+01 6.824341665487736464e+00
7.219706647843122482e+01 -4.376129142194986343e+01 6.877396475058048964e+00
7.170353620499372482e+01 -4.430328360944986343e+01 7.199219595175236464e+00
7.303959577530622482e+01 -4.430743400007486343e+01 7.342240225058048964e+00
7.173979108780622482e+01 -4.684039298444986343e+01 7.548615347128361464e+00
7.207157819718122482e+01 -4.538653556257486343e+01 7.609024893026798964e+00
7.209001081436872482e+01 -4.543145743757486343e+01 7.999268423300236464e+00
7.249699323624372482e+01 -4.486236564069986343e+01 8.053910146933048964e+00
7.222550886124372482e+01 -4.555084220319986343e+01 8.405304800253361464e+00
1.933634870499372482e+01 -1.173626700788736343e+01 1.711914907675236464e+00
1.926335065811872482e+01 -1.148150626569986343e+01 1.713028799276798964e+00
1.918632429093122482e+01 -1.122741691023111343e+01 1.713776479940861464e+00
1.911088483780622482e+01 -1.097875968366861343e+01 1.714508901815861464e+00
1.903691022843122482e+01 -1.073468009382486343e+01 1.715226064901798964e+00
1.950150983780622482e+01 -1.249804679304361343e+01 1.806076894979923964e+00
1.943229597061872482e+01 -1.223443595319986343e+01 1.806870352011173964e+00
1.936027448624372482e+01 -1.197296134382486343e+01 1.807373892050236464e+00
1.928947370499372482e+01 -1.171533194929361343e+01 1.807862173300236464e+00
1.922001569718122482e+01 -1.146313468366861343e+01 1.808335195761173964e+00
1.915165632218122482e+01 -1.121453849226236343e+01 1.808808218222111464e+00
1.908463972061872482e+01 -1.097106925398111343e+01 1.809265981893986464e+00
1.901884382218122482e+01 -1.073181144148111343e+01 1.809708486776798964e+00
7.248161237686872482e+01 -4.411187735944986343e+01 6.185135732870548964e+00
7.118217390030622482e+01 -4.251556388288736343e+01 6.100464712362736464e+00
7.532804792374372482e+01 -4.417327872663736343e+01 6.455216299276798964e+00
7.203861921280622482e+01 -4.468780509382486343e+01 6.515519033651798964e+00
7.325614850968122482e+01 -4.461871329694986343e+01 6.638016592245548964e+00
7.186381452530622482e+01 -4.295660392194986343e+01 6.536606680136173964e+00
7.144010847061872482e+01 -4.434588614851236343e+01 6.847519766073673964e+00
7.156767194718122482e+01 -4.445782462507486343e+01 7.245407949667423964e+00
7.282646100968122482e+01 -4.441949454694986343e+01 7.381104360800236464e+00
7.202482526749372482e+01 -4.643902579694986343e+01 7.651718984823673964e+00
7.263566511124372482e+01 -4.599444571882486343e+01 7.726303945761173964e+00
7.194450300186872482e+01 -4.642059317976236343e+01 8.036728750448673964e+00
7.210404890030622482e+01 -4.568853751569986343e+01 8.064286123495548964e+00
7.253007429093122482e+01 -4.512542716413736343e+01 8.120423208456486464e+00
7.185954206436872482e+01 -4.639886466413736343e+01 8.418640981893986464e+00
7.290299909561872482e+01 -4.306866446882486343e+01 6.328507314901798964e+00
7.213798444718122482e+01 -4.592388907819986343e+01 6.566910635214298964e+00
7.255046003311872482e+01 -4.535321036726236343e+01 6.623185049276798964e+00
7.328495710343122482e+01 -4.497772208601236343e+01 6.707459341268986464e+00
7.165251081436872482e+01 -4.315948478132486343e+01 6.586029897909611464e+00
7.246025007218122482e+01 -4.283770743757486343e+01 6.676453481893986464e+00
7.174723737686872482e+01 -4.488116446882486343e+01 6.940354238729923964e+00
7.172917097061872482e+01 -4.404888907819986343e+01 6.957108389120548964e+00
7.202152936905622482e+01 -4.341656485944986343e+01 7.002289663534611464e+00
7.281913679093122482e+01 -4.308441153913736343e+01 7.094300161581486464e+00
7.201103132218122482e+01 -4.591229239851236343e+01 7.338425527792423964e+00
7.258793561905622482e+01 -4.461456290632486343e+01 7.427872549276798964e+00
7.308708112686872482e+01 -4.409783927351236343e+01 7.493119131308048964e+00
7.183647077530622482e+01 -4.667266837507486343e+01 7.698624502401798964e+00
7.190580671280622482e+01 -4.587957755476236343e+01 7.718399893026798964e+00
7.257365339249372482e+01 -4.547161857038736343e+01 7.801712881308048964e+00
7.209831159561872482e+01 -4.603863517194986343e+01 8.131928335409611464e+00
1.891886823624372482e+01 -1.033392325788736343e+01 1.680039297323673964e+00
1.940421979874372482e+01 -1.210052482038736343e+01 1.768341909628361464e+00
1.932255475968122482e+01 -1.183056632429361343e+01 1.768891226034611464e+00
1.924235456436872482e+01 -1.156561271101236343e+01 1.769440542440861464e+00
1.916349714249372482e+01 -1.130462638288736343e+01 1.769989858847111464e+00
1.908622663468122482e+01 -1.104931632429361343e+01 1.770523916464298964e+00
1.901017682999372482e+01 -1.079779044538736343e+01 1.771042715292423964e+00
1.893571393936872482e+01 -1.055163566023111343e+01 1.771546255331486464e+00
1.886613386124372482e+01 -1.031182853132486343e+01 1.772324453573673964e+00
7.105729597061872482e+01 -4.300738517194986343e+01 5.966019521933048964e+00
7.100761335343122482e+01 -4.218011466413736343e+01 5.983948599081486464e+00
7.547672956436872482e+01 -4.401702872663736343e+01 6.361176382284611464e+00
7.131718366593122482e+01 -4.401043692976236343e+01 6.347473989706486464e+00
7.143815534561872482e+01 -4.327252189069986343e+01 6.378022085409611464e+00
7.195414655655622482e+01 -4.444049064069986343e+01 6.788056265097111464e+00
7.222709577530622482e+01 -4.378765860944986343e+01 6.831147085409611464e+00
7.179911725968122482e+01 -4.271893302351236343e+01 6.811051260214298964e+00
7.198673932999372482e+01 -4.449444571882486343e+01 7.180664907675236464e+00
7.249406354874372482e+01 -4.651837150007486343e+01 7.591721426229923964e+00
7.207890241593122482e+01 -4.541314689069986343e+01 7.563095937948673964e+00
7.210624616593122482e+01 -4.546490470319986343e+01 7.958939443808048964e+00
7.248063581436872482e+01 -4.487005607038736343e+01 8.011460195761173964e+00
7.191337507218122482e+01 -4.621197501569986343e+01 8.320023428183048964e+00
7.223307722061872482e+01 -4.557989493757486343e+01 8.364457021933048964e+00
7.264091413468122482e+01 -4.500408927351236343e+01 8.420792471151798964e+00
6.952714460343122482e+01 -3.912762442976236343e+01 4.673661123495548964e+00
7.039494245499372482e+01 -3.885894767194986343e+01 4.755234609823673964e+00
1.933720319718122482e+01 -1.187060538679361343e+01 1.619751821737736464e+00
1.925358503311872482e+01 -1.160076896101236343e+01 1.621704946737736464e+00
1.917143171280622482e+01 -1.133593741804361343e+01 1.623627554159611464e+00
1.909062116593122482e+01 -1.107513419538736343e+01 1.625504385214298964e+00
1.901176374405622482e+01 -1.082012931257486343e+01 1.627365957479923964e+00
1.894560163468122482e+01 -1.057562247663736343e+01 1.629990469198673964e+00
1.888090436905622482e+01 -1.033599845319986343e+01 1.632538686972111464e+00
1.881718366593122482e+01 -1.010034171491861343e+01 1.635056387167423964e+00
1.938151472061872482e+01 -1.190795890241861343e+01 1.725190054159611464e+00
1.929948347061872482e+01 -1.163842765241861343e+01 1.726334463339298964e+00
1.921903913468122482e+01 -1.137390128523111343e+01 1.727433096151798964e+00
1.913969343155622482e+01 -1.111334220319986343e+01 1.728531728964298964e+00
1.906217878311872482e+01 -1.085833732038736343e+01 1.729599844198673964e+00
1.898576276749372482e+01 -1.060711661726236343e+01 1.730652700643986464e+00
1.891093366593122482e+01 -1.036114493757486343e+01 1.731675039511173964e+00
1.883744733780622482e+01 -1.011956778913736343e+01 1.732697378378361464e+00
1.935966413468122482e+01 -1.190319816023111343e+01 1.826767812948673964e+00
1.928764265030622482e+01 -1.164001456648111343e+01 1.827683340292423964e+00
1.921684186905622482e+01 -1.138140860944986343e+01 1.828598867636173964e+00
1.914713972061872482e+01 -1.112640372663736343e+01 1.829499136190861464e+00
1.907878034561872482e+01 -1.087658683210611343e+01 1.830368887167423964e+00
1.901139753311872482e+01 -1.063024894148111343e+01 1.831238638143986464e+00
1.894535749405622482e+01 -1.038885489851236343e+01 1.832093130331486464e+00
1.888041608780622482e+01 -1.015148917585611343e+01 1.832917104940861464e+00
7.159074323624372482e+01 -4.361785880476236343e+01 6.223587881308048964e+00
7.119743268936872482e+01 -4.256915275007486343e+01 6.213166128378361464e+00
7.310099714249372482e+01 -4.290118400007486343e+01 6.391938101034611464e+00
7.153434675186872482e+01 -4.443316642194986343e+01 6.585007559042423964e+00
7.189689557999372482e+01 -4.383978263288736343e+01 6.634812246542423964e+00
7.194547956436872482e+01 -4.305389396101236343e+01 6.659211050253361464e+00
7.123356550186872482e+01 -4.427838126569986343e+01 6.943619619589298964e+00
7.331034772843122482e+01 -4.474468985944986343e+01 7.154633413534611464e+00
7.278983991593122482e+01 -4.445806876569986343e+01 7.498047720175236464e+00
7.222221296280622482e+01 -4.580242911726236343e+01 7.804139028768986464e+00
7.267057722061872482e+01 -4.524993888288736343e+01 7.865265737753361464e+00
7.217973249405622482e+01 -4.581048575788736343e+01 8.194962393026798964e+00
7.241960065811872482e+01 -4.599932853132486343e+01 8.615891348104923964e+00
1.866325300186872482e+01 -9.660583414137363434e+00 1.611206899862736464e+00
1.925724714249372482e+01 -1.147180167585611343e+01 1.705735098104923964e+00
1.918559186905622482e+01 -1.121063224226236343e+01 1.707276235800236464e+00
1.910673444718122482e+01 -1.094885245710611343e+01 1.708207021933048964e+00
1.902836530655622482e+01 -1.069036857038736343e+01 1.709061514120548964e+00
1.895158307999372482e+01 -1.043743888288736343e+01 1.709900747518986464e+00
1.887589948624372482e+01 -1.018804923444986343e+01 1.710724722128361464e+00
1.880168073624372482e+01 -9.943847574293613434e+00 1.711533437948673964e+00
1.871928327530622482e+01 -9.698608316481113434e+00 1.711640249472111464e+00
1.921513288468122482e+01 -1.145440665632486343e+01 1.806076894979923964e+00
1.914347761124372482e+01 -1.119354239851236343e+01 1.806733022909611464e+00
1.907304304093122482e+01 -1.093707267194986343e+01 1.807358633261173964e+00
1.900358503311872482e+01 -1.068414298444986343e+01 1.807984243612736464e+00
1.893559186905622482e+01 -1.043627921491861343e+01 1.808594595175236464e+00
1.886845319718122482e+01 -1.019177237898111343e+01 1.809189687948673964e+00
1.880265729874372482e+01 -9.952087320387363434e+00 1.809784780722111464e+00
1.872843854874372482e+01 -9.711181558668613434e+00 1.809632192831486464e+00
7.095829694718122482e+01 -4.291448966413736343e+01 6.115677725058048964e+00
7.104240339249372482e+01 -4.216265860944986343e+01 6.143128286581486464e+00
7.520048444718122482e+01 -4.381524650007486343e+01 6.503632436972111464e+00
7.213163679093122482e+01 -4.448956290632486343e+01 6.582169424276798964e+00
7.216593854874372482e+01 -4.286968985944986343e+01 6.621384512167423964e+00
7.240861432999372482e+01 -4.469573966413736343e+01 6.998276602011173964e+00
7.294145124405622482e+01 -4.419451896101236343e+01 7.064728628378361464e+00
7.205949323624372482e+01 -4.451129142194986343e+01 7.358979116659611464e+00
7.284489362686872482e+01 -4.416839591413736343e+01 7.448868643026798964e+00
7.277201765030622482e+01 -4.499005118757486343e+01 7.823197256308048964e+00
7.255155866593122482e+01 -4.488592521101236343e+01 8.196778188925236464e+00
1.913712995499372482e+01 -9.215087808668613434e+00 2.390915762167423964e+00
1.868229597061872482e+01 -9.189269937574863434e+00 2.438874136190861464e+00
1.911979597061872482e+01 -9.214111246168613434e+00 2.491425405722111464e+00
1.866545026749372482e+01 -9.188293375074863434e+00 2.537522207479923964e+00
1.910258405655622482e+01 -9.213134683668613434e+00 2.591324697714298964e+00
1.864848249405622482e+01 -9.187377847731113434e+00 2.636093984823673964e+00
1.908512800186872482e+01 -9.212158121168613434e+00 2.691681753378361464e+00
1.863175886124372482e+01 -9.186401285231113434e+00 2.734055410604923964e+00
1.906779401749372482e+01 -9.211181558668613434e+00 2.791947256308048964e+00
1.876921003311872482e+01 -9.796325601637363434e+00 1.680924307089298964e+00
1.867521589249372482e+01 -9.533508218824863434e+00 1.681092153768986464e+00
1.858354108780622482e+01 -9.276550211012363434e+00 1.681260000448673964e+00
1.848576276749372482e+01 -9.019531168043613434e+00 1.680893789511173964e+00
1.839018171280622482e+01 -8.768249429762363434e+00 1.680542837362736464e+00
1.829643171280622482e+01 -8.521606363356113434e+00 1.680191885214298964e+00
1.886418073624372482e+01 -1.028704825788736343e+01 1.777924429159611464e+00
1.879472272843122482e+01 -1.003186026960611343e+01 1.779190908651798964e+00
1.872648542374372482e+01 -9.780761636793613434e+00 1.780442129354923964e+00
1.862943952530622482e+01 -9.516540445387363434e+00 1.779389272909611464e+00
1.853800886124372482e+01 -9.260131753981113434e+00 1.778641592245548964e+00
1.844804304093122482e+01 -9.007446207106113434e+00 1.777893911581486464e+00
1.835990827530622482e+01 -8.760253824293613434e+00 1.777176748495548964e+00
1.827336042374372482e+01 -8.517455972731113434e+00 1.776459585409611464e+00
1.873637311905622482e+01 -9.192443765699863434e+00 2.204605947714298964e+00
1.917838972061872482e+01 -9.217529214918613434e+00 2.252716909628361464e+00
1.871928327530622482e+01 -9.191467203199863434e+00 2.304566274862736464e+00
1.916081159561872482e+01 -9.216491617262363434e+00 2.354477773886173964e+00
1.844181745499372482e+01 -8.641540445387363434e+00 2.283600698690861464e+00
1.870243757218122482e+01 -9.190490640699863434e+00 2.403916250448673964e+00
1.914335554093122482e+01 -9.215515054762363434e+00 2.455613027792423964e+00
1.843888776749372482e+01 -8.647704996168613434e+00 2.382660757284611464e+00
1.868534772843122482e+01 -9.189514078199863434e+00 2.503708730917423964e+00
1.912577741593122482e+01 -9.214538492262363434e+00 2.557221304159611464e+00
1.843583600968122482e+01 -8.653869546949863434e+00 2.481263052206486464e+00
1.866837995499372482e+01 -9.188537515699863434e+00 2.603424917440861464e+00
1.910832136124372482e+01 -9.213500894606113434e+00 2.658738027792423964e+00
1.843290632218122482e+01 -8.660095132887363434e+00 2.580445181112736464e+00
1.865141218155622482e+01 -9.187621988356113434e+00 2.702530752401798964e+00
1.909086530655622482e+01 -9.212524332106113434e+00 2.759629141073673964e+00
1.842985456436872482e+01 -8.666320718824863434e+00 2.679688345175236464e+00
1.867838972061872482e+01 -9.189208902418613434e+00 2.499832998495548964e+00
1.912284772843122482e+01 -9.214477457106113434e+00 2.553833852987736464e+00
1.843693464249372482e+01 -8.651550211012363434e+00 2.478806387167423964e+00
1.851493757218122482e+01 -8.489623941481113434e+00 2.490891348104923964e+00
1.866117780655622482e+01 -9.188232339918613434e+00 2.600052725058048964e+00
1.910502546280622482e+01 -9.213439859449863434e+00 2.656418691854923964e+00
1.843388288468122482e+01 -8.657897867262363434e+00 2.579087148886173964e+00
1.851188581436872482e+01 -8.495849527418613434e+00 2.591156851034611464e+00
1.864396589249372482e+01 -9.187255777418613434e+00 2.700730215292423964e+00
1.908744733780622482e+01 -9.212402261793613434e+00 2.758362661581486464e+00
1.843095319718122482e+01 -8.664184488356113434e+00 2.678894888143986464e+00
1.850883405655622482e+01 -8.502136148512363434e+00 2.691468130331486464e+00
1.859489362686872482e+01 -8.323303140699863434e+00 2.511826406698673964e+00
1.865092390030622482e+01 -9.187744058668613434e+00 2.607865225058048964e+00
1.909599225968122482e+01 -9.213012613356113434e+00 2.664032827597111464e+00
1.843424909561872482e+01 -8.657287515699863434e+00 2.588471304159611464e+00
1.851298444718122482e+01 -8.493408121168613434e+00 2.600830923300236464e+00
1.859184186905622482e+01 -8.329650796949863434e+00 2.613190542440861464e+00
1.863346784561872482e+01 -9.186767496168613434e+00 2.709580312948673964e+00
1.907792585343122482e+01 -9.211975015699863434e+00 2.767578970175236464e+00
1.843107526749372482e+01 -8.663757242262363434e+00 2.689408193808048964e+00
1.850993268936872482e+01 -8.499816812574863434e+00 2.701752554159611464e+00
1.858879011124372482e+01 -8.336059488356113434e+00 2.714615713339298964e+00
1.861283796280622482e+01 -8.286010660231113434e+00 2.247681509237736464e+00
1.911930768936872482e+01 -9.214660562574863434e+00 2.392212759237736464e+00
1.844425886124372482e+01 -8.636291421949863434e+00 2.325592886190861464e+00
1.852677839249372482e+01 -8.464904703199863434e+00 2.339310537558048964e+00
1.860941999405622482e+01 -8.292968668043613434e+00 2.353073965292423964e+00
1.910002057999372482e+01 -9.213561929762363434e+00 2.499878774862736464e+00
1.844084089249372482e+01 -8.643432535231113434e+00 2.431610952597111464e+00
1.852336042374372482e+01 -8.471984781324863434e+00 2.445328603964298964e+00
1.860612409561872482e+01 -8.299987711012363434e+00 2.459092031698673964e+00
1.908061140030622482e+01 -9.212463296949863434e+00 2.608033071737736464e+00
1.843742292374372482e+01 -8.650512613356113434e+00 2.537705312948673964e+00
1.851994245499372482e+01 -8.479003824293613434e+00 2.551407705526798964e+00
1.860270612686872482e+01 -8.306945718824863434e+00 2.564606558065861464e+00
1.906120222061872482e+01 -9.211364664137363434e+00 2.716095815878361464e+00
1.843412702530622482e+01 -8.657592691481113434e+00 2.643280874472111464e+00
1.851652448624372482e+01 -8.486022867262363434e+00 2.656998525839298964e+00
1.859941022843122482e+01 -8.313903726637363434e+00 2.670746694784611464e+00
7.235152415931224823e+00 7.441650472581386566e+00 1.507889639120548964e+00
7.348311595618724823e+00 7.625915609300136566e+00 1.530457388143986464e+00
7.575606517493724823e+00 7.808227621018886566e+00 1.565369497518986464e+00
1.068571393936872482e+01 6.611023031175136566e+00 1.959900747518986464e+00
1.344169538468122482e+01 6.649292074143886566e+00 2.275666128378361464e+00
1.106718366593122482e+01 7.026306234300136566e+00 2.026215444784611464e+00
7.218184642493724823e+00 7.436157308518886566e+00 1.610779653768986464e+00
7.783614329993724823e+00 7.601989828050136566e+00 1.684281240683048964e+00
7.783736400306224823e+00 7.795227132737636566e+00 1.695511709433048964e+00
6.221602611243724823e+00 8.149780355393886566e+00 1.203263174276798964e+00
1.068424909561872482e+01 6.486572347581386566e+00 1.670121084433048964e+00
8.855269603431224823e+00 6.842346273362636566e+00 1.502152334433048964e+00
1.462895124405622482e+01 6.676757894456386566e+00 2.087250601034611464e+00
8.748824290931224823e+00 7.262939535081386566e+00 1.515290151815861464e+00
7.344893626868724823e+00 7.535888753831386566e+00 1.386322866659611464e+00
7.506636790931224823e+00 7.724182210862636566e+00 1.413758169393986464e+00
7.600508861243724823e+00 7.916381917893886566e+00 1.434449087362736464e+00
9.197798900306224823e+00 8.075805746018886566e+00 1.608078848104923964e+00
1.278776472061872482e+01 6.307067953050136566e+00 2.010590444784611464e+00
1.067240827530622482e+01 6.924377523362636566e+00 1.818116079550236464e+00
8.700606517493724823e+00 7.258545003831386566e+00 1.624344717245548964e+00
7.284346751868724823e+00 7.532165609300136566e+00 1.487549673300236464e+00
7.795943431556224823e+00 7.705993734300136566e+00 1.553116689901798964e+00
7.863448314368724823e+00 7.901489339768886566e+00 1.571534048300236464e+00
7.757125072181224823e+00 8.101989828050136566e+00 1.571534048300236464e+00
1.090092390030622482e+01 6.677490316331386566e+00 1.953278433065861464e+00
1.313236921280622482e+01 6.756408773362636566e+00 2.208313833456486464e+00
7.174239329993724823e+00 7.338012777268886566e+00 1.572449575643986464e+00
7.266036204993724823e+00 7.526428304612636566e+00 1.593460928183048964e+00
7.760054759681224823e+00 7.700744710862636566e+00 1.658844839315861464e+00
7.932906322181224823e+00 7.892639242112636566e+00 1.689164053183048964e+00
8.436568431556224823e+00 8.079528890550136566e+00 1.756928335409611464e+00
