1.662283492088317871e+01 -2.082361225038766861e+00 5.256621778011378865e-01
1.835714888572692871e+01 -2.400598529726266861e+00 6.069304883480128865e-01
2.096322798728942871e+01 -2.918909076601266861e+00 7.281768262386378865e-01
2.095578169822692871e+01 -2.701013568788766861e+00 7.325408399105128865e-01
2.094833540916442871e+01 -2.485193256288766861e+00 7.368590772152003865e-01
2.094516158103942871e+01 -2.271570209413766861e+00 7.413451611995753865e-01
2.093918013572692871e+01 -2.057703021913766861e+00 7.456939160823878865e-01
2.093332076072692871e+01 -1.845788959413766861e+00 7.500121533870753865e-01
1.946029829978942871e+01 -2.916101459413766861e+00 7.411620557308253865e-01
1.974374556541442871e+01 -2.794763568788766861e+00 7.593352735042628865e-01
2.496591353416442871e+01 -4.008508685976266861e+00 1.023739570379262886e+00
2.493704390525817871e+01 -3.742029193788766861e+00 1.027630561590200386e+00
2.490847945213317871e+01 -3.478479389101266861e+00 1.031491035223012886e+00
2.494619917869567871e+01 -3.232751850038766861e+00 1.038647407293325386e+00
2.505905318260192871e+01 -3.003747943788766861e+00 1.049008125066762886e+00
2.519766402244567871e+01 -2.780237201601266861e+00 1.061291450262075386e+00
3.072610640525817871e+01 -6.220544818788766861e+00 1.440167182683950386e+00
2.402469038963317871e+01 -4.006311420351266861e+00 1.082684272527700386e+00
3.083413863182067871e+01 -5.605798725038766861e+00 1.458615058660512886e+00
3.089553999900817871e+01 -5.300012592226266861e+00 1.468258613348012886e+00
3.110946822166442871e+01 -5.033777240663766861e+00 1.486233466863637886e+00
3.143466353416442871e+01 -4.791223529726266861e+00 1.510403388738637886e+00
3.176645064353942871e+01 -4.543909076601266861e+00 1.535061591863637886e+00
3.201907515525817871e+01 -4.275110248476266861e+00 1.555416816473012886e+00
3.714810347557067871e+01 -8.108728412538766861e+00 1.961529487371450386e+00
3.113644576072692871e+01 -6.018762592226266861e+00 1.613674873113637886e+00
4.155948042869567871e+01 -8.524621967226266861e+00 2.237301582098012886e+00
4.170254683494567871e+01 -8.125085834413766861e+00 2.253842109441762886e+00
4.191183638572692871e+01 -7.742761615663766861e+00 2.274304145574575386e+00
4.230398726463317871e+01 -7.402063373476266861e+00 2.305767768621450386e+00
4.331710982322692871e+01 -7.196130756288766861e+00 2.374645942449575386e+00
7.888327193260192871e+01 -1.951632118597626686e+01 4.808850044012075386e+00
7.638504195213317871e+01 -1.799862099066376686e+01 4.663281196355825386e+00
9.584732222557067871e+01 -2.025472450628876686e+01 5.962155097723012886e+00
8.961026167869567871e+01 -1.782064247503876686e+01 5.575405830144887886e+00
8.645395064353942871e+01 -1.619979286566376686e+01 5.386379951238637886e+00
8.072751021385192871e+01 -2.091439247503876686e+01 5.295010322332387886e+00
7.839639449119567871e+01 -1.939229774847626686e+01 5.148876899480825386e+00
7.612228560447692871e+01 -1.794002724066376686e+01 5.005795234441762886e+00
7.384774947166442871e+01 -1.653792763128876686e+01 4.861874336004262886e+00
7.160141158103942871e+01 -1.519808388128876686e+01 4.719006294012075386e+00
6.937234663963317871e+01 -1.391378212347626686e+01 4.576519721746450386e+00
6.716629195213317871e+01 -1.268319130316376686e+01 4.434857124090200386e+00
6.498062300682067871e+01 -1.150924110785126686e+01 4.293774360418325386e+00
9.625424361228942871e+01 -2.139303017035126686e+01 6.877468818426137886e+00
8.922195601463317871e+01 -1.869332313910126686e+01 6.371685737371450386e+00
8.602047896385192871e+01 -1.702376747503876686e+01 6.150189155340200386e+00
8.898410201072692871e+01 -1.865035438910126686e+01 6.774349921941762886e+00
8.711850142478942871e+01 -1.728939247503876686e+01 6.639889472723012886e+00
8.639480757713317871e+01 -1.622603798285126686e+01 6.595135444402700386e+00
8.853170943260192871e+01 -1.762789345160126686e+01 7.166607612371450386e+00
8.635891890525817871e+01 -1.623116493597626686e+01 6.998272651433950386e+00
8.652365279197692871e+01 -1.808626747503876686e+01 7.396054023504262886e+00
8.788650679588317871e+01 -1.749312782660126686e+01 7.527111762762075386e+00
8.621322798728942871e+01 -1.621224403753876686e+01 7.389431709051137886e+00
8.606967329978942871e+01 -1.799056435003876686e+01 7.760937446355825386e+00
8.647335982322692871e+01 -1.718136024847626686e+01 7.807965034246450386e+00
9.127951216697692871e+01 -1.733883095160126686e+01 8.268124336004262886e+00
9.063144087791442871e+01 -1.815291786566376686e+01 8.623654121160512886e+00
8.595370650291442871e+01 -1.618123817816376686e+01 8.173641914129262886e+00
8.595993208885192871e+01 -1.708980751410126686e+01 8.572079414129262886e+00
8.881179976463317871e+01 -1.682332802191376686e+01 8.872601264715200386e+00
6.302218794822692871e+01 -1.180990028753876686e+01 6.510708564519887886e+00
6.244168257713317871e+01 -1.102840614691376686e+01 6.454403632879262886e+00
1.085550093650817871e+01 3.635616265237331390e-01 1.278632879262886490e-03
1.086422896385192871e+01 4.663448296487331390e-01 4.360908269887886490e-03
1.086880660057067871e+01 5.697383843362331390e-01 7.107490301137886490e-03
1.087338423728942871e+01 6.731319390237331390e-01 9.869331121450386490e-03
1.088931441307067871e+01 7.739620171487331390e-01 1.281427741051288649e-02
1.090646529197692871e+01 8.745479546487331390e-01 1.578974127770038649e-02
1.092367720603942871e+01 9.755001030862331390e-01 1.878046393395038649e-02
1.093673872947692871e+01 1.076574321836233139e+00 2.142023444176288649e-02
1.176230025291442871e+01 1.648311577737331390e-01 6.911920905113788649e-02
1.178097701072692871e+01 2.750606499612331390e-01 7.236933112145038649e-02
1.180441451072692871e+01 3.841915093362331390e-01 7.600092291832538649e-02
1.182315230369567871e+01 4.946651421487331390e-01 7.926630377770038649e-02
1.183651900291442871e+01 6.057491265237331390e-01 8.239435553551288649e-02
1.184622359275817871e+01 7.173213921487331390e-01 8.541559576988788649e-02
1.186227583885192871e+01 8.280391655862331390e-01 8.833002448082538649e-02
1.188376021385192871e+01 9.375362358987331390e-01 9.165644049645038649e-02
1.286282515525817871e+01 -7.637977972626686096e-02 1.508147656917628865e-01
1.288675093650817871e+01 4.422568902373313904e-02 1.544768750667628865e-01
1.291067671775817871e+01 1.648311577737331390e-01 1.581389844417628865e-01
1.293472456932067871e+01 2.858028374612331390e-01 1.618316113948878865e-01
1.295865035057067871e+01 4.065303765237331390e-01 1.654937207698878865e-01
1.298257613182067871e+01 5.272579155862331390e-01 1.691558301448878865e-01
1.300662398338317871e+01 6.483516655862331390e-01 1.728484570980128865e-01
1.304483199119567871e+01 7.671260796487331390e-01 1.769225537777003865e-01
1.424502730369567871e+01 -3.792362250387668610e-01 2.515990674495753865e-01
1.428012251853942871e+01 -2.465457953512668610e-01 2.562987744808253865e-01
1.430710005760192871e+01 -1.121463812887668610e-01 2.604033887386378865e-01
1.433413863182067871e+01 2.286338433623313904e-02 2.645232617855128865e-01
1.436105513572692871e+01 1.575069390237331390e-01 2.686431348323878865e-01
1.438803267478942871e+01 2.921504937112331390e-01 2.727477490902003865e-01
1.441507124900817871e+01 4.272823296487331390e-01 2.768828809261378865e-01
1.443368697166442871e+01 5.631465874612331390e-01 2.803771436214503865e-01
1.581558394432067871e+01 -7.234745062887668610e-01 3.726470410823878865e-01
1.584066939353942871e+01 -5.724735297262668610e-01 3.770720899105128865e-01
1.586581587791442871e+01 -4.213504828512668610e-01 3.814818799495753865e-01
1.589908003807067871e+01 -2.713260687887668610e-01 3.862121045589503865e-01
1.594986128807067871e+01 -1.248416937887668610e-01 3.915831983089503865e-01
1.600967574119567871e+01 2.066611871123313904e-02 3.973205029964503865e-01
1.607144331932067871e+01 1.670284233987331390e-01 4.031493604183253865e-01
1.613333296775817871e+01 3.136348687112331390e-01 4.089934766292628865e-01
1.825955367088317871e+01 -1.258752826601266861e+00 5.442931592464503865e-01
1.830935835838317871e+01 -1.087366107851266861e+00 5.507171094417628865e-01
1.833841109275817871e+01 -9.114627875387668610e-01 5.558288037777003865e-01
1.832687544822692871e+01 -7.273807562887668610e-01 5.592620313167628865e-01
1.831546187400817871e+01 -5.448856391012668610e-01 5.626494824886378865e-01
1.830410933494567871e+01 -3.632450141012668610e-01 5.660369336605128865e-01
1.841281294822692871e+01 -2.005252875387668610e-01 5.745360791683253865e-01
1.854574751853942871e+01 -4.049110785126686096e-02 5.836608350277003865e-01
2.093258833885192871e+01 -1.844812396913766861e+00 7.499968945980128865e-01
2.092105269432067871e+01 -1.632776264101266861e+00 7.537963330745753865e-01
2.090951704978942871e+01 -1.421716693788766861e+00 7.575805127620753865e-01
2.091775679588317871e+01 -1.214563373476266861e+00 7.622802197933253865e-01
2.094449019432067871e+01 -1.012048725038766861e+00 7.678191602230128865e-01
2.097122359275817871e+01 -8.097782172262668610e-01 7.733428418636378865e-01
2.101834273338317871e+01 -6.100711859762668610e-01 7.798583447933253865e-01
2.106051802635192871e+01 -4.101200141012668610e-01 7.861297070980128865e-01
2.519772505760192871e+01 -2.779382709413766861e+00 1.061306709051137886e+00
2.529599165916442871e+01 -2.545618060976266861e+00 1.071362251043325386e+00
2.536026167869567871e+01 -2.304162982851266861e+00 1.080319160223012886e+00
2.546060347557067871e+01 -2.068078998476266861e+00 1.090542548894887886e+00
2.556106734275817871e+01 -1.831628803163766861e+00 1.100765937566762886e+00
2.565066695213317871e+01 -1.592370990663766861e+00 1.110470527410512886e+00
2.567581343650817871e+01 -1.341150287538766861e+00 1.116223090887075386e+00
2.668881392478942871e+01 -1.235681537538766861e+00 1.174160712957387886e+00
3.201858687400817871e+01 -4.273767475038766861e+00 1.555416816473012886e+00
3.206747603416442871e+01 -3.958703998476266861e+00 1.564327949285512886e+00
3.211636519432067871e+01 -3.643762592226266861e+00 1.573239082098012886e+00
3.223892378807067871e+01 -3.341638568788766861e+00 1.586300605535512886e+00
3.295071578025817871e+01 -3.143640521913766861e+00 1.632549995183950386e+00
3.699020552635192871e+01 -3.487146381288766861e+00 1.867123359441762886e+00
5.785873579978942871e+01 -6.382410053163766861e+00 3.057583564519887886e+00
9.219168257713317871e+01 -1.082515907660126686e+01 5.022228950262075386e+00
8.964920210838317871e+01 -1.688241005316376686e+01 5.173474067449575386e+00
9.390103316307067871e+01 -1.684212685003876686e+01 5.447247260808950386e+00
6.111953902244567871e+01 -9.387903217226266861e+00 3.477963203191762886e+00
6.638754439353942871e+01 -9.749597553163766861e+00 3.809658759832387886e+00
7.923288130760192871e+01 -1.134969520941376686e+01 4.605374091863637886e+00
6.511300826072692871e+01 -8.186853412538766861e+00 3.756283515691762886e+00
8.697140669822692871e+01 -1.095089149847626686e+01 5.109570258855825386e+00
5.761648726463317871e+01 -5.772424701601266861e+00 3.318875068426137886e+00
8.646035933494567871e+01 -1.619808388128876686e+01 5.386852973699575386e+00
8.675735640525817871e+01 -1.536702919378876686e+01 5.421719306707387886e+00
6.109811568260192871e+01 -9.392419818788766861e+00 3.761044257879262886e+00
6.650979781150817871e+01 -9.781824115663766861e+00 4.126431220769887886e+00
7.897207808494567871e+01 -1.131429481878876686e+01 4.956814521551137886e+00
6.503848433494567871e+01 -8.183069232851266861e+00 4.053066962957387886e+00
5.840554976463317871e+01 -6.483118060976266861e+00 3.626492255926137886e+00
5.755868697166442871e+01 -5.771203998476266861e+00 3.580624336004262886e+00
6.496536421775817871e+01 -1.150350380316376686e+01 4.292736762762075386e+00
6.282455611228942871e+01 -1.038790321722626686e+01 4.154293769598012886e+00
6.070266890525817871e+01 -9.322839740663766861e+00 4.016415351629262886e+00
5.861172652244567871e+01 -8.307825092226266861e+00 3.879956001043325386e+00
5.655807662010192871e+01 -7.346887592226266861e+00 3.745342963933950386e+00
5.453372359275817871e+01 -6.435266498476266861e+00 3.612057441473012886e+00
5.258438277244567871e+01 -5.577112201601266861e+00 3.483395332098012886e+00
5.067617964744567871e+01 -4.768640521913766861e+00 3.356915229558950386e+00
9.176663374900817871e+01 -1.549251747503876686e+01 6.618725532293325386e+00
6.675467085838317871e+01 -9.846399310976266861e+00 4.760754340887075386e+00
9.186233687400817871e+01 -1.362545204535126686e+01 6.655590766668325386e+00
7.781521773338317871e+01 -1.033846474066376686e+01 5.613949531316762886e+00
7.880301070213317871e+01 -9.701990131288766861e+00 5.702816718816762886e+00
8.639798140525817871e+01 -1.622347450628876686e+01 6.595410102605825386e+00
8.518148970603942871e+01 -1.507613563910126686e+01 6.512310737371450386e+00
8.943118453025817871e+01 -1.504220009222626686e+01 6.863003486394887886e+00
9.204727339744567871e+01 -1.461287880316376686e+01 7.084988349676137886e+00
7.823001265525817871e+01 -1.121480751410126686e+01 5.997143501043325386e+00
7.829947066307067871e+01 -1.043001747503876686e+01 6.014584296941762886e+00
6.757827925682067871e+01 -7.947717670351266861e+00 5.168179267644887886e+00
8.636221480369567871e+01 -1.622872352972626686e+01 6.998577827215200386e+00
6.352816939353942871e+01 -9.910120014101266861e+00 5.100277656316762886e+00
9.422232222557067871e+01 -1.503524208441376686e+01 7.696652168035512886e+00
7.807998824119567871e+01 -1.119881630316376686e+01 6.347286933660512886e+00
7.860598921775817871e+01 -1.049178505316376686e+01 6.403012031316762886e+00
6.765957808494567871e+01 -7.969202045351266861e+00 5.486874336004262886e+00
8.015811324119567871e+01 -9.124963764101266861e+00 6.559216254949575386e+00
8.621481490135192871e+01 -1.620943642035126686e+01 7.389584296941762886e+00
8.637362837791442871e+01 -1.535067177191376686e+01 7.415539497137075386e+00
8.933694624900817871e+01 -1.504928017035126686e+01 7.690716499090200386e+00
6.703091597557067871e+01 -9.242395404726266861e+00 5.726589912176137886e+00
8.681692671775817871e+01 -1.187972450628876686e+01 7.502224677801137886e+00
6.774313521385192871e+01 -7.991174701601266861e+00 5.808392280340200386e+00
8.008322310447692871e+01 -9.124109271913766861e+00 6.922604316473012886e+00
9.127615523338317871e+01 -1.733480263128876686e+01 8.267834419012075386e+00
6.490994429588317871e+01 -1.087056923285126686e+01 5.813412421941762886e+00
8.938601851463317871e+01 -1.507186317816376686e+01 8.112194770574575386e+00
8.634976363182067871e+01 -1.269368935003876686e+01 7.850170844793325386e+00
8.684445357322692871e+01 -1.189595985785126686e+01 7.907635444402700386e+00
6.783413863182067871e+01 -8.014368060976266861e+00 6.129910224676137886e+00
6.676010298728942871e+01 -7.170862201601266861e+00 6.038891547918325386e+00
8.595517134666442871e+01 -1.617843056097626686e+01 8.173809760808950386e+00
6.337228560447692871e+01 -1.055806923285126686e+01 5.966641181707387886e+00
9.016513228416442871e+01 -1.523995399847626686e+01 8.608395332098012886e+00
8.688644576072692871e+01 -1.191463661566376686e+01 8.317150825262075386e+00
6.791745162010192871e+01 -8.036340717226266861e+00 6.453396552801137886e+00
4.370395064353942871e+01 -3.778528217226266861e+00 4.066265815496450386e+00
8.882132124900817871e+01 -1.682222938910126686e+01 8.873593086004262886e+00
6.327597212791442871e+01 -1.054720497503876686e+01 6.253842109441762886e+00
8.844644331932067871e+01 -1.399788856878876686e+01 8.862484687566762886e+00
8.740262007713317871e+01 -1.112105751410126686e+01 8.785992377996450386e+00
4.300192427635192871e+01 -3.680505756288766861e+00 4.195080512762075386e+00
6.245126509666442871e+01 -1.102828407660126686e+01 6.455441230535512886e+00
8.823282027244567871e+01 -1.579171181097626686e+01 9.236172431707387886e+00
8.890213179588317871e+01 -1.501424599066376686e+01 9.317394965887075386e+00
8.780093550682067871e+01 -1.388851356878876686e+01 9.207775825262075386e+00
8.680038619041442871e+01 -1.192354774847626686e+01 9.117581123113637886e+00
6.428659224510192871e+01 -7.480432514101266861e+00 6.690777534246450386e+00
6.647079634666442871e+01 -7.153650287538766861e+00 6.935436958074575386e+00
1.093679976463317871e+01 1.076940532773733139e+00 2.143549323082538649e-02
1.095297408103942871e+01 1.177648540586233139e+00 2.431940436363788649e-02
1.096676802635192871e+01 1.278722759336233139e+00 2.691339850426288649e-02
1.098062300682067871e+01 1.380163189023733139e+00 2.952265143395038649e-02
1.099453902244567871e+01 1.481359478086233139e+00 3.213190436363788649e-02
1.100839400291442871e+01 1.582677837461233139e+00 3.474115729332538649e-02
1.102340865135192871e+01 1.684118267148733139e+00 3.736566901207538649e-02
1.113888716697692871e+01 1.777990337461233139e+00 4.189752936363788649e-02
1.188388228416442871e+01 9.379024468362331390e-01 9.165644049645038649e-02
1.189926314353942871e+01 1.048376079648733139e+00 9.452509284020038649e-02
1.192019820213317871e+01 1.158117290586233139e+00 9.779047369957538649e-02
1.193570113182067871e+01 1.269079204648733139e+00 1.006743848323878865e-01
1.195108199119567871e+01 1.379796978086233139e+00 1.035430371761378865e-01
1.196878218650817871e+01 1.490392681211233139e+00 1.064574658870753865e-01
1.198056197166442871e+01 1.601842876523733139e+00 1.089751660823878865e-01
1.203756880760192871e+01 1.709630962461233139e+00 1.129271924495753865e-01
1.304507613182067871e+01 7.674922905862331390e-01 1.769378125667628865e-01
1.308273482322692871e+01 8.867549858987331390e-01 1.807219922542628865e-01
1.312051558494567871e+01 1.006383892148733139e+00 1.845214307308253865e-01
1.315860152244567871e+01 1.126989360898733139e+00 1.883361279964503865e-01
1.319668745994567871e+01 1.247716899961233139e+00 1.921660840511378865e-01
1.323495650291442871e+01 1.368810649961233139e+00 1.960112988948878865e-01
1.333487105369567871e+01 1.485631939023733139e+00 2.017333447933253865e-01
1.345291304588317871e+01 1.602453228086233139e+00 2.080504834652003865e-01
1.443380904197692871e+01 5.636348687112331390e-01 2.803771436214503865e-01
1.447287154197692871e+01 6.968135796487331390e-01 2.849547803402003865e-01
1.458700728416442871e+01 8.210811577737331390e-01 2.917754590511378865e-01
1.470315718650817871e+01 9.475460015237331390e-01 2.987029492855128865e-01
1.482064986228942871e+01 1.075475689023733139e+00 3.057067334652003865e-01
1.493991255760192871e+01 1.205236431211233139e+00 3.128173291683253865e-01
1.506131148338317871e+01 1.337438579648733139e+00 3.200652539730128865e-01
1.518002486228942871e+01 1.471471782773733139e+00 3.269011914730128865e-01
1.613369917869567871e+01 3.140010796487331390e-01 4.090087354183253865e-01
1.618515181541442871e+01 4.628047905862331390e-01 4.141967236995753865e-01
1.617788863182067871e+01 6.196651421487331390e-01 4.171264111995753865e-01
1.628219771385192871e+01 7.637081108987331390e-01 4.243895947933253865e-01
1.646335005760192871e+01 9.009151421487331390e-01 4.346892774105128865e-01
1.664846968650817871e+01 1.040929790586233139e+00 4.452178418636378865e-01
1.683822798728942871e+01 1.184606548398733139e+00 4.560058057308253865e-01
1.719479537010192871e+01 1.318639751523733139e+00 4.734771192073878865e-01
1.854684615135192871e+01 -4.000282660126686096e-02 5.837218701839503865e-01
1.877975630760192871e+01 1.086788140237331390e-01 5.978362500667628865e-01
1.901010298728942871e+01 2.619991265237331390e-01 6.114776074886378865e-01
1.916250777244567871e+01 4.292354546487331390e-01 6.218230664730128865e-01
1.931656050682067871e+01 5.983028374612331390e-01 6.322905957698878865e-01
1.956375288963317871e+01 7.612667046487331390e-01 6.468932569027003865e-01
1.995913863182067871e+01 9.167842827737331390e-01 6.681487500667628865e-01
2.061844038963317871e+01 1.059240337461233139e+00 7.007720410823878865e-01
2.106070113182067871e+01 -4.095096625387668610e-01 7.861449658870753865e-01
2.138064742088317871e+01 -2.470340766012668610e-01 8.054625928402003865e-01
2.189718794822692871e+01 -1.033573187887668610e-01 8.343322217464503865e-01
2.264108443260192871e+01 2.493857964873313904e-02 8.743712842464503865e-01
2.385806441307067871e+01 1.169795952737331390e-01 9.375731885433253865e-01
2.467581343650817871e+01 2.711543999612331390e-01 9.818389356136378865e-01
2.576400923728942871e+01 4.191036187112331390e-01 1.039639228582387886e+00
2.722281050682067871e+01 5.596065483987331390e-01 1.115978950262075386e+00
2.670425581932067871e+01 -1.237024310976266861e+00 1.174984687566762886e+00
2.855417037010192871e+01 -1.225305560976266861e+00 1.276989692449575386e+00
2.957229781150817871e+01 -1.072107318788766861e+00 1.336651557683950386e+00
3.208859419822692871e+01 -1.071130756288766861e+00 1.475170844793325386e+00
3.590786910057067871e+01 -1.158655170351266861e+00 1.683727973699575386e+00
4.230130171775817871e+01 -1.415857318788766861e+00 2.030743354558950386e+00
4.223056197166442871e+01 -9.911747016012668610e-01 2.033932441473012886e+00
3.822805953025817871e+01 -2.735233344137668610e-01 1.827389472723012886e+00
5.885183882713317871e+01 -5.943933490663766861e+00 3.125195258855825386e+00
5.586453413963317871e+01 -4.947107318788766861e+00 2.965603584051137886e+00
5.527981734275817871e+01 -4.314783100038766861e+00 2.942471259832387886e+00
5.565182662010192871e+01 -3.804529193788766861e+00 2.974117988348012886e+00
5.966275191307067871e+01 -3.674768451601266861e+00 3.215649360418325386e+00
4.228683638572692871e+01 -1.419153217226266861e+00 2.221615546941762886e+00
4.235330367088317871e+01 -1.006189350038766861e+00 2.233242744207387886e+00
4.228347945213317871e+01 -5.839481391012668610e-01 2.236904853582387886e+00
5.761660933494567871e+01 -5.770471576601266861e+00 3.318920844793325386e+00
5.695810103416442871e+01 -5.102869037538766861e+00 3.288693183660512886e+00
5.510141158103942871e+01 -4.298913959413766861e+00 3.184033149480825386e+00
4.244778609275817871e+01 -2.279748920351266861e+00 2.408230537176137886e+00
5.957986617088317871e+01 -3.672693256288766861e+00 3.482815498113637886e+00
4.227231001853942871e+01 -1.422327045351266861e+00 2.412441962957387886e+00
4.237503218650817871e+01 -1.012537006288766861e+00 2.426434272527700386e+00
3.766238570213317871e+01 -2.386112250387668610e-01 2.137905830144887886e+00
5.755887007713317871e+01 -5.769250873476266861e+00 3.580670112371450386e+00
5.906015181541442871e+01 -5.396692279726266861e+00 3.690487617254262886e+00
4.225131392478942871e+01 -2.683191303163766861e+00 2.581784003973012886e+00
4.242678999900817871e+01 -2.282312396913766861e+00 2.600888007879262886e+00
5.716543745994567871e+01 -3.423547748476266861e+00 3.594769233465200386e+00
4.225778365135192871e+01 -1.425622943788766861e+00 2.604290717840200386e+00
4.210409712791442871e+01 -9.937381781637668610e-01 2.601299995183950386e+00
4.058303999900817871e+01 -4.638309516012668610e-01 2.505963081121450386e+00
5.066336226463317871e+01 -4.764978412538766861e+00 3.356030219793325386e+00
4.198581099510192871e+01 -3.072839740663766861e+00 2.748181098699575386e+00
4.695181441307067871e+01 -3.282190326601266861e+00 3.108990424871450386e+00
4.235482954978942871e+01 -2.278772357851266861e+00 2.788784736394887886e+00
4.349020552635192871e+01 -1.979211810976266861e+00 2.877209419012075386e+00
4.186880660057067871e+01 -1.392786029726266861e+00 2.768231147527700386e+00
4.025473189353942871e+01 -8.393192328512668610e-01 2.659252876043325386e+00
3.872299361228942871e+01 -3.268680609762668610e-01 2.555599921941762886e+00
4.221200728416442871e+01 -2.688318256288766861e+00 2.963787788152700386e+00
4.242007613182067871e+01 -2.291345600038766861e+00 2.986584419012075386e+00
4.281491255760192871e+01 -1.912317279726266861e+00 3.023632758855825386e+00
4.246927046775817871e+01 -1.455163959413766861e+00 3.004254096746450386e+00
5.758444380760192871e+01 -2.334436420351266861e+00 4.169430488348012886e+00
5.835183882713317871e+01 -1.822229389101266861e+00 4.237759345769887886e+00
5.819107222557067871e+01 -5.299524310976266861e+00 4.434841865301137886e+00
4.221512007713317871e+01 -2.693689350038766861e+00 3.157574409246450386e+00
4.229886031150817871e+01 -2.282190326601266861e+00 3.171078437566762886e+00
5.742410445213317871e+01 -3.470544818788766861e+00 4.400860542058950386e+00
5.798007369041442871e+01 -2.952478412538766861e+00 4.455075019598012886e+00
4.434170699119567871e+01 -1.199914935976266861e+00 3.357113593816762886e+00
4.098117232322692871e+01 -5.066776312887668610e-01 3.090771430730825386e+00
8.015835738182067871e+01 -9.122278217226266861e+00 6.559277290105825386e+00
4.270889449119567871e+01 -2.761316303163766861e+00 3.392254585027700386e+00
4.228360152244567871e+01 -2.285242084413766861e+00 3.362591499090200386e+00
4.277780318260192871e+01 -1.918054584413766861e+00 3.411373847723012886e+00
4.314230513572692871e+01 -1.529260639101266861e+00 3.449185127019887886e+00
4.275631880760192871e+01 -1.067956928163766861e+00 3.422711127996450386e+00
4.310855269432067871e+01 -6.729373969137668610e-01 3.460598701238637886e+00
8.008572554588317871e+01 -9.121789935976266861e+00 6.922863715887075386e+00
8.040268111228942871e+01 -8.357385639101266861e+00 6.963452094793325386e+00
8.019229292869567871e+01 -7.521448139101266861e+00 6.956722968816762886e+00
4.249698042869567871e+01 -2.315027240663766861e+00 3.575695747137075386e+00
4.230911421775817871e+01 -1.873010639101266861e+00 3.565090888738637886e+00
4.315060591697692871e+01 -1.534875873476266861e+00 3.647396796941762886e+00
4.243875288963317871e+01 -1.045129779726266861e+00 3.589443916082387886e+00
4.324984908103942871e+01 -6.881961859762668610e-01 3.669247382879262886e+00
6.676535201072692871e+01 -7.169397357851266861e+00 6.039425605535512886e+00
4.410409712791442871e+01 -3.389123920351266861e+00 3.908978217840200386e+00
5.808322310447692871e+01 -4.723718646913766861e+00 5.236675971746450386e+00
5.721579146385192871e+01 -4.039148334413766861e+00 5.163037055730825386e+00
4.291592574119567871e+01 -1.942468646913766861e+00 3.815502876043325386e+00
4.315286421775817871e+01 -1.539758685976266861e+00 3.844204658269887886e+00
4.214224410057067871e+01 -1.024011615663766861e+00 3.754315131902700386e+00
4.172451949119567871e+01 -5.761356391012668610e-01 3.721585029363637886e+00
4.370291304588317871e+01 -3.776941303163766861e+00 4.066189521551137886e+00
4.326852583885192871e+01 -3.279870990663766861e+00 4.029293769598012886e+00
4.356698775291442871e+01 -2.885705951601266861e+00 4.064968818426137886e+00
5.837539839744567871e+01 -4.181360248476266861e+00 5.542217963933950386e+00
4.432754683494567871e+01 -2.098108295351266861e+00 4.152828925848012886e+00
5.819326949119567871e+01 -2.998743060976266861e+00 5.540432685613637886e+00
4.228933882713317871e+01 -1.041223529726266861e+00 3.961819404363637886e+00
4.167013716697692871e+01 -5.763797797262668610e-01 3.905819648504262886e+00
4.300540328025817871e+01 -3.679529193788766861e+00 4.195461982488637886e+00
4.360849165916442871e+01 -3.331872943788766861e+00 4.263851875066762886e+00
6.127939009666442871e+01 -5.144250873476266861e+00 6.104046577215200386e+00
4.376724410057067871e+01 -2.478601459413766861e+00 4.291088813543325386e+00
7.857498335838317871e+01 -5.764245990663766861e+00 7.921810859441762886e+00
5.823788619041442871e+01 -3.009485248476266861e+00 5.811794990301137886e+00
4.301089644432067871e+01 -1.108362201601266861e+00 4.230816596746450386e+00
4.334835982322692871e+01 -7.091922797262668610e-01 4.271862739324575386e+00
6.647183394432067871e+01 -7.151453021913766861e+00 6.935574287176137886e+00
4.350772261619567871e+01 -3.323328021913766861e+00 4.452862495183950386e+00
4.349496626853942871e+01 -2.886926654726266861e+00 4.457150214910512886e+00
4.371902632713317871e+01 -2.477991107851266861e+00 4.487164252996450386e+00
4.404794478416442871e+01 -2.078210834413766861e+00 4.528622382879262886e+00
4.320773482322692871e+01 -7.029666937887668610e-01 4.454983466863637886e+00
1.113992476463317871e+01 1.778234478086233139e+00 4.191278815270038649e-02
1.126132369041442871e+01 1.873815532773733139e+00 4.681085944176288649e-02
1.138089156150817871e+01 1.971837993711233139e+00 5.144953131676288649e-02
1.150363326072692871e+01 2.072301860898733139e+00 5.621027350426288649e-02
1.162869429588317871e+01 2.174840923398733139e+00 6.104730963707538649e-02
1.175656294822692871e+01 2.279577251523733139e+00 6.600641608238788649e-02
1.188784956932067871e+01 2.387243267148733139e+00 7.110285162926288649e-02
1.202707076072692871e+01 2.496862407773733139e+00 7.613825201988788649e-02
1.203903365135192871e+01 1.709875103086233139e+00 1.129729688167628865e-01
1.219998335838317871e+01 1.811925884336233139e+00 1.193511426448878865e-01
1.237185835838317871e+01 1.916418071836233139e+00 1.263549268245753865e-01
1.254287886619567871e+01 2.024816509336233139e+00 1.331298291683253865e-01
1.271841597557067871e+01 2.135900493711233139e+00 1.400878369808253865e-01
1.289908003807067871e+01 2.250280376523733139e+00 1.472442090511378865e-01
1.307864546775817871e+01 2.368566509336233139e+00 1.541564404964503865e-01
1.326999068260192871e+01 2.489904399961233139e+00 1.617400586605128865e-01
1.345382857322692871e+01 1.602819439023733139e+00 2.080962598323878865e-01
1.360092329978942871e+01 1.719884868711233139e+00 2.150390088558253865e-01
1.382882857322692871e+01 1.835363384336233139e+00 2.245299756527003865e-01
1.404416060447692871e+01 1.956212993711233139e+00 2.337310254573878865e-01
1.424002242088317871e+01 2.081701274961233139e+00 2.423980176448878865e-01
1.444479537010192871e+01 2.210607524961233139e+00 2.514159619808253865e-01
1.474002242088317871e+01 2.342687603086233139e+00 2.633788526058253865e-01
1.501602339744567871e+01 2.480138774961233139e+00 2.748382031917628865e-01
1.518191695213317871e+01 1.471837993711233139e+00 3.269774854183253865e-01
1.545266890525817871e+01 1.598180767148733139e+00 3.396270215511378865e-01
1.571994185447692871e+01 1.730016704648733139e+00 3.519103467464503865e-01
1.598306441307067871e+01 1.867834087461233139e+00 3.641478955745753865e-01
1.616415572166442871e+01 2.013097759336233139e+00 3.735320508480128865e-01
1.634945845603942871e+01 2.161657329648733139e+00 3.831298291683253865e-01
1.666793990135192871e+01 2.312414165586233139e+00 3.976256787777003865e-01
1.711288619041442871e+01 2.468297954648733139e+00 4.164702832698878865e-01
1.719906783103942871e+01 1.318883892148733139e+00 4.736602246761378865e-01
1.784475874900817871e+01 1.440954204648733139e+00 5.025451123714503865e-01
1.835263228416442871e+01 1.583532329648733139e+00 5.261199414730128865e-01
1.885232710838317871e+01 1.736974712461233139e+00 5.495727002620753865e-01
1.932742476463317871e+01 1.900671001523733139e+00 5.722167432308253865e-01
1.978323531150817871e+01 2.074010845273733139e+00 5.942351758480128865e-01
2.037381148338317871e+01 2.255041118711233139e+00 6.219451367855128865e-01
2.135812544822692871e+01 2.444982524961233139e+00 6.660277783870753865e-01
2.062429976463317871e+01 1.059484478086233139e+00 7.010466992855128865e-01
2.136654829978942871e+01 1.209630962461233139e+00 7.383086621761378865e-01
2.225283980369567871e+01 1.366491314023733139e+00 7.817962110042628865e-01
2.338546919822692871e+01 1.530553814023733139e+00 8.366973340511378865e-01
2.421292281150817871e+01 1.726964946836233139e+00 8.782317578792628865e-01
2.496188521385192871e+01 1.941808696836233139e+00 9.165160596370753865e-01
2.639303755760192871e+01 2.161779399961233139e+00 9.861266553402003865e-01
3.842465376853942871e+01 2.353673931211233139e+00 1.539517158269887886e+00
2.723208785057067871e+01 5.598506890237331390e-01 1.116451972723012886e+00
2.908987593650817871e+01 7.031612358987331390e-01 1.212658637762075386e+00
3.179232954978942871e+01 8.368282280862331390e-01 1.351238960027700386e+00
4.386795210838317871e+01 6.011104546487331390e-01 1.955090278387075386e+00
4.461758589744567871e+01 1.004919048398733139e+00 2.000286811590200386e+00
3.931491255760192871e+01 1.576452251523733139e+00 1.743756049871450386e+00
3.114578413963317871e+01 2.086950298398733139e+00 1.341717475652700386e+00
3.822488570213317871e+01 2.351598735898733139e+00 1.703152412176137886e+00
3.822952437400817871e+01 -2.723026312887668610e-01 1.827496284246450386e+00
4.254574751853942871e+01 -1.796512641012668610e-01 2.066403144598012886e+00
3.893490767478942871e+01 4.381465874612331390e-01 1.880169624090200386e+00
4.311557173728942871e+01 6.311397515237331390e-01 2.113568061590200386e+00
4.378799605369567871e+01 1.030187603086233139e+00 2.157818549871450386e+00
3.929507613182067871e+01 1.573522564023733139e+00 1.920696967840200386e+00
3.113528609275817871e+01 2.084508892148733139e+00 1.480618232488637886e+00
5.014450240135192871e+01 2.283971782773733139e+00 2.529003852605825386e+00
4.228305220603942871e+01 -5.823612250387668610e-01 2.236904853582387886e+00
3.800271773338317871e+01 1.135616265237331390e-01 1.994473212957387886e+00
4.113015913963317871e+01 3.125362358987331390e-01 2.184399360418325386e+00
4.391623091697692871e+01 5.907344780862331390e-01 2.355419868230825386e+00
3.675937056541442871e+01 1.275548931211233139e+00 1.941387885808950386e+00
3.626431441307067871e+01 1.647253032773733139e+00 1.918606513738637886e+00
3.112472701072692871e+01 2.081945415586233139e+00 1.620251411199575386e+00
4.973715376853942871e+01 2.282140728086233139e+00 2.732800239324575386e+00
3.766488814353942871e+01 -2.375125922262668610e-01 2.138088935613637886e+00
3.801004195213317871e+01 1.092891655862331390e-01 2.166439765691762886e+00
4.105710005760192871e+01 3.126583062112331390e-01 2.365643256902700386e+00
3.792355513572692871e+01 8.595333062112331390e-01 2.174313300848012886e+00
3.970065474510192871e+01 1.167638774961233139e+00 2.293881171941762886e+00
3.623849654197692871e+01 1.644811626523733139e+00 2.080227607488637886e+00
3.111422896385192871e+01 2.079504009336233139e+00 1.759136909246450386e+00
3.632095503807067871e+01 2.352941509336233139e+00 2.098187202215200386e+00
4.058267378807067871e+01 -4.623661078512668610e-01 2.505963081121450386e+00
3.801748824119567871e+01 1.050167046487331390e-01 2.339520210027700386e+00
3.587985396385192871e+01 5.969600640237331390e-01 2.201153510808950386e+00
3.450314497947692871e+01 1.012121196836233139e+00 2.113781684637075386e+00
3.316256880760192871e+01 1.397130962461233139e+00 2.028362983465200386e+00
3.191079878807067871e+01 1.752599712461233139e+00 1.948528999090200386e+00
3.072268843650817871e+01 2.083044048398733139e+00 1.872631782293325386e+00
2.957797408103942871e+01 2.388097759336233139e+00 1.799267524480825386e+00
3.871243453025817871e+01 -3.246707953512668610e-01 2.554852241277700386e+00
3.724362349510192871e+01 1.521358452737331390e-01 2.455395454168325386e+00
3.581497359275817871e+01 5.970821343362331390e-01 2.358319038152700386e+00
3.446493697166442871e+01 1.010656353086233139e+00 2.266461127996450386e+00
3.314743208885192871e+01 1.394567485898733139e+00 2.176480048894887886e+00
3.191769576072692871e+01 1.749670024961233139e+00 2.092419379949575386e+00
3.075052046775817871e+01 2.079992290586233139e+00 2.012539619207387886e+00
2.962405562400817871e+01 2.385412212461233139e+00 1.935192817449575386e+00
5.834951949119567871e+01 -1.820032123476266861e+00 4.237606757879262886e+00
3.801144576072692871e+01 9.781455621123313904e-02 2.683666938543325386e+00
3.825802779197692871e+01 4.570674858987331390e-01 2.708218330144887886e+00
3.660263228416442871e+01 9.094600640237331390e-01 2.586910957098012886e+00
3.670364546775817871e+01 1.264196392148733139e+00 2.600949043035512886e+00
3.700796675682067871e+01 1.615392681211233139e+00 2.630779975652700386e+00
4.103238081932067871e+01 1.914831157773733139e+00 2.950955146551137886e+00
3.767361617088317871e+01 2.336095806211233139e+00 2.696133369207387886e+00
4.097940230369567871e+01 -5.050907172262668610e-01 3.090664619207387886e+00
3.852108931541442871e+01 6.033897027373313904e-02 2.897183173894887886e+00
3.690670943260192871e+01 5.290889702737331390e-01 2.771801704168325386e+00
3.841543745994567871e+01 8.227901421487331390e-01 2.901531928777700386e+00
3.649551558494567871e+01 1.268346782773733139e+00 2.750500434637075386e+00
4.957632613182067871e+01 1.286291118711233139e+00 3.831967109441762886e+00
4.226956343650817871e+01 1.891637798398733139e+00 3.238445991277700386e+00
3.834085249900817871e+01 2.329015728086233139e+00 2.921246284246450386e+00
4.310891890525817871e+01 -6.714725531637668610e-01 3.460659736394887886e+00
3.808346724510192871e+01 8.548545464873313904e-02 3.033932441473012886e+00
3.846951460838317871e+01 4.377803765237331390e-01 3.073590034246450386e+00
3.673544478416442871e+01 8.965206108987331390e-01 2.930065864324575386e+00
3.706546187400817871e+01 1.244421001523733139e+00 2.964779609441762886e+00
3.871084761619567871e+01 1.564611431211233139e+00 3.113796943426137886e+00
3.720041060447692871e+01 1.969030376523733139e+00 2.988857978582387886e+00
3.719699263572692871e+01 2.332799907773733139e+00 2.995632880926137886e+00
4.325113081932067871e+01 -6.868534125387668610e-01 3.669384711980825386e+00
3.817636275291442871e+01 7.547568902373313904e-02 3.215801948308950386e+00
3.760330367088317871e+01 4.827022515237331390e-01 3.169979804754262886e+00
3.730325484275817871e+01 8.668575249612331390e-01 3.148846381902700386e+00
3.653939986228942871e+01 1.260046001523733139e+00 3.085263007879262886e+00
3.670327925682067871e+01 1.613561626523733139e+00 3.106259101629262886e+00
3.725924849510192871e+01 1.965002056211233139e+00 3.163265937566762886e+00
3.660238814353942871e+01 2.333410259336233139e+00 3.109081977605825386e+00
4.172671675682067871e+01 -5.749149359762668610e-01 3.721813911199575386e+00
3.820169234275817871e+01 6.998252496123313904e-02 3.391262763738637886e+00
3.822024703025817871e+01 4.443721733987331390e-01 3.399288886785512886e+00
3.824264693260192871e+01 8.198604546487331390e-01 3.407696479558950386e+00
3.869839644432067871e+01 1.178625103086233139e+00 3.457638496160512886e+00
3.662985396385192871e+01 1.612218853086233139e+00 3.265194648504262886e+00
3.721634078025817871e+01 1.962560649961233139e+00 3.327618354558950386e+00
3.780990767478942871e+01 2.322912212461233139e+00 3.391827338933950386e+00
4.167233443260192871e+01 -5.750370062887668610e-01 3.906048530340200386e+00
4.213022017478942871e+01 -1.947879828512668610e-01 3.958630317449575386e+00
3.768258833885192871e+01 4.709835015237331390e-01 3.519619697332387886e+00
3.825985884666442871e+01 8.154659233987331390e-01 3.583676093816762886e+00
3.807803511619567871e+01 1.197546001523733139e+00 3.571560615301137886e+00
3.972683882713317871e+01 1.527624126523733139e+00 3.743801826238637886e+00
3.701260542869567871e+01 1.962682720273733139e+00 3.476361030340200386e+00
4.430722212791442871e+01 2.279211040586233139e+00 4.219555610418325386e+00
4.335305953025817871e+01 -7.080936469137668610e-01 4.272381538152700386e+00
4.196109175682067871e+01 -1.878299750387668610e-01 4.133526557683950386e+00
3.758877730369567871e+01 4.725704155862331390e-01 3.680691474676137886e+00
3.777554488182067871e+01 8.343868218362331390e-01 3.706326240301137886e+00
3.970779585838317871e+01 1.134801860898733139e+00 3.915631049871450386e+00
4.257248091697692871e+01 1.449010845273733139e+00 4.223812812566762886e+00
3.705520796775817871e+01 1.958776470273733139e+00 3.649304145574575386e+00
4.107931685447692871e+01 2.295934673398733139e+00 4.080609077215200386e+00
4.294296431541442871e+01 -6.811161078512668610e-01 4.426083320379262886e+00
4.211819624900817871e+01 -2.024784125387668610e-01 4.341641181707387886e+00
3.723343062400817871e+01 4.890499077737331390e-01 3.813259834051137886e+00
3.862295699119567871e+01 7.912960015237331390e-01 3.971585029363637886e+00
3.665365767478942871e+01 1.242589946836233139e+00 3.761349433660512886e+00
4.251193404197692871e+01 1.446935649961233139e+00 4.411648505926137886e+00
3.810397505760192871e+01 1.938390728086233139e+00 3.932705634832387886e+00
3.788437056541442871e+01 2.313146587461233139e+00 3.915402168035512886e+00
1.202884078025817871e+01 2.497228618711233139e+00 7.619928717613788649e-02
1.218765425682067871e+01 2.609899517148733139e+00 8.193659186363788649e-02
1.235202193260192871e+01 2.725744243711233139e+00 8.759760260582538649e-02
1.253500533103942871e+01 2.845861431211233139e+00 9.373163580895038649e-02
1.272329878807067871e+01 2.969518657773733139e+00 1.000640332698878865e-01
1.291787886619567871e+01 3.097204204648733139e+00 1.065947949886378865e-01
1.311990523338317871e+01 3.229772564023733139e+00 1.133849561214503865e-01
1.331338667869567871e+01 3.365392681211233139e+00 1.197173535823878865e-01
1.327133345603942871e+01 2.490270610898733139e+00 1.617858350277003865e-01
1.346060347557067871e+01 2.615392681211233139e+00 1.690337598323878865e-01
1.367526412010192871e+01 2.744787212461233139e+00 1.773803174495753865e-01
1.388040328025817871e+01 2.878698345273733139e+00 1.852233350277003865e-01
1.410269331932067871e+01 3.016881939023733139e+00 1.936004102230128865e-01
1.437137007713317871e+01 3.161779399961233139e+00 2.033660352230128865e-01
1.464096236228942871e+01 3.312536235898733139e+00 2.129027783870753865e-01
1.493234419822692871e+01 3.469762798398733139e+00 2.234923779964503865e-01
1.501791548728942871e+01 2.480504985898733139e+00 2.749144971370753865e-01
1.521908736228942871e+01 2.623205181211233139e+00 2.837340772152003865e-01
1.542617964744567871e+01 2.769933696836233139e+00 2.928130567073878865e-01
1.564010787010192871e+01 2.921545024961233139e+00 3.021819531917628865e-01
1.592587447166442871e+01 3.079626079648733139e+00 3.139617383480128865e-01
1.647976851463317871e+01 3.255529399961233139e+00 3.346221387386378865e-01
1.700229048728942871e+01 3.441320415586233139e+00 3.544280469417628865e-01
1.752823042869567871e+01 3.637365337461233139e+00 3.745238721370753865e-01
1.711783003807067871e+01 2.468786235898733139e+00 4.166533887386378865e-01
1.775949263572692871e+01 2.634435649961233139e+00 4.433257520198878865e-01
1.848941206932067871e+01 2.814367290586233139e+00 4.730498731136378865e-01
1.913668990135192871e+01 3.007482524961233139e+00 4.999816358089503865e-01
1.957101607322692871e+01 3.205480571836233139e+00 5.192077100277003865e-01
2.005063033103942871e+01 3.414464946836233139e+00 5.402800977230128865e-01
2.070974898338317871e+01 3.643590923398733139e+00 5.682494580745753865e-01
3.805990767478942871e+01 4.967443462461233139e+00 1.224148505926137886e+00
2.136398482322692871e+01 2.445592876523733139e+00 6.662871778011378865e-01
2.219650435447692871e+01 2.654577251523733139e+00 7.041137158870753865e-01
2.301559615135192871e+01 2.879919048398733139e+00 7.416503369808253865e-01
7.453720259666442871e+01 4.379674907773733139e+00 2.887509101629262886e+00
4.001303267478942871e+01 3.914953228086233139e+00 1.458798164129262886e+00
3.818356490135192871e+01 4.224645610898733139e+00 1.388775581121450386e+00
3.822860884666442871e+01 4.601842876523733139e+00 1.397061103582387886e+00
3.784762740135192871e+01 4.951330181211233139e+00 1.387325996160512886e+00
3.842587447166442871e+01 2.355016704648733139e+00 1.539608711004262886e+00
3.801303267478942871e+01 2.727941509336233139e+00 1.528042548894887886e+00
4.948666548728942871e+01 3.267736431211233139e+00 2.062435859441762886e+00
4.900088667869567871e+01 3.742956157773733139e+00 2.048351997137075386e+00
6.848782515525817871e+01 4.900182720273733139e+00 2.960110419988637886e+00
4.036062788963317871e+01 4.319372173398733139e+00 1.662808173894887886e+00
3.821566939353942871e+01 4.598669048398733139e+00 1.569439643621450386e+00
3.781485152244567871e+01 4.946935649961233139e+00 1.556164497137075386e+00
3.822458052635192871e+01 2.352941509336233139e+00 1.703167670965200386e+00
5.019485640525817871e+01 2.781774517148733139e+00 2.313412421941762886e+00
4.897549605369567871e+01 3.256505962461233139e+00 2.260220283269887886e+00
4.026571822166442871e+01 3.524084087461233139e+00 1.826229804754262886e+00
3.975003218650817871e+01 3.900304790586233139e+00 1.806774848699575386e+00
3.981039595603942871e+01 4.292150493711233139e+00 1.816601508855825386e+00
3.787832808494567871e+01 4.577795024961233139e+00 1.724240058660512886e+00
3.808072066307067871e+01 4.961828228086233139e+00 1.741085761785512886e+00
3.925393843650817871e+01 2.344274517148733139e+00 1.931561225652700386e+00
4.972610640525817871e+01 2.775671001523733139e+00 2.514599555730825386e+00
4.872720503807067871e+01 3.249059673398733139e+00 2.469143623113637886e+00
3.920596480369567871e+01 3.495153423398733139e+00 1.949963325262075386e+00
3.968539595603942871e+01 3.895299907773733139e+00 1.983303779363637886e+00
3.982504439353942871e+01 4.290075298398733139e+00 1.997875922918325386e+00
3.817404341697692871e+01 4.591588970273733139e+00 1.911450141668325386e+00
3.769113326072692871e+01 4.934362407773733139e+00 1.890881294012075386e+00
5.076529097557067871e+01 2.278112407773733139e+00 2.793987983465200386e+00
4.979275679588317871e+01 2.772008892148733139e+00 2.744732612371450386e+00
3.650448775291442871e+01 3.068395610898733139e+00 1.958279365301137886e+00
5.068521285057067871e+01 3.773473735898733139e+00 2.815533393621450386e+00
3.974649214744567871e+01 3.894567485898733139e+00 2.165966743230825386e+00
3.992257857322692871e+01 4.291784282773733139e+00 2.183438056707387886e+00
3.788498091697692871e+01 4.573400493711233139e+00 2.066998237371450386e+00
3.892624068260192871e+01 5.011754985898733139e+00 2.136746162176137886e+00
3.632095503807067871e+01 2.354162212461233139e+00 2.098202461004262886e+00
4.807022261619567871e+01 2.760412212461233139e+00 2.859463447332387886e+00
3.658938765525817871e+01 3.066808696836233139e+00 2.128079169988637886e+00
5.083023238182067871e+01 3.773351665586233139e+00 3.054562324285512886e+00
5.207901167869567871e+01 4.316320415586233139e+00 3.144329780340200386e+00
3.868594527244567871e+01 4.234167095273733139e+00 2.283337348699575386e+00
3.778335738182067871e+01 4.565465923398733139e+00 2.231289619207387886e+00
3.850912642478942871e+01 4.982458110898733139e+00 2.285259956121450386e+00
2.957040572166442871e+01 2.389196392148733139e+00 1.798779243230825386e+00
2.851046919822692871e+01 2.671667095273733139e+00 1.730892890691762886e+00
2.749197554588317871e+01 2.933752056211233139e+00 1.665493720769887886e+00
2.651260542869567871e+01 3.177526470273733139e+00 1.602474921941762886e+00
2.560501265525817871e+01 3.403356548398733139e+00 1.544064277410512886e+00
2.475119185447692871e+01 3.613683696836233139e+00 1.489071601629262886e+00
2.394217085838317871e+01 3.810216899961233139e+00 1.436917060613637886e+00
2.318795943260192871e+01 3.993444439023733139e+00 1.388302558660512886e+00
2.961660933494567871e+01 2.386510845273733139e+00 1.934674018621450386e+00
2.857199263572692871e+01 2.669713970273733139e+00 1.863079780340200386e+00
2.757187056541442871e+01 2.932775493711233139e+00 1.794399970769887886e+00
2.660513472557067871e+01 3.177892681211233139e+00 1.727841132879262886e+00
2.570822310447692871e+01 3.405187603086233139e+00 1.666088813543325386e+00
2.485025191307067871e+01 3.616491314023733139e+00 1.606915229558950386e+00
2.401889204978942871e+01 3.812902446836233139e+00 1.549420112371450386e+00
2.324514937400817871e+01 3.995763774961233139e+00 1.495907539129262886e+00
3.767898726463317871e+01 2.337316509336233139e+00 2.696575874090200386e+00
3.726852583885192871e+01 2.703771587461233139e+00 2.671200507879262886e+00
3.677090620994567871e+01 3.061071392148733139e+00 2.637951606512075386e+00
5.008993697166442871e+01 3.744298931211233139e+00 3.689541572332387886e+00
6.617373824119567871e+01 4.787389751523733139e+00 4.963375800848012886e+00
3.806558394432067871e+01 4.199010845273733139e+00 2.759625190496450386e+00
3.850204634666442871e+01 4.597204204648733139e+00 2.801846259832387886e+00
2.339328169822692871e+01 4.003942485898733139e+00 1.611874336004262886e+00
3.834268355369567871e+01 2.330358501523733139e+00 2.921414130926137886e+00
3.679287886619567871e+01 2.698888774961233139e+00 2.800045722723012886e+00
3.780667281150817871e+01 3.072912212461233139e+00 2.890698188543325386e+00
3.830606245994567871e+01 3.456335064023733139e+00 2.938992255926137886e+00
3.869040083885192871e+01 3.844640728086233139e+00 2.977856391668325386e+00
4.971042037010192871e+01 4.710363384336233139e+00 3.904614204168325386e+00
3.813443160057067871e+01 4.574743267148733139e+00 2.945263618230825386e+00
