1.059107673168182373e+01 1.067826624028384686e+00 -4.238347187637714342e-02
1.058753669261932373e+01 1.167802209965884686e+00 -3.960637226700214342e-02
1.058399665355682373e+01 1.267899866215884686e+00 -3.681401386856464342e-02
1.058045661449432373e+01 1.367265100590884686e+00 -3.405217304825214342e-02
1.058411872386932373e+01 1.465409631840884686e+00 -3.119877949356464342e-02
1.059351813793182373e+01 1.563187952153384686e+00 -2.823857441543964342e-02
1.059876716136932373e+01 1.660966272465884686e+00 -2.559880390762714342e-02
1.134309089183807373e+01 8.418744755908846855e-01 1.387568339706035658e-02
1.133894050121307373e+01 9.500287724658846855e-01 1.679011210799785658e-02
1.134919440746307373e+01 1.055619592778384686e+00 2.023859843612285658e-02
1.139399421215057373e+01 1.156937952153384686e+00 2.408381327987285658e-02
1.143891608715057373e+01 1.258500452153384686e+00 2.794428691268535658e-02
1.148408210277557373e+01 1.360551233403384686e+00 3.182001933456035658e-02
1.150666511058807373e+01 1.466142053715884686e+00 3.502436503768535658e-02
1.151826179027557373e+01 1.572465295903384686e+00 3.824396952987285658e-02
1.235236823558807373e+01 6.728070927783846855e-01 8.615656718612285658e-02
1.240467536449432373e+01 7.824262334033846855e-01 9.059687480331035658e-02
1.245734870433807373e+01 8.927777959033846855e-01 9.505244120956035658e-02
1.251051032543182373e+01 1.004227991215884686e+00 9.955378398299785658e-02
1.256385505199432373e+01 1.116044397465884686e+00 1.040703855454978566e-01
1.261756598949432373e+01 1.228593225590884686e+00 1.086022458970603566e-01
1.267176520824432373e+01 1.342240686528384686e+00 1.131951414048728566e-01
1.270966804027557373e+01 1.457841272465884686e+00 1.173913083970603566e-01
1.358118903636932373e+01 4.669965459033846855e-01 1.736352048814353566e-01
1.364051520824432373e+01 5.880902959033846855e-01 1.790825925767478566e-01
1.368922126293182373e+01 7.116254521533846855e-01 1.839501462876853566e-01
1.371729743480682373e+01 8.390668584033846855e-01 1.882378660142478566e-01
1.374537360668182373e+01 9.662641240283846855e-01 1.925408445298728566e-01
1.377344977855682373e+01 1.093705530278384686e+00 1.968438230454978566e-01
1.380170905590057373e+01 1.221757288090884686e+00 2.011620603501853566e-01
1.382386481761932373e+01 1.350297327153384686e+00 2.049767576158103566e-01
1.504414069652557373e+01 2.217572880908846855e-01 2.804467283189353566e-01
1.505573737621307373e+01 3.653119755908846855e-01 2.846276365220603566e-01
1.506727302074432373e+01 5.087445927783846855e-01 2.887932859361228566e-01
1.507893073558807373e+01 6.524213505908846855e-01 2.929589353501853566e-01
1.509046638011932373e+01 7.956098271533846855e-01 2.971245847642478566e-01
1.510200202465057373e+01 9.385541630908846855e-01 3.012749753892478566e-01
1.511359870433807373e+01 1.081864709965884686e+00 3.054406248033103566e-01
1.512507331371307373e+01 1.224564905278384686e+00 3.095910154283103566e-01
1.674030768871307373e+01 -6.254446972161531448e-02 4.091851316392478566e-01
1.675935065746307373e+01 9.712349902838468552e-02 4.144341550767478566e-01
1.676917731761932373e+01 2.581342412158846855e-01 4.189507566392478566e-01
1.678065192699432373e+01 4.192670537158846855e-01 4.235283933579978566e-01
1.681837165355682373e+01 5.764936162158846855e-01 4.290978513658103566e-01
1.685615241527557373e+01 7.338422490283846855e-01 4.346673093736228566e-01
1.689411628246307373e+01 8.921674443408846855e-01 4.402672849595603566e-01
1.692298591136932373e+01 1.051225061528384686e+00 4.451043210923728566e-01
1.889204108715057373e+01 -4.233843134716153145e-01 5.730950437486228566e-01
1.894764411449432373e+01 -2.473589228466153145e-01 5.800225339829978566e-01
1.900349128246307373e+01 -7.072318065911531448e-02 5.869805417954978566e-01
1.905970466136932373e+01 1.072553349658846855e-01 5.939843259751853566e-01
1.911591804027557373e+01 2.851117802783846855e-01 6.009881101548728566e-01
1.918494880199432373e+01 4.622358037158846855e-01 6.085564695298728566e-01
1.928425300121307373e+01 6.377729130908846855e-01 6.174676023423728566e-01
1.938398444652557373e+01 8.140424443408846855e-01 6.264245115220603566e-01
2.174067389965057373e+01 -9.010454462841153145e-01 7.888848386704978566e-01
2.179597175121307373e+01 -6.958452509716153145e-01 7.966668210923728566e-01
2.188734138011932373e+01 -4.952837275341153145e-01 8.066613279283103566e-01
2.199140632152557373e+01 -2.944780634716153145e-01 8.167779050767478566e-01
2.211915290355682373e+01 -9.574759472161531448e-02 8.280388914048728566e-01
2.224812018871307373e+01 1.048139287158846855e-01 8.394066892564353566e-01
2.225373542308807373e+01 3.212445927783846855e-01 8.444115720689353566e-01
2.244202888011932373e+01 5.191205693408846855e-01 8.586937986314353566e-01
2.617841804027557373e+01 -1.644697790034115314e+00 1.112722118943935357e+00
2.622572028636932373e+01 -1.392866735346615314e+00 1.121297558397060357e+00
2.624555671215057373e+01 -1.136519079096615314e+00 1.128469189256435357e+00
2.625288093090057373e+01 -8.779741572216153145e-01 1.135015209764247857e+00
2.626014411449432373e+01 -6.208940790966153145e-01 1.141515453904872857e+00
2.652583014965057373e+01 -3.942095087841153145e-01 1.161458691209560357e+00
2.733222663402557373e+01 -2.191606806591153145e-01 1.209859570115810357e+00
2.840577399730682373e+01 -5.509818065911531448e-02 1.272649487107997857e+00
3.199366462230682373e+01 -2.619795446284115314e+00 1.553960522264247857e+00
3.240906989574432373e+01 -2.366011266596615314e+00 1.584523876756435357e+00
3.364094245433807373e+01 -2.224409704096615314e+00 1.661000927537685357e+00
3.438532721996307373e+01 -1.990767125971615314e+00 1.710637768357997857e+00
3.612208259105682373e+01 -1.869307165034115314e+00 1.816655834764247857e+00
6.153590095043182373e+01 -4.462813024409115314e+00 3.266820629686122857e+00
5.103596198558807373e+01 -2.734907750971615314e+00 2.682851513475185357e+00
7.940028083324432373e+01 -4.949873571284115314e+00 4.317113598436122857e+00
6.974561774730682373e+01 -8.935225133784115314e+00 3.974355419725185357e+00
7.115510261058807373e+01 -8.451338415034115314e+00 4.075490673631435357e+00
5.917200934886932373e+01 -5.975386266596615314e+00 3.364247997850185357e+00
6.365198981761932373e+01 -5.991133336909115314e+00 3.650670727342372857e+00
6.194428718090057373e+01 -5.137617711909115314e+00 3.560598095506435357e+00
6.118226325511932373e+01 -4.430098180659115314e+00 3.527761181443935357e+00
5.101795661449432373e+01 -2.739912633784115314e+00 2.915227612107997857e+00
6.135499274730682373e+01 -3.227095250971615314e+00 3.565938671678310357e+00
6.978211677074432373e+01 -8.951948766596615314e+00 4.298131664842372857e+00
7.105744636058807373e+01 -8.446577672846615314e+00 4.396688183397060357e+00
5.915107429027557373e+01 -5.981001500971615314e+00 3.634282787889247857e+00
6.452485358715057373e+01 -6.119551305659115314e+00 3.999776562303310357e+00
6.262458503246307373e+01 -5.232344274409115314e+00 3.888921459764247857e+00
6.278327643871307373e+01 -4.624800329096615314e+00 3.913152416795497857e+00
4.852747809886932373e+01 -2.482100133784115314e+00 2.982549389451747857e+00
8.541932380199432373e+01 -5.549727086909115314e+00 5.445195873826747857e+00
6.292255866527557373e+01 -7.813887243159115314e+00 4.144201000779872857e+00
6.074653327465057373e+01 -6.835981969721615314e+00 4.005864819139247857e+00
5.867792975902557373e+01 -5.919966344721615314e+00 3.872625073045497857e+00
5.663111579418182373e+01 -5.048750524409115314e+00 3.741521557420497857e+00
4.798054206371307373e+01 -3.386274938471615314e+00 3.144262035936122857e+00
4.842225348949432373e+01 -2.960005407221615314e+00 3.185674389451747857e+00
4.847376716136932373e+01 -2.482832555659115314e+00 3.200811108201747857e+00
4.888697516918182373e+01 -2.042280797846615314e+00 3.240453442186122857e+00
8.380018317699432373e+01 -1.132292044628411531e+01 5.984548290818935357e+00
8.373841559886932373e+01 -1.046366751659661531e+01 5.997594555467372857e+00
8.454505622386932373e+01 -9.735640172846615314e+00 6.075429638475185357e+00
6.350550544261932373e+01 -5.998457555659115314e+00 4.517339428514247857e+00
6.696595466136932373e+01 -5.800337438471615314e+00 4.790487011522060357e+00
4.823170173168182373e+01 -2.944380407221615314e+00 3.393331249803310357e+00
4.824067389965057373e+01 -2.464522008784115314e+00 3.403981884568935357e+00
4.861658942699432373e+01 -2.022627477534115314e+00 3.442388256639247857e+00
8.400104987621307373e+01 -1.136955130565911531e+01 6.390081127732997857e+00
9.373316657543182373e+01 -1.205070364940911531e+01 7.175374706834560357e+00
9.163117682933807373e+01 -8.940718297846615314e+00 7.065084179490810357e+00
6.233601081371307373e+01 -4.598433141596615314e+00 4.741185864061122857e+00
4.835920417308807373e+01 -2.483564977534115314e+00 3.633306225389247857e+00
4.836817634105682373e+01 -2.005049352534115314e+00 3.644872387498622857e+00
8.463367927074432373e+01 -1.062992728222161531e+01 6.848546703904872857e+00
8.623402106761932373e+01 -9.136030797846615314e+00 7.016881664842372857e+00
4.844062507152557373e+01 -2.498701696284115314e+00 3.861898144334560357e+00
4.915290534496307373e+01 -2.087202672846615314e+00 3.931859692186122857e+00
7.301832282543182373e+01 -9.549238805659115314e+00 6.199758251756435357e+00
9.269416511058807373e+01 -1.191483939159661531e+01 7.953328808397060357e+00
8.622108161449432373e+01 -9.146650915034115314e+00 7.413610180467372857e+00
8.651240241527557373e+01 -8.315352086909115314e+00 7.456044872850185357e+00
6.314167487621307373e+01 -4.709883336909115314e+00 5.386144360154872857e+00
4.858338630199432373e+01 -2.520430211909115314e+00 4.095662792772060357e+00
4.907008063793182373e+01 -2.085615758784115314e+00 4.149648388475185357e+00
9.218690192699432373e+01 -1.278532279003411531e+01 8.320440014451747857e+00
9.350684821605682373e+01 -1.205729544628411531e+01 8.460668285936122857e+00
4.966901862621307373e+01 -4.131880407221615314e+00 4.393468578904872857e+00
5.011677253246307373e+01 -3.691939000971615314e+00 4.444585522264247857e+00
6.853162848949432373e+01 -5.350386266596615314e+00 6.183797558397060357e+00
4.926624763011932373e+01 -2.600142125971615314e+00 4.382924755662685357e+00
4.917860114574432373e+01 -2.102583532221615314e+00 4.383641918748622857e+00
9.366816413402557373e+01 -1.304899466503411531e+01 8.895208080857997857e+00
7.333283698558807373e+01 -8.881025915034115314e+00 6.921361645311122857e+00
4.984486091136932373e+01 -4.163130407221615314e+00 4.638570507615810357e+00
4.926276862621307373e+01 -3.590010290034115314e+00 4.590154369920497857e+00
4.949110114574432373e+01 -3.125166540034115314e+00 4.621419628709560357e+00
4.932752692699432373e+01 -2.613325719721615314e+00 4.615270336717372857e+00
6.447205817699432373e+01 -3.594282750971615314e+00 6.123037060350185357e+00
9.356635749340057373e+01 -1.304630911815911531e+01 9.322026928514247857e+00
9.341920173168182373e+01 -1.207157767284661531e+01 9.320974072068935357e+00
7.219739997386932373e+01 -7.981978063471615314e+00 7.156697949022060357e+00
4.962287604808807373e+01 -4.139692907221615314e+00 4.845723827928310357e+00
4.938679206371307373e+01 -3.612837438471615314e+00 4.829930981248622857e+00
4.951466071605682373e+01 -3.134810094721615314e+00 4.851628979295497857e+00
4.981208503246307373e+01 -2.671919469721615314e+00 4.890889843553310357e+00
8.427540290355682373e+01 -5.528608922846615314e+00 8.472737988084560357e+00
1.059827888011932373e+01 1.661332483403384686e+00 -2.559880390762714342e-02
1.060670173168182373e+01 1.758744592778384686e+00 -2.273015156387714342e-02
1.061097419261932373e+01 1.856522913090884686e+00 -2.016667500137714342e-02
1.061524665355682373e+01 1.954545374028384686e+00 -1.760319843887714342e-02
1.061951911449432373e+01 2.052323694340884686e+00 -1.503972187637714342e-02
1.062379157543182373e+01 2.149979944340884686e+00 -1.247624531387714342e-02
1.062806403636932373e+01 2.248002405278384686e+00 -9.912768751377143417e-03
1.062818610668182373e+01 2.345658655278384686e+00 -7.654467970127143417e-03
1.151765143871307373e+01 1.572831506840884686e+00 3.824396952987285658e-02
1.152296149730682373e+01 1.679765100590884686e+00 4.105158671737285658e-02
1.153394782543182373e+01 1.786210413090884686e+00 4.424067363143535658e-02
1.153919684886932373e+01 1.893510217778384686e+00 4.706354960799785658e-02
1.154450690746307373e+01 2.000443811528384686e+00 4.987116679549785658e-02
1.154975593090057373e+01 2.107377405278384686e+00 5.267878398299785658e-02
1.154932868480682373e+01 2.214799280278384686e+00 5.510493144393535658e-02
1.155463874340057373e+01 2.321610803715884686e+00 5.791254863143535658e-02
1.270924079418182373e+01 1.458329553715884686e+00 1.173913083970603566e-01
1.271497809886932373e+01 1.577103967778384686e+00 1.205041013658103566e-01
1.274439704418182373e+01 1.694169397465884686e+00 1.242119871079978566e-01
1.282026374340057373e+01 1.809159631840884686e+00 1.291405759751853566e-01
1.289680182933807373e+01 1.925004358403384686e+00 1.341149412095603566e-01
1.297419440746307373e+01 2.042191858403384686e+00 1.391350828111228566e-01
1.302039802074432373e+01 2.162186975590884686e+00 1.433770261704978566e-01
1.307056891918182373e+01 2.282548303715884686e+00 1.477410398423728566e-01
1.382380378246307373e+01 1.350785608403384686e+00 2.049920164048728566e-01
1.388160407543182373e+01 1.476395959965884686e+00 2.102410398423728566e-01
1.395911872386932373e+01 1.601518030278384686e+00 2.157952390611228566e-01
1.403773200511932373e+01 1.728471155278384686e+00 2.214104734361228566e-01
1.411695563793182373e+01 1.856400842778384686e+00 2.270867429673728566e-01
1.419697272777557373e+01 1.985673303715884686e+00 2.328087888658103566e-01
1.428590095043182373e+01 2.116532678715884686e+00 2.388665281236228566e-01
1.444495856761932373e+01 2.246781702153384686e+00 2.468010984361228566e-01
1.512482917308807373e+01 1.225175256840884686e+00 3.095910154283103566e-01
1.513001716136932373e+01 1.368363733403384686e+00 3.132531248033103566e-01
1.524201667308807373e+01 1.503495569340884686e+00 3.206231199204978566e-01
1.540150153636932373e+01 1.638017053715884686e+00 3.297173582017478566e-01
1.556385505199432373e+01 1.774979944340884686e+00 3.389641843736228566e-01
1.572968757152557373e+01 1.914872522465884686e+00 3.484093748033103566e-01
1.589960944652557373e+01 2.058305139653384686e+00 3.580834470689353566e-01
1.607270514965057373e+01 2.204301233403384686e+00 3.679406248033103566e-01
1.692274177074432373e+01 1.051835413090884686e+00 4.451043210923728566e-01
1.696448981761932373e+01 1.210038538090884686e+00 4.510247312486228566e-01
1.700355231761932373e+01 1.368974084965884686e+00 4.564568601548728566e-01
1.722565925121307373e+01 1.517289514653384686e+00 4.691369138658103566e-01
1.751899421215057373e+01 1.665238733403384686e+00 4.847313962876853566e-01
1.782264411449432373e+01 1.818436975590884686e+00 5.008751951158103566e-01
1.818140876293182373e+01 1.976151819340884686e+00 5.193993650376853566e-01
1.857819831371307373e+01 2.139237756840884686e+00 5.391594968736228566e-01
1.938410651683807373e+01 8.146527959033846855e-01 6.264397703111228566e-01
1.955567634105682373e+01 9.865277959033846855e-01 6.383568845689353566e-01
1.988856208324432373e+01 1.149369592778384686e+00 6.574151121079978566e-01
2.015375983715057373e+01 1.323808069340884686e+00 6.736657224595603566e-01
2.050684821605682373e+01 1.497758264653384686e+00 6.938988767564353566e-01
2.103632819652557373e+01 1.670609827153384686e+00 7.221734128892478566e-01
2.150031745433807373e+01 1.856767053715884686e+00 7.477624021470603566e-01
2.207532966136932373e+01 2.048417444340884686e+00 7.785546384751853566e-01
2.244392096996307373e+01 5.196088505908846855e-01 8.588006101548728566e-01
2.276282966136932373e+01 7.096723271533846855e-01 8.792779050767478566e-01
2.368635261058807373e+01 8.600629521533846855e-01 9.297387205064353566e-01
2.487061774730682373e+01 1.012528772465884686e+00 9.928032957017478566e-01
2.558924567699432373e+01 1.213456506840884686e+00 1.033620556443935357e+00
2.671552741527557373e+01 1.409867639653384686e+00 1.094823559373622857e+00
2.860126960277557373e+01 1.602494592778384686e+00 1.193380077928310357e+00
3.039399421215057373e+01 1.833939905278384686e+00 1.288823803514247857e+00
2.841590583324432373e+01 -5.509818065911531448e-02 1.273198803514247857e+00
3.052204596996307373e+01 4.182564746588468552e-02 1.390905102342372857e+00
3.247309577465057373e+01 1.922162724658846855e-01 1.501348217576747857e+00
3.716260993480682373e+01 2.029584599658846855e-01 1.758657177537685357e+00
4.698994147777557373e+01 2.046334277838468552e-02 2.293096264451747857e+00
4.703089606761932373e+01 4.803022099658846855e-01 2.306035717576747857e+00
4.437220466136932373e+01 1.038041467778384686e+00 2.173253735154872857e+00
4.209705817699432373e+01 1.530839319340884686e+00 2.060003002732997857e+00
7.938972175121307373e+01 -4.946089391596615314e+00 4.316549023240810357e+00
6.210242927074432373e+01 -2.672773961909115314e+00 3.341787060350185357e+00
4.390583503246307373e+01 -6.782671259716153145e-01 2.306600292772060357e+00
4.363416755199432373e+01 -2.269731806591153145e-01 2.300832470506435357e+00
4.494855964183807373e+01 1.286176396533846855e-01 2.387090405076747857e+00
4.989863288402557373e+01 3.437055302783846855e-01 2.686101635545497857e+00
5.441029059886932373e+01 6.746381474658846855e-01 2.961736401170497857e+00
4.836610114574432373e+01 1.364945764653384686e+00 2.618520458787685357e+00
6.139649665355682373e+01 -3.228926305659115314e+00 3.568547924607997857e+00
4.877235114574432373e+01 -1.534834508784115314e+00 2.798726757615810357e+00
4.549775397777557373e+01 -8.046098994091153145e-01 2.605642040818935357e+00
4.680701911449432373e+01 -4.412065790966153145e-01 2.697713574022060357e+00
4.701374518871307373e+01 7.890100590884685516e-03 2.721151074022060357e+00
4.988923346996307373e+01 3.383344365283846855e-01 2.912770947068935357e+00
4.283771979808807373e+01 1.082963342778384686e+00 2.478185375779872857e+00
4.320863044261932373e+01 1.492875452153384686e+00 2.511235912889247857e+00
8.542249763011932373e+01 -5.547041540034115314e+00 5.445440014451747857e+00
4.830805671215057373e+01 -1.501021032221615314e+00 2.989247997850185357e+00
4.548188483715057373e+01 -8.091265009716153145e-01 2.810826977342372857e+00
4.398798835277557373e+01 -2.609087275341153145e-01 2.720601757615810357e+00
4.562684333324432373e+01 7.991158496588468552e-02 2.840718945115810357e+00
4.242078864574432373e+01 6.758588505908846855e-01 2.634069164842372857e+00
4.842579352855682373e+01 8.773969365283846855e-01 3.050679882615810357e+00
3.745490729808807373e+01 1.637406702153384686e+00 2.314870556443935357e+00
4.887458503246307373e+01 -2.039473180659115314e+00 3.239598949998622857e+00
4.709913337230682373e+01 -1.402998571284115314e+00 3.123662670701747857e+00
4.538734138011932373e+01 -8.075395869091153145e-01 3.010366161912685357e+00
4.365748298168182373e+01 -2.444292353466153145e-01 2.896184643357997857e+00
4.199146735668182373e+01 2.783979130908846855e-01 2.785772045701747857e+00
4.039985358715057373e+01 7.639936162158846855e-01 2.679982861131435357e+00
3.882642829418182373e+01 1.217851038090884686e+00 2.575765331834560357e+00
3.737458503246307373e+01 1.635331506840884686e+00 2.478673657029872857e+00
4.861451423168182373e+01 -2.020796422846615314e+00 3.442250927537685357e+00
6.525153815746307373e+01 -2.976484899409115314e+00 4.716542919725185357e+00
6.446778571605682373e+01 -2.269209508784115314e+00 4.671010693162685357e+00
4.396894538402557373e+01 -2.703081415966153145e-01 3.118901928514247857e+00
4.415253913402557373e+01 1.519330693408846855e-01 3.142430981248622857e+00
4.259302985668182373e+01 6.580365849658846855e-01 3.032109936326747857e+00
4.259119880199432373e+01 1.077348108403384686e+00 3.041143139451747857e+00
4.678583991527557373e+01 1.384965295903384686e+00 3.374425610154872857e+00
4.893623054027557373e+01 -2.058149938471615314e+00 3.690572460740810357e+00
4.914039313793182373e+01 -1.591475133784115314e+00 3.716298779100185357e+00
4.621009528636932373e+01 -8.817583369091153145e-01 3.490026196092372857e+00
4.400489509105682373e+01 -2.781206415966153145e-01 3.321233471482997857e+00
4.279938971996307373e+01 2.229779912158846855e-01 3.232656200975185357e+00
4.282410895824432373e+01 6.424115849658846855e-01 3.243764599412685357e+00
4.314167487621307373e+01 1.052567834965884686e+00 3.278814037889247857e+00
4.275800788402557373e+01 1.485673303715884686e+00 3.257573803514247857e+00
4.821278083324432373e+01 -1.994673375971615314e+00 3.851949413865810357e+00
4.913624274730682373e+01 -1.597456579096615314e+00 3.940847118943935357e+00
4.862897956371307373e+01 -1.072798375971615314e+00 3.907857616990810357e+00
4.401606452465057373e+01 -2.842241572216153145e-01 3.522954662889247857e+00
4.360816657543182373e+01 1.721967412158846855e-01 3.497182568162685357e+00
4.267194831371307373e+01 6.444867802783846855e-01 3.425725658982997857e+00
4.819648444652557373e+01 8.637250615283846855e-01 3.911519726365810357e+00
4.281300055980682373e+01 1.479447717778384686e+00 3.455831249803310357e+00
4.907471930980682373e+01 -2.084395055659115314e+00 4.150075634568935357e+00
6.359058845043182373e+01 -2.857588415034115314e+00 5.463674267381435357e+00
4.817017829418182373e+01 -1.043623571284115314e+00 4.087865551561122857e+00
4.419501960277557373e+01 -3.014360712841153145e-01 3.738988598436122857e+00
4.461048591136932373e+01 1.103070927783846855e-01 3.785756786912685357e+00
4.676813971996307373e+01 4.488080693408846855e-01 3.990743359178310357e+00
4.411951911449432373e+01 1.007157678715884686e+00 3.759633740037685357e+00
4.301459968090057373e+01 1.469315881840884686e+00 3.669088085740810357e+00
4.917994391918182373e+01 -2.100996618159115314e+00 4.383794506639247857e+00
4.923670661449432373e+01 -1.618818883784115314e+00 4.399282177537685357e+00
4.823688971996307373e+01 -1.054854040034115314e+00 4.314687450975185357e+00
4.350642096996307373e+01 1.675580693408846855e-01 3.884389599412685357e+00
4.461262214183807373e+01 5.439008427783846855e-01 3.998784741014247857e+00
4.412092292308807373e+01 1.002030725590884686e+00 3.960942944139247857e+00
4.563026130199432373e+01 1.394975061528384686e+00 4.114522656053310357e+00
6.446802985668182373e+01 -3.591597204096615314e+00 6.122655590623622857e+00
4.933076179027557373e+01 -1.633345250971615314e+00 4.634343823045497857e+00
4.897864997386932373e+01 -1.117964391596615314e+00 4.608174999803310357e+00
6.825922858715057373e+01 -1.921187047846615314e+00 6.538076122850185357e+00
4.312531745433807373e+01 1.840375615283846855e-01 4.043996533006435357e+00
4.430244147777557373e+01 5.533002568408846855e-01 4.170400341600185357e+00
4.795777595043182373e+01 8.560346318408846855e-01 4.546788891404872857e+00
4.556361091136932373e+01 1.391679163090884686e+00 4.316014965623622857e+00
8.427424323558807373e+01 -5.525557165034115314e+00 8.472646435350185357e+00
8.442518317699432373e+01 -4.697554235346615314e+00 8.503270824998622857e+00
4.907136237621307373e+01 -1.131270055659115314e+00 4.842351635545497857e+00
4.802088630199432373e+01 -5.740190790966153145e-01 4.742696484178310357e+00
4.367799079418182373e+01 1.474164677783846855e-01 4.298726757615810357e+00
4.463715827465057373e+01 5.324262334033846855e-01 4.407796581834560357e+00
4.269611823558807373e+01 1.044511194340884686e+00 4.213216503709560357e+00
4.683283698558807373e+01 1.352494592778384686e+00 4.657384594529872857e+00
1.062830817699432373e+01 2.346024866215884686e+00 -7.654467970127143417e-03
1.066553962230682373e+01 2.443192834965884686e+00 -4.572192579502143417e-03
1.076685798168182373e+01 2.540727014653384686e+00 -5.591310560646434169e-04
1.087073981761932373e+01 2.640702600590884686e+00 3.545483201747856583e-03
1.097852790355682373e+01 2.742509241215884686e+00 7.772167772060356583e-03
1.110328376293182373e+01 2.847001428715884686e+00 1.234980449081035658e-02
1.123157966136932373e+01 2.954301233403384686e+00 1.704951152206035658e-02
1.136628425121307373e+01 3.064164514653384686e+00 2.168818339706035658e-02
1.155482184886932373e+01 2.321977014653384686e+00 5.792780742049785658e-02
1.157722175121307373e+01 2.428544397465884686e+00 6.082697734237285658e-02
1.172297370433807373e+01 2.534989709965884686e+00 6.677790507674785658e-02
1.189509284496307373e+01 2.644975061528384686e+00 7.312556132674785658e-02
1.209650886058807373e+01 2.758378381840884686e+00 8.022089824081035658e-02
1.230531013011932373e+01 2.876054163090884686e+00 8.757563456893535658e-02
1.251490485668182373e+01 2.998246545903384686e+00 9.477778300643535658e-02
1.213825690746307373e+01 3.097977991215884686e+00 8.850642070174785658e-02
1.307081305980682373e+01 2.283036584965884686e+00 1.477562986314353566e-01
1.311420905590057373e+01 2.404374475590884686e+00 1.516625486314353566e-01
1.328510749340057373e+01 2.526078577153384686e+00 1.590478025376853566e-01
1.346870124340057373e+01 2.651688928715884686e+00 1.668603025376853566e-01
1.365717780590057373e+01 2.780595178715884686e+00 1.748864255845603566e-01
1.385145270824432373e+01 2.913407678715884686e+00 1.831414304673728566e-01
1.403809821605682373e+01 3.050370569340884686e+00 1.912896238267478566e-01
1.211658942699432373e+01 3.095902795903384686e+00 1.400963865220603566e-01
1.444581305980682373e+01 2.247269983403384686e+00 2.468468748033103566e-01
1.461884772777557373e+01 2.380326624028384686e+00 2.556817136704978566e-01
1.480903327465057373e+01 2.516923303715884686e+00 2.647912107408103566e-01
1.500379645824432373e+01 2.657792444340884686e+00 2.741601072251853566e-01
1.517567145824432373e+01 2.801835413090884686e+00 2.828728757798728566e-01
1.535169684886932373e+01 2.949296350590884686e+00 2.917840085923728566e-01
1.567890632152557373e+01 3.106156702153384686e+00 3.057305417954978566e-01
1.216840827465057373e+01 3.097245569340884686e+00 1.936394773423728566e-01
1.607392585277557373e+01 2.204789514653384686e+00 3.679864011704978566e-01
1.629536139965057373e+01 2.353471155278384686e+00 3.793999753892478566e-01
1.661402595043182373e+01 2.506059045903384686e+00 3.944451414048728566e-01
1.699757087230682373e+01 2.665849084965884686e+00 4.120080076158103566e-01
1.751942145824432373e+01 2.834916467778384686e+00 4.348046384751853566e-01
1.789808356761932373e+01 3.010819788090884686e+00 4.525506101548728566e-01
1.839912116527557373e+01 3.199174280278384686e+00 4.750268064439353566e-01
1.218006598949432373e+01 3.096635217778384686e+00 2.464806638658103566e-01
1.858167731761932373e+01 2.139726038090884686e+00 5.393120847642478566e-01
1.901905524730682373e+01 2.310136194340884686e+00 5.615288816392478566e-01
1.948316657543182373e+01 2.489091272465884686e+00 5.846154294908103566e-01
1.993745124340057373e+01 2.677934045903384686e+00 6.075036130845603566e-01
2.059809577465057373e+01 2.878373499028384686e+00 6.391198240220603566e-01
2.116975104808807373e+01 3.089677209965884686e+00 6.673333249986228566e-01
2.175117194652557373e+01 3.313554163090884686e+00 6.962334714829978566e-01
1.214844977855682373e+01 3.094193811528384686e+00 2.973534666001853566e-01
2.207795417308807373e+01 2.049149866215884686e+00 7.786919675767478566e-01
2.272004401683807373e+01 2.251176233403384686e+00 8.125359617173728566e-01
2.436219489574432373e+01 2.460648889653384686e+00 8.921410642564353566e-01
2.556470954418182373e+01 2.701737756840884686e+00 9.524285398423728566e-01
2.679572761058807373e+01 2.966508264653384686e+00 1.014547070115810357e+00
2.781477057933807373e+01 3.250687952153384686e+00 1.067434033006435357e+00
4.355567634105682373e+01 4.064408655278384686e+00 1.803441723436122857e+00
1.223676764965057373e+01 3.097123499028384686e+00 3.538262449204978566e-01
3.040284430980682373e+01 1.834794397465884686e+00 1.289281567186122857e+00
3.165406501293182373e+01 2.110307092778384686e+00 1.358327587693935357e+00
4.401521003246307373e+01 2.349442834965884686e+00 1.985112866014247857e+00
4.473200690746307373e+01 2.784867639653384686e+00 2.030996044725185357e+00
5.597401130199432373e+01 3.385331506840884686e+00 2.609044750779872857e+00
3.150574958324432373e+01 3.338090295903384686e+00 1.379537304490810357e+00
4.395252692699432373e+01 4.074052209965884686e+00 2.020086010545497857e+00
1.225361335277557373e+01 3.096757288090884686e+00 4.072167478501853566e-01
4.210383307933807373e+01 1.532060022465884686e+00 2.060399731248622857e+00
4.519434821605682373e+01 1.895585413090884686e+00 2.238042553514247857e+00
4.419788825511932373e+01 2.343827600590884686e+00 2.193639477342372857e+00
5.543043220043182373e+01 2.827103967778384686e+00 2.820226391404872857e+00
5.588874518871307373e+01 3.378617639653384686e+00 2.857900341600185357e+00
3.149500739574432373e+01 3.334916467778384686e+00 1.520055492967372857e+00
4.411707770824432373e+01 4.075639124028384686e+00 2.228643139451747857e+00
1.221461188793182373e+01 3.094071741215884686e+00 4.579522214829978566e-01
4.836365973949432373e+01 1.366654749028384686e+00 2.618413647264247857e+00
5.545435798168182373e+01 1.729447717778384686e+00 3.047902783006435357e+00
5.664985358715057373e+01 2.267655725590884686e+00 3.131200512498622857e+00
5.591242682933807373e+01 2.823563928715884686e+00 3.100072582811122857e+00
5.586640632152557373e+01 3.372758264653384686e+00 3.109883984178310357e+00
3.148420417308807373e+01 3.331620569340884686e+00 1.660558422654872857e+00
4.591022956371307373e+01 4.132890100590884686e+00 2.535787304490810357e+00
1.229597175121307373e+01 3.096513147465884686e+00 5.153405271470603566e-01
4.219672858715057373e+01 1.520463342778384686e+00 2.447072704881435357e+00
4.245094001293182373e+01 1.929276819340884686e+00 2.472692211717372857e+00
5.617927253246307373e+01 2.264481897465884686e+00 3.359395702928310357e+00
4.259803473949432373e+01 2.762406702153384686e+00 2.501165112107997857e+00
4.518275153636932373e+01 3.216019983403384686e+00 2.677037914842372857e+00
3.147333991527557373e+01 3.328324670903384686e+00 1.801778515428310357e+00
5.774335944652557373e+01 4.532670374028384686e+00 3.511419018357997857e+00
1.229920661449432373e+01 3.095658655278384686e+00 5.687157712876853566e-01
3.744514167308807373e+01 1.638993616215884686e+00 2.314229687303310357e+00
3.599909675121307373e+01 2.027543420903384686e+00 2.223882397264247857e+00
3.464381110668182373e+01 2.386796350590884686e+00 2.139089306443935357e+00
3.333930671215057373e+01 2.720536584965884686e+00 2.057195385545497857e+00
3.209766852855682373e+01 3.027909631840884686e+00 1.979024609178310357e+00
3.092945563793182373e+01 3.312211389653384686e+00 1.905355175584560357e+00
2.978858649730682373e+01 3.575272913090884686e+00 1.833074291795497857e+00
1.229456794261932373e+01 3.094437952153384686e+00 6.213280759751853566e-01
3.736500251293182373e+01 1.636918420903384686e+00 2.478002270311122857e+00
3.594324958324432373e+01 2.024613733403384686e+00 2.382726391404872857e+00
3.461628425121307373e+01 2.383378381840884686e+00 2.292913158982997857e+00
3.333460700511932373e+01 2.717118616215884686e+00 2.206701000779872857e+00
3.211463630199432373e+01 3.024979944340884686e+00 2.124410351365810357e+00
3.096711432933807373e+01 3.310258264653384686e+00 2.046910961717372857e+00
2.984199225902557373e+01 3.574418420903384686e+00 1.971288403123622857e+00
1.230671393871307373e+01 3.093827600590884686e+00 6.754510007798728566e-01
4.677711188793182373e+01 1.386796350590884686e+00 3.373784741014247857e+00
4.828199470043182373e+01 1.821366663090884686e+00 3.500982006639247857e+00
4.269941413402557373e+01 2.329911584965884686e+00 3.077916821092372857e+00
4.274989020824432373e+01 2.749955530278384686e+00 3.091512402147060357e+00
4.439960944652557373e+01 3.191850061528384686e+00 3.230169018357997857e+00
4.470191657543182373e+01 3.634599084965884686e+00 3.263890942186122857e+00
4.535780036449432373e+01 4.097001428715884686e+00 3.325612743943935357e+00
1.254371345043182373e+01 3.103227014653384686e+00 7.471673093736228566e-01
4.276173102855682373e+01 1.487016077153384686e+00 3.257909496873622857e+00
4.288081061840057373e+01 1.904008264653384686e+00 3.276311596482997857e+00
4.287617194652557373e+01 2.324296350590884686e+00 3.285619457811122857e+00
5.151484382152557373e+01 2.778397913090884686e+00 4.008733471482997857e+00
4.470832526683807373e+01 3.191605920903384686e+00 3.456762035936122857e+00
4.605939948558807373e+01 3.662431116215884686e+00 3.579076489061122857e+00
5.574097907543182373e+01 4.443314905278384686e+00 4.395757397264247857e+00
1.248011481761932373e+01 3.099320764653384686e+00 7.962853513658103566e-01
4.281434333324432373e+01 1.480912561528384686e+00 3.455968578904872857e+00
4.314924323558807373e+01 1.895097131840884686e+00 3.494725903123622857e+00
4.311701667308807373e+01 2.318314905278384686e+00 3.501699169725185357e+00
4.423774421215057373e+01 2.746659631840884686e+00 3.609258373826747857e+00
4.412586677074432373e+01 3.179276819340884686e+00 3.609502514451747857e+00
4.414674079418182373e+01 3.612870569340884686e+00 3.621343334764247857e+00
4.482410895824432373e+01 4.070512170903384686e+00 3.690938671678310357e+00
1.238398444652557373e+01 3.094071741215884686e+00 8.416955076158103566e-01
4.336988532543182373e+01 1.461503381840884686e+00 3.701513012498622857e+00
4.310712897777557373e+01 1.891068811528384686e+00 3.686299999803310357e+00
4.539295661449432373e+01 2.299027795903384686e+00 3.905477245897060357e+00
4.423817145824432373e+01 2.742143030278384686e+00 3.809789379686122857e+00
4.240552985668182373e+01 3.151566858403384686e+00 3.651113232225185357e+00
4.562525641918182373e+01 3.643388147465884686e+00 3.957936962693935357e+00
4.476563727855682373e+01 4.064286584965884686e+00 3.888814648240810357e+00
1.222053229808807373e+01 3.085770959965884686e+00 8.802849851548728566e-01
4.562641608715057373e+01 1.396684045903384686e+00 4.114186962693935357e+00
4.392469489574432373e+01 1.872880334965884686e+00 3.961187084764247857e+00
4.338813483715057373e+01 2.307450647465884686e+00 3.919545849412685357e+00
4.254011237621307373e+01 2.731767053715884686e+00 3.847646435350185357e+00
4.284937751293182373e+01 3.153275842778384686e+00 3.887242992967372857e+00
4.429609382152557373e+01 3.607743616215884686e+00 4.037252148240810357e+00
4.642890632152557373e+01 4.115800256840884686e+00 4.254644116014247857e+00
1.231916511058807373e+01 3.089066858403384686e+00 9.426476560533103566e-01
4.556330573558807373e+01 1.393266077153384686e+00 4.316030224412685357e+00
4.398597419261932373e+01 1.867143030278384686e+00 4.167653759568935357e+00
4.361170661449432373e+01 2.301469202153384686e+00 4.138875683397060357e+00
4.265223395824432373e+01 2.727860803715884686e+00 4.051870068162685357e+00
4.229255378246307373e+01 3.141679163090884686e+00 4.025151928514247857e+00
4.409406745433807373e+01 3.598832483403384686e+00 4.217778881639247857e+00
5.376191413402557373e+01 4.356156702153384686e+00 5.213399609178310357e+00
1.244825446605682373e+01 3.093583459965884686e+00 1.009328564256435357e+00
4.683503425121307373e+01 1.354081506840884686e+00 4.657659252732997857e+00
4.404707038402557373e+01 1.861283655278384686e+00 4.373723705857997857e+00
4.356336677074432373e+01 2.297196741215884686e+00 4.332753857225185357e+00
4.382868659496307373e+01 2.727250452153384686e+00 4.370824535936122857e+00
4.242207038402557373e+01 3.139115686528384686e+00 4.231771191209560357e+00
4.409040534496307373e+01 3.594437952153384686e+00 4.418691357225185357e+00
4.634266364574432373e+01 4.104203577153384686e+00 4.668584545701747857e+00
1.262604987621307373e+01 3.100175256840884686e+00 1.082448681443935357e+00
1.136799323558807373e+01 3.064652795903384686e+00 2.171870097518535658e-02
1.154920661449432373e+01 3.179887170903384686e+00 2.750178202987285658e-02
1.173005378246307373e+01 3.298905725590884686e+00 3.307124003768535658e-02
1.191578376293182373e+01 3.422440881840884686e+00 3.883906230331035658e-02
1.208411872386932373e+01 3.548051233403384686e+00 4.431696757674785658e-02
9.434094309806823730e+00 3.409135217778384686e+00 -6.418506056064643417e-03
9.003918528556823730e+00 3.450883264653384686e+00 -1.342229023575214342e-02
8.967907786369323730e+00 3.529252405278384686e+00 -1.276616230606464342e-02
1.213599860668182373e+01 3.098222131840884686e+00 8.846064433456035658e-02
1.207929694652557373e+01 3.208085413090884686e+00 8.933039531112285658e-02
1.316737067699432373e+01 3.391312952153384686e+00 1.179406248033103566e-01
1.334010016918182373e+01 3.528397913090884686e+00 1.245781980454978566e-01
1.351734626293182373e+01 3.669022913090884686e+00 1.313683591783103566e-01
9.450573801994323730e+00 3.409989709965884686e+00 3.386469706893535658e-02
9.013195872306823730e+00 3.451249475590884686e+00 2.452631816268535658e-02
8.946423411369323730e+00 3.526200647465884686e+00 2.449580058456035658e-02
1.211225593090057373e+01 3.096146936528384686e+00 1.399743162095603566e-01
1.200904548168182373e+01 3.203202600590884686e+00 1.393181882798728566e-01
1.201813971996307373e+01 3.315751428715884686e+00 1.418206296861228566e-01
1.473701179027557373e+01 3.631913538090884686e+00 2.223565183579978566e-01
1.499256598949432373e+01 3.793290491215884686e+00 2.325799070298728566e-01
9.470959544181823730e+00 3.411332483403384686e+00 7.422419413924785658e-02
9.073010325431823730e+00 3.456864709965884686e+00 6.427546367049785658e-02
8.932629466056823730e+00 3.524003381840884686e+00 6.178828105331035658e-02
1.216370856761932373e+01 3.097367639653384686e+00 1.935021482408103566e-01
1.196607673168182373e+01 3.199906702153384686e+00 1.895653806626853566e-01
1.197565925121307373e+01 3.311967249028384686e+00 1.921593748033103566e-01
1.723896491527557373e+01 3.817948694340884686e+00 3.703209958970603566e-01
1.758930671215057373e+01 4.012528772465884686e+00 3.854729734361228566e-01
9.484387278556823730e+00 3.411820764653384686e+00 1.147667966783103566e-01
9.098034739494323730e+00 3.458939905278384686e+00 1.034142576158103566e-01
8.922619700431823730e+00 3.522172327153384686e+00 9.891291484237285658e-02
1.217805182933807373e+01 3.097001428715884686e+00 2.464043699204978566e-01
1.193629157543182373e+01 3.197221155278384686e+00 2.396752439439353566e-01
1.194752204418182373e+01 3.309159631840884686e+00 2.424218259751853566e-01
1.070533454418182373e+01 3.328324670903384686e+00 1.975304685533103566e-01
1.003333747386932373e+01 3.370560999028384686e+00 1.739098630845603566e-01
9.494763255119323730e+00 3.412186975590884686e+00 1.551415525376853566e-01
9.138317942619323730e+00 3.462479944340884686e+00 1.431939207017478566e-01
8.916882395744323730e+00 3.520951624028384686e+00 1.363427244126853566e-01
1.214509284496307373e+01 3.094437952153384686e+00 2.972161374986228566e-01
1.191743171215057373e+01 3.195145959965884686e+00 2.902886472642478566e-01
1.109077155590057373e+01 3.252885217778384686e+00 2.575585447251853566e-01
1.047572028636932373e+01 3.310258264653384686e+00 2.335259519517478566e-01
1.000794684886932373e+01 3.367631311528384686e+00 2.155358396470603566e-01
9.511731028556823730e+00 3.413163538090884686e+00 1.961266599595603566e-01
9.110730051994323730e+00 3.458939905278384686e+00 1.806389890611228566e-01
8.916516184806823730e+00 3.520341272465884686e+00 1.737572751939353566e-01
1.223170173168182373e+01 3.097245569340884686e+00 3.535973630845603566e-01
1.167152106761932373e+01 3.180863733403384686e+00 3.298394285142478566e-01
1.104194343090057373e+01 3.248856897465884686e+00 3.025719724595603566e-01
1.045960700511932373e+01 3.308305139653384686e+00 2.772729001939353566e-01
9.958264231681823730e+00 3.362748499028384686e+00 2.555749021470603566e-01
9.526867747306823730e+00 3.413895959965884686e+00 2.369896970689353566e-01
9.095715403556823730e+00 3.456742639653384686e+00 2.182366453111228566e-01
8.918225169181823730e+00 3.519975061528384686e+00 2.114922605454978566e-01
1.225019538402557373e+01 3.097001428715884686e+00 4.070489011704978566e-01
1.164173591136932373e+01 3.178178186528384686e+00 3.782708249986228566e-01
1.098353278636932373e+01 3.244218225590884686e+00 3.469140134751853566e-01
1.040723884105682373e+01 3.303544397465884686e+00 3.192650876939353566e-01
9.916149973869323730e+00 3.358476038090884686e+00 2.957970701158103566e-01
9.639538645744323730e+00 3.423783655278384686e+00 2.833306394517478566e-01
9.168835520744323730e+00 3.463822717778384686e+00 2.603509031236228566e-01
8.822888255119323730e+00 3.508378381840884686e+00 2.439477048814353566e-01
1.220454108715057373e+01 3.093949670903384686e+00 4.573876462876853566e-01
1.158802497386932373e+01 3.174271936528384686e+00 4.253899656236228566e-01
1.093275153636932373e+01 3.240067834965884686e+00 3.909203611314353566e-01
1.037098395824432373e+01 3.300126428715884686e+00 3.614556394517478566e-01
9.883557200431823730e+00 3.354935999028384686e+00 3.359582029283103566e-01
9.626110911369323730e+00 3.421830530278384686e+00 3.233391843736228566e-01
9.175061106681823730e+00 3.463822717778384686e+00 2.995507322251853566e-01
8.809094309806823730e+00 3.506303186528384686e+00 2.804314695298728566e-01
1.229597175121307373e+01 3.097001428715884686e+00 5.153557859361228566e-01
1.154322516918182373e+01 3.170976038090884686e+00 4.723107419908103566e-01
1.089405524730682373e+01 3.236649866215884686e+00 4.352318845689353566e-01
1.033594977855682373e+01 3.296708459965884686e+00 4.034325681626853566e-01
9.855358958244323730e+00 3.351762170903384686e+00 3.761345945298728566e-01
9.613049387931823730e+00 3.419999475590884686e+00 3.632714353501853566e-01
9.158337473869323730e+00 3.461381311528384686e+00 3.371941648423728566e-01
8.814587473869323730e+00 3.506303186528384686e+00 3.178002439439353566e-01
1.229414069652557373e+01 3.095780725590884686e+00 5.683953367173728566e-01
1.150275886058807373e+01 3.167802209965884686e+00 5.193841062486228566e-01
1.086231696605682373e+01 3.233720178715884686e+00 4.799096189439353566e-01
1.031556403636932373e+01 3.294389124028384686e+00 4.462945066392478566e-01
9.838635325431823730e+00 3.349686975590884686e+00 4.170281492173728566e-01
9.598156809806823730e+00 3.417802209965884686e+00 4.032036863267478566e-01
9.160900950431823730e+00 3.461015100590884686e+00 3.762108884751853566e-01
8.787732005119323730e+00 3.502641077153384686e+00 3.532769285142478566e-01
1.229163825511932373e+01 3.094682092778384686e+00 6.211297117173728566e-01
1.148035895824432373e+01 3.165604944340884686e+00 5.671288572251853566e-01
1.083656013011932373e+01 3.231278772465884686e+00 5.244805417954978566e-01
1.025709235668182373e+01 3.289262170903384686e+00 4.860741697251853566e-01
9.782238841056823730e+00 3.344193811528384686e+00 4.547936521470603566e-01
9.576550364494323730e+00 3.415116663090884686e+00 4.423272214829978566e-01
9.128186106681823730e+00 3.456986780278384686e+00 4.125420652329978566e-01
8.802380442619323730e+00 3.503739709965884686e+00 3.912865720689353566e-01
1.230170905590057373e+01 3.093949670903384686e+00 6.750847898423728566e-01
1.139338386058807373e+01 3.159989709965884686e+00 6.101281248033103566e-01
1.077613532543182373e+01 3.226518030278384686e+00 5.662591062486228566e-01
1.027540290355682373e+01 3.289750452153384686e+00 5.311028562486228566e-01
9.820690989494323730e+00 3.346635217778384686e+00 4.991662107408103566e-01
9.549694895744323730e+00 3.411942834965884686e+00 4.808861814439353566e-01
9.145398020744323730e+00 3.458207483403384686e+00 4.525811277329978566e-01
8.835217356681823730e+00 3.506913538090884686e+00 4.310357175767478566e-01
1.254377448558807373e+01 3.103593225590884686e+00 7.471825681626853566e-01
1.142933356761932373e+01 3.160966272465884686e+00 6.618249021470603566e-01
1.080311286449432373e+01 3.227372522465884686e+00 6.146905027329978566e-01
1.026990973949432373e+01 3.288529749028384686e+00 5.746666990220603566e-01
9.808606028556823730e+00 3.344926233403384686e+00 5.401208005845603566e-01
9.507458567619323730e+00 3.407304163090884686e+00 5.181939207017478566e-01
9.515148997306823730e+00 3.496049280278384686e+00 5.209405027329978566e-01
8.856945872306823730e+00 3.508866663090884686e+00 4.700066648423728566e-01
1.248011481761932373e+01 3.099686975590884686e+00 7.963006101548728566e-01
1.141743171215057373e+01 3.159379358403384686e+00 7.098748289048728566e-01
1.078797614574432373e+01 3.225541467778384686e+00 6.596123777329978566e-01
1.026099860668182373e+01 3.287186975590884686e+00 6.176812253892478566e-01
9.809094309806823730e+00 3.344193811528384686e+00 5.818230710923728566e-01
9.455456614494323730e+00 3.401688928715884686e+00 5.540825925767478566e-01
9.458996653556823730e+00 3.489579553715884686e+00 5.565392576158103566e-01
8.877697825431823730e+00 3.510575647465884686e+00 5.093285642564353566e-01
1.238392341136932373e+01 3.094437952153384686e+00 8.417107664048728566e-01
1.141608893871307373e+01 3.158280725590884686e+00 7.590386472642478566e-01
1.078638923168182373e+01 3.224564905278384686e+00 7.058617673814353566e-01
1.025989997386932373e+01 3.286210413090884686e+00 6.615655027329978566e-01
9.825573801994323730e+00 3.344926233403384686e+00 6.252038083970603566e-01
9.427014231681823730e+00 3.398270959965884686e+00 5.918480955064353566e-01
9.376721262931823730e+00 3.480424280278384686e+00 5.894982419908103566e-01
8.900280833244323730e+00 3.512528772465884686e+00 5.488335691392478566e-01
1.221192634105682373e+01 3.085893030278384686e+00 8.795067869126853566e-01
1.142078864574432373e+01 3.157670374028384686e+00 8.085076414048728566e-01
1.079884040355682373e+01 3.224442834965884686e+00 7.531945310533103566e-01
1.028138434886932373e+01 3.287064905278384686e+00 7.073418699204978566e-01
9.845105051994323730e+00 3.345780725590884686e+00 6.688286863267478566e-01
9.457898020744323730e+00 3.400590295903384686e+00 6.347252927720603566e-01
9.130383372306823730e+00 3.454057092778384686e+00 6.060540281236228566e-01
8.923962473869323730e+00 3.514726038090884686e+00 5.888573728501853566e-01
1.231110846996307373e+01 3.089066858403384686e+00 9.418694578111228566e-01
1.146430671215057373e+01 3.159013147465884686e+00 8.621117673814353566e-01
1.083021247386932373e+01 3.225541467778384686e+00 8.027550779283103566e-01
1.031080329418182373e+01 3.288407678715884686e+00 7.543541990220603566e-01
9.874279856681823730e+00 3.347489709965884686e+00 7.138268552720603566e-01
9.491833567619323730e+00 3.403031702153384686e+00 6.784264646470603566e-01
9.171643137931823730e+00 3.457719202153384686e+00 6.490075193345603566e-01
8.954235911369323730e+00 3.517533655278384686e+00 6.295983396470603566e-01
1.243800055980682373e+01 3.093583459965884686e+00 1.008290966600185357e+00
1.152503669261932373e+01 3.161210413090884686e+00 9.179131589829978566e-01
1.088782966136932373e+01 3.228349084965884686e+00 8.550927244126853566e-01
1.035279548168182373e+01 3.290727014653384686e+00 8.027245603501853566e-01
9.911389231681823730e+00 3.349931116215884686e+00 7.597252927720603566e-01
9.529187083244323730e+00 3.405839319340884686e+00 7.226159177720603566e-01
9.209240794181823730e+00 3.461015100590884686e+00 6.919762693345603566e-01
8.967297434806823730e+00 3.518388147465884686e+00 6.690423093736228566e-01
1.261091315746307373e+01 3.099931116215884686e+00 1.080846508592372857e+00
1.160993659496307373e+01 3.164872522465884686e+00 9.766289792954978566e-01
1.090198981761932373e+01 3.228349084965884686e+00 9.035851560533103566e-01
1.041309821605682373e+01 3.294267053715884686e+00 8.537041746079978566e-01
9.957531809806823730e+00 3.352982874028384686e+00 8.071801267564353566e-01
9.539074778556823730e+00 3.406083459965884686e+00 7.644097410142478566e-01
9.224621653556823730e+00 3.461991663090884686e+00 7.327019773423728566e-01
9.016857981681823730e+00 3.523515100590884686e+00 7.126061521470603566e-01
9.617199778556823730e+00 3.539872522465884686e+00 7.905633054673728566e-01
9.554333567619323730e+00 3.634354944340884686e+00 7.867486082017478566e-01
9.533337473869323730e+00 3.732743616215884686e+00 7.873437009751853566e-01
9.489758372306823730e+00 3.827836389653384686e+00 7.857873044908103566e-01
1.025257575511932373e+01 3.698808069340884686e+00 8.539635740220603566e-01
1.024305427074432373e+01 3.817094202153384686e+00 8.565117917954978566e-01
1.025208747386932373e+01 3.937455530278384686e+00 8.609673582017478566e-01
1.027100837230682373e+01 4.059769983403384686e+00 8.664605222642478566e-01
