1.749829852581024170e+01 3.796039391309022903e+00 5.850118059665021519e-01
1.990540301799774170e+01 4.492572594434022903e+00 7.296040911227521519e-01
1.986804950237274170e+01 4.675189781934022903e+00 7.422536272555646519e-01
2.043494403362274170e+01 4.923114586621522903e+00 7.827809710055646519e-01
2.105237567424774170e+01 5.188129235059022903e+00 8.265279192477521519e-01
1.692896258831024170e+01 3.602435875684022903e+00 6.203969378024396519e-01
1.747840106487274170e+01 3.789325524121522903e+00 6.585439104586896519e-01
1.990406024456024170e+01 4.486224938184022903e+00 8.153279680758771519e-01
1.985913836956024170e+01 4.667987633496522903e+00 8.275044817477521519e-01
2.041504657268524170e+01 4.914569664746522903e+00 8.701680559665021519e-01
2.103150165081024170e+01 5.179218102246522903e+00 9.162953753024396519e-01
1.691028583049774170e+01 3.596088219434022903e+00 6.912587542086896519e-01
1.745862567424774170e+01 3.782611656934022903e+00 7.315419573336896519e-01
1.990271747112274170e+01 4.479755211621522903e+00 9.006245989352521519e-01
1.985022723674774170e+01 4.660907555371522903e+00 9.122670549899396519e-01
2.039527118206024170e+01 4.906146813184022903e+00 9.569600481540021519e-01
2.101050555706024170e+01 5.170184899121522903e+00 1.006413783505564652e+00
1.689173114299774170e+01 3.589740563184022903e+00 7.616322893649396519e-01
1.743885028362274170e+01 3.775897789746522903e+00 8.044179338961896519e-01
1.990137469768524170e+01 4.473407555371522903e+00 9.864247698336896519e-01
1.984119403362274170e+01 4.653827477246522903e+00 9.974416155368146519e-01
2.037549579143524170e+01 4.897723961621522903e+00 1.043614711239939652e+00
2.098963153362274170e+01 5.161273766309022903e+00 1.095921840146189652e+00
1.687305438518524170e+01 3.583514977246522903e+00 8.322499651461896519e-01
1.741907489299774170e+01 3.769183922559022903e+00 8.775380510836896519e-01
1.989990985393524170e+01 4.466937828809022903e+00 1.071797694638377152e+00
1.983618915081024170e+01 4.647113610059022903e+00 1.082387294247752152e+00
2.035572040081024170e+01 4.889179039746522903e+00 1.130620326474314652e+00
2.096875751018524170e+01 5.152240563184022903e+00 1.185750331357127152e+00
1.685462176799774170e+01 3.577167320996522903e+00 9.023641008883771519e-01
1.739942157268524170e+01 3.762470055371522903e+00 9.501241106540021519e-01
1.989856708049774170e+01 4.460590172559022903e+00 1.157216395810252152e+00
1.983277118206024170e+01 4.640643883496522903e+00 1.167439784482127152e+00
2.034253680706024170e+01 4.881488610059022903e+00 1.217473353818064652e+00
2.099756610393524170e+01 5.149188805371522903e+00 1.278447474911814652e+00
1.683606708049774170e+01 3.570941735059022903e+00 9.727223772555646519e-01
1.737976825237274170e+01 3.755756188184022903e+00 1.022969569638377152e+00
1.683216083049774170e+01 3.565326500684022903e+00 1.043645228818064652e+00
1.742066180706024170e+01 3.752460289746522903e+00 1.099797572568064652e+00
1.656140887737274170e+01 4.678607750684022903e+00 3.347524065524396519e-01
1.675159442424774170e+01 4.856586266309022903e+00 3.517812151461896519e-01
1.699365985393524170e+01 5.046283531934022903e+00 3.703053850680646519e-01
1.773242938518524170e+01 5.316180992871522903e+00 4.044545549899396519e-01
1.809888446331024170e+01 5.541644860059022903e+00 4.280293840915021519e-01
1.855261981487274170e+01 5.789813805371522903e+00 4.549764055758771519e-01
1.917212665081024170e+01 6.078388024121522903e+00 4.881184954196271519e-01
2.024512469768524170e+01 6.466205406934022903e+00 5.369466204196271519e-01
2.003076922893524170e+01 5.086688805371522903e+00 5.196431536227521519e-01
2.312378680706024170e+01 5.894916344434022903e+00 6.544698137790021519e-01
2.302686297893524170e+01 6.102191735059022903e+00 6.672719378024396519e-01
2.355945575237274170e+01 6.407855797559022903e+00 7.025807756930646519e-01
2.416944110393524170e+01 6.738300133496522903e+00 7.415974993258771519e-01
4.179920184612274170e+01 1.014809017255902290e+01 1.418874110654002152e+00
4.229737079143524170e+01 1.065846614912152290e+01 1.468312587216502152e+00
2.109888446331024170e+01 5.207416344434022903e+00 6.462911028415021519e-01
2.312329852581024170e+01 5.887836266309022903e+00 7.549947161227521519e-01
2.302405536174774170e+01 6.094745445996522903e+00 7.674153704196271519e-01
2.354090106487274170e+01 6.397846031934022903e+00 8.047231096774396519e-01
2.415003192424774170e+01 6.727680016309022903e+00 8.466695208102521519e-01
4.251624286174774170e+01 1.026417903974652290e+01 1.638036097958689652e+00
4.243396747112274170e+01 1.067164974287152290e+01 1.665761317685252152e+00
2.107788836956024170e+01 5.198383141309022903e+00 7.363637346774396519e-01
2.312281024456024170e+01 5.880634117871522903e+00 8.561147112399396519e-01
2.302124774456024170e+01 6.087299156934022903e+00 8.681386370211896519e-01
2.352222430706024170e+01 6.387714195996522903e+00 9.072774309665021519e-01
2.413050067424774170e+01 6.717181969434022903e+00 9.521840471774396519e-01
4.269458758831024170e+01 1.028322200849652290e+01 1.838795985654002152e+00
4.237708270549774170e+01 1.064796810224652290e+01 1.854359950497752152e+00
2.105689227581024170e+01 5.189349938184022903e+00 8.267873186618146519e-01
2.312244403362274170e+01 5.873431969434022903e+00 9.567464251071271519e-01
2.301856219768524170e+01 6.079852867871522903e+00 9.683431047946271519e-01
2.350379168987274170e+01 6.377704430371522903e+00 1.009190883114939652e+00
2.411109149456024170e+01 6.706683922559022903e+00 1.057027186825877152e+00
4.275940692424774170e+01 1.028175716474652290e+01 2.034459437802439652e+00
2.103589618206024170e+01 5.180438805371522903e+00 9.165852922946271519e-01
2.312195575237274170e+01 5.866229820996522903e+00 1.057973231747752152e+00
2.301575458049774170e+01 6.072528649121522903e+00 1.069127406552439652e+00
2.348511493206024170e+01 6.367572594434022903e+00 1.111531581357127152e+00
2.409168231487274170e+01 6.696063805371522903e+00 1.162312831357127152e+00
2.101490008831024170e+01 5.171405602246522903e+00 1.006718959286814652e+00
2.312146747112274170e+01 5.859149742871522903e+00 1.158711757138377152e+00
2.301294696331024170e+01 6.065082360059022903e+00 1.169408168271189652e+00
2.346668231487274170e+01 6.357562828809022903e+00 1.213216151669627152e+00
2.407227313518524170e+01 6.685565758496522903e+00 1.266911830380564652e+00
2.099414813518524170e+01 5.162494469434022903e+00 1.096242274716502152e+00
2.312097918987274170e+01 5.851947594434022903e+00 1.260045375302439652e+00
2.301026141643524170e+01 6.057636070996522903e+00 1.270253505185252152e+00
2.344812762737274170e+01 6.347553063184022903e+00 1.315343226864939652e+00
2.405286395549774170e+01 6.675067711621522903e+00 1.371968593075877152e+00
2.097315204143524170e+01 5.153461266309022903e+00 1.186086024716502152e+00
2.313404071331024170e+01 5.846576500684022903e+00 1.361806239560252152e+00
2.302527606487274170e+01 6.052875328809022903e+00 1.371816005185252152e+00
2.100415790081024170e+01 5.150653649121522903e+00 1.278966273739939652e+00
2.024915301799774170e+01 6.467548180371522903e+00 5.371297258883771519e-01
2.097266376018524170e+01 6.808002281934022903e+00 5.759480852633771519e-01
2.199011981487274170e+01 7.226459313184022903e+00 6.256917376071271519e-01
2.322388446331024170e+01 7.715717125684022903e+00 6.847585100680646519e-01
5.531470477581024170e+01 1.539870052412152290e+01 1.870824183896189652e+00
5.497193133831024170e+01 1.588222103193402290e+01 1.897420253232127152e+00
2.889624774456024170e+01 9.843036461621522903e+00 9.478200335055646519e-01
2.922742450237274170e+01 1.022255306318402290e+01 9.801991838961896519e-01
4.229566180706024170e+01 1.065968685224652290e+01 1.468358363583689652e+00
2.604773700237274170e+01 7.820575524121522903e+00 8.651631731540021519e-01
2.648682391643524170e+01 8.169208336621522903e+00 9.012502092868146519e-01
2.705762469768524170e+01 8.558246422559022903e+00 9.428304094821271519e-01
5.619776141643524170e+01 1.558705501630902290e+01 2.161870326474314652e+00
5.572534930706024170e+01 1.604872493818402290e+01 2.182668055966502152e+00
2.889844501018524170e+01 9.835468102246522903e+00 1.077855433896189652e+00
2.921314227581024170e+01 1.021046810224652290e+01 1.112096156552439652e+00
4.243360126018524170e+01 1.067299251630902290e+01 1.665852870419627152e+00
2.604602801799774170e+01 7.812518883496522903e+00 9.809316057711896519e-01
2.647034442424774170e+01 8.157977867871522903e+00 1.018071498349314652e+00
2.704053485393524170e+01 8.546649742871522903e+00 1.062566127255564652e+00
5.749182879924774170e+01 1.587025814130902290e+01 2.478871669247752152e+00
5.680042254924774170e+01 1.629274349287152290e+01 2.488789882138377152e+00
2.890064227581024170e+01 9.827777672559022903e+00 1.208684291318064652e+00
2.919886004924774170e+01 1.019850521162152290e+01 1.243932094052439652e+00
4.237610614299774170e+01 1.064931087568402290e+01 1.854420985654002152e+00
2.604590594768524170e+01 7.804828453809022903e+00 1.096822108700877152e+00
2.645386493206024170e+01 8.146747399121522903e+00 1.135426845029002152e+00
2.702344501018524170e+01 8.534930992871522903e+00 1.182835902646189652e+00
2.890271747112274170e+01 9.819965172559022903e+00 1.339604701474314652e+00
2.918469989299774170e+01 1.018654232099652290e+01 1.375005092099314652e+00
2.604663836956024170e+01 7.797382164746522903e+00 1.212224330380564652e+00
2.643750751018524170e+01 8.135639000684022903e+00 1.252080287411814652e+00
2.700635516643524170e+01 8.523334313184022903e+00 1.302388514950877152e+00
2.890491473674774170e+01 9.812274742871522903e+00 1.469930018857127152e+00
2.917041766643524170e+01 1.017445736005902290e+01 1.506734218075877152e+00
2.604737079143524170e+01 7.789813805371522903e+00 1.328313197568064652e+00
2.642102801799774170e+01 8.124408531934022903e+00 1.369267787411814652e+00
2.698926532268524170e+01 8.511737633496522903e+00 1.422490443661814652e+00
2.892591083049774170e+01 9.809345055371522903e+00 1.602208461239939652e+00
2.604810321331024170e+01 7.782245445996522903e+00 1.443852748349314652e+00
2.641370379924774170e+01 8.115131188184022903e+00 1.486317958310252152e+00
2.708887469768524170e+01 8.525775719434022903e+00 1.549321498349314652e+00
2.923120868206024170e+01 1.022450618818402290e+01 9.804128069430646519e-01
2.975354754924774170e+01 1.066518001630902290e+01 1.021443690732127152e+00
5.380445086956024170e+01 1.783327083662152290e+01 2.005849208310252152e+00
5.357190692424774170e+01 1.833205013349652290e+01 2.034093226864939652e+00
3.153028094768524170e+01 1.213100032880902290e+01 1.156407679989939652e+00
3.177564227581024170e+01 1.253859310224652290e+01 1.188680018857127152e+00
3.227185809612274170e+01 1.303712825849652290e+01 1.232304896786814652e+00
3.920459735393524170e+01 1.573634700849652290e+01 1.557164515927439652e+00
2.921692645549774170e+01 1.021254329755902290e+01 1.112325038388377152e+00
2.973889911174774170e+01 1.065272884443402290e+01 1.155492152646189652e+00
5.454407489299774170e+01 1.802870540693402290e+01 2.289845790341502152e+00
5.435779559612274170e+01 1.854945736005902290e+01 2.320409144833689652e+00
3.153357684612274170e+01 1.212330989912152290e+01 1.301778163388377152e+00
3.176306903362274170e+01 1.252589778974652290e+01 1.334950770810252152e+00
3.225904071331024170e+01 1.302431087568402290e+01 1.380605067685252152e+00
5.284815204143524170e+01 2.036110286787152290e+01 2.403386439755564652e+00
2.920264422893524170e+01 1.020045833662152290e+01 1.244176234677439652e+00
2.972412860393524170e+01 1.064039974287152290e+01 1.290212001279002152e+00
5.547608172893524170e+01 1.827870540693402290e+01 2.589253749325877152e+00
5.529370868206024170e+01 1.881080989912152290e+01 2.620595302060252152e+00
3.153687274456024170e+01 1.211574153974652290e+01 1.446507777646189652e+00
3.175049579143524170e+01 1.251320247724652290e+01 1.480397548154002152e+00
3.224610126018524170e+01 1.301124935224652290e+01 1.529668178036814652e+00
5.435791766643524170e+01 2.085914974287152290e+01 2.734258021786814652e+00
2.918836200237274170e+01 1.018849544599652290e+01 1.375279750302439652e+00
2.970948016643524170e+01 1.062794857099652290e+01 1.424870814755564652e+00
5.686585223674774170e+01 1.865822200849652290e+01 2.924001063779002152e+00
5.688648211956024170e+01 1.926564388349652290e+01 2.967534388974314652e+00
3.154016864299774170e+01 1.210805111005902290e+01 1.592122401669627152e+00
3.173792254924774170e+01 1.250062923505902290e+01 1.626592006161814652e+00
3.223731219768524170e+01 1.299965267255902290e+01 1.678929652646189652e+00
5.735950458049774170e+01 2.186256771162152290e+01 3.165425624325877152e+00
2.917407977581024170e+01 1.017641048505902290e+01 1.507024135068064652e+00
2.969483172893524170e+01 1.061561946943402290e+01 1.558766688779002152e+00
6.013220965862274170e+01 2.213637142255902290e+01 3.566151942685252152e+00
6.003223407268524170e+01 2.275258236005902290e+01 3.606557216122752152e+00
3.128394305706024170e+01 1.165248470380902290e+01 2.416249598935252152e+00
3.159973895549774170e+01 1.207411556318402290e+01 2.468602504208689652e+00
3.128321063518524170e+01 1.164357357099652290e+01 2.560567225888377152e+00
3.161988055706024170e+01 1.207155208662152290e+01 2.616765346005564652e+00
3.128247821331024170e+01 1.163466243818402290e+01 2.704182948544627152e+00
3.164014422893524170e+01 1.206898861005902290e+01 2.764424647763377152e+00
3.128186786174774170e+01 1.162575130537152290e+01 2.847905482724314652e+00
3.166028583049774170e+01 1.206630306318402290e+01 2.912373866513377152e+00
3.128113543987274170e+01 1.161684017255902290e+01 2.992451991513377152e+00
2.978186786174774170e+01 1.068898372724652290e+01 1.566411342099314652e+00
3.126184833049774170e+01 1.136867122724652290e+01 2.407338466122752152e+00
3.128809344768524170e+01 1.170509700849652290e+01 2.438145961239939652e+00
3.126099383831024170e+01 1.135817318037152290e+01 2.553502406552439652e+00
3.128723895549774170e+01 1.169459896162152290e+01 2.584920253232127152e+00
3.126013934612274170e+01 1.134767513349652290e+01 2.698979701474314652e+00
3.128650653362274170e+01 1.168422298505902290e+01 2.730977382138377152e+00
3.152112567424774170e+01 1.208778743818402290e+01 2.783147181943064652e+00
3.125928485393524170e+01 1.133729915693402290e+01 2.845311488583689652e+00
3.128565204143524170e+01 1.167384700849652290e+01 2.877126063779002152e+00
3.153601825237274170e+01 1.208205013349652290e+01 2.932454432919627152e+00
5.226343524456024170e+01 2.448427181318402290e+01 3.177007045224314652e+00
5.129309833049774170e+01 2.471559505537152290e+01 3.165730800107127152e+00
5.201038348674774170e+01 2.565517025068402290e+01 3.266484584286814652e+00
5.887488543987274170e+01 2.367311458662152290e+01 3.616200770810252152e+00
5.911890399456024170e+01 2.444728450849652290e+01 3.692281093075877152e+00
6.032825458049774170e+01 2.559279232099652290e+01 3.832814540341502152e+00
5.305042254924774170e+01 2.351002864912152290e+01 3.395634974911814652e+00
5.211072528362274170e+01 2.377333431318402290e+01 3.384389247372752152e+00
5.215650165081024170e+01 2.442177181318402290e+01 3.441090907529002152e+00
5.122327411174774170e+01 2.466786556318402290e+01 3.428609218075877152e+00
7.133692157268524170e+01 3.396718196943402290e+01 4.935780848935252152e+00
6.934619891643524170e+01 2.812257747724652290e+01 4.721654262021189652e+00
6.010706317424774170e+01 2.548830013349652290e+01 4.123372401669627152e+00
6.099195086956024170e+01 2.654176693037152290e+01 4.250066127255564652e+00
5.239624774456024170e+01 2.386745052412152290e+01 3.674092616513377152e+00
5.225098407268524170e+01 2.444142513349652290e+01 3.717992152646189652e+00
5.235437762737274170e+01 2.512330989912152290e+01 3.781194056943064652e+00
3.494031512737274170e+01 1.524135189130902290e+01 2.593037929013377152e+00
3.488892352581024170e+01 1.564076595380902290e+01 2.626500453427439652e+00
3.643128192424774170e+01 1.797182064130902290e+01 2.911427821591502152e+00
3.494190204143524170e+01 1.522865657880902290e+01 2.774388637021189652e+00
3.489051043987274170e+01 1.562819271162152290e+01 2.808308925107127152e+00
3.646668231487274170e+01 1.797279720380902290e+01 3.106862391904002152e+00
3.494361102581024170e+01 1.521596126630902290e+01 2.956807460263377152e+00
3.489209735393524170e+01 1.561549739912152290e+01 2.991200770810252152e+00
3.616468036174774170e+01 1.738100032880902290e+01 1.660237636044627152e+00
3.630591571331024170e+01 1.788869075849652290e+01 1.703893031552439652e+00
3.671411883831024170e+01 1.851247005537152290e+01 1.762883510068064652e+00
5.165918719768524170e+01 2.534779720380902290e+01 2.647176112607127152e+00
5.377173602581024170e+01 2.691920833662152290e+01 2.820393886044627152e+00
5.336634051799774170e+01 2.741066341474652290e+01 2.848836268857127152e+00
5.338684833049774170e+01 2.282423763349652290e+01 2.760976161435252152e+00
5.232874286174774170e+01 2.305958919599652290e+01 2.751592006161814652e+00
5.167017352581024170e+01 2.343226986005902290e+01 2.764180507138377152e+00
5.111475360393524170e+01 2.383864193037152290e+01 2.782292689755564652e+00
5.122559344768524170e+01 2.451124935224652290e+01 2.840062465146189652e+00
5.095130145549774170e+01 2.502736263349652290e+01 2.874699916318064652e+00
5.561670672893524170e+01 2.770753841474652290e+01 3.218861903622752152e+00
5.568091571331024170e+01 2.843239193037152290e+01 3.279622401669627152e+00
5.658875262737274170e+01 2.398280696943402290e+01 3.233235682919627152e+00
5.296863543987274170e+01 2.328285579755902290e+01 3.063390101864939652e+00
5.175806415081024170e+01 2.344752864912152290e+01 3.039235438779002152e+00
5.201331317424774170e+01 2.418129329755902290e+01 3.108281459286814652e+00
5.111695086956024170e+01 2.444740657880902290e+01 3.102391566708689652e+00
5.698938739299774170e+01 2.757912044599652290e+01 3.546574916318064652e+00
5.716394793987274170e+01 2.836427669599652290e+01 3.617375697568064652e+00
5.914270770549774170e+01 2.490077571943402290e+01 3.695256556943064652e+00
5.298767840862274170e+01 2.327052669599652290e+01 3.338078822568064652e+00
5.269019305706024170e+01 2.379237728193402290e+01 3.371861781552439652e+00
3.671179950237274170e+01 1.801088314130902290e+01 2.312993373349314652e+00
5.174268329143524170e+01 2.468739681318402290e+01 3.414250697568064652e+00
7.112586200237274170e+01 3.357118587568402290e+01 4.857655848935252152e+00
7.075427997112274170e+01 3.428517513349652290e+01 4.905141200497752152e+00
3.856519305706024170e+01 2.070546321943402290e+01 2.607808436825877152e+00
6.119666278362274170e+01 2.563331966474652290e+01 4.144978846982127152e+00
6.046875751018524170e+01 2.608363704755902290e+01 4.155064906552439652e+00
5.251221454143524170e+01 2.370326595380902290e+01 3.633504237607127152e+00
3.670496356487274170e+01 1.799415950849652290e+01 2.508992518857127152e+00
5.237781512737274170e+01 2.493080501630902290e+01 3.734624232724314652e+00
3.857398211956024170e+01 2.069520931318402290e+01 2.816563929989939652e+00
6.103260028362274170e+01 2.627455501630902290e+01 4.510915126279002152e+00
3.670618426799774170e+01 1.798085384443402290e+01 2.704610194638377152e+00
3.858277118206024170e+01 2.068495540693402290e+01 3.026646937802439652e+00
3.671326434612274170e+01 1.796998958662152290e+01 2.900838221982127152e+00
6.502796161174774170e+01 3.166456966474652290e+01 6.192586268857127152e+00
6.511609637737274170e+01 3.251271419599652290e+01 6.277180995419627152e+00
6.491321551799774170e+01 3.159096126630902290e+01 6.523122157529002152e+00
6.563904559612274170e+01 3.272291927412152290e+01 6.675755824521189652e+00
6.455518329143524170e+01 3.221522884443402290e+01 6.902806605771189652e+00
6.516016376018524170e+01 3.165138607099652290e+01 7.231358851864939652e+00
6.581421649456024170e+01 3.275392513349652290e+01 7.388158168271189652e+00
6.665613543987274170e+01 3.310585384443402290e+01 7.834889735654002152e+00
6.566565692424774170e+01 3.264027767255902290e+01 8.064610804989939652e+00
5.810449969768524170e+01 3.012086849287152290e+01 3.748921718075877152e+00
6.153528583049774170e+01 3.247511653974652290e+01 4.050465907529002152e+00
5.181592547893524170e+01 2.333705501630902290e+01 3.264577235654002152e+00
3.672949969768524170e+01 1.796290950849652290e+01 2.276433314755564652e+00
5.157166278362274170e+01 2.450905208662152290e+01 3.356435145810252152e+00
7.054993426799774170e+01 3.315236263349652290e+01 4.759114589169627152e+00
7.084046161174774170e+01 3.414882259443402290e+01 4.853627528622752152e+00
3.859192645549774170e+01 2.067396907880902290e+01 2.572591151669627152e+00
6.028870379924774170e+01 2.659132747724652290e+01 4.155705775693064652e+00
5.171692645549774170e+01 2.391176204755902290e+01 3.584416713193064652e+00
5.229932391643524170e+01 2.478798275068402290e+01 3.683171596005564652e+00
7.122498309612274170e+01 3.428969173505902290e+01 5.254124965146189652e+00
3.860083758831024170e+01 2.066359310224652290e+01 2.783833827450877152e+00
6.776978290081024170e+01 3.449452571943402290e+01 5.134785975888377152e+00
6.110388934612274170e+01 2.688368587568402290e+01 4.532033290341502152e+00
5.174805438518524170e+01 2.390492611005902290e+01 3.858708705380564652e+00
3.860974872112274170e+01 2.065309505537152290e+01 2.995274867489939652e+00
6.772205340862274170e+01 3.444838314130902290e+01 5.489583339169627152e+00
6.501624286174774170e+01 3.403993587568402290e+01 5.334798182919627152e+00
6.435779559612274170e+01 3.370814876630902290e+01 5.623784388974314652e+00
6.764148700237274170e+01 3.350856380537152290e+01 6.123067225888377152e+00
6.699121844768524170e+01 3.406642513349652290e+01 6.140233363583689652e+00
6.693604266643524170e+01 3.489149837568402290e+01 6.213139857724314652e+00
6.544715106487274170e+01 3.251112728193402290e+01 6.264653529599314652e+00
6.709107196331024170e+01 3.408766536787152290e+01 6.507420863583689652e+00
6.355152118206024170e+01 3.328480892255902290e+01 6.231587733700877152e+00
6.473035418987274170e+01 3.216969661787152290e+01 6.538701381161814652e+00
6.401441180706024170e+01 3.266322689130902290e+01 6.542241420224314652e+00
6.473621356487274170e+01 3.381557064130902290e+01 6.696309413388377152e+00
6.515125262737274170e+01 3.151796321943402290e+01 6.847707118466502152e+00
6.462403094768524170e+01 3.209913997724652290e+01 6.869939174130564652e+00
6.491809833049774170e+01 3.305104427412152290e+01 6.981816615536814652e+00
6.451209247112274170e+01 3.368751888349652290e+01 7.019185389950877152e+00
6.482495868206024170e+01 3.216444759443402290e+01 7.236928309872752152e+00
6.409607684612274170e+01 3.265394954755902290e+01 7.234868373349314652e+00
6.392469012737274170e+01 3.339015560224652290e+01 7.296025599911814652e+00
6.565882098674774170e+01 3.250966243818402290e+01 7.679204310849314652e+00
6.330908954143524170e+01 3.227333431318402290e+01 7.482106532529002152e+00
6.398816668987274170e+01 3.339662532880902290e+01 7.647542323544627152e+00
6.580323016643524170e+01 3.254957943037152290e+01 8.046819056943064652e+00
6.397657001018524170e+01 3.255324153974652290e+01 7.904713954404002152e+00
6.462683856487274170e+01 3.199135189130902290e+01 6.720265712216502152e+00
6.491370379924774170e+01 3.294032650068402290e+01 6.831487025693064652e+00
6.348352801799774170e+01 3.310756282880902290e+01 6.758214320614939652e+00
6.487866961956024170e+01 3.459486751630902290e+01 6.991856898739939652e+00
1.885669696331024170e+01 1.297352962568402290e+01 1.981267299130564652e+00
6.484656512737274170e+01 3.206349544599652290e+01 7.090840663388377152e+00
6.413245379924774170e+01 3.256349544599652290e+01 7.093083705380564652e+00
6.428247821331024170e+01 3.345412044599652290e+01 7.192342128232127152e+00
6.468848407268524170e+01 3.448036556318402290e+01 7.322347011044627152e+00
1.828125751018524170e+01 1.268495540693402290e+01 2.030858363583689652e+00
6.502259051799774170e+01 3.211659603193402290e+01 7.456868495419627152e+00
6.410218036174774170e+01 3.252601986005902290e+01 7.433125819638377152e+00
6.387635028362274170e+01 3.324208431318402290e+01 7.490147914364939652e+00
6.450586688518524170e+01 3.436964778974652290e+01 7.650075282529002152e+00
1.786023700237274170e+01 1.247194271162152290e+01 2.093861903622752152e+00
6.331238543987274170e+01 3.214613704755902290e+01 7.681935634091502152e+00
6.372071063518524170e+01 3.314625911787152290e+01 7.816762294247752152e+00
1.839929950237274170e+01 1.245351009443402290e+01 2.244649257138377152e+00
1.787171161174774170e+01 1.246998958662152290e+01 2.206548060849314652e+00
6.530103290081024170e+01 3.301771907880902290e+01 8.274953212216502152e+00
6.370252215862274170e+01 3.311415462568402290e+01 8.157796229794627152e+00
1.841883075237274170e+01 1.245485286787152290e+01 2.361333217099314652e+00
1.788318622112274170e+01 1.246803646162152290e+01 2.320012416318064652e+00
1.844055926799774170e+01 1.245741634443402290e+01 2.477940883114939652e+00
1.830335223674774170e+01 1.266469173505902290e+01 2.489400233700877152e+00
6.520178973674774170e+01 3.296889095380902290e+01 7.176259364560252152e+00
6.434571063518524170e+01 3.341542415693402290e+01 7.165181483700877152e+00
6.382178485393524170e+01 3.400331478193402290e+01 7.190327968075877152e+00
1.866052997112274170e+01 1.293202571943402290e+01 2.076497401669627152e+00
1.743872821331024170e+01 1.261024837568402290e+01 1.963353480771189652e+00
1.743738543987274170e+01 1.288209896162152290e+01 1.990849818661814652e+00
6.504419696331024170e+01 3.204494075849652290e+01 7.423177089169627152e+00
6.518372333049774170e+01 3.293580989912152290e+01 7.525151576474314652e+00
6.392615497112274170e+01 3.319777278974652290e+01 7.464131679013377152e+00
6.425611102581024170e+01 3.418422298505902290e+01 7.589345302060252152e+00
1.784827411174774170e+01 1.253017025068402290e+01 2.096562709286814652e+00
1.739832293987274170e+01 1.258241634443402290e+01 2.070439662411814652e+00
1.731421649456024170e+01 1.281154232099652290e+01 2.088857020810252152e+00
6.525330340862274170e+01 3.294191341474652290e+01 7.886555995419627152e+00
6.372644793987274170e+01 3.308143978193402290e+01 7.787831630185252152e+00
1.838233172893524170e+01 1.250184993818402290e+01 2.248311366513377152e+00
1.785999286174774170e+01 1.252797298505902290e+01 2.212270106747752152e+00
1.777039325237274170e+01 1.275954036787152290e+01 2.230031337216502152e+00
1.673303973674774170e+01 1.250783138349652290e+01 2.126424159482127152e+00
6.337757098674774170e+01 3.207765560224652290e+01 8.000691737607127152e+00
6.365479266643524170e+01 3.302406673505902290e+01 8.124165858700877152e+00
1.840210711956024170e+01 1.250319271162152290e+01 2.366734828427439652e+00
1.827283465862274170e+01 1.271986751630902290e+01 2.379857387021189652e+00
1.772254168987274170e+01 1.272792415693402290e+01 2.338155116513377152e+00
1.672559344768524170e+01 1.249660091474652290e+01 2.235005702450877152e+00
1.864368426799774170e+01 1.232924251630902290e+01 2.485173549130564652e+00
1.842407977581024170e+01 1.250526790693402290e+01 2.486287440732127152e+00
1.745166766643524170e+01 1.231459407880902290e+01 2.384984340146189652e+00
1.792407977581024170e+01 1.282008724287152290e+01 2.479390468075877152e+00
1.671802508831024170e+01 1.248524837568402290e+01 2.343556727841502152e+00
1.734058368206024170e+01 1.291810970380902290e+01 2.072408046200877152e+00
1.663990008831024170e+01 1.283424739912152290e+01 2.015630092099314652e+00
1.639099872112274170e+01 1.297536068037152290e+01 2.013676967099314652e+00
6.406580340862274170e+01 3.240785579755902290e+01 7.642293300107127152e+00
6.376160418987274170e+01 3.309718685224652290e+01 7.692571010068064652e+00
1.835584247112274170e+01 1.256337337568402290e+01 2.225148524716502152e+00
1.821265399456024170e+01 1.277955989912152290e+01 2.237431849911814652e+00
1.776856219768524170e+01 1.284498958662152290e+01 2.211949672177439652e+00
1.671338641643524170e+01 1.259181575849652290e+01 2.108434047177439652e+00
1.662366473674774170e+01 1.281825618818402290e+01 2.125706996396189652e+00
1.639795672893524170e+01 1.297169857099652290e+01 2.125386561825877152e+00
6.391089618206024170e+01 3.231410579755902290e+01 7.972401942685252152e+00
6.369971454143524170e+01 3.304420833662152290e+01 8.034398402646189652e+00
1.818067157268524170e+01 1.247279720380902290e+01 2.320927943661814652e+00
1.824683368206024170e+01 1.278786068037152290e+01 2.359807338193064652e+00
1.735926043987274170e+01 1.263441829755902290e+01 2.274968471005564652e+00
1.728955829143524170e+01 1.287660579755902290e+01 2.295567836239939652e+00
1.673023211956024170e+01 1.286610775068402290e+01 2.251973475888377152e+00
1.633777606487274170e+01 1.293214778974652290e+01 2.228810634091502152e+00
1.859851825237274170e+01 1.237636165693402290e+01 2.463124598935252152e+00
1.743543231487274170e+01 1.238844661787152290e+01 2.369969691708689652e+00
1.738025653362274170e+01 1.263685970380902290e+01 2.392644252255564652e+00
1.621375262737274170e+01 1.232326107099652290e+01 2.263631190732127152e+00
1.642163836956024170e+01 1.269813900068402290e+01 2.321492518857127152e+00
1.631287372112274170e+01 1.291139583662152290e+01 2.336537684872752152e+00
1.724451434612274170e+01 1.267518978193402290e+01 2.139882411435252152e+00
1.667212665081024170e+01 1.266786556318402290e+01 2.098454799130564652e+00
1.660132586956024170e+01 1.290883236005902290e+01 2.119069423154002152e+00
1.632508075237274170e+01 1.304127864912152290e+01 2.113545741513377152e+00
1.624585711956024170e+01 1.327809505537152290e+01 2.133122767880564652e+00
1.679737079143524170e+01 1.386696224287152290e+01 2.234975184872752152e+00
1.835022723674774170e+01 1.263075618818402290e+01 2.335667933896189652e+00
1.775562274456024170e+01 1.263417415693402290e+01 2.291341151669627152e+00
1.732166278362274170e+01 1.270509700849652290e+01 2.265797938779002152e+00
1.627478778362274170e+01 1.245875911787152290e+01 2.160374965146189652e+00
1.658496844768524170e+01 1.289247493818402290e+01 2.230763759091502152e+00
1.626636493206024170e+01 1.300233821943402290e+01 2.218770350888377152e+00
1.649561297893524170e+01 1.340651302412152290e+01 2.280492152646189652e+00
1.618726336956024170e+01 1.351869564130902290e+01 2.269490565732127152e+00
1.829041278362274170e+01 1.259413509443402290e+01 2.448933925107127152e+00
1.742237079143524170e+01 1.246547298505902290e+01 2.365193690732127152e+00
1.734314715862274170e+01 1.270753841474652290e+01 2.385716762021189652e+00
1.628626239299774170e+01 1.245680599287152290e+01 2.274144496396189652e+00
1.649817645549774170e+01 1.283949642255902290e+01 2.333333339169627152e+00
1.638294208049774170e+01 1.305653743818402290e+01 2.348241176083689652e+00
1.658606708049774170e+01 1.344801693037152290e+01 2.407689418271189652e+00
1.618274676799774170e+01 1.350844173505902290e+01 2.383015956357127152e+00
1.611756122112274170e+01 1.418251400068402290e+01 2.253300990536814652e+00
1.672669208049774170e+01 1.249489193037152290e+01 2.226842250302439652e+00
1.664099872112274170e+01 1.273256282880902290e+01 2.247258510068064652e+00
1.611609637737274170e+01 1.274342708662152290e+01 2.209172572568064652e+00
1.615308368206024170e+01 1.304347591474652290e+01 2.245656337216502152e+00
1.646704852581024170e+01 1.349721126630902290e+01 2.319844569638377152e+00
1.629492938518524170e+01 1.369142513349652290e+01 2.329015101864939652e+00
1.617749774456024170e+01 1.391640071943402290e+01 2.346303309872752152e+00
1.606104266643524170e+01 1.414125423505902290e+01 2.363011683896189652e+00
1.671875751018524170e+01 1.248231868818402290e+01 2.342107142880564652e+00
1.635755145549774170e+01 1.258082943037152290e+01 2.324666346982127152e+00
1.634839618206024170e+01 1.285548763349652290e+01 2.355473842099314652e+00
1.621656024456024170e+01 1.306874446943402290e+01 2.369695033505564652e+00
1.639795672893524170e+01 1.345119075849652290e+01 2.427693690732127152e+00
1.628919208049774170e+01 1.367982845380902290e+01 2.445470179989939652e+00
1.625354754924774170e+01 1.395155696943402290e+01 2.473882045224314652e+00
1.607386004924774170e+01 1.414039974287152290e+01 2.482213344052439652e+00
1.700806415081024170e+01 1.516298275068402290e+01 2.181783046200877152e+00
1.768042743206024170e+01 1.589174251630902290e+01 2.300969447568064652e+00
1.674170672893524170e+01 1.318300228193402290e+01 2.072072352841502152e+00
1.622351825237274170e+01 1.320070247724652290e+01 2.040349330380564652e+00
1.628504168987274170e+01 1.352394466474652290e+01 2.080083217099314652e+00
1.652600848674774170e+01 1.395314388349652290e+01 2.142979945614939652e+00
1.650025165081024170e+01 1.423878841474652290e+01 2.172978724911814652e+00
1.656238543987274170e+01 1.457863216474652290e+01 2.214589442685252152e+00
1.694483172893524170e+01 1.511610775068402290e+01 2.298497523739939652e+00
1.714514911174774170e+01 1.555519466474652290e+01 2.360585536435252152e+00
1.634375751018524170e+01 1.296754818037152290e+01 2.141103114560252152e+00
1.625281512737274170e+01 1.320729427412152290e+01 2.162053431943064652e+00
1.680469501018524170e+01 1.379774837568402290e+01 2.266225184872752152e+00
1.643347918987274170e+01 1.389247493818402290e+01 2.251790370419627152e+00
1.603528583049774170e+01 1.396461849287152290e+01 2.232945765927439652e+00
1.761829364299774170e+01 1.518593196943402290e+01 2.478383387997752152e+00
1.708936297893524170e+01 1.519325618818402290e+01 2.443349208310252152e+00
1.768518817424774170e+01 1.587587337568402290e+01 2.560948695614939652e+00
1.631763446331024170e+01 1.294508724287152290e+01 2.255605067685252152e+00
1.855298602581024170e+01 1.441933040693402290e+01 2.586354579404002152e+00
1.671106708049774170e+01 1.373768978193402290e+01 2.374715175107127152e+00
1.627246844768524170e+01 1.379396419599652290e+01 2.349706019833689652e+00
1.612561786174774170e+01 1.400734310224652290e+01 2.363789882138377152e+00
1.591687762737274170e+01 1.418422298505902290e+01 2.369206752255564652e+00
1.705237567424774170e+01 1.516200618818402290e+01 2.564290370419627152e+00
1.768762958049774170e+01 1.586793880537152290e+01 2.691396083310252152e+00
1.652161395549774170e+01 1.304176693037152290e+01 2.401402797177439652e+00
1.611487567424774170e+01 1.311635189130902290e+01 2.378682460263377152e+00
1.616675555706024170e+01 1.343288021162152290e+01 2.419881190732127152e+00
1.636475360393524170e+01 1.383644466474652290e+01 2.482426967099314652e+00
1.614502704143524170e+01 1.400954036787152290e+01 2.486134852841502152e+00
1.585181415081024170e+01 1.413747005537152290e+01 2.478947963193064652e+00
1.825916278362274170e+01 1.587257747724652290e+01 2.865895595029002152e+00
1.765650165081024170e+01 1.597413997724652290e+01 2.396382655575877152e+00
1.757898700237274170e+01 1.626356868818402290e+01 2.423589076474314652e+00
1.193543231487274170e+01 1.300404720380902290e+01 1.715001429989939652e+00
1.620728290081024170e+01 1.355189876630902290e+01 2.160939540341502152e+00
1.668970477581024170e+01 1.411854915693402290e+01 2.256688441708689652e+00
1.620056903362274170e+01 1.414845638349652290e+01 2.227879847958689652e+00
1.652393329143524170e+01 1.464332943037152290e+01 2.305058803036814652e+00
1.744654071331024170e+01 1.550661068037152290e+01 2.463277186825877152e+00
1.765869891643524170e+01 1.596583919599652290e+01 2.529118861630564652e+00
1.758118426799774170e+01 1.625538997724652290e+01 2.556706752255564652e+00
1.195203387737274170e+01 1.300734310224652290e+01 1.819371547177439652e+00
1.620105731487274170e+01 1.353932552412152290e+01 2.281041469052439652e+00
1.620606219768524170e+01 1.384047298505902290e+01 2.316136683896189652e+00
1.621924579143524170e+01 1.415004329755902290e+01 2.352101649716502152e+00
1.765149676799774170e+01 1.529042415693402290e+01 2.583592738583689652e+00
1.695508563518524170e+01 1.520436458662152290e+01 2.525060023739939652e+00
1.766101825237274170e+01 1.595753841474652290e+01 2.661214198544627152e+00
1.758338153362274170e+01 1.624721126630902290e+01 2.689900721982127152e+00
1.196875751018524170e+01 1.301063900068402290e+01 1.924519862607127152e+00
1.619483172893524170e+01 1.352687435224652290e+01 2.401128138974314652e+00
1.629944598674774170e+01 1.388331966474652290e+01 2.450169887021189652e+00
1.625574481487274170e+01 1.416163997724652290e+01 2.479726161435252152e+00
1.727454364299774170e+01 1.506154232099652290e+01 2.660863246396189652e+00
1.810010516643524170e+01 1.587648372724652290e+01 2.817769374325877152e+00
1.766321551799774170e+01 1.594923763349652290e+01 2.794087733700877152e+00
1.198560321331024170e+01 1.301393489912152290e+01 2.029912318661814652e+00
1.052552020549774170e+01 1.272719173505902290e+01 1.475072230771189652e+00
1.615589129924774170e+01 1.420448665693402290e+01 2.075246180966502152e+00
1.725171649456024170e+01 1.515211849287152290e+01 2.245549525693064652e+00
1.727478778362274170e+01 1.549489193037152290e+01 2.285115565732127152e+00
1.763648211956024170e+01 1.604945736005902290e+01 2.368489589169627152e+00
1.755774676799774170e+01 1.634315853193402290e+01 2.396504725888377152e+00
1.169055926799774170e+01 1.295570736005902290e+01 1.668965663388377152e+00
1.110034930706024170e+01 1.283998470380902290e+01 1.620824183896189652e+00
1.054077899456024170e+01 1.273012142255902290e+01 1.575734462216502152e+00
1.765576922893524170e+01 1.504664974287152290e+01 2.391408290341502152e+00
1.792713153362274170e+01 1.553468685224652290e+01 2.464253749325877152e+00
1.772815692424774170e+01 1.575453548505902290e+01 2.476613368466502152e+00
1.763867938518524170e+01 1.604091243818402290e+01 2.503545131161814652e+00
1.756006610393524170e+01 1.633461361005902290e+01 2.531972255185252152e+00
1.170789325237274170e+01 1.295912532880902290e+01 1.775136317685252152e+00
1.111658465862274170e+01 1.284315853193402290e+01 1.724278773739939652e+00
1.055603778362274170e+01 1.273317318037152290e+01 1.676076259091502152e+00
1.609754168987274170e+01 1.415260677412152290e+01 2.315602626279002152e+00
1.725342547893524170e+01 1.513344173505902290e+01 2.507878627255564652e+00
1.770594012737274170e+01 1.573134212568402290e+01 2.607320155575877152e+00
1.764099872112274170e+01 1.603236751630902290e+01 2.637959804013377152e+00
1.756226336956024170e+01 1.632606868818402290e+01 2.666814174130564652e+00
1.172522723674774170e+01 1.296254329755902290e+01 1.880971278622752152e+00
1.113282001018524170e+01 1.284633236005902290e+01 1.827962245419627152e+00
1.057129657268524170e+01 1.273610286787152290e+01 1.777180995419627152e+00
1.605249774456024170e+01 1.411757259443402290e+01 2.433507289364939652e+00
1.720154559612274170e+01 1.509340267255902290e+01 2.631017054989939652e+00
1.777210223674774170e+01 1.576051693037152290e+01 2.751103724911814652e+00
1.764331805706024170e+01 1.602370052412152290e+01 2.773167933896189652e+00
1.756763446331024170e+01 1.631935482099652290e+01 2.802876796200877152e+00
1.174268329143524170e+01 1.296596126630902290e+01 1.987614955380564652e+00
1.114905536174774170e+01 1.284950618818402290e+01 1.931310023739939652e+00
1.058667743206024170e+01 1.273915462568402290e+01 1.878484096005564652e+00
1.762146747112274170e+01 1.610560970380902290e+01 2.324345912411814652e+00
1.213245379924774170e+01 1.304738216474652290e+01 1.668477382138377152e+00
1.148853290081024170e+01 1.291591243818402290e+01 1.617207850888377152e+00
1.089038836956024170e+01 1.279848079755902290e+01 1.570103969052439652e+00
1.032129657268524170e+01 1.268690853193402290e+01 1.525304164364939652e+00
9.777351260185241699e+00 1.258009700849652290e+01 1.482488002255564652e+00
9.270027041435241699e+00 1.248537044599652290e+01 1.443593348935252152e+00
1.730066668987274170e+01 1.556129818037152290e+01 2.380299891904002152e+00
1.762390887737274170e+01 1.609657650068402290e+01 2.461659755185252152e+00
1.215381610393524170e+01 1.305238704755902290e+01 1.779286708310252152e+00
1.150684344768524170e+01 1.291945247724652290e+01 1.724812831357127152e+00
1.090760028362274170e+01 1.280189876630902290e+01 1.674992885068064652e+00
1.033740985393524170e+01 1.269008236005902290e+01 1.627583827450877152e+00
9.792487978935241699e+00 1.258314876630902290e+01 1.582280482724314652e+00
9.283332705497741699e+00 1.248744564130902290e+01 1.540440883114939652e+00
1.771057879924774170e+01 1.579359798505902290e+01 2.569798793271189652e+00
1.762635028362274170e+01 1.608742122724652290e+01 2.599049891904002152e+00
1.217517840862274170e+01 1.305739193037152290e+01 1.889790858700877152e+00
1.152503192424774170e+01 1.292299251630902290e+01 1.832082118466502152e+00
1.092469012737274170e+01 1.280531673505902290e+01 1.779530848935252152e+00
1.035352313518524170e+01 1.269325618818402290e+01 1.729543055966502152e+00
9.807868838310241699e+00 1.258607845380902290e+01 1.682286586239939652e+00
9.296760439872741699e+00 1.248964290693402290e+01 1.637990321591502152e+00
1.771338641643524170e+01 1.578468685224652290e+01 2.706883754208689652e+00
1.762879168987274170e+01 1.607838802412152290e+01 2.735768641904002152e+00
1.754871356487274170e+01 1.637697200849652290e+01 2.766316737607127152e+00
1.154346454143524170e+01 1.292665462568402290e+01 1.940175380185252152e+00
1.094202411174774170e+01 1.280861263349652290e+01 1.884862269833689652e+00
1.036975848674774170e+01 1.269643001630902290e+01 1.832249965146189652e+00
9.823005557060241699e+00 1.258913021162152290e+01 1.781972255185252152e+00
9.310188174247741699e+00 1.249171810224652290e+01 1.735722865536814652e+00
1.138172137737274170e+01 1.289467220380902290e+01 1.708516444638377152e+00
1.077014911174774170e+01 1.277467708662152290e+01 1.659322108700877152e+00
1.018616473674774170e+01 1.266017513349652290e+01 1.612355555966502152e+00
9.631843447685241699e+00 1.255141048505902290e+01 1.567754115536814652e+00
9.126228213310241699e+00 1.246351986005902290e+01 1.528462733700877152e+00
8.431037783622741699e+00 1.223183040693402290e+01 1.461110438779002152e+00
7.789192080497741699e+00 1.202003841474652290e+01 1.399190272763377152e+00
1.205225360393524170e+01 1.302846126630902290e+01 1.873647059872752152e+00
1.140198504924774170e+01 1.289870052412152290e+01 1.818227137997752152e+00
1.078907001018524170e+01 1.277846126630902290e+01 1.765675868466502152e+00
1.020398700237274170e+01 1.266359310224652290e+01 1.716069545224314652e+00
9.648567080497741699e+00 1.255470638349652290e+01 1.668980922177439652e+00
9.150642275810241699e+00 1.247255306318402290e+01 1.628667201474314652e+00
8.451301455497741699e+00 1.223842220380902290e+01 1.557988490536814652e+00
7.807868838310241699e+00 1.202626400068402290e+01 1.492879237607127152e+00
1.207593524456024170e+01 1.303395443037152290e+01 1.986897792294627152e+00
1.142224872112274170e+01 1.290260677412152290e+01 1.927617396786814652e+00
1.080811297893524170e+01 1.278212337568402290e+01 1.872853602841502152e+00
1.022193133831024170e+01 1.266713314130902290e+01 1.820576991513377152e+00
9.665534853935241699e+00 1.255800228193402290e+01 1.770955409482127152e+00
9.175300478935241699e+00 1.248170833662152290e+01 1.729726161435252152e+00
8.471443057060241699e+00 1.224513607099652290e+01 1.654622401669627152e+00
7.826545596122741699e+00 1.203236751630902290e+01 1.586812343075877152e+00
7.573860049247741699e+00 1.194874935224652290e+01 1.366765346005564652e+00
6.956794619560241699e+00 1.174525814130902290e+01 1.309010829404002152e+00
6.394050478935241699e+00 1.156593685224652290e+01 1.257130946591502152e+00
1.069019305706024170e+01 1.275880794599652290e+01 1.738622035458689652e+00
1.009424579143524170e+01 1.264186458662152290e+01 1.690144862607127152e+00
9.526496767997741699e+00 1.253041439130902290e+01 1.643407191708689652e+00
8.954353213310241699e+00 1.240419368818402290e+01 1.595097865536814652e+00
8.251838564872741699e+00 1.217238216474652290e+01 1.526051845029002152e+00
7.594367861747741699e+00 1.195558528974652290e+01 1.461446132138377152e+00
6.975959658622741699e+00 1.175160579755902290e+01 1.401158656552439652e+00
6.410407900810241699e+00 1.157069759443402290e+01 1.346272792294627152e+00
1.071118915081024170e+01 1.276283626630902290e+01 1.847752894833689652e+00
1.011402118206024170e+01 1.264577083662152290e+01 1.796010341122752152e+00
9.545173525810241699e+00 1.253407650068402290e+01 1.747273768857127152e+00
8.978523135185241699e+00 1.241212825849652290e+01 1.697316493466502152e+00
8.274177432060241699e+00 1.217982845380902290e+01 1.624776210263377152e+00
7.615119814872741699e+00 1.196242122724652290e+01 1.556905116513377152e+00
6.995124697685241699e+00 1.175783138349652290e+01 1.493047084286814652e+00
6.426765322685241699e+00 1.157545833662152290e+01 1.435643519833689652e+00
5.723518252372741699e+00 1.136708431318402290e+01 1.189702357724314652e+00
5.259040713310241699e+00 1.124269466474652290e+01 1.150761928036814652e+00
9.476936221122741699e+00 1.252052669599652290e+01 1.627431239560252152e+00
8.867805361747741699e+00 1.237538509443402290e+01 1.575917567685252152e+00
8.144416689872741699e+00 1.213685970380902290e+01 1.505696620419627152e+00
7.465705752372741699e+00 1.191298275068402290e+01 1.440312709286814652e+00
6.831672549247741699e+00 1.170375423505902290e+01 1.379231776669627152e+00
6.235359072685241699e+00 1.150685482099652290e+01 1.321736659482127152e+00
5.739021182060241699e+00 1.137123470380902290e+01 1.278004970029002152e+00
5.273689150810241699e+00 1.124660091474652290e+01 1.236882533505564652e+00
9.496833682060241699e+00 1.252443294599652290e+01 1.733464564755564652e+00
8.893562197685241699e+00 1.238393001630902290e+01 1.679646815732127152e+00
8.168342471122741699e+00 1.214467220380902290e+01 1.606389369443064652e+00
7.487922549247741699e+00 1.192018489912152290e+01 1.537633265927439652e+00
6.852302432060241699e+00 1.171059017255902290e+01 1.473424281552439652e+00
6.253425478935241699e+00 1.151234798505902290e+01 1.412831630185252152e+00
5.754524111747741699e+00 1.137538509443402290e+01 1.366063441708689652e+00
5.288337588310241699e+00 1.125050716474652290e+01 1.323216762021189652e+00
6.684944033622741699e+00 1.165517025068402290e+01 1.356572474911814652e+00
6.087165713310241699e+00 1.146425228193402290e+01 1.300084437802439652e+00
5.585456728935241699e+00 1.132985286787152290e+01 1.255956019833689652e+00
5.107917666435241699e+00 1.120204525068402290e+01 1.213963832333689652e+00
4.651496767997741699e+00 1.107985286787152290e+01 1.174275721982127152e+00
4.217536807060241699e+00 1.096376400068402290e+01 1.136098231747752152e+00
8.053474307060241699e+00 1.210658626630902290e+01 1.588383998349314652e+00
7.357551455497741699e+00 1.187697200849652290e+01 1.517918910458689652e+00
6.705329775810241699e+00 1.166188411787152290e+01 1.452382411435252152e+00
6.103645205497741699e+00 1.146864681318402290e+01 1.392598475888377152e+00
5.600959658622741699e+00 1.133400325849652290e+01 1.346135463193064652e+00
5.122566103935241699e+00 1.120595150068402290e+01 1.301915492489939652e+00
4.665290713310241699e+00 1.108351497724652290e+01 1.259633387997752152e+00
4.230598330497741699e+00 1.096718196943402290e+01 1.219899501279002152e+00
6.528816103935241699e+00 1.160451107099652290e+01 1.293248500302439652e+00
5.939582705497741699e+00 1.142445736005902290e+01 1.240498866513377152e+00
5.426277041435241699e+00 1.128712825849652290e+01 1.196523036435252152e+00
4.936164736747741699e+00 1.115590267255902290e+01 1.155003871396189652e+00
4.470588564872741699e+00 1.103126888349652290e+01 1.115559901669627152e+00
4.026496767997741699e+00 1.091237239912152290e+01 1.077946986630564652e+00
3.601814150810241699e+00 1.079909114912152290e+01 1.042455043271189652e+00
3.197517275810241699e+00 1.069154720380902290e+01 1.008290614560252152e+00
6.548103213310241699e+00 1.161012630537152290e+01 1.390340175107127152e+00
5.956550478935241699e+00 1.142909603193402290e+01 1.334157313779002152e+00
5.442390322685241699e+00 1.129140071943402290e+01 1.288304652646189652e+00
4.951301455497741699e+00 1.115993099287152290e+01 1.244511928036814652e+00
4.484870791435241699e+00 1.103505306318402290e+01 1.202931727841502152e+00
4.040046572685241699e+00 1.091591243818402290e+01 1.163258876279002152e+00
3.613654971122741699e+00 1.080177669599652290e+01 1.125249232724314652e+00
3.209358096122741699e+00 1.069472103193402290e+01 1.089757289364939652e+00
4.293952822685241699e+00 1.098378353193402290e+01 9.909413713961896519e-01
3.838630557060241699e+00 1.086183528974652290e+01 9.556935686618146519e-01
3.415534853935241699e+00 1.075429134443402290e+01 9.236653704196271519e-01
