1.727275383472442627e+01 3.759803272783756256e+00 4.163700040429887395e-01
1.964274895191192627e+01 4.455604054033756256e+00 5.371738370508012395e-01
1.962626945972442627e+01 4.640174366533756256e+00 5.507846768945512395e-01
2.020927727222442627e+01 4.890418507158756256e+00 5.865207608789262395e-01
2.082915031909942627e+01 5.156409718096256256e+00 6.245304044336137395e-01
1.670097649097442627e+01 3.565345264971256256e+00 4.570957120508012395e-01
1.725273430347442627e+01 3.752967335283756256e+00 4.901767667383012395e-01
1.964140617847442627e+01 4.449256397783756256e+00 6.228214200586137395e-01
1.961162102222442627e+01 4.632483936846256256e+00 6.358829434961137395e-01
2.018937981128692627e+01 4.881873585283756256e+00 6.741825040429887395e-01
2.080815422534942627e+01 5.147376514971256256e+00 7.145877774804887395e-01
1.668217766284942627e+01 3.558997608721256256e+00 5.282169278711137395e-01
1.723295891284942627e+01 3.746253468096256256e+00 5.634647306054887395e-01
1.964006340503692627e+01 4.442786671221256256e+00 7.080570157617387395e-01
1.960270988941192627e+01 4.625403858721256256e+00 7.207065518945512395e-01
2.016960442066192627e+01 4.873328663408756256e+00 7.612338956445512395e-01
2.078703606128692627e+01 5.138343311846256256e+00 8.049808438867387395e-01
1.666362297534942627e+01 3.552649952471256256e+00 5.988498624414262395e-01
1.721306145191192627e+01 3.739539600908756256e+00 6.369968350976762395e-01
1.963872063159942627e+01 4.436439014971256256e+00 7.937808927148637395e-01
1.959379875659942627e+01 4.618201710283756256e+00 8.059574063867387395e-01
2.014970695972442627e+01 4.864783741533756256e+00 8.486209806054887395e-01
2.076616203784942627e+01 5.129432179033756256e+00 8.947482999414262395e-01
1.664494621753692627e+01 3.546302296221256256e+00 6.697116788476762395e-01
1.719328606128692627e+01 3.732825733721256256e+00 7.099948819726762395e-01
1.963737785816192627e+01 4.429969288408756256e+00 8.790775235742387395e-01
1.958488762378692627e+01 4.611121632158756256e+00 8.907199796289262395e-01
2.012993156909942627e+01 4.856360889971256256e+00 9.354129727929887395e-01
2.074516594409942627e+01 5.120398975908756256e+00 9.848667081445512395e-01
1.662639153003692627e+01 3.539954639971256256e+00 7.400852140039262395e-01
1.717351067066192627e+01 3.726111866533756256e+00 7.828708585351762395e-01
1.963603508472442627e+01 4.423621632158756256e+00 9.648776944726762395e-01
1.957585442066192627e+01 4.604041554033756256e+00 9.758945401758012395e-01
2.011015617847442627e+01 4.847938038408756256e+00 1.022067635878926239e+00
2.072429192066192627e+01 5.111487843096256256e+00 1.074374764785176239e+00
1.660771477222442627e+01 3.533729054033756256e+00 8.107028897851762395e-01
1.715373528003692627e+01 3.719397999346256256e+00 8.559909757226762395e-01
1.963457024097442627e+01 4.417151905596256256e+00 1.050250619277363739e+00
1.957084953784942627e+01 4.597327686846256256e+00 1.060840218886738739e+00
2.009038078784942627e+01 4.839393116533756256e+00 1.109073251113301239e+00
2.070341789722442627e+01 5.102454639971256256e+00 1.164203255996113739e+00
1.658928215503692627e+01 3.527381397783756256e+00 8.808170255273637395e-01
1.713408195972442627e+01 3.712684132158756256e+00 9.285770352929887395e-01
1.963322746753692627e+01 4.410804249346256256e+00 1.135669320449238739e+00
1.956743156909942627e+01 4.590857960283756256e+00 1.145892709121113739e+00
2.007719719409942627e+01 4.831702686846256256e+00 1.195926278457051239e+00
2.073222649097442627e+01 5.099402882158756256e+00 1.256900399550801239e+00
1.657072746753692627e+01 3.521155811846256256e+00 9.511753018945512395e-01
1.711442863941192627e+01 3.705970264971256256e+00 1.001422494277363739e+00
1.656682121753692627e+01 3.515540577471256256e+00 1.022098153457051239e+00
1.715532219409942627e+01 3.702674366533756256e+00 1.078250497207051239e+00
1.629606926441192627e+01 4.628821827471256256e+00 3.132053311914262395e-01
1.648625481128692627e+01 4.806800343096256256e+00 3.302341397851762395e-01
1.672832024097442627e+01 4.996497608721256256e+00 3.487583097070512395e-01
1.746708977222442627e+01 5.266395069658756256e+00 3.829074796289262395e-01
1.783354485034942627e+01 5.491858936846256256e+00 4.064823087304887395e-01
1.828728020191192627e+01 5.740027882158756256e+00 4.334293302148637395e-01
1.890678703784942627e+01 6.028602100908756256e+00 4.665714200586137395e-01
1.997978508472442627e+01 6.416419483721256256e+00 5.153995450586137395e-01
1.976542961597442627e+01 5.036902882158756256e+00 4.980960782617387395e-01
2.285844719409942627e+01 5.845130421221256256e+00 6.329227384179887395e-01
2.276152336597442627e+01 6.052405811846256256e+00 6.457248624414262395e-01
2.329411613941192627e+01 6.358069874346256256e+00 6.810337003320512395e-01
2.390410149097442627e+01 6.688514210283756256e+00 7.200504239648637395e-01
4.153386223316192627e+01 1.009830424934625626e+01 1.397327035292988739e+00
4.203203117847442627e+01 1.060868022590875626e+01 1.446765511855488739e+00
2.083354485034942627e+01 5.157630421221256256e+00 6.247440274804887395e-01
2.285795891284942627e+01 5.838050343096256256e+00 7.334476407617387395e-01
2.275871574878692627e+01 6.044959522783756256e+00 7.458682950586137395e-01
2.327556145191192627e+01 6.348060108721256256e+00 7.831760343164262395e-01
2.388469231128692627e+01 6.677894093096256256e+00 8.251224454492387395e-01
4.225090324878692627e+01 1.021439311653375626e+01 1.616489022597676239e+00
4.216862785816192627e+01 1.062186381965875626e+01 1.644214242324238739e+00
2.081254875659942627e+01 5.148597218096256256e+00 7.148166593164262395e-01
2.285747063159942627e+01 5.830848194658756256e+00 8.345676358789262395e-01
2.275590813159942627e+01 6.037513233721256256e+00 8.465915616601762395e-01
2.325688469409942627e+01 6.337928272783756256e+00 8.857303556054887395e-01
2.386516106128692627e+01 6.667396046221256256e+00 9.306369718164262395e-01
4.242924797534942627e+01 1.023343608528375626e+01 1.817248910292988739e+00
4.211174309253692627e+01 1.059818217903375626e+01 1.832812875136738739e+00
2.079155266284942627e+01 5.139564014971256256e+00 8.052402433008012395e-01
2.285710442066192627e+01 5.823646046221256256e+00 9.351993497461137395e-01
2.275322258472442627e+01 6.030066944658756256e+00 9.467960294336137395e-01
2.323845207691192627e+01 6.327918507158756256e+00 9.876438077539262395e-01
2.384575188159942627e+01 6.656897999346256256e+00 1.035480111464863739e+00
4.249406731128692627e+01 1.023197124153375626e+01 2.012912362441426239e+00
2.077055656909942627e+01 5.130652882158756256e+00 8.950382169336137395e-01
2.285661613941192627e+01 5.816443897783756256e+00 1.036426156386738739e+00
2.275041496753692627e+01 6.022742725908756256e+00 1.047580331191426239e+00
2.321977531909942627e+01 6.317786671221256256e+00 1.089984505996113739e+00
2.382634270191192627e+01 6.646277882158756256e+00 1.140765755996113739e+00
2.074956047534942627e+01 5.121619679033756256e+00 9.851718839258012395e-01
2.285612785816192627e+01 5.809363819658756256e+00 1.137164681777363739e+00
2.274760735034942627e+01 6.015296436846256256e+00 1.147861092910176239e+00
2.320134270191192627e+01 6.307776905596256256e+00 1.191669076308613739e+00
2.380693352222442627e+01 6.635779835283756256e+00 1.245364755019551239e+00
2.072880852222442627e+01 5.112708546221256256e+00 1.074695199355488739e+00
2.285563957691192627e+01 5.802161671221256256e+00 1.238498299941426239e+00
2.274492180347442627e+01 6.007850147783756256e+00 1.248706429824238739e+00
2.318278801441192627e+01 6.297767139971256256e+00 1.293796151503926239e+00
2.378752434253692627e+01 6.625281788408756256e+00 1.350421517714863739e+00
2.070781242847442627e+01 5.103675343096256256e+00 1.164538949355488739e+00
2.286870110034942627e+01 5.796790577471256256e+00 1.340259164199238739e+00
2.275993645191192627e+01 6.003089405596256256e+00 1.350268929824238739e+00
2.073881828784942627e+01 5.100867725908756256e+00 1.257419198378926239e+00
1.998381340503692627e+01 6.417762257158756256e+00 5.155826505273637395e-01
2.070732414722442627e+01 6.758216358721256256e+00 5.544010099023637395e-01
2.172478020191192627e+01 7.176673389971256256e+00 6.041446622461137395e-01
2.295854485034942627e+01 7.665931202471256256e+00 6.632114347070512395e-01
5.504936516284942627e+01 1.534891460090875626e+01 1.849277108535176239e+00
5.470659172534942627e+01 1.583243510872125626e+01 1.875873177871113739e+00
2.863090813159942627e+01 9.793250538408756256e+00 9.262729581445512395e-01
2.896208488941192627e+01 1.017276713997125626e+01 9.586521085351762395e-01
4.203032219409942627e+01 1.060990092903375626e+01 1.446811288222676239e+00
2.578239738941192627e+01 7.770789600908756256e+00 8.436160977929887395e-01
2.622148430347442627e+01 8.119422413408756256e+00 8.797031339258012395e-01
2.679228508472442627e+01 8.508460499346256256e+00 9.212833341211137395e-01
5.593242180347442627e+01 1.553726909309625626e+01 2.140323251113301239e+00
5.546000969409942627e+01 1.599893901497125626e+01 2.161120980605488739e+00
2.863310539722442627e+01 9.785682179033756256e+00 1.056308358535176239e+00
2.894780266284942627e+01 1.016068217903375626e+01 1.090549081191426239e+00
4.216826164722442627e+01 1.062320659309625626e+01 1.644305795058613739e+00
2.578068840503692627e+01 7.762732960283756256e+00 9.593845304101762395e-01
2.620500481128692627e+01 8.108191944658756256e+00 9.965244229883012395e-01
2.677519524097442627e+01 8.496863819658756256e+00 1.041019051894551239e+00
5.722648918628692627e+01 1.582047221809625626e+01 2.457324593886738739e+00
5.653508293628692627e+01 1.624295756965875626e+01 2.467242806777363739e+00
2.863530266284942627e+01 9.777991749346256256e+00 1.187137215957051239e+00
2.893352043628692627e+01 1.014871928840875626e+01 1.222385018691426239e+00
4.211076653003692627e+01 1.059952495247125626e+01 1.832873910292988739e+00
2.578056633472442627e+01 7.755042530596256256e+00 1.075275033339863739e+00
2.618852531909942627e+01 8.096961475908756256e+00 1.113879769667988739e+00
2.675810539722442627e+01 8.485145069658756256e+00 1.161288827285176239e+00
2.863737785816192627e+01 9.770179249346256256e+00 1.318057626113301239e+00
2.891936028003692627e+01 1.013675639778375626e+01 1.353458016738301239e+00
2.578129875659942627e+01 7.747596241533756256e+00 1.190677255019551239e+00
2.617216789722442627e+01 8.085853077471256256e+00 1.230533212050801239e+00
2.674101555347442627e+01 8.473548389971256256e+00 1.280841439589863739e+00
2.863957512378692627e+01 9.762488819658756256e+00 1.448382943496113739e+00
2.890507805347442627e+01 1.012467143684625626e+01 1.485187142714863739e+00
2.578203117847442627e+01 7.740027882158756256e+00 1.306766122207051239e+00
2.615568840503692627e+01 8.074622608721256256e+00 1.347720712050801239e+00
2.672392570972442627e+01 8.461951710283756256e+00 1.400943368300801239e+00
2.866057121753692627e+01 9.759559132158756256e+00 1.580661385878926239e+00
2.578276360034942627e+01 7.732459522783756256e+00 1.422305672988301239e+00
2.614836418628692627e+01 8.065345264971256256e+00 1.464770882949238739e+00
2.682353508472442627e+01 8.475989796221256256e+00 1.527774422988301239e+00
2.896586906909942627e+01 1.017472026497125626e+01 9.588657315820512395e-01
2.948820793628692627e+01 1.061539409309625626e+01 9.998966153711137395e-01
5.353911125659942627e+01 1.778348491340875626e+01 1.984302132949238739e+00
5.330656731128692627e+01 1.828226421028375626e+01 2.012546151503926239e+00
3.126494133472442627e+01 1.208121440559625626e+01 1.134860604628926239e+00
3.151030266284942627e+01 1.248880717903375626e+01 1.167132943496113739e+00
3.200651848316192627e+01 1.298734233528375626e+01 1.210757821425801239e+00
3.893925774097442627e+01 1.568656108528375626e+01 1.535617440566426239e+00
2.895158684253692627e+01 1.016275737434625626e+01 1.090777963027363739e+00
2.947355949878692627e+01 1.060294292122125626e+01 1.133945077285176239e+00
5.427873528003692627e+01 1.797891948372125626e+01 2.268298714980488739e+00
5.409245598316192627e+01 1.849967143684625626e+01 2.298862069472676239e+00
3.126823723316192627e+01 1.207352397590875626e+01 1.280231088027363739e+00
3.149772942066192627e+01 1.247611186653375626e+01 1.313403695449238739e+00
3.199370110034942627e+01 1.297452495247125626e+01 1.359057992324238739e+00
5.258281242847442627e+01 2.031131694465875626e+01 2.381839364394551239e+00
2.893730461597442627e+01 1.015067241340875626e+01 1.222629159316426239e+00
2.945878899097442627e+01 1.059061381965875626e+01 1.268664925917988739e+00
5.521074211597442627e+01 1.822891948372125626e+01 2.567706673964863739e+00
5.502836906909942627e+01 1.876102397590875626e+01 2.599048226699238739e+00
3.127153313159942627e+01 1.206595561653375626e+01 1.424960702285176239e+00
3.148515617847442627e+01 1.246341655403375626e+01 1.458850472792988739e+00
3.198076164722442627e+01 1.296146342903375626e+01 1.508121102675801239e+00
5.409257805347442627e+01 2.080936381965875626e+01 2.712710946425801239e+00
2.892302238941192627e+01 1.013870952278375626e+01 1.353732674941426239e+00
2.944414055347442627e+01 1.057816264778375626e+01 1.403323739394551239e+00
5.660051262378692627e+01 1.860843608528375626e+01 2.902453988417988739e+00
5.662114250659942627e+01 1.921585796028375626e+01 2.945987313613301239e+00
3.127482903003692627e+01 1.205826518684625626e+01 1.570575326308613739e+00
3.147258293628692627e+01 1.245084331184625626e+01 1.605044930800801239e+00
3.197197258472442627e+01 1.294986674934625626e+01 1.657382577285176239e+00
5.709416496753692627e+01 2.181278178840875626e+01 3.143878548964863739e+00
2.890874016284942627e+01 1.012662456184625626e+01 1.485477059707051239e+00
2.942949211597442627e+01 1.056583354622125626e+01 1.537219613417988739e+00
5.986687004566192627e+01 2.208658549934625626e+01 3.544604867324238739e+00
5.976689445972442627e+01 2.270279643684625626e+01 3.585010140761738739e+00
3.101860344409942627e+01 1.160269878059625626e+01 2.394702523574238739e+00
3.133439934253692627e+01 1.202432963997125626e+01 2.447055428847676239e+00
3.101787102222442627e+01 1.159378764778375626e+01 2.539020150527363739e+00
3.135454094409942627e+01 1.202176616340875626e+01 2.595218270644551239e+00
3.101713860034942627e+01 1.158487651497125626e+01 2.682635873183613739e+00
3.137480461597442627e+01 1.201920268684625626e+01 2.742877572402363739e+00
3.101652824878692627e+01 1.157596538215875626e+01 2.826358407363301239e+00
3.139494621753692627e+01 1.201651713997125626e+01 2.890826791152363739e+00
3.101579582691192627e+01 1.156705424934625626e+01 2.970904916152363739e+00
2.951652824878692627e+01 1.063919780403375626e+01 1.544864266738301239e+00
3.099650871753692627e+01 1.131888530403375626e+01 2.385791390761738739e+00
3.102275383472442627e+01 1.165531108528375626e+01 2.416598885878926239e+00
3.099565422534942627e+01 1.130838725715875626e+01 2.531955331191426239e+00
3.102189934253692627e+01 1.164481303840875626e+01 2.563373177871113739e+00
3.099479973316192627e+01 1.129788921028375626e+01 2.677432626113301239e+00
3.102116692066192627e+01 1.163443706184625626e+01 2.709430306777363739e+00
3.125578606128692627e+01 1.203800151497125626e+01 2.761600106582051239e+00
3.099394524097442627e+01 1.128751323372125626e+01 2.823764413222676239e+00
3.102031242847442627e+01 1.162406108528375626e+01 2.855578988417988739e+00
3.127067863941192627e+01 1.203226421028375626e+01 2.910907357558613739e+00
5.199809563159942627e+01 2.443448588997125626e+01 3.155459969863301239e+00
5.102775871753692627e+01 2.466580913215875626e+01 3.144183724746113739e+00
5.174504387378692627e+01 2.560538432747125626e+01 3.244937508925801239e+00
5.860954582691192627e+01 2.362332866340875626e+01 3.594653695449238739e+00
5.885356438159942627e+01 2.439749858528375626e+01 3.670734017714863739e+00
6.006291496753692627e+01 2.554300639778375626e+01 3.811267464980488739e+00
5.278508293628692627e+01 2.346024272590875626e+01 3.374087899550801239e+00
5.184538567066192627e+01 2.372354838997125626e+01 3.362842172011738739e+00
5.189116203784942627e+01 2.437198588997125626e+01 3.419543832167988739e+00
5.095793449878692627e+01 2.461807963997125626e+01 3.407062142714863739e+00
7.107158195972442627e+01 3.391739604622125626e+01 4.914233773574238739e+00
6.908085930347442627e+01 2.807279155403375626e+01 4.700107186660176239e+00
5.984172356128692627e+01 2.543851421028375626e+01 4.101825326308613739e+00
6.072661125659942627e+01 2.649198100715875626e+01 4.228519051894551239e+00
5.213090813159942627e+01 2.381766460090875626e+01 3.652545541152363739e+00
5.198564445972442627e+01 2.439163921028375626e+01 3.696445077285176239e+00
5.208903801441192627e+01 2.507352397590875626e+01 3.759646981582051239e+00
3.467497551441192627e+01 1.519156596809625626e+01 2.571490853652363739e+00
3.462358391284942627e+01 1.559098003059625626e+01 2.604953378066426239e+00
3.616594231128692627e+01 1.792203471809625626e+01 2.889880746230488739e+00
3.467656242847442627e+01 1.517887065559625626e+01 2.752841561660176239e+00
3.462517082691192627e+01 1.557840678840875626e+01 2.786761849746113739e+00
3.620134270191192627e+01 1.792301128059625626e+01 3.085315316542988739e+00
3.467827141284942627e+01 1.516617534309625626e+01 2.935260384902363739e+00
3.462675774097442627e+01 1.556571147590875626e+01 2.969653695449238739e+00
3.589934074878692627e+01 1.733121440559625626e+01 1.638690560683613739e+00
3.604057610034942627e+01 1.783890483528375626e+01 1.682345956191426239e+00
3.644877922534942627e+01 1.846268413215875626e+01 1.741336434707051239e+00
5.139384758472442627e+01 2.529801128059625626e+01 2.625629037246113739e+00
5.350639641284942627e+01 2.686942241340875626e+01 2.798846810683613739e+00
5.310100090503692627e+01 2.736087749153375626e+01 2.827289193496113739e+00
5.312150871753692627e+01 2.277445171028375626e+01 2.739429086074238739e+00
5.206340324878692627e+01 2.300980327278375626e+01 2.730044930800801239e+00
5.140483391284942627e+01 2.338248393684625626e+01 2.742633431777363739e+00
5.084941399097442627e+01 2.378885600715875626e+01 2.760745614394551239e+00
5.096025383472442627e+01 2.446146342903375626e+01 2.818515389785176239e+00
5.068596184253692627e+01 2.497757671028375626e+01 2.853152840957051239e+00
5.535136711597442627e+01 2.765775249153375626e+01 3.197314828261738739e+00
5.541557610034942627e+01 2.838260600715875626e+01 3.258075326308613739e+00
5.632341301441192627e+01 2.393302104622125626e+01 3.211688607558613739e+00
5.270329582691192627e+01 2.323306987434625626e+01 3.041843026503926239e+00
5.149272453784942627e+01 2.339774272590875626e+01 3.017688363417988739e+00
5.174797356128692627e+01 2.413150737434625626e+01 3.086734383925801239e+00
5.085161125659942627e+01 2.439762065559625626e+01 3.080844491347676239e+00
5.672404778003692627e+01 2.752933452278375626e+01 3.525027840957051239e+00
5.689860832691192627e+01 2.831449077278375626e+01 3.595828622207051239e+00
5.887736809253692627e+01 2.485098979622125626e+01 3.673709481582051239e+00
5.272233879566192627e+01 2.322074077278375626e+01 3.316531747207051239e+00
5.242485344409942627e+01 2.374259135872125626e+01 3.350314706191426239e+00
3.644645988941192627e+01 1.796109721809625626e+01 2.291446297988301239e+00
5.147734367847442627e+01 2.463761088997125626e+01 3.392703622207051239e+00
7.086052238941192627e+01 3.352139995247125626e+01 4.836108773574238739e+00
7.048894035816192627e+01 3.423538921028375626e+01 4.883594125136738739e+00
3.829985344409942627e+01 2.065567729622125626e+01 2.586261361464863739e+00
6.093132317066192627e+01 2.558353374153375626e+01 4.123431771621113739e+00
6.020341789722442627e+01 2.603385112434625626e+01 4.133517831191426239e+00
5.224687492847442627e+01 2.365348003059625626e+01 3.611957162246113739e+00
3.643962395191192627e+01 1.794437358528375626e+01 2.487445443496113739e+00
5.211247551441192627e+01 2.488101909309625626e+01 3.713077157363301239e+00
3.830864250659942627e+01 2.064542338997125626e+01 2.795016854628926239e+00
6.076726067066192627e+01 2.622476909309625626e+01 4.489368050917988739e+00
3.644084465503692627e+01 1.793106792122125626e+01 2.683063119277363739e+00
3.831743156909942627e+01 2.063516948372125626e+01 3.005099862441426239e+00
3.644792473316192627e+01 1.792020366340875626e+01 2.879291146621113739e+00
6.476262199878692627e+01 3.161478374153375626e+01 6.171039193496113739e+00
6.485075676441192627e+01 3.246292827278375626e+01 6.255633920058613739e+00
6.464787590503692627e+01 3.154117534309625626e+01 6.501575082167988739e+00
6.537370598316192627e+01 3.267313335090875626e+01 6.654208749160176239e+00
6.428984367847442627e+01 3.216544292122125626e+01 6.881259530410176239e+00
6.489482414722442627e+01 3.160160014778375626e+01 7.209811776503926239e+00
6.554887688159942627e+01 3.270413921028375626e+01 7.366611092910176239e+00
6.639079582691192627e+01 3.305606792122125626e+01 7.813342660292988739e+00
6.540031731128692627e+01 3.259049174934625626e+01 8.043063729628926239e+00
5.783916008472442627e+01 3.007108256965875626e+01 3.727374642714863739e+00
6.126994621753692627e+01 3.242533061653375626e+01 4.028918832167988739e+00
5.155058586597442627e+01 2.328726909309625626e+01 3.243030160292988739e+00
3.646416008472442627e+01 1.791312358528375626e+01 2.254886239394551239e+00
5.130632317066192627e+01 2.445926616340875626e+01 3.334888070449238739e+00
7.028459465503692627e+01 3.310257671028375626e+01 4.737567513808613739e+00
7.057512199878692627e+01 3.409903667122125626e+01 4.832080453261738739e+00
3.832658684253692627e+01 2.062418315559625626e+01 2.551044076308613739e+00
6.002336418628692627e+01 2.654154155403375626e+01 4.134158700332051239e+00
5.145158684253692627e+01 2.386197612434625626e+01 3.562869637832051239e+00
5.203398430347442627e+01 2.473819682747125626e+01 3.661624520644551239e+00
7.095964348316192627e+01 3.423990581184625626e+01 5.232577889785176239e+00
3.833549797534942627e+01 2.061380717903375626e+01 2.762286752089863739e+00
6.750444328784942627e+01 3.444473979622125626e+01 5.113238900527363739e+00
6.083854973316192627e+01 2.683389995247125626e+01 4.510486214980488739e+00
5.148271477222442627e+01 2.385514018684625626e+01 3.837161630019551239e+00
3.834440910816192627e+01 2.060330913215875626e+01 2.973727792128926239e+00
6.745671379566192627e+01 3.439859721809625626e+01 5.468036263808613739e+00
6.475090324878692627e+01 3.399014995247125626e+01 5.313251107558613739e+00
6.409245598316192627e+01 3.365836284309625626e+01 5.602237313613301239e+00
6.737614738941192627e+01 3.345877788215875626e+01 6.101520150527363739e+00
6.672587883472442627e+01 3.401663921028375626e+01 6.118686288222676239e+00
6.667070305347442627e+01 3.484171245247125626e+01 6.191592782363301239e+00
6.518181145191192627e+01 3.246134135872125626e+01 6.243106454238301239e+00
6.682573235034942627e+01 3.403787944465875626e+01 6.485873788222676239e+00
6.328618156909942627e+01 3.323502299934625626e+01 6.210040658339863739e+00
6.446501457691192627e+01 3.211991069465875626e+01 6.517154305800801239e+00
6.374907219409942627e+01 3.261344096809625626e+01 6.520694344863301239e+00
6.447087395191192627e+01 3.376578471809625626e+01 6.674762338027363739e+00
6.488591301441192627e+01 3.146817729622125626e+01 6.826160043105488739e+00
6.435869133472442627e+01 3.204935405403375626e+01 6.848392098769551239e+00
6.465275871753692627e+01 3.300125835090875626e+01 6.960269540175801239e+00
6.424675285816192627e+01 3.363773296028375626e+01 6.997638314589863739e+00
6.455961906909942627e+01 3.211466167122125626e+01 7.215381234511738739e+00
6.383073723316192627e+01 3.260416362434625626e+01 7.213321297988301239e+00
6.365935051441192627e+01 3.334036967903375626e+01 7.274478524550801239e+00
6.539348137378692627e+01 3.245987651497125626e+01 7.657657235488301239e+00
6.304374992847442627e+01 3.222354838997125626e+01 7.460559457167988739e+00
6.372282707691192627e+01 3.334683940559625626e+01 7.625995248183613739e+00
6.553789055347442627e+01 3.249979350715875626e+01 8.025271981582051239e+00
6.371123039722442627e+01 3.250345561653375626e+01 7.883166879042988739e+00
6.436149895191192627e+01 3.194156596809625626e+01 6.698718636855488739e+00
6.464836418628692627e+01 3.289054057747125626e+01 6.809939950332051239e+00
6.321818840503692627e+01 3.305777690559625626e+01 6.736667245253926239e+00
6.461333000659942627e+01 3.454508159309625626e+01 6.970309823378926239e+00
1.859135735034942627e+01 1.292374370247125626e+01 1.959720223769551239e+00
6.458122551441192627e+01 3.201370952278375626e+01 7.069293588027363739e+00
6.386711418628692627e+01 3.251370952278375626e+01 7.071536630019551239e+00
6.401713860034942627e+01 3.340433452278375626e+01 7.170795052871113739e+00
6.442314445972442627e+01 3.443057963997125626e+01 7.300799935683613739e+00
1.801591789722442627e+01 1.263516948372125626e+01 2.009311288222676239e+00
6.475725090503692627e+01 3.206681010872125626e+01 7.435321420058613739e+00
6.383684074878692627e+01 3.247623393684625626e+01 7.411578744277363739e+00
6.361101067066192627e+01 3.319229838997125626e+01 7.468600839003926239e+00
6.424052727222442627e+01 3.431986186653375626e+01 7.628528207167988739e+00
1.759489738941192627e+01 1.242215678840875626e+01 2.072314828261738739e+00
6.304704582691192627e+01 3.209635112434625626e+01 7.660388558730488739e+00
6.345537102222442627e+01 3.309647319465875626e+01 7.795215218886738739e+00
1.813395988941192627e+01 1.240372417122125626e+01 2.223102181777363739e+00
1.760637199878692627e+01 1.242020366340875626e+01 2.185000985488301239e+00
6.503569328784942627e+01 3.296793315559625626e+01 8.253406136855488739e+00
6.343718254566192627e+01 3.306436870247125626e+01 8.136249154433613739e+00
1.815349113941192627e+01 1.240506694465875626e+01 2.339786141738301239e+00
1.761784660816192627e+01 1.241825053840875626e+01 2.298465340957051239e+00
1.817521965503692627e+01 1.240763042122125626e+01 2.456393807753926239e+00
1.803801262378692627e+01 1.261490581184625626e+01 2.467853158339863739e+00
6.493645012378692627e+01 3.291910503059625626e+01 7.154712289199238739e+00
6.408037102222442627e+01 3.336563823372125626e+01 7.143634408339863739e+00
6.355644524097442627e+01 3.395352885872125626e+01 7.168780892714863739e+00
1.839519035816192627e+01 1.288223979622125626e+01 2.054950326308613739e+00
1.717338860034942627e+01 1.256046245247125626e+01 1.941806405410176239e+00
1.717204582691192627e+01 1.283231303840875626e+01 1.969302743300801239e+00
6.477885735034942627e+01 3.199515483528375626e+01 7.401630013808613739e+00
6.491838371753692627e+01 3.288602397590875626e+01 7.503604501113301239e+00
6.366081535816192627e+01 3.314798686653375626e+01 7.442584603652363739e+00
6.399077141284942627e+01 3.413443706184625626e+01 7.567798226699238739e+00
1.758293449878692627e+01 1.248038432747125626e+01 2.075015633925801239e+00
1.713298332691192627e+01 1.253263042122125626e+01 2.048892587050801239e+00
1.704887688159942627e+01 1.276175639778375626e+01 2.067309945449238739e+00
6.498796379566192627e+01 3.289212749153375626e+01 7.865008920058613739e+00
6.346110832691192627e+01 3.303165385872125626e+01 7.766284554824238739e+00
1.811699211597442627e+01 1.245206401497125626e+01 2.226764291152363739e+00
1.759465324878692627e+01 1.247818706184625626e+01 2.190723031386738739e+00
1.750505363941192627e+01 1.270975444465875626e+01 2.208484261855488739e+00
1.646770012378692627e+01 1.245804546028375626e+01 2.104877084121113739e+00
6.311223137378692627e+01 3.202786967903375626e+01 7.979144662246113739e+00
6.338945305347442627e+01 3.297428081184625626e+01 8.102618783339863739e+00
1.813676750659942627e+01 1.245340678840875626e+01 2.345187753066426239e+00
1.800749504566192627e+01 1.267008159309625626e+01 2.358310311660176239e+00
1.745720207691192627e+01 1.267813823372125626e+01 2.316608041152363739e+00
1.646025383472442627e+01 1.244681499153375626e+01 2.213458627089863739e+00
1.837834465503692627e+01 1.227945659309625626e+01 2.463626473769551239e+00
1.815874016284942627e+01 1.245548198372125626e+01 2.464740365371113739e+00
1.718632805347442627e+01 1.226480815559625626e+01 2.363437264785176239e+00
1.765874016284942627e+01 1.277030131965875626e+01 2.457843392714863739e+00
1.645268547534942627e+01 1.243546245247125626e+01 2.322009652480488739e+00
1.707524406909942627e+01 1.286832378059625626e+01 2.050860970839863739e+00
1.637456047534942627e+01 1.278446147590875626e+01 1.994083016738301239e+00
1.612565910816192627e+01 1.292557475715875626e+01 1.992129891738301239e+00
6.380046379566192627e+01 3.235806987434625626e+01 7.620746224746113739e+00
6.349626457691192627e+01 3.304740092903375626e+01 7.671023934707051239e+00
1.809050285816192627e+01 1.251358745247125626e+01 2.203601449355488739e+00
1.794731438159942627e+01 1.272977397590875626e+01 2.215884774550801239e+00
1.750322258472442627e+01 1.279520366340875626e+01 2.190402596816426239e+00
1.644804680347442627e+01 1.254202983528375626e+01 2.086886971816426239e+00
1.635832512378692627e+01 1.276847026497125626e+01 2.104159921035176239e+00
1.613261711597442627e+01 1.292191264778375626e+01 2.103839486464863739e+00
6.364555656909942627e+01 3.226431987434625626e+01 7.950854867324238739e+00
6.343437492847442627e+01 3.299442241340875626e+01 8.012851327285176239e+00
1.791533195972442627e+01 1.242301128059625626e+01 2.299380868300801239e+00
1.798149406909942627e+01 1.273807475715875626e+01 2.338260262832051239e+00
1.709392082691192627e+01 1.258463237434625626e+01 2.253421395644551239e+00
1.702421867847442627e+01 1.282681987434625626e+01 2.274020760878926239e+00
1.646489250659942627e+01 1.281632182747125626e+01 2.230426400527363739e+00
1.607243645191192627e+01 1.288236186653375626e+01 2.207263558730488739e+00
1.833317863941192627e+01 1.232657573372125626e+01 2.441577523574238739e+00
1.717009270191192627e+01 1.233866069465875626e+01 2.348422616347676239e+00
1.711491692066192627e+01 1.258707378059625626e+01 2.371097176894551239e+00
1.594841301441192627e+01 1.227347514778375626e+01 2.242084115371113739e+00
1.615629875659942627e+01 1.264835307747125626e+01 2.299945443496113739e+00
1.604753410816192627e+01 1.286160991340875626e+01 2.314990609511738739e+00
1.697917473316192627e+01 1.262540385872125626e+01 2.118335336074238739e+00
1.640678703784942627e+01 1.261807963997125626e+01 2.076907723769551239e+00
1.633598625659942627e+01 1.285904643684625626e+01 2.097522347792988739e+00
1.605974113941192627e+01 1.299149272590875626e+01 2.091998666152363739e+00
1.598051750659942627e+01 1.322830913215875626e+01 2.111575692519551239e+00
1.653203117847442627e+01 1.381717631965875626e+01 2.213428109511738739e+00
1.808488762378692627e+01 1.258097026497125626e+01 2.314120858535176239e+00
1.749028313159942627e+01 1.258438823372125626e+01 2.269794076308613739e+00
1.705632317066192627e+01 1.265531108528375626e+01 2.244250863417988739e+00
1.600944817066192627e+01 1.240897319465875626e+01 2.138827889785176239e+00
1.631962883472442627e+01 1.284268901497125626e+01 2.209216683730488739e+00
1.600102531909942627e+01 1.295255229622125626e+01 2.197223275527363739e+00
1.623027336597442627e+01 1.335672710090875626e+01 2.258945077285176239e+00
1.592192375659942627e+01 1.346890971809625626e+01 2.247943490371113739e+00
1.802507317066192627e+01 1.254434917122125626e+01 2.427386849746113739e+00
1.715703117847442627e+01 1.241568706184625626e+01 2.343646615371113739e+00
1.707780754566192627e+01 1.265775249153375626e+01 2.364169686660176239e+00
1.602092278003692627e+01 1.240702006965875626e+01 2.252597421035176239e+00
1.623283684253692627e+01 1.278971049934625626e+01 2.311786263808613739e+00
1.611760246753692627e+01 1.300675151497125626e+01 2.326694100722676239e+00
1.632072746753692627e+01 1.339823100715875626e+01 2.386142342910176239e+00
1.591740715503692627e+01 1.345865581184625626e+01 2.361468880996113739e+00
1.585222160816192627e+01 1.413272807747125626e+01 2.231753915175801239e+00
1.646135246753692627e+01 1.244510600715875626e+01 2.205295174941426239e+00
1.637565910816192627e+01 1.268277690559625626e+01 2.225711434707051239e+00
1.585075676441192627e+01 1.269364116340875626e+01 2.187625497207051239e+00
1.588774406909942627e+01 1.299368999153375626e+01 2.224109261855488739e+00
1.620170891284942627e+01 1.344742534309625626e+01 2.298297494277363739e+00
1.602958977222442627e+01 1.364163921028375626e+01 2.307468026503926239e+00
1.591215813159942627e+01 1.386661479622125626e+01 2.324756234511738739e+00
1.579570305347442627e+01 1.409146831184625626e+01 2.341464608535176239e+00
1.645341789722442627e+01 1.243253276497125626e+01 2.320560067519551239e+00
1.609221184253692627e+01 1.253104350715875626e+01 2.303119271621113739e+00
1.608305656909942627e+01 1.280570171028375626e+01 2.333926766738301239e+00
1.595122063159942627e+01 1.301895854622125626e+01 2.348147958144551239e+00
1.613261711597442627e+01 1.340140483528375626e+01 2.406146615371113739e+00
1.602385246753692627e+01 1.363004253059625626e+01 2.423923104628926239e+00
1.598820793628692627e+01 1.390177104622125626e+01 2.452334969863301239e+00
1.580852043628692627e+01 1.409061381965875626e+01 2.460666268691426239e+00
1.674272453784942627e+01 1.511319682747125626e+01 2.160235970839863739e+00
1.741508781909942627e+01 1.584195659309625626e+01 2.279422372207051239e+00
1.647636711597442627e+01 1.313321635872125626e+01 2.050525277480488739e+00
1.595817863941192627e+01 1.315091655403375626e+01 2.018802255019551239e+00
1.601970207691192627e+01 1.347415874153375626e+01 2.058536141738301239e+00
1.626066887378692627e+01 1.390335796028375626e+01 2.121432870253926239e+00
1.623491203784942627e+01 1.418900249153375626e+01 2.151431649550801239e+00
1.629704582691192627e+01 1.452884624153375626e+01 2.193042367324238739e+00
1.667949211597442627e+01 1.506632182747125626e+01 2.276950448378926239e+00
1.687980949878692627e+01 1.550540874153375626e+01 2.339038461074238739e+00
1.607841789722442627e+01 1.291776225715875626e+01 2.119556039199238739e+00
1.598747551441192627e+01 1.315750835090875626e+01 2.140506356582051239e+00
1.653935539722442627e+01 1.374796245247125626e+01 2.244678109511738739e+00
1.616813957691192627e+01 1.384268901497125626e+01 2.230243295058613739e+00
1.576994621753692627e+01 1.391483256965875626e+01 2.211398690566426239e+00
1.735295403003692627e+01 1.513614604622125626e+01 2.456836312636738739e+00
1.682402336597442627e+01 1.514347026497125626e+01 2.421802132949238739e+00
1.741984856128692627e+01 1.582608745247125626e+01 2.539401620253926239e+00
1.605229485034942627e+01 1.289530131965875626e+01 2.234057992324238739e+00
1.828764641284942627e+01 1.436954448372125626e+01 2.564807504042988739e+00
1.644572746753692627e+01 1.368790385872125626e+01 2.353168099746113739e+00
1.600712883472442627e+01 1.374417827278375626e+01 2.328158944472676239e+00
1.586027824878692627e+01 1.395755717903375626e+01 2.342242806777363739e+00
1.565153801441192627e+01 1.413443706184625626e+01 2.347659676894551239e+00
1.678703606128692627e+01 1.511222026497125626e+01 2.542743295058613739e+00
1.742228996753692627e+01 1.581815288215875626e+01 2.669849007949238739e+00
1.625627434253692627e+01 1.299198100715875626e+01 2.379855721816426239e+00
1.584953606128692627e+01 1.306656596809625626e+01 2.357135384902363739e+00
1.590141594409942627e+01 1.338309428840875626e+01 2.398334115371113739e+00
1.609941399097442627e+01 1.378665874153375626e+01 2.460879891738301239e+00
1.587968742847442627e+01 1.395975444465875626e+01 2.464587777480488739e+00
1.558647453784942627e+01 1.408768413215875626e+01 2.457400887832051239e+00
1.799382317066192627e+01 1.582279155403375626e+01 2.844348519667988739e+00
1.739116203784942627e+01 1.592435405403375626e+01 2.374835580214863739e+00
1.731364738941192627e+01 1.621378276497125626e+01 2.402042001113301239e+00
1.167009270191192627e+01 1.295426128059625626e+01 1.693454354628926239e+00
1.594194328784942627e+01 1.350211284309625626e+01 2.139392464980488739e+00
1.642436516284942627e+01 1.406876323372125626e+01 2.235141366347676239e+00
1.593522942066192627e+01 1.409867046028375626e+01 2.206332772597676239e+00
1.625859367847442627e+01 1.459354350715875626e+01 2.283511727675801239e+00
1.718120110034942627e+01 1.545682475715875626e+01 2.441730111464863739e+00
1.739335930347442627e+01 1.591605327278375626e+01 2.507571786269551239e+00
1.731584465503692627e+01 1.620560405403375626e+01 2.535159676894551239e+00
1.168669426441192627e+01 1.295755717903375626e+01 1.797824471816426239e+00
1.593571770191192627e+01 1.348953960090875626e+01 2.259494393691426239e+00
1.594072258472442627e+01 1.379068706184625626e+01 2.294589608535176239e+00
1.595390617847442627e+01 1.410025737434625626e+01 2.330554574355488739e+00
1.738615715503692627e+01 1.524063823372125626e+01 2.562045663222676239e+00
1.668974602222442627e+01 1.515457866340875626e+01 2.503512948378926239e+00
1.739567863941192627e+01 1.590775249153375626e+01 2.639667123183613739e+00
1.731804192066192627e+01 1.619742534309625626e+01 2.668353646621113739e+00
1.170341789722442627e+01 1.296085307747125626e+01 1.902972787246113739e+00
1.592949211597442627e+01 1.347708842903375626e+01 2.379581063613301239e+00
1.603410637378692627e+01 1.383353374153375626e+01 2.428622811660176239e+00
1.599040520191192627e+01 1.411185405403375626e+01 2.458179086074238739e+00
1.700920403003692627e+01 1.501175639778375626e+01 2.639316171035176239e+00
1.783476555347442627e+01 1.582669780403375626e+01 2.796222298964863739e+00
1.739787590503692627e+01 1.589945171028375626e+01 2.772540658339863739e+00
1.172026360034942627e+01 1.296414897590875626e+01 2.008365243300801239e+00
1.026018059253692627e+01 1.267740581184625626e+01 1.453525155410176239e+00
1.589055168628692627e+01 1.415470073372125626e+01 2.053699105605488739e+00
1.698637688159942627e+01 1.510233256965875626e+01 2.224002450332051239e+00
1.700944817066192627e+01 1.544510600715875626e+01 2.263568490371113739e+00
1.737114250659942627e+01 1.599967143684625626e+01 2.346942513808613739e+00
1.729240715503692627e+01 1.629337260872125626e+01 2.374957650527363739e+00
1.142521965503692627e+01 1.290592143684625626e+01 1.647418588027363739e+00
1.083500969409942627e+01 1.279019878059625626e+01 1.599277108535176239e+00
1.027543938159942627e+01 1.268033549934625626e+01 1.554187386855488739e+00
1.739042961597442627e+01 1.499686381965875626e+01 2.369861214980488739e+00
1.766179192066192627e+01 1.548490092903375626e+01 2.442706673964863739e+00
1.746281731128692627e+01 1.570474956184625626e+01 2.455066293105488739e+00
1.737333977222442627e+01 1.599112651497125626e+01 2.481998055800801239e+00
1.729472649097442627e+01 1.628482768684625626e+01 2.510425179824238739e+00
1.144255363941192627e+01 1.290933940559625626e+01 1.753589242324238739e+00
1.085124504566192627e+01 1.279337260872125626e+01 1.702731698378926239e+00
1.029069817066192627e+01 1.268338725715875626e+01 1.654529183730488739e+00
1.583220207691192627e+01 1.410282085090875626e+01 2.294055550917988739e+00
1.698808586597442627e+01 1.508365581184625626e+01 2.486331551894551239e+00
1.744060051441192627e+01 1.568155620247125626e+01 2.585773080214863739e+00
1.737565910816192627e+01 1.598258159309625626e+01 2.616412728652363739e+00
1.729692375659942627e+01 1.627628276497125626e+01 2.645267098769551239e+00
1.145988762378692627e+01 1.291275737434625626e+01 1.859424203261738739e+00
1.086748039722442627e+01 1.279654643684625626e+01 1.806415170058613739e+00
1.030595695972442627e+01 1.268631694465875626e+01 1.755633920058613739e+00
1.578715813159942627e+01 1.406778667122125626e+01 2.411960214003926239e+00
1.693620598316192627e+01 1.504361674934625626e+01 2.609469979628926239e+00
1.750676262378692627e+01 1.571073100715875626e+01 2.729556649550801239e+00
1.737797844409942627e+01 1.597391460090875626e+01 2.751620858535176239e+00
1.730229485034942627e+01 1.626956889778375626e+01 2.781329720839863739e+00
1.147734367847442627e+01 1.291617534309625626e+01 1.966067880019551239e+00
1.088371574878692627e+01 1.279972026497125626e+01 1.909762948378926239e+00
1.032133781909942627e+01 1.268936870247125626e+01 1.856937020644551239e+00
1.735612785816192627e+01 1.605582378059625626e+01 2.302798837050801239e+00
1.186711418628692627e+01 1.299759624153375626e+01 1.646930306777363739e+00
1.122319328784942627e+01 1.286612651497125626e+01 1.595660775527363739e+00
1.062504875659942627e+01 1.274869487434625626e+01 1.548556893691426239e+00
1.005595695972442627e+01 1.263712260872125626e+01 1.503757089003926239e+00
9.512011647224426270e+00 1.253031108528375626e+01 1.460940926894551239e+00
9.004687428474426270e+00 1.243558452278375626e+01 1.422046273574238739e+00
1.703532707691192627e+01 1.551151225715875626e+01 2.358752816542988739e+00
1.735856926441192627e+01 1.604679057747125626e+01 2.440112679824238739e+00
1.188847649097442627e+01 1.300260112434625626e+01 1.757739632949238739e+00
1.124150383472442627e+01 1.286966655403375626e+01 1.703265755996113739e+00
1.064226067066192627e+01 1.275211284309625626e+01 1.653445809707051239e+00
1.007207024097442627e+01 1.264029643684625626e+01 1.606036752089863739e+00
9.527148365974426270e+00 1.253336284309625626e+01 1.560733407363301239e+00
9.017993092536926270e+00 1.243765971809625626e+01 1.518893807753926239e+00
1.744523918628692627e+01 1.574381206184625626e+01 2.548251717910176239e+00
1.736101067066192627e+01 1.603763530403375626e+01 2.577502816542988739e+00
1.190983879566192627e+01 1.300760600715875626e+01 1.868243783339863739e+00
1.125969231128692627e+01 1.287320659309625626e+01 1.810535043105488739e+00
1.065935051441192627e+01 1.275553081184625626e+01 1.757983773574238739e+00
1.008818352222442627e+01 1.264347026497125626e+01 1.707995980605488739e+00
9.542529225349426270e+00 1.253629253059625626e+01 1.660739510878926239e+00
9.031420826911926270e+00 1.243985698372125626e+01 1.616443246230488739e+00
1.744804680347442627e+01 1.573490092903375626e+01 2.685336678847676239e+00
1.736345207691192627e+01 1.602860210090875626e+01 2.714221566542988739e+00
1.728337395191192627e+01 1.632718608528375626e+01 2.744769662246113739e+00
1.127812492847442627e+01 1.287686870247125626e+01 1.918628304824238739e+00
1.067668449878692627e+01 1.275882671028375626e+01 1.863315194472676239e+00
1.010441887378692627e+01 1.264664409309625626e+01 1.810702889785176239e+00
9.557665944099426270e+00 1.253934428840875626e+01 1.760425179824238739e+00
9.044848561286926270e+00 1.244193217903375626e+01 1.714175790175801239e+00
1.111638176441192627e+01 1.284488628059625626e+01 1.686969369277363739e+00
1.050480949878692627e+01 1.272489116340875626e+01 1.637775033339863739e+00
9.920825123786926270e+00 1.261038921028375626e+01 1.590808480605488739e+00
9.366503834724426270e+00 1.250162456184625626e+01 1.546207040175801239e+00
8.860888600349426270e+00 1.241373393684625626e+01 1.506915658339863739e+00
8.165698170661926270e+00 1.218204448372125626e+01 1.439563363417988739e+00
7.523852467536926270e+00 1.197025249153375626e+01 1.377643197402363739e+00
1.178691399097442627e+01 1.297867534309625626e+01 1.852099984511738739e+00
1.113664543628692627e+01 1.284891460090875626e+01 1.796680062636738739e+00
1.052373039722442627e+01 1.272867534309625626e+01 1.744128793105488739e+00
9.938647389411926270e+00 1.261380717903375626e+01 1.694522469863301239e+00
9.383227467536926270e+00 1.250492046028375626e+01 1.647433846816426239e+00
8.885302662849426270e+00 1.242276713997125626e+01 1.607120126113301239e+00
8.185961842536926270e+00 1.218863628059625626e+01 1.536441415175801239e+00
7.542529225349426270e+00 1.197647807747125626e+01 1.471332162246113739e+00
1.181059563159942627e+01 1.298416850715875626e+01 1.965350716933613739e+00
1.115690910816192627e+01 1.285282085090875626e+01 1.906070321425801239e+00
1.054277336597442627e+01 1.273233745247125626e+01 1.851306527480488739e+00
9.956591725349426270e+00 1.261734721809625626e+01 1.799029916152363739e+00
9.400195240974426270e+00 1.250821635872125626e+01 1.749408334121113739e+00
8.909960865974426270e+00 1.243192241340875626e+01 1.708179086074238739e+00
8.206103444099426270e+00 1.219535014778375626e+01 1.633075326308613739e+00
7.561205983161926270e+00 1.198258159309625626e+01 1.565265267714863739e+00
7.308520436286926270e+00 1.189896342903375626e+01 1.345218270644551239e+00
6.691455006599426270e+00 1.169547221809625626e+01 1.287463754042988739e+00
6.128710865974426270e+00 1.151615092903375626e+01 1.235583871230488739e+00
1.042485344409942627e+01 1.270902202278375626e+01 1.717074960097676239e+00
9.828906178474426270e+00 1.259207866340875626e+01 1.668597787246113739e+00
9.261157155036926270e+00 1.248062846809625626e+01 1.621860116347676239e+00
8.689013600349426270e+00 1.235440776497125626e+01 1.573550790175801239e+00
7.986498951911926270e+00 1.212259624153375626e+01 1.504504769667988739e+00
7.329028248786926270e+00 1.190579936653375626e+01 1.439899056777363739e+00
6.710620045661926270e+00 1.170181987434625626e+01 1.379611581191426239e+00
6.145068287849426270e+00 1.152091167122125626e+01 1.324725716933613739e+00
1.044584953784942627e+01 1.271305034309625626e+01 1.826205819472676239e+00
9.848681569099426270e+00 1.259598491340875626e+01 1.774463265761738739e+00
9.279833912849426270e+00 1.248429057747125626e+01 1.725726693496113739e+00
8.713183522224426270e+00 1.236234233528375626e+01 1.675769418105488739e+00
8.008837819099426270e+00 1.213004253059625626e+01 1.603229134902363739e+00
7.349780201911926270e+00 1.191263530403375626e+01 1.535358041152363739e+00
6.729785084724426270e+00 1.170804546028375626e+01 1.471500008925801239e+00
6.161425709724426270e+00 1.152567241340875626e+01 1.414096444472676239e+00
5.458178639411926270e+00 1.131729838997125626e+01 1.168155282363301239e+00
4.993701100349426270e+00 1.119290874153375626e+01 1.129214852675801239e+00
9.211596608161926270e+00 1.247074077278375626e+01 1.605884164199238739e+00
8.602465748786926270e+00 1.232559917122125626e+01 1.554370492324238739e+00
7.879077076911926270e+00 1.208707378059625626e+01 1.484149545058613739e+00
7.200366139411926270e+00 1.186319682747125626e+01 1.418765633925801239e+00
6.566332936286926270e+00 1.165396831184625626e+01 1.357684701308613739e+00
5.970019459724426270e+00 1.145706889778375626e+01 1.300189584121113739e+00
5.473681569099426270e+00 1.132144878059625626e+01 1.256457894667988739e+00
5.008349537849426270e+00 1.119681499153375626e+01 1.215335458144551239e+00
9.231494069099426270e+00 1.247464702278375626e+01 1.711917489394551239e+00
8.628222584724426270e+00 1.233414409309625626e+01 1.658099740371113739e+00
7.903002858161926270e+00 1.209488628059625626e+01 1.584842294082051239e+00
7.222582936286926270e+00 1.187039897590875626e+01 1.516086190566426239e+00
6.586962819099426270e+00 1.166080424934625626e+01 1.451877206191426239e+00
5.988085865974426270e+00 1.146256206184625626e+01 1.391284554824238739e+00
5.489184498786926270e+00 1.132559917122125626e+01 1.344516366347676239e+00
5.022997975349426270e+00 1.120072124153375626e+01 1.301669686660176239e+00
6.419604420661926270e+00 1.160538432747125626e+01 1.335025399550801239e+00
5.821826100349426270e+00 1.141446635872125626e+01 1.278537362441426239e+00
5.320117115974426270e+00 1.128006694465875626e+01 1.234408944472676239e+00
4.842578053474426270e+00 1.115225932747125626e+01 1.192416756972676239e+00
4.386157155036926270e+00 1.103006694465875626e+01 1.152728646621113739e+00
3.952197194099426270e+00 1.091397807747125626e+01 1.114551156386738739e+00
7.788134694099426270e+00 1.205680034309625626e+01 1.566836922988301239e+00
7.092211842536926270e+00 1.182718608528375626e+01 1.496371835097676239e+00
6.439990162849426270e+00 1.161209819465875626e+01 1.430835336074238739e+00
5.838305592536926270e+00 1.141886088997125626e+01 1.371051400527363739e+00
5.335620045661926270e+00 1.128421733528375626e+01 1.324588387832051239e+00
4.857226490974426270e+00 1.115616557747125626e+01 1.280368417128926239e+00
4.399951100349426270e+00 1.103372905403375626e+01 1.238086312636738739e+00
3.965258717536926270e+00 1.091739604622125626e+01 1.198352425917988739e+00
6.263476490974426270e+00 1.155472514778375626e+01 1.271701424941426239e+00
5.674243092536926270e+00 1.137467143684625626e+01 1.218951791152363739e+00
5.160937428474426270e+00 1.123734233528375626e+01 1.174975961074238739e+00
4.670825123786926270e+00 1.110611674934625626e+01 1.133456796035176239e+00
4.205248951911926270e+00 1.098148296028375626e+01 1.094012826308613739e+00
3.761157155036926270e+00 1.086258647590875626e+01 1.056399911269551239e+00
3.336474537849426270e+00 1.074930522590875626e+01 1.020907967910176239e+00
