1.622898635268211365e+01 3.447613429278135300e+00 4.537533834576663594e-01
1.298594436049461365e+01 2.503033351153135300e+00 3.284939840436038594e-01
1.338560256361961365e+01 2.610699366778135300e+00 3.517788961529788594e-01
1.381382521986961365e+01 2.726055812090635300e+00 3.767422750592288594e-01
1.609470900893211365e+01 3.143658351153135300e+00 4.954709127545413594e-01
1.604478225111961365e+01 3.289288233965635300e+00 5.040310934186038594e-01
1.621311721205711365e+01 3.442242335528135300e+00 5.215939596295413594e-01
1.297276076674461365e+01 2.499493312090635300e+00 3.812131002545413594e-01
1.337156447768211365e+01 2.606915187090635300e+00 4.066037252545413594e-01
1.379881057143211365e+01 2.722149562090635300e+00 4.334744527936038594e-01
1.609287795424461365e+01 3.138775538653135300e+00 5.632962301373538594e-01
1.604282912611961365e+01 3.284527491778135300e+00 5.716275289654788594e-01
1.619724807143211365e+01 3.436871241778135300e+00 5.889615133404788594e-01
1.295945510268211365e+01 2.495953273028135300e+00 4.341458395123538594e-01
1.335764846205711365e+01 2.603253077715635300e+00 4.610165670514163594e-01
1.378404006361961365e+01 2.718121241778135300e+00 4.898251608014163594e-01
1.609092482924461365e+01 3.134014796465635300e+00 6.307705953717288594e-01
1.604099807143211365e+01 3.279766749590635300e+00 6.388730123639163594e-01
1.618150100111961365e+01 3.431500148028135300e+00 6.565884664654788594e-01
1.294639357924461365e+01 2.492413233965635300e+00 4.866818502545413594e-01
1.334361037611961365e+01 2.599468898028135300e+00 5.153531149029788594e-01
1.376914748549461365e+01 2.714092921465635300e+00 5.463589742779788594e-01
1.608897170424461365e+01 3.129131983965635300e+00 6.986264303326663594e-01
1.603904494643211365e+01 3.275006007403135300e+00 7.061490133404788594e-01
1.616575393080711365e+01 3.426129054278135300e+00 7.237423971295413594e-01
1.293320998549461365e+01 2.488873194903135300e+00 5.394314840436038594e-01
1.332969436049461365e+01 2.595684718340635300e+00 5.698727682232913594e-01
1.375437697768211365e+01 2.710064601153135300e+00 6.024960592389163594e-01
1.608714064955711365e+01 3.124249171465635300e+00 7.661465719342288594e-01
1.603709182143211365e+01 3.270123194903135300e+00 7.738217428326663594e-01
1.615000686049461365e+01 3.420757960528135300e+00 7.911557272076663594e-01
1.292014846205711365e+01 2.485333155840635300e+00 5.917996481061038594e-01
1.331577834486961365e+01 2.592022608965635300e+00 6.240262106061038594e-01
1.373960646986961365e+01 2.706158351153135300e+00 6.585263326764163594e-01
1.608518752455711365e+01 3.119488429278135300e+00 8.336972311139163594e-01
1.603526076674461365e+01 3.265362452715635300e+00 8.411282613873538594e-01
1.613425979018211365e+01 3.415508937090635300e+00 8.581112936139163594e-01
1.290696486830711365e+01 2.481793116778135300e+00 6.443661764264163594e-01
1.330186232924461365e+01 2.588238429278135300e+00 6.783627584576663594e-01
1.372483596205711365e+01 2.702130030840635300e+00 7.147549703717288594e-01
1.608323439955711365e+01 3.114605616778135300e+00 9.016141012311038594e-01
1.603330764174461365e+01 3.260601710528135300e+00 9.088315084576663594e-01
1.611851271986961365e+01 3.410137843340635300e+00 9.253262594342288594e-01
1.289390334486961365e+01 2.478253077715635300e+00 6.965664938092288594e-01
1.328806838393211365e+01 2.584454249590635300e+00 7.323178365826663594e-01
1.371006545424461365e+01 2.698223780840635300e+00 7.705868795514163594e-01
1.608140334486961365e+01 3.109844874590635300e+00 9.692105367779788594e-01
1.603196486830711365e+01 3.255718898028135300e+00 9.762448385357913594e-01
1.612009963393211365e+01 3.405499171465635300e+00 9.933346822857913594e-01
1.288084182143211365e+01 2.474835108965635300e+00 7.489651754498538594e-01
1.327415236830711365e+01 2.580792140215635300e+00 7.864712789654788594e-01
1.369541701674461365e+01 2.694317530840635300e+00 8.263272359967288594e-01
1.286790236830711365e+01 2.471295069903135300e+00 8.009823873639163594e-01
1.328306350111961365e+01 2.576519679278135300e+00 8.420132711529788594e-01
1.373716506361961365e+01 2.689556788653135300e+00 8.867367818951663594e-01
1.535410842299461365e+01 3.426495265215635300e+00 2.284726217389163594e-01
1.557591018080711365e+01 3.577007960528135300e+00 2.437466695904788594e-01
1.579331740736961365e+01 3.732037257403135300e+00 2.588986471295413594e-01
1.601841506361961365e+01 3.892681788653135300e+00 2.745846822857913594e-01
1.625010451674461365e+01 4.057964991778135300e+00 2.907284811139163594e-01
1.644163283705711365e+01 4.224590968340635300e+00 3.061398580670413594e-01
1.660093459486961365e+01 4.392437648028135300e+00 3.209866598248538594e-01
1.696507033705711365e+01 4.586041163653135300e+00 3.414181783795413594e-01
1.626414260268211365e+01 3.459088038653135300e+00 3.182705953717288594e-01
1.677683791518211365e+01 3.633404444903135300e+00 3.432339742779788594e-01
1.732688674330711365e+01 3.820538233965635300e+00 3.704098775982913594e-01
1.941660842299461365e+01 4.308819483965635300e+00 4.567898824811038594e-01
1.934153518080711365e+01 4.482891749590635300e+00 4.669522359967288594e-01
1.958396682143211365e+01 4.688336085528135300e+00 4.868191793561038594e-01
2.015904006361961365e+01 4.935162257403135300e+00 5.183590963482913594e-01
1.624815139174461365e+01 3.453594874590635300e+00 3.863247945904788594e-01
1.675999221205711365e+01 3.627667140215635300e+00 4.136685445904788594e-01
1.730906447768211365e+01 3.814434718340635300e+00 4.429806783795413594e-01
1.941734084486961365e+01 4.303326319903135300e+00 5.397061422467288594e-01
1.933994826674461365e+01 4.477276515215635300e+00 5.495022848248538594e-01
1.956712111830711365e+01 4.681133937090635300e+00 5.704526022076663594e-01
2.014121779799461365e+01 4.927593898028135300e+00 6.046780660748538594e-01
1.623240432143211365e+01 3.448223780840635300e+00 4.539212301373538594e-01
1.674314650893211365e+01 3.621929835528135300e+00 4.839810445904788594e-01
1.729112014174461365e+01 3.808331202715635300e+00 5.158413961529788594e-01
1.941807326674461365e+01 4.297833155840635300e+00 6.231259420514163594e-01
1.933836135268211365e+01 4.471661280840635300e+00 6.325406149029788594e-01
1.955027541518211365e+01 4.673931788653135300e+00 6.539792135357913594e-01
2.012363967299461365e+01 4.920025538653135300e+00 6.904172018170413594e-01
1.621641311049461365e+01 3.442852687090635300e+00 5.217770650982913594e-01
1.672630080580711365e+01 3.616314601153135300e+00 5.538052633404788594e-01
1.727329787611961365e+01 3.802349757403135300e+00 5.881833150982913594e-01
1.941892775893211365e+01 4.292339991778135300e+00 7.061642721295413594e-01
1.933677443861961365e+01 4.466046046465635300e+00 7.151822164654788594e-01
1.953355178236961365e+01 4.666729640215635300e+00 7.369565084576663594e-01
2.010593947768211365e+01 4.912457179278135300e+00 7.765072897076663594e-01
1.620066604018211365e+01 3.437481593340635300e+00 5.891598775982913594e-01
1.670945510268211365e+01 3.610577296465635300e+00 6.239041402936038594e-01
1.725535354018211365e+01 3.796246241778135300e+00 6.607846334576663594e-01
1.941966018080711365e+01 4.286846827715635300e+00 7.897061422467288594e-01
1.933530959486961365e+01 4.460308741778135300e+00 7.982815816998538594e-01
1.951682814955711365e+01 4.659527491778135300e+00 8.202694967389163594e-01
2.008823928236961365e+01 4.904888819903135300e+00 8.620175436139163594e-01
1.618479689955711365e+01 3.432110499590635300e+00 6.567868307232913594e-01
1.669273146986961365e+01 3.604839991778135300e+00 6.935147359967288594e-01
1.723765334486961365e+01 3.790142726153135300e+00 7.328976705670413594e-01
1.942051467299461365e+01 4.281353663653135300e+00 8.728512838482913594e-01
1.933372268080711365e+01 4.454693507403135300e+00 8.809842184186038594e-01
1.950010451674461365e+01 4.652447413653135300e+00 9.030331686139163594e-01
2.007066115736961365e+01 4.897320460528135300e+00 9.478940084576663594e-01
1.616917189955711365e+01 3.426739405840635300e+00 7.239712789654788594e-01
1.667612990736961365e+01 3.599224757403135300e+00 7.630032613873538594e-01
1.721983107924461365e+01 3.784161280840635300e+00 8.052701070904788594e-01
1.942124709486961365e+01 4.275738429278135300e+00 9.564999654889163594e-01
1.933213576674461365e+01 4.449078273028135300e+00 9.641598775982913594e-01
1.948350295424461365e+01 4.645245265215635300e+00 9.857052877545413594e-01
2.005308303236961365e+01 4.889752101153135300e+00 1.033190639317041359e+00
1.615330275893211365e+01 3.421368312090635300e+00 7.913998678326663594e-01
1.665940627455711365e+01 3.593487452715635300e+00 8.327664449811038594e-01
1.720200881361961365e+01 3.778179835528135300e+00 8.771390035748538594e-01
1.933054885268211365e+01 4.443463038653135300e+00 1.046938808262353859e+00
1.946677932143211365e+01 4.638165187090635300e+00 1.068713100254541359e+00
2.003538283705711365e+01 4.882183741778135300e+00 1.118838222324853859e+00
1.613767775893211365e+01 3.416119288653135300e+00 8.583706930279788594e-01
1.664268264174461365e+01 3.587872218340635300e+00 9.020413473248538594e-01
1.718443068861961365e+01 3.772076319903135300e+00 9.488858297467288594e-01
1.932908400893211365e+01 4.437847804278135300e+00 1.129732997715478859e+00
1.945005568861961365e+01 4.630963038653135300e+00 1.151171596348291359e+00
2.005308303236961365e+01 4.878521632403135300e+00 1.206362636387353859e+00
1.612193068861961365e+01 3.410748194903135300e+00 9.255856588482913594e-01
1.662608107924461365e+01 3.582256983965635300e+00 9.715756490826663594e-01
1.716660842299461365e+01 3.766094874590635300e+00 1.020892055332666359e+00
1.612363967299461365e+01 3.406109523028135300e+00 9.936398580670413594e-01
1.666599807143211365e+01 3.579327296465635300e+00 1.044863612949853859e+00
1.696604689955711365e+01 4.586773585528135300e+00 3.414792135357913594e-01
1.742344436049461365e+01 4.799297999590635300e+00 3.654202535748538594e-01
1.784458693861961365e+01 5.016827296465635300e+00 3.885373190045413594e-01
1.822813186049461365e+01 5.238751124590635300e+00 4.111508443951663594e-01
1.862974318861961365e+01 5.470928858965635300e+00 4.348324850201663594e-01
1.904234084486961365e+01 5.713726710528135300e+00 4.594296529889163594e-01
1.990012893080711365e+01 6.042584132403135300e+00 4.990109518170413594e-01
2.034995803236961365e+01 6.314556788653135300e+00 5.258359029889163594e-01
2.016319045424461365e+01 4.936382960528135300e+00 5.185422018170413594e-01
2.255979689955711365e+01 5.845074366778135300e+00 6.404599264264163594e-01
2.256809768080711365e+01 6.061749171465635300e+00 6.550931051373538594e-01
2.313670119643211365e+01 6.369610499590635300e+00 6.900357320904788594e-01
2.374046096205711365e+01 6.696758937090635300e+00 7.266110494732913594e-01
4.129917678236961365e+01 1.012107534334063530e+01 1.401003749668603859e+00
2.014536818861961365e+01 4.928692530840635300e+00 6.048764303326663594e-01
2.255894240736961365e+01 5.838726710528135300e+00 7.384366109967288594e-01
2.255247268080711365e+01 6.053204249590635300e+00 7.526425436139163594e-01
2.312034377455711365e+01 6.360821437090635300e+00 7.903470113873538594e-01
2.372324904799461365e+01 6.687359523028135300e+00 8.303708150982913594e-01
4.196067580580711365e+01 1.022996206209063530e+01 1.615603359043603859e+00
2.012779006361961365e+01 4.921124171465635300e+00 6.906308248639163594e-01
2.255820998549461365e+01 5.832379054278135300e+00 8.369778707623538594e-01
2.253672561049461365e+01 6.044659327715635300e+00 8.506344869732913594e-01
2.310386428236961365e+01 6.351910304278135300e+00 8.910855367779788594e-01
2.370603713393211365e+01 6.678082179278135300e+00 9.340390279889163594e-01
4.207932814955711365e+01 1.024009389802813530e+01 1.810046108067041359e+00
2.010996779799461365e+01 4.913555812090635300e+00 7.767361715436038594e-01
2.255735549330711365e+01 5.826153468340635300e+00 9.350308492779788594e-01
2.252110061049461365e+01 6.036236476153135300e+00 9.480160787701663594e-01
2.308750686049461365e+01 6.342999171465635300e+00 9.911984518170413594e-01
2.368894729018211365e+01 6.668804835528135300e+00 1.037066371738916359e+00
2.009238967299461365e+01 4.905987452715635300e+00 8.622769430279788594e-01
2.255650100111961365e+01 5.819805812090635300e+00 1.033678920567041359e+00
2.250535354018211365e+01 6.027691554278135300e+00 1.045840175449853859e+00
2.307114943861961365e+01 6.334088038653135300e+00 1.091769130527978859e+00
2.367185744643211365e+01 6.659527491778135300e+00 1.140536220371728859e+00
2.007468947768211365e+01 4.898419093340635300e+00 9.481686666607913594e-01
2.255564650893211365e+01 5.813458155840635300e+00 1.131853969395166359e+00
2.249436721205711365e+01 6.019879054278135300e+00 1.143313319981103859e+00
2.305479201674461365e+01 6.325298976153135300e+00 1.191698940098291359e+00
2.365476760268211365e+01 6.650250148028135300e+00 1.243365199863916359e+00
2.005711135268211365e+01 4.890850733965635300e+00 1.033480556309228859e+00
2.255479201674461365e+01 5.807110499590635300e+00 1.230593593418603859e+00
2.248655471205711365e+01 6.012676905840635300e+00 1.241488368809228859e+00
2.303843459486961365e+01 6.316387843340635300e+00 1.292086513340478859e+00
2.363987502455711365e+01 6.641339015215635300e+00 1.346239955723291359e+00
2.003953322768211365e+01 4.883282374590635300e+00 1.119143398106103859e+00
2.257444533705711365e+01 5.803692530840635300e+00 1.330233485996728859e+00
2.005735549330711365e+01 4.879620265215635300e+00 1.206713588535791359e+00
2.035630568861961365e+01 6.316387843340635300e+00 5.260953024029788594e-01
2.118064650893211365e+01 6.670635890215635300e+00 5.665005758404788594e-01
2.228294143080711365e+01 7.099102687090635300e+00 6.170529440045413594e-01
2.290989455580711365e+01 7.450665187090635300e+00 6.525906637311038594e-01
2.657505568861961365e+01 8.495220851153135300e+00 7.968167379498538594e-01
5.472971877455711365e+01 1.535227651521563530e+01 1.831362636387353859e+00
5.440952834486961365e+01 1.583677358552813530e+01 1.854937465488916359e+00
2.835752639174461365e+01 9.746685694903135300e+00 9.129666402936038594e-01
4.130296096205711365e+01 1.012315053865313530e+01 1.401232631504541359e+00
2.564256057143211365e+01 7.523052882403135300e+00 8.292721822857913594e-01
2.550608596205711365e+01 7.746319483965635300e+00 8.405789449811038594e-01
2.599937209486961365e+01 8.102886866778135300e+00 8.761471822857913594e-01
2.656016311049461365e+01 8.485089015215635300e+00 9.150876119732913594e-01
5.559910354018211365e+01 1.554124135896563530e+01 2.118990810215478859e+00
5.507859572768211365e+01 1.598630971834063530e+01 2.132540614902978859e+00
2.835899123549461365e+01 9.739971827715635300e+00 1.041155727207666359e+00
4.195774611830711365e+01 1.023093862459063530e+01 1.615572841465478859e+00
2.564341506361961365e+01 7.516339015215635300e+00 9.430874899029788594e-01
2.550413283705711365e+01 7.739239405840635300e+00 9.532956197857913594e-01
2.598508986830711365e+01 8.093121241778135300e+00 9.908627584576663594e-01
2.654527053236961365e+01 8.474957179278135300e+00 1.032656581699853859e+00
5.676853713393211365e+01 1.579978628084063530e+01 2.427279384434228859e+00
5.616880568861961365e+01 1.623814077302813530e+01 2.437426479160791359e+00
2.836045607924461365e+01 9.733135890215635300e+00 1.169436366856103859e+00
4.207603225111961365e+01 1.024094839021563530e+01 1.809985072910791359e+00
2.564683303236961365e+01 7.510235499590635300e+00 1.057101161777978859e+00
2.550230178236961365e+01 7.732159327715635300e+00 1.066653163731103859e+00
2.597056350111961365e+01 8.083233546465635300e+00 1.106127651035791359e+00
2.653025588393211365e+01 8.464703273028135300e+00 1.150790126621728859e+00
2.836192092299461365e+01 9.726422023028135300e+00 1.297137172520166359e+00
2.565025100111961365e+01 7.504131983965635300e+00 1.170611293613916359e+00
2.550047072768211365e+01 7.725079249590635300e+00 1.179461391270166359e+00
2.595628127455711365e+01 8.073467921465635300e+00 1.220705898106103859e+00
2.651536330580711365e+01 8.454571437090635300e+00 1.268221767246728859e+00
2.836338576674461365e+01 9.719586085528135300e+00 1.425600917637353859e+00
2.565354689955711365e+01 7.497906398028135300e+00 1.284823329746728859e+00
2.549863967299461365e+01 7.717999171465635300e+00 1.292925746738916359e+00
2.594175490736961365e+01 8.063580226153135300e+00 1.335848720371728859e+00
2.650047072768211365e+01 8.444317530840635300e+00 1.386217983067041359e+00
2.837864455580711365e+01 9.716412257403135300e+00 1.554324062168603859e+00
2.565696486830711365e+01 7.491802882403135300e+00 1.398531825840478859e+00
2.549668654799461365e+01 7.710919093340635300e+00 1.405840785801416359e+00
2.594260939955711365e+01 8.056988429278135300e+00 1.451250942051416359e+00
2.835642775893211365e+01 9.747418116778135300e+00 9.129818990826663594e-01
2.869346389174461365e+01 1.012363881990313530e+01 9.436825826764163594e-01
2.920835646986961365e+01 1.055796499177813530e+01 9.811123922467288594e-01
5.319627150893211365e+01 1.775156850740313530e+01 1.944277675449853859e+00
5.284080275893211365e+01 1.820554799959063530e+01 1.963564784824853859e+00
3.100816115736961365e+01 1.201792592927813530e+01 1.108462245762353859e+00
3.120786818861961365e+01 1.240708608552813530e+01 1.136187465488916359e+00
3.169505080580711365e+01 1.289671010896563530e+01 1.175524623692041359e+00
2.835789260268211365e+01 9.740582179278135300e+00 1.041170985996728859e+00
2.868113479018211365e+01 1.011326284334063530e+01 1.072558315098291359e+00
2.919553908705711365e+01 1.054722280427813530e+01 1.113497646152978859e+00
5.392454299330711365e+01 1.794724721834063530e+01 2.224612148106103859e+00
5.372923049330711365e+01 1.845713491365313530e+01 2.250582607090478859e+00
3.101060256361961365e+01 1.201121206209063530e+01 1.251376064121728859e+00
3.119700393080711365e+01 1.239622182771563530e+01 1.279116542637353859e+00
3.168394240736961365e+01 1.288547964021563530e+01 1.321993739902978859e+00
2.835923537611961365e+01 9.733868312090635300e+00 1.169451625645166359e+00
2.866868361830711365e+01 1.010276479646563530e+01 1.202090175449853859e+00
2.918284377455711365e+01 1.053648061677813530e+01 1.245150478184228859e+00
5.481260451674461365e+01 1.818858022615313530e+01 2.518526943027978859e+00
5.463230666518211365e+01 1.871262807771563530e+01 2.545657069981103859e+00
3.101304396986961365e+01 1.200449819490313530e+01 1.393649013340478859e+00
3.118613967299461365e+01 1.238535756990313530e+01 1.422808559238916359e+00
3.167283400893211365e+01 1.287437124177813530e+01 1.468447597324853859e+00
2.836070021986961365e+01 9.727154444903135300e+00 1.297137172520166359e+00
2.865623244643211365e+01 1.009238881990313530e+01 1.331591518223291359e+00
2.917002639174461365e+01 1.052573842927813530e+01 1.377459438145166359e+00
5.612229689955711365e+01 1.855027456209063530e+01 2.845110805332666359e+00
5.608982619643211365e+01 1.913254995271563530e+01 2.881091029942041359e+00
3.101536330580711365e+01 1.199778432771563530e+01 1.536776454746728859e+00
3.117527541518211365e+01 1.237437124177813530e+01 1.566470058262353859e+00
3.166172561049461365e+01 1.286326284334063530e+01 1.614107997715478859e+00
2.836216506361961365e+01 9.720318507403135300e+00 1.425600917637353859e+00
2.864390334486961365e+01 1.008189077302813530e+01 1.460360439121728859e+00
2.915733107924461365e+01 1.051511831209063530e+01 1.509020717442041359e+00
5.952732619643211365e+01 2.141135854646563530e+01 3.429232509434228859e+00
5.919651564955711365e+01 2.194236440584063530e+01 3.450594814121728859e+00
2.837754592299461365e+01 9.717144679278135300e+00 1.554324062168603859e+00
3.107957229018211365e+01 1.197275991365313530e+01 2.399081142246728859e+00
3.074717482924461365e+01 1.154319448396563530e+01 2.490145595371728859e+00
3.109690627455711365e+01 1.197044057771563530e+01 2.544573695957666359e+00
3.074656447768211365e+01 1.153550405427813530e+01 2.631335170567041359e+00
3.111411818861961365e+01 1.196824331209063530e+01 2.689532192051416359e+00
3.074595412611961365e+01 1.152781362459063530e+01 2.772601039707666359e+00
3.113145217299461365e+01 1.196604604646563530e+01 2.834765346348291359e+00
3.074534377455711365e+01 1.152012319490313530e+01 2.914706142246728859e+00
2.924595412611961365e+01 1.058945913240313530e+01 1.523211391270166359e+00
3.072593459486961365e+01 1.126914663240313530e+01 2.364138515293603859e+00
3.075217971205711365e+01 1.160557241365313530e+01 2.394946010410791359e+00
3.072508010268211365e+01 1.125864858552813530e+01 2.510302455723291359e+00
3.075132521986961365e+01 1.159507436677813530e+01 2.541720302402978859e+00
3.072422561049461365e+01 1.124815053865313530e+01 2.655779750645166359e+00
3.075059279799461365e+01 1.158469839021563530e+01 2.687777431309228859e+00
3.098521193861961365e+01 1.198826284334063530e+01 2.739947231113916359e+00
3.072337111830711365e+01 1.123777456209063530e+01 2.802111537754541359e+00
3.074973830580711365e+01 1.157432241365313530e+01 2.833926112949853859e+00
3.100010451674461365e+01 1.198252553865313530e+01 2.889254482090478859e+00
5.172752150893211365e+01 2.438474721834063530e+01 3.133807094395166359e+00
5.075718459486961365e+01 2.461607046052813530e+01 3.122530849277978859e+00
5.147446975111961365e+01 2.555564565584063530e+01 3.223284633457666359e+00
5.833897170424461365e+01 2.357358999177813530e+01 3.573000819981103859e+00
5.858299025893211365e+01 2.434775991365313530e+01 3.649081142246728859e+00
5.979234084486961365e+01 2.549326772615313530e+01 3.789614589512353859e+00
5.251450881361961365e+01 2.341050405427813530e+01 3.352435024082666359e+00
5.157481154799461365e+01 2.367380971834063530e+01 3.341189296543603859e+00
5.162058791518211365e+01 2.432224721834063530e+01 3.397890956699853859e+00
5.068736037611961365e+01 2.456834096834063530e+01 3.385409267246728859e+00
7.080100783705711365e+01 3.386765737459063530e+01 4.892580898106103859e+00
6.881028518080711365e+01 2.802305288240313530e+01 4.678454311192041359e+00
5.957114943861961365e+01 2.538877553865313530e+01 4.080172450840478859e+00
6.045603713393211365e+01 2.644224233552813530e+01 4.206866176426416359e+00
5.186033400893211365e+01 2.376792592927813530e+01 3.630892665684228859e+00
5.171507033705711365e+01 2.434190053865313530e+01 3.674792201817041359e+00
5.181846389174461365e+01 2.502378530427813530e+01 3.737994106113916359e+00
3.440440139174461365e+01 1.514182729646563530e+01 2.549837978184228859e+00
3.435300979018211365e+01 1.554124135896563530e+01 2.583300502598291359e+00
3.589536818861961365e+01 1.787229604646563530e+01 2.868227870762353859e+00
3.440598830580711365e+01 1.512913198396563530e+01 2.731188686192041359e+00
3.435459670424461365e+01 1.552866811677813530e+01 2.765108974277978859e+00
3.593076857924461365e+01 1.787327260896563530e+01 3.063662441074853859e+00
3.440769729018211365e+01 1.511643667146563530e+01 2.913607509434228859e+00
3.435618361830711365e+01 1.551597280427813530e+01 2.948000819981103859e+00
3.562876662611961365e+01 1.728147573396563530e+01 1.617037685215478859e+00
3.577000197768211365e+01 1.778916616365313530e+01 1.660693080723291359e+00
3.617820510268211365e+01 1.841294546052813530e+01 1.719683559238916359e+00
5.112327346205711365e+01 2.524827260896563530e+01 2.603976161777978859e+00
5.323582229018211365e+01 2.681968374177813530e+01 2.777193935215478859e+00
5.283042678236961365e+01 2.731113881990313530e+01 2.805636318027978859e+00
5.285093459486961365e+01 2.272471303865313530e+01 2.717776210606103859e+00
5.179282912611961365e+01 2.296006460115313530e+01 2.708392055332666359e+00
5.113425979018211365e+01 2.333274526521563530e+01 2.720980556309228859e+00
5.057883986830711365e+01 2.373911733552813530e+01 2.739092738926416359e+00
5.068967971205711365e+01 2.441172475740313530e+01 2.796862514317041359e+00
5.041538771986961365e+01 2.492783803865313530e+01 2.831499965488916359e+00
5.508079299330711365e+01 2.760801381990313530e+01 3.175661952793603859e+00
5.514500197768211365e+01 2.833286733552813530e+01 3.236422450840478859e+00
5.605283889174461365e+01 2.388328237459063530e+01 3.190035732090478859e+00
5.243272170424461365e+01 2.318333120271563530e+01 3.020190151035791359e+00
5.122215041518211365e+01 2.334800405427813530e+01 2.996035487949853859e+00
5.147739943861961365e+01 2.408176870271563530e+01 3.065081508457666359e+00
5.058103713393211365e+01 2.434788198396563530e+01 3.059191615879541359e+00
5.645347365736961365e+01 2.747959585115313530e+01 3.503374965488916359e+00
5.662803420424461365e+01 2.826475210115313530e+01 3.574175746738916359e+00
5.860679396986961365e+01 2.480125112459063530e+01 3.652056606113916359e+00
5.245176467299461365e+01 2.317100210115313530e+01 3.294878871738916359e+00
5.215427932143211365e+01 2.369285268709063530e+01 3.328661830723291359e+00
3.617588576674461365e+01 1.791135854646563530e+01 2.269793422520166359e+00
5.120676955580711365e+01 2.458787221834063530e+01 3.371050746738916359e+00
7.058994826674461365e+01 3.347166128084063530e+01 4.814455898106103859e+00
7.021836623549461365e+01 3.418565053865313530e+01 4.861941249668603859e+00
3.802927932143211365e+01 2.060593862459063530e+01 2.564608485996728859e+00
6.066074904799461365e+01 2.553379506990313530e+01 4.101778896152978859e+00
5.993284377455711365e+01 2.598411245271563530e+01 4.111864955723291359e+00
5.197630080580711365e+01 2.360374135896563530e+01 3.590304286777978859e+00
3.616904982924461365e+01 1.789463491365313530e+01 2.465792568027978859e+00
5.184190139174461365e+01 2.483128042146563530e+01 3.691424281895166359e+00
3.803806838393211365e+01 2.059568471834063530e+01 2.773363979160791359e+00
6.049668654799461365e+01 2.617503042146563530e+01 4.467715175449853859e+00
3.617027053236961365e+01 1.788132924959063530e+01 2.661410243809228859e+00
3.804685744643211365e+01 2.058543081209063530e+01 2.983446986973291359e+00
3.617735061049461365e+01 1.787046499177813530e+01 2.857638271152978859e+00
6.449204787611961365e+01 3.156504506990313530e+01 6.149386318027978859e+00
6.458018264174461365e+01 3.241318960115313530e+01 6.233981044590478859e+00
6.437730178236961365e+01 3.149143667146563530e+01 6.479922206699853859e+00
6.510313186049461365e+01 3.262339467927813530e+01 6.632555873692041359e+00
6.401926955580711365e+01 3.211570424959063530e+01 6.859606654942041359e+00
6.462425002455711365e+01 3.155186147615313530e+01 7.188158901035791359e+00
6.527830275893211365e+01 3.265440053865313530e+01 7.344958217442041359e+00
6.612022170424461365e+01 3.300632924959063530e+01 7.791689784824853859e+00
6.512974318861961365e+01 3.254075307771563530e+01 8.021410854160791359e+00
5.756858596205711365e+01 3.002134389802813530e+01 3.705721767246728859e+00
6.099937209486961365e+01 3.237559194490313530e+01 4.007265956699853859e+00
5.128001174330711365e+01 2.323753042146563530e+01 3.221377284824853859e+00
3.619358596205711365e+01 1.786338491365313530e+01 2.233233363926416359e+00
5.103574904799461365e+01 2.440952749177813530e+01 3.313235194981103859e+00
7.001402053236961365e+01 3.305283803865313530e+01 4.715914638340478859e+00
7.030454787611961365e+01 3.404929799959063530e+01 4.810427577793603859e+00
3.805601271986961365e+01 2.057444448396563530e+01 2.529391200840478859e+00
5.975279006361961365e+01 2.649180288240313530e+01 4.112505824863916359e+00
5.118101271986961365e+01 2.381223745271563530e+01 3.541216762363916359e+00
5.176341018080711365e+01 2.468845815584063530e+01 3.639971645176416359e+00
7.068906936049461365e+01 3.419016714021563530e+01 5.210925014317041359e+00
3.806492385268211365e+01 2.056406850740313530e+01 2.740633876621728859e+00
6.723386916518211365e+01 3.439500112459063530e+01 5.091586025059228859e+00
6.056797561049461365e+01 2.678416128084063530e+01 4.488833339512353859e+00
5.121214064955711365e+01 2.380540151521563530e+01 3.815508754551416359e+00
3.807383498549461365e+01 2.055357046052813530e+01 2.952074916660791359e+00
6.718613967299461365e+01 3.434885854646563530e+01 5.446383388340478859e+00
6.448032912611961365e+01 3.394041128084063530e+01 5.291598232090478859e+00
6.382188186049461365e+01 3.360862417146563530e+01 5.580584438145166359e+00
6.710557326674461365e+01 3.340903921052813530e+01 6.079867275059228859e+00
6.645530471205711365e+01 3.396690053865313530e+01 6.097033412754541359e+00
6.640012893080711365e+01 3.479197378084063530e+01 6.169939906895166359e+00
6.491123732924461365e+01 3.241160268709063530e+01 6.221453578770166359e+00
6.655515822768211365e+01 3.398814077302813530e+01 6.464220912754541359e+00
6.301560744643211365e+01 3.318528432771563530e+01 6.188387782871728859e+00
6.419444045424461365e+01 3.207017202302813530e+01 6.495501430332666359e+00
6.347849807143211365e+01 3.256370229646563530e+01 6.499041469395166359e+00
6.420029982924461365e+01 3.371604604646563530e+01 6.653109462559228859e+00
6.461533889174461365e+01 3.141843862459063530e+01 6.804507167637353859e+00
6.408811721205711365e+01 3.199961538240313530e+01 6.826739223301416359e+00
6.438218459486961365e+01 3.295151967927813530e+01 6.938616664707666359e+00
6.397617873549461365e+01 3.358799428865313530e+01 6.975985439121728859e+00
6.428904494643211365e+01 3.206492299959063530e+01 7.193728359043603859e+00
6.356016311049461365e+01 3.255442495271563530e+01 7.191668422520166359e+00
6.338877639174461365e+01 3.329063100740313530e+01 7.252825649082666359e+00
6.512290725111961365e+01 3.241013784334063530e+01 7.636004360020166359e+00
6.277317580580711365e+01 3.217380971834063530e+01 7.438906581699853859e+00
6.345225295424461365e+01 3.329710073396563530e+01 7.604342372715478859e+00
6.526731643080711365e+01 3.245005483552813530e+01 8.003619106113916359e+00
6.344065627455711365e+01 3.245371694490313530e+01 7.861514003574853859e+00
6.409092482924461365e+01 3.189182729646563530e+01 6.677065761387353859e+00
6.437779006361961365e+01 3.284080190584063530e+01 6.788287074863916359e+00
6.294761428236961365e+01 3.300803823396563530e+01 6.715014369785791359e+00
6.434275588393211365e+01 3.449534292146563530e+01 6.948656947910791359e+00
1.832078322768211365e+01 1.287400503084063530e+01 1.938067348301416359e+00
6.431065139174461365e+01 3.196397085115313530e+01 7.047640712559228859e+00
6.359654006361961365e+01 3.246397085115313530e+01 7.049883754551416359e+00
6.374656447768211365e+01 3.335459585115313530e+01 7.149142177402978859e+00
6.415257033705711365e+01 3.438084096834063530e+01 7.279147060215478859e+00
1.774534377455711365e+01 1.258543081209063530e+01 1.987658412754541359e+00
6.448667678236961365e+01 3.201707143709063530e+01 7.413668544590478859e+00
6.356626662611961365e+01 3.242649526521563530e+01 7.389925868809228859e+00
6.334043654799461365e+01 3.314255971834063530e+01 7.446947963535791359e+00
6.396995314955711365e+01 3.427012319490313530e+01 7.606875331699853859e+00
1.732432326674461365e+01 1.237241811677813530e+01 2.050661952793603859e+00
6.277647170424461365e+01 3.204661245271563530e+01 7.638735683262353859e+00
6.318479689955711365e+01 3.304673452302813530e+01 7.773562343418603859e+00
1.786338576674461365e+01 1.235398549959063530e+01 2.201449306309228859e+00
1.733579787611961365e+01 1.237046499177813530e+01 2.163348110020166359e+00
6.476511916518211365e+01 3.291819448396563530e+01 8.231753261387353859e+00
6.316660842299461365e+01 3.301463003084063530e+01 8.114596278965478859e+00
1.788291701674461365e+01 1.235532827302813530e+01 2.318133266270166359e+00
1.734727248549461365e+01 1.236851186677813530e+01 2.276812465488916359e+00
1.790464553236961365e+01 1.235789174959063530e+01 2.434740932285791359e+00
1.776743850111961365e+01 1.256516714021563530e+01 2.446200282871728859e+00
6.466587600111961365e+01 3.286936635896563530e+01 7.133059413731103859e+00
6.380979689955711365e+01 3.331589956209063530e+01 7.121981532871728859e+00
6.328587111830711365e+01 3.390379018709063530e+01 7.147128017246728859e+00
1.812461623549461365e+01 1.283250112459063530e+01 2.033297450840478859e+00
1.690281447768211365e+01 1.251072378084063530e+01 1.920153529942041359e+00
1.690147170424461365e+01 1.278257436677813530e+01 1.947649867832666359e+00
6.450828322768211365e+01 3.194541616365313530e+01 7.379977138340478859e+00
6.464780959486961365e+01 3.283628530427813530e+01 7.481951625645166359e+00
6.339024123549461365e+01 3.309824819490313530e+01 7.420931728184228859e+00
6.372019729018211365e+01 3.408469839021563530e+01 7.546145351231103859e+00
1.731236037611961365e+01 1.243064565584063530e+01 2.053362758457666359e+00
1.686240920424461365e+01 1.248289174959063530e+01 2.027239711582666359e+00
1.677830275893211365e+01 1.271201772615313530e+01 2.045657069981103859e+00
6.471738967299461365e+01 3.284238881990313530e+01 7.843356044590478859e+00
6.319053420424461365e+01 3.298191518709063530e+01 7.744631679356103859e+00
1.784641799330711365e+01 1.240232534334063530e+01 2.205111415684228859e+00
1.732407912611961365e+01 1.242844839021563530e+01 2.169070155918603859e+00
1.723447951674461365e+01 1.266001577302813530e+01 2.186831386387353859e+00
1.619712600111961365e+01 1.240830678865313530e+01 2.083224208652978859e+00
6.284165725111961365e+01 3.197813100740313530e+01 7.957491786777978859e+00
6.311887893080711365e+01 3.292454214021563530e+01 8.080965907871728859e+00
1.786619338393211365e+01 1.240366811677813530e+01 2.323534877598291359e+00
1.773692092299461365e+01 1.262034292146563530e+01 2.336657436192041359e+00
1.718662795424461365e+01 1.262839956209063530e+01 2.294955165684228859e+00
1.618967971205711365e+01 1.239707631990313530e+01 2.191805751621728859e+00
1.810777053236961365e+01 1.222971792146563530e+01 2.441973598301416359e+00
1.788816604018211365e+01 1.240574331209063530e+01 2.443087489902978859e+00
1.691575393080711365e+01 1.221506948396563530e+01 2.341784389317041359e+00
1.738816604018211365e+01 1.272056264802813530e+01 2.436190517246728859e+00
1.618211135268211365e+01 1.238572378084063530e+01 2.300356777012353859e+00
1.680466994643211365e+01 1.281858510896563530e+01 2.029208095371728859e+00
1.610398635268211365e+01 1.273472280427813530e+01 1.972430141270166359e+00
1.585508498549461365e+01 1.287583608552813530e+01 1.970477016270166359e+00
6.352988967299461365e+01 3.230833120271563530e+01 7.599093349277978859e+00
6.322569045424461365e+01 3.299766225740313530e+01 7.649371059238916359e+00
1.781992873549461365e+01 1.246384878084063530e+01 2.181948573887353859e+00
1.767674025893211365e+01 1.268003530427813530e+01 2.194231899082666359e+00
1.723264846205711365e+01 1.274546499177813530e+01 2.168749721348291359e+00
1.617747268080711365e+01 1.249229116365313530e+01 2.065234096348291359e+00
1.608775100111961365e+01 1.271873159334063530e+01 2.082507045567041359e+00
1.586204299330711365e+01 1.287217397615313530e+01 2.082186610996728859e+00
6.337498244643211365e+01 3.221458120271563530e+01 7.929201991856103859e+00
6.316380080580711365e+01 3.294468374177813530e+01 7.991198451817041359e+00
1.764475783705711365e+01 1.237327260896563530e+01 2.277727992832666359e+00
1.771091994643211365e+01 1.268833608552813530e+01 2.316607387363916359e+00
1.682334670424461365e+01 1.253489370271563530e+01 2.231768520176416359e+00
1.675364455580711365e+01 1.277708120271563530e+01 2.252367885410791359e+00
1.619431838393211365e+01 1.276658315584063530e+01 2.208773525059228859e+00
1.580186232924461365e+01 1.283262319490313530e+01 2.185610683262353859e+00
1.806260451674461365e+01 1.227683706209063530e+01 2.419924648106103859e+00
1.689951857924461365e+01 1.228892202302813530e+01 2.326769740879541359e+00
1.684434279799461365e+01 1.253733510896563530e+01 2.349444301426416359e+00
1.567783889174461365e+01 1.222373647615313530e+01 2.220431239902978859e+00
1.588572463393211365e+01 1.259861440584063530e+01 2.278292568027978859e+00
1.577695998549461365e+01 1.281187124177813530e+01 2.293337734043603859e+00
1.670860061049461365e+01 1.257566518709063530e+01 2.096682460606103859e+00
1.613621291518211365e+01 1.256834096834063530e+01 2.055254848301416359e+00
1.606541213393211365e+01 1.280930776521563530e+01 2.075869472324853859e+00
1.578916701674461365e+01 1.294175405427813530e+01 2.070345790684228859e+00
1.570994338393211365e+01 1.317857046052813530e+01 2.089922817051416359e+00
1.626145705580711365e+01 1.376743764802813530e+01 2.191775234043603859e+00
1.781431350111961365e+01 1.253123159334063530e+01 2.292467983067041359e+00
1.721970900893211365e+01 1.253464956209063530e+01 2.248141200840478859e+00
1.678574904799461365e+01 1.260557241365313530e+01 2.222597987949853859e+00
1.573887404799461365e+01 1.235923452302813530e+01 2.117175014317041359e+00
1.604905471205711365e+01 1.279295034334063530e+01 2.187563808262353859e+00
1.573045119643211365e+01 1.290281362459063530e+01 2.175570400059228859e+00
1.595969924330711365e+01 1.330698842927813530e+01 2.237292201817041359e+00
1.565134963393211365e+01 1.341917104646563530e+01 2.226290614902978859e+00
1.775449904799461365e+01 1.249461049959063530e+01 2.405733974277978859e+00
1.688645705580711365e+01 1.236594839021563530e+01 2.321993739902978859e+00
1.680723342299461365e+01 1.260801381990313530e+01 2.342516811192041359e+00
1.575034865736961365e+01 1.235728139802813530e+01 2.230944545567041359e+00
1.596226271986961365e+01 1.273997182771563530e+01 2.290133388340478859e+00
1.584702834486961365e+01 1.295701284334063530e+01 2.305041225254541359e+00
1.605015334486961365e+01 1.334849233552813530e+01 2.364489467442041359e+00
1.564683303236961365e+01 1.340891714021563530e+01 2.339816005527978859e+00
1.558164748549461365e+01 1.408298940584063530e+01 2.210101039707666359e+00
1.619077834486961365e+01 1.239536733552813530e+01 2.183642299473291359e+00
1.610508498549461365e+01 1.263303823396563530e+01 2.204058559238916359e+00
1.558018264174461365e+01 1.264390249177813530e+01 2.165972621738916359e+00
1.561716994643211365e+01 1.294395131990313530e+01 2.202456386387353859e+00
1.593113479018211365e+01 1.339768667146563530e+01 2.276644618809228859e+00
1.575901564955711365e+01 1.359190053865313530e+01 2.285815151035791359e+00
1.564158400893211365e+01 1.381687612459063530e+01 2.303103359043603859e+00
1.552512893080711365e+01 1.404172964021563530e+01 2.319811733067041359e+00
1.618284377455711365e+01 1.238279409334063530e+01 2.298907192051416359e+00
1.582163771986961365e+01 1.248130483552813530e+01 2.281466396152978859e+00
1.581248244643211365e+01 1.275596303865313530e+01 2.312273891270166359e+00
1.568064650893211365e+01 1.296921987459063530e+01 2.326495082676416359e+00
1.586204299330711365e+01 1.335166616365313530e+01 2.384493739902978859e+00
1.575327834486961365e+01 1.358030385896563530e+01 2.402270229160791359e+00
1.571763381361961365e+01 1.385203237459063530e+01 2.430682094395166359e+00
1.553794631361961365e+01 1.404087514802813530e+01 2.439013393223291359e+00
1.647215041518211365e+01 1.506345815584063530e+01 2.138583095371728859e+00
1.714451369643211365e+01 1.579221792146563530e+01 2.257769496738916359e+00
1.620579299330711365e+01 1.308347768709063530e+01 2.028872402012353859e+00
1.568760451674461365e+01 1.310117788240313530e+01 1.997149379551416359e+00
1.574912795424461365e+01 1.342442006990313530e+01 2.036883266270166359e+00
1.599009475111961365e+01 1.385361928865313530e+01 2.099779994785791359e+00
1.596433791518211365e+01 1.413926381990313530e+01 2.129778774082666359e+00
1.602647170424461365e+01 1.447910756990313530e+01 2.171389491856103859e+00
1.640891799330711365e+01 1.501658315584063530e+01 2.255297572910791359e+00
1.660923537611961365e+01 1.545567006990313530e+01 2.317385585606103859e+00
1.580784377455711365e+01 1.286802358552813530e+01 2.097903163731103859e+00
1.571690139174461365e+01 1.310776967927813530e+01 2.118853481113916359e+00
1.626878127455711365e+01 1.369822378084063530e+01 2.223025234043603859e+00
1.589756545424461365e+01 1.379295034334063530e+01 2.208590419590478859e+00
1.549937209486961365e+01 1.386509389802813530e+01 2.189745815098291359e+00
1.708237990736961365e+01 1.508640737459063530e+01 2.435183437168603859e+00
1.655344924330711365e+01 1.509373159334063530e+01 2.400149257481103859e+00
1.714927443861961365e+01 1.577634878084063530e+01 2.517748744785791359e+00
1.578172072768211365e+01 1.284556264802813530e+01 2.212405116856103859e+00
1.801707229018211365e+01 1.431980581209063530e+01 2.543154628574853859e+00
1.617515334486961365e+01 1.363816518709063530e+01 2.331515224277978859e+00
1.573655471205711365e+01 1.369443960115313530e+01 2.306506069004541359e+00
1.558970412611961365e+01 1.390781850740313530e+01 2.320589931309228859e+00
1.538096389174461365e+01 1.408469839021563530e+01 2.326006801426416359e+00
1.651646193861961365e+01 1.506248159334063530e+01 2.521090419590478859e+00
1.715171584486961365e+01 1.576841421052813530e+01 2.648196132481103859e+00
1.598570021986961365e+01 1.294224233552813530e+01 2.358202846348291359e+00
1.557896193861961365e+01 1.301682729646563530e+01 2.335482509434228859e+00
1.563084182143211365e+01 1.333335561677813530e+01 2.376681239902978859e+00
1.582883986830711365e+01 1.373692006990313530e+01 2.439227016270166359e+00
1.560911330580711365e+01 1.391001577302813530e+01 2.442934902012353859e+00
1.531590041518211365e+01 1.403794546052813530e+01 2.435748012363916359e+00
1.772324904799461365e+01 1.577305288240313530e+01 2.822695644199853859e+00
1.712058791518211365e+01 1.587461538240313530e+01 2.353182704746728859e+00
1.704307326674461365e+01 1.616404409334063530e+01 2.380389125645166359e+00
1.139951857924461365e+01 1.290452260896563530e+01 1.671801479160791359e+00
1.567136916518211365e+01 1.345237417146563530e+01 2.117739589512353859e+00
1.615379104018211365e+01 1.401902456209063530e+01 2.213488490879541359e+00
1.566465529799461365e+01 1.404893178865313530e+01 2.184679897129541359e+00
1.598801955580711365e+01 1.454380483552813530e+01 2.261858852207666359e+00
1.691062697768211365e+01 1.540708608552813530e+01 2.420077235996728859e+00
1.712278518080711365e+01 1.586631460115313530e+01 2.485918910801416359e+00
1.704527053236961365e+01 1.615586538240313530e+01 2.513506801426416359e+00
1.141612014174461365e+01 1.290781850740313530e+01 1.776171596348291359e+00
1.566514357924461365e+01 1.343980092927813530e+01 2.237841518223291359e+00
1.567014846205711365e+01 1.374094839021563530e+01 2.272936733067041359e+00
1.568333205580711365e+01 1.405051870271563530e+01 2.308901698887353859e+00
1.711558303236961365e+01 1.519089956209063530e+01 2.540392787754541359e+00
1.641917189955711365e+01 1.510483999177813530e+01 2.481860072910791359e+00
1.712510451674461365e+01 1.585801381990313530e+01 2.618014247715478859e+00
1.704746779799461365e+01 1.614768667146563530e+01 2.646700771152978859e+00
1.143284377455711365e+01 1.291111440584063530e+01 1.881319911777978859e+00
1.565891799330711365e+01 1.342734975740313530e+01 2.357928188145166359e+00
1.576353225111961365e+01 1.378379506990313530e+01 2.406969936192041359e+00
1.571983107924461365e+01 1.406211538240313530e+01 2.436526210606103859e+00
1.673862990736961365e+01 1.496201772615313530e+01 2.617663295567041359e+00
1.756419143080711365e+01 1.577695913240313530e+01 2.774569423496728859e+00
1.712730178236961365e+01 1.584971303865313530e+01 2.750887782871728859e+00
1.144968947768211365e+01 1.291441030427813530e+01 1.986712367832666359e+00
9.989606469869613647e+00 1.262766714021563530e+01 1.431872279942041359e+00
1.561997756361961365e+01 1.410496206209063530e+01 2.032046230137353859e+00
1.671580275893211365e+01 1.505259389802813530e+01 2.202349574863916359e+00
1.673887404799461365e+01 1.539536733552813530e+01 2.241915614902978859e+00
1.710056838393211365e+01 1.594993276521563530e+01 2.325289638340478859e+00
1.702183303236961365e+01 1.624363393709063530e+01 2.353304775059228859e+00
1.115464553236961365e+01 1.285618276521563530e+01 1.625765712559228859e+00
1.056443557143211365e+01 1.274046010896563530e+01 1.577624233067041359e+00
1.000486525893211365e+01 1.263059682771563530e+01 1.532534511387353859e+00
1.711985549330711365e+01 1.494712514802813530e+01 2.348208339512353859e+00
1.739121779799461365e+01 1.543516225740313530e+01 2.421053798496728859e+00
1.719224318861961365e+01 1.565501089021563530e+01 2.433413417637353859e+00
1.710276564955711365e+01 1.594138784334063530e+01 2.460345180332666359e+00
1.702415236830711365e+01 1.623508901521563530e+01 2.488772304356103859e+00
1.117197951674461365e+01 1.285960073396563530e+01 1.731936366856103859e+00
1.058067092299461365e+01 1.274363393709063530e+01 1.681078822910791359e+00
1.002012404799461365e+01 1.263364858552813530e+01 1.632876308262353859e+00
1.556162795424461365e+01 1.405308217927813530e+01 2.272402675449853859e+00
1.671751174330711365e+01 1.503391714021563530e+01 2.464678676426416359e+00
1.717002639174461365e+01 1.563181753084063530e+01 2.564120204746728859e+00
1.710508498549461365e+01 1.593284292146563530e+01 2.594759853184228859e+00
1.702634963393211365e+01 1.622654409334063530e+01 2.623614223301416359e+00
1.118931350111961365e+01 1.286301870271563530e+01 1.837771327793603859e+00
1.059690627455711365e+01 1.274680776521563530e+01 1.784762294590478859e+00
1.003538283705711365e+01 1.263657827302813530e+01 1.733981044590478859e+00
1.551658400893211365e+01 1.401804799959063530e+01 2.390307338535791359e+00
1.666563186049461365e+01 1.499387807771563530e+01 2.587817104160791359e+00
1.723618850111961365e+01 1.566099233552813530e+01 2.707903774082666359e+00
1.710740432143211365e+01 1.592417592927813530e+01 2.729967983067041359e+00
1.703172072768211365e+01 1.621983022615313530e+01 2.759676845371728859e+00
1.120676955580711365e+01 1.286643667146563530e+01 1.944415004551416359e+00
1.061314162611961365e+01 1.274998159334063530e+01 1.888110072910791359e+00
1.005076369643211365e+01 1.263963003084063530e+01 1.835284145176416359e+00
1.708555373549461365e+01 1.600608510896563530e+01 2.281145961582666359e+00
1.159654006361961365e+01 1.294785756990313530e+01 1.625277431309228859e+00
1.095261916518211365e+01 1.281638784334063530e+01 1.574007900059228859e+00
1.035447463393211365e+01 1.269895620271563530e+01 1.526904018223291359e+00
9.785382837057113647e+00 1.258738393709063530e+01 1.482104213535791359e+00
9.241437524557113647e+00 1.248057241365313530e+01 1.439288051426416359e+00
8.734113305807113647e+00 1.238584585115313530e+01 1.400393398106103859e+00
1.676475295424461365e+01 1.546177358552813530e+01 2.337099941074853859e+00
1.708799514174461365e+01 1.599705190584063530e+01 2.418459804356103859e+00
1.161790236830711365e+01 1.295286245271563530e+01 1.736086757481103859e+00
1.097092971205711365e+01 1.281992788240313530e+01 1.681612880527978859e+00
1.037168654799461365e+01 1.270237417146563530e+01 1.631792934238916359e+00
9.801496118307113647e+00 1.259055776521563530e+01 1.584383876621728859e+00
9.256574243307113647e+00 1.248362417146563530e+01 1.539080531895166359e+00
8.747418969869613647e+00 1.238792104646563530e+01 1.497240932285791359e+00
1.717466506361961365e+01 1.569407339021563530e+01 2.526598842442041359e+00
1.709043654799461365e+01 1.598789663240313530e+01 2.555849941074853859e+00
1.163926467299461365e+01 1.295786733552813530e+01 1.846590907871728859e+00
1.098911818861961365e+01 1.282346792146563530e+01 1.788882167637353859e+00
1.038877639174461365e+01 1.270579214021563530e+01 1.736330898106103859e+00
9.817609399557113647e+00 1.259373159334063530e+01 1.686343105137353859e+00
9.271955102682113647e+00 1.248655385896563530e+01 1.639086635410791359e+00
8.760846704244613647e+00 1.239011831209063530e+01 1.594790370762353859e+00
1.717747268080711365e+01 1.568516225740313530e+01 2.663683803379541359e+00
1.709287795424461365e+01 1.597886342927813530e+01 2.692568691074853859e+00
1.701279982924461365e+01 1.627744741365313530e+01 2.723116786777978859e+00
1.100755080580711365e+01 1.282713003084063530e+01 1.896975429356103859e+00
1.040611037611961365e+01 1.270908803865313530e+01 1.841662319004541359e+00
9.833844751119613647e+00 1.259690542146563530e+01 1.789050014317041359e+00
9.287091821432113647e+00 1.248960561677813530e+01 1.738772304356103859e+00
8.774274438619613647e+00 1.239219350740313530e+01 1.692522914707666359e+00
1.084580764174461365e+01 1.279514760896563530e+01 1.665316493809228859e+00
1.023423537611961365e+01 1.267515249177813530e+01 1.616122157871728859e+00
9.650251001119613647e+00 1.256065053865313530e+01 1.569155605137353859e+00
9.095929712057113647e+00 1.245188589021563530e+01 1.524554164707666359e+00
8.590314477682113647e+00 1.236399526521563530e+01 1.485262782871728859e+00
7.895124047994613647e+00 1.213230581209063530e+01 1.417910487949853859e+00
