1.300241956114768982e+01 2.531820029020309448e+00 7.650929983705339055e-01
1.342368420958518982e+01 2.645345419645309448e+00 8.049489554017839055e-01
1.259616956114768982e+01 2.422322958707809448e+00 7.796041067689714055e-01
1.301133069396018982e+01 2.527547568082809448e+00 8.206349905580339055e-01
1.346543225646018982e+01 2.640584677457809448e+00 8.653585013002214055e-01
1.508237561583518982e+01 3.377523154020309448e+00 2.070943411439714055e-01
1.530417737364768982e+01 3.528035849332809448e+00 2.223683889955339055e-01
1.552158460021018982e+01 3.683065146207809448e+00 2.375203665345964055e-01
1.574668225646018982e+01 3.843709677457809448e+00 2.532064016908464055e-01
1.597837170958518982e+01 4.008992880582809448e+00 2.693502005189714055e-01
1.616990002989768982e+01 4.175618857145309448e+00 2.847615774720964055e-01
1.632920178771018982e+01 4.343465536832809448e+00 2.996083792299089055e-01
1.669333752989768982e+01 4.537069052457809448e+00 3.200398977845964055e-01
1.599240979552268982e+01 3.410115927457809448e+00 2.968923147767839055e-01
1.650510510802268982e+01 3.584432333707809448e+00 3.218556936830339055e-01
1.705515393614768982e+01 3.771566122770309448e+00 3.490315970033464055e-01
1.914487561583518982e+01 4.259847372770309448e+00 4.354116018861589055e-01
1.906980237364768982e+01 4.433919638395309448e+00 4.455739554017839055e-01
1.931223401427268982e+01 4.639363974332809448e+00 4.654408987611589055e-01
1.988730725646018982e+01 4.886190146207809448e+00 4.969808157533464055e-01
1.597641858458518982e+01 3.404622763395309448e+00 3.649465139955339055e-01
1.648825940489768982e+01 3.578695029020309448e+00 3.922902639955339055e-01
1.703733167052268982e+01 3.765462607145309448e+00 4.216023977845964055e-01
1.914560803771018982e+01 4.254354208707809448e+00 5.183278616517839055e-01
1.906821545958518982e+01 4.428304404020309448e+00 5.281240042299089055e-01
1.929538831114768982e+01 4.632161825895309448e+00 5.490743216127214055e-01
1.986948499083518982e+01 4.878621786832809448e+00 5.832997854799089055e-01
1.596067151427268982e+01 3.399251669645309448e+00 4.325429495424089055e-01
1.647141370177268982e+01 3.572957724332809448e+00 4.626027639955339055e-01
1.701938733458518982e+01 3.759359091520309448e+00 4.944631155580339055e-01
1.914634045958518982e+01 4.248861044645309448e+00 6.017476614564714055e-01
1.906662854552268982e+01 4.422689169645309448e+00 6.111623343080339055e-01
1.927854260802268982e+01 4.624959677457809448e+00 6.326009329408464055e-01
1.985190686583518982e+01 4.871053427457809448e+00 6.690389212220964055e-01
1.594468030333518982e+01 3.393880575895309448e+00 5.003987845033464055e-01
1.645456799864768982e+01 3.567342489957809448e+00 5.324269827455339055e-01
1.700156506896018982e+01 3.753377646207809448e+00 5.668050345033464055e-01
1.914719495177268982e+01 4.243367880582809448e+00 6.847859915345964055e-01
1.906504163146018982e+01 4.417073935270309448e+00 6.938039358705339055e-01
1.926181897521018982e+01 4.617757529020309448e+00 7.155782278627214055e-01
1.983420667052268982e+01 4.863485068082809448e+00 7.551290091127214055e-01
1.592893323302268982e+01 3.388509482145309448e+00 5.677815970033464055e-01
1.643772229552268982e+01 3.561605185270309448e+00 6.025258596986589055e-01
1.698362073302268982e+01 3.747274130582809448e+00 6.394063528627214055e-01
1.914792737364768982e+01 4.237874716520309448e+00 7.683278616517839055e-01
1.906357678771018982e+01 4.411336630582809448e+00 7.769033011049089055e-01
1.924509534239768982e+01 4.610555380582809448e+00 7.988912161439714055e-01
1.981650647521018982e+01 4.855916708707809448e+00 8.406392630189714055e-01
1.591306409239768982e+01 3.383138388395309448e+00 6.354085501283464055e-01
1.642099866271018982e+01 3.555867880582809448e+00 6.721364554017839055e-01
1.696592053771018982e+01 3.741170614957809448e+00 7.115193899720964055e-01
1.914878186583518982e+01 4.232381552457809448e+00 8.514730032533464055e-01
1.906198987364768982e+01 4.405721396207809448e+00 8.596059378236589055e-01
1.922837170958518982e+01 4.603475302457809448e+00 8.816548880189714055e-01
1.979892835021018982e+01 4.848348349332809448e+00 9.265157278627214055e-01
1.589743909239768982e+01 3.377767294645309448e+00 7.025929983705339055e-01
1.640439710021018982e+01 3.550252646207809448e+00 7.416249807924089055e-01
1.694809827208518982e+01 3.735189169645309448e+00 7.838918264955339055e-01
1.914951428771018982e+01 4.226766318082809448e+00 9.351216848939714055e-01
1.906040295958518982e+01 4.400106161832809448e+00 9.427815970033464055e-01
1.921177014708518982e+01 4.596273154020309448e+00 9.643270071595964055e-01
1.978135022521018982e+01 4.840779989957809448e+00 1.011812358722096405e+00
1.588156995177268982e+01 3.372396200895309448e+00 7.700215872377214055e-01
1.638767346739768982e+01 3.544515341520309448e+00 8.113881643861589055e-01
1.693027600646018982e+01 3.729207724332809448e+00 8.557607229799089055e-01
1.905881604552268982e+01 4.394490927457809448e+00 1.025560527667408905e+00
1.919504651427268982e+01 4.589193075895309448e+00 1.047334819659596405e+00
1.976365002989768982e+01 4.833211630582809448e+00 1.097459941729908905e+00
1.586594495177268982e+01 3.367147177457809448e+00 8.369924124330339055e-01
1.637094983458518982e+01 3.538900107145309448e+00 8.806630667299089055e-01
1.691269788146018982e+01 3.723104208707809448e+00 9.275075491517839055e-01
1.905735120177268982e+01 4.388875693082809448e+00 1.108354717120533905e+00
1.917832288146018982e+01 4.581990927457809448e+00 1.129793315753346405e+00
1.978135022521018982e+01 4.829549521207809448e+00 1.184984355792408905e+00
1.585019788146018982e+01 3.361776083707809448e+00 9.042073782533464055e-01
1.635434827208518982e+01 3.533284872770309448e+00 9.501973684877214055e-01
1.689487561583518982e+01 3.717122763395309448e+00 9.995137747377214055e-01
1.585190686583518982e+01 3.357137411832809448e+00 9.722615774720964055e-01
1.639426526427268982e+01 3.530355185270309448e+00 1.023485332354908905e+00
1.669431409239768982e+01 4.537801474332809448e+00 3.201009329408464055e-01
1.715171155333518982e+01 4.750325888395309448e+00 3.440419729799089055e-01
1.757285413146018982e+01 4.967855185270309448e+00 3.671590384095964055e-01
1.795639905333518982e+01 5.189779013395309448e+00 3.897725638002214055e-01
1.835801038146018982e+01 5.421956747770309448e+00 4.134542044252214055e-01
1.877060803771018982e+01 5.664754599332809448e+00 4.380513723939714055e-01
1.962839612364768982e+01 5.993612021207809448e+00 4.776326712220964055e-01
2.007822522521018982e+01 6.265584677457809448e+00 5.044576223939714055e-01
1.989145764708518982e+01 4.887410849332809448e+00 4.971639212220964055e-01
2.228806409239768982e+01 5.796102255582809448e+00 6.190816458314714055e-01
2.229636487364768982e+01 6.012777060270309448e+00 6.337148245424089055e-01
2.286496838927268982e+01 6.320638388395309448e+00 6.686574514955339055e-01
2.346872815489768982e+01 6.647786825895309448e+00 7.052327688783464055e-01
4.102744397521018982e+01 1.007210323214530945e+01 1.379625469073658905e+00
1.987363538146018982e+01 4.879720419645309448e+00 5.834981497377214055e-01
2.228720960021018982e+01 5.789754599332809448e+00 7.170583304017839055e-01
2.228073987364768982e+01 6.004232138395309448e+00 7.312642630189714055e-01
2.284861096739768982e+01 6.311849325895309448e+00 7.689687307924089055e-01
2.345151624083518982e+01 6.638387411832809448e+00 8.089925345033464055e-01
4.168894299864768982e+01 1.018098995089530945e+01 1.594225078448658905e+00
1.985605725646018982e+01 4.872152060270309448e+00 6.692525442689714055e-01
2.228647717833518982e+01 5.783406943082809448e+00 8.155995901674089055e-01
2.226499280333518982e+01 5.995687216520309448e+00 8.292562063783464055e-01
2.283213147521018982e+01 6.302938193082809448e+00 8.697072561830339055e-01
2.343430432677268982e+01 6.629110068082809448e+00 9.126607473939714055e-01
4.180759534239768982e+01 1.019112178683280945e+01 1.788667827472096405e+00
1.983823499083518982e+01 4.864583700895309448e+00 7.553578909486589055e-01
2.228562268614768982e+01 5.777181357145309448e+00 9.136525686830339055e-01
2.224936780333518982e+01 5.987264364957809448e+00 9.266377981752214055e-01
2.281577405333518982e+01 6.294027060270309448e+00 9.698201712220964055e-01
2.341721448302268982e+01 6.619832724332809448e+00 1.015688091143971405e+00
1.982065686583518982e+01 4.857015341520309448e+00 8.408986624330339055e-01
2.228476819396018982e+01 5.770833700895309448e+00 1.012300639972096405e+00
2.223362073302268982e+01 5.978719443082809448e+00 1.024461894854908905e+00
2.279941663146018982e+01 6.285115927457809448e+00 1.070390849933033905e+00
2.340012463927268982e+01 6.610555380582809448e+00 1.119157939776783905e+00
1.980295667052268982e+01 4.849446982145309448e+00 9.267903860658464055e-01
2.228391370177268982e+01 5.764486044645309448e+00 1.110475688800221405e+00
2.222263440489768982e+01 5.970906943082809448e+00 1.121935039386158905e+00
2.278305920958518982e+01 6.276326864957809448e+00 1.170320659503346405e+00
2.338303479552268982e+01 6.601278036832809448e+00 1.221986919268971405e+00
1.978537854552268982e+01 4.841878622770309448e+00 1.012102275714283905e+00
2.228305920958518982e+01 5.758138388395309448e+00 1.209215312823658905e+00
2.221482190489768982e+01 5.963704794645309448e+00 1.220110088214283905e+00
2.276670178771018982e+01 6.267415732145309448e+00 1.270708232745533905e+00
2.336814221739768982e+01 6.592366904020309448e+00 1.324861675128346405e+00
1.976780042052268982e+01 4.834310263395309448e+00 1.097765117511158905e+00
2.230271252989768982e+01 5.754720419645309448e+00 1.308855205401783905e+00
1.978562268614768982e+01 4.830648154020309448e+00 1.185335307940846405e+00
2.008457288146018982e+01 6.267415732145309448e+00 5.047170218080339055e-01
2.090891370177268982e+01 6.621663779020309448e+00 5.451222952455339055e-01
2.201120862364768982e+01 7.050130575895309448e+00 5.956746634095964055e-01
2.263816174864768982e+01 7.401693075895309448e+00 6.312123831361589055e-01
2.630332288146018982e+01 8.446248739957809448e+00 7.754384573549089055e-01
5.445798596739768982e+01 1.530330440402030945e+01 1.809984355792408905e+00
5.413779553771018982e+01 1.578780147433280945e+01 1.833559184893971405e+00
2.808579358458518982e+01 9.697713583707809448e+00 8.915883596986589055e-01
4.103122815489768982e+01 1.007417842745780945e+01 1.379854350909596405e+00
2.537082776427268982e+01 7.474080771207809448e+00 8.078939016908464055e-01
2.523435315489768982e+01 7.697347372770309448e+00 8.192006643861589055e-01
2.572763928771018982e+01 8.053914755582809448e+00 8.547689016908464055e-01
2.628843030333518982e+01 8.436116904020309448e+00 8.937093313783464055e-01
5.532737073302268982e+01 1.549226924777030945e+01 2.097612529620533905e+00
5.480686292052268982e+01 1.593733760714530945e+01 2.111162334308033905e+00
2.808725842833518982e+01 9.690999716520309448e+00 1.019777446612721405e+00
4.168601331114768982e+01 1.018196651339530945e+01 1.594194560870533905e+00
2.537168225646018982e+01 7.467366904020309448e+00 9.217092093080339055e-01
2.523240002989768982e+01 7.690267294645309448e+00 9.319173391908464055e-01
2.571335706114768982e+01 8.044149130582809448e+00 9.694844778627214055e-01
2.627353772521018982e+01 8.425985068082809448e+00 1.011278301104908905e+00
5.649680432677268982e+01 1.575081416964530945e+01 2.405901103839283905e+00
5.589707288146018982e+01 1.618916866183280945e+01 2.416048198565846405e+00
2.808872327208518982e+01 9.684163779020309448e+00 1.148058086261158905e+00
4.180429944396018982e+01 1.019197627902030945e+01 1.788606792315846405e+00
2.537510022521018982e+01 7.461263388395309448e+00 1.035722881183033905e+00
2.523056897521018982e+01 7.683187216520309448e+00 1.045274883136158905e+00
2.569883069396018982e+01 8.034261435270309448e+00 1.084749370440846405e+00
2.625852307677268982e+01 8.415731161832809448e+00 1.129411846026783905e+00
2.809018811583518982e+01 9.677449911832809448e+00 1.275758891925221405e+00
2.537851819396018982e+01 7.455159872770309448e+00 1.149233013018971405e+00
2.522873792052268982e+01 7.676107138395309448e+00 1.158083110675221405e+00
2.568454846739768982e+01 8.024495810270309448e+00 1.199327617511158905e+00
2.624363049864768982e+01 8.405599325895309448e+00 1.246843486651783905e+00
2.809165295958518982e+01 9.670613974332809448e+00 1.404222637042408905e+00
2.538181409239768982e+01 7.448934286832809448e+00 1.263445049151783905e+00
2.522690686583518982e+01 7.669027060270309448e+00 1.271547466143971405e+00
2.567002210021018982e+01 8.014608114957809448e+00 1.314470439776783905e+00
2.622873792052268982e+01 8.395345419645309448e+00 1.364839702472096405e+00
2.810691174864768982e+01 9.667440146207809448e+00 1.532945781573658905e+00
2.538523206114768982e+01 7.442830771207809448e+00 1.377153545245533905e+00
2.522495374083518982e+01 7.661946982145309448e+00 1.384462505206471405e+00
2.567087659239768982e+01 8.008016318082809448e+00 1.429872661456471405e+00
2.808469495177268982e+01 9.698446005582809448e+00 8.916036184877214055e-01
2.842173108458518982e+01 1.007466670870780945e+01 9.223043020814714055e-01
2.893662366271018982e+01 1.050899288058280945e+01 9.597341116517839055e-01
5.292453870177268982e+01 1.770259639620780945e+01 1.922899394854908905e+00
5.256906995177268982e+01 1.815657588839530945e+01 1.942186504229908905e+00
3.073642835021018982e+01 1.196895381808280945e+01 1.087083965167408905e+00
3.093613538146018982e+01 1.235811397433280945e+01 1.114809184893971405e+00
3.142331799864768982e+01 1.284773799777030945e+01 1.154146343097096405e+00
2.808615979552268982e+01 9.691610068082809448e+00 1.019792705401783905e+00
2.840940198302268982e+01 1.006429073214530945e+01 1.051180034503346405e+00
2.892380627989768982e+01 1.049825069308280945e+01 1.092119365558033905e+00
5.365281018614768982e+01 1.789827510714530945e+01 2.203233867511158905e+00
5.345749768614768982e+01 1.840816280245780945e+01 2.229204326495533905e+00
3.073886975646018982e+01 1.196223995089530945e+01 1.229997783526783905e+00
3.092527112364768982e+01 1.234724971652030945e+01 1.257738262042408905e+00
3.141220960021018982e+01 1.283650752902030945e+01 1.300615459308033905e+00
2.808750256896018982e+01 9.684896200895309448e+00 1.148073345050221405e+00
2.839695081114768982e+01 1.005379268527030945e+01 1.180711894854908905e+00
2.891111096739768982e+01 1.048750850558280945e+01 1.223772197589283905e+00
5.454087170958518982e+01 1.813960811495780945e+01 2.497148662433033905e+00
5.436057385802268982e+01 1.866365596652030945e+01 2.524278789386158905e+00
3.074131116271018982e+01 1.195552608370780945e+01 1.372270732745533905e+00
3.091440686583518982e+01 1.233638545870780945e+01 1.401430278643971405e+00
3.140110120177268982e+01 1.282539913058280945e+01 1.447069316729908905e+00
2.808896741271018982e+01 9.678182333707809448e+00 1.275758891925221405e+00
2.838449963927268982e+01 1.004341670870780945e+01 1.310213237628346405e+00
2.889829358458518982e+01 1.047676631808280945e+01 1.356081157550221405e+00
5.585056409239768982e+01 1.850130245089530945e+01 2.823732524737721405e+00
5.581809338927268982e+01 1.908357784152030945e+01 2.859712749347096405e+00
3.074363049864768982e+01 1.194881221652030945e+01 1.515398174151783905e+00
3.090354260802268982e+01 1.232539913058280945e+01 1.545091777667408905e+00
3.138999280333518982e+01 1.281429073214530945e+01 1.592729717120533905e+00
2.809043225646018982e+01 9.671346396207809448e+00 1.404222637042408905e+00
2.837217053771018982e+01 1.003291866183280945e+01 1.438982158526783905e+00
2.888559827208518982e+01 1.046614620089530945e+01 1.487642436847096405e+00
5.925559338927268982e+01 2.136238643527030945e+01 3.407854228839283905e+00
5.892478284239768982e+01 2.189339229464530945e+01 3.429216533526783905e+00
2.810581311583518982e+01 9.668172568082809448e+00 1.532945781573658905e+00
3.080783948302268982e+01 1.192378780245780945e+01 2.377702861651783905e+00
3.047544202208518982e+01 1.149422237277030945e+01 2.468767314776783905e+00
3.082517346739768982e+01 1.192146846652030945e+01 2.523195415362721405e+00
3.047483167052268982e+01 1.148653194308280945e+01 2.609956889972096405e+00
3.084238538146018982e+01 1.191927120089530945e+01 2.668153911456471405e+00
3.047422131896018982e+01 1.147884151339530945e+01 2.751222759112721405e+00
3.085971936583518982e+01 1.191707393527030945e+01 2.813387065753346405e+00
3.047361096739768982e+01 1.147115108370780945e+01 2.893327861651783905e+00
2.897422131896018982e+01 1.054048702120780945e+01 1.501833110675221405e+00
3.045420178771018982e+01 1.122017452120780945e+01 2.342760234698658905e+00
3.048044690489768982e+01 1.155660030245780945e+01 2.373567729815846405e+00
3.045334729552268982e+01 1.120967647433280945e+01 2.488924175128346405e+00
3.047959241271018982e+01 1.154610225558280945e+01 2.520342021808033905e+00
3.045249280333518982e+01 1.119917842745780945e+01 2.634401470050221405e+00
3.047885999083518982e+01 1.153572627902030945e+01 2.666399150714283905e+00
3.071347913146018982e+01 1.193929073214530945e+01 2.718568950518971405e+00
3.045163831114768982e+01 1.118880245089530945e+01 2.780733257159596405e+00
3.047800549864768982e+01 1.152535030245780945e+01 2.812547832354908905e+00
3.072837170958518982e+01 1.193355342745780945e+01 2.867876201495533905e+00
5.145578870177268982e+01 2.433577510714530945e+01 3.112428813800221405e+00
5.048545178771018982e+01 2.456709834933280945e+01 3.101152568683033905e+00
5.120273694396018982e+01 2.550667354464530945e+01 3.201906352862721405e+00
5.806723889708518982e+01 2.352461788058280945e+01 3.551622539386158905e+00
5.831125745177268982e+01 2.429878780245780945e+01 3.627702861651783905e+00
5.952060803771018982e+01 2.544429561495780945e+01 3.768236308917408905e+00
5.224277600646018982e+01 2.336153194308280945e+01 3.331056743487721405e+00
5.130307874083518982e+01 2.362483760714530945e+01 3.319811015948658905e+00
5.134885510802268982e+01 2.427327510714530945e+01 3.376512676104908905e+00
5.041562756896018982e+01 2.451936885714530945e+01 3.364030986651783905e+00
7.052927502989768982e+01 3.381868526339530945e+01 4.871202617511158905e+00
6.853855237364768982e+01 2.797408077120780945e+01 4.657076030597096405e+00
5.929941663146018982e+01 2.533980342745780945e+01 4.058794170245533905e+00
6.018430432677268982e+01 2.639327022433280945e+01 4.185487895831471405e+00
5.158860120177268982e+01 2.371895381808280945e+01 3.609514385089283905e+00
5.144333752989768982e+01 2.429292842745780945e+01 3.653413921222096405e+00
5.154673108458518982e+01 2.497481319308280945e+01 3.716615825518971405e+00
3.413266858458518982e+01 1.509285518527030945e+01 2.528459697589283905e+00
3.408127698302268982e+01 1.549226924777030945e+01 2.561922222003346405e+00
3.562363538146018982e+01 1.782332393527030945e+01 2.846849590167408905e+00
3.413425549864768982e+01 1.508015987277030945e+01 2.709810405597096405e+00
3.408286389708518982e+01 1.547969600558280945e+01 2.743730693683033905e+00
3.565903577208518982e+01 1.782430049777030945e+01 3.042284160479908905e+00
3.413596448302268982e+01 1.506746456027030945e+01 2.892229228839283905e+00
3.408445081114768982e+01 1.546700069308280945e+01 2.926622539386158905e+00
3.535703381896018982e+01 1.723250362277030945e+01 1.595659404620533905e+00
3.549826917052268982e+01 1.774019405245780945e+01 1.639314800128346405e+00
3.590647229552268982e+01 1.836397334933280945e+01 1.698305278643971405e+00
5.085154065489768982e+01 2.519930049777030945e+01 2.582597881183033905e+00
5.296408948302268982e+01 2.677071163058280945e+01 2.755815654620533905e+00
5.255869397521018982e+01 2.726216670870780945e+01 2.784258037433033905e+00
5.257920178771018982e+01 2.267574092745780945e+01 2.696397930011158905e+00
5.152109631896018982e+01 2.291109248995780945e+01 2.687013774737721405e+00
5.086252698302268982e+01 2.328377315402030945e+01 2.699602275714283905e+00
5.030710706114768982e+01 2.369014522433280945e+01 2.717714458331471405e+00
5.041794690489768982e+01 2.436275264620780945e+01 2.775484233722096405e+00
5.014365491271018982e+01 2.487886592745780945e+01 2.810121684893971405e+00
5.480906018614768982e+01 2.755904170870780945e+01 3.154283672198658905e+00
5.487326917052268982e+01 2.828389522433280945e+01 3.215044170245533905e+00
5.578110608458518982e+01 2.383431026339530945e+01 3.168657451495533905e+00
5.216098889708518982e+01 2.313435909152030945e+01 2.998811870440846405e+00
5.095041760802268982e+01 2.329903194308280945e+01 2.974657207354908905e+00
5.120566663146018982e+01 2.403279659152030945e+01 3.043703227862721405e+00
5.030930432677268982e+01 2.429890987277030945e+01 3.037813335284596405e+00
5.618174085021018982e+01 2.743062373995780945e+01 3.481996684893971405e+00
5.635630139708518982e+01 2.821577998995780945e+01 3.552797466143971405e+00
5.833506116271018982e+01 2.475227901339530945e+01 3.630678325518971405e+00
5.218003186583518982e+01 2.312202998995780945e+01 3.273500591143971405e+00
5.188254651427268982e+01 2.364388057589530945e+01 3.307283550128346405e+00
3.590415295958518982e+01 1.786238643527030945e+01 2.248415141925221405e+00
5.093503674864768982e+01 2.453890010714530945e+01 3.349672466143971405e+00
7.031821545958518982e+01 3.342268916964530945e+01 4.793077617511158905e+00
6.994663342833518982e+01 3.413667842745780945e+01 4.840562969073658905e+00
3.775754651427268982e+01 2.055696651339530945e+01 2.543230205401783905e+00
6.038901624083518982e+01 2.548482295870780945e+01 4.080400615558033905e+00
5.966111096739768982e+01 2.593514034152030945e+01 4.090486675128346405e+00
5.170456799864768982e+01 2.355476924777030945e+01 3.568926006183033905e+00
3.589731702208518982e+01 1.784566280245780945e+01 2.444414287433033905e+00
5.157016858458518982e+01 2.478230831027030945e+01 3.670046001300221405e+00
3.776633557677268982e+01 2.054671260714530945e+01 2.751985698565846405e+00
6.022495374083518982e+01 2.612605831027030945e+01 4.446336894854908905e+00
3.589853772521018982e+01 1.783235713839530945e+01 2.640031963214283905e+00
3.777512463927268982e+01 2.053645870089530945e+01 2.962068706378346405e+00
3.590561780333518982e+01 1.782149288058280945e+01 2.836259990558033905e+00
6.422031506896018982e+01 3.151607295870780945e+01 6.128008037433033905e+00
6.430844983458518982e+01 3.236421748995780945e+01 6.212602763995533905e+00
6.410556897521018982e+01 3.144246456027030945e+01 6.458543926104908905e+00
6.483139905333518982e+01 3.257442256808280945e+01 6.611177593097096405e+00
6.374753674864768982e+01 3.206673213839530945e+01 6.838228374347096405e+00
6.435251721739768982e+01 3.150288936495780945e+01 7.166780620440846405e+00
6.500656995177268982e+01 3.260542842745780945e+01 7.323579936847096405e+00
6.584848889708518982e+01 3.295735713839530945e+01 7.770311504229908905e+00
6.485801038146018982e+01 3.249178096652030945e+01 8.000032573565846405e+00
5.729685315489768982e+01 2.997237178683280945e+01 3.684343486651783905e+00
6.072763928771018982e+01 3.232661983370780945e+01 3.985887676104908905e+00
5.100827893614768982e+01 2.318855831027030945e+01 3.199999004229908905e+00
3.592185315489768982e+01 1.781441280245780945e+01 2.211855083331471405e+00
5.076401624083518982e+01 2.436055538058280945e+01 3.291856914386158905e+00
6.974228772521018982e+01 3.300386592745780945e+01 4.694536357745533905e+00
7.003281506896018982e+01 3.400032588839530945e+01 4.789049297198658905e+00
3.778427991271018982e+01 2.052547237277030945e+01 2.508012920245533905e+00
5.948105725646018982e+01 2.644283077120780945e+01 4.091127544268971405e+00
5.090927991271018982e+01 2.376326534152030945e+01 3.519838481768971405e+00
5.149167737364768982e+01 2.463948604464530945e+01 3.618593364581471405e+00
7.041733655333518982e+01 3.414119502902030945e+01 5.189546733722096405e+00
3.779319104552268982e+01 2.051509639620780945e+01 2.719255596026783905e+00
6.696213635802268982e+01 3.434602901339530945e+01 5.070207744464283905e+00
6.029624280333518982e+01 2.673518916964530945e+01 4.467455058917408905e+00
5.094040784239768982e+01 2.375642940402030945e+01 3.794130473956471405e+00
3.780210217833518982e+01 2.050459834933280945e+01 2.930696636065846405e+00
6.691440686583518982e+01 3.429988643527030945e+01 5.425005107745533905e+00
6.420859631896018982e+01 3.389143916964530945e+01 5.270219951495533905e+00
6.355014905333518982e+01 3.355965206027030945e+01 5.559206157550221405e+00
6.683384045958518982e+01 3.336006709933280945e+01 6.058488994464283905e+00
6.618357190489768982e+01 3.391792842745780945e+01 6.075655132159596405e+00
6.612839612364768982e+01 3.474300166964530945e+01 6.148561626300221405e+00
6.463950452208518982e+01 3.236263057589530945e+01 6.200075298175221405e+00
6.628342542052268982e+01 3.393916866183280945e+01 6.442842632159596405e+00
6.274387463927268982e+01 3.313631221652030945e+01 6.167009502276783905e+00
6.392270764708518982e+01 3.202119991183280945e+01 6.474123149737721405e+00
6.320676526427268982e+01 3.251473018527030945e+01 6.477663188800221405e+00
6.392856702208518982e+01 3.366707393527030945e+01 6.631731181964283905e+00
6.434360608458518982e+01 3.136946651339530945e+01 6.783128887042408905e+00
6.381638440489768982e+01 3.195064327120780945e+01 6.805360942706471405e+00
6.411045178771018982e+01 3.290254756808280945e+01 6.917238384112721405e+00
6.370444592833518982e+01 3.353902217745780945e+01 6.954607158526783905e+00
6.401731213927268982e+01 3.201595088839530945e+01 7.172350078448658905e+00
6.328843030333518982e+01 3.250545284152030945e+01 7.170290141925221405e+00
6.311704358458518982e+01 3.324165889620780945e+01 7.231447368487721405e+00
6.485117444396018982e+01 3.236116573214530945e+01 7.614626079425221405e+00
6.250144299864768982e+01 3.212483760714530945e+01 7.417528301104908905e+00
6.318052014708518982e+01 3.324812862277030945e+01 7.582964092120533905e+00
6.499558362364768982e+01 3.240108272433280945e+01 7.982240825518971405e+00
6.316892346739768982e+01 3.240474483370780945e+01 7.840135722979908905e+00
6.381919202208518982e+01 3.184285518527030945e+01 6.655687480792408905e+00
6.410605725646018982e+01 3.279182979464530945e+01 6.766908794268971405e+00
6.267588147521018982e+01 3.295906612277030945e+01 6.693636089190846405e+00
6.407102307677268982e+01 3.444637081027030945e+01 6.927278667315846405e+00
1.804905042052268982e+01 1.282503291964530945e+01 1.916689067706471405e+00
6.403891858458518982e+01 3.191499873995780945e+01 7.026262431964283905e+00
6.332480725646018982e+01 3.241499873995780945e+01 7.028505473956471405e+00
6.347483167052268982e+01 3.330562373995780945e+01 7.127763896808033905e+00
6.388083752989768982e+01 3.433186885714530945e+01 7.257768779620533905e+00
1.747361096739768982e+01 1.253645870089530945e+01 1.966280132159596405e+00
6.421494397521018982e+01 3.196809932589530945e+01 7.392290263995533905e+00
6.329453381896018982e+01 3.237752315402030945e+01 7.368547588214283905e+00
6.306870374083518982e+01 3.309358760714530945e+01 7.425569682940846405e+00
6.369822034239768982e+01 3.422115108370780945e+01 7.585497051104908905e+00
1.705259045958518982e+01 1.232344600558280945e+01 2.029283672198658905e+00
6.250473889708518982e+01 3.199764034152030945e+01 7.617357402667408905e+00
6.291306409239768982e+01 3.299776241183280945e+01 7.752184062823658905e+00
1.759165295958518982e+01 1.230501338839530945e+01 2.180071025714283905e+00
1.706406506896018982e+01 1.232149288058280945e+01 2.141969829425221405e+00
6.449338635802268982e+01 3.286922237277030945e+01 8.210374980792408905e+00
6.289487561583518982e+01 3.296565791964530945e+01 8.093217998370533905e+00
1.761118420958518982e+01 1.230635616183280945e+01 2.296754985675221405e+00
1.707553967833518982e+01 1.231953975558280945e+01 2.255434184893971405e+00
1.763291272521018982e+01 1.230891963839530945e+01 2.413362651690846405e+00
1.749570569396018982e+01 1.251619502902030945e+01 2.424822002276783905e+00
6.439414319396018982e+01 3.282039424777030945e+01 7.111681133136158905e+00
6.353806409239768982e+01 3.326692745089530945e+01 7.100603252276783905e+00
6.301413831114768982e+01 3.385481807589530945e+01 7.125749736651783905e+00
1.785288342833518982e+01 1.278352901339530945e+01 2.011919170245533905e+00
1.663108167052268982e+01 1.246175166964530945e+01 1.898775249347096405e+00
1.662973889708518982e+01 1.273360225558280945e+01 1.926271587237721405e+00
6.423655042052268982e+01 3.189644405245780945e+01 7.358598857745533905e+00
6.437607678771018982e+01 3.278731319308280945e+01 7.460573345050221405e+00
6.311850842833518982e+01 3.304927608370780945e+01 7.399553447589283905e+00
6.344846448302268982e+01 3.403572627902030945e+01 7.524767070636158905e+00
1.704062756896018982e+01 1.238167354464530945e+01 2.031984477862721405e+00
1.659067639708518982e+01 1.243391963839530945e+01 2.005861430987721405e+00
1.650656995177268982e+01 1.266304561495780945e+01 2.024278789386158905e+00
6.444565686583518982e+01 3.279341670870780945e+01 7.821977763995533905e+00
6.291880139708518982e+01 3.293294307589530945e+01 7.723253398761158905e+00
1.757468518614768982e+01 1.235335323214530945e+01 2.183733135089283905e+00
1.705234631896018982e+01 1.237947627902030945e+01 2.147691875323658905e+00
1.696274670958518982e+01 1.261104366183280945e+01 2.165453105792408905e+00
1.592539319396018982e+01 1.235933467745780945e+01 2.061845928058033905e+00
6.256992444396018982e+01 3.192915889620780945e+01 7.936113506183033905e+00
6.284714612364768982e+01 3.287557002902030945e+01 8.059587627276783905e+00
1.759446057677268982e+01 1.235469600558280945e+01 2.302156597003346405e+00
1.746518811583518982e+01 1.257137081027030945e+01 2.315279155597096405e+00
1.691489514708518982e+01 1.257942745089530945e+01 2.273576885089283905e+00
1.591794690489768982e+01 1.234810420870780945e+01 2.170427471026783905e+00
1.783603772521018982e+01 1.218074581027030945e+01 2.420595317706471405e+00
1.761643323302268982e+01 1.235677120089530945e+01 2.421709209308033905e+00
1.664402112364768982e+01 1.216609737277030945e+01 2.320406108722096405e+00
1.711643323302268982e+01 1.267159053683280945e+01 2.414812236651783905e+00
1.591037854552268982e+01 1.233675166964530945e+01 2.278978496417408905e+00
1.653293713927268982e+01 1.276961299777030945e+01 2.007829814776783905e+00
1.583225354552268982e+01 1.268575069308280945e+01 1.951051860675221405e+00
1.558335217833518982e+01 1.282686397433280945e+01 1.949098735675221405e+00
6.325815686583518982e+01 3.225935909152030945e+01 7.577715068683033905e+00
6.295395764708518982e+01 3.294869014620780945e+01 7.627992778643971405e+00
1.754819592833518982e+01 1.241487666964530945e+01 2.160570293292408905e+00
1.740500745177268982e+01 1.263106319308280945e+01 2.172853618487721405e+00
1.696091565489768982e+01 1.269649288058280945e+01 2.147371440753346405e+00
1.590573987364768982e+01 1.244331905245780945e+01 2.043855815753346405e+00
1.581601819396018982e+01 1.266975948214530945e+01 2.061128764972096405e+00
1.559031018614768982e+01 1.282320186495780945e+01 2.060808330401783905e+00
6.310324963927268982e+01 3.216560909152030945e+01 7.907823711261158905e+00
6.289206799864768982e+01 3.289571163058280945e+01 7.969820171222096405e+00
1.737302502989768982e+01 1.232430049777030945e+01 2.256349712237721405e+00
1.743918713927268982e+01 1.263936397433280945e+01 2.295229106768971405e+00
1.655161389708518982e+01 1.248592159152030945e+01 2.210390239581471405e+00
1.648191174864768982e+01 1.272810909152030945e+01 2.230989604815846405e+00
1.592258557677268982e+01 1.271761104464530945e+01 2.187395244464283905e+00
1.553012952208518982e+01 1.278365108370780945e+01 2.164232402667408905e+00
1.779087170958518982e+01 1.222786495089530945e+01 2.398546367511158905e+00
1.662778577208518982e+01 1.223994991183280945e+01 2.305391460284596405e+00
1.657260999083518982e+01 1.248836299777030945e+01 2.328066020831471405e+00
1.540610608458518982e+01 1.217476436495780945e+01 2.199052959308033905e+00
1.561399182677268982e+01 1.254964229464530945e+01 2.256914287433033905e+00
1.550522717833518982e+01 1.276289913058280945e+01 2.271959453448658905e+00
1.643686780333518982e+01 1.252669307589530945e+01 2.075304180011158905e+00
1.586448010802268982e+01 1.251936885714530945e+01 2.033876567706471405e+00
1.579367932677268982e+01 1.276033565402030945e+01 2.054491191729908905e+00
1.551743420958518982e+01 1.289278194308280945e+01 2.048967510089283905e+00
1.543821057677268982e+01 1.312959834933280945e+01 2.068544536456471405e+00
1.598972424864768982e+01 1.371846553683280945e+01 2.170396953448658905e+00
1.754258069396018982e+01 1.248225948214530945e+01 2.271089702472096405e+00
1.694797620177268982e+01 1.248567745089530945e+01 2.226762920245533905e+00
1.651401624083518982e+01 1.255660030245780945e+01 2.201219707354908905e+00
1.546714124083518982e+01 1.231026241183280945e+01 2.095796733722096405e+00
1.577732190489768982e+01 1.274397823214530945e+01 2.166185527667408905e+00
1.545871838927268982e+01 1.285384151339530945e+01 2.154192119464283905e+00
1.568796643614768982e+01 1.325801631808280945e+01 2.215913921222096405e+00
1.537961682677268982e+01 1.337019893527030945e+01 2.204912334308033905e+00
1.748276624083518982e+01 1.244563838839530945e+01 2.384355693683033905e+00
1.661472424864768982e+01 1.231697627902030945e+01 2.300615459308033905e+00
1.653550061583518982e+01 1.255904170870780945e+01 2.321138530597096405e+00
1.547861585021018982e+01 1.230830928683280945e+01 2.209566264972096405e+00
1.569052991271018982e+01 1.269099971652030945e+01 2.268755107745533905e+00
1.557529553771018982e+01 1.290804073214530945e+01 2.283662944659596405e+00
1.577842053771018982e+01 1.329952022433280945e+01 2.343111186847096405e+00
1.537510022521018982e+01 1.335994502902030945e+01 2.318437724933033905e+00
1.530991467833518982e+01 1.403401729464530945e+01 2.188722759112721405e+00
1.591904553771018982e+01 1.234639522433280945e+01 2.162264018878346405e+00
1.583335217833518982e+01 1.258406612277030945e+01 2.182680278643971405e+00
1.530844983458518982e+01 1.259493038058280945e+01 2.144594341143971405e+00
1.534543713927268982e+01 1.289497920870780945e+01 2.181078105792408905e+00
1.565940198302268982e+01 1.334871456027030945e+01 2.255266338214283905e+00
1.548728284239768982e+01 1.354292842745780945e+01 2.264436870440846405e+00
1.536985120177268982e+01 1.376790401339530945e+01 2.281725078448658905e+00
1.525339612364768982e+01 1.399275752902030945e+01 2.298433452472096405e+00
1.591111096739768982e+01 1.233382198214530945e+01 2.277528911456471405e+00
1.554990491271018982e+01 1.243233272433280945e+01 2.260088115558033905e+00
1.554074963927268982e+01 1.270699092745780945e+01 2.290895610675221405e+00
1.540891370177268982e+01 1.292024776339530945e+01 2.305116802081471405e+00
1.559031018614768982e+01 1.330269405245780945e+01 2.363115459308033905e+00
1.548154553771018982e+01 1.353133174777030945e+01 2.380891948565846405e+00
1.544590100646018982e+01 1.380306026339530945e+01 2.409303813800221405e+00
1.526621350646018982e+01 1.399190303683280945e+01 2.417635112628346405e+00
1.620041760802268982e+01 1.501448604464530945e+01 2.117204814776783905e+00
1.687278088927268982e+01 1.574324581027030945e+01 2.236391216143971405e+00
1.593406018614768982e+01 1.303450557589530945e+01 2.007494121417408905e+00
1.541587170958518982e+01 1.305220577120780945e+01 1.975771098956471405e+00
1.547739514708518982e+01 1.337544795870780945e+01 2.015504985675221405e+00
1.571836194396018982e+01 1.380464717745780945e+01 2.078401714190846405e+00
1.569260510802268982e+01 1.409029170870780945e+01 2.108400493487721405e+00
1.575473889708518982e+01 1.443013545870780945e+01 2.150011211261158905e+00
1.613718518614768982e+01 1.496761104464530945e+01 2.233919292315846405e+00
1.633750256896018982e+01 1.540669795870780945e+01 2.296007305011158905e+00
1.553611096739768982e+01 1.281905147433280945e+01 2.076524883136158905e+00
1.544516858458518982e+01 1.305879756808280945e+01 2.097475200518971405e+00
1.599704846739768982e+01 1.364925166964530945e+01 2.201646953448658905e+00
1.562583264708518982e+01 1.374397823214530945e+01 2.187212138995533905e+00
1.522763928771018982e+01 1.381612178683280945e+01 2.168367534503346405e+00
1.681064710021018982e+01 1.503743526339530945e+01 2.413805156573658905e+00
1.628171643614768982e+01 1.504475948214530945e+01 2.378770976886158905e+00
1.687754163146018982e+01 1.572737666964530945e+01 2.496370464190846405e+00
1.550998792052268982e+01 1.279659053683280945e+01 2.191026836261158905e+00
1.774533948302268982e+01 1.427083370089530945e+01 2.521776347979908905e+00
1.590342053771018982e+01 1.358919307589530945e+01 2.310136943683033905e+00
1.546482190489768982e+01 1.364546748995780945e+01 2.285127788409596405e+00
1.531797131896018982e+01 1.385884639620780945e+01 2.299211650714283905e+00
1.510923108458518982e+01 1.403572627902030945e+01 2.304628520831471405e+00
1.624472913146018982e+01 1.501350948214530945e+01 2.499712138995533905e+00
1.687998303771018982e+01 1.571944209933280945e+01 2.626817851886158905e+00
1.571396741271018982e+01 1.289327022433280945e+01 2.336824565753346405e+00
1.530722913146018982e+01 1.296785518527030945e+01 2.314104228839283905e+00
1.535910901427268982e+01 1.328438350558280945e+01 2.355302959308033905e+00
1.555710706114768982e+01 1.368794795870780945e+01 2.417848735675221405e+00
1.533738049864768982e+01 1.386104366183280945e+01 2.421556621417408905e+00
1.504416760802268982e+01 1.398897334933280945e+01 2.414369731768971405e+00
1.745151624083518982e+01 1.572408077120780945e+01 2.801317363604908905e+00
1.684885510802268982e+01 1.582564327120780945e+01 2.331804424151783905e+00
1.677134045958518982e+01 1.611507198214530945e+01 2.359010845050221405e+00
1.112778577208518982e+01 1.285555049777030945e+01 1.650423198565846405e+00
1.539963635802268982e+01 1.340340206027030945e+01 2.096361308917408905e+00
1.588205823302268982e+01 1.397005245089530945e+01 2.192110210284596405e+00
1.539292249083518982e+01 1.399995967745780945e+01 2.163301616534596405e+00
1.571628674864768982e+01 1.449483272433280945e+01 2.240480571612721405e+00
1.663889417052268982e+01 1.535811397433280945e+01 2.398698955401783905e+00
1.685105237364768982e+01 1.581734248995780945e+01 2.464540630206471405e+00
1.677353772521018982e+01 1.610689327120780945e+01 2.492128520831471405e+00
1.114438733458518982e+01 1.285884639620780945e+01 1.754793315753346405e+00
1.539341077208518982e+01 1.339082881808280945e+01 2.216463237628346405e+00
1.539841565489768982e+01 1.369197627902030945e+01 2.251558452472096405e+00
1.541159924864768982e+01 1.400154659152030945e+01 2.287523418292408905e+00
1.684385022521018982e+01 1.514192745089530945e+01 2.519014507159596405e+00
1.614743909239768982e+01 1.505586788058280945e+01 2.460481792315846405e+00
1.685337170958518982e+01 1.580904170870780945e+01 2.596635967120533905e+00
1.677573499083518982e+01 1.609871456027030945e+01 2.625322490558033905e+00
1.116111096739768982e+01 1.286214229464530945e+01 1.859941631183033905e+00
1.538718518614768982e+01 1.337837764620780945e+01 2.336549907550221405e+00
1.549179944396018982e+01 1.373482295870780945e+01 2.385591655597096405e+00
1.544809827208518982e+01 1.401314327120780945e+01 2.415147930011158905e+00
1.646689710021018982e+01 1.491304561495780945e+01 2.596285014972096405e+00
1.729245862364768982e+01 1.572798702120780945e+01 2.753191142901783905e+00
1.685556897521018982e+01 1.580074092745780945e+01 2.729509502276783905e+00
1.117795667052268982e+01 1.286543819308280945e+01 1.965334087237721405e+00
9.717873662710189819e+00 1.257869502902030945e+01 1.410493999347096405e+00
1.534824475646018982e+01 1.405598995089530945e+01 2.010667949542408905e+00
1.644406995177268982e+01 1.500362178683280945e+01 2.180971294268971405e+00
1.646714124083518982e+01 1.534639522433280945e+01 2.220537334308033905e+00
1.682883557677268982e+01 1.590096065402030945e+01 2.303911357745533905e+00
1.675010022521018982e+01 1.619466182589530945e+01 2.331926494464283905e+00
1.088291272521018982e+01 1.280721065402030945e+01 1.604387431964283905e+00
1.029270276427268982e+01 1.269148799777030945e+01 1.556245952472096405e+00
9.733132451772689819e+00 1.258162471652030945e+01 1.511156230792408905e+00
1.684812268614768982e+01 1.489815303683280945e+01 2.326830058917408905e+00
1.711948499083518982e+01 1.538619014620780945e+01 2.399675517901783905e+00
1.692051038146018982e+01 1.560603877902030945e+01 2.412035137042408905e+00
1.683103284239768982e+01 1.589241573214530945e+01 2.438966899737721405e+00
1.675241956114768982e+01 1.618611690402030945e+01 2.467394023761158905e+00
1.090024670958518982e+01 1.281062862277030945e+01 1.710558086261158905e+00
1.030893811583518982e+01 1.269466182589530945e+01 1.659700542315846405e+00
9.748391240835189819e+00 1.258467647433280945e+01 1.611498027667408905e+00
1.528989514708518982e+01 1.400411006808280945e+01 2.251024394854908905e+00
1.644577893614768982e+01 1.498494502902030945e+01 2.443300395831471405e+00
1.689829358458518982e+01 1.558284541964530945e+01 2.542741924151783905e+00
1.683335217833518982e+01 1.588387081027030945e+01 2.573381572589283905e+00
1.675461682677268982e+01 1.617757198214530945e+01 2.602235942706471405e+00
1.091758069396018982e+01 1.281404659152030945e+01 1.816393047198658905e+00
1.032517346739768982e+01 1.269783565402030945e+01 1.763384013995533905e+00
9.763650029897689819e+00 1.258760616183280945e+01 1.712602763995533905e+00
1.524485120177268982e+01 1.396907588839530945e+01 2.368929057940846405e+00
1.639389905333518982e+01 1.494490596652030945e+01 2.566438823565846405e+00
1.696445569396018982e+01 1.561202022433280945e+01 2.686525493487721405e+00
1.683567151427268982e+01 1.587520381808280945e+01 2.708589702472096405e+00
1.675998792052268982e+01 1.617085811495780945e+01 2.738298564776783905e+00
1.093503674864768982e+01 1.281746456027030945e+01 1.923036723956471405e+00
1.034140881896018982e+01 1.270100948214530945e+01 1.866731792315846405e+00
9.779030889272689819e+00 1.259065791964530945e+01 1.813905864581471405e+00
1.681382092833518982e+01 1.595711299777030945e+01 2.259767680987721405e+00
1.132480725646018982e+01 1.289888545870780945e+01 1.603899150714283905e+00
1.068088635802268982e+01 1.276741573214530945e+01 1.552629619464283905e+00
1.008274182677268982e+01 1.264998409152030945e+01 1.505525737628346405e+00
9.513650029897689819e+00 1.253841182589530945e+01 1.460725932940846405e+00
8.969704717397689819e+00 1.243160030245780945e+01 1.417909770831471405e+00
8.462380498647689819e+00 1.233687373995780945e+01 1.379015117511158905e+00
1.649302014708518982e+01 1.541280147433280945e+01 2.315721660479908905e+00
1.681626233458518982e+01 1.594807979464530945e+01 2.397081523761158905e+00
1.134616956114768982e+01 1.290389034152030945e+01 1.714708476886158905e+00
1.069919690489768982e+01 1.277095577120780945e+01 1.660234599933033905e+00
1.009995374083518982e+01 1.265340206027030945e+01 1.610414653643971405e+00
9.529763311147689819e+00 1.254158565402030945e+01 1.563005596026783905e+00
8.984841436147689819e+00 1.243465206027030945e+01 1.517702251300221405e+00
8.475686162710189819e+00 1.233894893527030945e+01 1.475862651690846405e+00
1.690293225646018982e+01 1.564510127902030945e+01 2.505220561847096405e+00
1.681870374083518982e+01 1.593892452120780945e+01 2.534471660479908905e+00
1.136753186583518982e+01 1.290889522433280945e+01 1.825212627276783905e+00
1.071738538146018982e+01 1.277449581027030945e+01 1.767503887042408905e+00
1.011704358458518982e+01 1.265682002902030945e+01 1.714952617511158905e+00
9.545876592397689819e+00 1.254475948214530945e+01 1.664964824542408905e+00
9.000222295522689819e+00 1.243758174777030945e+01 1.617708354815846405e+00
8.489113897085189819e+00 1.234114620089530945e+01 1.573412090167408905e+00
1.690573987364768982e+01 1.563619014620780945e+01 2.642305522784596405e+00
1.682114514708518982e+01 1.592989131808280945e+01 2.671190410479908905e+00
1.674106702208518982e+01 1.622847530245780945e+01 2.701738506183033905e+00
1.073581799864768982e+01 1.277815791964530945e+01 1.875597148761158905e+00
1.013437756896018982e+01 1.266011592745780945e+01 1.820284038409596405e+00
9.562111943960189819e+00 1.254793331027030945e+01 1.767671733722096405e+00
9.015359014272689819e+00 1.244063350558280945e+01 1.717394023761158905e+00
8.502541631460189819e+00 1.234322139620780945e+01 1.671144634112721405e+00
1.057407483458518982e+01 1.274617549777030945e+01 1.643938213214283905e+00
9.962502568960189819e+00 1.262618038058280945e+01 1.594743877276783905e+00
9.378518193960189819e+00 1.251167842745780945e+01 1.547777324542408905e+00
8.824196904897689819e+00 1.240291377902030945e+01 1.503175884112721405e+00
8.318581670522689819e+00 1.231502315402030945e+01 1.463884502276783905e+00
7.623391240835189819e+00 1.208333370089530945e+01 1.396532207354908905e+00
6.981545537710189819e+00 1.187154170870780945e+01 1.334612041339283905e+00
1.124460706114768982e+01 1.287996456027030945e+01 1.809068828448658905e+00
1.059433850646018982e+01 1.275020381808280945e+01 1.753648906573658905e+00
9.981423467397689819e+00 1.262996456027030945e+01 1.701097637042408905e+00
9.396340459585189819e+00 1.251509639620780945e+01 1.651491313800221405e+00
8.840920537710189819e+00 1.240620967745780945e+01 1.604402690753346405e+00
8.342995733022689819e+00 1.232405635714530945e+01 1.564088970050221405e+00
7.643654912710189819e+00 1.208992549777030945e+01 1.493410259112721405e+00
7.000222295522689819e+00 1.187776729464530945e+01 1.428301006183033905e+00
1.126828870177268982e+01 1.288545772433280945e+01 1.922319560870533905e+00
1.061460217833518982e+01 1.275411006808280945e+01 1.863039165362721405e+00
1.000046643614768982e+01 1.263362666964530945e+01 1.808275371417408905e+00
9.414284795522689819e+00 1.251863643527030945e+01 1.755998760089283905e+00
8.857888311147689819e+00 1.240950557589530945e+01 1.706377178058033905e+00
8.367653936147689819e+00 1.233321163058280945e+01 1.665147930011158905e+00
7.663796514272689819e+00 1.209663936495780945e+01 1.590044170245533905e+00
7.018899053335189819e+00 1.188387081027030945e+01 1.522234111651783905e+00
6.766213506460189819e+00 1.180025264620780945e+01 1.302187114581471405e+00
6.149148076772689819e+00 1.159676143527030945e+01 1.244432597979908905e+00
5.586403936147689819e+00 1.141744014620780945e+01 1.192552715167408905e+00
9.882546514272689819e+00 1.261031123995780945e+01 1.674043804034596405e+00
9.286599248647689819e+00 1.249336788058280945e+01 1.625566631183033905e+00
8.718850225210189819e+00 1.238191768527030945e+01 1.578828960284596405e+00
8.146706670522689819e+00 1.225569698214530945e+01 1.530519634112721405e+00
7.444192022085189819e+00 1.202388545870780945e+01 1.461473613604908905e+00
6.786721318960189819e+00 1.180708858370780945e+01 1.396867900714283905e+00
6.168313115835189819e+00 1.160310909152030945e+01 1.336580425128346405e+00
5.602761358022689819e+00 1.142220088839530945e+01 1.281694560870533905e+00
9.903542608022689819e+00 1.261433956027030945e+01 1.783174663409596405e+00
9.306374639272689819e+00 1.249727413058280945e+01 1.731432109698658905e+00
8.737526983022689819e+00 1.238557979464530945e+01 1.682695537433033905e+00
8.170876592397689819e+00 1.226363155245780945e+01 1.632738262042408905e+00
7.466530889272689819e+00 1.203133174777030945e+01 1.560197978839283905e+00
6.807473272085189819e+00 1.181392452120780945e+01 1.492326885089283905e+00
6.187478154897689819e+00 1.160933467745780945e+01 1.428468852862721405e+00
5.619118779897689819e+00 1.142696163058280945e+01 1.371065288409596405e+00
4.915871709585189819e+00 1.121858760714530945e+01 1.125124126300221405e+00
4.451394170522689819e+00 1.109419795870780945e+01 1.086183696612721405e+00
8.669289678335189819e+00 1.237202998995780945e+01 1.562853008136158905e+00
8.060158818960189819e+00 1.222688838839530945e+01 1.511339336261158905e+00
7.336770147085189819e+00 1.198836299777030945e+01 1.441118388995533905e+00
6.658059209585189819e+00 1.176448604464530945e+01 1.375734477862721405e+00
6.024026006460189819e+00 1.155525752902030945e+01 1.314653545245533905e+00
5.427712529897689819e+00 1.135835811495780945e+01 1.257158428058033905e+00
4.931374639272689819e+00 1.122273799777030945e+01 1.213426738604908905e+00
4.466042608022689819e+00 1.109810420870780945e+01 1.172304302081471405e+00
8.689187139272689819e+00 1.237593623995780945e+01 1.668886333331471405e+00
8.085915654897689819e+00 1.223543331027030945e+01 1.615068584308033905e+00
7.360695928335189819e+00 1.199617549777030945e+01 1.541811138018971405e+00
6.680276006460189819e+00 1.177168819308280945e+01 1.473055034503346405e+00
