1.647382214665412903e+01 3.609105858951807022e+00 1.006392828747635804e+00
1.561774304509162903e+01 3.276586327701807022e+00 9.897454898804483037e-01
1.599738171696662903e+01 4.367650780826807022e+00 2.784265201538858037e-01
1.620538952946662903e+01 4.538549218326807022e+00 2.936242740601358037e-01
1.653974011540412903e+01 4.729833398014307022e+00 3.121942203491983037e-01
1.704254773259162903e+01 4.951391015201807022e+00 3.359674137085733037e-01
1.733844617009162903e+01 5.153173241764307022e+00 3.544763248413858037e-01
1.766474011540412903e+01 5.366185937076807022e+00 3.742669742554483037e-01
1.800690320134162903e+01 5.589452538639307022e+00 3.950189273804483037e-01
1.856891492009162903e+01 5.858129296451807022e+00 4.224847476929483037e-01
1.931598523259162903e+01 4.707982812076807022e+00 4.475854557007608037e-01
1.988873913884162903e+01 4.953710351139307022e+00 4.770044010132608037e-01
2.198175671696662903e+01 5.818456444889307022e+00 5.828851383179483037e-01
2.220905163884162903e+01 6.063207421451807022e+00 6.039575260132608037e-01
2.277496960759162903e+01 6.369848046451807022e+00 6.365808170288858037e-01
4.072565320134162903e+01 9.727269921451807022e+00 1.281112067028885804e+00
1.929999402165412903e+01 4.701024804264307022e+00 5.300439517945108037e-01
1.987189343571662903e+01 4.946508202701807022e+00 5.621942203491983037e-01
2.198090222477912903e+01 5.812597069889307022e+00 6.782220523804483037e-01
2.219428113102912903e+01 6.055150780826807022e+00 6.999505680054483037e-01
2.275946667790412903e+01 6.361425194889307022e+00 7.358239810913858037e-01
4.149396374821662903e+01 9.850683007389307022e+00 1.495467535778885804e+00
1.928412488102912903e+01 4.694188866764307022e+00 6.119531314820108037e-01
1.985492566227912903e+01 4.939306054264307022e+00 6.472619693726358037e-01
2.197992566227912903e+01 5.806615624576807022e+00 7.741082828491983037e-01
2.217938855290412903e+01 6.047094140201807022e+00 7.963861148804483037e-01
2.274396374821662903e+01 6.352880273014307022e+00 8.349908512085733037e-01
4.140119031071662903e+01 9.823705468326807022e+00 1.677810065075760804e+00
1.926813367009162903e+01 4.687352929264307022e+00 6.942132633179483037e-01
1.983820202946662903e+01 4.932103905826807022e+00 7.317804019898233037e-01
2.197894909977912903e+01 5.800756249576807022e+00 8.695520084351358037e-01
2.216461804509162903e+01 6.039159569889307022e+00 8.922113101929483037e-01
2.272846081852912903e+01 6.344579491764307022e+00 9.335473697632608037e-01
4.202911999821662903e+01 9.922094140201807022e+00 1.895781866833573304e+00
1.925226452946662903e+01 4.680639062076807022e+00 7.759240787476358037e-01
1.982135632634162903e+01 4.924901757389307022e+00 8.166345279663858037e-01
2.197809460759162903e+01 5.794896874576807022e+00 9.655297916382608037e-01
2.214972546696662903e+01 6.031102929264307022e+00 9.884790103882608037e-01
2.271295788884162903e+01 6.336156640201807022e+00 1.032531134411698304e+00
1.923627331852912903e+01 4.673803124576807022e+00 8.579858463257608037e-01
1.980463269352912903e+01 4.917699608951807022e+00 9.009393375366983037e-01
2.197711804509162903e+01 5.789037499576807022e+00 1.061049811169510804e+00
2.213495495915412903e+01 6.023046288639307022e+00 1.084151617810135804e+00
2.269757702946662903e+01 6.327733788639307022e+00 1.130904547497635804e+00
1.922052624821662903e+01 4.666967187076807022e+00 9.395135562866983037e-01
1.978790906071662903e+01 4.910497460514307022e+00 9.851525943726358037e-01
2.197614148259162903e+01 5.783056054264307022e+00 1.157134405896073304e+00
2.212006238102912903e+01 6.014989648014307022e+00 1.180251471325760804e+00
2.268207409977912903e+01 6.319433007389307022e+00 1.229201666638260804e+00
1.920465710759162903e+01 4.660131249576807022e+00 1.021376959607010804e+00
1.977118542790412903e+01 4.903295312076807022e+00 1.069701544567948304e+00
2.197553113102912903e+01 5.777196679264307022e+00 1.252776495739823304e+00
2.212433484196662903e+01 6.009984765201807022e+00 1.277007452771073304e+00
2.280255749821662903e+01 6.333104882389307022e+00 1.337050787732010804e+00
1.918878796696662903e+01 4.653417382389307022e+00 1.102706305310135804e+00
1.975678113102912903e+01 4.896459374576807022e+00 1.153853766247635804e+00
1.857428601384162903e+01 5.859594140201807022e+00 4.226983707398233037e-01
1.922162488102912903e+01 6.156347069889307022e+00 4.538873355835733037e-01
1.961237195134162903e+01 6.416967187076807022e+00 4.773706119507608037e-01
2.027863171696662903e+01 6.743749413639307022e+00 5.103448551148233037e-01
2.099591687321662903e+01 7.095678124576807022e+00 5.458215396851358037e-01
2.177301648259162903e+01 7.477025780826807022e+00 5.842736881226358037e-01
2.391254284977912903e+01 8.199682030826807022e+00 6.704553287476358037e-01
2.616608288884162903e+01 8.995824608951807022e+00 7.626947086304483037e-01
4.072577527165412903e+01 9.728734765201807022e+00 1.281203619763260804e+00
4.065875867009162903e+01 1.012021425738930702e+01 1.303511969372635804e+00
2.506757214665412903e+01 7.478124413639307022e+00 7.615655582398233037e-01
2.503595593571662903e+01 7.717870507389307022e+00 7.754510562866983037e-01
2.556476452946662903e+01 8.078344140201807022e+00 8.104242008179483037e-01
2.612018445134162903e+01 8.456884179264307022e+00 8.471673648804483037e-01
5.446759656071662903e+01 1.544003847613930702e+01 1.966231695935135804e+00
5.407428601384162903e+01 1.590158632770180702e+01 1.984847418591385804e+00
4.149384167790412903e+01 9.852025780826807022e+00 1.495543829724198304e+00
4.130975964665412903e+01 1.022995546832680702e+01 1.513686529919510804e+00
2.506757214665412903e+01 7.471898827701807022e+00 8.721460025757608037e-01
2.502289441227912903e+01 7.708959374576807022e+00 8.855889957398233037e-01
2.555121472477912903e+01 8.069066796451807022e+00 9.232476871460733037e-01
2.610614636540412903e+01 8.447362694889307022e+00 9.627984683960733037e-01
5.564996960759162903e+01 1.570651796832680702e+01 2.268996588513260804e+00
5.513239148259162903e+01 1.614999941363930702e+01 2.281569830700760804e+00
4.140094617009162903e+01 9.825048241764307022e+00 1.677886359021073304e+00
4.127594617009162903e+01 1.021298769488930702e+01 1.699172369763260804e+00
2.506769421696662903e+01 7.465551171451807022e+00 9.833978336304483037e-01
2.500971081852912903e+01 7.700048241764307022e+00 9.962457340210733037e-01
2.553766492009162903e+01 8.059789452701807022e+00 1.036605231091385804e+00
2.609198620915412903e+01 8.437719140201807022e+00 1.078994147107010804e+00
5.715460827946662903e+01 1.604855898395180702e+01 2.598693243786698304e+00
5.632355359196662903e+01 1.643076113238930702e+01 2.593596808239823304e+00
4.202460339665412903e+01 9.922704491764307022e+00 1.895659796521073304e+00
4.179511120915412903e+01 1.029794863238930702e+01 1.910979620739823304e+00
2.506781628727912903e+01 7.459325585514307022e+00 1.094115607067948304e+00
2.499664929509162903e+01 7.691137108951807022e+00 1.106261603161698304e+00
2.552411511540412903e+01 8.050634179264307022e+00 1.149306647107010804e+00
2.607807019352912903e+01 8.428197655826807022e+00 1.194518439099198304e+00
2.506793835759162903e+01 7.452977929264307022e+00 1.205504767224198304e+00
2.498346570134162903e+01 7.682103905826807022e+00 1.216811529919510804e+00
2.551056531071662903e+01 8.041356835514307022e+00 1.262557379528885804e+00
2.606391003727912903e+01 8.418554101139307022e+00 1.310592047497635804e+00
2.506806042790412903e+01 7.446630273014307022e+00 1.316359869763260804e+00
2.497113659977912903e+01 7.673436913639307022e+00 1.326751105114823304e+00
2.549701550602912903e+01 8.032201562076807022e+00 1.375136725232010804e+00
2.605597546696662903e+01 8.410375390201807022e+00 1.426345221325760804e+00
5.365595105290412903e+01 1.581320742145180702e+01 1.720717779919510804e+00
2.779816296696662903e+01 9.681005273014307022e+00 8.363031070679483037e-01
2.820673230290412903e+01 1.007236269488930702e+01 8.671411197632608037e-01
2.871808484196662903e+01 1.050375917926430702e+01 9.024194400757608037e-01
5.233319714665412903e+01 1.766220644488930702e+01 1.800490729138260804e+00
5.187445691227912903e+01 1.807553652301430702e+01 1.814666144177323304e+00
3.045441296696662903e+01 1.193564394488930702e+01 1.020263068005448304e+00
3.068561413884162903e+01 1.232895449176430702e+01 1.046798102185135804e+00
5.407306531071662903e+01 1.590317324176430702e+01 1.984923712536698304e+00
2.779718640446662903e+01 9.674169335514307022e+00 9.612115543335733037e-01
2.819501355290412903e+01 1.006247499957680702e+01 9.945977848023233037e-01
2.870612195134162903e+01 1.049362734332680702e+01 1.032653204724198304e+00
5.303131726384162903e+01 1.785251406207680702e+01 2.074126593396073304e+00
5.284906628727912903e+01 1.835690859332680702e+01 2.099059454724198304e+00
3.045648816227912903e+01 1.192929628863930702e+01 1.159850470349198304e+00
3.067548230290412903e+01 1.231870058551430702e+01 1.188125006482010804e+00
5.512775281071662903e+01 1.615085390582680702e+01 2.281478277966385804e+00
2.779633191227912903e+01 9.667333398014307022e+00 1.086852423474198304e+00
2.818341687321662903e+01 1.005270937457680702e+01 1.121322027966385804e+00
2.869415906071662903e+01 1.048361757770180702e+01 1.162154547497635804e+00
5.383209851384162903e+01 1.807236269488930702e+01 2.358062140271073304e+00
5.366254284977912903e+01 1.858933046832680702e+01 2.383956305310135804e+00
3.045856335759162903e+01 1.192307070270180702e+01 1.300292364880448304e+00
3.066522839665412903e+01 1.230856874957680702e+01 1.329436651989823304e+00
5.631830456852912903e+01 1.643149355426430702e+01 2.593459479138260804e+00
2.779596570134162903e+01 9.660619530826807022e+00 1.212584845349198304e+00
2.817169812321662903e+01 1.004294374957680702e+01 1.248702399060135804e+00
2.868219617009162903e+01 1.047348574176430702e+01 1.292327276989823304e+00
5.490814831852912903e+01 1.837143496051430702e+01 2.665374151989823304e+00
5.475421765446662903e+01 1.890500429645180702e+01 2.692717901989823304e+00
3.046063855290412903e+01 1.191672304645180702e+01 1.440841070935135804e+00
3.065509656071662903e+01 1.229831484332680702e+01 1.469985358044510804e+00
2.779718640446662903e+01 9.654271874576807022e+00 1.337813727185135804e+00
2.816010144352912903e+01 1.003317812457680702e+01 1.375365607067948304e+00
2.867023327946662903e+01 1.046347597613930702e+01 1.421752325817948304e+00
5.674567273259162903e+01 1.889072206988930702e+01 3.024749151989823304e+00
5.703266003727912903e+01 1.957687929645180702e+01 3.078536383435135804e+00
3.046942761540412903e+01 1.191245058551430702e+01 1.581130377575760804e+00
3.069721081852912903e+01 1.230502871051430702e+01 1.614333502575760804e+00
2.779828503727912903e+01 9.647924218326807022e+00 1.463790289685135804e+00
2.815607312321662903e+01 1.002536562457680702e+01 1.503127447888260804e+00
2.874054577946662903e+01 1.047629335895180702e+01 1.556838385388260804e+00
3.018353894352912903e+01 1.115378359332680702e+01 2.355330817028885804e+00
3.020856335759162903e+01 1.147397402301430702e+01 2.379363409802323304e+00
3.050165417790412903e+01 1.188071230426430702e+01 2.426879278942948304e+00
3.018305066227912903e+01 1.114658144488930702e+01 2.493499151989823304e+00
3.020807507634162903e+01 1.146689394488930702e+01 2.518050543591385804e+00
3.051752331852912903e+01 1.187863710895180702e+01 2.568908087536698304e+00
3.018244031071662903e+01 1.113937929645180702e+01 2.631743780896073304e+00
3.020746472477912903e+01 1.145969179645180702e+01 2.656829230114823304e+00
3.053363659977912903e+01 1.187656191363930702e+01 2.711928717419510804e+00
3.018952038884162903e+01 1.113425234332680702e+01 2.771575323864823304e+00
3.020697644352912903e+01 1.145248964801430702e+01 2.796431891247635804e+00
3.054950574040412903e+01 1.187460878863930702e+01 2.854445807263260804e+00
5.103412488102912903e+01 2.357687929645180702e+01 3.300216070935135804e+00
5.107990124821662903e+01 2.422531679645180702e+01 3.356917731091385804e+00
5.014667370915412903e+01 2.447141054645180702e+01 3.344436041638260804e+00
7.026032117009162903e+01 3.377072695270180702e+01 4.851607672497635804e+00
6.826959851384162903e+01 2.792612246051430702e+01 4.637481085583573304e+00
5.903046277165412903e+01 2.529184511676430702e+01 4.039199225232010804e+00
5.991535046696662903e+01 2.634531191363930702e+01 4.165892950817948304e+00
5.131964734196662903e+01 2.367099550738930702e+01 3.589919440075760804e+00
5.117438367009162903e+01 2.424497011676430702e+01 3.633818976208573304e+00
5.127777722477912903e+01 2.492685488238930702e+01 3.697020880505448304e+00
3.386371472477912903e+01 1.504489687457680702e+01 2.508864752575760804e+00
3.381232312321662903e+01 1.544431093707680702e+01 2.542327276989823304e+00
3.535468152165412903e+01 1.777536562457680702e+01 2.827254645153885804e+00
3.386530163884162903e+01 1.503220156207680702e+01 2.690215460583573304e+00
3.381391003727912903e+01 1.543173769488930702e+01 2.724135748669510804e+00
3.539008191227912903e+01 1.777634218707680702e+01 3.022689215466385804e+00
3.386701062321662903e+01 1.501950624957680702e+01 2.872634283825760804e+00
3.381549695134162903e+01 1.541904238238930702e+01 2.907027594372635804e+00
3.508807995915412903e+01 1.718454531207680702e+01 1.576064459607010804e+00
3.522931531071662903e+01 1.769223574176430702e+01 1.619719855114823304e+00
3.563751843571662903e+01 1.831601503863930702e+01 1.678710333630448304e+00
5.058258679509162903e+01 2.515134218707680702e+01 2.563002936169510804e+00
5.269513562321662903e+01 2.672275331988930702e+01 2.736220709607010804e+00
5.228974011540412903e+01 2.721420839801430702e+01 2.764663092419510804e+00
5.231024792790412903e+01 2.262778261676430702e+01 2.676802984997635804e+00
5.125214245915412903e+01 2.286313417926430702e+01 2.667418829724198304e+00
5.059357312321662903e+01 2.323581484332680702e+01 2.680007330700760804e+00
5.003815320134162903e+01 2.364218691363930702e+01 2.698119513317948304e+00
5.014899304509162903e+01 2.431479433551430702e+01 2.755889288708573304e+00
4.987470105290412903e+01 2.483090761676430702e+01 2.790526739880448304e+00
5.454010632634162903e+01 2.751108339801430702e+01 3.134688727185135804e+00
5.460431531071662903e+01 2.823593691363930702e+01 3.195449225232010804e+00
5.551215222477912903e+01 2.378635195270180702e+01 3.149062506482010804e+00
5.189203503727912903e+01 2.308640078082680702e+01 2.979216925427323304e+00
5.068146374821662903e+01 2.325107363238930702e+01 2.955062262341385804e+00
5.093671277165412903e+01 2.398483828082680702e+01 3.024108282849198304e+00
5.004035046696662903e+01 2.425095156207680702e+01 3.018218390271073304e+00
5.591278699040412903e+01 2.738266542926430702e+01 3.462401739880448304e+00
5.608734753727912903e+01 2.816782167926430702e+01 3.533202521130448304e+00
5.806610730290412903e+01 2.470432070270180702e+01 3.611083380505448304e+00
5.191107800602912903e+01 2.307407167926430702e+01 3.253905646130448304e+00
5.161359265446662903e+01 2.359592226520180702e+01 3.287688605114823304e+00
3.563519909977912903e+01 1.781442812457680702e+01 2.228820196911698304e+00
5.066608288884162903e+01 2.449094179645180702e+01 3.330077521130448304e+00
7.004926159977912903e+01 3.337473085895180702e+01 4.773482672497635804e+00
6.967767956852912903e+01 3.408872011676430702e+01 4.820968024060135804e+00
3.748859265446662903e+01 2.050900820270180702e+01 2.523635260388260804e+00
6.012006238102912903e+01 2.543686464801430702e+01 4.060805670544510804e+00
5.939215710759162903e+01 2.588718203082680702e+01 4.070891730114823304e+00
5.143561413884162903e+01 2.350681093707680702e+01 3.549331061169510804e+00
3.562836316227912903e+01 1.779770449176430702e+01 2.424819342419510804e+00
5.130121472477912903e+01 2.473434999957680702e+01 3.650451056286698304e+00
3.749738171696662903e+01 2.049875429645180702e+01 2.732390753552323304e+00
5.995599988102912903e+01 2.607809999957680702e+01 4.426741949841385804e+00
3.562958386540412903e+01 1.778439882770180702e+01 2.620437018200760804e+00
3.750617077946662903e+01 2.048850039020180702e+01 2.942473761364823304e+00
3.563666394352912903e+01 1.777353456988930702e+01 2.816665045544510804e+00
6.395136120915412903e+01 3.146811464801430702e+01 6.108413092419510804e+00
6.403949597477912903e+01 3.231625917926430702e+01 6.193007818982010804e+00
6.383661511540412903e+01 3.139450624957680702e+01 6.438948981091385804e+00
6.456244519352912903e+01 3.252646425738930702e+01 6.591582648083573304e+00
6.347858288884162903e+01 3.201877382770180702e+01 6.818633429333573304e+00
6.408356335759162903e+01 3.145493105426430702e+01 7.147185675427323304e+00
6.473761609196662903e+01 3.255747011676430702e+01 7.303984991833573304e+00
6.557953503727912903e+01 3.290939882770180702e+01 7.750716559216385804e+00
6.458905652165412903e+01 3.244382265582680702e+01 7.980437628552323304e+00
5.702789929509162903e+01 2.992441347613930702e+01 3.664748541638260804e+00
6.045868542790412903e+01 3.227866152301430702e+01 3.966292731091385804e+00
5.073932507634162903e+01 2.314059999957680702e+01 3.180404059216385804e+00
3.565289929509162903e+01 1.776645449176430702e+01 2.192260138317948304e+00
5.049506238102912903e+01 2.431259706988930702e+01 3.272261969372635804e+00
6.947333386540412903e+01 3.295590761676430702e+01 4.674941412732010804e+00
6.976386120915412903e+01 3.395236757770180702e+01 4.769454352185135804e+00
3.751532605290412903e+01 2.047751406207680702e+01 2.488417975232010804e+00
5.921210339665412903e+01 2.639487246051430702e+01 4.071532599255448304e+00
5.064032605290412903e+01 2.371530703082680702e+01 3.500243536755448304e+00
5.122272351384162903e+01 2.459152773395180702e+01 3.598998419567948304e+00
7.014838269352912903e+01 3.409323671832680702e+01 5.169951788708573304e+00
3.752423718571662903e+01 2.046713808551430702e+01 2.699660651013260804e+00
6.669318249821662903e+01 3.429807070270180702e+01 5.050612799450760804e+00
6.002728894352912903e+01 2.668723085895180702e+01 4.447860113903885804e+00
5.067145398259162903e+01 2.370847109332680702e+01 3.774535528942948304e+00
3.753314831852912903e+01 2.045664003863930702e+01 2.911101691052323304e+00
6.664545300602912903e+01 3.425192812457680702e+01 5.405410162732010804e+00
6.393964245915412903e+01 3.384348085895180702e+01 5.250625006482010804e+00
6.328119519352912903e+01 3.351169374957680702e+01 5.539611212536698304e+00
6.656488659977912903e+01 3.331210878863930702e+01 6.038894049450760804e+00
6.591461804509162903e+01 3.386997011676430702e+01 6.056060187146073304e+00
6.585944226384162903e+01 3.469504335895180702e+01 6.128966681286698304e+00
6.437055066227912903e+01 3.231467226520180702e+01 6.180480353161698304e+00
6.601447156071662903e+01 3.389121035113930702e+01 6.423247687146073304e+00
6.247492077946662903e+01 3.308835390582680702e+01 6.147414557263260804e+00
6.365375378727912903e+01 3.197324160113930702e+01 6.454528204724198304e+00
6.293781140446662903e+01 3.246677187457680702e+01 6.458068243786698304e+00
6.365961316227912903e+01 3.361911562457680702e+01 6.612136236950760804e+00
6.407465222477912903e+01 3.132150820270180702e+01 6.763533942028885804e+00
6.354743054509162903e+01 3.190268496051430702e+01 6.785765997692948304e+00
6.384149792790412903e+01 3.285458925738930702e+01 6.897643439099198304e+00
6.343549206852912903e+01 3.349106386676430702e+01 6.935012213513260804e+00
6.374835827946662903e+01 3.196799257770180702e+01 7.152755133435135804e+00
6.301947644352912903e+01 3.245749453082680702e+01 7.150695196911698304e+00
6.284808972477912903e+01 3.319370058551430702e+01 7.211852423474198304e+00
6.458222058415412903e+01 3.231320742145180702e+01 7.595031134411698304e+00
6.223248913884162903e+01 3.207687929645180702e+01 7.397933356091385804e+00
6.291156628727912903e+01 3.320017031207680702e+01 7.563369147107010804e+00
6.472662976384162903e+01 3.235312441363930702e+01 7.962645880505448304e+00
6.289996960759162903e+01 3.235678652301430702e+01 7.820540777966385804e+00
6.355023816227912903e+01 3.179489687457680702e+01 6.636092535778885804e+00
6.383710339665412903e+01 3.274387148395180702e+01 6.747313849255448304e+00
6.240692761540412903e+01 3.291110781207680702e+01 6.674041144177323304e+00
6.380206921696662903e+01 3.439841249957680702e+01 6.907683722302323304e+00
1.778009656071662903e+01 1.277707460895180702e+01 1.897094122692948304e+00
6.376996472477912903e+01 3.186704042926430702e+01 7.006667486950760804e+00
6.305585339665412903e+01 3.236704042926430702e+01 7.008910528942948304e+00
6.320587781071662903e+01 3.325766542926430702e+01 7.108168951794510804e+00
6.361188367009162903e+01 3.428391054645180702e+01 7.238173834607010804e+00
1.720465710759162903e+01 1.248850039020180702e+01 1.946685187146073304e+00
6.394599011540412903e+01 3.192014101520180702e+01 7.372695318982010804e+00
6.302557995915412903e+01 3.232956484332680702e+01 7.348952643200760804e+00
6.279974988102912903e+01 3.304562929645180702e+01 7.405974737927323304e+00
6.342926648259162903e+01 3.417319277301430702e+01 7.565902106091385804e+00
1.678363659977912903e+01 1.227548769488930702e+01 2.009688727185135804e+00
6.223578503727912903e+01 3.194968203082680702e+01 7.597762457653885804e+00
6.264411023259162903e+01 3.294980410113930702e+01 7.732589117810135804e+00
1.732269909977912903e+01 1.225705507770180702e+01 2.160476080700760804e+00
1.679511120915412903e+01 1.227353456988930702e+01 2.122374884411698304e+00
6.422443249821662903e+01 3.282126406207680702e+01 8.190780035778885804e+00
6.262592175602912903e+01 3.291769960895180702e+01 8.073623053357010804e+00
1.734223034977912903e+01 1.225839785113930702e+01 2.277160040661698304e+00
1.680658581852912903e+01 1.227158144488930702e+01 2.235839239880448304e+00
1.736395886540412903e+01 1.226096132770180702e+01 2.393767706677323304e+00
1.722675183415412903e+01 1.246823671832680702e+01 2.405227057263260804e+00
6.412518933415412903e+01 3.277243593707680702e+01 7.092086188122635804e+00
6.326911023259162903e+01 3.321896914020180702e+01 7.081008307263260804e+00
6.274518445134162903e+01 3.380685976520180702e+01 7.106154791638260804e+00
1.758392956852912903e+01 1.273557070270180702e+01 1.992324225232010804e+00
1.636212781071662903e+01 1.241379335895180702e+01 1.879180304333573304e+00
1.636078503727912903e+01 1.268564394488930702e+01 1.906676642224198304e+00
6.396759656071662903e+01 3.184848574176430702e+01 7.339003912732010804e+00
6.410712292790412903e+01 3.273935488238930702e+01 7.440978400036698304e+00
6.284955456852912903e+01 3.300131777301430702e+01 7.379958502575760804e+00
6.317951062321662903e+01 3.398776796832680702e+01 7.505172125622635804e+00
1.677167370915412903e+01 1.233371523395180702e+01 2.012389532849198304e+00
1.632172253727912903e+01 1.238596132770180702e+01 1.986266485974198304e+00
1.623761609196662903e+01 1.261508730426430702e+01 2.004683844372635804e+00
6.417670300602912903e+01 3.274545839801430702e+01 7.802382818982010804e+00
6.264984753727912903e+01 3.288498476520180702e+01 7.703658453747635804e+00
1.730573132634162903e+01 1.230539492145180702e+01 2.164138190075760804e+00
1.678339245915412903e+01 1.233151796832680702e+01 2.128096930310135804e+00
1.669379284977912903e+01 1.256308535113930702e+01 2.145858160778885804e+00
1.565643933415412903e+01 1.231137636676430702e+01 2.042250983044510804e+00
6.230097058415412903e+01 3.188120058551430702e+01 7.916518561169510804e+00
6.257819226384162903e+01 3.282761171832680702e+01 8.039992682263260804e+00
1.732550671696662903e+01 1.230673769488930702e+01 2.282561651989823304e+00
1.719623425602912903e+01 1.252341249957680702e+01 2.295684210583573304e+00
1.664594128727912903e+01 1.253146914020180702e+01 2.253981940075760804e+00
1.564899304509162903e+01 1.230014589801430702e+01 2.150832526013260804e+00
1.756708386540412903e+01 1.213278749957680702e+01 2.401000372692948304e+00
1.734747937321662903e+01 1.230881289020180702e+01 2.402114264294510804e+00
1.637506726384162903e+01 1.211813906207680702e+01 2.300811163708573304e+00
1.684747937321662903e+01 1.262363222613930702e+01 2.395217291638260804e+00
1.564142468571662903e+01 1.228879335895180702e+01 2.259383551403885804e+00
1.626398327946662903e+01 1.272165468707680702e+01 1.988234869763260804e+00
1.556329968571662903e+01 1.263779238238930702e+01 1.931456915661698304e+00
1.531439831852912903e+01 1.277890566363930702e+01 1.929503790661698304e+00
6.298920300602912903e+01 3.221140078082680702e+01 7.558120123669510804e+00
6.268500378727912903e+01 3.290073183551430702e+01 7.608397833630448304e+00
1.727924206852912903e+01 1.236691835895180702e+01 2.140975348278885804e+00
1.713605359196662903e+01 1.258310488238930702e+01 2.153258673474198304e+00
1.669196179509162903e+01 1.264853456988930702e+01 2.127776495739823304e+00
1.563678601384162903e+01 1.239536074176430702e+01 2.024260870739823304e+00
1.554706433415412903e+01 1.262180117145180702e+01 2.041533819958573304e+00
1.532135632634162903e+01 1.277524355426430702e+01 2.041213385388260804e+00
6.283429577946662903e+01 3.211765078082680702e+01 7.888228766247635804e+00
6.262311413884162903e+01 3.284775331988930702e+01 7.950225226208573304e+00
1.710407117009162903e+01 1.227634218707680702e+01 2.236754767224198304e+00
1.717023327946662903e+01 1.259140566363930702e+01 2.275634161755448304e+00
1.628266003727912903e+01 1.243796328082680702e+01 2.190795294567948304e+00
1.621295788884162903e+01 1.268015078082680702e+01 2.211394659802323304e+00
1.565363171696662903e+01 1.266965273395180702e+01 2.167800299450760804e+00
1.526117566227912903e+01 1.273569277301430702e+01 2.144637457653885804e+00
1.752191784977912903e+01 1.217990664020180702e+01 2.378951422497635804e+00
1.635883191227912903e+01 1.219199160113930702e+01 2.285796515271073304e+00
1.630365613102912903e+01 1.244040468707680702e+01 2.308471075817948304e+00
1.513715222477912903e+01 1.212680605426430702e+01 2.179458014294510804e+00
1.534503796696662903e+01 1.250168398395180702e+01 2.237319342419510804e+00
1.523627331852912903e+01 1.271494081988930702e+01 2.252364508435135804e+00
1.616791394352912903e+01 1.247873476520180702e+01 2.055709234997635804e+00
1.559552624821662903e+01 1.247141054645180702e+01 2.014281622692948304e+00
1.552472546696662903e+01 1.271237734332680702e+01 2.034896246716385804e+00
1.524848034977912903e+01 1.284482363238930702e+01 2.029372565075760804e+00
1.516925671696662903e+01 1.308164003863930702e+01 2.048949591442948304e+00
1.572077038884162903e+01 1.367050722613930702e+01 2.150802008435135804e+00
1.727362683415412903e+01 1.243430117145180702e+01 2.251494757458573304e+00
1.667902234196662903e+01 1.243771914020180702e+01 2.207167975232010804e+00
1.624506238102912903e+01 1.250864199176430702e+01 2.181624762341385804e+00
1.519818738102912903e+01 1.226230410113930702e+01 2.076201788708573304e+00
1.550836804509162903e+01 1.269601992145180702e+01 2.146590582653885804e+00
1.518976452946662903e+01 1.280588320270180702e+01 2.134597174450760804e+00
1.541901257634162903e+01 1.321005800738930702e+01 2.196318976208573304e+00
1.511066296696662903e+01 1.332224062457680702e+01 2.185317389294510804e+00
1.721381238102912903e+01 1.239768007770180702e+01 2.364760748669510804e+00
1.634577038884162903e+01 1.226901796832680702e+01 2.281020514294510804e+00
1.626654675602912903e+01 1.251108339801430702e+01 2.301543585583573304e+00
1.520966199040412903e+01 1.226035097613930702e+01 2.189971319958573304e+00
1.542157605290412903e+01 1.264304140582680702e+01 2.249160162732010804e+00
1.530634167790412903e+01 1.286008242145180702e+01 2.264067999646073304e+00
1.550946667790412903e+01 1.325156191363930702e+01 2.323516241833573304e+00
1.510614636540412903e+01 1.331198671832680702e+01 2.298842779919510804e+00
1.504096081852912903e+01 1.398605898395180702e+01 2.169127814099198304e+00
1.565009167790412903e+01 1.229843691363930702e+01 2.142669073864823304e+00
1.556439831852912903e+01 1.253610781207680702e+01 2.163085333630448304e+00
1.503949597477912903e+01 1.254697206988930702e+01 2.124999396130448304e+00
1.507648327946662903e+01 1.284702089801430702e+01 2.161483160778885804e+00
1.539044812321662903e+01 1.330075624957680702e+01 2.235671393200760804e+00
1.521832898259162903e+01 1.349497011676430702e+01 2.244841925427323304e+00
1.510089734196662903e+01 1.371994570270180702e+01 2.262130133435135804e+00
1.498444226384162903e+01 1.394479921832680702e+01 2.278838507458573304e+00
1.564215710759162903e+01 1.228586367145180702e+01 2.257933966442948304e+00
1.528095105290412903e+01 1.238437441363930702e+01 2.240493170544510804e+00
1.527179577946662903e+01 1.265903261676430702e+01 2.271300665661698304e+00
1.513995984196662903e+01 1.287228945270180702e+01 2.285521857067948304e+00
1.532135632634162903e+01 1.325473574176430702e+01 2.343520514294510804e+00
1.521259167790412903e+01 1.348337343707680702e+01 2.361297003552323304e+00
1.517694714665412903e+01 1.375510195270180702e+01 2.389708868786698304e+00
1.499725964665412903e+01 1.394394472613930702e+01 2.398040167614823304e+00
1.593146374821662903e+01 1.496652773395180702e+01 2.097609869763260804e+00
1.660382702946662903e+01 1.569528749957680702e+01 2.216796271130448304e+00
1.566510632634162903e+01 1.298654726520180702e+01 1.987899176403885804e+00
1.514691784977912903e+01 1.300424746051430702e+01 1.956176153942948304e+00
1.520844128727912903e+01 1.332748964801430702e+01 1.995910040661698304e+00
1.544940808415412903e+01 1.375668886676430702e+01 2.058806769177323304e+00
1.542365124821662903e+01 1.404233339801430702e+01 2.088805548474198304e+00
1.548578503727912903e+01 1.438217714801430702e+01 2.130416266247635804e+00
1.586823132634162903e+01 1.491965273395180702e+01 2.214324347302323304e+00
1.606854870915412903e+01 1.535873964801430702e+01 2.276412359997635804e+00
1.526715710759162903e+01 1.277109316363930702e+01 2.056929938122635804e+00
1.517621472477912903e+01 1.301083925738930702e+01 2.077880255505448304e+00
1.572809460759162903e+01 1.360129335895180702e+01 2.182052008435135804e+00
1.535687878727912903e+01 1.369601992145180702e+01 2.167617193982010804e+00
1.495868542790412903e+01 1.376816347613930702e+01 2.148772589489823304e+00
1.654169324040412903e+01 1.498947695270180702e+01 2.394210211560135804e+00
1.601276257634162903e+01 1.499680117145180702e+01 2.359176031872635804e+00
1.660858777165412903e+01 1.567941835895180702e+01 2.476775519177323304e+00
1.524103406071662903e+01 1.274863222613930702e+01 2.171431891247635804e+00
1.747638562321662903e+01 1.422287539020180702e+01 2.502181402966385804e+00
1.563446667790412903e+01 1.354123476520180702e+01 2.290541998669510804e+00
1.519586804509162903e+01 1.359750917926430702e+01 2.265532843396073304e+00
1.504901745915412903e+01 1.381088808551430702e+01 2.279616705700760804e+00
1.484027722477912903e+01 1.398776796832680702e+01 2.285033575817948304e+00
1.597577527165412903e+01 1.496555117145180702e+01 2.480117193982010804e+00
1.661102917790412903e+01 1.567148378863930702e+01 2.607222906872635804e+00
1.544501355290412903e+01 1.284531191363930702e+01 2.317229620739823304e+00
1.503827527165412903e+01 1.291989687457680702e+01 2.294509283825760804e+00
1.509015515446662903e+01 1.323642519488930702e+01 2.335708014294510804e+00
1.528815320134162903e+01 1.363998964801430702e+01 2.398253790661698304e+00
1.506842663884162903e+01 1.381308535113930702e+01 2.401961676403885804e+00
1.477521374821662903e+01 1.394101503863930702e+01 2.394774786755448304e+00
1.718256238102912903e+01 1.567612246051430702e+01 2.781722418591385804e+00
1.657990124821662903e+01 1.577768496051430702e+01 2.312209479138260804e+00
1.650238659977912903e+01 1.606711367145180702e+01 2.339415900036698304e+00
1.085883191227912903e+01 1.280759218707680702e+01 1.630828253552323304e+00
1.513068249821662903e+01 1.335544374957680702e+01 2.076766363903885804e+00
1.561310437321662903e+01 1.392209414020180702e+01 2.172515265271073304e+00
1.512396863102912903e+01 1.395200136676430702e+01 2.143706671521073304e+00
1.544733288884162903e+01 1.444687441363930702e+01 2.220885626599198304e+00
1.636994031071662903e+01 1.531015566363930702e+01 2.379104010388260804e+00
1.658209851384162903e+01 1.576938417926430702e+01 2.444945685192948304e+00
1.650458386540412903e+01 1.605893496051430702e+01 2.472533575817948304e+00
1.087543347477912903e+01 1.281088808551430702e+01 1.735198370739823304e+00
1.512445691227912903e+01 1.334287050738930702e+01 2.196868292614823304e+00
1.512946179509162903e+01 1.364401796832680702e+01 2.231963507458573304e+00
1.514264538884162903e+01 1.395358828082680702e+01 2.267928473278885804e+00
1.657489636540412903e+01 1.509396914020180702e+01 2.499419562146073304e+00
1.587848523259162903e+01 1.500790956988930702e+01 2.440886847302323304e+00
1.658441784977912903e+01 1.576108339801430702e+01 2.577041022107010804e+00
1.650678113102912903e+01 1.605075624957680702e+01 2.605727545544510804e+00
1.089215710759162903e+01 1.281418398395180702e+01 1.840346686169510804e+00
1.511823132634162903e+01 1.333041933551430702e+01 2.316954962536698304e+00
1.522284558415412903e+01 1.368686464801430702e+01 2.365996710583573304e+00
1.517914441227912903e+01 1.396518496051430702e+01 2.395552984997635804e+00
1.619794324040412903e+01 1.486508730426430702e+01 2.576690069958573304e+00
1.702350476384162903e+01 1.568002871051430702e+01 2.733596197888260804e+00
1.658661511540412903e+01 1.575278261676430702e+01 2.709914557263260804e+00
1.090900281071662903e+01 1.281747988238930702e+01 1.945739142224198304e+00
9.448919802904129028e+00 1.253073671832680702e+01 1.390899054333573304e+00
1.507929089665412903e+01 1.400803164020180702e+01 1.991073004528885804e+00
1.617511609196662903e+01 1.495566347613930702e+01 2.161376349255448304e+00
1.619818738102912903e+01 1.529843691363930702e+01 2.200942389294510804e+00
1.655988171696662903e+01 1.585300234332680702e+01 2.284316412732010804e+00
1.648114636540412903e+01 1.614670351520180702e+01 2.312331549450760804e+00
1.061395886540412903e+01 1.275925234332680702e+01 1.584792486950760804e+00
1.002374890446662903e+01 1.264352968707680702e+01 1.536651007458573304e+00
9.464178591966629028e+00 1.253366640582680702e+01 1.491561285778885804e+00
1.657916882634162903e+01 1.485019472613930702e+01 2.307235113903885804e+00
1.685053113102912903e+01 1.533823183551430702e+01 2.380080572888260804e+00
1.665155652165412903e+01 1.555808046832680702e+01 2.392440192028885804e+00
1.656207898259162903e+01 1.584445742145180702e+01 2.419371954724198304e+00
1.648346570134162903e+01 1.613815859332680702e+01 2.447799078747635804e+00
1.063129284977912903e+01 1.276267031207680702e+01 1.690963141247635804e+00
1.003998425602912903e+01 1.264670351520180702e+01 1.640105597302323304e+00
9.479437381029129028e+00 1.253671816363930702e+01 1.591903082653885804e+00
1.502094128727912903e+01 1.395615175738930702e+01 2.231429449841385804e+00
1.617682507634162903e+01 1.493698671832680702e+01 2.423705450817948304e+00
1.662933972477912903e+01 1.553488710895180702e+01 2.523146979138260804e+00
1.656439831852912903e+01 1.583591249957680702e+01 2.553786627575760804e+00
1.648566296696662903e+01 1.612961367145180702e+01 2.582640997692948304e+00
1.064862683415412903e+01 1.276608828082680702e+01 1.796798102185135804e+00
1.005621960759162903e+01 1.264987734332680702e+01 1.743789068982010804e+00
9.494696170091629028e+00 1.253964785113930702e+01 1.693007818982010804e+00
1.497589734196662903e+01 1.392111757770180702e+01 2.349334112927323304e+00
1.612494519352912903e+01 1.489694765582680702e+01 2.546843878552323304e+00
1.669550183415412903e+01 1.556406191363930702e+01 2.666930548474198304e+00
1.656671765446662903e+01 1.582724550738930702e+01 2.688994757458573304e+00
1.649103406071662903e+01 1.612289980426430702e+01 2.718703619763260804e+00
1.066608288884162903e+01 1.276950624957680702e+01 1.903441778942948304e+00
1.007245495915412903e+01 1.265305117145180702e+01 1.847136847302323304e+00
9.510077029466629028e+00 1.254269960895180702e+01 1.794310919567948304e+00
1.654486706852912903e+01 1.590915468707680702e+01 2.240172735974198304e+00
1.105585339665412903e+01 1.285092714801430702e+01 1.584304205700760804e+00
1.041193249821662903e+01 1.271945742145180702e+01 1.533034674450760804e+00
9.813787966966629028e+00 1.260202578082680702e+01 1.485930792614823304e+00
9.244696170091629028e+00 1.249045351520180702e+01 1.441130987927323304e+00
8.700750857591629028e+00 1.238364199176430702e+01 1.398314825817948304e+00
8.193426638841629028e+00 1.228891542926430702e+01 1.359420172497635804e+00
1.622406628727912903e+01 1.536484316363930702e+01 2.296126715466385804e+00
1.654730847477912903e+01 1.590012148395180702e+01 2.377486578747635804e+00
1.107721570134162903e+01 1.285593203082680702e+01 1.695113531872635804e+00
1.043024304509162903e+01 1.272299746051430702e+01 1.640639654919510804e+00
9.830999881029129028e+00 1.260544374957680702e+01 1.590819708630448304e+00
9.260809451341629028e+00 1.249362734332680702e+01 1.543410651013260804e+00
8.715887576341629028e+00 1.238669374957680702e+01 1.498107306286698304e+00
8.206732302904129028e+00 1.229099062457680702e+01 1.456267706677323304e+00
1.663397839665412903e+01 1.559714296832680702e+01 2.485625616833573304e+00
1.654974988102912903e+01 1.589096621051430702e+01 2.514876715466385804e+00
1.109857800602912903e+01 1.286093691363930702e+01 1.805617682263260804e+00
1.044843152165412903e+01 1.272653749957680702e+01 1.747908942028885804e+00
9.848089724779129028e+00 1.260886171832680702e+01 1.695357672497635804e+00
9.276922732591629028e+00 1.249680117145180702e+01 1.645369879528885804e+00
8.731268435716629028e+00 1.238962343707680702e+01 1.598113409802323304e+00
8.220160037279129028e+00 1.229318789020180702e+01 1.553817145153885804e+00
1.663678601384162903e+01 1.558823183551430702e+01 2.622710577771073304e+00
1.655219128727912903e+01 1.588193300738930702e+01 2.651595465466385804e+00
1.647211316227912903e+01 1.618051699176430702e+01 2.682143561169510804e+00
1.046686413884162903e+01 1.273019960895180702e+01 1.856002203747635804e+00
9.865423709154129028e+00 1.261215761676430702e+01 1.800689093396073304e+00
9.293158084154129028e+00 1.249997499957680702e+01 1.748076788708573304e+00
8.746405154466629028e+00 1.239267519488930702e+01 1.697799078747635804e+00
8.233587771654129028e+00 1.229526308551430702e+01 1.651549689099198304e+00
1.030512097477912903e+01 1.269821718707680702e+01 1.624343268200760804e+00
9.693548709154129028e+00 1.257822206988930702e+01 1.575148932263260804e+00
9.109564334154129028e+00 1.246372011676430702e+01 1.528182379528885804e+00
8.555243045091629028e+00 1.235495546832680702e+01 1.483580939099198304e+00
8.049627810716629028e+00 1.226706484332680702e+01 1.444289557263260804e+00
7.354437381029129028e+00 1.203537539020180702e+01 1.376937262341385804e+00
6.712591677904129028e+00 1.182358339801430702e+01 1.315017096325760804e+00
1.097565320134162903e+01 1.283200624957680702e+01 1.789473883435135804e+00
1.032538464665412903e+01 1.270224550738930702e+01 1.734053961560135804e+00
9.712469607591629028e+00 1.258200624957680702e+01 1.681502692028885804e+00
9.127386599779129028e+00 1.246713808551430702e+01 1.631896368786698304e+00
8.571966677904129028e+00 1.235825136676430702e+01 1.584807745739823304e+00
8.074041873216629028e+00 1.227609804645180702e+01 1.544494025036698304e+00
7.374701052904129028e+00 1.204196718707680702e+01 1.473815314099198304e+00
6.731268435716629028e+00 1.182980898395180702e+01 1.408706061169510804e+00
1.099933484196662903e+01 1.283749941363930702e+01 1.902724615857010804e+00
1.034564831852912903e+01 1.270615175738930702e+01 1.843444220349198304e+00
9.731512576341629028e+00 1.258566835895180702e+01 1.788680426403885804e+00
9.145330935716629028e+00 1.247067812457680702e+01 1.736403815075760804e+00
8.588934451341629028e+00 1.236154726520180702e+01 1.686782233044510804e+00
8.098700076341629028e+00 1.228525331988930702e+01 1.645552984997635804e+00
7.394842654466629028e+00 1.204868105426430702e+01 1.570449225232010804e+00
6.749945193529129028e+00 1.183591249957680702e+01 1.502639166638260804e+00
6.497259646654129028e+00 1.175229433551430702e+01 1.282592169567948304e+00
5.880194216966629028e+00 1.154880312457680702e+01 1.224837652966385804e+00
5.317450076341629028e+00 1.136948183551430702e+01 1.172957770153885804e+00
9.613592654466629028e+00 1.256235292926430702e+01 1.654448859021073304e+00
9.017645388841629028e+00 1.244540956988930702e+01 1.605971686169510804e+00
8.449896365404129028e+00 1.233395937457680702e+01 1.559234015271073304e+00
7.877752810716629028e+00 1.220773867145180702e+01 1.510924689099198304e+00
7.175238162279129028e+00 1.197592714801430702e+01 1.441878668591385804e+00
6.517767459154129028e+00 1.175913027301430702e+01 1.377272955700760804e+00
5.899359256029129028e+00 1.155515078082680702e+01 1.316985480114823304e+00
5.333807498216629028e+00 1.137424257770180702e+01 1.262099615857010804e+00
9.634588748216629028e+00 1.256638124957680702e+01 1.763579718396073304e+00
9.037420779466629028e+00 1.244931581988930702e+01 1.711837164685135804e+00
8.468573123216629028e+00 1.233762148395180702e+01 1.663100592419510804e+00
7.901922732591629028e+00 1.221567324176430702e+01 1.613143317028885804e+00
7.197577029466629028e+00 1.198337343707680702e+01 1.540603033825760804e+00
6.538519412279129028e+00 1.176596621051430702e+01 1.472731940075760804e+00
5.918524295091629028e+00 1.156137636676430702e+01 1.408873907849198304e+00
5.350164920091629028e+00 1.137900331988930702e+01 1.351470343396073304e+00
4.646917849779129028e+00 1.117062929645180702e+01 1.105529181286698304e+00
4.182440310716629028e+00 1.104623964801430702e+01 1.066588751599198304e+00
8.400335818529129028e+00 1.232407167926430702e+01 1.543258063122635804e+00
7.791204959154129028e+00 1.217893007770180702e+01 1.491744391247635804e+00
7.067816287279129028e+00 1.194040468707680702e+01 1.421523443982010804e+00
6.389105349779129028e+00 1.171652773395180702e+01 1.356139532849198304e+00
5.755072146654129028e+00 1.150729921832680702e+01 1.295058600232010804e+00
5.158758670091629028e+00 1.131039980426430702e+01 1.237563483044510804e+00
4.662420779466629028e+00 1.117477968707680702e+01 1.193831793591385804e+00
4.197088748216629028e+00 1.105014589801430702e+01 1.152709357067948304e+00
8.420233279466629028e+00 1.232797792926430702e+01 1.649291388317948304e+00
7.816961795091629028e+00 1.218747499957680702e+01 1.595473639294510804e+00
7.091742068529129028e+00 1.194821718707680702e+01 1.522216193005448304e+00
6.411322146654129028e+00 1.172372988238930702e+01 1.453460089489823304e+00
5.775702029466629028e+00 1.151413515582680702e+01 1.389251105114823304e+00
5.176825076341629028e+00 1.131589296832680702e+01 1.328658453747635804e+00
4.677923709154129028e+00 1.117893007770180702e+01 1.281890265271073304e+00
4.211737185716629028e+00 1.105405214801430702e+01 1.239043585583573304e+00
5.608343631029129028e+00 1.145871523395180702e+01 1.272399298474198304e+00
5.010565310716629028e+00 1.126779726520180702e+01 1.215911261364823304e+00
4.508856326341629028e+00 1.113339785113930702e+01 1.171782843396073304e+00
4.031317263841629028e+00 1.100559023395180702e+01 1.129790655896073304e+00
3.574896365404129028e+00 1.088339785113930702e+01 1.090102545544510804e+00
3.140936404466629028e+00 1.076730898395180702e+01 1.051925055310135804e+00
6.976873904466629028e+00 1.191013124957680702e+01 1.504210821911698304e+00
6.280951052904129028e+00 1.168051699176430702e+01 1.433745734021073304e+00
5.628729373216629028e+00 1.146542910113930702e+01 1.368209234997635804e+00
5.027044802904129028e+00 1.127219179645180702e+01 1.308425299450760804e+00
4.524359256029129028e+00 1.113754824176430702e+01 1.261962286755448304e+00
4.045965701341629028e+00 1.100949648395180702e+01 1.217742316052323304e+00
3.588690310716629028e+00 1.088705996051430702e+01 1.175460211560135804e+00
3.153997927904129028e+00 1.077072695270180702e+01 1.135726324841385804e+00
5.452215701341629028e+00 1.140805605426430702e+01 1.209075323864823304e+00
4.862982302904129028e+00 1.122800234332680702e+01 1.156325690075760804e+00
4.349676638841629028e+00 1.109067324176430702e+01 1.112349859997635804e+00
3.859564334154129028e+00 1.095944765582680702e+01 1.070830694958573304e+00
3.393988162279129028e+00 1.083481386676430702e+01 1.031386725232010804e+00
2.949896365404129028e+00 1.071591738238930702e+01 9.937738101929483037e-01
2.525213748216629028e+00 1.060263613238930702e+01 9.582818668335733037e-01
2.120916873216629028e+00 1.049509218707680702e+01 9.241174381226358037e-01
5.471502810716629028e+00 1.141367128863930702e+01 1.306166998669510804e+00
4.879950076341629028e+00 1.123264101520180702e+01 1.249984137341385804e+00
4.365789920091629028e+00 1.109494570270180702e+01 1.204131476208573304e+00
3.874701052904129028e+00 1.096347597613930702e+01 1.160338751599198304e+00
3.408270388841629028e+00 1.083859804645180702e+01 1.118758551403885804e+00
2.963446170091629028e+00 1.071945742145180702e+01 1.079085699841385804e+00
2.537054568529129028e+00 1.060532167926430702e+01 1.041076056286698304e+00
2.132757693529129028e+00 1.049826601520180702e+01 1.005584112927323304e+00
3.217352420091629028e+00 1.078732851520180702e+01 9.067681949585733037e-01
2.762030154466629028e+00 1.066538027301430702e+01 8.715203922241983037e-01
2.338934451341629028e+00 1.055783632770180702e+01 8.394921939820108037e-01
1.918402224779129028e+00 1.044211367145180702e+01 8.065332096070108037e-01
1.524847537279129028e+00 1.033945253863930702e+01 7.764123599976358037e-01
1.148748904466629028e+00 1.024143007770180702e+01 7.476190250366983037e-01
4.208807498216629028e+00 1.105270937457680702e+01 1.075560919567948304e+00
3.708929568529129028e+00 1.091892031207680702e+01 1.034652106091385804e+00
3.232367068529129028e+00 1.079135683551430702e+01 9.951928775757608037e-01
2.776190310716629028e+00 1.066916445270180702e+01 9.578851383179483037e-01
2.353216677904129028e+00 1.056210878863930702e+01 9.240716617554483037e-01
1.930975466966629028e+00 1.044540956988930702e+01 8.890527408570108037e-01
1.536810427904129028e+00 1.034262636676430702e+01 8.575891178101358037e-01
1.160101443529129028e+00 1.024435976520180702e+01 8.270867984741983037e-01
4.225897341966629028e+00 1.105722597613930702e+01 1.169127814099198304e+00
3.724920779466629028e+00 1.092319277301430702e+01 1.125441901013260804e+00
3.247503787279129028e+00 1.079538515582680702e+01 1.084288946911698304e+00
2.790472537279129028e+00 1.067307070270180702e+01 1.044890753552323304e+00
2.367132693529129028e+00 1.056601503863930702e+01 1.009215704724198304e+00
1.943548709154129028e+00 1.044870546832680702e+01 9.721826236695108037e-01
1.548651248216629028e+00 1.034567812457680702e+01 9.384912174195108037e-01
1.171331912279129028e+00 1.024728945270180702e+01 9.067224185913858037e-01
2.686468631029129028e+00 1.064499453082680702e+01 1.044112555310135804e+00
2.244085818529129028e+00 1.052927187457680702e+01 1.007293097302323304e+00
1.815374881029129028e+00 1.041501406207680702e+01 9.713281314820108037e-01
1.410589724779129028e+00 1.030942324176430702e+01 9.376672428101358037e-01
1.022284060716629028e+00 1.020822695270180702e+01 9.053949039429483037e-01
6.485047638416290283e-01 1.011069277301430702e+01 8.743127506226358037e-01
2.908387482166290283e-01 1.001743105426430702e+01 8.449853580445108037e-01
-5.505919158458709717e-01 9.801610741764307022e+00 7.152856510132608037e-01
2.157782107591629028e+00 1.050412539020180702e+01 1.012450568005448304e+00
1.722357302904129028e+00 1.039059999957680702e+01 9.763940494507608037e-01
1.305120974779129028e+00 1.028183535113930702e+01 9.422906558960733037e-01
9.037537872791290283e-01 1.017709902301430702e+01 9.094995182007608037e-01
5.198426544666290283e-01 1.007700136676430702e+01 8.781274478882608037e-01
1.510682404041290283e-01 9.980809960514307022e+00 8.479913394898233037e-01
-2.046446502208709717e-01 9.888036523014307022e+00 8.189233463257608037e-01
-5.403380095958709717e-01 9.803930077701807022e+00 7.923425357788858037e-01
-7.124571502208709717e-01 9.764257226139307022e+00 6.686395328491983037e-01
-1.020074337720870972e+00 9.704931054264307022e+00 6.488641422241983037e-01
-1.317071408033370972e+00 9.647802148014307022e+00 6.293786685913858037e-01
1.185492068529129028e+00 1.025046328082680702e+01 8.956292789429483037e-01
7.746033966541290283e-01 1.014328554645180702e+01 8.627771060913858037e-01
3.803162872791290283e-01 1.004038027301430702e+01 8.316949527710733037e-01
