2.145615118741989136e+01 4.855930075049400330e+00 1.139318599924450837e+00
2.167490118741989136e+01 5.082248434424400330e+00 1.169744625315075837e+00
2.233139532804489136e+01 5.364108785986900330e+00 1.227834835276013337e+00
2.461081427335739136e+01 6.338596090674400330e+00 1.428640499338513337e+00
2.145493048429489136e+01 4.848483785986900330e+00 1.231969967111950837e+00
2.165219610929489136e+01 5.072604879736900330e+00 1.262090816721325837e+00
2.230746954679489136e+01 5.353854879736900330e+00 1.323232784494763337e+00
2.145456427335739136e+01 4.841159567236900330e+00 1.324728145822888337e+00
2.166000860929489136e+01 5.066135153174400330e+00 1.356451168283825837e+00
1.751840704679489136e+01 5.333469137549400330e+00 4.424497034400758366e-01
1.798471564054489136e+01 5.572482809424400330e+00 4.709836389869508366e-01
1.842062872648239136e+01 5.816623434424400330e+00 4.988614466041383366e-01
1.902853888273239136e+01 6.101901754736900330e+00 5.335141565650758366e-01
1.960165899991989136e+01 6.393039450049400330e+00 5.678922083228883366e-01
2.066806524991989136e+01 6.795993551611900330e+00 6.211911585182008366e-01
2.196933478116989136e+01 7.272067770361900330e+00 6.850339319557008366e-01
2.348654669523239136e+01 7.823093160986900330e+00 7.586118128150758366e-01
2.337057989835739136e+01 6.202609762549400330e+00 7.347775842994508366e-01
2.376266974210739136e+01 6.489230856299400330e+00 7.670194055885133366e-01
2.578488653898239136e+01 7.061618551611900330e+00 8.636075403541383366e-01
4.417282599210739136e+01 1.062497304379940033e+01 1.609686031565075837e+00
2.776071661710739136e+01 7.940402731299400330e+00 9.822446253150758366e-01
2.765378302335739136e+01 8.191623434424400330e+00 9.989835169166383366e-01
2.823520392179489136e+01 8.587985739111900330e+00 1.043905391916638337e+00
5.862021368741989136e+01 1.559823964536190033e+01 2.362966671213513337e+00
2.461447638273239136e+01 6.380466207861900330e+00 8.890744592994508366e-01
2.511032599210739136e+01 6.696140035986900330e+00 9.287320520728883366e-01
2.576254767179489136e+01 7.049411520361900330e+00 9.760342981666383366e-01
4.361765021085739136e+01 1.051059316098690033e+01 1.784200802072888337e+00
2.776205939054489136e+01 7.931735739111900330e+00 1.105322017893200837e+00
2.764255255460739136e+01 8.180637106299400330e+00 1.121236934885388337e+00
2.821616095304489136e+01 8.575046285986900330e+00 1.169408931955700837e+00
2.461154669523239136e+01 6.371921285986900330e+00 9.965573694557008366e-01
2.508884161710739136e+01 6.684543356299400330e+00 1.038427486643200837e+00
2.573996466398239136e+01 7.037204489111900330e+00 1.088903560861950837e+00
4.443076056241989136e+01 1.064206288754940033e+01 2.021520748361950837e+00
2.776364630460739136e+01 7.923068746924400330e+00 1.229162349924450837e+00
2.763376349210739136e+01 8.170016989111900330e+00 1.244238033518200837e+00
2.819711798429489136e+01 8.561984762549400330e+00 1.294790401682263337e+00
2.880368536710739136e+01 8.975436910986900330e+00 1.347860470041638337e+00
2.461081427335739136e+01 6.363742575049400330e+00 1.104757442697888337e+00
2.506747931241989136e+01 6.672946676611900330e+00 1.147405758127575837e+00
2.571750372648239136e+01 7.024997457861900330e+00 1.201040401682263337e+00
4.430539435148239136e+01 1.060495351254940033e+01 2.215276851877575837e+00
2.776913946866989136e+01 7.915256246924400330e+00 1.352651729807263337e+00
2.762509649991989136e+01 8.159396871924400330e+00 1.366567745432263337e+00
2.817819708585739136e+01 8.549045309424400330e+00 1.419424190744763337e+00
2.878390997648239136e+01 8.961887106299400330e+00 1.476202144846325837e+00
2.461057013273239136e+01 6.355563864111900330e+00 1.212469234690075837e+00
2.504599493741989136e+01 6.661349996924400330e+00 1.256826534494763337e+00
2.569504278898239136e+01 7.012912496924400330e+00 1.313650264963513337e+00
2.777475470304489136e+01 7.907321676611900330e+00 1.476919307932263337e+00
2.761667364835739136e+01 8.148898825049400330e+00 1.489568844065075837e+00
2.815915411710739136e+01 8.536105856299400330e+00 1.544622555002575837e+00
2.876425665616989136e+01 8.948581442236900330e+00 1.603750362619763337e+00
2.461032599210739136e+01 6.347385153174400330e+00 1.320821895822888337e+00
2.502475470304489136e+01 6.649753317236900330e+00 1.365545406565075837e+00
2.567270392179489136e+01 7.000705465674400330e+00 1.425497188791638337e+00
2.778146857023239136e+01 7.899631246924400330e+00 1.600729122385388337e+00
2.761923712491989136e+01 8.140598043799400330e+00 1.612615719065075837e+00
2.461008185148239136e+01 6.339328512549400330e+00 1.428655758127575837e+00
2.500339239835739136e+01 6.638278707861900330e+00 1.474126949533825837e+00
2.567661017179489136e+01 6.993015035986900330e+00 1.539571895822888337e+00
2.349643439054489136e+01 7.826144918799400330e+00 7.590543176978883366e-01
2.889267462491989136e+01 9.311252340674400330e+00 9.859982874244508366e-01
3.059909552335739136e+01 1.001486562192440033e+01 1.074834957346325837e+00
3.055881232023239136e+01 1.031442616879940033e+01 1.096044674143200837e+00
3.109360235929489136e+01 1.076559804379940033e+01 1.140874996408825837e+00
5.580624884366989136e+01 1.787045644223690033e+01 2.200048580393200837e+00
3.288876837491989136e+01 1.191525624692440033e+01 1.264516964182263337e+00
3.320798224210739136e+01 1.234982655942440033e+01 1.302648678049450837e+00
5.861142462491989136e+01 1.559836171567440033e+01 2.362768306955700837e+00
5.801547735929489136e+01 1.605832265317440033e+01 2.381628170236950837e+00
3.060190314054489136e+01 1.000595448911190033e+01 1.213354244455700837e+00
3.054269903898239136e+01 1.030087636411190033e+01 1.233892574533825837e+00
3.107712286710739136e+01 1.075168202817440033e+01 1.281606807932263337e+00
5.659738653898239136e+01 1.807004140317440033e+01 2.496618404611950837e+00
3.290134161710739136e+01 1.190890859067440033e+01 1.415136471018200837e+00
3.321213263273239136e+01 1.234103749692440033e+01 1.455602779611950837e+00
5.939023321866989136e+01 1.635812734067440033e+01 2.715398922190075837e+00
3.060483282804489136e+01 9.997165426611900330e+00 1.351263180002575837e+00
3.052670782804489136e+01 1.028744862973690033e+01 1.370947017893200837e+00
3.106064337491989136e+01 1.073776601254940033e+01 1.421514644846325837e+00
5.753000372648239136e+01 1.830807851254940033e+01 2.806753292307263337e+00
5.742978399991989136e+01 1.888412831723690033e+01 2.847479000315075837e+00
3.321628302335739136e+01 1.233224843442440033e+01 1.608678951486950837e+00
2.880807989835739136e+01 8.977390035986900330e+00 1.348180904611950837e+00
3.060764044523239136e+01 9.988254293799400330e+00 1.490011348947888337e+00
3.051071661710739136e+01 1.027389882504940033e+01 1.508657589182263337e+00
3.104404181241989136e+01 1.072384999692440033e+01 1.562109127268200837e+00
5.942477911710739136e+01 1.880868886411190033e+01 3.181417598947888337e+00
5.923019903898239136e+01 1.937839101254940033e+01 3.218572750315075837e+00
3.322043341398239136e+01 1.232345937192440033e+01 1.761098995432263337e+00
2.878830450773239136e+01 8.963962301611900330e+00 1.476537838205700837e+00
3.061423224210739136e+01 9.980319723486900330e+00 1.628347530588513337e+00
3.049472540616989136e+01 1.026047109067440033e+01 1.645574703440075837e+00
3.102768439054489136e+01 1.071005605161190033e+01 1.701879635080700837e+00
2.876865118741989136e+01 8.950534567236900330e+00 1.604101314768200837e+00
3.337765997648239136e+01 1.233969472348690033e+01 2.231191768869763337e+00
3.337216681241989136e+01 1.232797597348690033e+01 2.384084835276013337e+00
3.337473028898239136e+01 1.231857655942440033e+01 2.538488521799450837e+00
3.285995978116989136e+01 1.181723378598690033e+01 2.618734493479138337e+00
3.288718146085739136e+01 1.216550038754940033e+01 2.649755611643200837e+00
3.285922735929489136e+01 1.180685780942440033e+01 2.770177974924450837e+00
3.288644903898239136e+01 1.215524648129940033e+01 2.801733150705700837e+00
3.285837286710739136e+01 1.179672597348690033e+01 2.920889034494763337e+00
3.288559454679489136e+01 1.214511464536190033e+01 2.952993526682263337e+00
3.285751837491989136e+01 1.178634999692440033e+01 3.072500362619763337e+00
3.288486212491989136e+01 1.213486073911190033e+01 3.105138912424450837e+00
3.320639532804489136e+01 1.235055898129940033e+01 1.302663936838513337e+00
3.321677130460739136e+01 1.269919179379940033e+01 1.328390255197888337e+00
3.372324103116989136e+01 1.320810292661190033e+01 1.375814571604138337e+00
4.060800665616989136e+01 1.583017323911190033e+01 1.716558590158825837e+00
5.368967169523239136e+01 2.071286366879940033e+01 2.356954708322888337e+00
3.558286017179489136e+01 1.493710683286190033e+01 1.540090694651013337e+00
3.573239630460739136e+01 1.537643788754940033e+01 1.574560299143200837e+00
3.621030157804489136e+01 1.594333241879940033e+01 1.624532833322888337e+00
3.321054571866989136e+01 1.234176991879940033e+01 1.455618038401013337e+00
3.320248907804489136e+01 1.268490956723690033e+01 1.480184688791638337e+00
3.370859259366989136e+01 1.319345448911190033e+01 1.531362667307263337e+00
5.500546759366989136e+01 2.055026601254940033e+01 2.636098995432263337e+00
5.458505743741989136e+01 2.100107167661190033e+01 2.657339229807263337e+00
3.558859747648239136e+01 1.492868398129940033e+01 1.707342281565075837e+00
3.571994513273239136e+01 1.536166737973690033e+01 1.741262569651013337e+00
3.619748419523239136e+01 1.592819570004940033e+01 1.795019283518200837e+00
3.321481817960739136e+01 1.233298085629940033e+01 1.608694210276013337e+00
3.318820685148239136e+01 1.267062734067440033e+01 1.632757320627575837e+00
3.369406622648239136e+01 1.317892812192440033e+01 1.686041012033825837e+00
5.779416388273239136e+01 2.144955800473690033e+01 3.049413814768200837e+00
5.816061896085739136e+01 2.219858144223690033e+01 3.116079464182263337e+00
3.560214728116989136e+01 1.492306874692440033e+01 1.874288692697888337e+00
5.791867560148239136e+01 2.338339589536190033e+01 3.195867672190075837e+00
5.781650274991989136e+01 2.398410390317440033e+01 3.236944332346325837e+00
3.321896857023239136e+01 1.232419179379940033e+01 1.761098995432263337e+00
3.317404669523239136e+01 1.265622304379940033e+01 1.785284176096325837e+00
3.373166388273239136e+01 1.318075917661190033e+01 1.844610347971325837e+00
5.985141485929489136e+01 2.210715077817440033e+01 3.447179928049450837e+00
5.966623419523239136e+01 2.269186757504940033e+01 3.484548702463513337e+00
5.956870001554489136e+01 2.330759023129940033e+01 3.527364864572888337e+00
5.924252814054489136e+01 2.384506581723690033e+01 3.556142940744763337e+00
5.911862677335739136e+01 2.445285390317440033e+01 3.595922603830700837e+00
7.093027228116989136e+01 2.804965566098690033e+01 4.629827633127575837e+00
6.277682989835739136e+01 2.579831288754940033e+01 4.130926265940075837e+00
6.265219610929489136e+01 2.573373769223690033e+01 4.422460689768200837e+00
3.337961310148239136e+01 1.234140370786190033e+01 2.231435909494763337e+00
3.652121466398239136e+01 1.559909413754940033e+01 2.644079342111950837e+00
3.647238653898239136e+01 1.597848866879940033e+01 2.671911373361950837e+00
3.337277716398239136e+01 1.232931874692440033e+01 2.384222164377575837e+00
3.652255743741989136e+01 1.558896230161190033e+01 2.816030636057263337e+00
3.647360724210739136e+01 1.596860097348690033e+01 2.844213619455700837e+00
3.337436407804489136e+01 1.231967519223690033e+01 2.538564815744763337e+00
3.652377814054489136e+01 1.557883046567440033e+01 2.989004268869763337e+00
3.647495001554489136e+01 1.595859120786190033e+01 3.017553463205700837e+00
3.288766974210739136e+01 1.216684316098690033e+01 2.649892940744763337e+00
3.652512091398239136e+01 1.556869862973690033e+01 3.161184444651013337e+00
3.647617071866989136e+01 1.594858144223690033e+01 3.190084591135388337e+00
3.288693732023239136e+01 1.215658925473690033e+01 2.801885738596325837e+00
3.288608282804489136e+01 1.214645741879940033e+01 2.953146114572888337e+00
3.288535040616989136e+01 1.213620351254940033e+01 3.105291500315075837e+00
3.566794317960739136e+01 1.516574452817440033e+01 3.157262935861950837e+00
6.206528204679489136e+01 2.558005116879940033e+01 4.105932369455700837e+00
6.207138556241989136e+01 2.628976796567440033e+01 4.165090694651013337e+00
6.207260626554489136e+01 2.700314687192440033e+01 4.224340572580700837e+00
5.328073614835739136e+01 2.418161366879940033e+01 3.649313106760388337e+00
5.375290411710739136e+01 2.499911855161190033e+01 3.734029903635388337e+00
3.592270392179489136e+01 1.511984609067440033e+01 2.400655880197888337e+00
3.651865118741989136e+01 1.573703359067440033e+01 2.478567257151013337e+00
6.218539923429489136e+01 2.631222890317440033e+01 4.479375972971325837e+00
6.182211798429489136e+01 2.688449452817440033e+01 4.512151851877575837e+00
5.399850958585739136e+01 2.445297597348690033e+01 3.969305172190075837e+00
3.615610235929489136e+01 1.518820546567440033e+01 2.594167843088513337e+00
3.650583380460739136e+01 1.571994374692440033e+01 2.657583370432263337e+00
3.619785040616989136e+01 1.519015859067440033e+01 2.775243892893200837e+00
3.650742071866989136e+01 1.570810292661190033e+01 2.836797847971325837e+00
3.650888556241989136e+01 1.569626210629940033e+01 3.016149654611950837e+00
3.651047247648239136e+01 1.568429921567440033e+01 3.196554317697888337e+00
5.293076056241989136e+01 2.506369374692440033e+01 3.037420406565075837e+00
5.366782110929489136e+01 2.601254628598690033e+01 3.133352413401013337e+00
5.865756720304489136e+01 2.336984609067440033e+01 3.344686641916638337e+00
5.837717169523239136e+01 2.393405507504940033e+01 3.382818355783825837e+00
5.832907599210739136e+01 2.458383534848690033e+01 3.435384884104138337e+00
5.382846564054489136e+01 2.352634023129940033e+01 3.205801143869763337e+00
5.369565314054489136e+01 2.409994862973690033e+01 3.249349727854138337e+00
5.385092657804489136e+01 2.479281972348690033e+01 3.311910763010388337e+00
5.288058966398239136e+01 2.502414296567440033e+01 3.300634517893200837e+00
5.359787482023239136e+01 2.596371816098690033e+01 3.401388302072888337e+00
6.046237677335739136e+01 2.398166249692440033e+01 3.751104488596325837e+00
6.070639532804489136e+01 2.475583241879940033e+01 3.827184810861950837e+00
6.191574591398239136e+01 2.590134023129940033e+01 3.967718258127575837e+00
5.463791388273239136e+01 2.381857655942440033e+01 3.530538692697888337e+00
5.369821661710739136e+01 2.408188222348690033e+01 3.519292965158825837e+00
5.374399298429489136e+01 2.473031972348690033e+01 3.575994625315075837e+00
5.281076544523239136e+01 2.497641347348690033e+01 3.563512935861950837e+00
7.292441290616989136e+01 3.427572987973690033e+01 5.070684566721325837e+00
7.093369024991989136e+01 2.843112538754940033e+01 4.856557979807263337e+00
6.169455450773239136e+01 2.579684804379940033e+01 4.258276119455700837e+00
6.257944220304489136e+01 2.685031484067440033e+01 4.384969845041638337e+00
5.398373907804489136e+01 2.417599843442440033e+01 3.808996334299450837e+00
5.383847540616989136e+01 2.474997304379940033e+01 3.852895870432263337e+00
5.394186896085739136e+01 2.543185780942440033e+01 3.916097774729138337e+00
3.652780646085739136e+01 1.554989980161190033e+01 2.727941646799450837e+00
3.647641485929489136e+01 1.594931386411190033e+01 2.761404171213513337e+00
3.801877325773239136e+01 1.828036855161190033e+01 3.046331539377575837e+00
3.652939337491989136e+01 1.553720448911190033e+01 2.909292354807263337e+00
3.647800177335739136e+01 1.593674062192440033e+01 2.943212642893200837e+00
3.805417364835739136e+01 1.828134511411190033e+01 3.241766109690075837e+00
3.653110235929489136e+01 1.552450917661190033e+01 3.091711178049450837e+00
3.647958868741989136e+01 1.592404530942440033e+01 3.126104488596325837e+00
3.775217169523239136e+01 1.768954823911190033e+01 1.795141353830700837e+00
3.789340704679489136e+01 1.819723866879940033e+01 1.838796749338513337e+00
3.830161017179489136e+01 1.882101796567440033e+01 1.897787227854138337e+00
5.324667853116989136e+01 2.565634511411190033e+01 2.782079830393200837e+00
5.535922735929489136e+01 2.722775624692440033e+01 2.955297603830700837e+00
5.495383185148239136e+01 2.771921132504940033e+01 2.983739986643200837e+00
5.497433966398239136e+01 2.313278554379940033e+01 2.895879879221325837e+00
5.391623419523239136e+01 2.336813710629940033e+01 2.886495723947888337e+00
5.325766485929489136e+01 2.374081777036190033e+01 2.899084224924450837e+00
5.270224493741989136e+01 2.414718984067440033e+01 2.917196407541638337e+00
5.281308478116989136e+01 2.481979726254940033e+01 2.974966182932263337e+00
5.253879278898239136e+01 2.533591054379940033e+01 3.009603634104138337e+00
5.720419806241989136e+01 2.801608632504940033e+01 3.353765621408825837e+00
5.726840704679489136e+01 2.874093984067440033e+01 3.414526119455700837e+00
5.817624396085739136e+01 2.429135487973690033e+01 3.368139400705700837e+00
5.455612677335739136e+01 2.359140370786190033e+01 3.198293819651013337e+00
5.334555548429489136e+01 2.375607655942440033e+01 3.174139156565075837e+00
5.360080450773239136e+01 2.448984120786190033e+01 3.243185177072888337e+00
5.270444220304489136e+01 2.475595448911190033e+01 3.237295284494763337e+00
5.857687872648239136e+01 2.788766835629940033e+01 3.681478634104138337e+00
5.875143927335739136e+01 2.867282460629940033e+01 3.752279415354138337e+00
6.073019903898239136e+01 2.520932362973690033e+01 3.830160274729138337e+00
5.457516974210739136e+01 2.357907460629940033e+01 3.472982540354138337e+00
5.427768439054489136e+01 2.410092519223690033e+01 3.506765499338513337e+00
3.829929083585739136e+01 1.831943105161190033e+01 2.447897091135388337e+00
5.333017462491989136e+01 2.499594472348690033e+01 3.549154415354138337e+00
7.271335333585739136e+01 3.387973378598690033e+01 4.992559566721325837e+00
7.234177130460739136e+01 3.459372304379940033e+01 5.040044918283825837e+00
4.015268439054489136e+01 2.101401112973690033e+01 2.742712154611950837e+00
6.278415411710739136e+01 2.594186757504940033e+01 4.279882564768200837e+00
6.205624884366989136e+01 2.639218495786190033e+01 4.289968624338513337e+00
5.409970587491989136e+01 2.401181386411190033e+01 3.768407955393200837e+00
3.829245489835739136e+01 1.830270741879940033e+01 2.643896236643200837e+00
5.396530646085739136e+01 2.523935292661190033e+01 3.869527950510388337e+00
4.016147345304489136e+01 2.100375722348690033e+01 2.951467647776013337e+00
6.262009161710739136e+01 2.658310292661190033e+01 4.645818844065075837e+00
3.829367560148239136e+01 1.828940175473690033e+01 2.839513912424450837e+00
4.017026251554489136e+01 2.099350331723690033e+01 3.161550655588513337e+00
3.830075567960739136e+01 1.827853749692440033e+01 3.035741939768200837e+00
6.661545294523239136e+01 3.197311757504940033e+01 6.327489986643200837e+00
6.670358771085739136e+01 3.282126210629940033e+01 6.412084713205700837e+00
6.650070685148239136e+01 3.189950917661190033e+01 6.658025875315075837e+00
6.722653692960739136e+01 3.303146718442440033e+01 6.810659542307263337e+00
6.614267462491989136e+01 3.252377675473690033e+01 7.037710323557263337e+00
6.674765509366989136e+01 3.195993398129940033e+01 7.366262569651013337e+00
6.740170782804489136e+01 3.306247304379940033e+01 7.523061886057263337e+00
6.824362677335739136e+01 3.341440175473690033e+01 7.969793453440075837e+00
6.725314825773239136e+01 3.294882558286190033e+01 8.199514522776013337e+00
5.969199103116989136e+01 3.042941640317440033e+01 3.883825435861950837e+00
6.312277716398239136e+01 3.278366445004940033e+01 4.185369625315075837e+00
5.340341681241989136e+01 2.364560292661190033e+01 3.399480953440075837e+00
3.831699103116989136e+01 1.827145741879940033e+01 2.411337032541638337e+00
5.315915411710739136e+01 2.481759999692440033e+01 3.491338863596325837e+00
7.213742560148239136e+01 3.346091054379940033e+01 4.894018306955700837e+00
7.242795294523239136e+01 3.445737050473690033e+01 4.988531246408825837e+00
4.017941778898239136e+01 2.098251698911190033e+01 2.707494869455700837e+00
6.187619513273239136e+01 2.689987538754940033e+01 4.290609493479138337e+00
5.330441778898239136e+01 2.422030995786190033e+01 3.719320430979138337e+00
5.388681524991989136e+01 2.509653066098690033e+01 3.818075313791638337e+00
7.281247442960739136e+01 3.459823964536190033e+01 5.389028682932263337e+00
4.018832892179489136e+01 2.097214101254940033e+01 2.918737545236950837e+00
6.935727423429489136e+01 3.480307362973690033e+01 5.269689693674450837e+00
6.269138067960739136e+01 2.719223378598690033e+01 4.666937008127575837e+00
5.333554571866989136e+01 2.421347402036190033e+01 3.993612423166638337e+00
4.019724005460739136e+01 2.096164296567440033e+01 3.130178585276013337e+00
6.930954474210739136e+01 3.475693105161190033e+01 5.624487056955700837e+00
6.660373419523239136e+01 3.434848378598690033e+01 5.469701900705700837e+00
6.594528692960739136e+01 3.401669667661190033e+01 5.758688106760388337e+00
6.922897833585739136e+01 3.381711171567440033e+01 6.257970943674450837e+00
6.857870978116989136e+01 3.437497304379940033e+01 6.275137081369763337e+00
6.852353399991989136e+01 3.520004628598690033e+01 6.348043575510388337e+00
6.703464239835739136e+01 3.281967519223690033e+01 6.399557247385388337e+00
6.867856329679489136e+01 3.439621327817440033e+01 6.642324581369763337e+00
6.513901251554489136e+01 3.359335683286190033e+01 6.366491451486950837e+00
6.631784552335739136e+01 3.247824452817440033e+01 6.673605098947888337e+00
6.560190314054489136e+01 3.297177480161190033e+01 6.677145138010388337e+00
6.632370489835739136e+01 3.412411855161190033e+01 6.831213131174450837e+00
6.673874396085739136e+01 3.182651112973690033e+01 6.982610836252575837e+00
6.621152228116989136e+01 3.240768788754940033e+01 7.004842891916638337e+00
6.650558966398239136e+01 3.335959218442440033e+01 7.116720333322888337e+00
6.609958380460739136e+01 3.399606679379940033e+01 7.154089107736950837e+00
6.641245001554489136e+01 3.247299550473690033e+01 7.371832027658825837e+00
6.568356817960739136e+01 3.296249745786190033e+01 7.369772091135388337e+00
6.551218146085739136e+01 3.369870351254940033e+01 7.430929317697888337e+00
6.724631232023239136e+01 3.281821034848690033e+01 7.814108028635388337e+00
6.489658087491989136e+01 3.258188222348690033e+01 7.617010250315075837e+00
6.557565802335739136e+01 3.370517323911190033e+01 7.782446041330700837e+00
6.739072149991989136e+01 3.285812734067440033e+01 8.181722774729138337e+00
6.556406134366989136e+01 3.286178945004940033e+01 8.039617672190075837e+00
6.621432989835739136e+01 3.229989980161190033e+01 6.855169430002575837e+00
6.650119513273239136e+01 3.324887441098690033e+01 6.966390743479138337e+00
6.507101935148239136e+01 3.341611073911190033e+01 6.893118038401013337e+00
6.646616095304489136e+01 3.490341542661190033e+01 7.126760616526013337e+00
2.044418829679489136e+01 1.328207753598690033e+01 2.116171016916638337e+00
6.643405646085739136e+01 3.237204335629940033e+01 7.225744381174450837e+00
6.571994513273239136e+01 3.287204335629940033e+01 7.227987423166638337e+00
6.586996954679489136e+01 3.376266835629940033e+01 7.327245846018200837e+00
6.627597540616989136e+01 3.478891347348690033e+01 7.457250728830700837e+00
1.986874884366989136e+01 1.299350331723690033e+01 2.165762081369763337e+00
6.661008185148239136e+01 3.242514394223690033e+01 7.591772213205700837e+00
6.568967169523239136e+01 3.283456777036190033e+01 7.568029537424450837e+00
6.546384161710739136e+01 3.355063222348690033e+01 7.625051632151013337e+00
6.609335821866989136e+01 3.467819570004940033e+01 7.784979000315075837e+00
1.944772833585739136e+01 1.278049062192440033e+01 2.228765621408825837e+00
6.489987677335739136e+01 3.245468495786190033e+01 7.816839351877575837e+00
6.530820196866989136e+01 3.345480702817440033e+01 7.951666012033825837e+00
1.998679083585739136e+01 1.276205800473690033e+01 2.379552974924450837e+00
1.945920294523239136e+01 1.277853749692440033e+01 2.341451778635388337e+00
6.688852423429489136e+01 3.332626698911190033e+01 8.409856930002575837e+00
6.529001349210739136e+01 3.342270253598690033e+01 8.292699947580700837e+00
2.000632208585739136e+01 1.276340077817440033e+01 2.496236934885388337e+00
1.947067755460739136e+01 1.277658437192440033e+01 2.454916134104138337e+00
2.002805060148239136e+01 1.276596425473690033e+01 2.612844600901013337e+00
1.989084357023239136e+01 1.297323964536190033e+01 2.624303951486950837e+00
6.678928107023239136e+01 3.327743886411190033e+01 7.311163082346325837e+00
6.593320196866989136e+01 3.372397206723690033e+01 7.300085201486950837e+00
6.540927618741989136e+01 3.431186269223690033e+01 7.325231685861950837e+00
2.024802130460739136e+01 1.324057362973690033e+01 2.211401119455700837e+00
1.902621954679489136e+01 1.291879628598690033e+01 2.098257198557263337e+00
1.902487677335739136e+01 1.319064687192440033e+01 2.125753536447888337e+00
6.663168829679489136e+01 3.235348866879940033e+01 7.558080806955700837e+00
6.677121466398239136e+01 3.324435780942440033e+01 7.660055294260388337e+00
6.551364630460739136e+01 3.350632070004940033e+01 7.599035396799450837e+00
6.584360235929489136e+01 3.449277089536190033e+01 7.724249019846325837e+00
1.943576544523239136e+01 1.283871816098690033e+01 2.231466427072888337e+00
1.898581427335739136e+01 1.289096425473690033e+01 2.205343380197888337e+00
1.890170782804489136e+01 1.312009023129940033e+01 2.223760738596325837e+00
6.684079474210739136e+01 3.325046132504940033e+01 8.021459713205700837e+00
6.531393927335739136e+01 3.338998769223690033e+01 7.922735347971325837e+00
1.996982306241989136e+01 1.281039784848690033e+01 2.383215084299450837e+00
1.944748419523239136e+01 1.283652089536190033e+01 2.347173824533825837e+00
1.935788458585739136e+01 1.306808827817440033e+01 2.364935055002575837e+00
1.832053107023239136e+01 1.281637929379940033e+01 2.261327877268200837e+00
6.496506232023239136e+01 3.238620351254940033e+01 8.135595455393200837e+00
6.524228399991989136e+01 3.333261464536190033e+01 8.259069576486950837e+00
1.998959845304489136e+01 1.281174062192440033e+01 2.501638546213513337e+00
1.986032599210739136e+01 1.302841542661190033e+01 2.514761104807263337e+00
1.931003302335739136e+01 1.303647206723690033e+01 2.473058834299450837e+00
1.831308478116989136e+01 1.280514882504940033e+01 2.369909420236950837e+00
2.023117560148239136e+01 1.263779042661190033e+01 2.620077266916638337e+00
2.001157110929489136e+01 1.281381581723690033e+01 2.621191158518200837e+00
1.903915899991989136e+01 1.262314198911190033e+01 2.519888057932263337e+00
1.951157110929489136e+01 1.312863515317440033e+01 2.614294185861950837e+00
1.830551642179489136e+01 1.279379628598690033e+01 2.478460445627575837e+00
1.892807501554489136e+01 1.322665761411190033e+01 2.207311763986950837e+00
1.822739142179489136e+01 1.314279530942440033e+01 2.150533809885388337e+00
1.797849005460739136e+01 1.328390859067440033e+01 2.148580684885388337e+00
6.565329474210739136e+01 3.271640370786190033e+01 7.777197017893200837e+00
6.534909552335739136e+01 3.340573476254940033e+01 7.827474727854138337e+00
1.994333380460739136e+01 1.287192128598690033e+01 2.360052242502575837e+00
1.980014532804489136e+01 1.308810780942440033e+01 2.372335567697888337e+00
1.935605353116989136e+01 1.315353749692440033e+01 2.346853389963513337e+00
1.830087774991989136e+01 1.290036366879940033e+01 2.243337764963513337e+00
1.821115607023239136e+01 1.312680409848690033e+01 2.260610714182263337e+00
1.798544806241989136e+01 1.328024648129940033e+01 2.260290279611950837e+00
6.549838751554489136e+01 3.262265370786190033e+01 8.107305660471325837e+00
6.528720587491989136e+01 3.335275624692440033e+01 8.169302120432263337e+00
1.976816290616989136e+01 1.278134511411190033e+01 2.455831661447888337e+00
1.983432501554489136e+01 1.309640859067440033e+01 2.494711055979138337e+00
1.894675177335739136e+01 1.294296620786190033e+01 2.409872188791638337e+00
1.887704962491989136e+01 1.318515370786190033e+01 2.430471554026013337e+00
1.831772345304489136e+01 1.317465566098690033e+01 2.386877193674450837e+00
1.792526739835739136e+01 1.324069570004940033e+01 2.363714351877575837e+00
2.018600958585739136e+01 1.268490956723690033e+01 2.598028316721325837e+00
1.902292364835739136e+01 1.269699452817440033e+01 2.504873409494763337e+00
1.896774786710739136e+01 1.294540761411190033e+01 2.527547970041638337e+00
1.780124396085739136e+01 1.263180898129940033e+01 2.398534908518200837e+00
1.800912970304489136e+01 1.300668691098690033e+01 2.456396236643200837e+00
1.790036505460739136e+01 1.321994374692440033e+01 2.471441402658825837e+00
1.883200567960739136e+01 1.298373769223690033e+01 2.274786129221325837e+00
1.825961798429489136e+01 1.297641347348690033e+01 2.233358516916638337e+00
1.818881720304489136e+01 1.321738027036190033e+01 2.253973140940075837e+00
1.791257208585739136e+01 1.334982655942440033e+01 2.248449459299450837e+00
1.783334845304489136e+01 1.358664296567440033e+01 2.268026485666638337e+00
1.838486212491989136e+01 1.417551015317440033e+01 2.369878902658825837e+00
1.993771857023239136e+01 1.293930409848690033e+01 2.470571651682263337e+00
1.934311407804489136e+01 1.294272206723690033e+01 2.426244869455700837e+00
1.890915411710739136e+01 1.301364491879940033e+01 2.400701656565075837e+00
1.786227911710739136e+01 1.276730702817440033e+01 2.295278682932263337e+00
1.817245978116989136e+01 1.320102284848690033e+01 2.365667476877575837e+00
1.785385626554489136e+01 1.331088612973690033e+01 2.353674068674450837e+00
1.808310431241989136e+01 1.371506093442440033e+01 2.415395870432263337e+00
1.777475470304489136e+01 1.382724355161190033e+01 2.404394283518200837e+00
1.987790411710739136e+01 1.290268300473690033e+01 2.583837642893200837e+00
1.900986212491989136e+01 1.277402089536190033e+01 2.500097408518200837e+00
1.893063849210739136e+01 1.301608632504940033e+01 2.520620479807263337e+00
1.787375372648239136e+01 1.276535390317440033e+01 2.409048214182263337e+00
1.808566778898239136e+01 1.314804433286190033e+01 2.468237056955700837e+00
1.797043341398239136e+01 1.336508534848690033e+01 2.483144893869763337e+00
1.817355841398239136e+01 1.375656484067440033e+01 2.542593136057263337e+00
1.777023810148239136e+01 1.381698964536190033e+01 2.517919674143200837e+00
1.770505255460739136e+01 1.449106191098690033e+01 2.388204708322888337e+00
1.831418341398239136e+01 1.280343984067440033e+01 2.361745968088513337e+00
1.822849005460739136e+01 1.304111073911190033e+01 2.382162227854138337e+00
1.770358771085739136e+01 1.305197499692440033e+01 2.344076290354138337e+00
1.774057501554489136e+01 1.335202382504940033e+01 2.380560055002575837e+00
1.805453985929489136e+01 1.380575917661190033e+01 2.454748287424450837e+00
1.788242071866989136e+01 1.399997304379940033e+01 2.463918819651013337e+00
1.776498907804489136e+01 1.422494862973690033e+01 2.481207027658825837e+00
1.764853399991989136e+01 1.444980214536190033e+01 2.497915401682263337e+00
1.830624884366989136e+01 1.279086659848690033e+01 2.477010860666638337e+00
1.794504278898239136e+01 1.288937734067440033e+01 2.459570064768200837e+00
1.793588751554489136e+01 1.316403554379940033e+01 2.490377559885388337e+00
1.780405157804489136e+01 1.337729237973690033e+01 2.504598751291638337e+00
1.798544806241989136e+01 1.375973866879940033e+01 2.562597408518200837e+00
1.787668341398239136e+01 1.398837636411190033e+01 2.580373897776013337e+00
1.784103888273239136e+01 1.426010487973690033e+01 2.608785763010388337e+00
1.766135138273239136e+01 1.444894765317440033e+01 2.617117061838513337e+00
1.859555548429489136e+01 1.547153066098690033e+01 2.316686763986950837e+00
1.926791876554489136e+01 1.620029042661190033e+01 2.435873165354138337e+00
1.832919806241989136e+01 1.349155019223690033e+01 2.206976070627575837e+00
1.781100958585739136e+01 1.350925038754940033e+01 2.175253048166638337e+00
1.787253302335739136e+01 1.383249257504940033e+01 2.214986934885388337e+00
1.811349982023239136e+01 1.426169179379940033e+01 2.277883663401013337e+00
1.808774298429489136e+01 1.454733632504940033e+01 2.307882442697888337e+00
1.814987677335739136e+01 1.488718007504940033e+01 2.349493160471325837e+00
1.853232306241989136e+01 1.542465566098690033e+01 2.433401241526013337e+00
1.873264044523239136e+01 1.586374257504940033e+01 2.495489254221325837e+00
1.793124884366989136e+01 1.327609609067440033e+01 2.276006832346325837e+00
1.784030646085739136e+01 1.351584218442440033e+01 2.296957149729138337e+00
1.839218634366989136e+01 1.410629628598690033e+01 2.401128902658825837e+00
1.802097052335739136e+01 1.420102284848690033e+01 2.386694088205700837e+00
1.762277716398239136e+01 1.427316640317440033e+01 2.367849483713513337e+00
1.920578497648239136e+01 1.549447987973690033e+01 2.613287105783825837e+00
1.867685431241989136e+01 1.550180409848690033e+01 2.578252926096325837e+00
1.927267950773239136e+01 1.618442128598690033e+01 2.695852413401013337e+00
1.790512579679489136e+01 1.325363515317440033e+01 2.390508785471325837e+00
2.014047735929489136e+01 1.472787831723690033e+01 2.721258297190075837e+00
1.829855841398239136e+01 1.404623769223690033e+01 2.509618892893200837e+00
1.785995978116989136e+01 1.410251210629940033e+01 2.484609737619763337e+00
1.771310919523239136e+01 1.431589101254940033e+01 2.498693599924450837e+00
1.750436896085739136e+01 1.449277089536190033e+01 2.504110470041638337e+00
1.863986700773239136e+01 1.547055409848690033e+01 2.699194088205700837e+00
1.927512091398239136e+01 1.617648671567440033e+01 2.826299801096325837e+00
1.810910528898239136e+01 1.335031484067440033e+01 2.536306514963513337e+00
1.770236700773239136e+01 1.342489980161190033e+01 2.513586178049450837e+00
1.775424689054489136e+01 1.374142812192440033e+01 2.554784908518200837e+00
1.795224493741989136e+01 1.414499257504940033e+01 2.617330684885388337e+00
1.773251837491989136e+01 1.431808827817440033e+01 2.621038570627575837e+00
1.743930548429489136e+01 1.444601796567440033e+01 2.613851680979138337e+00
1.984665411710739136e+01 1.618112538754940033e+01 3.000799312815075837e+00
1.924399298429489136e+01 1.628268788754940033e+01 2.531286373361950837e+00
1.916647833585739136e+01 1.657211659848690033e+01 2.558492794260388337e+00
1.352292364835739136e+01 1.331259511411190033e+01 1.849905147776013337e+00
1.779477423429489136e+01 1.386044667661190033e+01 2.295843258127575837e+00
1.827719610929489136e+01 1.442709706723690033e+01 2.391592159494763337e+00
1.778806036710739136e+01 1.445700429379940033e+01 2.362783565744763337e+00
1.811142462491989136e+01 1.495187734067440033e+01 2.439962520822888337e+00
1.903403204679489136e+01 1.581515859067440033e+01 2.598180904611950837e+00
1.924619024991989136e+01 1.627438710629940033e+01 2.664022579416638337e+00
1.916867560148239136e+01 1.656393788754940033e+01 2.691610470041638337e+00
1.353952521085739136e+01 1.331589101254940033e+01 1.954275264963513337e+00
1.778854864835739136e+01 1.384787343442440033e+01 2.415945186838513337e+00
1.779355353116989136e+01 1.414902089536190033e+01 2.451040401682263337e+00
1.780673712491989136e+01 1.445859120786190033e+01 2.487005367502575837e+00
1.923898810148239136e+01 1.559897206723690033e+01 2.718496456369763337e+00
1.854257696866989136e+01 1.551291249692440033e+01 2.659963741526013337e+00
1.924850958585739136e+01 1.626608632504940033e+01 2.796117916330700837e+00
1.917087286710739136e+01 1.655575917661190033e+01 2.824804439768200837e+00
1.355624884366989136e+01 1.331918691098690033e+01 2.059423580393200837e+00
1.778232306241989136e+01 1.383542226254940033e+01 2.536031856760388337e+00
1.788693732023239136e+01 1.419186757504940033e+01 2.585073604807263337e+00
1.784323614835739136e+01 1.447018788754940033e+01 2.614629879221325837e+00
1.886203497648239136e+01 1.537009023129940033e+01 2.795766964182263337e+00
1.968759649991989136e+01 1.618503163754940033e+01 2.952673092111950837e+00
1.925070685148239136e+01 1.625778554379940033e+01 2.928991451486950837e+00
1.357309454679489136e+01 1.332248280942440033e+01 2.164816036447888337e+00
1.211301153898239136e+01 1.303573964536190033e+01 1.609975948557263337e+00
1.774338263273239136e+01 1.451303456723690033e+01 2.210149898752575837e+00
1.883920782804489136e+01 1.546066640317440033e+01 2.380453243479138337e+00
1.886227911710739136e+01 1.580343984067440033e+01 2.420019283518200837e+00
1.922397345304489136e+01 1.635800527036190033e+01 2.503393306955700837e+00
1.914523810148239136e+01 1.665170644223690033e+01 2.531408443674450837e+00
1.327805060148239136e+01 1.326425527036190033e+01 1.803869381174450837e+00
1.268784064054489136e+01 1.314853261411190033e+01 1.755727901682263337e+00
1.212827032804489136e+01 1.303866933286190033e+01 1.710638180002575837e+00
1.924326056241989136e+01 1.535519765317440033e+01 2.526312008127575837e+00
1.951462286710739136e+01 1.584323476254940033e+01 2.599157467111950837e+00
1.931564825773239136e+01 1.606308339536190033e+01 2.611517086252575837e+00
1.922617071866989136e+01 1.634946034848690033e+01 2.638448848947888337e+00
1.914755743741989136e+01 1.664316152036190033e+01 2.666875972971325837e+00
1.329538458585739136e+01 1.326767323911190033e+01 1.910040035471325837e+00
1.270407599210739136e+01 1.315170644223690033e+01 1.859182491526013337e+00
1.214352911710739136e+01 1.304172109067440033e+01 1.810979976877575837e+00
1.768503302335739136e+01 1.446115468442440033e+01 2.450506344065075837e+00
1.884091681241989136e+01 1.544198964536190033e+01 2.642782345041638337e+00
1.929343146085739136e+01 1.603989003598690033e+01 2.742223873361950837e+00
1.922849005460739136e+01 1.634091542661190033e+01 2.772863521799450837e+00
1.914975470304489136e+01 1.663461659848690033e+01 2.801717891916638337e+00
1.331271857023239136e+01 1.327109120786190033e+01 2.015874996408825837e+00
1.272031134366989136e+01 1.315488027036190033e+01 1.962865963205700837e+00
1.215878790616989136e+01 1.304465077817440033e+01 1.912084713205700837e+00
1.763998907804489136e+01 1.442612050473690033e+01 2.568411007151013337e+00
1.878903692960739136e+01 1.540195058286190033e+01 2.765920772776013337e+00
1.935959357023239136e+01 1.606906484067440033e+01 2.886007442697888337e+00
1.923080939054489136e+01 1.633224843442440033e+01 2.908071651682263337e+00
1.915512579679489136e+01 1.662790273129940033e+01 2.937780513986950837e+00
1.333017462491989136e+01 1.327450917661190033e+01 2.122518673166638337e+00
1.273654669523239136e+01 1.315805409848690033e+01 2.066213741526013337e+00
1.217416876554489136e+01 1.304770253598690033e+01 2.013387813791638337e+00
1.920895880460739136e+01 1.641415761411190033e+01 2.459249630197888337e+00
1.371994513273239136e+01 1.335593007504940033e+01 1.803381099924450837e+00
1.307602423429489136e+01 1.322446034848690033e+01 1.752111568674450837e+00
1.247787970304489136e+01 1.310702870786190033e+01 1.705007686838513337e+00
1.190878790616989136e+01 1.299545644223690033e+01 1.660207882151013337e+00
1.136484259366989136e+01 1.288864491879940033e+01 1.617391720041638337e+00
1.085751837491989136e+01 1.279391835629940033e+01 1.578497066721325837e+00
1.888815802335739136e+01 1.586984609067440033e+01 2.515203609690075837e+00
1.921140021085739136e+01 1.640512441098690033e+01 2.596563472971325837e+00
1.374130743741989136e+01 1.336093495786190033e+01 1.914190426096325837e+00
1.309433478116989136e+01 1.322800038754940033e+01 1.859716549143200837e+00
1.249509161710739136e+01 1.311044667661190033e+01 1.809896602854138337e+00
1.192490118741989136e+01 1.299863027036190033e+01 1.762487545236950837e+00
1.137997931241989136e+01 1.289169667661190033e+01 1.717184200510388337e+00
1.087082403898239136e+01 1.279599355161190033e+01 1.675344600901013337e+00
1.929807013273239136e+01 1.610214589536190033e+01 2.704702511057263337e+00
1.921384161710739136e+01 1.639596913754940033e+01 2.733953609690075837e+00
1.376266974210739136e+01 1.336593984067440033e+01 2.024694576486950837e+00
1.311252325773239136e+01 1.323154042661190033e+01 1.966985836252575837e+00
1.251218146085739136e+01 1.311386464536190033e+01 1.914434566721325837e+00
1.194101446866989136e+01 1.300180409848690033e+01 1.864446773752575837e+00
1.139536017179489136e+01 1.289462636411190033e+01 1.817190304026013337e+00
1.088425177335739136e+01 1.279819081723690033e+01 1.772894039377575837e+00
1.930087774991989136e+01 1.609323476254940033e+01 2.841787471994763337e+00
1.921628302335739136e+01 1.638693593442440033e+01 2.870672359690075837e+00
1.913620489835739136e+01 1.668551991879940033e+01 2.901220455393200837e+00
1.313095587491989136e+01 1.323520253598690033e+01 2.075079097971325837e+00
1.252951544523239136e+01 1.311716054379940033e+01 2.019765987619763337e+00
1.195724982023239136e+01 1.300497792661190033e+01 1.967153682932263337e+00
1.141049689054489136e+01 1.289767812192440033e+01 1.916875972971325837e+00
1.089767950773239136e+01 1.280026601254940033e+01 1.870626583322888337e+00
1.296921271085739136e+01 1.320322011411190033e+01 1.843420162424450837e+00
1.235764044523239136e+01 1.308322499692440033e+01 1.794225826486950837e+00
1.177365607023239136e+01 1.296872304379940033e+01 1.747259273752575837e+00
1.121933478116989136e+01 1.285995839536190033e+01 1.702657833322888337e+00
1.071371954679489136e+01 1.277206777036190033e+01 1.663366451486950837e+00
1.001852911710739136e+01 1.254037831723690033e+01 1.596014156565075837e+00
9.376683413982391357e+00 1.232858632504940033e+01 1.534093990549450837e+00
1.363974493741989136e+01 1.333700917661190033e+01 2.008550777658825837e+00
1.298947638273239136e+01 1.320724843442440033e+01 1.953130855783825837e+00
1.237656134366989136e+01 1.308700917661190033e+01 1.900579586252575837e+00
1.179147833585739136e+01 1.297214101254940033e+01 1.850973263010388337e+00
1.123605841398239136e+01 1.286325429379940033e+01 1.803884639963513337e+00
1.073813360929489136e+01 1.278110097348690033e+01 1.763570919260388337e+00
1.003879278898239136e+01 1.254697011411190033e+01 1.692892208322888337e+00
9.395360171794891357e+00 1.233481191098690033e+01 1.627782955393200837e+00
1.366342657804489136e+01 1.334250234067440033e+01 2.121801510080700837e+00
1.300974005460739136e+01 1.321115468442440033e+01 2.062521114572888337e+00
1.239560431241989136e+01 1.309067128598690033e+01 2.007757320627575837e+00
1.180942267179489136e+01 1.297568105161190033e+01 1.955480709299450837e+00
1.125302618741989136e+01 1.286655019223690033e+01 1.905859127268200837e+00
1.076279181241989136e+01 1.279025624692440033e+01 1.864629879221325837e+00
1.005893439054489136e+01 1.255368398129940033e+01 1.789526119455700837e+00
9.414036929607391357e+00 1.234091542661190033e+01 1.721716060861950837e+00
9.161351382732391357e+00 1.225729726254940033e+01 1.501669063791638337e+00
8.544285953044891357e+00 1.205380605161190033e+01 1.443914547190075837e+00
7.981541812419891357e+00 1.187448476254940033e+01 1.392034664377575837e+00
1.227768439054489136e+01 1.306735585629940033e+01 1.873525753244763337e+00
1.168173712491989136e+01 1.295041249692440033e+01 1.825048580393200837e+00
1.111398810148239136e+01 1.283896230161190033e+01 1.778310909494763337e+00
1.054184454679489136e+01 1.271274159848690033e+01 1.730001583322888337e+00
9.839329898357391357e+00 1.248093007504940033e+01 1.660955562815075837e+00
9.181859195232391357e+00 1.226413320004940033e+01 1.596349849924450837e+00
8.563450992107391357e+00 1.206015370786190033e+01 1.536062374338513337e+00
7.997899234294891357e+00 1.187924550473690033e+01 1.481176510080700837e+00
1.229868048429489136e+01 1.307138417661190033e+01 1.982656612619763337e+00
1.170151251554489136e+01 1.295431874692440033e+01 1.930914058908825837e+00
1.113266485929489136e+01 1.284262441098690033e+01 1.882177486643200837e+00
1.056601446866989136e+01 1.272067616879940033e+01 1.832220211252575837e+00
9.861668765544891357e+00 1.248837636411190033e+01 1.759679928049450837e+00
9.202611148357391357e+00 1.227096913754940033e+01 1.691808834299450837e+00
8.582616031169891357e+00 1.206637929379940033e+01 1.627950802072888337e+00
8.014256656169891357e+00 1.188400624692440033e+01 1.570547237619763337e+00
7.311009585857391357e+00 1.167563222348690033e+01 1.324606075510388337e+00
6.846532046794891357e+00 1.155124257504940033e+01 1.285665645822888337e+00
1.106442755460739136e+01 1.282907460629940033e+01 1.762334957346325837e+00
1.045529669523239136e+01 1.268393300473690033e+01 1.710821285471325837e+00
9.731908023357391357e+00 1.244540761411190033e+01 1.640600338205700837e+00
9.053197085857391357e+00 1.222153066098690033e+01 1.575216427072888337e+00
8.419163882732391357e+00 1.201230214536190033e+01 1.514135494455700837e+00
7.822850406169891357e+00 1.181540273129940033e+01 1.456640377268200837e+00
7.326512515544891357e+00 1.167978261411190033e+01 1.412908687815075837e+00
6.861180484294891357e+00 1.155514882504940033e+01 1.371786251291638337e+00
1.108432501554489136e+01 1.283298085629940033e+01 1.868368282541638337e+00
1.048105353116989136e+01 1.269247792661190033e+01 1.814550533518200837e+00
9.755833804607391357e+00 1.245322011411190033e+01 1.741293087229138337e+00
9.075413882732391357e+00 1.222873280942440033e+01 1.672536983713513337e+00
8.439793765544891357e+00 1.201913808286190033e+01 1.608327999338513337e+00
7.840916812419891357e+00 1.182089589536190033e+01 1.547735347971325837e+00
7.342015445232391357e+00 1.168393300473690033e+01 1.500967159494763337e+00
6.875828921794891357e+00 1.155905507504940033e+01 1.458120479807263337e+00
8.272435367107391357e+00 1.196371816098690033e+01 1.491476192697888337e+00
7.674657046794891357e+00 1.177280019223690033e+01 1.434988155588513337e+00
7.172948062419891357e+00 1.163840077817440033e+01 1.390859737619763337e+00
6.695408999919891357e+00 1.151059316098690033e+01 1.348867550119763337e+00
6.238988101482391357e+00 1.138840077817440033e+01 1.309179439768200837e+00
5.805028140544891357e+00 1.127231191098690033e+01 1.271001949533825837e+00
9.640965640544891357e+00 1.241513417661190033e+01 1.723287716135388337e+00
8.945042788982391357e+00 1.218551991879940033e+01 1.652822628244763337e+00
8.292821109294891357e+00 1.197043202817440033e+01 1.587286129221325837e+00
7.691136538982391357e+00 1.177719472348690033e+01 1.527502193674450837e+00
7.188450992107391357e+00 1.164255116879940033e+01 1.481039180979138337e+00
6.710057437419891357e+00 1.151449941098690033e+01 1.436819210276013337e+00
6.252782046794891357e+00 1.139206288754940033e+01 1.394537105783825837e+00
5.818089663982391357e+00 1.127572987973690033e+01 1.354803219065075837e+00
8.116307437419891357e+00 1.191305898129940033e+01 1.428152218088513337e+00
7.527074038982391357e+00 1.173300527036190033e+01 1.375402584299450837e+00
7.013768374919891357e+00 1.159567616879940033e+01 1.331426754221325837e+00
6.523656070232391357e+00 1.146445058286190033e+01 1.289907589182263337e+00
6.058079898357391357e+00 1.133981679379940033e+01 1.250463619455700837e+00
5.613988101482391357e+00 1.122092030942440033e+01 1.212850704416638337e+00
5.189305484294891357e+00 1.110763905942440033e+01 1.177358761057263337e+00
4.785008609294891357e+00 1.100009511411190033e+01 1.143194332346325837e+00
8.135594546794891357e+00 1.191867421567440033e+01 1.525243892893200837e+00
7.544041812419891357e+00 1.173764394223690033e+01 1.469061031565075837e+00
7.029881656169891357e+00 1.159994862973690033e+01 1.423208370432263337e+00
6.538792788982391357e+00 1.146847890317440033e+01 1.379415645822888337e+00
6.072362124919891357e+00 1.134360097348690033e+01 1.337835445627575837e+00
5.627537906169891357e+00 1.122446034848690033e+01 1.298162594065075837e+00
5.201146304607391357e+00 1.111032460629940033e+01 1.260152950510388337e+00
4.796849429607391357e+00 1.100326894223690033e+01 1.224661007151013337e+00
5.881444156169891357e+00 1.129233144223690033e+01 1.125845089182263337e+00
5.426121890544891357e+00 1.117038320004940033e+01 1.090597286447888337e+00
5.003026187419891357e+00 1.106283925473690033e+01 1.058569088205700837e+00
4.582493960857391357e+00 1.094711659848690033e+01 1.025610103830700837e+00
4.188939273357391357e+00 1.084445546567440033e+01 9.954892542213258366e-01
3.812840640544891357e+00 1.074643300473690033e+01 9.666959192603883366e-01
6.872899234294891357e+00 1.155771230161190033e+01 1.294637813791638337e+00
6.373021304607391357e+00 1.142392323911190033e+01 1.253729000315075837e+00
5.896458804607391357e+00 1.129635976254940033e+01 1.214269771799450837e+00
5.440282046794891357e+00 1.117416737973690033e+01 1.176962032541638337e+00
5.017308413982391357e+00 1.106711171567440033e+01 1.143148555979138337e+00
