2.119567498564720154e+01 4.796536490321159363e+00 1.211004489660268746e+00
2.139294061064720154e+01 5.020657584071159363e+00 1.241125339269643746e+00
2.204821404814720154e+01 5.301907584071159363e+00 1.302267307043081246e+00
2.119530877470970154e+01 4.789212271571159363e+00 1.303762668371206246e+00
2.140075311064720154e+01 5.014187857508659363e+00 1.335485690832143746e+00
1.725915154814720154e+01 5.281521841883659363e+00 4.214842259883937459e-01
1.772546014189720154e+01 5.520535513758659363e+00 4.500181615352687459e-01
1.816137322783470154e+01 5.764676138758659363e+00 4.778959691524562459e-01
1.876928338408470154e+01 6.049954459071159363e+00 5.125486791133937459e-01
1.934240350127220154e+01 6.341092154383659363e+00 5.469267308712062459e-01
2.040880975127220154e+01 6.744046255946159363e+00 6.002256810665187459e-01
2.171007928252220154e+01 7.220120474696159363e+00 6.640684545040187459e-01
2.322729119658470154e+01 7.771145865321159363e+00 7.376463353633937459e-01
2.311132439970970154e+01 6.150662466883659363e+00 7.138121068477687459e-01
2.350341424345970154e+01 6.437283560633659363e+00 7.460539281368312459e-01
2.552563104033470154e+01 7.009671255946159363e+00 8.426420629024562459e-01
4.391357049345970154e+01 1.057302574813365936e+01 1.588720554113393746e+00
2.750146111845970154e+01 7.888455435633659363e+00 9.612791478633937459e-01
2.739452752470970154e+01 8.139676138758659363e+00 9.780180394649562459e-01
2.797594842314720154e+01 8.536038443446159363e+00 1.022939914464956246e+00
5.836095818877220154e+01 1.554629234969615936e+01 2.342001193761831246e+00
2.435522088408470154e+01 6.328518912196159363e+00 8.681089818477687459e-01
2.485107049345970154e+01 6.644192740321159363e+00 9.077665746212062459e-01
2.550329217314720154e+01 6.997464224696159363e+00 9.550688207149562459e-01
4.335839471220970154e+01 1.045864586532115936e+01 1.763235324621206246e+00
2.750280389189720154e+01 7.879788443446159363e+00 1.084356540441518746e+00
2.738329705595970154e+01 8.128689810633659363e+00 1.100271457433706246e+00
2.795690545439720154e+01 8.523098990321159363e+00 1.148443454504018746e+00
2.435229119658470154e+01 6.319973990321159363e+00 9.755918920040187459e-01
2.482958611845970154e+01 6.632596060633659363e+00 1.017462009191518746e+00
2.548070916533470154e+01 6.985257193446159363e+00 1.067938083410268746e+00
4.417150506377220154e+01 1.059011559188365936e+01 2.000555270910268746e+00
2.750439080595970154e+01 7.871121451258659363e+00 1.208196872472768746e+00
2.737450799345970154e+01 8.118069693446159363e+00 1.223272556066518746e+00
2.793786248564720154e+01 8.510037466883659363e+00 1.273824924230581246e+00
2.854442986845970154e+01 8.923489615321159363e+00 1.326894992589956246e+00
2.435155877470970154e+01 6.311795279383659363e+00 1.083791965246206246e+00
2.480822381377220154e+01 6.620999380946159363e+00 1.126440280675893746e+00
2.545824822783470154e+01 6.973050162196159363e+00 1.180074924230581246e+00
4.404613885283470154e+01 1.055300621688365936e+01 2.194311374425893746e+00
2.750988397002220154e+01 7.863308951258659363e+00 1.331686252355581246e+00
2.736584100127220154e+01 8.107449576258659363e+00 1.345602267980581246e+00
2.791894158720970154e+01 8.497098013758659363e+00 1.398458713293081246e+00
2.852465447783470154e+01 8.909939810633659363e+00 1.455236667394643746e+00
2.435131463408470154e+01 6.303616568446159363e+00 1.191503757238393746e+00
2.478673943877220154e+01 6.609402701258659363e+00 1.235861057043081246e+00
2.543578729033470154e+01 6.960965201258659363e+00 1.292684787511831246e+00
2.751549920439720154e+01 7.855374380946159363e+00 1.455953830480581246e+00
2.735741814970970154e+01 8.096951529383659363e+00 1.468603366613393746e+00
2.789989861845970154e+01 8.484158560633659363e+00 1.523657077550893746e+00
2.850500115752220154e+01 8.896634146571159363e+00 1.582784885168081246e+00
2.435107049345970154e+01 6.295437857508659363e+00 1.299856418371206246e+00
2.476549920439720154e+01 6.597806021571159363e+00 1.344579929113393746e+00
2.541344842314720154e+01 6.948758170008659363e+00 1.404531711339956246e+00
2.752221307158470154e+01 7.847683951258659363e+00 1.579763644933706246e+00
2.735998162627220154e+01 8.088650748133659363e+00 1.591650241613393746e+00
2.435082635283470154e+01 6.287381216883659363e+00 1.407690280675893746e+00
2.474413689970970154e+01 6.586331412196159363e+00 1.453161472082143746e+00
2.541735467314720154e+01 6.941067740321159363e+00 1.518606418371206246e+00
2.323717889189720154e+01 7.774197623133659363e+00 7.380888402462062459e-01
2.863341912627220154e+01 9.259305045008659363e+00 9.650328099727687459e-01
3.033984002470970154e+01 9.962918326258659363e+00 1.053869479894643746e+00
3.029955682158470154e+01 1.026247887313365936e+01 1.075079196691518746e+00
3.083434686064720154e+01 1.071365074813365936e+01 1.119909518957143746e+00
5.554699334502220154e+01 1.781850914657115936e+01 2.179083102941518746e+00
3.262951287627220154e+01 1.186330895125865936e+01 1.243551486730581246e+00
3.294872674345970154e+01 1.229787926375865936e+01 1.281683200597768746e+00
5.835216912627220154e+01 1.554641442000865936e+01 2.341802829504018746e+00
5.775622186064720154e+01 1.600637535750865936e+01 2.360662692785268746e+00
3.034264764189720154e+01 9.954007193446159363e+00 1.192388767004018746e+00
3.028344354033470154e+01 1.024892906844615936e+01 1.212927097082143746e+00
3.081786736845970154e+01 1.069973473250865936e+01 1.260641330480581246e+00
5.633813104033470154e+01 1.801809410750865936e+01 2.475652927160268746e+00
3.264208611845970154e+01 1.185696129500865936e+01 1.394170993566518746e+00
3.295287713408470154e+01 1.228909020125865936e+01 1.434637302160268746e+00
5.913097772002220154e+01 1.630618004500865936e+01 2.694433444738393746e+00
3.034557732939720154e+01 9.945218130946159363e+00 1.330297702550893746e+00
3.026745232939720154e+01 1.023550133407115936e+01 1.349981540441518746e+00
3.080138787627220154e+01 1.068581871688365936e+01 1.400549167394643746e+00
5.727074822783470154e+01 1.825613121688365936e+01 2.785787814855581246e+00
5.717052850127220154e+01 1.883218102157115936e+01 2.826513522863393746e+00
3.295702752470970154e+01 1.228030113875865936e+01 1.587713474035268746e+00
2.854882439970970154e+01 8.925442740321159363e+00 1.327215427160268746e+00
3.034838494658470154e+01 9.936306998133659363e+00 1.469045871496206246e+00
3.025146111845970154e+01 1.022195152938365936e+01 1.487692111730581246e+00
3.078478631377220154e+01 1.067190270125865936e+01 1.541143649816518746e+00
5.916552361845970154e+01 1.875674156844615936e+01 3.160452121496206246e+00
5.897094354033470154e+01 1.932644371688365936e+01 3.197607272863393746e+00
3.296117791533470154e+01 1.227151207625865936e+01 1.740133517980581246e+00
2.852904900908470154e+01 8.912015005946159363e+00 1.455572360754018746e+00
3.035497674345970154e+01 9.928372427821159363e+00 1.607382053136831246e+00
3.023546990752220154e+01 1.020852379500865936e+01 1.624609225988393746e+00
3.076842889189720154e+01 1.065810875594615936e+01 1.680914157629018746e+00
2.850939568877220154e+01 8.898587271571159363e+00 1.583135837316518746e+00
3.311840447783470154e+01 1.228774742782115936e+01 2.210226291418081246e+00
3.311291131377220154e+01 1.227602867782115936e+01 2.363119357824331246e+00
3.311547479033470154e+01 1.226662926375865936e+01 2.517523044347768746e+00
3.260070428252220154e+01 1.176528649032115936e+01 2.597769016027456246e+00
3.262792596220970154e+01 1.211355309188365936e+01 2.628790134191518746e+00
3.259997186064720154e+01 1.175491051375865936e+01 2.749212497472768746e+00
3.262719354033470154e+01 1.210329918563365936e+01 2.780767673254018746e+00
3.259911736845970154e+01 1.174477867782115936e+01 2.899923557043081246e+00
3.262633904814720154e+01 1.209316734969615936e+01 2.932028049230581246e+00
3.259826287627220154e+01 1.173440270125865936e+01 3.051534885168081246e+00
3.262560662627220154e+01 1.208291344344615936e+01 3.084173434972768746e+00
3.294713982939720154e+01 1.229861168563365936e+01 1.281698459386831246e+00
3.295751580595970154e+01 1.264724449813365936e+01 1.307424777746206246e+00
3.346398553252220154e+01 1.315615563094615936e+01 1.354849094152456246e+00
4.034875115752220154e+01 1.577822594344615936e+01 1.695593112707143746e+00
5.343041619658470154e+01 2.066091637313365936e+01 2.335989230871206246e+00
3.532360467314720154e+01 1.488515953719615936e+01 1.519125217199331246e+00
3.547314080595970154e+01 1.532449059188365936e+01 1.553594821691518746e+00
3.595104607939720154e+01 1.589138512313365936e+01 1.603567355871206246e+00
3.295129022002220154e+01 1.228982262313365936e+01 1.434652560949331246e+00
3.294323357939720154e+01 1.263296227157115936e+01 1.459219211339956246e+00
3.344933709502220154e+01 1.314150719344615936e+01 1.510397189855581246e+00
5.474621209502220154e+01 2.049831871688365936e+01 2.615133517980581246e+00
5.432580193877220154e+01 2.094912438094615936e+01 2.636373752355581246e+00
3.532934197783470154e+01 1.487673668563365936e+01 1.686376804113393746e+00
3.546068963408470154e+01 1.530972008407115936e+01 1.720297092199331246e+00
3.593822869658470154e+01 1.587624840438365936e+01 1.774053806066518746e+00
3.295556268095970154e+01 1.228103356063365936e+01 1.587728732824331246e+00
3.292895135283470154e+01 1.261868004500865936e+01 1.611791843175893746e+00
3.343481072783470154e+01 1.312698082625865936e+01 1.665075534582143746e+00
5.753490838408470154e+01 2.139761070907115936e+01 3.028448337316518746e+00
5.790136346220970154e+01 2.214663414657115936e+01 3.095113986730581246e+00
3.534289178252220154e+01 1.487112145125865936e+01 1.853323215246206246e+00
5.765942010283470154e+01 2.333144859969615936e+01 3.174902194738393746e+00
5.755724725127220154e+01 2.393215660750865936e+01 3.215978854894643746e+00
3.295971307158470154e+01 1.227224449813365936e+01 1.740133517980581246e+00
3.291479119658470154e+01 1.260427574813365936e+01 1.764318698644643746e+00
3.347240838408470154e+01 1.312881188094615936e+01 1.823644870519643746e+00
5.959215936064720154e+01 2.205520348250865936e+01 3.426214450597768746e+00
5.940697869658470154e+01 2.263992027938365936e+01 3.463583225011831246e+00
5.930944451689720154e+01 2.325564293563365936e+01 3.506399387121206246e+00
5.898327264189720154e+01 2.379311852157115936e+01 3.535177463293081246e+00
5.885937127470970154e+01 2.440090660750865936e+01 3.574957126379018746e+00
7.067101678252220154e+01 2.799770836532115936e+01 4.608862155675893746e+00
6.251757439970970154e+01 2.574636559188365936e+01 4.109960788488393746e+00
6.239294061064720154e+01 2.568179039657115936e+01 4.401495212316518746e+00
3.312035760283470154e+01 1.228945641219615936e+01 2.210470432043081246e+00
3.626195916533470154e+01 1.554714684188365936e+01 2.623113864660268746e+00
3.621313104033470154e+01 1.592654137313365936e+01 2.650945895910268746e+00
3.311352166533470154e+01 1.227737145125865936e+01 2.363256686925893746e+00
3.626330193877220154e+01 1.553701500594615936e+01 2.795065158605581246e+00
3.621435174345970154e+01 1.591665367782115936e+01 2.823248142004018746e+00
3.311510857939720154e+01 1.226772789657115936e+01 2.517599338293081246e+00
3.626452264189720154e+01 1.552688317000865936e+01 2.968038791418081246e+00
3.621569451689720154e+01 1.590664391219615936e+01 2.996587985754018746e+00
3.262841424345970154e+01 1.211489586532115936e+01 2.628927463293081246e+00
3.626586541533470154e+01 1.551675133407115936e+01 3.140218967199331246e+00
3.621691522002220154e+01 1.589663414657115936e+01 3.169119113683706246e+00
3.262768182158470154e+01 1.210464195907115936e+01 2.780920261144643746e+00
3.262682732939720154e+01 1.209451012313365936e+01 2.932180637121206246e+00
3.262609490752220154e+01 1.208425621688365936e+01 3.084326022863393746e+00
3.540868768095970154e+01 1.511379723250865936e+01 3.136297458410268746e+00
6.180602654814720154e+01 2.552810387313365936e+01 4.084966892004018746e+00
6.181213006377220154e+01 2.623782067000865936e+01 4.144125217199331246e+00
6.181335076689720154e+01 2.695119957625865936e+01 4.203375095129018746e+00
5.302148064970970154e+01 2.412966637313365936e+01 3.628347629308706246e+00
5.349364861845970154e+01 2.494717125594615936e+01 3.713064426183706246e+00
3.566344842314720154e+01 1.506789879500865936e+01 2.379690402746206246e+00
3.625939568877220154e+01 1.568508629500865936e+01 2.457601779699331246e+00
6.192614373564720154e+01 2.626028160750865936e+01 4.458410495519643746e+00
6.156286248564720154e+01 2.683254723250865936e+01 4.491186374425893746e+00
5.373925408720970154e+01 2.440102867782115936e+01 3.948339694738393746e+00
3.589684686064720154e+01 1.513625817000865936e+01 2.573202365636831246e+00
3.624657830595970154e+01 1.566799645125865936e+01 2.636617892980581246e+00
3.593859490752220154e+01 1.513821129500865936e+01 2.754278415441518746e+00
3.624816522002220154e+01 1.565615563094615936e+01 2.815832370519643746e+00
3.624963006377220154e+01 1.564431481063365936e+01 2.995184177160268746e+00
3.625121697783470154e+01 1.563235192000865936e+01 3.175588840246206246e+00
5.267150506377220154e+01 2.501174645125865936e+01 3.016454929113393746e+00
5.340856561064720154e+01 2.596059899032115936e+01 3.112386935949331246e+00
5.839831170439720154e+01 2.331789879500865936e+01 3.323721164464956246e+00
5.811791619658470154e+01 2.388210777938365936e+01 3.361852878332143746e+00
5.806982049345970154e+01 2.453188805282115936e+01 3.414419406652456246e+00
5.356921014189720154e+01 2.347439293563365936e+01 3.184835666418081246e+00
5.343639764189720154e+01 2.404800133407115936e+01 3.228384250402456246e+00
5.359167107939720154e+01 2.474087242782115936e+01 3.290945285558706246e+00
5.262133416533470154e+01 2.497219567000865936e+01 3.279669040441518746e+00
5.333861932158470154e+01 2.591177086532115936e+01 3.380422824621206246e+00
6.020312127470970154e+01 2.392971520125865936e+01 3.730139011144643746e+00
6.044713982939720154e+01 2.470388512313365936e+01 3.806219333410268746e+00
6.165649041533470154e+01 2.584939293563365936e+01 3.946752780675893746e+00
5.437865838408470154e+01 2.376662926375865936e+01 3.509573215246206246e+00
5.343896111845970154e+01 2.402993492782115936e+01 3.498327487707143746e+00
5.348473748564720154e+01 2.467837242782115936e+01 3.555029147863393746e+00
5.255150994658470154e+01 2.492446617782115936e+01 3.542547458410268746e+00
7.266515740752220154e+01 3.422378258407115936e+01 5.049719089269643746e+00
7.067443475127220154e+01 2.837917809188365936e+01 4.835592502355581246e+00
6.143529900908470154e+01 2.574490074813365936e+01 4.237310642004018746e+00
6.232018670439720154e+01 2.679836754500865936e+01 4.364004367589956246e+00
5.372448357939720154e+01 2.412405113875865936e+01 3.788030856847768746e+00
5.357921990752220154e+01 2.469802574813365936e+01 3.831930392980581246e+00
5.368261346220970154e+01 2.537991051375865936e+01 3.895132297277456246e+00
3.626855096220970154e+01 1.549795250594615936e+01 2.706976169347768746e+00
3.621715936064720154e+01 1.589736656844615936e+01 2.740438693761831246e+00
3.775951775908470154e+01 1.822842125594615936e+01 3.025366061925893746e+00
3.627013787627220154e+01 1.548525719344615936e+01 2.888326877355581246e+00
3.621874627470970154e+01 1.588479332625865936e+01 2.922247165441518746e+00
3.779491814970970154e+01 1.822939781844615936e+01 3.220800632238393746e+00
3.627184686064720154e+01 1.547256188094615936e+01 3.070745700597768746e+00
3.622033318877220154e+01 1.587209801375865936e+01 3.105139011144643746e+00
3.749291619658470154e+01 1.763760094344615936e+01 1.774175876379018746e+00
3.763415154814720154e+01 1.814529137313365936e+01 1.817831271886831246e+00
3.804235467314720154e+01 1.876907067000865936e+01 1.876821750402456246e+00
5.298742303252220154e+01 2.560439781844615936e+01 2.761114352941518746e+00
5.509997186064720154e+01 2.717580895125865936e+01 2.934332126379018746e+00
5.469457635283470154e+01 2.766726402938365936e+01 2.962774509191518746e+00
5.471508416533470154e+01 2.308083824813365936e+01 2.874914401769643746e+00
5.365697869658470154e+01 2.331618981063365936e+01 2.865530246496206246e+00
5.299840936064720154e+01 2.368887047469615936e+01 2.878118747472768746e+00
5.244298943877220154e+01 2.409524254500865936e+01 2.896230930089956246e+00
5.255382928252220154e+01 2.476784996688365936e+01 2.954000705480581246e+00
5.227953729033470154e+01 2.528396324813365936e+01 2.988638156652456246e+00
5.694494256377220154e+01 2.796413902938365936e+01 3.332800143957143746e+00
5.700915154814720154e+01 2.868899254500865936e+01 3.393560642004018746e+00
5.791698846220970154e+01 2.423940758407115936e+01 3.347173923254018746e+00
5.429687127470970154e+01 2.353945641219615936e+01 3.177328342199331246e+00
5.308629998564720154e+01 2.370412926375865936e+01 3.153173679113393746e+00
5.334154900908470154e+01 2.443789391219615936e+01 3.222219699621206246e+00
5.244518670439720154e+01 2.470400719344615936e+01 3.216329807043081246e+00
5.831762322783470154e+01 2.783572106063365936e+01 3.660513156652456246e+00
5.849218377470970154e+01 2.862087731063365936e+01 3.731313937902456246e+00
6.047094354033470154e+01 2.515737633407115936e+01 3.809194797277456246e+00
5.431591424345970154e+01 2.352712731063365936e+01 3.452017062902456246e+00
5.401842889189720154e+01 2.404897789657115936e+01 3.485800021886831246e+00
3.804003533720970154e+01 1.826748375594615936e+01 2.426931613683706246e+00
5.307091912627220154e+01 2.494399742782115936e+01 3.528188937902456246e+00
7.245409783720970154e+01 3.382778649032115936e+01 4.971594089269643746e+00
7.208251580595970154e+01 3.454177574813365936e+01 5.019079440832143746e+00
3.989342889189720154e+01 2.096206383407115936e+01 2.721746677160268746e+00
6.252489861845970154e+01 2.588992027938365936e+01 4.258917087316518746e+00
6.179699334502220154e+01 2.634023766219615936e+01 4.269003146886831246e+00
5.384045037627220154e+01 2.395986656844615936e+01 3.747442477941518746e+00
3.803319939970970154e+01 1.825076012313365936e+01 2.622930759191518746e+00
5.370605096220970154e+01 2.518740563094615936e+01 3.848562473058706246e+00
3.990221795439720154e+01 2.095180992782115936e+01 2.930502170324331246e+00
6.236083611845970154e+01 2.653115563094615936e+01 4.624853366613393746e+00
3.803442010283470154e+01 1.823745445907115936e+01 2.818548434972768746e+00
3.991100701689720154e+01 2.094155602157115936e+01 3.140585178136831246e+00
3.804150018095970154e+01 1.822659020125865936e+01 3.014776462316518746e+00
6.635619744658470154e+01 3.192117027938365936e+01 6.306524509191518746e+00
6.644433221220970154e+01 3.276931481063365936e+01 6.391119235754018746e+00
6.624145135283470154e+01 3.184756188094615936e+01 6.637060397863393746e+00
6.696728143095970154e+01 3.297951988875865936e+01 6.789694064855581246e+00
6.588341912627220154e+01 3.247182945907115936e+01 7.016744846105581246e+00
6.648839959502220154e+01 3.190798668563365936e+01 7.345297092199331246e+00
6.714245232939720154e+01 3.301052574813365936e+01 7.502096408605581246e+00
6.798437127470970154e+01 3.336245445907115936e+01 7.948827975988393746e+00
6.699389275908470154e+01 3.289687828719615936e+01 8.178549045324331246e+00
5.943273553252220154e+01 3.037746910750865936e+01 3.862859958410268746e+00
6.286352166533470154e+01 3.273171715438365936e+01 4.164404147863393746e+00
5.314416131377220154e+01 2.359365563094615936e+01 3.378515475988393746e+00
3.805773553252220154e+01 1.821951012313365936e+01 2.390371555089956246e+00
5.289989861845970154e+01 2.476565270125865936e+01 3.470373386144643746e+00
7.187817010283470154e+01 3.340896324813365936e+01 4.873052829504018746e+00
7.216869744658470154e+01 3.440542320907115936e+01 4.967565768957143746e+00
3.992016229033470154e+01 2.093056969344615936e+01 2.686529392004018746e+00
6.161693963408470154e+01 2.684792809188365936e+01 4.269644016027456246e+00
5.304516229033470154e+01 2.416836266219615936e+01 3.698354953527456246e+00
5.362755975127220154e+01 2.504458336532115936e+01 3.797109836339956246e+00
7.255321893095970154e+01 3.454629234969615936e+01 5.368063205480581246e+00
3.992907342314720154e+01 2.092019371688365936e+01 2.897772067785268746e+00
6.909801873564720154e+01 3.475112633407115936e+01 5.248724216222768746e+00
6.243212518095970154e+01 2.714028649032115936e+01 4.645971530675893746e+00
5.307629022002220154e+01 2.416152672469615936e+01 3.972646945714956246e+00
3.993798455595970154e+01 2.090969567000865936e+01 3.109213107824331246e+00
6.905028924345970154e+01 3.470498375594615936e+01 5.603521579504018746e+00
6.634447869658470154e+01 3.429653649032115936e+01 5.448736423254018746e+00
6.568603143095970154e+01 3.396474938094615936e+01 5.737722629308706246e+00
6.896972283720970154e+01 3.376516442000865936e+01 6.237005466222768746e+00
6.831945428252220154e+01 3.432302574813365936e+01 6.254171603918081246e+00
6.826427850127220154e+01 3.514809899032115936e+01 6.327078098058706246e+00
6.677538689970970154e+01 3.276772789657115936e+01 6.378591769933706246e+00
6.841930779814720154e+01 3.434426598250865936e+01 6.621359103918081246e+00
6.487975701689720154e+01 3.354140953719615936e+01 6.345525974035268746e+00
6.605859002470970154e+01 3.242629723250865936e+01 6.652639621496206246e+00
6.534264764189720154e+01 3.291982750594615936e+01 6.656179660558706246e+00
6.606444939970970154e+01 3.407217125594615936e+01 6.810247653722768746e+00
6.647948846220970154e+01 3.177456383407115936e+01 6.961645358800893746e+00
6.595226678252220154e+01 3.235574059188365936e+01 6.983877414464956246e+00
6.624633416533470154e+01 3.330764488875865936e+01 7.095754855871206246e+00
6.584032830595970154e+01 3.394411949813365936e+01 7.133123630285268746e+00
6.615319451689720154e+01 3.242104820907115936e+01 7.350866550207143746e+00
6.542431268095970154e+01 3.291055016219615936e+01 7.348806613683706246e+00
6.525292596220970154e+01 3.364675621688365936e+01 7.409963840246206246e+00
6.698705682158470154e+01 3.276626305282115936e+01 7.793142551183706246e+00
6.463732537627220154e+01 3.252993492782115936e+01 7.596044772863393746e+00
6.531640252470970154e+01 3.365322594344615936e+01 7.761480563879018746e+00
6.713146600127220154e+01 3.280618004500865936e+01 8.160757297277456246e+00
6.530480584502220154e+01 3.280984215438365936e+01 8.018652194738393746e+00
6.595507439970970154e+01 3.224795250594615936e+01 6.834203952550893746e+00
6.624193963408470154e+01 3.319692711532115936e+01 6.945425266027456246e+00
6.481176385283470154e+01 3.336416344344615936e+01 6.872152560949331246e+00
6.620690545439720154e+01 3.485146813094615936e+01 7.105795139074331246e+00
2.018493279814720154e+01 1.323013024032115936e+01 2.095205539464956246e+00
6.617480096220970154e+01 3.232009606063365936e+01 7.204778903722768746e+00
6.546068963408470154e+01 3.282009606063365936e+01 7.207021945714956246e+00
6.561071404814720154e+01 3.371072106063365936e+01 7.306280368566518746e+00
6.601671990752220154e+01 3.473696617782115936e+01 7.436285251379018746e+00
1.960949334502220154e+01 1.294155602157115936e+01 2.144796603918081246e+00
6.635082635283470154e+01 3.237319664657115936e+01 7.570806735754018746e+00
6.543041619658470154e+01 3.278262047469615936e+01 7.547064059972768746e+00
6.520458611845970154e+01 3.349868492782115936e+01 7.604086154699331246e+00
6.583410272002220154e+01 3.462624840438365936e+01 7.764013522863393746e+00
1.918847283720970154e+01 1.272854332625865936e+01 2.207800143957143746e+00
6.464062127470970154e+01 3.240273766219615936e+01 7.795873874425893746e+00
6.504894647002220154e+01 3.340285973250865936e+01 7.930700534582143746e+00
1.972753533720970154e+01 1.271011070907115936e+01 2.358587497472768746e+00
1.919994744658470154e+01 1.272659020125865936e+01 2.320486301183706246e+00
6.662926873564720154e+01 3.327431969344615936e+01 8.388891452550893746e+00
6.503075799345970154e+01 3.337075524032115936e+01 8.271734470129018746e+00
1.974706658720970154e+01 1.271145348250865936e+01 2.475271457433706246e+00
1.921142205595970154e+01 1.272463707625865936e+01 2.433950656652456246e+00
1.976879510283470154e+01 1.271401695907115936e+01 2.591879123449331246e+00
1.963158807158470154e+01 1.292129234969615936e+01 2.603338474035268746e+00
6.653002557158470154e+01 3.322549156844615936e+01 7.290197604894643746e+00
6.567394647002220154e+01 3.367202477157115936e+01 7.279119724035268746e+00
6.515002068877220154e+01 3.425991539657115936e+01 7.304266208410268746e+00
1.998876580595970154e+01 1.318862633407115936e+01 2.190435642004018746e+00
1.876696404814720154e+01 1.286684899032115936e+01 2.077291721105581246e+00
1.876562127470970154e+01 1.313869957625865936e+01 2.104788058996206246e+00
6.637243279814720154e+01 3.230154137313365936e+01 7.537115329504018746e+00
6.651195916533470154e+01 3.319241051375865936e+01 7.639089816808706246e+00
6.525439080595970154e+01 3.345437340438365936e+01 7.578069919347768746e+00
6.558434686064720154e+01 3.444082359969615936e+01 7.703283542394643746e+00
1.917650994658470154e+01 1.278677086532115936e+01 2.210500949621206246e+00
1.872655877470970154e+01 1.283901695907115936e+01 2.184377902746206246e+00
1.864245232939720154e+01 1.306814293563365936e+01 2.202795261144643746e+00
6.658153924345970154e+01 3.319851402938365936e+01 8.000494235754018746e+00
6.505468377470970154e+01 3.333804039657115936e+01 7.901769870519643746e+00
1.971056756377220154e+01 1.275845055282115936e+01 2.362249606847768746e+00
1.918822869658470154e+01 1.278457359969615936e+01 2.326208347082143746e+00
1.909862908720970154e+01 1.301614098250865936e+01 2.343969577550893746e+00
1.806127557158470154e+01 1.276443199813365936e+01 2.240362399816518746e+00
6.470580682158470154e+01 3.233425621688365936e+01 8.114629977941518746e+00
6.498302850127220154e+01 3.328066734969615936e+01 8.238104099035268746e+00
1.973034295439720154e+01 1.275979332625865936e+01 2.480673068761831246e+00
1.960107049345970154e+01 1.297646813094615936e+01 2.493795627355581246e+00
1.905077752470970154e+01 1.298452477157115936e+01 2.452093356847768746e+00
1.805382928252220154e+01 1.275320152938365936e+01 2.348943942785268746e+00
1.997192010283470154e+01 1.258584313094615936e+01 2.599111789464956246e+00
1.975231561064720154e+01 1.276186852157115936e+01 2.600225681066518746e+00
1.877990350127220154e+01 1.257119469344615936e+01 2.498922580480581246e+00
1.925231561064720154e+01 1.307668785750865936e+01 2.593328708410268746e+00
1.804626092314720154e+01 1.274184899032115936e+01 2.457494968175893746e+00
1.866881951689720154e+01 1.317471031844615936e+01 2.186346286535268746e+00
1.796813592314720154e+01 1.309084801375865936e+01 2.129568332433706246e+00
1.771923455595970154e+01 1.323196129500865936e+01 2.127615207433706246e+00
6.539403924345970154e+01 3.266445641219615936e+01 7.756231540441518746e+00
6.508984002470970154e+01 3.335378746688365936e+01 7.806509250402456246e+00
1.968407830595970154e+01 1.281997399032115936e+01 2.339086765050893746e+00
1.954088982939720154e+01 1.303616051375865936e+01 2.351370090246206246e+00
1.909679803252220154e+01 1.310159020125865936e+01 2.325887912511831246e+00
1.804162225127220154e+01 1.284841637313365936e+01 2.222372287511831246e+00
1.795190057158470154e+01 1.307485680282115936e+01 2.239645236730581246e+00
1.772619256377220154e+01 1.322829918563365936e+01 2.239324802160268746e+00
6.523913201689720154e+01 3.257070641219615936e+01 8.086340183019643746e+00
6.502795037627220154e+01 3.330080895125865936e+01 8.148336642980581246e+00
1.950890740752220154e+01 1.272939781844615936e+01 2.434866183996206246e+00
1.957506951689720154e+01 1.304446129500865936e+01 2.473745578527456246e+00
1.868749627470970154e+01 1.289101891219615936e+01 2.388906711339956246e+00
1.861779412627220154e+01 1.313320641219615936e+01 2.409506076574331246e+00
1.805846795439720154e+01 1.312270836532115936e+01 2.365911716222768746e+00
1.766601189970970154e+01 1.318874840438365936e+01 2.342748874425893746e+00
1.992675408720970154e+01 1.263296227157115936e+01 2.577062839269643746e+00
1.876366814970970154e+01 1.264504723250865936e+01 2.483907932043081246e+00
1.870849236845970154e+01 1.289346031844615936e+01 2.506582492589956246e+00
1.754198846220970154e+01 1.257986168563365936e+01 2.377569431066518746e+00
1.774987420439720154e+01 1.295473961532115936e+01 2.435430759191518746e+00
1.764110955595970154e+01 1.316799645125865936e+01 2.450475925207143746e+00
1.857275018095970154e+01 1.293179039657115936e+01 2.253820651769643746e+00
1.800036248564720154e+01 1.292446617782115936e+01 2.212393039464956246e+00
1.792956170439720154e+01 1.316543297469615936e+01 2.233007663488393746e+00
1.765331658720970154e+01 1.329787926375865936e+01 2.227483981847768746e+00
1.757409295439720154e+01 1.353469567000865936e+01 2.247061008214956246e+00
1.812560662627220154e+01 1.412356285750865936e+01 2.348913425207143746e+00
1.967846307158470154e+01 1.288735680282115936e+01 2.449606174230581246e+00
1.908385857939720154e+01 1.289077477157115936e+01 2.405279392004018746e+00
1.864989861845970154e+01 1.296169762313365936e+01 2.379736179113393746e+00
1.760302361845970154e+01 1.271535973250865936e+01 2.274313205480581246e+00
1.791320428252220154e+01 1.314907555282115936e+01 2.344701999425893746e+00
1.759460076689720154e+01 1.325893883407115936e+01 2.332708591222768746e+00
1.782384881377220154e+01 1.366311363875865936e+01 2.394430392980581246e+00
1.751549920439720154e+01 1.377529625594615936e+01 2.383428806066518746e+00
1.961864861845970154e+01 1.285073570907115936e+01 2.562872165441518746e+00
1.875060662627220154e+01 1.272207359969615936e+01 2.479131931066518746e+00
1.867138299345970154e+01 1.296413902938365936e+01 2.499655002355581246e+00
1.761449822783470154e+01 1.271340660750865936e+01 2.388082736730581246e+00
1.782641229033470154e+01 1.309609703719615936e+01 2.447271579504018746e+00
1.771117791533470154e+01 1.331313805282115936e+01 2.462179416418081246e+00
1.791430291533470154e+01 1.370461754500865936e+01 2.521627658605581246e+00
1.751098260283470154e+01 1.376504234969615936e+01 2.496954196691518746e+00
1.744579705595970154e+01 1.443911461532115936e+01 2.367239230871206246e+00
1.805492791533470154e+01 1.275149254500865936e+01 2.340780490636831246e+00
1.796923455595970154e+01 1.298916344344615936e+01 2.361196750402456246e+00
1.744433221220970154e+01 1.300002770125865936e+01 2.323110812902456246e+00
1.748131951689720154e+01 1.330007652938365936e+01 2.359594577550893746e+00
1.779528436064720154e+01 1.375381188094615936e+01 2.433782809972768746e+00
1.762316522002220154e+01 1.394802574813365936e+01 2.442953342199331246e+00
1.750573357939720154e+01 1.417300133407115936e+01 2.460241550207143746e+00
1.738927850127220154e+01 1.439785484969615936e+01 2.476949924230581246e+00
1.804699334502220154e+01 1.273891930282115936e+01 2.456045383214956246e+00
1.768578729033470154e+01 1.283743004500865936e+01 2.438604587316518746e+00
1.767663201689720154e+01 1.311208824813365936e+01 2.469412082433706246e+00
1.754479607939720154e+01 1.332534508407115936e+01 2.483633273839956246e+00
1.772619256377220154e+01 1.370779137313365936e+01 2.541631931066518746e+00
1.761742791533470154e+01 1.393642906844615936e+01 2.559408420324331246e+00
1.758178338408470154e+01 1.420815758407115936e+01 2.587820285558706246e+00
1.740209588408470154e+01 1.439700035750865936e+01 2.596151584386831246e+00
1.833629998564720154e+01 1.541958336532115936e+01 2.295721286535268746e+00
1.900866326689720154e+01 1.614834313094615936e+01 2.414907687902456246e+00
1.806994256377220154e+01 1.343960289657115936e+01 2.186010593175893746e+00
1.755175408720970154e+01 1.345730309188365936e+01 2.154287570714956246e+00
1.761327752470970154e+01 1.378054527938365936e+01 2.194021457433706246e+00
1.785424432158470154e+01 1.420974449813365936e+01 2.256918185949331246e+00
1.782848748564720154e+01 1.449538902938365936e+01 2.286916965246206246e+00
1.789062127470970154e+01 1.483523277938365936e+01 2.328527683019643746e+00
1.827306756377220154e+01 1.537270836532115936e+01 2.412435764074331246e+00
1.847338494658470154e+01 1.581179527938365936e+01 2.474523776769643746e+00
1.767199334502220154e+01 1.322414879500865936e+01 2.255041354894643746e+00
1.758105096220970154e+01 1.346389488875865936e+01 2.275991672277456246e+00
1.813293084502220154e+01 1.405434899032115936e+01 2.380163425207143746e+00
1.776171502470970154e+01 1.414907555282115936e+01 2.365728610754018746e+00
1.736352166533470154e+01 1.422121910750865936e+01 2.346884006261831246e+00
1.894652947783470154e+01 1.544253258407115936e+01 2.592321628332143746e+00
1.841759881377220154e+01 1.544985680282115936e+01 2.557287448644643746e+00
1.901342400908470154e+01 1.613247399032115936e+01 2.674886935949331246e+00
1.764587029814720154e+01 1.320168785750865936e+01 2.369543308019643746e+00
1.988122186064720154e+01 1.467593102157115936e+01 2.700292819738393746e+00
1.803930291533470154e+01 1.399429039657115936e+01 2.488653415441518746e+00
1.760070428252220154e+01 1.405056481063365936e+01 2.463644260168081246e+00
1.745385369658470154e+01 1.426394371688365936e+01 2.477728122472768746e+00
1.724511346220970154e+01 1.444082359969615936e+01 2.483144992589956246e+00
1.838061150908470154e+01 1.541860680282115936e+01 2.678228610754018746e+00
1.901586541533470154e+01 1.612453942000865936e+01 2.805334323644643746e+00
1.784984979033470154e+01 1.329836754500865936e+01 2.515341037511831246e+00
1.744311150908470154e+01 1.337295250594615936e+01 2.492620700597768746e+00
1.749499139189720154e+01 1.368948082625865936e+01 2.533819431066518746e+00
1.769298943877220154e+01 1.409304527938365936e+01 2.596365207433706246e+00
1.747326287627220154e+01 1.426614098250865936e+01 2.600073093175893746e+00
1.718004998564720154e+01 1.439407067000865936e+01 2.592886203527456246e+00
1.958739861845970154e+01 1.612917809188365936e+01 2.979833835363393746e+00
1.898473748564720154e+01 1.623074059188365936e+01 2.510320895910268746e+00
1.890722283720970154e+01 1.652016930282115936e+01 2.537527316808706246e+00
1.326366814970970154e+01 1.326064781844615936e+01 1.828939670324331246e+00
1.753551873564720154e+01 1.380849938094615936e+01 2.274877780675893746e+00
1.801794061064720154e+01 1.437514977157115936e+01 2.370626682043081246e+00
1.752880486845970154e+01 1.440505699813365936e+01 2.341818088293081246e+00
1.785216912627220154e+01 1.489993004500865936e+01 2.418997043371206246e+00
1.877477654814720154e+01 1.576321129500865936e+01 2.577215427160268746e+00
1.898693475127220154e+01 1.622243981063365936e+01 2.643057101964956246e+00
1.890942010283470154e+01 1.651199059188365936e+01 2.670644992589956246e+00
1.328026971220970154e+01 1.326394371688365936e+01 1.933309787511831246e+00
1.752929314970970154e+01 1.379592613875865936e+01 2.394979709386831246e+00
1.753429803252220154e+01 1.409707359969615936e+01 2.430074924230581246e+00
1.754748162627220154e+01 1.440664391219615936e+01 2.466039890050893746e+00
1.897973260283470154e+01 1.554702477157115936e+01 2.697530978918081246e+00
1.828332147002220154e+01 1.546096520125865936e+01 2.638998264074331246e+00
1.898925408720970154e+01 1.621413902938365936e+01 2.775152438879018746e+00
1.891161736845970154e+01 1.650381188094615936e+01 2.803838962316518746e+00
1.329699334502220154e+01 1.326723961532115936e+01 2.038458102941518746e+00
1.752306756377220154e+01 1.378347496688365936e+01 2.515066379308706246e+00
1.762768182158470154e+01 1.413992027938365936e+01 2.564108127355581246e+00
1.758398064970970154e+01 1.441824059188365936e+01 2.593664401769643746e+00
1.860277947783470154e+01 1.531814293563365936e+01 2.774801486730581246e+00
1.942834100127220154e+01 1.613308434188365936e+01 2.931707614660268746e+00
1.899145135283470154e+01 1.620583824813365936e+01 2.908025974035268746e+00
1.331383904814720154e+01 1.327053551375865936e+01 2.143850558996206246e+00
1.185375604033470154e+01 1.298379234969615936e+01 1.589010471105581246e+00
1.748412713408470154e+01 1.446108727157115936e+01 2.189184421300893746e+00
1.857995232939720154e+01 1.540871910750865936e+01 2.359487766027456246e+00
1.860302361845970154e+01 1.575149254500865936e+01 2.399053806066518746e+00
1.896471795439720154e+01 1.630605797469615936e+01 2.482427829504018746e+00
1.888598260283470154e+01 1.659975914657115936e+01 2.510442966222768746e+00
1.301879510283470154e+01 1.321230797469615936e+01 1.782903903722768746e+00
1.242858514189720154e+01 1.309658531844615936e+01 1.734762424230581246e+00
1.186901482939720154e+01 1.298672203719615936e+01 1.689672702550893746e+00
1.898400506377220154e+01 1.530325035750865936e+01 2.505346530675893746e+00
1.925536736845970154e+01 1.579128746688365936e+01 2.578191989660268746e+00
1.905639275908470154e+01 1.601113609969615936e+01 2.590551608800893746e+00
1.896691522002220154e+01 1.629751305282115936e+01 2.617483371496206246e+00
1.888830193877220154e+01 1.659121422469615936e+01 2.645910495519643746e+00
1.303612908720970154e+01 1.321572594344615936e+01 1.889074558019643746e+00
1.244482049345970154e+01 1.309975914657115936e+01 1.838217014074331246e+00
1.188427361845970154e+01 1.298977379500865936e+01 1.790014499425893746e+00
1.742577752470970154e+01 1.440920738875865936e+01 2.429540866613393746e+00
1.858166131377220154e+01 1.539004234969615936e+01 2.621816867589956246e+00
1.903417596220970154e+01 1.598794274032115936e+01 2.721258395910268746e+00
1.896923455595970154e+01 1.628896813094615936e+01 2.751898044347768746e+00
1.889049920439720154e+01 1.658266930282115936e+01 2.780752414464956246e+00
1.305346307158470154e+01 1.321914391219615936e+01 1.994909518957143746e+00
1.246105584502220154e+01 1.310293297469615936e+01 1.941900485754018746e+00
1.189953240752220154e+01 1.299270348250865936e+01 1.891119235754018746e+00
1.738073357939720154e+01 1.437417320907115936e+01 2.547445529699331246e+00
1.852978143095970154e+01 1.535000328719615936e+01 2.744955295324331246e+00
1.910033807158470154e+01 1.601711754500865936e+01 2.865041965246206246e+00
1.897155389189720154e+01 1.628030113875865936e+01 2.887106174230581246e+00
1.889587029814720154e+01 1.657595543563365936e+01 2.916815036535268746e+00
1.307091912627220154e+01 1.322256188094615936e+01 2.101553195714956246e+00
1.247729119658470154e+01 1.310610680282115936e+01 2.045248264074331246e+00
1.191491326689720154e+01 1.299575524032115936e+01 1.992422336339956246e+00
1.894970330595970154e+01 1.636221031844615936e+01 2.438284152746206246e+00
1.346068963408470154e+01 1.330398277938365936e+01 1.782415622472768746e+00
1.281676873564720154e+01 1.317251305282115936e+01 1.731146091222768746e+00
1.221862420439720154e+01 1.305508141219615936e+01 1.684042209386831246e+00
1.164953240752220154e+01 1.294350914657115936e+01 1.639242404699331246e+00
1.110558709502220154e+01 1.283669762313365936e+01 1.596426242589956246e+00
1.059826287627220154e+01 1.274197106063365936e+01 1.557531589269643746e+00
1.862890252470970154e+01 1.581789879500865936e+01 2.494238132238393746e+00
1.895214471220970154e+01 1.635317711532115936e+01 2.575597995519643746e+00
1.348205193877220154e+01 1.330898766219615936e+01 1.893224948644643746e+00
1.283507928252220154e+01 1.317605309188365936e+01 1.838751071691518746e+00
1.223583611845970154e+01 1.305849938094615936e+01 1.788931125402456246e+00
1.166564568877220154e+01 1.294668297469615936e+01 1.741522067785268746e+00
1.112072381377220154e+01 1.283974938094615936e+01 1.696218723058706246e+00
1.061156854033470154e+01 1.274404625594615936e+01 1.654379123449331246e+00
1.903881463408470154e+01 1.605019859969615936e+01 2.683737033605581246e+00
1.895458611845970154e+01 1.634402184188365936e+01 2.712988132238393746e+00
1.350341424345970154e+01 1.331399254500865936e+01 2.003729099035268746e+00
1.285326775908470154e+01 1.317959313094615936e+01 1.946020358800893746e+00
1.225292596220970154e+01 1.306191734969615936e+01 1.893469089269643746e+00
1.168175897002220154e+01 1.294985680282115936e+01 1.843481296300893746e+00
1.113610467314720154e+01 1.284267906844615936e+01 1.796224826574331246e+00
1.062499627470970154e+01 1.274624352157115936e+01 1.751928561925893746e+00
1.904162225127220154e+01 1.604128746688365936e+01 2.820821994543081246e+00
1.895702752470970154e+01 1.633498863875865936e+01 2.849706882238393746e+00
1.887694939970970154e+01 1.663357262313365936e+01 2.880254977941518746e+00
1.287170037627220154e+01 1.318325524032115936e+01 2.054113620519643746e+00
1.227025994658470154e+01 1.306521324813365936e+01 1.998800510168081246e+00
1.169799432158470154e+01 1.295303063094615936e+01 1.946188205480581246e+00
1.115124139189720154e+01 1.284573082625865936e+01 1.895910495519643746e+00
1.063842400908470154e+01 1.274831871688365936e+01 1.849661105871206246e+00
1.270995721220970154e+01 1.315127281844615936e+01 1.822454684972768746e+00
1.209838494658470154e+01 1.303127770125865936e+01 1.773260349035268746e+00
1.151440057158470154e+01 1.291677574813365936e+01 1.726293796300893746e+00
1.096007928252220154e+01 1.280801109969615936e+01 1.681692355871206246e+00
1.045446404814720154e+01 1.272012047469615936e+01 1.642400974035268746e+00
9.759273618459701538e+00 1.248843102157115936e+01 1.575048679113393746e+00
9.117427915334701538e+00 1.227663902938365936e+01 1.513128513097768746e+00
1.338048943877220154e+01 1.328506188094615936e+01 1.987585300207143746e+00
1.273022088408470154e+01 1.315530113875865936e+01 1.932165378332143746e+00
1.211730584502220154e+01 1.303506188094615936e+01 1.879614108800893746e+00
1.153222283720970154e+01 1.292019371688365936e+01 1.830007785558706246e+00
1.097680291533470154e+01 1.281130699813365936e+01 1.782919162511831246e+00
1.047887811064720154e+01 1.272915367782115936e+01 1.742605441808706246e+00
9.779537290334701538e+00 1.249502281844615936e+01 1.671926730871206246e+00
9.136104673147201538e+00 1.228286461532115936e+01 1.606817477941518746e+00
1.340417107939720154e+01 1.329055504500865936e+01 2.100836032629018746e+00
1.275048455595970154e+01 1.315920738875865936e+01 2.041555637121206246e+00
1.213634881377220154e+01 1.303872399032115936e+01 1.986791843175893746e+00
1.155016717314720154e+01 1.292373375594615936e+01 1.934515231847768746e+00
1.099377068877220154e+01 1.281460289657115936e+01 1.884893649816518746e+00
1.050353631377220154e+01 1.273830895125865936e+01 1.843664401769643746e+00
9.799678891897201538e+00 1.250173668563365936e+01 1.768560642004018746e+00
9.154781430959701538e+00 1.228896813094615936e+01 1.700750583410268746e+00
8.902095884084701538e+00 1.220534996688365936e+01 1.480703586339956246e+00
8.285030454397201538e+00 1.200185875594615936e+01 1.422949069738393746e+00
7.722286313772201538e+00 1.182253746688365936e+01 1.371069186925893746e+00
1.201842889189720154e+01 1.301540856063365936e+01 1.852560275793081246e+00
1.142248162627220154e+01 1.289846520125865936e+01 1.804083102941518746e+00
1.085473260283470154e+01 1.278701500594615936e+01 1.757345432043081246e+00
1.028258904814720154e+01 1.266079430282115936e+01 1.709036105871206246e+00
9.580074399709701538e+00 1.242898277938365936e+01 1.639990085363393746e+00
8.922603696584701538e+00 1.221218590438365936e+01 1.575384372472768746e+00
8.304195493459701538e+00 1.200820641219615936e+01 1.515096896886831246e+00
7.738643735647201538e+00 1.182729820907115936e+01 1.460211032629018746e+00
1.203942498564720154e+01 1.301943688094615936e+01 1.961691135168081246e+00
1.144225701689720154e+01 1.290237145125865936e+01 1.909948581457143746e+00
1.087340936064720154e+01 1.279067711532115936e+01 1.861212009191518746e+00
1.030675897002220154e+01 1.266872887313365936e+01 1.811254733800893746e+00
9.602413266897201538e+00 1.243642906844615936e+01 1.738714450597768746e+00
8.943355649709701538e+00 1.221902184188365936e+01 1.670843356847768746e+00
8.323360532522201538e+00 1.201443199813365936e+01 1.606985324621206246e+00
7.755001157522201538e+00 1.183205895125865936e+01 1.549581760168081246e+00
7.051754087209701538e+00 1.162368492782115936e+01 1.303640598058706246e+00
6.587276548147201538e+00 1.149929527938365936e+01 1.264700168371206246e+00
1.080517205595970154e+01 1.277712731063365936e+01 1.741369479894643746e+00
1.019604119658470154e+01 1.263198570907115936e+01 1.689855808019643746e+00
9.472652524709701538e+00 1.239346031844615936e+01 1.619634860754018746e+00
8.793941587209701538e+00 1.216958336532115936e+01 1.554250949621206246e+00
8.159908384084701538e+00 1.196035484969615936e+01 1.493170017004018746e+00
7.563594907522201538e+00 1.176345543563365936e+01 1.435674899816518746e+00
7.067257016897201538e+00 1.162783531844615936e+01 1.391943210363393746e+00
6.601924985647201538e+00 1.150320152938365936e+01 1.350820773839956246e+00
1.082506951689720154e+01 1.278103356063365936e+01 1.847402805089956246e+00
1.022179803252220154e+01 1.264053063094615936e+01 1.793585056066518746e+00
9.496578305959701538e+00 1.240127281844615936e+01 1.720327609777456246e+00
8.816158384084701538e+00 1.217678551375865936e+01 1.651571506261831246e+00
8.180538266897201538e+00 1.196719078719615936e+01 1.587362521886831246e+00
7.581661313772201538e+00 1.176894859969615936e+01 1.526769870519643746e+00
7.082759946584701538e+00 1.163198570907115936e+01 1.480001682043081246e+00
6.616573423147201538e+00 1.150710777938365936e+01 1.437155002355581246e+00
8.013179868459701538e+00 1.191177086532115936e+01 1.470510715246206246e+00
7.415401548147201538e+00 1.172085289657115936e+01 1.414022678136831246e+00
6.913692563772201538e+00 1.158645348250865936e+01 1.369894260168081246e+00
6.436153501272201538e+00 1.145864586532115936e+01 1.327902072668081246e+00
5.979732602834701538e+00 1.133645348250865936e+01 1.288213962316518746e+00
5.545772641897201538e+00 1.122036461532115936e+01 1.250036472082143746e+00
9.381710141897201538e+00 1.236318688094615936e+01 1.702322238683706246e+00
8.685787290334701538e+00 1.213357262313365936e+01 1.631857150793081246e+00
8.033565610647201538e+00 1.191848473250865936e+01 1.566320651769643746e+00
7.431881040334701538e+00 1.172524742782115936e+01 1.506536716222768746e+00
6.929195493459701538e+00 1.159060387313365936e+01 1.460073703527456246e+00
6.450801938772201538e+00 1.146255211532115936e+01 1.415853732824331246e+00
5.993526548147201538e+00 1.134011559188365936e+01 1.373571628332143746e+00
5.558834165334701538e+00 1.122378258407115936e+01 1.333837741613393746e+00
7.857051938772201538e+00 1.186111168563365936e+01 1.407186740636831246e+00
7.267818540334701538e+00 1.168105797469615936e+01 1.354437106847768746e+00
6.754512876272201538e+00 1.154372887313365936e+01 1.310461276769643746e+00
6.264400571584701538e+00 1.141250328719615936e+01 1.268942111730581246e+00
5.798824399709701538e+00 1.128786949813365936e+01 1.229498142004018746e+00
5.354732602834701538e+00 1.116897301375865936e+01 1.191885226964956246e+00
4.930049985647201538e+00 1.105569176375865936e+01 1.156393283605581246e+00
4.525753110647201538e+00 1.094814781844615936e+01 1.122228854894643746e+00
7.876339048147201538e+00 1.186672692000865936e+01 1.504278415441518746e+00
7.284786313772201538e+00 1.168569664657115936e+01 1.448095554113393746e+00
6.770626157522201538e+00 1.154800133407115936e+01 1.402242892980581246e+00
6.279537290334701538e+00 1.141653160750865936e+01 1.358450168371206246e+00
5.813106626272201538e+00 1.129165367782115936e+01 1.316869968175893746e+00
5.368282407522201538e+00 1.117251305282115936e+01 1.277197116613393746e+00
4.941890805959701538e+00 1.105837731063365936e+01 1.239187473058706246e+00
4.537593930959701538e+00 1.095132164657115936e+01 1.203695529699331246e+00
5.622188657522201538e+00 1.124038414657115936e+01 1.104879611730581246e+00
5.166866391897201538e+00 1.111843590438365936e+01 1.069631808996206246e+00
4.743770688772201538e+00 1.101089195907115936e+01 1.037603610754018746e+00
4.323238462209701538e+00 1.089516930282115936e+01 1.004644626379018746e+00
3.929683774709701538e+00 1.079250817000865936e+01 9.745237767696437459e-01
3.553585141897201538e+00 1.069448570907115936e+01 9.457304418087062459e-01
6.613643735647201538e+00 1.150576500594615936e+01 1.273672336339956246e+00
6.113765805959701538e+00 1.137197594344615936e+01 1.232763522863393746e+00
5.637203305959701538e+00 1.124441246688365936e+01 1.193304294347768746e+00
5.181026548147201538e+00 1.112222008407115936e+01 1.155996555089956246e+00
4.758052915334701538e+00 1.101516442000865936e+01 1.122183078527456246e+00
4.335811704397201538e+00 1.089846520125865936e+01 1.087164157629018746e+00
3.941646665334701538e+00 1.079568199813365936e+01 1.055700534582143746e+00
3.564937680959701538e+00 1.069741539657115936e+01 1.025198215246206246e+00
6.630733579397201538e+00 1.151028160750865936e+01 1.367239230871206246e+00
