1.509495091438293457e+01 3.000799220055341721e+00 2.199675250798520665e-01
1.506650853157043457e+01 3.137151759117841721e+00 2.311674762517270665e-01
1.528513646125793457e+01 3.279729884117841721e+00 2.483488727361020665e-01
1.551096653938293457e+01 3.427068751305341721e+00 2.660948444157895665e-01
1.577939915657043457e+01 3.581487696617841721e+00 2.850462604314145665e-01
1.622165989875793457e+01 3.751043360680341721e+00 3.094908405095395665e-01
1.416257786750793457e+01 2.732976954430341721e+00 2.351042438298520665e-01
1.463230443000793457e+01 2.859441798180341721e+00 2.586180377751645665e-01
1.513791966438293457e+01 2.995672266930341721e+00 2.839171100407895665e-01
1.718394017219543457e+01 3.328558009117841721e+00 3.673826862126645665e-01
1.713059544563293457e+01 3.483953516930341721e+00 3.794371295720395665e-01
1.730247044563293457e+01 3.649725001305341721e+00 3.984190631657895665e-01
1.786594700813293457e+01 3.841375391930341721e+00 4.300810504704770665e-01
1.414414525032043457e+01 2.727972071617841721e+00 2.930571246892270665e-01
1.461252903938293457e+01 2.854192774742841721e+00 3.189970660954770665e-01
1.511680150032043457e+01 2.990057032555341721e+00 3.465849567204770665e-01
1.718223118782043457e+01 3.322332423180341721e+00 4.401060748845395665e-01
1.712888646125793457e+01 3.477727930992841721e+00 4.519316364079770665e-01
1.728123021125793457e+01 3.642522852867841721e+00 4.710203815251645665e-01
1.784348607063293457e+01 3.833807032555341721e+00 5.048338580876645665e-01
1.412571263313293457e+01 2.722967188805341721e+00 3.511931110173520665e-01
1.459299778938293457e+01 2.848943751305341721e+00 3.789183307439145665e-01
1.509580540657043457e+01 2.984441798180341721e+00 4.087645221501645665e-01
1.718064427375793457e+01 3.316106837242841721e+00 5.124632526189145665e-01
1.712717747688293457e+01 3.471502345055341721e+00 5.240751910954770665e-01
1.726011204719543457e+01 3.635320704430341721e+00 5.431029010564145665e-01
1.782090306282043457e+01 3.826116602867841721e+00 5.798308063298520665e-01
1.410740208625793457e+01 2.718084376305341721e+00 4.088713336736020665e-01
1.457334446907043457e+01 2.843572657555341721e+00 4.390074420720395665e-01
1.507480931282043457e+01 2.978704493492841721e+00 4.711119342595395665e-01
1.717893528938293457e+01 3.309759180992841721e+00 5.852324176579770665e-01
1.712546849250793457e+01 3.465276759117841721e+00 5.966154742986020665e-01
1.723887181282043457e+01 3.628118555992841721e+00 6.154143024236020665e-01
1.779844212532043457e+01 3.818548243492841721e+00 6.542631793767270665e-01
1.408909153938293457e+01 2.713201563805341721e+00 4.667326617986020665e-01
1.455381321907043457e+01 2.838323634117841721e+00 4.986387897282895665e-01
1.505393528938293457e+01 2.973089259117841721e+00 5.329710651189145665e-01
1.717954564094543457e+01 3.303533595055341721e+00 6.577421832829770665e-01
1.712388157844543457e+01 3.459051173180341721e+00 6.688048053532895665e-01
1.721787571907043457e+01 3.621038477867841721e+00 6.871763873845395665e-01
1.777598118782043457e+01 3.810857813805341721e+00 7.289396930486020665e-01
1.407090306282043457e+01 2.708196680992841721e+00 5.241514850407895665e-01
1.453440403938293457e+01 2.833074610680341721e+00 5.581328082829770665e-01
1.503306126594543457e+01 2.967474024742841721e+00 5.950133014470395665e-01
1.718052220344543457e+01 3.297308009117841721e+00 7.307249713689145665e-01
1.712217259407043457e+01 3.452825587242841721e+00 7.413908649236020665e-01
1.719687962532043457e+01 3.613958399742841721e+00 7.588011432439145665e-01
1.775364232063293457e+01 3.803289454430341721e+00 8.030516315251645665e-01
1.405259251594543457e+01 2.703313868492841721e+00 5.817534137517270665e-01
1.451487278938293457e+01 2.827825587242841721e+00 6.177946735173520665e-01
1.501230931282043457e+01 2.961858790367841721e+00 6.565672565251645665e-01
1.718149876594543457e+01 3.291082423180341721e+00 8.033568073064145665e-01
1.712046360969543457e+01 3.446600001305341721e+00 8.136259723454770665e-01
1.717588353157043457e+01 3.606756251305341721e+00 8.306547809392270665e-01
1.773118138313293457e+01 3.795599024742841721e+00 8.773924518376645665e-01
1.403440403938293457e+01 2.698431055992841721e+00 6.389128375798520665e-01
1.449546360969543457e+01 2.822698634117841721e+00 6.769987750798520665e-01
1.499155735969543457e+01 2.956365626305341721e+00 7.179838825017270665e-01
1.718259739875793457e+01 3.284978907555341721e+00 8.760344196111020665e-01
1.711875462532043457e+01 3.440374415367841721e+00 8.858915973454770665e-01
1.715500950813293457e+01 3.599676173180341721e+00 9.019896198064145665e-01
1.770896458625793457e+01 3.788152735680341721e+00 9.511839557439145665e-01
1.401621556282043457e+01 2.693548243492841721e+00 6.962401080876645665e-01
1.447605443000793457e+01 2.817449610680341721e+00 7.363707233220395665e-01
1.497080540657043457e+01 2.950750391930341721e+00 7.795530963689145665e-01
1.718357396125793457e+01 3.278631251305341721e+00 9.491697955876645665e-01
1.711704564094543457e+01 3.434026759117841721e+00 9.585692096501645665e-01
1.713401341438293457e+01 3.592474024742841721e+00 9.735380817204770665e-01
1.768674778938293457e+01 3.780584376305341721e+00 1.025219600275164566e+00
1.399814915657043457e+01 2.688665430992841721e+00 7.531248737126645665e-01
1.445688939094543457e+01 2.812200587242841721e+00 7.953001666814145665e-01
1.495029759407043457e+01 2.945257227867841721e+00 8.406645465642270665e-01
1.720127415657043457e+01 3.272893946617841721e+00 1.023113887384539566e+00
1.711545872688293457e+01 3.427801173180341721e+00 1.030880611017352066e+00
1.711313939094543457e+01 3.585516016930341721e+00 1.044567744806414566e+00
1.766965794563293457e+01 3.773260157555341721e+00 1.099056880548602066e+00
1.398008275032043457e+01 2.683782618492841721e+00 8.101927448064145665e-01
1.443748021125793457e+01 2.807073634117841721e+00 8.543974567204770665e-01
1.492966771125793457e+01 2.939641993492841721e+00 9.016081500798520665e-01
1.714292454719543457e+01 3.422674220055341721e+00 1.105435054376727066e+00
1.396213841438293457e+01 2.679021876305341721e+00 8.668333698064145665e-01
1.441831517219543457e+01 2.801946680992841721e+00 9.130369830876645665e-01
1.493589329719543457e+01 2.934270899742841721e+00 9.648253131657895665e-01
1.399253392219543457e+01 2.673406641930341721e+00 9.275480914861020665e-01
1.419431614875793457e+01 3.637151759117841721e+00 1.954619098454770665e-01
1.441550755500793457e+01 3.780462305992841721e+00 2.116209674626645665e-01
1.463437962532043457e+01 3.928167384117841721e+00 2.278258014470395665e-01
1.486204075813293457e+01 4.081731837242841721e+00 2.446562457829770665e-01
1.509727025032043457e+01 4.240423243492841721e+00 2.620512653142270665e-01
1.534128880500793457e+01 4.405096095055341721e+00 2.801024127751645665e-01
1.573362278938293457e+01 4.593084376305341721e+00 3.027159381657895665e-01
1.603550267219543457e+01 4.777166407555341721e+00 3.230253864079770665e-01
1.622434544563293457e+01 3.751775782555341721e+00 3.096129108220395665e-01
1.655979466438293457e+01 3.923040430992841721e+00 3.314329791814145665e-01
1.692588353157043457e+01 4.103704493492841721e+00 3.551146198064145665e-01
1.729697728157043457e+01 4.292913477867841721e+00 3.792387653142270665e-01
1.759067845344543457e+01 4.481756251305341721e+00 4.016234088689145665e-01
1.820457005500793457e+01 4.711614649742841721e+00 4.345518756657895665e-01
1.903647923469543457e+01 4.980657618492841721e+00 4.752012897282895665e-01
1.957639622688293457e+01 5.228582423180341721e+00 5.079924274236020665e-01
1.786997532844543457e+01 3.842229884117841721e+00 4.302488971501645665e-01
1.847593235969543457e+01 4.048284571617841721e+00 4.638792682439145665e-01
2.046384739875793457e+01 4.566961329430341721e+00 5.609404254704770665e-01
2.039499974250793457e+01 4.751775782555341721e+00 5.746885944157895665e-01
2.090964818000793457e+01 4.998846095055341721e+00 6.093260455876645665e-01
2.154526829719543457e+01 5.271673243492841721e+00 6.493803668767270665e-01
1.784751439094543457e+01 3.834539454430341721e+00 5.050322223454770665e-01
1.845176243782043457e+01 4.040105860680341721e+00 5.418516803532895665e-01
2.046274876594543457e+01 4.559637110680341721e+00 6.490904498845395665e-01
2.039145970344543457e+01 4.744207423180341721e+00 6.625029254704770665e-01
2.088682103157043457e+01 4.989080470055341721e+00 6.988188434392270665e-01
2.152109837532043457e+01 5.261297266930341721e+00 7.418333698064145665e-01
1.782493138313293457e+01 3.826849024742841721e+00 5.800444293767270665e-01
1.842771458625793457e+01 4.031927149742841721e+00 6.192289996892270665e-01
2.046165013313293457e+01 4.552312891930341721e+00 7.368132282048520665e-01
2.038804173469543457e+01 4.736761134117841721e+00 7.498747516423520665e-01
2.086423802375793457e+01 4.979314845055341721e+00 7.877012897282895665e-01
2.149717259407043457e+01 5.251043360680341721e+00 8.336455035954770665e-01
1.780247044563293457e+01 3.819280665367841721e+00 6.544920612126645665e-01
1.840366673469543457e+01 4.023748438805341721e+00 6.968352008611020665e-01
2.046055150032043457e+01 4.544988673180341721e+00 8.250395465642270665e-01
2.038450169563293457e+01 4.729314845055341721e+00 8.377348590642270665e-01
2.084153294563293457e+01 4.969671290367841721e+00 8.768889117986020665e-01
2.147312474250793457e+01 5.240667384117841721e+00 9.257628131657895665e-01
1.777988743782043457e+01 3.811590235680341721e+00 7.291838336736020665e-01
1.837974095344543457e+01 4.015691798180341721e+00 7.738615680486020665e-01
2.045945286750793457e+01 4.537786524742841721e+00 9.128386188298520665e-01
2.038108372688293457e+01 4.721868555992841721e+00 9.251372028142270665e-01
2.081894993782043457e+01 4.959905665367841721e+00 9.654509235173520665e-01
2.144919896125793457e+01 5.230413477867841721e+00 1.017239253595477066e+00
1.775754857063293457e+01 3.804021876305341721e+00 8.033110309392270665e-01
1.835593724250793457e+01 4.007513087242841721e+00 8.507200885564145665e-01
2.045835423469543457e+01 4.530340235680341721e+00 1.001141231134539566e+00
2.037888646125793457e+01 4.714422266930341721e+00 1.013119380548602066e+00
2.079624485969543457e+01 4.950262110680341721e+00 1.054318111017352066e+00
2.142539525032043457e+01 5.220281641930341721e+00 1.108532588556414566e+00
1.773520970344543457e+01 3.796453516930341721e+00 8.776823688298520665e-01
1.833201146125793457e+01 3.999456446617841721e+00 9.278074909001645665e-01
2.045737767219543457e+01 4.523016016930341721e+00 1.089016597345477066e+00
2.037778782844543457e+01 4.707220118492841721e+00 1.100720088556414566e+00
2.077378392219543457e+01 4.940618555992841721e+00 1.142574946954852066e+00
2.140146946907043457e+01 5.210027735680341721e+00 1.200161616876727066e+00
1.771299290657043457e+01 3.788885157555341721e+00 9.514891315251645665e-01
1.830820775032043457e+01 3.991399805992841721e+00 1.004330318048602066e+00
2.045627903938293457e+01 4.515813868492841721e+00 1.176937739923602066e+00
2.037668919563293457e+01 4.699895899742841721e+00 1.188351314142352066e+00
2.075132298469543457e+01 4.930975001305341721e+00 1.230663936212664566e+00
2.139023900032043457e+01 5.201238673180341721e+00 1.292004268243914566e+00
1.769065403938293457e+01 3.781316798180341721e+00 1.025540034845477066e+00
1.828440403938293457e+01 3.983221095055341721e+00 1.081066768243914566e+00
2.046921849250793457e+01 4.509588282555341721e+00 1.266369502618914566e+00
2.041562962532043457e+01 4.696477930992841721e+00 1.279385249689227066e+00
1.767393040657043457e+01 3.774114649742841721e+00 1.099423091486102066e+00
1.831138157844543457e+01 3.978582423180341721e+00 1.160977046564227066e+00
1.603769993782043457e+01 4.777898829430341721e+00 3.231321979314145665e-01
1.636374974250793457e+01 4.971868555992841721e+00 3.449675250798520665e-01
1.672556614875793457e+01 5.178167384117841721e+00 3.680998492986020665e-01
1.711289525032043457e+01 5.397039454430341721e+00 3.926817584782895665e-01
1.749582982063293457e+01 5.622991602867841721e+00 4.177519489079770665e-01
1.808140110969543457e+01 5.893865626305341721e+00 4.501158405095395665e-01
1.858420872688293457e+01 6.162176173180341721e+00 4.807554889470395665e-01
1.951816868782043457e+01 6.527532618492841721e+00 5.265165973454770665e-01
1.958140110969543457e+01 5.229925196617841721e+00 5.082060504704770665e-01
1.999680638313293457e+01 5.471868555992841721e+00 5.372435260564145665e-01
2.105955052375793457e+01 5.819646876305341721e+00 5.899321246892270665e-01
2.197568821907043457e+01 6.166936915367841721e+00 6.388212848454770665e-01
2.470664525032043457e+01 6.840887110680341721e+00 7.552305866032895665e-01
2.460972142219543457e+01 7.062566798180341721e+00 7.710539508611020665e-01
2.674070286750793457e+01 7.707830470055341721e+00 8.709379840642270665e-01
2.658164525032043457e+01 7.937566798180341721e+00 8.860136676579770665e-01
2.366929173469543457e+01 5.974798243492841721e+00 7.651182819157895665e-01
2.356272435188293457e+01 6.185247462242841721e+00 7.794615436345395665e-01
2.406150364875793457e+01 6.491399805992841721e+00 8.180815387517270665e-01
2.468418431282043457e+01 6.828680079430341721e+00 8.626219440251645665e-01
4.307004857063293457e+01 1.036932949349284172e+01 1.651501338556414566e+00
2.674644017219543457e+01 7.699895899742841721e+00 9.899412799626645665e-01
2.658005833625793457e+01 7.928411524742841721e+00 1.004162471368914566e+00
2.366929173469543457e+01 5.966619532555341721e+00 8.686796832829770665e-01
2.355991673469543457e+01 6.176824610680341721e+00 8.825956989079770665e-01
2.404001927375793457e+01 6.479803126305341721e+00 9.228636432439145665e-01
2.466172337532043457e+01 6.816473048180341721e+00 9.704252887517270665e-01
4.321396946907043457e+01 1.038019375130534172e+01 1.853085200861102066e+00
4.291794896125793457e+01 1.075580410286784172e+01 1.874767940118914566e+00
2.657847142219543457e+01 7.919256251305341721e+00 1.121731441095477066e+00
2.366916966438293457e+01 5.958440821617841721e+00 9.717528034001645665e-01
2.355723118782043457e+01 6.168279688805341721e+00 9.852110553532895665e-01
2.401865696907043457e+01 6.468206446617841721e+00 1.026959102228289566e+00
2.463938450813293457e+01 6.804388087242841721e+00 1.077511470392352066e+00
4.330820775032043457e+01 1.038226894661784172e+01 2.052532832697039566e+00
2.657700657844543457e+01 7.909978907555341721e+00 1.240002315118914566e+00
2.367222142219543457e+01 5.950750391930341721e+00 1.075588862970477066e+00
2.355515599250793457e+01 6.159856837242841721e+00 1.088436763361102066e+00
2.399729466438293457e+01 6.456609766930341721e+00 1.131466548517352066e+00
2.461692357063293457e+01 6.792181055992841721e+00 1.185024898126727066e+00
2.657810521125793457e+01 7.901433985680341721e+00 1.357830684259539566e+00
2.367588353157043457e+01 5.943059962242841721e+00 1.179012935236102066e+00
2.355503392219543457e+01 6.151800196617841721e+00 1.191265742853289566e+00
2.397605443000793457e+01 6.445135157555341721e+00 1.235287349298602066e+00
2.459458470344543457e+01 6.780096095055341721e+00 1.291821162775164566e+00
2.657957005500793457e+01 7.892766993492841721e+00 1.476406734064227066e+00
2.367954564094543457e+01 5.935369532555341721e+00 1.282513301447039566e+00
2.355503392219543457e+01 6.143743555992841721e+00 1.294720332697039566e+00
2.395469212532043457e+01 6.433538477867841721e+00 1.339520137384539566e+00
2.457224583625793457e+01 6.768011134117841721e+00 1.399044673517352066e+00
2.368491673469543457e+01 5.927923243492841721e+00 1.386776607111102066e+00
2.356174778938293457e+01 6.136663477867841721e+00 1.398129146173602066e+00
2.406846165657043457e+01 6.443304102867841721e+00 1.452267329767352066e+00
1.952390599250793457e+01 6.529241602867841721e+00 5.267607379704770665e-01
2.051243138313293457e+01 6.926214259117841721e+00 5.763823200017270665e-01
2.170676732063293457e+01 7.390203516930341721e+00 6.345640826970395665e-01
2.307541966438293457e+01 7.921453516930341721e+00 7.011992145329770665e-01
5.547544407844543457e+01 1.601117519661784172e+01 1.931408565118914566e+00
2.940977025032043457e+01 9.982488673180341721e+00 9.788328815251645665e-01
2.984934544563293457e+01 1.039691738411784172e+01 1.019116084650164566e+00
3.038279271125793457e+01 1.084686855599284172e+01 1.063152949884539566e+00
2.658152318000793457e+01 7.938421290367841721e+00 8.860747028142270665e-01
2.706870579719543457e+01 8.302434962242841721e+00 9.259001422673520665e-01
2.764976048469543457e+01 8.698431055992841721e+00 9.710814166814145665e-01
5.663303685188293457e+01 1.569269375130534172e+01 2.190518062189227066e+00
5.617490696907043457e+01 1.616205410286784172e+01 2.216763179376727066e+00
2.940964818000793457e+01 9.972845118492841721e+00 1.111828486993914566e+00
2.983286595344543457e+01 1.038287929818034172e+01 1.153072993829852066e+00
3.036558079719543457e+01 1.083234218880534172e+01 1.200665156915789566e+00
2.657993626594543457e+01 7.929266016930341721e+00 1.004223506525164566e+00
2.704966282844543457e+01 8.289373438805341721e+00 1.045849483087664566e+00
2.762998509407043457e+01 8.685003321617841721e+00 1.093350093439227066e+00
5.791440892219543457e+01 1.597028164193034172e+01 2.508953731134539566e+00
5.728306126594543457e+01 1.641144375130534172e+01 2.526638667657977066e+00
2.940940403938293457e+01 9.963323634117841721e+00 1.244183223322039566e+00
2.981614232063293457e+01 1.036884121224284172e+01 1.287686030939227066e+00
3.034836888313293457e+01 1.081781582161784172e+01 1.338101070001727066e+00
2.657834935188293457e+01 7.920110743492841721e+00 1.121807735040789566e+00
2.703049778938293457e+01 8.276433985680341721e+00 1.165692012384539566e+00
2.761020970344543457e+01 8.671453516930341721e+00 1.216168086603289566e+00
2.941208958625793457e+01 9.954412501305341721e+00 1.377468745782977066e+00
2.979941868782043457e+01 1.035480312630534172e+01 1.422207515314227066e+00
3.033127903938293457e+01 1.080341152474284172e+01 1.474728267267352066e+00
2.657676243782043457e+01 7.910833399742841721e+00 1.240063350275164566e+00
2.701157689094543457e+01 8.263494532555341721e+00 1.284771602228289566e+00
2.759043431282043457e+01 8.658025782555341721e+00 1.338207881525164566e+00
2.941501927375793457e+01 9.945623438805341721e+00 1.510174434259539566e+00
2.978293919563293457e+01 1.034088711068034172e+01 1.555935542657977066e+00
3.031418919563293457e+01 1.078900722786784172e+01 1.611996333673602066e+00
2.657725071907043457e+01 7.902166407555341721e+00 1.357861201837664566e+00
2.699241185188293457e+01 8.250433009117841721e+00 1.404400508478289566e+00
2.757065892219543457e+01 8.644475977867841721e+00 1.460781734064227066e+00
2.943247532844543457e+01 9.940374415367841721e+00 1.644589107111102066e+00
2.657871556282043457e+01 7.893499415367841721e+00 1.476421992853289566e+00
2.697349095344543457e+01 8.237493555992841721e+00 1.523266475275164566e+00
2.761277318000793457e+01 8.644720118492841721e+00 1.586559932306414566e+00
3.038682103157043457e+01 1.084894375130534172e+01 1.063397090509539566e+00
5.432773900032043457e+01 1.798810390755534172e+01 2.061398189142352066e+00
5.404905247688293457e+01 1.847650722786784172e+01 2.092343013361102066e+00
3.201633763313293457e+01 1.228888515755534172e+01 1.203060786798602066e+00
3.242393040657043457e+01 1.275311855599284172e+01 1.245556514337664566e+00
3.292869114875793457e+01 1.326032070443034172e+01 1.293148677423602066e+00
3.964561009407043457e+01 1.589313320443034172e+01 1.619839351251727066e+00
5.241587376594543457e+01 2.080084804818034172e+01 2.232357661798602066e+00
3.036960911750793457e+01 1.083453945443034172e+01 1.200924556329852066e+00
5.509031224250793457e+01 1.818781093880534172e+01 2.347805659845477066e+00
5.492209935188293457e+01 1.871710781380534172e+01 2.385327022150164566e+00
3.201731419563293457e+01 1.227911953255534172e+01 1.350567500665789566e+00
3.240915989875793457e+01 1.273822597786784172e+01 1.394741695001727066e+00
3.291343235969543457e+01 1.324506191536784172e+01 1.445217769220477066e+00
5.344297337532043457e+01 2.056525234505534172e+01 2.488888423517352066e+00
5.315427708625793457e+01 2.104340175911784172e+01 2.518276851251727066e+00
3.035239720344543457e+01 1.082001308724284172e+01 1.338375728204852066e+00
5.605430150032043457e+01 1.844403652474284172e+01 2.653103511407977066e+00
5.589194798469543457e+01 1.898578457161784172e+01 2.690365474298602066e+00
3.202048802375793457e+01 1.226996425911784172e+01 1.497494380548602066e+00
3.239438939094543457e+01 1.272345547005534172e+01 1.543072383478289566e+00
3.289829564094543457e+01 1.322980312630534172e+01 1.596417110040789566e+00
5.629478001594543457e+01 2.151569179818034172e+01 2.897167842462664566e+00
5.680356907844543457e+01 2.230512050911784172e+01 2.972500484064227066e+00
3.033530735969543457e+01 1.080560879036784172e+01 1.475018184259539566e+00
5.748850560188293457e+01 1.883331875130534172e+01 2.993633906915789566e+00
5.764817357063293457e+01 1.948578457161784172e+01 3.050152461603289566e+00
3.202488255500793457e+01 1.226117519661784172e+01 1.645397822931414566e+00
3.237949681282043457e+01 1.270856289193034172e+01 1.692150752618914566e+00
3.290549778938293457e+01 1.322186855599284172e+01 1.749691646173602066e+00
5.815354466438293457e+01 2.212775234505534172e+01 3.274410884454852066e+00
5.808469700813293457e+01 2.273578457161784172e+01 3.318493526056414566e+00
3.031809544563293457e+01 1.079120449349284172e+01 1.612316768243914566e+00
3.179807591438293457e+01 1.147089199349284172e+01 2.453243892267352066e+00
3.182432103157043457e+01 1.180731777474284172e+01 2.484051387384539566e+00
3.179722142219543457e+01 1.146039394661784172e+01 2.599407832697039566e+00
3.182346653938293457e+01 1.179681972786784172e+01 2.630825679376727066e+00
3.179636693000793457e+01 1.144989589974284172e+01 2.744885127618914566e+00
3.182273411750793457e+01 1.178644375130534172e+01 2.776882808282977066e+00
3.205735325813293457e+01 1.219000820443034172e+01 2.829052608087664566e+00
3.179551243782043457e+01 1.143951992318034172e+01 2.891216914728289566e+00
3.182187962532043457e+01 1.177606777474284172e+01 2.923031489923602066e+00
3.207224583625793457e+01 1.218427089974284172e+01 2.978359859064227066e+00
5.279966282844543457e+01 2.458649257943034172e+01 3.222912471368914566e+00
5.182932591438293457e+01 2.481781582161784172e+01 3.211636226251727066e+00
5.254661107063293457e+01 2.575739101693034172e+01 3.312390010431414566e+00
5.941111302375793457e+01 2.377533535286784172e+01 3.662106196954852066e+00
5.965513157844543457e+01 2.454950527474284172e+01 3.738186519220477066e+00
6.086448216438293457e+01 2.569501308724284172e+01 3.878719966486102066e+00
5.358665013313293457e+01 2.361224941536784172e+01 3.441540401056414566e+00
5.264695286750793457e+01 2.387555507943034172e+01 3.430294673517352066e+00
5.269272923469543457e+01 2.452399257943034172e+01 3.486996333673602066e+00
5.175950169563293457e+01 2.477008632943034172e+01 3.474514644220477066e+00
7.187314915657043457e+01 3.406940273568034172e+01 4.981686275079852066e+00
6.988242650032043457e+01 2.822479824349284172e+01 4.767559688165789566e+00
6.064329075813293457e+01 2.559052089974284172e+01 4.169277827814227066e+00
6.152817845344543457e+01 2.664398769661784172e+01 4.295971553400164566e+00
5.293247532844543457e+01 2.396967129036784172e+01 3.719998042657977066e+00
5.278721165657043457e+01 2.454364589974284172e+01 3.763897578790789566e+00
5.289060521125793457e+01 2.522553066536784172e+01 3.827099483087664566e+00
3.547654271125793457e+01 1.534357265755534172e+01 2.638943355157977066e+00
3.542515110969543457e+01 1.574298672005534172e+01 2.672405879572039566e+00
3.696750950813293457e+01 1.807404140755534172e+01 2.957333247736102066e+00
3.547812962532043457e+01 1.533087734505534172e+01 2.820294063165789566e+00
3.542673802375793457e+01 1.573041347786784172e+01 2.854214351251727066e+00
3.700290989875793457e+01 1.807501797005534172e+01 3.152767818048602066e+00
3.547983860969543457e+01 1.531818203255534172e+01 3.002712886407977066e+00
3.542832493782043457e+01 1.571771816536784172e+01 3.037106196954852066e+00
3.670090794563293457e+01 1.748322109505534172e+01 1.706143062189227066e+00
3.684214329719543457e+01 1.799091152474284172e+01 1.749798457697039566e+00
3.725034642219543457e+01 1.861469082161784172e+01 1.808788936212664566e+00
5.219541478157043457e+01 2.545001797005534172e+01 2.693081538751727066e+00
5.430796360969543457e+01 2.702142910286784172e+01 2.866299312189227066e+00
5.390256810188293457e+01 2.751288418099284172e+01 2.894741695001727066e+00
5.392307591438293457e+01 2.292645839974284172e+01 2.806881587579852066e+00
5.286497044563293457e+01 2.316180996224284172e+01 2.797497432306414566e+00
5.220640110969543457e+01 2.353449062630534172e+01 2.810085933282977066e+00
5.165098118782043457e+01 2.394086269661784172e+01 2.828198115900164566e+00
5.176182103157043457e+01 2.461347011849284172e+01 2.885967891290789566e+00
5.148752903938293457e+01 2.512958339974284172e+01 2.920605342462664566e+00
5.615293431282043457e+01 2.780975918099284172e+01 3.264767329767352066e+00
5.621714329719543457e+01 2.853461269661784172e+01 3.325527827814227066e+00
5.712498021125793457e+01 2.408502773568034172e+01 3.279141109064227066e+00
5.350486302375793457e+01 2.338507656380534172e+01 3.109295528009539566e+00
5.229429173469543457e+01 2.354974941536784172e+01 3.085140864923602066e+00
5.254954075813293457e+01 2.428351406380534172e+01 3.154186885431414566e+00
5.165317845344543457e+01 2.454962734505534172e+01 3.148296992853289566e+00
5.752561497688293457e+01 2.768134121224284172e+01 3.592480342462664566e+00
5.770017552375793457e+01 2.846649746224284172e+01 3.663281123712664566e+00
5.967893528938293457e+01 2.500299648568034172e+01 3.741161983087664566e+00
5.352390599250793457e+01 2.337274746224284172e+01 3.383984248712664566e+00
5.322642064094543457e+01 2.389459804818034172e+01 3.417767207697039566e+00
3.724802708625793457e+01 1.811310390755534172e+01 2.358898799493914566e+00
5.227891087532043457e+01 2.478961757943034172e+01 3.460156123712664566e+00
7.166208958625793457e+01 3.367340664193034172e+01 4.903561275079852066e+00
7.129050755500793457e+01 3.438739589974284172e+01 4.951046626642352066e+00
3.910142064094543457e+01 2.080768398568034172e+01 2.653713862970477066e+00
6.173289036750793457e+01 2.573554043099284172e+01 4.190884273126727066e+00
6.100498509407043457e+01 2.618585781380534172e+01 4.200970332697039566e+00
5.304844212532043457e+01 2.380548672005534172e+01 3.679409663751727066e+00
3.724119114875793457e+01 1.809638027474284172e+01 2.554897945001727066e+00
5.291404271125793457e+01 2.503302578255534172e+01 3.780529658868914566e+00
3.911020970344543457e+01 2.079743007943034172e+01 2.862469356134539566e+00
6.156882786750793457e+01 2.637677578255534172e+01 4.556820552423602066e+00
3.724241185188293457e+01 1.808307461068034172e+01 2.750515620782977066e+00
3.911899876594543457e+01 2.078717617318034172e+01 3.072552363947039566e+00
3.724949193000793457e+01 1.807221035286784172e+01 2.946743648126727066e+00
6.556418919563293457e+01 3.176679043099284172e+01 6.238491695001727066e+00
6.565232396125793457e+01 3.261493496224284172e+01 6.323086421564227066e+00
6.544944310188293457e+01 3.169318203255534172e+01 6.569027583673602066e+00
6.617527318000793457e+01 3.282514004036784172e+01 6.721661250665789566e+00
6.509141087532043457e+01 3.231744961068034172e+01 6.948712031915789566e+00
6.569639134407043457e+01 3.175360683724284172e+01 7.277264278009539566e+00
6.635044407844543457e+01 3.285614589974284172e+01 7.434063594415789566e+00
6.719236302375793457e+01 3.320807461068034172e+01 7.880795161798602066e+00
6.620188450813293457e+01 3.274249843880534172e+01 8.110516231134539566e+00
5.864072728157043457e+01 3.022308925911784172e+01 3.794827144220477066e+00
6.207151341438293457e+01 3.257733730599284172e+01 4.096371333673602066e+00
5.235215306282043457e+01 2.343927578255534172e+01 3.310482661798602066e+00
3.726572728157043457e+01 1.806513027474284172e+01 2.322338740900164566e+00
5.210789036750793457e+01 2.461127285286784172e+01 3.402340571954852066e+00
7.108616185188293457e+01 3.325458339974284172e+01 4.805020015314227066e+00
7.137668919563293457e+01 3.425104336068034172e+01 4.899532954767352066e+00
3.912815403938293457e+01 2.077618984505534172e+01 2.618496577814227066e+00
6.082493138313293457e+01 2.669354824349284172e+01 4.201611201837664566e+00
5.225315403938293457e+01 2.401398281380534172e+01 3.630322139337664566e+00
5.283555150032043457e+01 2.489020351693034172e+01 3.729077022150164566e+00
7.176121068000793457e+01 3.439191250130534172e+01 5.300030391290789566e+00
3.913706517219543457e+01 2.076581386849284172e+01 2.829739253595477066e+00
6.830601048469543457e+01 3.459674648568034172e+01 5.180691402032977066e+00
6.164011693000793457e+01 2.698590664193034172e+01 4.577938716486102066e+00
5.228428196907043457e+01 2.400714687630534172e+01 3.904614131525164566e+00
3.914597630500793457e+01 2.075531582161784172e+01 3.041180293634539566e+00
6.825828099250793457e+01 3.455060390755534172e+01 5.535488765314227066e+00
6.555247044563293457e+01 3.414215664193034172e+01 5.380703609064227066e+00
6.489402318000793457e+01 3.381036953255534172e+01 5.669689815118914566e+00
6.817771458625793457e+01 3.361078457161784172e+01 6.168972652032977066e+00
6.752744603157043457e+01 3.416864589974284172e+01 6.186138789728289566e+00
6.747227025032043457e+01 3.499371914193034172e+01 6.259045283868914566e+00
6.598337864875793457e+01 3.261334804818034172e+01 6.310558955743914566e+00
6.762729954719543457e+01 3.418988613411784172e+01 6.553326289728289566e+00
6.408774876594543457e+01 3.338702968880534172e+01 6.277493159845477066e+00
6.526658177375793457e+01 3.227191738411784172e+01 6.584606807306414566e+00
6.455063939094543457e+01 3.276544765755534172e+01 6.588146846368914566e+00
6.527244114875793457e+01 3.391779140755534172e+01 6.742214839532977066e+00
6.568748021125793457e+01 3.162018398568034172e+01 6.893612544611102066e+00
6.516025853157043457e+01 3.220136074349284172e+01 6.915844600275164566e+00
6.545432591438293457e+01 3.315326504036784172e+01 7.027722041681414566e+00
6.504832005500793457e+01 3.378973964974284172e+01 7.065090816095477066e+00
6.536118626594543457e+01 3.226666836068034172e+01 7.282833736017352066e+00
6.463230443000793457e+01 3.275617031380534172e+01 7.280773799493914566e+00
6.446091771125793457e+01 3.349237636849284172e+01 7.341931026056414566e+00
6.619504857063293457e+01 3.261188320443034172e+01 7.725109736993914566e+00
6.384531712532043457e+01 3.237555507943034172e+01 7.528011958673602066e+00
6.452439427375793457e+01 3.349884609505534172e+01 7.693447749689227066e+00
6.633945775032043457e+01 3.265180019661784172e+01 8.092724483087664566e+00
6.451279759407043457e+01 3.265546230599284172e+01 7.950619380548602066e+00
6.516306614875793457e+01 3.209357265755534172e+01 6.766171138361102066e+00
6.544993138313293457e+01 3.304254726693034172e+01 6.877392451837664566e+00
6.401975560188293457e+01 3.320978359505534172e+01 6.804119746759539566e+00
6.541489720344543457e+01 3.469708828255534172e+01 7.037762324884539566e+00
1.939292454719543457e+01 1.307575039193034172e+01 2.027172725275164566e+00
6.538279271125793457e+01 3.216571621224284172e+01 7.136746089532977066e+00
6.466868138313293457e+01 3.266571621224284172e+01 7.138989131525164566e+00
6.481870579719543457e+01 3.355634121224284172e+01 7.238247554376727066e+00
6.522471165657043457e+01 3.458258632943034172e+01 7.368252437189227066e+00
1.881748509407043457e+01 1.278717617318034172e+01 2.076763789728289566e+00
6.555881810188293457e+01 3.221881679818034172e+01 7.502773921564227066e+00
6.463840794563293457e+01 3.262824062630534172e+01 7.479031245782977066e+00
6.441257786750793457e+01 3.334430507943034172e+01 7.536053340509539566e+00
6.504209446907043457e+01 3.447186855599284172e+01 7.695980708673602066e+00
1.839646458625793457e+01 1.257416347786784172e+01 2.139767329767352066e+00
6.384861302375793457e+01 3.224835781380534172e+01 7.727841060236102066e+00
6.425693821907043457e+01 3.324847988411784172e+01 7.862667720392352066e+00
1.893552708625793457e+01 1.255573086068034172e+01 2.290554683282977066e+00
1.840793919563293457e+01 1.257221035286784172e+01 2.252453486993914566e+00
6.583726048469543457e+01 3.311993984505534172e+01 8.320858638361102066e+00
6.423874974250793457e+01 3.321637539193034172e+01 8.203701655939227066e+00
1.895505833625793457e+01 1.255707363411784172e+01 2.407238643243914566e+00
1.841941380500793457e+01 1.257025722786784172e+01 2.365917842462664566e+00
1.897678685188293457e+01 1.255963711068034172e+01 2.523846309259539566e+00
1.883957982063293457e+01 1.276691250130534172e+01 2.535305659845477066e+00
6.573801732063293457e+01 3.307111172005534172e+01 7.222164790704852066e+00
6.488193821907043457e+01 3.351764492318034172e+01 7.211086909845477066e+00
6.435801243782043457e+01 3.410553554818034172e+01 7.236233394220477066e+00
1.919675755500793457e+01 1.303424648568034172e+01 2.122402827814227066e+00
1.797495579719543457e+01 1.271246914193034172e+01 2.009258906915789566e+00
1.797361302375793457e+01 1.298431972786784172e+01 2.036755244806414566e+00
6.558042454719543457e+01 3.214716152474284172e+01 7.469082515314227066e+00
6.571995091438293457e+01 3.303803066536784172e+01 7.571057002618914566e+00
6.446238255500793457e+01 3.329999355599284172e+01 7.510037105157977066e+00
6.479233860969543457e+01 3.428644375130534172e+01 7.635250728204852066e+00
1.838450169563293457e+01 1.263239101693034172e+01 2.142468135431414566e+00
1.793455052375793457e+01 1.268463711068034172e+01 2.116345088556414566e+00
1.785044407844543457e+01 1.291376308724284172e+01 2.134762446954852066e+00
6.578953099250793457e+01 3.304413418099284172e+01 7.932461421564227066e+00
6.426267552375793457e+01 3.318366054818034172e+01 7.833737056329852066e+00
1.891855931282043457e+01 1.260407070443034172e+01 2.294216792657977066e+00
1.839622044563293457e+01 1.263019375130534172e+01 2.258175532892352066e+00
1.830662083625793457e+01 1.286176113411784172e+01 2.275936763361102066e+00
1.726926732063293457e+01 1.261005214974284172e+01 2.172329585626727066e+00
6.391379857063293457e+01 3.217987636849284172e+01 8.046597163751727066e+00
6.419102025032043457e+01 3.312628750130534172e+01 8.170071284845477066e+00
1.893833470344543457e+01 1.260541347786784172e+01 2.412640254572039566e+00
1.880906224250793457e+01 1.282208828255534172e+01 2.425762813165789566e+00
1.825876927375793457e+01 1.283014492318034172e+01 2.384060542657977066e+00
1.726182103157043457e+01 1.259882168099284172e+01 2.280911128595477066e+00
1.917991185188293457e+01 1.243146328255534172e+01 2.531078975275164566e+00
1.896030735969543457e+01 1.260748867318034172e+01 2.532192866876727066e+00
1.798789525032043457e+01 1.241681484505534172e+01 2.430889766290789566e+00
1.846030735969543457e+01 1.292230800911784172e+01 2.525295894220477066e+00
1.725425267219543457e+01 1.258746914193034172e+01 2.389462153986102066e+00
1.787681126594543457e+01 1.302033047005534172e+01 2.118313472345477066e+00
1.717612767219543457e+01 1.293646816536784172e+01 2.061535518243914566e+00
1.692722630500793457e+01 1.307758144661784172e+01 2.059582393243914566e+00
6.460203099250793457e+01 3.251007656380534172e+01 7.688198726251727066e+00
6.429783177375793457e+01 3.319940761849284172e+01 7.738476436212664566e+00
1.889207005500793457e+01 1.266559414193034172e+01 2.271053950861102066e+00
1.874888157844543457e+01 1.288178066536784172e+01 2.283337276056414566e+00
1.830478978157043457e+01 1.294721035286784172e+01 2.257855098322039566e+00
1.724961400032043457e+01 1.269403652474284172e+01 2.154339473322039566e+00
1.715989232063293457e+01 1.292047695443034172e+01 2.171612422540789566e+00
1.693418431282043457e+01 1.307391933724284172e+01 2.171291987970477066e+00
6.444712376594543457e+01 3.241632656380534172e+01 8.018307368829852066e+00
6.423594212532043457e+01 3.314642910286784172e+01 8.080303828790789566e+00
1.871689915657043457e+01 1.257501797005534172e+01 2.366833369806414566e+00
1.878306126594543457e+01 1.289008144661784172e+01 2.405712764337664566e+00
1.789548802375793457e+01 1.273663906380534172e+01 2.320873897150164566e+00
1.782578587532043457e+01 1.297882656380534172e+01 2.341473262384539566e+00
1.726645970344543457e+01 1.296832851693034172e+01 2.297878902032977066e+00
1.687400364875793457e+01 1.303436855599284172e+01 2.274716060236102066e+00
1.913474583625793457e+01 1.247858242318034172e+01 2.509030025079852066e+00
1.797165989875793457e+01 1.249066738411784172e+01 2.415875117853289566e+00
1.791648411750793457e+01 1.273908047005534172e+01 2.438549678400164566e+00
1.674998021125793457e+01 1.242548183724284172e+01 2.309536616876727066e+00
1.695786595344543457e+01 1.280035976693034172e+01 2.367397945001727066e+00
1.684910130500793457e+01 1.301361660286784172e+01 2.382443111017352066e+00
1.778074193000793457e+01 1.277741054818034172e+01 2.185787837579852066e+00
1.720835423469543457e+01 1.277008632943034172e+01 2.144360225275164566e+00
1.713755345344543457e+01 1.301105312630534172e+01 2.164974849298602066e+00
1.686130833625793457e+01 1.314349941536784172e+01 2.159451167657977066e+00
1.678208470344543457e+01 1.338031582161784172e+01 2.179028194025164566e+00
1.733359837532043457e+01 1.396918300911784172e+01 2.280880611017352066e+00
1.888645482063293457e+01 1.273297695443034172e+01 2.381573360040789566e+00
1.829185032844543457e+01 1.273639492318034172e+01 2.337246577814227066e+00
1.785789036750793457e+01 1.280731777474284172e+01 2.311703364923602066e+00
1.681101536750793457e+01 1.256097988411784172e+01 2.206280391290789566e+00
1.712119603157043457e+01 1.299469570443034172e+01 2.276669185236102066e+00
1.680259251594543457e+01 1.310455898568034172e+01 2.264675777032977066e+00
1.703184056282043457e+01 1.350873379036784172e+01 2.326397578790789566e+00
1.672349095344543457e+01 1.362091640755534172e+01 2.315395991876727066e+00
1.882664036750793457e+01 1.269635586068034172e+01 2.494839351251727066e+00
1.795859837532043457e+01 1.256769375130534172e+01 2.411099116876727066e+00
1.787937474250793457e+01 1.280975918099284172e+01 2.431622188165789566e+00
1.682248997688293457e+01 1.255902675911784172e+01 2.320049922540789566e+00
1.703440403938293457e+01 1.294171718880534172e+01 2.379238765314227066e+00
1.691916966438293457e+01 1.315875820443034172e+01 2.394146602228289566e+00
1.712229466438293457e+01 1.355023769661784172e+01 2.453594844415789566e+00
1.671897435188293457e+01 1.361066250130534172e+01 2.428921382501727066e+00
1.665378880500793457e+01 1.428473476693034172e+01 2.299206416681414566e+00
1.726291966438293457e+01 1.259711269661784172e+01 2.272747676447039566e+00
1.717722630500793457e+01 1.283478359505534172e+01 2.293163936212664566e+00
1.665232396125793457e+01 1.284564785286784172e+01 2.255077998712664566e+00
1.668931126594543457e+01 1.314569668099284172e+01 2.291561763361102066e+00
1.700327610969543457e+01 1.359943203255534172e+01 2.365749995782977066e+00
1.683115696907043457e+01 1.379364589974284172e+01 2.374920528009539566e+00
1.671372532844543457e+01 1.401862148568034172e+01 2.392208736017352066e+00
1.659727025032043457e+01 1.424347500130534172e+01 2.408917110040789566e+00
1.725498509407043457e+01 1.258453945443034172e+01 2.388012569025164566e+00
1.689377903938293457e+01 1.268305019661784172e+01 2.370571773126727066e+00
1.688462376594543457e+01 1.295770839974284172e+01 2.401379268243914566e+00
1.675278782844543457e+01 1.317096523568034172e+01 2.415600459650164566e+00
1.693418431282043457e+01 1.355341152474284172e+01 2.473599116876727066e+00
1.682541966438293457e+01 1.378204922005534172e+01 2.491375606134539566e+00
1.678977513313293457e+01 1.405377773568034172e+01 2.519787471368914566e+00
1.661008763313293457e+01 1.424262050911784172e+01 2.528118770197039566e+00
1.754429173469543457e+01 1.526520351693034172e+01 2.227688472345477066e+00
1.821665501594543457e+01 1.599396328255534172e+01 2.346874873712664566e+00
1.727793431282043457e+01 1.328522304818034172e+01 2.117977778986102066e+00
1.675974583625793457e+01 1.330292324349284172e+01 2.086254756525164566e+00
1.682126927375793457e+01 1.362616543099284172e+01 2.125988643243914566e+00
1.706223607063293457e+01 1.405536464974284172e+01 2.188885371759539566e+00
1.703647923469543457e+01 1.434100918099284172e+01 2.218884151056414566e+00
1.709861302375793457e+01 1.468085293099284172e+01 2.260494868829852066e+00
1.748105931282043457e+01 1.521832851693034172e+01 2.344402949884539566e+00
1.768137669563293457e+01 1.565741543099284172e+01 2.406490962579852066e+00
1.687998509407043457e+01 1.306976894661784172e+01 2.187008540704852066e+00
1.678904271125793457e+01 1.330951504036784172e+01 2.207958858087664566e+00
1.734092259407043457e+01 1.389996914193034172e+01 2.312130611017352066e+00
1.696970677375793457e+01 1.399469570443034172e+01 2.297695796564227066e+00
1.657151341438293457e+01 1.406683925911784172e+01 2.278851192072039566e+00
1.815452122688293457e+01 1.528815273568034172e+01 2.524288814142352066e+00
1.762559056282043457e+01 1.529547695443034172e+01 2.489254634454852066e+00
1.822141575813293457e+01 1.597809414193034172e+01 2.606854121759539566e+00
1.685386204719543457e+01 1.304730800911784172e+01 2.301510493829852066e+00
1.908921360969543457e+01 1.452155117318034172e+01 2.632260005548602066e+00
1.724729466438293457e+01 1.383991054818034172e+01 2.420620601251727066e+00
1.680869603157043457e+01 1.389618496224284172e+01 2.395611445978289566e+00
1.666184544563293457e+01 1.410956386849284172e+01 2.409695308282977066e+00
1.645310521125793457e+01 1.428644375130534172e+01 2.415112178400164566e+00
1.758860325813293457e+01 1.526422695443034172e+01 2.610195796564227066e+00
1.822385716438293457e+01 1.597015957161784172e+01 2.737301509454852066e+00
1.705784153938293457e+01 1.314398769661784172e+01 2.447308223322039566e+00
1.665110325813293457e+01 1.321857265755534172e+01 2.424587886407977066e+00
1.670298314094543457e+01 1.353510097786784172e+01 2.465786616876727066e+00
1.690098118782043457e+01 1.393866543099284172e+01 2.528332393243914566e+00
1.668125462532043457e+01 1.411176113411784172e+01 2.532040278986102066e+00
1.638804173469543457e+01 1.423969082161784172e+01 2.524853389337664566e+00
1.879539036750793457e+01 1.597479824349284172e+01 2.911801021173602066e+00
1.819272923469543457e+01 1.607636074349284172e+01 2.442288081720477066e+00
1.811521458625793457e+01 1.636578945443034172e+01 2.469494502618914566e+00
1.247165989875793457e+01 1.310626797005534172e+01 1.760906856134539566e+00
1.674351048469543457e+01 1.365411953255534172e+01 2.206844966486102066e+00
1.722593235969543457e+01 1.422076992318034172e+01 2.302593867853289566e+00
1.673679661750793457e+01 1.425067714974284172e+01 2.273785274103289566e+00
1.706016087532043457e+01 1.474555019661784172e+01 2.350964229181414566e+00
1.798276829719543457e+01 1.560883144661784172e+01 2.509182612970477066e+00
1.819492650032043457e+01 1.606805996224284172e+01 2.575024287775164566e+00
1.811741185188293457e+01 1.635761074349284172e+01 2.602612178400164566e+00
1.248826146125793457e+01 1.310956386849284172e+01 1.865276973322039566e+00
1.673728489875793457e+01 1.364154629036784172e+01 2.326946895197039566e+00
1.674228978157043457e+01 1.394269375130534172e+01 2.362042110040789566e+00
1.675547337532043457e+01 1.425226406380534172e+01 2.398007075861102066e+00
1.818772435188293457e+01 1.539264492318034172e+01 2.629498164728289566e+00
1.749131321907043457e+01 1.530658535286784172e+01 2.570965449884539566e+00
1.819724583625793457e+01 1.605975918099284172e+01 2.707119624689227066e+00
1.811960911750793457e+01 1.634943203255534172e+01 2.735806148126727066e+00
1.250498509407043457e+01 1.311285976693034172e+01 1.970425288751727066e+00
1.673105931282043457e+01 1.362909511849284172e+01 2.447033565118914566e+00
1.683567357063293457e+01 1.398554043099284172e+01 2.496075313165789566e+00
1.679197239875793457e+01 1.426386074349284172e+01 2.525631587579852066e+00
1.781077122688293457e+01 1.516376308724284172e+01 2.706768672540789566e+00
1.863633275032043457e+01 1.597870449349284172e+01 2.863674800470477066e+00
1.819944310188293457e+01 1.605145839974284172e+01 2.839993159845477066e+00
1.252183079719543457e+01 1.311615566536784172e+01 2.075817744806414566e+00
1.106174778938293457e+01 1.282941250130534172e+01 1.520977656915789566e+00
1.669211888313293457e+01 1.430670742318034172e+01 2.121151607111102066e+00
1.778794407844543457e+01 1.525433925911784172e+01 2.291454951837664566e+00
1.781101536750793457e+01 1.559711269661784172e+01 2.331020991876727066e+00
1.817270970344543457e+01 1.615167812630534172e+01 2.414395015314227066e+00
1.809397435188293457e+01 1.644537929818034172e+01 2.442410152032977066e+00
1.222678685188293457e+01 1.305792812630534172e+01 1.714871089532977066e+00
1.163657689094543457e+01 1.294220547005534172e+01 1.666729610040789566e+00
1.107700657844543457e+01 1.283234218880534172e+01 1.621639888361102066e+00
1.819199681282043457e+01 1.514887050911784172e+01 2.437313716486102066e+00
1.846335911750793457e+01 1.563690761849284172e+01 2.510159175470477066e+00
1.826438450813293457e+01 1.585675625130534172e+01 2.522518794611102066e+00
1.817490696907043457e+01 1.614313320443034172e+01 2.549450557306414566e+00
1.809629368782043457e+01 1.643683437630534172e+01 2.577877681329852066e+00
1.224412083625793457e+01 1.306134609505534172e+01 1.821041743829852066e+00
1.165281224250793457e+01 1.294537929818034172e+01 1.770184199884539566e+00
1.109226536750793457e+01 1.283539394661784172e+01 1.721981685236102066e+00
1.663376927375793457e+01 1.425482754036784172e+01 2.361508052423602066e+00
1.778965306282043457e+01 1.523566250130534172e+01 2.553784053400164566e+00
1.824216771125793457e+01 1.583356289193034172e+01 2.653225581720477066e+00
1.817722630500793457e+01 1.613458828255534172e+01 2.683865230157977066e+00
1.809849095344543457e+01 1.642828945443034172e+01 2.712719600275164566e+00
1.226145482063293457e+01 1.306476406380534172e+01 1.926876704767352066e+00
1.166904759407043457e+01 1.294855312630534172e+01 1.873867671564227066e+00
1.110752415657043457e+01 1.283832363411784172e+01 1.823086421564227066e+00
1.658872532844543457e+01 1.421979336068034172e+01 2.479412715509539566e+00
1.773777318000793457e+01 1.519562343880534172e+01 2.676922481134539566e+00
1.830832982063293457e+01 1.586273769661784172e+01 2.797009151056414566e+00
1.817954564094543457e+01 1.612592129036784172e+01 2.819073360040789566e+00
1.810386204719543457e+01 1.642157558724284172e+01 2.848782222345477066e+00
1.227891087532043457e+01 1.306818203255534172e+01 2.033520381525164566e+00
1.168528294563293457e+01 1.295172695443034172e+01 1.977215449884539566e+00
1.112290501594543457e+01 1.284137539193034172e+01 1.924389522150164566e+00
1.815769505500793457e+01 1.620783047005534172e+01 2.370251338556414566e+00
1.266868138313293457e+01 1.314960293099284172e+01 1.714382808282977066e+00
1.202476048469543457e+01 1.301813320443034172e+01 1.663113277032977066e+00
1.142661595344543457e+01 1.290070156380534172e+01 1.616009395197039566e+00
1.085752415657043457e+01 1.278912929818034172e+01 1.571209590509539566e+00
1.031357884407043457e+01 1.268231777474284172e+01 1.528393428400164566e+00
9.806254625320434570e+00 1.258759121224284172e+01 1.489498775079852066e+00
1.783689427375793457e+01 1.566351894661784172e+01 2.426205318048602066e+00
1.816013646125793457e+01 1.619879726693034172e+01 2.507565181329852066e+00
1.269004368782043457e+01 1.315460781380534172e+01 1.825192134454852066e+00
1.204307103157043457e+01 1.302167324349284172e+01 1.770718257501727066e+00
1.144382786750793457e+01 1.290411953255534172e+01 1.720898311212664566e+00
1.087363743782043457e+01 1.279230312630534172e+01 1.673489253595477066e+00
1.032871556282043457e+01 1.268536953255534172e+01 1.628185908868914566e+00
9.819560289382934570e+00 1.258966640755534172e+01 1.586346309259539566e+00
1.824680638313293457e+01 1.589581875130534172e+01 2.615704219415789566e+00
1.816257786750793457e+01 1.618964199349284172e+01 2.644955318048602066e+00
1.271140599250793457e+01 1.315961269661784172e+01 1.935696284845477066e+00
1.206125950813293457e+01 1.302521328255534172e+01 1.877987544611102066e+00
1.146091771125793457e+01 1.290753750130534172e+01 1.825436275079852066e+00
1.088975071907043457e+01 1.279547695443034172e+01 1.775448482111102066e+00
1.034409642219543457e+01 1.268829922005534172e+01 1.728192012384539566e+00
