1.820821341872215271e+01 3.996991228312253952e+00 4.406915899366197209e-01
2.019612845778465271e+01 4.515667986124753952e+00 5.377527471631822209e-01
2.012728080153465271e+01 4.700482439249753952e+00 5.515009161084947209e-01
2.064192923903465271e+01 4.947552751749753952e+00 5.861383672803697209e-01
2.127754935622215271e+01 5.220379900187253952e+00 6.261926885694322209e-01
1.757979544997215271e+01 3.783246111124753952e+00 4.818445440381822209e-01
1.818404349684715271e+01 3.988812517374753952e+00 5.186640020459947209e-01
2.019502982497215271e+01 4.508343767374753952e+00 6.259027715772447209e-01
2.012374076247215271e+01 4.692914079874753952e+00 6.393152471631822209e-01
2.061910209059715271e+01 4.937787126749753952e+00 6.756311651319322209e-01
2.125337943434715271e+01 5.210003923624753952e+00 7.186456914991197209e-01
1.755721244215965271e+01 3.775555681437253952e+00 5.568567510694322209e-01
1.815999564528465271e+01 3.980633806437253952e+00 5.960413213819322209e-01
2.019393119215965271e+01 4.501019548624753952e+00 7.136255498975572209e-01
2.012032279372215271e+01 4.685467790812253952e+00 7.266870733350572209e-01
2.059651908278465271e+01 4.928021501749753952e+00 7.645136114209947209e-01
2.122945365309715271e+01 5.199750017374753952e+00 8.104578252881822209e-01
1.753475150465965271e+01 3.767987322062253952e+00 6.313043829053697209e-01
1.813594779372215271e+01 3.972455095499753952e+00 6.736475225538072209e-01
2.019283255934715271e+01 4.493695329874753952e+00 8.018518682569322209e-01
2.011678275465965271e+01 4.678021501749753952e+00 8.145471807569322209e-01
2.057381400465965271e+01 4.918377947062253952e+00 8.537012334913072209e-01
2.120540580153465271e+01 5.189374040812253952e+00 9.025751348584947209e-01
1.751216849684715271e+01 3.760296892374753952e+00 7.059961553663072209e-01
1.811202201247215271e+01 3.964398454874753952e+00 7.506738897413072209e-01
2.019173392653465271e+01 4.486493181437253952e+00 8.896509405225572209e-01
2.011336478590965271e+01 4.670575212687253952e+00 9.019495245069322209e-01
2.055123099684715271e+01 4.908612322062253952e+00 9.422632452100572209e-01
2.118148002028465271e+01 5.179120134562253952e+00 9.940515752881822209e-01
1.748982962965965271e+01 3.752728532999753952e+00 7.801233526319322209e-01
1.808821830153465271e+01 3.956219743937253952e+00 8.275324102491197209e-01
2.019063529372215271e+01 4.479046892374753952e+00 9.779535528272447209e-01
2.011116752028465271e+01 4.663128923624753952e+00 9.899317022413072209e-01
2.052852591872215271e+01 4.898968767374753952e+00 1.031130432710057221e+00
2.115767630934715271e+01 5.168988298624753952e+00 1.085344910249119721e+00
1.746749076247215271e+01 3.745160173624753952e+00 8.544946905225572209e-01
1.806429252028465271e+01 3.948163103312253952e+00 9.046198125928697209e-01
2.018965873122215271e+01 4.471722673624753952e+00 1.065828919038182221e+00
2.011006888747215271e+01 4.655926775187253952e+00 1.077532410249119721e+00
2.050606498122215271e+01 4.889325212687253952e+00 1.119387268647557221e+00
2.113375052809715271e+01 5.158734392374753952e+00 1.176973938569432221e+00
1.744527396559715271e+01 3.737591814249753952e+00 9.283014532178697209e-01
1.804048880934715271e+01 3.940106462687253952e+00 9.811426397413072209e-01
2.018856009840965271e+01 4.464520525187253952e+00 1.153750061616307221e+00
2.010897025465965271e+01 4.648602556437253952e+00 1.165163635835057221e+00
2.048360404372215271e+01 4.879681657999753952e+00 1.207476257905369721e+00
2.112252005934715271e+01 5.149945329874753952e+00 1.268816589936619721e+00
1.742293509840965271e+01 3.730023454874753952e+00 1.002352356538182221e+00
1.801668509840965271e+01 3.931927751749753952e+00 1.057879089936619721e+00
2.020149955153465271e+01 4.458294939249753952e+00 1.243181824311619721e+00
2.014791068434715271e+01 4.645184587687253952e+00 1.256197571381932221e+00
1.740621146559715271e+01 3.722821306437253952e+00 1.076235413178807221e+00
1.804366263747215271e+01 3.927289079874753952e+00 1.137789368256932221e+00
1.576998099684715271e+01 4.726605486124753952e+00 2.999445196241197209e-01
1.609603080153465271e+01 4.920575212687253952e+00 3.217798467725572209e-01
1.645784720778465271e+01 5.126874040812253952e+00 3.449121709913072209e-01
1.684517630934715271e+01 5.345746111124753952e+00 3.694940801709947209e-01
1.722811087965965271e+01 5.571698259562253952e+00 3.945642706006822209e-01
1.781368216872215271e+01 5.842572282999753952e+00 4.269281622022447209e-01
1.831648978590965271e+01 6.110882829874753952e+00 4.575678106397447209e-01
1.925044974684715271e+01 6.476239275187253952e+00 5.033289190381822209e-01
1.931368216872215271e+01 5.178631853312253952e+00 4.850183721631822209e-01
1.972908744215965271e+01 5.420575212687253952e+00 5.140558477491197209e-01
2.079183158278465271e+01 5.768353532999753952e+00 5.667444463819322209e-01
2.170796927809715271e+01 6.115643572062253952e+00 6.156336065381822209e-01
2.443892630934715271e+01 6.789593767374753952e+00 7.320429082959947209e-01
2.434200248122215271e+01 7.011273454874753952e+00 7.478662725538072209e-01
2.647298392653465271e+01 7.656537126749753952e+00 8.477503057569322209e-01
2.631392630934715271e+01 7.886273454874753952e+00 8.628259893506822209e-01
2.340157279372215271e+01 5.923504900187253952e+00 7.419306036084947209e-01
2.329500541090965271e+01 6.133954118937253952e+00 7.562738653272447209e-01
2.379378470778465271e+01 6.440106462687253952e+00 7.948938604444322209e-01
2.441646537184715271e+01 6.777386736124753952e+00 8.394342657178697209e-01
4.280232962965965271e+01 1.031803615018725395e+01 1.628313660249119721e+00
2.647872123122215271e+01 7.648602556437253952e+00 9.667536016553697209e-01
2.631233939528465271e+01 7.877118181437253952e+00 9.809747930616197209e-01
2.340157279372215271e+01 5.915326189249753952e+00 8.454920049756822209e-01
2.329219779372215271e+01 6.125531267374753952e+00 8.594080206006822209e-01
2.377230033278465271e+01 6.428509782999753952e+00 8.996759649366197209e-01
2.439400443434715271e+01 6.765179704874753952e+00 9.472376104444322209e-01
4.294625052809715271e+01 1.032890040799975395e+01 1.829897522553807221e+00
4.265023002028465271e+01 1.070451075956225395e+01 1.851580261811619721e+00
2.631075248122215271e+01 7.867962907999753952e+00 1.098543762788182221e+00
2.340145072340965271e+01 5.907147478312253952e+00 9.485651250928697209e-01
2.328951224684715271e+01 6.116986345499753952e+00 9.620233770459947209e-01
2.375093802809715271e+01 6.416913103312253952e+00 1.003771423920994721e+00
2.437166556715965271e+01 6.753094743937253952e+00 1.054323792085057221e+00
4.304048880934715271e+01 1.033097560331225395e+01 2.029345154389744721e+00
2.630928763747215271e+01 7.858685564249753952e+00 1.216814636811619721e+00
2.340450248122215271e+01 5.899457048624753952e+00 1.052401184663182221e+00
2.328743705153465271e+01 6.108563493937253952e+00 1.065249085053807221e+00
2.372957572340965271e+01 6.405316423624753952e+00 1.108278870210057221e+00
2.434920462965965271e+01 6.740887712687253952e+00 1.161837219819432221e+00
2.631038627028465271e+01 7.850140642374753952e+00 1.334643005952244721e+00
2.340816459059715271e+01 5.891766618937253952e+00 1.155825256928807221e+00
2.328731498122215271e+01 6.100506853312253952e+00 1.168078064545994721e+00
2.370833548903465271e+01 6.393841814249753952e+00 1.212099670991307221e+00
2.432686576247215271e+01 6.728802751749753952e+00 1.268633484467869721e+00
2.631185111403465271e+01 7.841473650187253952e+00 1.453219055756932221e+00
2.341182669997215271e+01 5.884076189249753952e+00 1.259325623139744721e+00
2.328731498122215271e+01 6.092450212687253952e+00 1.271532654389744721e+00
2.368697318434715271e+01 6.382245134562253952e+00 1.316332459077244721e+00
2.430452689528465271e+01 6.716717790812253952e+00 1.375856995210057221e+00
2.341719779372215271e+01 5.876629900187253952e+00 1.363588928803807221e+00
2.329402884840965271e+01 6.085370134562253952e+00 1.374941467866307221e+00
2.380074271559715271e+01 6.392010759562253952e+00 1.429079651460057221e+00
1.925618705153465271e+01 6.477948259562253952e+00 5.035730596631822209e-01
2.024471244215965271e+01 6.874920915812253952e+00 5.531946416944322209e-01
2.143904837965965271e+01 7.338910173624753952e+00 6.113764043897447209e-01
2.280770072340965271e+01 7.870160173624753952e+00 6.780115362256822209e-01
5.520772513747215271e+01 1.595988185331225395e+01 1.908220886811619721e+00
2.914205130934715271e+01 9.931195329874753952e+00 9.556452032178697209e-01
2.958162650465965271e+01 1.034562404081225395e+01 9.959284063428697209e-01
3.011507377028465271e+01 1.079557521268725395e+01 1.039965271577244721e+00
2.631380423903465271e+01 7.887127947062253952e+00 8.628870245069322209e-01
2.680098685622215271e+01 8.251141618937253952e+00 9.027124639600572209e-01
2.738204154372215271e+01 8.647137712687253952e+00 9.478937383741197209e-01
5.636531791090965271e+01 1.564140040799975395e+01 2.167330383881932221e+00
5.590718802809715271e+01 1.611076075956225395e+01 2.193575501069432221e+00
2.914192923903465271e+01 9.921551775187253952e+00 1.088640808686619721e+00
2.956514701247215271e+01 1.033158595487475395e+01 1.129885315522557221e+00
3.009786185622215271e+01 1.078104884549975395e+01 1.177477478608494721e+00
2.631221732497215271e+01 7.877972673624753952e+00 9.810358282178697209e-01
2.678194388747215271e+01 8.238080095499753952e+00 1.022661804780369721e+00
2.736226615309715271e+01 8.633709978312253952e+00 1.070162415131932221e+00
5.764668998122215271e+01 1.591898829862475395e+01 2.485766052827244721e+00
5.701534232497215271e+01 1.636015040799975395e+01 2.503450989350682221e+00
2.914168509840965271e+01 9.912030290812253952e+00 1.220995545014744721e+00
2.954842337965965271e+01 1.031754786893725395e+01 1.264498352631932221e+00
3.008064994215965271e+01 1.076652247831225395e+01 1.314913391694432221e+00
2.631063041090965271e+01 7.868817400187253952e+00 1.098620056733494721e+00
2.676277884840965271e+01 8.225140642374753952e+00 1.142504334077244721e+00
2.734249076247215271e+01 8.620160173624753952e+00 1.192980408295994721e+00
2.914437064528465271e+01 9.903119157999753952e+00 1.354281067475682221e+00
2.953169974684715271e+01 1.030350978299975395e+01 1.399019837006932221e+00
3.006356009840965271e+01 1.075211818143725395e+01 1.451540588960057221e+00
2.630904349684715271e+01 7.859540056437253952e+00 1.216875671967869721e+00
2.674385794997215271e+01 8.212201189249753952e+00 1.261583923920994721e+00
2.732271537184715271e+01 8.606732439249753952e+00 1.315020203217869721e+00
2.914730033278465271e+01 9.894330095499753952e+00 1.486986755952244721e+00
2.951522025465965271e+01 1.028959376737475395e+01 1.532747864350682221e+00
3.004647025465965271e+01 1.073771388456225395e+01 1.588808655366307221e+00
2.630953177809715271e+01 7.850873064249753952e+00 1.334673523530369721e+00
2.672469291090965271e+01 8.199139665812253952e+00 1.381212830170994721e+00
2.730293998122215271e+01 8.593182634562253952e+00 1.437594055756932221e+00
2.916475638747215271e+01 9.889081072062253952e+00 1.621401428803807221e+00
2.631099662184715271e+01 7.842206072062253952e+00 1.453234314545994721e+00
2.670577201247215271e+01 8.186200212687253952e+00 1.500078796967869721e+00
2.734505423903465271e+01 8.593426775187253952e+00 1.563372253999119721e+00
3.011910209059715271e+01 1.079765040799975395e+01 1.040209412202244721e+00
5.406002005934715271e+01 1.793681056424975395e+01 2.038210510835057221e+00
5.378133353590965271e+01 1.842521388456225395e+01 2.069155335053807221e+00
3.174861869215965271e+01 1.223759181424975395e+01 1.179873108491307221e+00
3.215621146559715271e+01 1.270182521268725395e+01 1.222368836030369721e+00
3.266097220778465271e+01 1.320902736112475395e+01 1.269960999116307221e+00
3.937789115309715271e+01 1.584183986112475395e+01 1.596651672944432221e+00
5.214815482497215271e+01 2.074955470487475395e+01 2.209169983491307221e+00
3.010189017653465271e+01 1.078324611112475395e+01 1.177736878022557221e+00
5.482259330153465271e+01 1.813651759549975395e+01 2.324617981538182221e+00
5.465438041090965271e+01 1.866581447049975395e+01 2.362139343842869721e+00
3.174959525465965271e+01 1.222782618924975395e+01 1.327379822358494721e+00
3.214144095778465271e+01 1.268693263456225395e+01 1.371554016694432221e+00
3.264571341872215271e+01 1.319376857206225395e+01 1.422030090913182221e+00
5.317525443434715271e+01 2.051395900174975395e+01 2.465700745210057221e+00
5.288655814528465271e+01 2.099210841581225395e+01 2.495089172944432221e+00
3.008467826247215271e+01 1.076871974393725395e+01 1.315188049897557221e+00
5.578658255934715271e+01 1.839274318143725395e+01 2.629915833100682221e+00
5.562422904372215271e+01 1.893449122831225395e+01 2.667177795991307221e+00
3.175276908278465271e+01 1.221867091581225395e+01 1.474306702241307221e+00
3.212667044997215271e+01 1.267216212674975395e+01 1.519884705170994721e+00
3.263057669997215271e+01 1.317850978299975395e+01 1.573229431733494721e+00
5.602706107497215271e+01 2.146439845487475395e+01 2.873980164155369721e+00
5.653585013747215271e+01 2.225382716581225395e+01 2.949312805756932221e+00
3.006758841872215271e+01 1.075431544706225395e+01 1.451830505952244721e+00
5.722078666090965271e+01 1.878202540799975395e+01 2.970446228608494721e+00
5.738045462965965271e+01 1.943449122831225395e+01 3.026964783295994721e+00
3.175716361403465271e+01 1.220988185331225395e+01 1.622210144624119721e+00
3.211177787184715271e+01 1.265726954862475395e+01 1.668963074311619721e+00
3.263777884840965271e+01 1.317057521268725395e+01 1.726503967866307221e+00
5.788582572340965271e+01 2.207645900174975395e+01 3.251223206147557221e+00
5.781697806715965271e+01 2.268449122831225395e+01 3.295305847749119721e+00
3.005037650465965271e+01 1.073991115018725395e+01 1.589129089936619721e+00
3.153035697340965271e+01 1.141959865018725395e+01 2.430056213960057221e+00
3.155660209059715271e+01 1.175602443143725395e+01 2.460863709077244721e+00
3.152950248122215271e+01 1.140910060331225395e+01 2.576220154389744721e+00
3.155574759840965271e+01 1.174552638456225395e+01 2.607638001069432221e+00
3.152864798903465271e+01 1.139860255643725395e+01 2.721697449311619721e+00
3.155501517653465271e+01 1.173515040799975395e+01 2.753695129975682221e+00
3.178963431715965271e+01 1.213871486112475395e+01 2.805864929780369721e+00
3.152779349684715271e+01 1.138822657987475395e+01 2.868029236420994721e+00
3.155416068434715271e+01 1.172477443143725395e+01 2.899843811616307221e+00
3.180452689528465271e+01 1.213297755643725395e+01 2.955172180756932221e+00
5.253194388747215271e+01 2.453519923612475395e+01 3.199724793061619721e+00
5.156160697340965271e+01 2.476652247831225395e+01 3.188448547944432221e+00
5.227889212965965271e+01 2.570609767362475395e+01 3.289202332124119721e+00
5.914339408278465271e+01 2.372404200956225395e+01 3.638918518647557221e+00
5.938741263747215271e+01 2.449821193143725395e+01 3.714998840913182221e+00
6.059676322340965271e+01 2.564371974393725395e+01 3.855532288178807221e+00
5.331893119215965271e+01 2.356095607206225395e+01 3.418352722749119721e+00
5.237923392653465271e+01 2.382426173612475395e+01 3.407106995210057221e+00
5.242501029372215271e+01 2.447269923612475395e+01 3.463808655366307221e+00
5.149178275465965271e+01 2.471879298612475395e+01 3.451326965913182221e+00
7.160543021559715271e+01 3.401810939237475395e+01 4.958498596772557221e+00
6.961470755934715271e+01 2.817350490018725395e+01 4.744372009858494721e+00
6.037557181715965271e+01 2.553922755643725395e+01 4.146090149506932221e+00
6.126045951247215271e+01 2.659269435331225395e+01 4.272783875092869721e+00
5.266475638747215271e+01 2.391837794706225395e+01 3.696810364350682221e+00
5.251949271559715271e+01 2.449235255643725395e+01 3.740709900483494721e+00
5.262288627028465271e+01 2.517423732206225395e+01 3.803911804780369721e+00
3.520882377028465271e+01 1.529227931424975395e+01 2.615755676850682221e+00
3.515743216872215271e+01 1.569169337674975395e+01 2.649218201264744721e+00
3.669979056715965271e+01 1.802274806424975395e+01 2.934145569428807221e+00
3.521041068434715271e+01 1.527958400174975395e+01 2.797106384858494721e+00
3.515901908278465271e+01 1.567912013456225395e+01 2.831026672944432221e+00
3.673519095778465271e+01 1.802372462674975395e+01 3.129580139741307221e+00
3.521211966872215271e+01 1.526688868924975395e+01 2.979525208100682221e+00
3.516060599684715271e+01 1.566642482206225395e+01 3.013918518647557221e+00
3.643318900465965271e+01 1.743192775174975395e+01 1.682955383881932221e+00
3.657442435622215271e+01 1.793961818143725395e+01 1.726610779389744721e+00
3.698262748122215271e+01 1.856339747831225395e+01 1.785601257905369721e+00
5.192769584059715271e+01 2.539872462674975395e+01 2.669893860444432221e+00
5.404024466872215271e+01 2.697013575956225395e+01 2.843111633881932221e+00
5.363484916090965271e+01 2.746159083768725395e+01 2.871554016694432221e+00
5.365535697340965271e+01 2.287516505643725395e+01 2.783693909272557221e+00
5.259725150465965271e+01 2.311051661893725395e+01 2.774309753999119721e+00
5.193868216872215271e+01 2.348319728299975395e+01 2.786898254975682221e+00
5.138326224684715271e+01 2.388956935331225395e+01 2.805010437592869721e+00
5.149410209059715271e+01 2.456217677518725395e+01 2.862780212983494721e+00
5.121981009840965271e+01 2.507829005643725395e+01 2.897417664155369721e+00
5.588521537184715271e+01 2.775846583768725395e+01 3.241579651460057221e+00
5.594942435622215271e+01 2.848331935331225395e+01 3.302340149506932221e+00
5.685726127028465271e+01 2.403373439237475395e+01 3.255953430756932221e+00
5.323714408278465271e+01 2.333378322049975395e+01 3.086107849702244721e+00
5.202657279372215271e+01 2.349845607206225395e+01 3.061953186616307221e+00
5.228182181715965271e+01 2.423222072049975395e+01 3.130999207124119721e+00
5.138545951247215271e+01 2.449833400174975395e+01 3.125109314545994721e+00
5.725789603590965271e+01 2.763004786893725395e+01 3.569292664155369721e+00
5.743245658278465271e+01 2.841520411893725395e+01 3.640093445405369721e+00
5.941121634840965271e+01 2.495170314237475395e+01 3.717974304780369721e+00
5.325618705153465271e+01 2.332145411893725395e+01 3.360796570405369721e+00
5.295870169997215271e+01 2.384330470487475395e+01 3.394579529389744721e+00
3.698030814528465271e+01 1.806181056424975395e+01 2.335711121186619721e+00
5.201119193434715271e+01 2.473832423612475395e+01 3.436968445405369721e+00
7.139437064528465271e+01 3.362211329862475395e+01 4.880373596772557221e+00
7.102278861403465271e+01 3.433610255643725395e+01 4.927858948335057221e+00
3.883370169997215271e+01 2.075639064237475395e+01 2.630526184663182221e+00
6.146517142653465271e+01 2.568424708768725395e+01 4.167696594819432221e+00
6.073726615309715271e+01 2.613456447049975395e+01 4.177782654389744721e+00
5.278072318434715271e+01 2.375419337674975395e+01 3.656221985444432221e+00
3.697347220778465271e+01 1.804508693143725395e+01 2.531710266694432221e+00
5.264632377028465271e+01 2.498173243924975395e+01 3.757341980561619721e+00
3.884249076247215271e+01 2.074613673612475395e+01 2.839281677827244721e+00
6.130110892653465271e+01 2.632548243924975395e+01 4.533632874116307221e+00
3.697469291090965271e+01 1.803178126737475395e+01 2.727327942475682221e+00
3.885127982497215271e+01 2.073588282987475395e+01 3.049364685639744721e+00
3.698177298903465271e+01 1.802091700956225395e+01 2.923555969819432221e+00
6.529647025465965271e+01 3.171549708768725395e+01 6.215304016694432221e+00
6.538460502028465271e+01 3.256364161893725395e+01 6.299898743256932221e+00
6.518172416090965271e+01 3.164188868924975395e+01 6.545839905366307221e+00
6.590755423903465271e+01 3.277384669706225395e+01 6.698473572358494721e+00
6.482369193434715271e+01 3.226615626737475395e+01 6.925524353608494721e+00
6.542867240309715271e+01 3.170231349393725395e+01 7.254076599702244721e+00
6.608272513747215271e+01 3.280485255643725395e+01 7.410875916108494721e+00
6.692464408278465271e+01 3.315678126737475395e+01 7.857607483491307221e+00
6.593416556715965271e+01 3.269120509549975395e+01 8.087328552827244721e+00
5.837300834059715271e+01 3.017179591581225395e+01 3.771639465913182221e+00
6.180379447340965271e+01 3.252604396268725395e+01 4.073183655366307221e+00
5.208443412184715271e+01 2.338798243924975395e+01 3.287294983491307221e+00
3.699800834059715271e+01 1.801383693143725395e+01 2.299151062592869721e+00
5.184017142653465271e+01 2.455997950956225395e+01 3.379152893647557221e+00
7.081844291090965271e+01 3.320329005643725395e+01 4.781832337006932221e+00
7.110897025465965271e+01 3.419975001737475395e+01 4.876345276460057221e+00
3.886043509840965271e+01 2.072489650174975395e+01 2.595308899506932221e+00
6.055721244215965271e+01 2.664225490018725395e+01 4.178423523530369721e+00
5.198543509840965271e+01 2.396268947049975395e+01 3.607134461030369721e+00
5.256783255934715271e+01 2.483891017362475395e+01 3.705889343842869721e+00
7.149349173903465271e+01 3.434061915799975395e+01 5.276842712983494721e+00
3.886934623122215271e+01 2.071452052518725395e+01 2.806551575288182221e+00
6.803829154372215271e+01 3.454545314237475395e+01 5.157503723725682221e+00
6.137239798903465271e+01 2.693461329862475395e+01 4.554751038178807221e+00
5.201656302809715271e+01 2.395585353299975395e+01 3.881426453217869721e+00
3.887825736403465271e+01 2.070402247831225395e+01 3.017992615327244721e+00
6.799056205153465271e+01 3.449931056424975395e+01 5.512301087006932221e+00
6.528475150465965271e+01 3.409086329862475395e+01 5.357515930756932221e+00
6.462630423903465271e+01 3.375907618924975395e+01 5.646502136811619721e+00
6.790999564528465271e+01 3.355949122831225395e+01 6.145784973725682221e+00
6.725972709059715271e+01 3.411735255643725395e+01 6.162951111420994721e+00
6.720455130934715271e+01 3.494242579862475395e+01 6.235857605561619721e+00
6.571565970778465271e+01 3.256205470487475395e+01 6.287371277436619721e+00
6.735958060622215271e+01 3.413859279081225395e+01 6.530138611420994721e+00
6.382002982497215271e+01 3.333573634549975395e+01 6.254305481538182221e+00
6.499886283278465271e+01 3.222062404081225395e+01 6.561419128999119721e+00
6.428292044997215271e+01 3.271415431424975395e+01 6.564959168061619721e+00
6.500472220778465271e+01 3.386649806424975395e+01 6.719027161225682221e+00
6.541976127028465271e+01 3.156889064237475395e+01 6.870424866303807221e+00
6.489253959059715271e+01 3.215006740018725395e+01 6.892656921967869721e+00
6.518660697340965271e+01 3.310197169706225395e+01 7.004534363374119721e+00
6.478060111403465271e+01 3.373844630643725395e+01 7.041903137788182221e+00
6.509346732497215271e+01 3.221537501737475395e+01 7.259646057710057221e+00
6.436458548903465271e+01 3.270487697049975395e+01 7.257586121186619721e+00
6.419319877028465271e+01 3.344108302518725395e+01 7.318743347749119721e+00
6.592732962965965271e+01 3.256058986112475395e+01 7.701922058686619721e+00
6.357759818434715271e+01 3.232426173612475395e+01 7.504824280366307221e+00
6.425667533278465271e+01 3.344755275174975395e+01 7.670260071381932221e+00
6.607173880934715271e+01 3.260050685331225395e+01 8.069536804780369721e+00
6.424507865309715271e+01 3.260416896268725395e+01 7.927431702241307221e+00
6.489534720778465271e+01 3.204227931424975395e+01 6.742983460053807221e+00
6.518221244215965271e+01 3.299125392362475395e+01 6.854204773530369721e+00
6.375203666090965271e+01 3.315849025174975395e+01 6.780932068452244721e+00
6.514717826247215271e+01 3.464579493924975395e+01 7.014574646577244721e+00
1.912520560622215271e+01 1.302445704862475395e+01 2.003985046967869721e+00
6.511507377028465271e+01 3.211442286893725395e+01 7.113558411225682221e+00
6.440096244215965271e+01 3.261442286893725395e+01 7.115801453217869721e+00
6.455098685622215271e+01 3.350504786893725395e+01 7.215059876069432221e+00
6.495699271559715271e+01 3.453129298612475395e+01 7.345064758881932221e+00
1.854976615309715271e+01 1.273588282987475395e+01 2.053576111420994721e+00
6.529109916090965271e+01 3.216752345487475395e+01 7.479586243256932221e+00
6.437068900465965271e+01 3.257694728299975395e+01 7.455843567475682221e+00
6.414485892653465271e+01 3.329301173612475395e+01 7.512865662202244721e+00
6.477437552809715271e+01 3.442057521268725395e+01 7.672793030366307221e+00
1.812874564528465271e+01 1.252287013456225395e+01 2.116579651460057221e+00
6.358089408278465271e+01 3.219706447049975395e+01 7.704653381928807221e+00
6.398921927809715271e+01 3.319718654081225395e+01 7.839480042085057221e+00
1.866780814528465271e+01 1.250443751737475395e+01 2.267367004975682221e+00
1.814022025465965271e+01 1.252091700956225395e+01 2.229265808686619721e+00
6.556954154372215271e+01 3.306864650174975395e+01 8.297670960053807221e+00
6.397103080153465271e+01 3.316508204862475395e+01 8.180513977631932221e+00
1.868733939528465271e+01 1.250578029081225395e+01 2.384050964936619721e+00
1.815169486403465271e+01 1.251896388456225395e+01 2.342730164155369721e+00
1.870906791090965271e+01 1.250834376737475395e+01 2.500658630952244721e+00
1.857186087965965271e+01 1.271561915799975395e+01 2.512117981538182221e+00
6.547029837965965271e+01 3.301981837674975395e+01 7.198977112397557221e+00
6.461421927809715271e+01 3.346635157987475395e+01 7.187899231538182221e+00
6.409029349684715271e+01 3.405424220487475395e+01 7.213045715913182221e+00
1.892903861403465271e+01 1.298295314237475395e+01 2.099215149506932221e+00
1.770723685622215271e+01 1.266117579862475395e+01 1.986071228608494721e+00
1.770589408278465271e+01 1.293302638456225395e+01 2.013567566499119721e+00
6.531270560622215271e+01 3.209586818143725395e+01 7.445894837006932221e+00
6.545223197340965271e+01 3.298673732206225395e+01 7.547869324311619721e+00
6.419466361403465271e+01 3.324870021268725395e+01 7.486849426850682221e+00
6.452461966872215271e+01 3.423515040799975395e+01 7.612063049897557221e+00
1.811678275465965271e+01 1.258109767362475395e+01 2.119280457124119721e+00
1.766683158278465271e+01 1.263334376737475395e+01 2.093157410249119721e+00
1.758272513747215271e+01 1.286246974393725395e+01 2.111574768647557221e+00
6.552181205153465271e+01 3.299284083768725395e+01 7.909273743256932221e+00
6.399495658278465271e+01 3.313236720487475395e+01 7.810549378022557221e+00
1.865084037184715271e+01 1.255277736112475395e+01 2.271029114350682221e+00
1.812850150465965271e+01 1.257890040799975395e+01 2.234987854585057221e+00
1.803890189528465271e+01 1.281046779081225395e+01 2.252749085053807221e+00
1.700154837965965271e+01 1.255875880643725395e+01 2.149141907319432221e+00
6.364607962965965271e+01 3.212858302518725395e+01 8.023409485444432221e+00
6.392330130934715271e+01 3.307499415799975395e+01 8.146883606538182221e+00
1.867061576247215271e+01 1.255412013456225395e+01 2.389452576264744721e+00
1.854134330153465271e+01 1.277079493924975395e+01 2.402575134858494721e+00
1.799105033278465271e+01 1.277885157987475395e+01 2.360872864350682221e+00
1.699410209059715271e+01 1.254752833768725395e+01 2.257723450288182221e+00
1.891219291090965271e+01 1.238016993924975395e+01 2.507891296967869721e+00
1.869258841872215271e+01 1.255619532987475395e+01 2.509005188569432221e+00
1.772017630934715271e+01 1.236552150174975395e+01 2.407702087983494721e+00
1.819258841872215271e+01 1.287101466581225395e+01 2.502108215913182221e+00
1.698653373122215271e+01 1.253617579862475395e+01 2.366274475678807221e+00
1.760909232497215271e+01 1.296903712674975395e+01 2.095125794038182221e+00
1.690840873122215271e+01 1.288517482206225395e+01 2.038347839936619721e+00
1.665950736403465271e+01 1.302628810331225395e+01 2.036394714936619721e+00
6.433431205153465271e+01 3.245878322049975395e+01 7.665011047944432221e+00
6.403011283278465271e+01 3.314811427518725395e+01 7.715288757905369721e+00
1.862435111403465271e+01 1.261430079862475395e+01 2.247866272553807221e+00
1.848116263747215271e+01 1.283048732206225395e+01 2.260149597749119721e+00
1.803707084059715271e+01 1.289591700956225395e+01 2.234667420014744721e+00
1.698189505934715271e+01 1.264274318143725395e+01 2.131151795014744721e+00
1.689217337965965271e+01 1.286918361112475395e+01 2.148424744233494721e+00
1.666646537184715271e+01 1.302262599393725395e+01 2.148104309663182221e+00
6.417940482497215271e+01 3.236503322049975395e+01 7.995119690522557221e+00
6.396822318434715271e+01 3.309513575956225395e+01 8.057116150483494721e+00
1.844918021559715271e+01 1.252372462674975395e+01 2.343645691499119721e+00
1.851534232497215271e+01 1.283878810331225395e+01 2.382525086030369721e+00
1.762776908278465271e+01 1.268534572049975395e+01 2.297686218842869721e+00
1.755806693434715271e+01 1.292753322049975395e+01 2.318285584077244721e+00
1.699874076247215271e+01 1.291703517362475395e+01 2.274691223725682221e+00
1.660628470778465271e+01 1.298307521268725395e+01 2.251528381928807221e+00
1.886702689528465271e+01 1.242728907987475395e+01 2.485842346772557221e+00
1.770394095778465271e+01 1.243937404081225395e+01 2.392687439545994721e+00
1.764876517653465271e+01 1.268778712674975395e+01 2.415362000092869721e+00
1.648226127028465271e+01 1.237418849393725395e+01 2.286348938569432221e+00
1.669014701247215271e+01 1.274906642362475395e+01 2.344210266694432221e+00
1.658138236403465271e+01 1.296232325956225395e+01 2.359255432710057221e+00
1.751302298903465271e+01 1.272611720487475395e+01 2.162600159272557221e+00
1.694063529372215271e+01 1.271879298612475395e+01 2.121172546967869721e+00
1.686983451247215271e+01 1.295975978299975395e+01 2.141787170991307221e+00
1.659358939528465271e+01 1.309220607206225395e+01 2.136263489350682221e+00
1.651436576247215271e+01 1.332902247831225395e+01 2.155840515717869721e+00
1.706587943434715271e+01 1.391788966581225395e+01 2.257692932710057221e+00
1.861873587965965271e+01 1.268168361112475395e+01 2.358385681733494721e+00
1.802413138747215271e+01 1.268510157987475395e+01 2.314058899506932221e+00
1.759017142653465271e+01 1.275602443143725395e+01 2.288515686616307221e+00
1.654329642653465271e+01 1.250968654081225395e+01 2.183092712983494721e+00
1.685347709059715271e+01 1.294340236112475395e+01 2.253481506928807221e+00
1.653487357497215271e+01 1.305326564237475395e+01 2.241488098725682221e+00
1.676412162184715271e+01 1.345744044706225395e+01 2.303209900483494721e+00
1.645577201247215271e+01 1.356962306424975395e+01 2.292208313569432221e+00
1.855892142653465271e+01 1.264506251737475395e+01 2.471651672944432221e+00
1.769087943434715271e+01 1.251640040799975395e+01 2.387911438569432221e+00
1.761165580153465271e+01 1.275846583768725395e+01 2.408434509858494721e+00
1.655477103590965271e+01 1.250773341581225395e+01 2.296862244233494721e+00
1.676668509840965271e+01 1.289042384549975395e+01 2.356051087006932221e+00
1.665145072340965271e+01 1.310746486112475395e+01 2.370958923920994721e+00
1.685457572340965271e+01 1.349894435331225395e+01 2.430407166108494721e+00
1.645125541090965271e+01 1.355936915799975395e+01 2.405733704194432221e+00
1.638606986403465271e+01 1.423344142362475395e+01 2.276018738374119721e+00
1.699520072340965271e+01 1.254581935331225395e+01 2.249559998139744721e+00
1.690950736403465271e+01 1.278349025174975395e+01 2.269976257905369721e+00
1.638460502028465271e+01 1.279435450956225395e+01 2.231890320405369721e+00
1.642159232497215271e+01 1.309440333768725395e+01 2.268374085053807221e+00
1.673555716872215271e+01 1.354813868924975395e+01 2.342562317475682221e+00
1.656343802809715271e+01 1.374235255643725395e+01 2.351732849702244721e+00
1.644600638747215271e+01 1.396732814237475395e+01 2.369021057710057221e+00
1.632955130934715271e+01 1.419218165799975395e+01 2.385729431733494721e+00
1.698726615309715271e+01 1.253324611112475395e+01 2.364824890717869721e+00
1.662606009840965271e+01 1.263175685331225395e+01 2.347384094819432221e+00
1.661690482497215271e+01 1.290641505643725395e+01 2.378191589936619721e+00
1.648506888747215271e+01 1.311967189237475395e+01 2.392412781342869721e+00
1.666646537184715271e+01 1.350211818143725395e+01 2.450411438569432221e+00
1.655770072340965271e+01 1.373075587674975395e+01 2.468187927827244721e+00
1.652205619215965271e+01 1.400248439237475395e+01 2.496599793061619721e+00
1.634236869215965271e+01 1.419132716581225395e+01 2.504931091889744721e+00
1.727657279372215271e+01 1.521391017362475395e+01 2.204500794038182221e+00
1.794893607497215271e+01 1.594266993924975395e+01 2.323687195405369721e+00
1.701021537184715271e+01 1.323392970487475395e+01 2.094790100678807221e+00
1.649202689528465271e+01 1.325162990018725395e+01 2.063067078217869721e+00
1.655355033278465271e+01 1.357487208768725395e+01 2.102800964936619721e+00
1.679451712965965271e+01 1.400407130643725395e+01 2.165697693452244721e+00
1.676876029372215271e+01 1.428971583768725395e+01 2.195696472749119721e+00
1.683089408278465271e+01 1.462955958768725395e+01 2.237307190522557221e+00
1.721334037184715271e+01 1.516703517362475395e+01 2.321215271577244721e+00
1.741365775465965271e+01 1.560612208768725395e+01 2.383303284272557221e+00
1.661226615309715271e+01 1.301847560331225395e+01 2.163820862397557221e+00
1.652132377028465271e+01 1.325822169706225395e+01 2.184771179780369721e+00
1.707320365309715271e+01 1.384867579862475395e+01 2.288942932710057221e+00
1.670198783278465271e+01 1.394340236112475395e+01 2.274508118256932221e+00
1.630379447340965271e+01 1.401554591581225395e+01 2.255663513764744721e+00
1.788680228590965271e+01 1.523685939237475395e+01 2.501101135835057221e+00
1.735787162184715271e+01 1.524418361112475395e+01 2.466066956147557221e+00
1.795369681715965271e+01 1.592680079862475395e+01 2.583666443452244721e+00
1.658614310622215271e+01 1.299601466581225395e+01 2.278322815522557221e+00
1.882149466872215271e+01 1.447025782987475395e+01 2.609072327241307221e+00
1.697957572340965271e+01 1.378861720487475395e+01 2.397432922944432221e+00
1.654097709059715271e+01 1.384489161893725395e+01 2.372423767670994721e+00
1.639412650465965271e+01 1.405827052518725395e+01 2.386507629975682221e+00
1.618538627028465271e+01 1.423515040799975395e+01 2.391924500092869721e+00
1.732088431715965271e+01 1.521293361112475395e+01 2.587008118256932221e+00
1.795613822340965271e+01 1.591886622831225395e+01 2.714113831147557221e+00
1.679012259840965271e+01 1.309269435331225395e+01 2.424120545014744721e+00
1.638338431715965271e+01 1.316727931424975395e+01 2.401400208100682221e+00
1.643526419997215271e+01 1.348380763456225395e+01 2.442598938569432221e+00
1.663326224684715271e+01 1.388737208768725395e+01 2.505144714936619721e+00
1.641353568434715271e+01 1.406046779081225395e+01 2.508852600678807221e+00
1.612032279372215271e+01 1.418839747831225395e+01 2.501665711030369721e+00
1.852767142653465271e+01 1.592350490018725395e+01 2.888613342866307221e+00
1.792501029372215271e+01 1.602506740018725395e+01 2.419100403413182221e+00
1.784749564528465271e+01 1.631449611112475395e+01 2.446306824311619721e+00
1.220394095778465271e+01 1.305497462674975395e+01 1.737719177827244721e+00
1.647579154372215271e+01 1.360282618924975395e+01 2.183657288178807221e+00
1.695821341872215271e+01 1.416947657987475395e+01 2.279406189545994721e+00
1.646907767653465271e+01 1.419938380643725395e+01 2.250597595795994721e+00
1.679244193434715271e+01 1.469425685331225395e+01 2.327776550874119721e+00
1.771504935622215271e+01 1.555753810331225395e+01 2.485994934663182221e+00
1.792720755934715271e+01 1.601676661893725395e+01 2.551836609467869721e+00
1.784969291090965271e+01 1.630631740018725395e+01 2.579424500092869721e+00
1.222054252028465271e+01 1.305827052518725395e+01 1.842089295014744721e+00
1.646956595778465271e+01 1.359025294706225395e+01 2.303759216889744721e+00
1.647457084059715271e+01 1.389140040799975395e+01 2.338854431733494721e+00
1.648775443434715271e+01 1.420097072049975395e+01 2.374819397553807221e+00
1.792000541090965271e+01 1.534135157987475395e+01 2.606310486420994721e+00
1.722359427809715271e+01 1.525529200956225395e+01 2.547777771577244721e+00
1.792952689528465271e+01 1.600846583768725395e+01 2.683931946381932221e+00
1.785189017653465271e+01 1.629813868924975395e+01 2.712618469819432221e+00
1.223726615309715271e+01 1.306156642362475395e+01 1.947237610444432221e+00
1.646334037184715271e+01 1.357780177518725395e+01 2.423845886811619721e+00
1.656795462965965271e+01 1.393424708768725395e+01 2.472887634858494721e+00
1.652425345778465271e+01 1.421256740018725395e+01 2.502443909272557221e+00
1.754305228590965271e+01 1.511246974393725395e+01 2.683580994233494721e+00
1.836861380934715271e+01 1.592741115018725395e+01 2.840487122163182221e+00
1.793172416090965271e+01 1.600016505643725395e+01 2.816805481538182221e+00
1.225411185622215271e+01 1.306486232206225395e+01 2.052630066499119721e+00
1.079402884840965271e+01 1.277811915799975395e+01 1.497789978608494721e+00
1.642439994215965271e+01 1.425541407987475395e+01 2.097963928803807221e+00
1.752022513747215271e+01 1.520304591581225395e+01 2.268267273530369721e+00
1.754329642653465271e+01 1.554581935331225395e+01 2.307833313569432221e+00
1.790499076247215271e+01 1.610038478299975395e+01 2.391207337006932221e+00
1.782625541090965271e+01 1.639408595487475395e+01 2.419222473725682221e+00
1.195906791090965271e+01 1.300663478299975395e+01 1.691683411225682221e+00
1.136885794997215271e+01 1.289091212674975395e+01 1.643541931733494721e+00
1.080928763747215271e+01 1.278104884549975395e+01 1.598452210053807221e+00
1.792427787184715271e+01 1.509757716581225395e+01 2.414126038178807221e+00
1.819564017653465271e+01 1.558561427518725395e+01 2.486971497163182221e+00
1.799666556715965271e+01 1.580546290799975395e+01 2.499331116303807221e+00
1.790718802809715271e+01 1.609183986112475395e+01 2.526262878999119721e+00
1.782857474684715271e+01 1.638554103299975395e+01 2.554690003022557221e+00
1.197640189528465271e+01 1.301005275174975395e+01 1.797854065522557221e+00
1.138509330153465271e+01 1.289408595487475395e+01 1.746996521577244721e+00
1.082454642653465271e+01 1.278410060331225395e+01 1.698794006928807221e+00
1.636605033278465271e+01 1.420353419706225395e+01 2.338320374116307221e+00
1.752193412184715271e+01 1.518436915799975395e+01 2.530596375092869721e+00
1.797444877028465271e+01 1.578226954862475395e+01 2.630037903413182221e+00
1.790950736403465271e+01 1.608329493924975395e+01 2.660677551850682221e+00
1.783077201247215271e+01 1.637699611112475395e+01 2.689531921967869721e+00
1.199373587965965271e+01 1.301347072049975395e+01 1.903689026460057221e+00
1.140132865309715271e+01 1.289725978299975395e+01 1.850679993256932221e+00
1.083980521559715271e+01 1.278703029081225395e+01 1.799898743256932221e+00
1.632100638747215271e+01 1.416850001737475395e+01 2.456225037202244721e+00
1.747005423903465271e+01 1.514433009549975395e+01 2.653734802827244721e+00
1.804061087965965271e+01 1.581144435331225395e+01 2.773821472749119721e+00
1.791182669997215271e+01 1.607462794706225395e+01 2.795885681733494721e+00
1.783614310622215271e+01 1.637028224393725395e+01 2.825594544038182221e+00
1.201119193434715271e+01 1.301688868924975395e+01 2.010332703217869721e+00
1.141756400465965271e+01 1.290043361112475395e+01 1.954027771577244721e+00
1.085518607497215271e+01 1.279008204862475395e+01 1.901201843842869721e+00
1.788997611403465271e+01 1.615653712674975395e+01 2.347063660249119721e+00
1.240096244215965271e+01 1.309830958768725395e+01 1.691195129975682221e+00
1.175704154372215271e+01 1.296683986112475395e+01 1.639925598725682221e+00
1.115889701247215271e+01 1.284940822049975395e+01 1.592821716889744721e+00
1.058980521559715271e+01 1.273783595487475395e+01 1.548021912202244721e+00
1.004585990309715271e+01 1.263102443143725395e+01 1.505205750092869721e+00
9.538535684347152710e+00 1.253629786893725395e+01 1.466311096772557221e+00
1.756917533278465271e+01 1.561222560331225395e+01 2.403017639741307221e+00
1.789241752028465271e+01 1.614750392362475395e+01 2.484377503022557221e+00
1.242232474684715271e+01 1.310331447049975395e+01 1.802004456147557221e+00
1.177535209059715271e+01 1.297037990018725395e+01 1.747530579194432221e+00
1.117610892653465271e+01 1.285282618924975395e+01 1.697710632905369721e+00
1.060591849684715271e+01 1.274100978299975395e+01 1.650301575288182221e+00
1.006099662184715271e+01 1.263407618924975395e+01 1.604998230561619721e+00
9.551841348409652710e+00 1.253837306424975395e+01 1.563158630952244721e+00
1.797908744215965271e+01 1.584452540799975395e+01 2.592516541108494721e+00
1.789485892653465271e+01 1.613834865018725395e+01 2.621767639741307221e+00
1.244368705153465271e+01 1.310831935331225395e+01 1.912508606538182221e+00
1.179354056715965271e+01 1.297391993924975395e+01 1.854799866303807221e+00
1.119319877028465271e+01 1.285624415799975395e+01 1.802248596772557221e+00
1.062203177809715271e+01 1.274418361112475395e+01 1.752260803803807221e+00
1.007637748122215271e+01 1.263700587674975395e+01 1.705004334077244721e+00
9.565269082784652710e+00 1.254057032987475395e+01 1.660708069428807221e+00
1.798189505934715271e+01 1.583561427518725395e+01 2.729601502045994721e+00
1.789730033278465271e+01 1.612931544706225395e+01 2.758486389741307221e+00
1.781722220778465271e+01 1.642789943143725395e+01 2.789034485444432221e+00
1.181197318434715271e+01 1.297758204862475395e+01 1.962893128022557221e+00
1.121053275465965271e+01 1.285954005643725395e+01 1.907580017670994721e+00
1.063826712965965271e+01 1.274735743924975395e+01 1.854967712983494721e+00
1.009151419997215271e+01 1.264005763456225395e+01 1.804690003022557221e+00
9.578696817159652710e+00 1.254264552518725395e+01 1.758440613374119721e+00
1.165023002028465271e+01 1.294559962674975395e+01 1.731234192475682221e+00
1.103865775465965271e+01 1.282560450956225395e+01 1.682039856538182221e+00
1.045467337965965271e+01 1.271110255643725395e+01 1.635073303803807221e+00
9.900352090597152710e+00 1.260233790799975395e+01 1.590471863374119721e+00
9.394736856222152710e+00 1.251444728299975395e+01 1.551180481538182221e+00
8.699546426534652710e+00 1.228275782987475395e+01 1.483828186616307221e+00
8.057700723409652710e+00 1.207096583768725395e+01 1.421908020600682221e+00
1.232076224684715271e+01 1.307938868924975395e+01 1.896364807710057221e+00
1.167049369215965271e+01 1.294962794706225395e+01 1.840944885835057221e+00
1.105757865309715271e+01 1.282938868924975395e+01 1.788393616303807221e+00
1.047249564528465271e+01 1.271452052518725395e+01 1.738787293061619721e+00
9.917075723409652710e+00 1.260563380643725395e+01 1.691698670014744721e+00
9.419150918722152710e+00 1.252348048612475395e+01 1.651384949311619721e+00
8.719810098409652710e+00 1.228934962674975395e+01 1.580706238374119721e+00
8.076377481222152710e+00 1.207719142362475395e+01 1.515596985444432221e+00
1.234444388747215271e+01 1.308488185331225395e+01 2.009615540131932221e+00
1.169075736403465271e+01 1.295353419706225395e+01 1.950335144624119721e+00
1.107662162184715271e+01 1.283305079862475395e+01 1.895571350678807221e+00
1.049043998122215271e+01 1.271806056424975395e+01 1.843294739350682221e+00
9.934043496847152710e+00 1.260892970487475395e+01 1.793673157319432221e+00
9.443809121847152710e+00 1.253263575956225395e+01 1.752443909272557221e+00
8.739951699972152710e+00 1.229606349393725395e+01 1.677340149506932221e+00
8.095054239034652710e+00 1.208329493924975395e+01 1.609530090913182221e+00
7.842368692159652710e+00 1.199967677518725395e+01 1.389483093842869721e+00
7.225303262472152710e+00 1.179618556424975395e+01 1.331728577241307221e+00
6.662559121847152710e+00 1.161686427518725395e+01 1.279848694428807221e+00
1.095870169997215271e+01 1.280973536893725395e+01 1.761339783295994721e+00
1.036275443434715271e+01 1.269279200956225395e+01 1.712862610444432221e+00
9.795005410909652710e+00 1.258134181424975395e+01 1.666124939545994721e+00
9.222861856222152710e+00 1.245512111112475395e+01 1.617815613374119721e+00
8.520347207784652710e+00 1.222330958768725395e+01 1.548769592866307221e+00
7.862876504659652710e+00 1.200651271268725395e+01 1.484163879975682221e+00
7.244468301534652710e+00 1.180253322049975395e+01 1.423876404389744721e+00
6.678916543722152710e+00 1.162162501737475395e+01 1.368990540131932221e+00
1.097969779372215271e+01 1.281376368924975395e+01 1.870470642670994721e+00
1.038252982497215271e+01 1.269669825956225395e+01 1.818728088960057221e+00
9.813682168722152710e+00 1.258500392362475395e+01 1.769991516694432221e+00
9.247031778097152710e+00 1.246305568143725395e+01 1.720034241303807221e+00
8.542686074972152710e+00 1.223075587674975395e+01 1.647493958100682221e+00
7.883628457784652710e+00 1.201334865018725395e+01 1.579622864350682221e+00
7.263633340597152710e+00 1.180875880643725395e+01 1.515764832124119721e+00
6.695273965597152710e+00 1.162638575956225395e+01 1.458361267670994721e+00
5.992026895284652710e+00 1.141801173612475395e+01 1.212420105561619721e+00
5.527549356222152710e+00 1.129362208768725395e+01 1.173479675874119721e+00
9.745444864034652710e+00 1.257145411893725395e+01 1.650148987397557221e+00
9.136314004659652710e+00 1.242631251737475395e+01 1.598635315522557221e+00
8.412925332784652710e+00 1.218778712674975395e+01 1.528414368256932221e+00
7.734214395284652710e+00 1.196391017362475395e+01 1.463030457124119721e+00
7.100181192159652710e+00 1.175468165799975395e+01 1.401949524506932221e+00
6.503867715597152710e+00 1.155778224393725395e+01 1.344454407319432221e+00
6.007529824972152710e+00 1.142216212674975395e+01 1.300722717866307221e+00
5.542197793722152710e+00 1.129752833768725395e+01 1.259600281342869721e+00
9.765342324972152710e+00 1.257536036893725395e+01 1.756182312592869721e+00
9.162070840597152710e+00 1.243485743924975395e+01 1.702364563569432221e+00
8.436851114034652710e+00 1.219559962674975395e+01 1.629107117280369721e+00
7.756431192159652710e+00 1.197111232206225395e+01 1.560351013764744721e+00
7.120811074972152710e+00 1.176151759549975395e+01 1.496142029389744721e+00
6.521934121847152710e+00 1.156327540799975395e+01 1.435549378022557221e+00
6.023032754659652710e+00 1.142631251737475395e+01 1.388781189545994721e+00
5.556846231222152710e+00 1.130143458768725395e+01 1.345934509858494721e+00
6.953452676534652710e+00 1.170609767362475395e+01 1.379290222749119721e+00
6.355674356222152710e+00 1.151517970487475395e+01 1.322802185639744721e+00
5.853965371847152710e+00 1.138078029081225395e+01 1.278673767670994721e+00
5.376426309347152710e+00 1.125297267362475395e+01 1.236681580170994721e+00
4.920005410909652710e+00 1.113078029081225395e+01 1.196993469819432221e+00
4.486045449972152710e+00 1.101469142362475395e+01 1.158815979585057221e+00
8.321982949972152710e+00 1.215751368924975395e+01 1.611101746186619721e+00
7.626060098409652710e+00 1.192789943143725395e+01 1.540636658295994721e+00
6.973838418722152710e+00 1.171281154081225395e+01 1.475100159272557221e+00
6.372153848409652710e+00 1.151957423612475395e+01 1.415316223725682221e+00
5.869468301534652710e+00 1.138493068143725395e+01 1.368853211030369721e+00
5.391074746847152710e+00 1.125687892362475395e+01 1.324633240327244721e+00
4.933799356222152710e+00 1.113444240018725395e+01 1.282351135835057221e+00
4.499106973409652710e+00 1.101810939237475395e+01 1.242617249116307221e+00
6.797324746847152710e+00 1.165543849393725395e+01 1.315966248139744721e+00
6.208091348409652710e+00 1.147538478299975395e+01 1.263216614350682221e+00
5.694785684347152710e+00 1.133805568143725395e+01 1.219240784272557221e+00
5.204673379659652710e+00 1.120683009549975395e+01 1.177721619233494721e+00
4.739097207784652710e+00 1.108219630643725395e+01 1.138277649506932221e+00
4.295005410909652710e+00 1.096329982206225395e+01 1.100664734467869721e+00
3.870322793722152710e+00 1.085001857206225395e+01 1.065172791108494721e+00
3.466025918722152710e+00 1.074247462674975395e+01 1.031008362397557221e+00
6.816611856222152710e+00 1.166105372831225395e+01 1.413057922944432221e+00
6.225059121847152710e+00 1.148002345487475395e+01 1.356875061616307221e+00
5.710898965597152710e+00 1.134232814237475395e+01 1.311022400483494721e+00
5.219810098409652710e+00 1.121085841581225395e+01 1.267229675874119721e+00
4.753379434347152710e+00 1.108598048612475395e+01 1.225649475678807221e+00
4.308555215597152710e+00 1.096683986112475395e+01 1.185976624116307221e+00
3.882163614034652710e+00 1.085270411893725395e+01 1.147966980561619721e+00
3.477866739034652710e+00 1.074564845487475395e+01 1.112475037202244721e+00
4.562461465597152710e+00 1.103471095487475395e+01 1.013659119233494721e+00
4.107139199972152710e+00 1.091276271268725395e+01 9.784113164991197209e-01
