-4.255056202411651611e+00 9.168473261594772339e+01 1.351925972010945998e+00
1.944528758525848389e+00 9.193473261594772339e+01 1.644787910487508498e+00
1.063059031963348389e+00 9.211808222532272339e+01 1.665692451503133498e+00
1.784154772758483887e-01 9.236796015501022339e+01 1.688107612635945998e+00
-7.111108899116516113e-01 9.074967402219772339e+01 1.669873359706258498e+00
-1.582692921161651611e+00 9.060209101438522339e+01 1.683362129237508498e+00
-2.649709522724151611e+00 9.959488886594772339e+01 1.899975898768758498e+00
-4.222829639911651611e+00 9.110099238157272339e+01 1.744885566737508498e+00
1.964304149150848389e+00 9.236466425657272339e+01 2.065137031581258498e+00
1.061227977275848389e+00 9.159244745969772339e+01 2.062085273768758498e+00
1.682836413383483887e-01 9.022294062376022339e+01 2.040921333339070998e+00
-7.029321789741516113e-01 9.039274042844772339e+01 2.062146308925008498e+00
-1.606008350849151611e+00 9.326041620969772339e+01 2.155179145839070998e+00
-2.623830616474151611e+00 9.879191035032272339e+01 2.320737007167195998e+00
-3.335256397724151611e+00 9.101932734251022339e+01 2.131405952479695998e+00
-4.431447803974151611e+00 9.631119745969772339e+01 2.292264106776570998e+00
1.067941844463348389e+00 9.154911249876022339e+01 2.466229560878133498e+00
1.997777819633483887e-01 9.306498163938522339e+01 2.529919746425008498e+00
-6.945093274116516113e-01 8.994486445188522339e+01 2.450406196620320998e+00
-1.599050343036651611e+00 9.334513300657272339e+01 2.573208930995320998e+00
-2.513356983661651611e+00 9.404703730344772339e+01 2.612576606776570998e+00
-9.485376477241516113e-01 1.211844843626022339e+01 -7.503994674421790023e-01
-1.041311085224151611e+00 1.216166132688522339e+01 -7.511624068953040023e-01
-1.135061085224151611e+00 1.220206660032272339e+01 -7.519711227156165023e-01
-1.230031788349151611e+00 1.224308222532272339e+01 -7.527950973249915023e-01
-1.325734913349151611e+00 1.228434199094772339e+01 -7.536343307234290023e-01
-1.422414600849151611e+00 1.232609003782272339e+01 -7.544735641218665023e-01
-1.520437061786651611e+00 1.236832636594772339e+01 -7.553280563093665023e-01
-1.618825733661651611e+00 1.240763300657272339e+01 -7.562283248640540023e-01
-9.783228039741516113e-01 1.282975214719772339e+01 -7.447689742781165023e-01
-1.079274952411651611e+00 1.289066523313522339e+01 -7.463101119734290023e-01
-1.181814014911651611e+00 1.295743769407272339e+01 -7.478817672468665023e-01
-1.286062061786651611e+00 1.302042597532272339e+01 -7.494686813093665023e-01
-1.391897022724151611e+00 1.309025019407272339e+01 -7.513912887312415023e-01
-1.501760303974151611e+00 1.318729609251022339e+01 -7.546566695906165023e-01
-1.613698780536651611e+00 1.328031367063522339e+01 -7.579220504499915023e-01
-1.728322803974151611e+00 1.338138788938522339e+01 -7.613247604109290023e-01
-1.021413624286651611e+00 1.385123652219772339e+01 -7.469662399031165023e-01
-1.135183155536651611e+00 1.396463984251022339e+01 -7.504452438093665023e-01
-1.251638233661651611e+00 1.408048456907272339e+01 -7.540005416609290023e-01
-1.371267139911651611e+00 1.419950312376022339e+01 -7.576473922468665023e-01
-1.493093311786651611e+00 1.432084101438522339e+01 -7.613705367781165023e-01
-1.617971241474151611e+00 1.444510859251022339e+01 -7.651852340437415023e-01
-1.747365772724151611e+00 1.458439081907272339e+01 -7.696408004499915023e-01
-1.881643116474151611e+00 1.474405878782272339e+01 -7.749661178328040023e-01
-1.078664600849151611e+00 1.520780390501022339e+01 -7.540158004499915023e-01
-1.209890186786651611e+00 1.539432734251022339e+01 -7.594479293562415023e-01
-1.344777882099151611e+00 1.557731074094772339e+01 -7.649716109968665023e-01
-1.484548389911651611e+00 1.576664179563522339e+01 -7.706783981062415023e-01
-1.628225147724151611e+00 1.596134394407272339e+01 -7.765530318953040023e-01
-1.776540577411651611e+00 1.616251581907272339e+01 -7.826260299421790023e-01
-1.931936085224151611e+00 1.638517206907272339e+01 -7.894924850203040023e-01
-2.129934132099151611e+00 1.694779413938522339e+01 -8.104275436140540023e-01
-1.149587452411651611e+00 1.688920038938522339e+01 -7.603481979109290023e-01
-1.299245655536651611e+00 1.710734003782272339e+01 -7.660702438093665023e-01
-1.460134327411651611e+00 1.743192499876022339e+01 -7.756222457624915023e-01
-1.630422413349151611e+00 1.778568476438522339e+01 -7.861355514265540023e-01
-1.808889210224151611e+00 1.815641230344772339e+01 -7.971371383406165023e-01
-2.012990772724151611e+00 1.871976679563522339e+01 -8.150051803328040023e-01
-2.275564014911651611e+00 1.973404902219772339e+01 -8.489559859968665023e-01
-2.581350147724151611e+00 2.095109003782272339e+01 -8.898647994734290023e-01
-1.275075733661651611e+00 1.985465449094772339e+01 -7.933682174421790023e-01
-1.462697803974151611e+00 2.023258417844772339e+01 -8.022640914656165023e-01
-1.659353077411651611e+00 2.062906855344772339e+01 -8.120602340437415023e-01
-1.888479053974151611e+00 2.135087031126022339e+01 -8.320950240828040023e-01
-2.142019093036651611e+00 2.219718378782272339e+01 -8.558529586531165023e-01
-2.403615772724151611e+00 2.294449824094772339e+01 -8.761776656843665023e-01
-2.700368702411651611e+00 2.387650507688522339e+01 -9.020565719343665023e-01
-3.052053272724151611e+00 2.513224238157272339e+01 -9.382809371687415023e-01
-1.402272999286651611e+00 2.287088984251022339e+01 -8.001126022078040023e-01
-1.637258350849151611e+00 2.357926386594772339e+01 -8.162716598249915023e-01
-1.890188038349151611e+00 2.434122675657272339e+01 -8.336666793562415023e-01
-2.202565968036651611e+00 2.569718378782272339e+01 -8.670529098249915023e-01
-2.505666553974151611e+00 2.661710566282272339e+01 -8.880947799421790023e-01
-2.837819874286651611e+00 2.764603632688522339e+01 -9.117459029890540023e-01
-3.172902882099151611e+00 2.849234980344772339e+01 -9.301022262312415023e-01
-3.549733936786651611e+00 2.956046503782272339e+01 -9.540890426374915023e-01
-1.587819874286651611e+00 2.727189081907272339e+01 -8.119381637312415023e-01
-1.869314014911651611e+00 2.803031367063522339e+01 -8.251522750593665023e-01
-2.184865772724151611e+00 2.908426874876022339e+01 -8.442562789656165023e-01
-2.509206593036651611e+00 2.995023554563522339e+01 -8.592709274031165023e-01
-2.864309132099151611e+00 3.098441523313522339e+01 -8.777798385359290023e-01
-3.233449757099151611e+00 3.194205683469772339e+01 -8.941982955671790023e-01
-3.628225147724151611e+00 3.294742792844772339e+01 -9.120358199812415023e-01
-4.061940968036651611e+00 3.412357538938522339e+01 -9.325894088484290023e-01
-1.772512257099151611e+00 3.167081660032272339e+01 -7.826870650984290023e-01
-2.097829639911651611e+00 3.242923945188522339e+01 -7.915066451765540023e-01
-2.466848194599151611e+00 3.363724726438522339e+01 -8.082913131453040023e-01
-2.845876514911651611e+00 3.463004511594772339e+01 -8.207119674421790023e-01
-3.224416553974151611e+00 3.538065546751022339e+01 -8.284023971296790023e-01
-3.615285694599151611e+00 3.609696406126022339e+01 -8.351925582624915023e-01
-4.023000538349151611e+00 3.682096308469772339e+01 -8.418301315046790023e-01
-4.448049366474151611e+00 3.757547968626022339e+01 -8.487423629499915023e-01
-2.034353077411651611e+00 3.791080683469772339e+01 -7.397335738874915023e-01
-2.420461475849151611e+00 3.864310663938522339e+01 -7.434414596296790023e-01
-2.803029835224151611e+00 3.907450312376022339e+01 -7.427242965437415023e-01
-3.203542530536651611e+00 3.961051386594772339e+01 -7.432278365828040023e-01
-3.643239796161651611e+00 4.049833124876022339e+01 -7.482632369734290023e-01
-4.076711475849151611e+00 4.112186640501022339e+01 -7.494534225203040023e-01
-4.511037647724151611e+00 4.161234492063522339e+01 -7.486447066999915023e-01
-4.942189991474151611e+00 4.199271601438522339e+01 -7.462490768171790023e-01
-2.326833546161651611e+00 4.490018671751022339e+01 -6.457241744734290023e-01
-2.768606007099151611e+00 4.536527460813522339e+01 -6.420925826765540023e-01
-3.221120655536651611e+00 4.584147089719772339e+01 -6.383846969343665023e-01
-8.049978077411651611e+00 9.407291620969772339e+01 -1.045580741856241502e+00
-8.892019093036651611e+00 9.329899042844772339e+01 -1.021487113926554002e+00
-5.115896046161651611e+00 4.755204218626022339e+01 -6.198910445906165023e-01
-5.606740772724151611e+00 4.793241328001022339e+01 -6.144589156843665023e-01
-2.323049366474151611e+00 4.489689081907272339e+01 -4.537991256453040023e-01
-2.764577686786651611e+00 4.536100214719772339e+01 -4.478787154890540023e-01
-3.216970264911651611e+00 4.583707636594772339e+01 -4.418362350203040023e-01
-8.700002491474151611e+00 9.130887812376022339e+01 -5.981320113874915023e-01
-5.111501514911651611e+00 4.754862421751022339e+01 -4.148739547468665023e-01
-5.602224171161651611e+00 4.792887324094772339e+01 -4.075192184187415023e-01
-2.319143116474151611e+00 4.489554804563522339e+01 -2.608822555281165023e-01
-2.760549366474151611e+00 4.535672968626022339e+01 -2.526882858015540023e-01
-3.212819874286651611e+00 4.583280390501022339e+01 -2.453488082624915023e-01
-8.196584522724151611e+00 9.606217402219772339e+01 -2.074917525984290023e-01
-9.043874561786651611e+00 9.512809199094772339e+01 -1.895626754499915023e-01
-5.106862843036651611e+00 4.754508417844772339e+01 -2.088040084578040023e-01
-5.597585499286651611e+00 4.792521113157272339e+01 -1.995266647078040023e-01
-2.315358936786651611e+00 4.489432734251022339e+01 -6.904875943436650232e-02
-2.756521046161651611e+00 4.535257929563522339e+01 -5.859648892655400232e-02
-3.208669483661651611e+00 4.582840937376022339e+01 -4.786956021561650232e-02
-7.955861866474151611e+00 9.323172968626022339e+01 2.082492141984459977e-01
-8.829519093036651611e+00 9.289274042844772339e+01 2.247287063859459977e-01
-5.103200733661651611e+00 4.754923456907272339e+01 -3.847953770304002319e-03
-5.594899952411651611e+00 4.793876093626022339e+01 7.397773768758497681e-03
-4.203176319599151611e+00 8.999869745969772339e+01 5.224887161515709977e-01
-5.153493702411651611e+00 9.159952753782272339e+01 5.525790481828209977e-01
-6.150441944599151611e+00 9.341825312376022339e+01 5.875064163468834977e-01
-6.821950733661651611e+00 9.014432734251022339e+01 5.752536087296959977e-01
-8.086232960224151611e+00 9.492460078001022339e+01 6.392184524796959977e-01
-1.009917241334915161e+01 9.653775995969772339e+01 6.933413772843834977e-01
-4.249685108661651611e+00 9.129508417844772339e+01 9.383975296281334977e-01
-5.119069874286651611e+00 9.109134882688522339e+01 9.539920120500084977e-01
-6.002004444599151611e+00 9.114994257688522339e+01 9.731570511125084977e-01
-6.793996632099151611e+00 8.986661738157272339e+01 9.735842972062584977e-01
-7.672048389911651611e+00 8.996805781126022339e+01 9.931918411515709977e-01
-8.803396046161651611e+00 9.279007929563522339e+01 1.052212837245320998e+00
-9.149221241474151611e+00 8.730777949094772339e+01 9.906436233781334977e-01
-1.019829350709915161e+01 8.910257929563522339e+01 1.035061958339070998e+00
-4.258230030536651611e+00 9.168912714719772339e+01 1.352078559901570998e+00
-5.126149952411651611e+00 9.137980097532272339e+01 1.363034370448445998e+00
-6.403005421161651611e+00 9.777652949094772339e+01 1.499631050135945998e+00
-6.859914600849151611e+00 9.089567011594772339e+01 1.391537788417195998e+00
-7.647878468036651611e+00 8.976981562376022339e+01 1.388989570643758498e+00
-8.889577686786651611e+00 9.381949824094772339e+01 1.484677436854695998e+00
-9.390065968036651611e+00 8.974894160032272339e+01 1.425625923182820998e+00
-1.008757573366165161e+01 8.818583124876022339e+01 1.415768745448445998e+00
-4.225881397724151611e+00 9.110123652219772339e+01 1.744946601893758498e+00
-2.775808155536651611e+00 4.602054804563522339e+01 7.348758011125084977e-01
-6.045461475849151611e+00 9.211503046751022339e+01 1.806225898768758498e+00
-7.001272022724151611e+00 9.297953242063522339e+01 1.845624092128133498e+00
-8.415700733661651611e+00 8.874296015501022339e+01 1.784161689784383498e+00
-5.614064991474151611e+00 4.826114863157272339e+01 8.447695999406334977e-01
-4.434621632099151611e+00 9.631254023313522339e+01 2.292370918300008498e+00
-2.771901905536651611e+00 4.602054804563522339e+01 9.329654007218834977e-01
-5.908254444599151611e+00 9.001627558469772339e+01 2.156933906581258498e+00
-6.927785694599151611e+00 9.206778925657272339e+01 2.233212593104695998e+00
-8.012136280536651611e+00 9.443107050657272339e+01 2.319104316737508498e+00
-8.886403858661651611e+00 9.396744745969772339e+01 2.326092842128133498e+00
-9.202932178974151611e+00 8.806852167844772339e+01 2.180096748378133498e+00
-5.609792530536651611e+00 4.826175898313522339e+01 1.054165962245320998e+00
-2.768117725849151611e+00 4.602054804563522339e+01 1.129986885096883498e+00
-6.023000538349151611e+00 9.201212519407272339e+01 2.622449043300008498e+00
-6.741384327411651611e+00 8.957450312376022339e+01 2.563199165370320998e+00
-7.590871632099151611e+00 8.936417597532272339e+01 2.575635078456258498e+00
-8.743825733661651611e+00 9.250235956907272339e+01 2.698224189784383498e+00
-9.090505421161651611e+00 8.703885859251022339e+01 2.537259223964070998e+00
-1.028532963991165161e+01 9.017154902219772339e+01 2.662762764003133498e+00
-1.619191944599151611e+00 1.240799921751022339e+01 -7.562435836531165023e-01
-1.718923389911651611e+00 1.245023554563522339e+01 -7.571285934187415023e-01
-1.819387257099151611e+00 1.248954218626022339e+01 -7.580593795515540023e-01
-1.922170460224151611e+00 1.253470820188522339e+01 -7.592953414656165023e-01
-2.056814014911651611e+00 1.278080195188522339e+01 -7.713497848249915023e-01
-2.199392139911651611e+00 1.304349726438522339e+01 -7.842434615828040023e-01
-2.350881397724151611e+00 1.332267206907272339e+01 -7.979458541609290023e-01
-2.509572803974151611e+00 1.360929316282272339e+01 -8.122433395124915023e-01
-1.728811085224151611e+00 1.338248652219772339e+01 -7.613705367781165023e-01
-1.845022022724151611e+00 1.347855585813522339e+01 -7.647732467390540023e-01
-1.973928272724151611e+00 1.365238398313522339e+01 -7.717312545515540023e-01
-2.127126514911651611e+00 1.396634882688522339e+01 -7.858151168562415023e-01
-2.289724171161651611e+00 1.429947870969772339e+01 -8.007534713484290023e-01
-2.470998585224151611e+00 1.470316523313522339e+01 -8.190792770124915023e-01
-2.679982960224151611e+00 1.521402949094772339e+01 -8.428372115828040023e-01
-2.908742725849151611e+00 1.577543085813522339e+01 -8.686398238874915023e-01
-1.882253468036651611e+00 1.474527949094772339e+01 -7.750118941999915023e-01
-2.042897999286651611e+00 1.509061640501022339e+01 -7.889279098249915023e-01
-2.226003468036651611e+00 1.554874628782272339e+01 -8.078182906843665023e-01
-2.426687061786651611e+00 1.605790156126022339e+01 -8.288449020124915023e-01
-2.665334522724151611e+00 1.674772089719772339e+01 -8.577908248640540023e-01
-2.887502491474151611e+00 1.724869745969772339e+01 -8.781460494734290023e-01
-3.145559132099151611e+00 1.789103144407272339e+01 -9.046047897078040023e-01
-3.449392139911651611e+00 1.871036738157272339e+01 -9.387234420515540023e-01
-2.131032764911651611e+00 1.695267695188522339e+01 -8.106106490828040023e-01
-2.349294483661651611e+00 1.758451288938522339e+01 -8.337582320906165023e-01
-2.586843311786651611e+00 1.826175898313522339e+01 -8.588894576765540023e-01
-2.849294483661651611e+00 1.901017206907272339e+01 -8.866604537703040023e-01
-3.197072803974151611e+00 2.021390742063522339e+01 -9.324063033796790023e-01
-3.592824757099151611e+00 2.155741328001022339e+01 -9.833554000593665023e-01
-3.861135303974151611e+00 2.200541132688522339e+01 -9.983547897078040023e-01
-3.922170460224151611e+00 2.128031367063522339e+01 -9.673184127546790023e-01
-2.583303272724151611e+00 2.096329706907272339e+01 -8.902767867781165023e-01
-2.879079639911651611e+00 2.189579218626022339e+01 -9.209164352156165023e-01
-3.148610889911651611e+00 2.248649042844772339e+01 -9.390591354109290023e-01
-3.514455616474151611e+00 2.365531367063522339e+01 -9.775112838484290023e-01
-3.741018116474151611e+00 2.376371210813522339e+01 -9.781521529890540023e-01
-3.805715382099151611e+00 2.286734980344772339e+01 -9.433926315046790023e-01
-3.871633350849151611e+00 2.207645624876022339e+01 -9.126003951765540023e-01
-3.932546436786651611e+00 2.134647578001022339e+01 -8.841732711531165023e-01
-3.053640186786651611e+00 2.513956660032272339e+01 -9.384945602156165023e-01
-3.421315968036651611e+00 2.631485956907272339e+01 -9.710110397078040023e-01
-3.804006397724151611e+00 2.741984003782272339e+01 -1.001513359043741502e+00
-3.744436085224151611e+00 2.527286738157272339e+01 -9.313687057234290023e-01
-3.741018116474151611e+00 2.377665156126022339e+01 -8.818844527937415023e-01
-3.816579639911651611e+00 2.294535273313522339e+01 -8.531674117781165023e-01
-4.038625538349151611e+00 2.304642695188522339e+01 -8.529690475203040023e-01
-5.924489796161651611e+00 3.216092890501022339e+01 -1.125475761387491502e+00
-3.551442921161651611e+00 2.956742304563522339e+01 -9.542568893171790023e-01
-3.936330616474151611e+00 3.051981562376022339e+01 -9.750851363874915023e-01
-4.365407764911651611e+00 3.165397089719772339e+01 -1.000384208653116502e+00
-3.996755421161651611e+00 2.704825800657272339e+01 -8.748959274031165023e-01
-5.261892139911651611e+00 3.369791620969772339e+01 -1.043917533848429002e+00
-5.720876514911651611e+00 3.458915156126022339e+01 -1.061770317051554002e+00
-6.148488819599151611e+00 3.518363398313522339e+01 -1.071658012364054002e+00
-6.580373585224151611e+00 3.573600214719772339e+01 -1.080279228184366502e+00
-4.064138233661651611e+00 3.413382929563522339e+01 -9.327877731062415023e-01
-4.474538624286651611e+00 3.491984003782272339e+01 -9.445980758406165023e-01
-4.889455616474151611e+00 3.561319941282272339e+01 -9.533108443953040023e-01
-4.776174366474151611e+00 3.250675410032272339e+01 -8.806790084578040023e-01
-5.287771046161651611e+00 3.388614863157272339e+01 -9.049710006453040023e-01
-5.962941944599151611e+00 3.608793085813522339e+01 -9.461849899031165023e-01
-6.463064014911651611e+00 3.701090449094772339e+01 -9.605587691999915023e-01
-6.991750538349151611e+00 3.798685663938522339e+01 -9.749020309187415023e-01
-4.449880421161651611e+00 3.758121699094772339e+01 -8.488186568953040023e-01
-4.895192921161651611e+00 3.836905878782272339e+01 -8.561733932234290023e-01
-5.333669483661651611e+00 3.897843378782272339e+01 -8.601864547468665023e-01
-5.769094288349151611e+00 3.946354120969772339e+01 -8.618191451765540023e-01
-6.244680225849151611e+00 4.014737910032272339e+01 -8.666104049421790023e-01
-6.710378468036651611e+00 4.067814081907272339e+01 -8.686093063093665023e-01
-7.197805225849151611e+00 4.125809687376022339e+01 -8.711575240828040023e-01
-7.677663624286651611e+00 4.173270624876022339e+01 -8.717983932234290023e-01
-4.944021046161651611e+00 4.199711054563522339e+01 -7.462795943953040023e-01
-5.399953663349151611e+00 4.250907343626022339e+01 -7.454403609968665023e-01
-5.897756397724151611e+00 4.325016230344772339e+01 -7.472561568953040023e-01
-6.378469288349151611e+00 4.374820917844772339e+01 -7.457455367781165023e-01
-6.856496632099151611e+00 4.416398066282272339e+01 -7.430752486921790023e-01
-7.413259327411651611e+00 4.500211542844772339e+01 -7.452419967390540023e-01
-7.951101124286651611e+00 4.561600703001022339e+01 -7.444027633406165023e-01
-8.474660694599151611e+00 4.608561152219772339e+01 -7.416866988874915023e-01
-5.608693897724151611e+00 4.793522089719772339e+01 -6.144436568953040023e-01
-6.109426319599151611e+00 4.832584589719772339e+01 -6.088589400984290023e-01
-1.354497319459915161e+01 1.008855382800102234e+02 -1.010821220371866502e+00
-8.173391163349151611e+00 4.968131464719772339e+01 -5.831478805281165023e-01
-8.704763233661651611e+00 4.998234003782272339e+01 -5.760220260359290023e-01
-9.244069874286651611e+00 5.029386347532272339e+01 -5.688656539656165023e-01
-5.604055225849151611e+00 4.793168085813522339e+01 -4.075039596296790023e-01
-6.104421436786651611e+00 4.831937617063522339e+01 -3.997830123640540023e-01
-1.349931889772415161e+01 1.006111242175102234e+02 -5.575894088484290023e-01
-1.307353764772415161e+01 9.067521113157272339e+01 -5.080746383406165023e-01
-1.324760991334915161e+01 8.598356074094772339e+01 -4.772061080671790023e-01
-8.168386280536651611e+00 4.967838495969772339e+01 -3.665646285749915023e-01
-8.699758350849151611e+00 4.997941035032272339e+01 -3.577145309187415023e-01
-9.237722218036651611e+00 5.028434199094772339e+01 -3.487728805281165023e-01
-5.599416553974151611e+00 4.792801874876022339e+01 -1.994961471296790023e-01
-6.099660694599151611e+00 4.831571406126022339e+01 -1.896847457624915023e-01
-1.289482671022415161e+01 9.612162226438522339e+01 -1.129788131453040023e-01
-1.280425053834915161e+01 8.884708613157272339e+01 -1.053646774031165023e-01
-1.320329838991165161e+01 8.574588984251022339e+01 -9.311186978592900232e-02
-8.163381397724151611e+00 4.967557734251022339e+01 -1.500271529890540023e-01
-8.694509327411651611e+00 4.997648066282272339e+01 -1.383084029890540023e-01
-9.232473194599151611e+00 5.028116816282272339e+01 -1.276119918562415023e-01
-5.596731007099151611e+00 4.794156855344772339e+01 7.443550135945997681e-03
-1.129790288209915161e+01 9.083817499876022339e+01 2.685366897843834977e-01
-1.213420659303665161e+01 9.044632929563522339e+01 2.850619583390709977e-01
-1.408562260866165161e+01 9.788822382688522339e+01 3.508578567765709977e-01
-1.374468022584915161e+01 8.934122675657272339e+01 3.157473831437584977e-01
-1.414970952272415161e+01 8.642264765501022339e+01 3.148623733781334977e-01
-1.503349858522415161e+01 8.658024042844772339e+01 3.341952591203209977e-01
-1.486064702272415161e+01 8.096671503782272339e+01 3.122226028703209977e-01
-1.117278081178665161e+01 8.988309687376022339e+01 6.637088089250084977e-01
-1.227177983522415161e+01 9.154850214719772339e+01 7.008181839250084977e-01
-1.354692631959915161e+01 9.417325800657272339e+01 7.492648391984459977e-01
-1.491509038209915161e+01 9.705948847532272339e+01 8.018008499406334977e-01
-1.408415776491165161e+01 8.607059687376022339e+01 6.979190140031334977e-01
-1.488335210084915161e+01 8.576078242063522339e+01 7.130557327531334977e-01
-1.578459721803665161e+01 8.604496210813522339e+01 7.371188431046959977e-01
-1.020158940553665161e+01 8.910550898313522339e+01 1.035168769862508498e+00
-1.119682866334915161e+01 9.014737910032272339e+01 1.070553901698445998e+00
-1.186052495241165161e+01 8.850333613157272339e+01 1.065274360682820998e+00
-1.321098881959915161e+01 9.187687128782272339e+01 1.137494209315633498e+00
-1.364299565553665161e+01 8.878483027219772339e+01 1.109082344081258498e+00
-1.431828862428665161e+01 8.755863398313522339e+01 1.109219673182820998e+00
-1.490947514772415161e+01 8.595939081907272339e+01 1.102841499354695998e+00
-1.476225835084915161e+01 8.051468867063522339e+01 1.032269599940633498e+00
-1.009026128053665161e+01 8.818351191282272339e+01 1.415784004237508498e+00
-1.115227299928665161e+01 8.984928339719772339e+01 1.466565254237508498e+00
-1.327141362428665161e+01 9.923905390501022339e+01 1.674496772792195998e+00
-1.325029546022415161e+01 9.221244257688522339e+01 1.555356147792195998e+00
-1.368669682741165161e+01 8.912589472532272339e+01 1.513394477870320998e+00
-1.439055424928665161e+01 8.805301874876022339e+01 1.511685493495320998e+00
-8.780813038349151611e+00 5.058158320188522339e+01 7.482272415421959977e-01
-9.236745655536651611e+00 5.040714472532272339e+01 7.570925979875084977e-01
-5.615529835224151611e+00 4.826078242063522339e+01 8.448001175187584977e-01
-1.119609624147415161e+01 9.027591913938522339e+01 1.879559639003133498e+00
-1.279753667116165161e+01 8.909025019407272339e+01 1.892529609706258498e+00
-1.355681401491165161e+01 8.832828730344772339e+01 1.894391181971883498e+00
-1.466911870241165161e+01 8.981656855344772339e+01 1.952969673182820998e+00
-8.776418507099151611e+00 5.058317011594772339e+01 9.703799515031334977e-01
-9.232351124286651611e+00 5.040885370969772339e+01 9.775668411515709977e-01
-5.611379444599151611e+00 4.826139277219772339e+01 1.054196479823445998e+00
-1.108879643678665161e+01 8.946378535032272339e+01 2.260541084315633498e+00
-1.213103276491165161e+01 9.073819941282272339e+01 2.317196968104695998e+00
-1.272588139772415161e+01 8.864469355344772339e+01 2.277478340175008498e+00
-1.447478276491165161e+01 9.440873163938522339e+01 2.470318916346883498e+00
-1.453838139772415161e+01 8.906473749876022339e+01 2.333066108729695998e+00
-1.480278569459915161e+01 8.548380488157272339e+01 2.248608711268758498e+00
-1.619438725709915161e+01 8.846305292844772339e+01 2.360364082362508498e+00
-1.028801518678665161e+01 9.016910761594772339e+01 2.662747505214070998e+00
-1.108452397584915161e+01 8.949601191282272339e+01 2.660214546229695998e+00
-1.213823491334915161e+01 9.085685175657272339e+01 2.728451850917195998e+00
-1.284380131959915161e+01 8.953251093626022339e+01 2.705868843104695998e+00
-1.420573979616165161e+01 8.706900995969772339e+01 2.665127876307820998e+00
-1.607646733522415161e+01 9.290531367063522339e+01 2.890713813807820998e+00
-1.574724370241165161e+01 8.606583613157272339e+01 2.675595405604695998e+00
-2.510427296161651611e+00 1.361173456907272339e+01 -8.123654098249915023e-01
-2.680105030536651611e+00 1.392276972532272339e+01 -8.276852340437415023e-01
-2.858938038349151611e+00 1.424442499876022339e+01 -8.437832565046790023e-01
-3.066457569599151611e+00 1.466398066282272339e+01 -8.650082320906165023e-01
-3.324514210224151611e+00 1.526700800657272339e+01 -8.959072799421790023e-01
-3.582204639911651611e+00 1.581315058469772339e+01 -9.236630172468665023e-01
-3.844777882099151611e+00 1.632804316282272339e+01 -9.496487350203040023e-01
-4.203542530536651611e+00 1.717289179563522339e+01 -9.933346481062415023e-01
-2.910329639911651611e+00 1.578141230344772339e+01 -8.689144820906165023e-01
-3.163381397724151611e+00 1.640543574094772339e+01 -8.979824752546790023e-01
-3.389943897724151611e+00 1.683414667844772339e+01 -9.170559615828040023e-01
-3.703176319599151611e+00 1.761820429563522339e+01 -9.536007613874915023e-01
-4.031057178974151611e+00 1.839408320188522339e+01 -9.895809859968665023e-01
-4.211843311786651611e+00 1.847672480344772339e+01 -9.918698043562415023e-01
-4.264699757099151611e+00 1.803092402219772339e+01 -9.690273971296790023e-01
-4.323171436786651611e+00 1.764237421751022339e+01 -9.486569137312415023e-01
-3.450734913349151611e+00 1.871476191282272339e+01 -9.389065475203040023e-01
-3.862722218036651611e+00 1.999869745969772339e+01 -9.936550826765540023e-01
-4.042897999286651611e+00 2.002067011594772339e+01 -9.925869674421790023e-01
-4.105642139911651611e+00 1.949003046751022339e+01 -9.672878951765540023e-01
-4.164602100849151611e+00 1.899100703001022339e+01 -9.434841842390540023e-01
-4.220266163349151611e+00 1.851944941282272339e+01 -9.209927291609290023e-01
-4.273244678974151611e+00 1.807157343626022339e+01 -8.996151656843665023e-01
-4.329885303974151611e+00 1.767411249876022339e+01 -8.805569381453040023e-01
-3.921926319599151611e+00 2.127567499876022339e+01 -9.671200484968665023e-01
-3.990529835224151611e+00 2.066300410032272339e+01 -9.401882858015540023e-01
-4.051809132099151611e+00 2.007230585813522339e+01 -9.147061080671790023e-01
-4.114431202411651611e+00 1.953861445188522339e+01 -8.915890426374915023e-01
-4.173269093036651611e+00 1.903678339719772339e+01 -8.698757858015540023e-01
-4.300100147724151611e+00 1.886332148313522339e+01 -8.610256881453040023e-01
-6.206960499286651611e+00 2.589933222532272339e+01 -1.131502983067179002e+00
-6.249807178974151611e+00 2.512699335813522339e+01 -1.099230644199991502e+00
-3.932302296161651611e+00 2.134183710813522339e+01 -8.839901656843665023e-01
-3.997365772724151611e+00 2.070670527219772339e+01 -8.593929977156165023e-01
-4.171438038349151611e+00 2.066373652219772339e+01 -8.554409713484290023e-01
-6.230031788349151611e+00 2.935868281126022339e+01 -1.152438041660929002e+00
-6.220266163349151611e+00 2.809916132688522339e+01 -1.105517265293741502e+00
-6.292653858661651611e+00 2.729374140501022339e+01 -1.074450370762491502e+00
-6.302053272724151611e+00 2.629386347532272339e+01 -1.036990043614054002e+00
-6.363820850849151611e+00 2.557865351438522339e+01 -1.009432670567179002e+00
-5.926198780536651611e+00 3.216459101438522339e+01 -1.125567314121866502e+00
-6.679494678974151611e+00 3.449112910032272339e+01 -1.190356132481241502e+00
-7.187063038349151611e+00 3.537796992063522339e+01 -1.212130424473429002e+00
-7.720876514911651611e+00 3.628946894407272339e+01 -1.234331962559366502e+00
-6.525808155536651611e+00 2.946305292844772339e+01 -1.027422782871866502e+00
-6.118581593036651611e+00 2.656839960813522339e+01 -9.382351608015540023e-01
-6.312673389911651611e+00 2.634696406126022339e+01 -9.281491012312415023e-01
-6.473317921161651611e+00 2.601261347532272339e+01 -9.154232711531165023e-01
-6.582204639911651611e+00 3.573954218626022339e+01 -1.080355522129679002e+00
-7.217702686786651611e+00 3.727274531126022339e+01 -1.114016410801554002e+00
-7.609182178974151611e+00 3.745377558469772339e+01 -1.113085624668741502e+00
-8.174001514911651611e+00 3.840860956907272339e+01 -1.131441947910929002e+00
-8.592458546161651611e+00 3.862552851438522339e+01 -1.131121513340616502e+00
-6.117727100849151611e+00 2.657511347532272339e+01 -8.275631637312415023e-01
-6.188161671161651611e+00 2.585245722532272339e+01 -8.059719772078040023e-01
-6.614919483661651611e+00 2.657193964719772339e+01 -8.197811813093665023e-01
-6.994191944599151611e+00 3.799405878782272339e+01 -9.750241012312415023e-01
-7.516164600849151611e+00 3.882462519407272339e+01 -9.862698287703040023e-01
-7.998830616474151611e+00 3.937284296751022339e+01 -9.905117721296790023e-01
-8.500661671161651611e+00 3.994230097532272339e+01 -9.958370895124915023e-01
-9.018850147724151611e+00 4.053043574094772339e+01 -1.001345512364054002e+00
-6.116994678974151611e+00 2.658194941282272339e+01 -7.162502975203040023e-01
-6.187063038349151611e+00 2.585734003782272339e+01 -6.983822555281165023e-01
-6.512380421161651611e+00 2.618314570188522339e+01 -7.008084029890540023e-01
-7.679616749286651611e+00 4.173575800657272339e+01 -8.718289108015540023e-01
-8.172048389911651611e+00 4.221683710813522339e+01 -8.725613326765540023e-01
-8.659963428974151611e+00 4.261918085813522339e+01 -8.718441695906165023e-01
-9.164724171161651611e+00 4.304593867063522339e+01 -8.713101119734290023e-01
-9.672780811786651611e+00 4.344559687376022339e+01 -8.701809615828040023e-01
-5.936574757099151611e+00 2.582828730344772339e+01 -5.938748092390540023e-01
-6.180105030536651611e+00 2.583915156126022339e+01 -5.898464889265540023e-01
-6.422658741474151611e+00 2.584403437376022339e+01 -5.856960983015540023e-01
-8.476613819599151611e+00 4.608829706907272339e+01 -7.416866988874915023e-01
-9.013479053974151611e+00 4.656791132688522339e+01 -7.389401168562415023e-01
-9.597707569599151611e+00 4.722025507688522339e+01 -7.378872604109290023e-01
-1.027165776491165161e+01 4.821097773313522339e+01 -7.402371139265540023e-01
-1.085344487428665161e+01 4.869877070188522339e+01 -7.367733688093665023e-01
-5.924978077411651611e+00 2.578885859251022339e+01 -4.861477584578040023e-01
-6.173391163349151611e+00 2.582108515501022339e+01 -4.820584029890540023e-01
-6.518606007099151611e+00 2.622623652219772339e+01 -4.817227096296790023e-01
-9.246877491474151611e+00 5.029972285032272339e+01 -5.688656539656165023e-01
-1.524785405397415161e+01 7.869156855344772339e+01 -7.476528854109290023e-01
-1.598491460084915161e+01 7.846659296751022339e+01 -7.309902877546790023e-01
-1.680498296022415161e+01 7.862052363157272339e+01 -7.166470260359290023e-01
-1.144365483522415161e+01 5.133805292844772339e+01 -5.369900436140540023e-01
-5.913259327411651611e+00 2.574942988157272339e+01 -3.782376022078040023e-01
-6.165334522724151611e+00 2.579850214719772339e+01 -3.738583297468665023e-01
-6.404592335224151611e+00 2.579227656126022339e+01 -3.691433639265540023e-01
-9.240407764911651611e+00 5.029020136594772339e+01 -3.487576217390540023e-01
-1.525700932741165161e+01 7.877726191282272339e+01 -3.947170943953040023e-01
-1.647917729616165161e+01 8.092106074094772339e+01 -3.824642867781165023e-01
-1.763628178834915161e+01 8.252482050657272339e+01 -3.683346481062415023e-01
-1.143828374147415161e+01 5.133573359251022339e+01 -3.100765914656165023e-01
-7.234060108661651611e+00 3.136026972532272339e+01 -2.775601119734290023e-01
-6.165456593036651611e+00 2.580851191282272339e+01 -2.664822311140540023e-01
-6.546315968036651611e+00 2.635331171751022339e+01 -2.619351119734290023e-01
-9.234548389911651611e+00 5.028360956907272339e+01 -1.275662154890540023e-01
-1.570952397584915161e+01 8.114921015501022339e+01 -3.288542935624150232e-02
-1.605937749147415161e+01 7.890494745969772339e+01 -2.409636685624150232e-02
-1.777983647584915161e+01 8.323063105344772339e+01 6.451728846883497681e-03
-1.143279057741165161e+01 5.133353632688522339e+01 -8.322417447342900232e-02
-1.199577885866165161e+01 5.157352656126022339e+01 -7.152068326249150232e-02
-6.159353077411651611e+00 2.579325312376022339e+01 -1.585568160749915023e-01
-6.373220264911651611e+00 2.568900507688522339e+01 -1.538265914656165023e-01
-1.486296635866165161e+01 8.096427363157272339e+01 3.122531204484459977e-01
-1.507707768678665161e+01 7.792765253782272339e+01 3.077670364640709977e-01
-1.601555424928665161e+01 7.872794550657272339e+01 3.312350540421959977e-01
-1.676128178834915161e+01 7.852421015501022339e+01 3.473025589250084977e-01
-1.764287358522415161e+01 7.893985956907272339e+01 3.683139114640709977e-01
-1.841448003053665161e+01 7.883683222532272339e+01 3.852816849015709977e-01
-6.153249561786651611e+00 2.577799433469772339e+01 -5.134856412186650232e-02
-7.754689991474151611e+00 3.107865351438522339e+01 6.991653703209976811e-04
-1.579033452272415161e+01 8.606009882688522339e+01 7.373629837296959977e-01
-1.509123784303665161e+01 7.803971308469772339e+01 6.585360794328209977e-01
-1.617607671022415161e+01 7.955143183469772339e+01 6.952792434953209977e-01
-1.710259038209915161e+01 8.015091913938522339e+01 7.214633255265709977e-01
-1.768913823366165161e+01 7.918021601438522339e+01 7.278567581437584977e-01
-1.841362553834915161e+01 7.886649531126022339e+01 7.424289016984459977e-01
-1.913176518678665161e+01 7.852860468626022339e+01 7.566806106828209977e-01
-2.307646733522415161e+01 9.078666132688522339e+01 9.434329300187584977e-01
-1.476469975709915161e+01 8.051261347532272339e+01 1.032284858729695998e+00
-1.523698979616165161e+01 7.883048456907272339e+01 1.023556831385945998e+00
-1.608574467897415161e+01 7.914664667844772339e+01 1.048031929042195998e+00
-1.701738530397415161e+01 7.979020136594772339e+01 1.078488472010945998e+00
-1.829070073366165161e+01 8.188920038938522339e+01 1.134762886073445998e+00
-1.900481206178665161e+01 8.141105097532272339e+01 1.146420600917195998e+00
-2.034868413209915161e+01 8.350809687376022339e+01 1.204403999354695998e+00
-7.786794483661651611e+00 3.122672480344772339e+01 2.691928177140709977e-01
-9.238210499286651611e+00 5.040629023313522339e+01 7.571078567765709977e-01
-1.525224858522415161e+01 7.894840449094772339e+01 1.379620674159383498e+00
-1.625774174928665161e+01 8.002762812376022339e+01 1.422925117518758498e+00
-1.668547612428665161e+01 7.827811640501022339e+01 1.404889228846883498e+00
-1.747490483522415161e+01 7.829679316282272339e+01 1.425213935878133498e+00
-1.903752690553665161e+01 8.158426874876022339e+01 1.519101264979695998e+00
-2.030144292116165161e+01 8.334977167844772339e+01 1.580289009120320998e+00
-2.211687260866165161e+01 8.711686152219772339e+01 1.690640571620320998e+00
-9.233938038349151611e+00 5.040787714719772339e+01 9.775820999406334977e-01
-1.529839116334915161e+01 7.922623652219772339e+01 1.742810371425008498e+00
-1.568022710084915161e+01 7.723270624876022339e+01 1.710995796229695998e+00
-1.710198003053665161e+01 8.025748652219772339e+01 1.811993721034383498e+00
-1.833867436647415161e+01 8.217496699094772339e+01 1.884854438807820998e+00
-1.953984624147415161e+01 8.375492304563522339e+01 1.949704292323445998e+00
-2.019341069459915161e+01 8.294413203001022339e+01 1.949872139003133498e+00
-2.263847905397415161e+01 8.918595331907272339e+01 2.145428779628133498e+00
-1.481975346803665161e+01 8.093937128782272339e+01 2.130841377284383498e+00
-1.525066167116165161e+01 7.901896113157272339e+01 2.093640449550008498e+00
-1.595573979616165161e+01 7.862174433469772339e+01 2.100888374354695998e+00
-1.655547124147415161e+01 7.774283808469772339e+01 2.094876411464070998e+00
-1.837187749147415161e+01 8.235868281126022339e+01 2.262158515956258498e+00
-1.952129155397415161e+01 8.371146601438522339e+01 2.328045967128133498e+00
-2.019768315553665161e+01 8.299552363157272339e+01 2.330289009120320998e+00
-2.156963139772415161e+01 8.505021113157272339e+01 2.420209053065633498e+00
-1.575053960084915161e+01 8.606778925657272339e+01 2.675732734706258498e+00
-1.556133061647415161e+01 8.066532343626022339e+01 2.506314399745320998e+00
-1.788823491334915161e+01 8.814823359251022339e+01 2.796582344081258498e+00
-1.684319096803665161e+01 7.912211054563522339e+01 2.496335151698445998e+00
-1.919231206178665161e+01 8.604899042844772339e+01 2.770566108729695998e+00
-1.967046147584915161e+01 8.438175410032272339e+01 2.734112861659383498e+00
-2.052519780397415161e+01 8.436332148313522339e+01 2.757763984706258498e+00
-2.040874272584915161e+01 8.055179804563522339e+01 2.642132881190633498e+00
-4.206228077411651611e+00 1.718143671751022339e+01 -9.937771529890540023e-01
-4.363576710224151611e+00 1.720670527219772339e+01 -9.937618941999915023e-01
-4.410207569599151611e+00 1.683109492063522339e+01 -9.729489059187415023e-01
-4.454885303974151611e+00 1.647159785032272339e+01 -9.530514449812415023e-01
-4.497365772724151611e+00 1.612967890501022339e+01 -9.341152877546790023e-01
-4.538015186786651611e+00 1.580277460813522339e+01 -9.160031051374915023e-01
-4.576955616474151611e+00 1.548905390501022339e+01 -8.986233443953040023e-01
-4.636281788349151611e+00 1.525589960813522339e+01 -8.858364791609290023e-01
-4.323171436786651611e+00 1.764017695188522339e+01 -9.485501022078040023e-01
-4.371755421161651611e+00 1.724259394407272339e+01 -9.282253951765540023e-01
-4.418386280536651611e+00 1.686539667844772339e+01 -9.085873336531165023e-01
-4.462941944599151611e+00 1.650431269407272339e+01 -8.901241988874915023e-01
-4.546926319599151611e+00 1.629911249876022339e+01 -8.791836471296790023e-01
-4.698659718036651611e+00 1.632242792844772339e+01 -8.791531295515540023e-01
-5.535695850849151611e+00 1.846195429563522339e+01 -9.802120895124915023e-01
-6.278127491474151611e+00 2.017594355344772339e+01 -1.060335990879679002e+00
-4.329763233661651611e+00 1.767179316282272339e+01 -8.804501266218665023e-01
-4.451101124286651611e+00 1.754398554563522339e+01 -8.734768600203040023e-01
-6.212575733661651611e+00 2.329435175657272339e+01 -1.120303031895304002e+00
-6.075490772724151611e+00 2.206791132688522339e+01 -1.065462944004679002e+00
-6.268361866474151611e+00 2.202384394407272339e+01 -1.061678764317179002e+00
-6.309621632099151611e+00 2.149308222532272339e+01 -1.037020561192179002e+00
-6.322683155536651611e+00 2.090494745969772339e+01 -1.010012504551554002e+00
-5.678518116474151611e+00 1.838553828001022339e+01 -9.006985397078040023e-01
-6.249074757099151611e+00 2.512113398313522339e+01 -1.098986503574991502e+00
-6.282888233661651611e+00 2.437186640501022339e+01 -1.067126152012491502e+00
-6.318532764911651611e+00 2.368180292844772339e+01 -1.038241264317179002e+00
-6.067312061786651611e+00 2.204654902219772339e+01 -9.733151168562415023e-01
-6.187185108661651611e+00 2.176102656126022339e+01 -9.602535934187415023e-01
-6.418630421161651611e+00 2.184928339719772339e+01 -9.614742965437415023e-01
-5.568166553974151611e+00 1.857316035032272339e+01 -8.350552291609290023e-01
-5.687063038349151611e+00 1.841642206907272339e+01 -8.277310104109290023e-01
-6.363210499286651611e+00 2.557291620969772339e+01 -1.009234306309366502e+00
-6.393117725849151611e+00 2.479105585813522339e+01 -9.800137252546790023e-01
-6.424123585224151611e+00 2.406778925657272339e+01 -9.529598922468665023e-01
-6.452932178974151611e+00 2.338370722532272339e+01 -9.273556441999915023e-01
-6.195730030536651611e+00 2.179606074094772339e+01 -8.717831344343665023e-01
-6.444021046161651611e+00 2.193741816282272339e+01 -8.740719527937415023e-01
-6.548269093036651611e+00 2.161661738157272339e+01 -8.610104293562415023e-01
-5.695730030536651611e+00 1.844767206907272339e+01 -7.540768356062415023e-01
-6.472219288349151611e+00 2.600516718626022339e+01 -9.151943893171790023e-01
-6.509816944599151611e+00 2.523453730344772339e+01 -8.890866012312415023e-01
-6.534231007099151611e+00 2.447062128782272339e+01 -8.639553756453040023e-01
-6.050954639911651611e+00 2.200419062376022339e+01 -7.901486129499915023e-01
-6.204274952411651611e+00 2.183133906126022339e+01 -7.825192184187415023e-01
-6.393850147724151611e+00 2.178312128782272339e+01 -7.784756393171790023e-01
-6.584279835224151611e+00 2.173465937376022339e+01 -7.744015426374915023e-01
-5.704641163349151611e+00 1.847953242063522339e+01 -6.805599899031165023e-01
-6.613454639911651611e+00 2.656302851438522339e+01 -8.195522994734290023e-01
-6.524587452411651611e+00 2.529825800657272339e+01 -7.853115768171790023e-01
-6.651052296161651611e+00 2.489811152219772339e+01 -7.722500533796790023e-01
-6.042775928974151611e+00 2.198307245969772339e+01 -6.991299361921790023e-01
-6.212819874286651611e+00 2.186661738157272339e+01 -6.934078902937415023e-01
-6.402761280536651611e+00 2.181827753782272339e+01 -6.893185348249915023e-01
-6.593557178974151611e+00 2.176969355344772339e+01 -6.851986617781165023e-01
-6.783864796161651611e+00 2.172135370969772339e+01 -6.811093063093665023e-01
-6.512868702411651611e+00 2.618180292844772339e+01 -7.007778854109290023e-01
-6.522634327411651611e+00 2.529984492063522339e+01 -6.797360152937415023e-01
-6.773977100849151611e+00 2.534720820188522339e+01 -6.763485641218665023e-01
-6.789724171161651611e+00 2.456962031126022339e+01 -6.576870650984290023e-01
-6.810354053974151611e+00 2.386246699094772339e+01 -6.406277389265540023e-01
-6.411794483661651611e+00 2.185379999876022339e+01 -5.993527145124915023e-01
-6.602834522724151611e+00 2.180497187376022339e+01 -5.956753463484290023e-01
-6.793386280536651611e+00 2.175650995969772339e+01 -5.915402145124915023e-01
-6.423513233661651611e+00 2.584415644407272339e+01 -5.856960983015540023e-01
-6.520681202411651611e+00 2.530143183469772339e+01 -5.735806197859290023e-01
-6.905690968036651611e+00 2.582840937376022339e+01 -5.771969527937415023e-01
-6.913137257099151611e+00 2.500419062376022339e+01 -5.611904830671790023e-01
-6.926687061786651611e+00 2.425760859251022339e+01 -5.465725631453040023e-01
-6.420705616474151611e+00 2.188920038938522339e+01 -5.095394820906165023e-01
-6.614675343036651611e+00 2.184818476438522339e+01 -5.054501266218665023e-01
-6.981496632099151611e+00 2.232718867063522339e+01 -5.084561080671790023e-01
-6.518483936786651611e+00 2.622281855344772339e+01 -4.816769332624915023e-01
-6.518728077411651611e+00 2.530301874876022339e+01 -4.680050582624915023e-01
-6.836965382099151611e+00 2.559061640501022339e+01 -4.664486617781165023e-01
-7.066701710224151611e+00 2.554325312376022339e+01 -4.615505904890540023e-01
-7.076833546161651611e+00 2.476529902219772339e+01 -4.498013229109290023e-01
-7.090627491474151611e+00 2.404923456907272339e+01 -4.389065475203040023e-01
-6.704519093036651611e+00 2.213346308469772339e+01 -4.174832076765540023e-01
-6.877370655536651611e+00 2.202115839719772339e+01 -4.126461715437415023e-01
-6.405324757099151611e+00 2.579227656126022339e+01 -3.691281051374915023e-01
-6.516774952411651611e+00 2.530472773313522339e+01 -3.618496627546790023e-01
-6.828054249286651611e+00 2.556705683469772339e+01 -3.584927291609290023e-01
-7.069631397724151611e+00 2.556144160032272339e+01 -3.537014693953040023e-01
-6.252248585224151611e+00 2.202530878782272339e+01 -3.327816695906165023e-01
-7.242116749286651611e+00 2.454386347532272339e+01 -3.396939010359290023e-01
-6.646901905536651611e+00 2.196122187376022339e+01 -3.243893356062415023e-01
-6.885793507099151611e+00 2.205265253782272339e+01 -3.206661910749915023e-01
-6.546315968036651611e+00 2.634989374876022339e+01 -2.619198531843665023e-01
-6.514821827411651611e+00 2.530631464719772339e+01 -2.562588424421790023e-01
-6.848806202411651611e+00 2.565043085813522339e+01 -2.513607711531165023e-01
-6.046071827411651611e+00 2.202994745969772339e+01 -2.462490768171790023e-01
-7.415944874286651611e+00 2.591178339719772339e+01 -2.411068649031165023e-01
-6.466970264911651611e+00 2.205814570188522339e+01 -2.376278609968665023e-01
-6.657766163349151611e+00 2.200150507688522339e+01 -2.332943649031165023e-01
-5.758840382099151611e+00 1.867362421751022339e+01 -2.319515914656165023e-01
-6.373952686786651611e+00 2.568839472532272339e+01 -1.538113326765540023e-01
-6.512868702411651611e+00 2.530790156126022339e+01 -1.501034469343665023e-01
-6.907644093036651611e+00 2.587076777219772339e+01 -1.428402633406165023e-01
-6.069753468036651611e+00 2.211905878782272339e+01 -1.552456588484290023e-01
-7.337453663349151611e+00 2.565812128782272339e+01 -1.329678268171790023e-01
-7.573903858661651611e+00 2.562662714719772339e+01 -1.276730270124915023e-01
-5.605886280536651611e+00 1.873880976438522339e+01 -1.595638961531165023e-01
-5.775564014911651611e+00 1.872892206907272339e+01 -1.557797164656165023e-01
-7.755910694599151611e+00 3.107901972532272339e+01 7.296829484459976811e-04
-6.511037647724151611e+00 2.530948847532272339e+01 -4.451262662186650232e-02
-6.798635303974151611e+00 2.548746699094772339e+01 -3.726470181717900232e-02
-6.091848194599151611e+00 2.220267695188522339e+01 -6.297576138749150232e-02
-6.357229053974151611e+00 2.239615839719772339e+01 -5.620085904374150232e-02
-6.502248585224151611e+00 2.218485468626022339e+01 -5.339324185624150232e-02
-5.623708546161651611e+00 1.879935663938522339e+01 -8.340727994217900232e-02
-5.788503468036651611e+00 1.877311152219772339e+01 -7.962310025467900232e-02
-7.806081593036651611e+00 3.128629511594772339e+01 1.367923050187584977e-01
-6.509084522724151611e+00 2.531107538938522339e+01 6.107819369063349768e-02
-6.912038624286651611e+00 2.590384882688522339e+01 7.531464388594599768e-02
-6.105275928974151611e+00 2.225626581907272339e+01 2.917206576094599768e-02
-2.590959721803665161e+01 8.765629023313522339e+01 9.889498977921959977e-01
-6.520314991474151611e+00 2.225004023313522339e+01 3.941071322188349768e-02
-6.638967335224151611e+00 2.196268671751022339e+01 4.028046419844599768e-02
-5.801564991474151611e+00 1.881778925657272339e+01 -2.611991856241502319e-03
-7.788747608661651611e+00 3.123002070188522339e+01 2.692691116593834977e-01
-6.507131397724151611e+00 2.531266230344772339e+01 1.672488479875084977e-01
-6.903615772724151611e+00 2.588236445188522339e+01 1.841861038468834977e-01
-2.579973393678665161e+01 8.732023066282272339e+01 1.389294746425008498e+00
-6.520314991474151611e+00 2.225675410032272339e+01 1.321536331437584977e-01
-5.659597218036651611e+00 1.892203730344772339e+01 7.105744173750849768e-02
-8.208303272724151611e+00 2.606351679563522339e+01 2.203189163468834977e-01
-2.211968022584915161e+01 8.711600703001022339e+01 1.690701606776570998e+00
-6.505178272724151611e+00 2.531424921751022339e+01 2.728396683000084977e-01
-2.415581303834915161e+01 8.799186152219772339e+01 1.758313301112508498e+00
-3.063738042116165161e+01 9.666984003782272339e+01 2.074505928065633498e+00
-5.827932178974151611e+00 1.890775507688522339e+01 1.522647171281334977e-01
-2.217473393678665161e+01 8.736490839719772339e+01 2.094952705409383498e+00
-6.503225147724151611e+00 2.531583613157272339e+01 3.790103225968834977e-01
-2.415263921022415161e+01 8.801322382688522339e+01 2.164898994471883498e+00
-2.945598393678665161e+01 9.620987910032272339e+01 2.484295967128133498e+00
-3.037358647584915161e+01 9.588077753782272339e+01 2.503888252284383498e+00
-2.866899663209915161e+01 8.767215937376022339e+01 2.287457588221883498e+00
-2.157073003053665161e+01 8.504264277219772339e+01 2.420041206385945998e+00
-6.501272022724151611e+00 2.531742304563522339e+01 4.851809768937584977e-01
