-9.319812357425689697e-01 1.713882616162300110e+01 -7.551869071554335733e-01
9.438595175743103027e-02 1.853347948193550110e+01 -7.539509452413710733e-01
-5.075564980506896973e-02 1.871841600537300110e+01 -7.572926200460585733e-01
-1.998035013675689697e-01 1.889639452099800110e+01 -7.607105887960585733e-01
-3.527576029300689697e-01 1.907913377881050110e+01 -7.642201102804335733e-01
-5.087634623050689697e-01 1.926223924756050110e+01 -7.676838553976210733e-01
-6.683093607425689697e-01 1.941653612256050110e+01 -7.701557792257460733e-01
-8.313952982425689697e-01 1.957437303662300110e+01 -7.726887382101210733e-01
-9.997302591800689697e-01 1.983450487256050110e+01 -7.788838065694960733e-01
1.957043111324310303e-01 2.079190233349800110e+01 -7.488545096944960733e-01
3.042110800743103027e-02 2.104544237256050110e+01 -7.533253348898085733e-01
-1.401111185550689697e-01 2.129129198193550110e+01 -7.574909843038710733e-01
-3.168689310550689697e-01 2.148831346631050110e+01 -7.601917899679335733e-01
-4.968005716800689697e-01 2.168899706006050110e+01 -7.629383719991835733e-01
-6.807605326175689697e-01 2.189419725537300110e+01 -7.657459891866835733e-01
-8.694812357425689697e-01 2.210464647412300110e+01 -7.686299003194960733e-01
-1.071019321680068970e+00 2.268106248974800110e+01 -7.815693534444960733e-01
3.432873189449310303e-01 2.408621385693550110e+01 -7.484730399679335733e-01
1.476086080074310303e-01 2.441067674756050110e+01 -7.529591239523085733e-01
-5.502811074256896973e-02 2.471377733349800110e+01 -7.563160575460585733e-01
-2.646228373050689697e-01 2.499344041943550110e+01 -7.595204032491835733e-01
-4.791003763675689697e-01 2.527945116162300110e+01 -7.628010428976210733e-01
-6.991931498050689697e-01 2.554068163037300110e+01 -7.654102958273085733e-01
-9.249011576175689697e-01 2.578897264599800110e+01 -7.681721366476210733e-01
-1.177464634180068970e+00 2.693350389599800110e+01 -7.910145438741835733e-01
5.448254048824310303e-01 2.857974413037300110e+01 -7.407520927023085733e-01
3.063000142574310303e-01 2.896084764599800110e+01 -7.441395438741835733e-01
6.032833456993103027e-02 2.934646776318550110e+01 -7.474964774679335733e-01
-1.921130716800689697e-01 2.986721971631050110e+01 -7.532948173116835733e-01
-4.554187357425689697e-01 3.008841112256050110e+01 -7.532795585226210733e-01
-7.228747904300689697e-01 3.027346971631050110e+01 -7.525013602804335733e-01
-1.001805454492568970e+00 3.091116502881050110e+01 -7.600849784444960733e-01
-1.290623813867568970e+00 3.147549608349800110e+01 -7.661274589132460733e-01
8.307140767574310303e-01 3.495340135693550110e+01 -7.205189384054335733e-01
5.335949361324310303e-01 3.547598436474800110e+01 -7.232502616476210733e-01
2.241466939449310303e-01 3.591653612256050110e+01 -7.246235526632460733e-01
-9.445682168006896973e-02 3.639908006787300110e+01 -7.264546073507460733e-01
-4.218493998050689697e-01 3.682937791943550110e+01 -7.274006522726210733e-01
-7.581531107425689697e-01 3.733706834912300110e+01 -7.293080009054335733e-01
-1.107762485742568970e+00 3.798282030224800110e+01 -7.329701102804335733e-01
-1.463719516992568970e+00 3.841848924756050110e+01 -7.335346854757460733e-01
3.555201381444931030e+00 9.592129686474800110e+01 -1.207518450124183573e+00
2.598902553319931030e+00 9.495572069287300110e+01 -1.183028093678871073e+00
1.515772670507431030e+00 8.807937791943550110e+01 -1.099364153249183573e+00
-1.401248574256896973e-02 4.170218065381050110e+01 -6.265858329366835733e-01
-3.937732279300689697e-01 4.223196581006050110e+01 -6.256855643819960733e-01
-7.840320169925689697e-01 4.277993944287300110e+01 -6.248158134054335733e-01
-1.894139438867568970e+00 8.989773729443550110e+01 -1.062910906178871073e+00
-2.863621860742568970e+00 9.417434862256050110e+01 -1.088911882741371073e+00
3.468287318944931030e+00 9.383267381787300110e+01 -7.708424247335585733e-01
2.516749233007431030e+00 9.240640428662300110e+01 -7.485493339132460733e-01
1.522242397069931030e+00 8.809573534131050110e+01 -7.109059012960585733e-01
-1.132693886756896973e-02 4.170047166943550110e+01 -4.506977714132460733e-01
-3.909656107425689697e-01 4.222805956006050110e+01 -4.473866141866835733e-01
-7.811023294925689697e-01 4.277591112256050110e+01 -4.439991630148085733e-01
-1.883519321680068970e+00 8.961575487256050110e+01 -6.648243583273085733e-01
-2.721532016992568970e+00 8.877920702099800110e+01 -6.473377860616835733e-01
9.958752095699310303e-01 3.849258592724800110e+01 -2.881916678976210733e-01
2.527613490819931030e+00 9.253470018506050110e+01 -3.381184257101210733e-01
1.540064662694931030e+00 8.857107713818550110e+01 -3.227680839132460733e-01
-8.641391992568969727e-03 4.169888475537300110e+01 -2.748402274679335733e-01
-3.881579935550689697e-01 4.222415331006050110e+01 -2.691334403585585733e-01
-7.781726419925689697e-01 4.277188280224800110e+01 -2.632588065694960733e-01
-1.873021274805068970e+00 8.934170702099800110e+01 -2.672718680929335733e-01
-2.716893345117568970e+00 8.884671190381050110e+01 -2.537373221944960733e-01
3.355250209569931030e+00 9.102713182568550110e+01 5.169785846956642672e-02
2.535059779882431030e+00 9.256985643506050110e+01 7.092393268831642672e-02
1.559107631444931030e+00 8.908499315381050110e+01 7.194627155550392672e-02
-5.833774805068969727e-03 4.169717577099800110e+01 -9.808241496793357328e-02
-3.853503763675689697e-01 4.222024706006050110e+01 -8.996473918668357328e-02
-7.752429544925689697e-01 4.276785448193550110e+01 -8.160292278043357328e-02
-1.863377720117568970e+00 8.911429002881050110e+01 1.258250557351914267e-01
-2.792576938867568970e+00 9.213589647412300110e+01 1.528331123758164267e-01
3.361842006444931030e+00 9.103628709912300110e+01 4.559336983133164267e-01
2.491480678319931030e+00 9.114090135693550110e+01 4.683238350320664267e-01
1.576197475194931030e+00 8.952578905224800110e+01 4.686290108133164267e-01
7.115734517574310303e-01 8.932193163037300110e+01 4.803935371805039267e-01
-1.434070169925689697e-01 8.961270311474800110e+01 4.963237129617539267e-01
-1.000340610742568970e+00 8.916714647412300110e+01 5.058757149148789267e-01
-1.852757602930068970e+00 8.882595995068550110e+01 5.162516914773789267e-01
-2.754002720117568970e+00 9.085244920849800110e+01 5.501262031961289267e-01
3.364283412694931030e+00 9.095291307568550110e+01 8.568736397195664267e-01
2.475123256444931030e+00 9.049502733349800110e+01 8.646708809305039267e-01
1.593043178319931030e+00 8.995181444287300110e+01 8.712321602273789267e-01
7.423351705074310303e-01 9.095340135693550110e+01 8.978434883523789267e-01
-1.360827982425689697e-01 8.982071092724800110e+01 8.965007149148789267e-01
-1.004857212305068970e+00 9.140286424756050110e+01 9.311076485086289267e-01
-1.874241977930068970e+00 9.070523241162300110e+01 9.354106270242539267e-01
-2.749241977930068970e+00 9.091958788037300110e+01 9.519206367898789267e-01
9.336193501949310303e-01 3.688992479443550110e+01 3.305674873758164267e-01
2.485743373632431030e+00 9.062320116162300110e+01 1.266343244211753927e+00
1.592799037694931030e+00 8.969668748974800110e+01 1.263672956125816427e+00
7.418468892574310303e-01 9.050418260693550110e+01 1.291367658274253927e+00
-1.298572123050689697e-01 8.980948045849800110e+01 1.292527326243003927e+00
-9.950915873050689697e-01 9.069217088818550110e+01 1.321778424875816427e+00
-1.882908970117568970e+00 9.172720506787300110e+01 1.354111798899253927e+00
-2.980321079492568970e+00 1.005378740131855011e+02 1.531129010813316427e+00
9.387463033199310303e-01 3.695193651318550110e+01 4.856730781961289267e-01
2.512354701757431030e+00 9.120108202099800110e+01 1.681138166086753927e+00
1.647364467382431030e+00 9.161209276318550110e+01 1.703812726633628927e+00
7.683361470699310303e-01 9.182864549756050110e+01 1.722321637766441427e+00
-1.210681498050689697e-01 9.026797655224800110e+01 1.701050885813316427e+00
-9.875232279300689697e-01 9.046158006787300110e+01 1.718857892649253927e+00
-1.917210727930068970e+00 9.450918748974800110e+01 1.824311383860191427e+00
9.446056783199310303e-01 3.702810838818550110e+01 6.425334297586289267e-01
6.009777486324310303e-01 3.680447557568550110e+01 6.418010078836289267e-01
1.652979701757431030e+00 9.158499315381050110e+01 2.107514508860191427e+00
7.854259908199310303e-01 9.253006151318550110e+01 2.146531232493003927e+00
-1.166736185550689697e-01 8.990799120068550110e+01 2.089524396555503927e+00
-9.858142435550689697e-01 9.145852831006050110e+01 2.144944318430503927e+00
-1.883031040430068970e+00 9.263308885693550110e+01 2.192826398508628927e+00
-2.934666782617568970e+00 9.926602342724800110e+01 2.388810285227378927e+00
9.433849751949310303e-01 3.694949510693550110e+01 7.952891670633164267e-01
7.850597798824310303e-01 9.208218553662300110e+01 2.543183454172691427e+00
-1.116687357425689697e-01 8.968667772412300110e+01 2.481141217844566427e+00
-9.830066263675689697e-01 9.225918748974800110e+01 2.576081403391441427e+00
-1.879613071680068970e+00 9.284414842724800110e+01 2.608445294993003927e+00
-2.793797641992568970e+00 9.380606248974800110e+01 2.655244001047691427e+00
-8.119861185550689697e-01 1.233645799756050110e+01 -7.439411796163710733e-01
-9.039050638675689697e-01 1.239773729443550110e+01 -7.459095634054335733e-01
-9.965564310550689697e-01 1.244522264599800110e+01 -7.473286307882460733e-01
-1.090550571680068970e+00 1.249344041943550110e+01 -7.487629569601210733e-01
-1.185277134180068970e+00 1.254214647412300110e+01 -7.502125419210585733e-01
-1.281224399805068970e+00 1.259134081006050110e+01 -7.516773856710585733e-01
-1.378636509180068970e+00 1.264126756787300110e+01 -7.531574882101210733e-01
-1.476903110742568970e+00 1.269314745068550110e+01 -7.549732841085585733e-01
-8.328601419925689697e-01 1.316555956006050110e+01 -7.444447196554335733e-01
-9.333240091800689697e-01 1.323623827099800110e+01 -7.467030204366835733e-01
-1.036229282617568970e+00 1.332840135693550110e+01 -7.497547782491835733e-01
-1.141331821680068970e+00 1.341678026318550110e+01 -7.528370536398085733e-01
-1.248021274805068970e+00 1.350650194287300110e+01 -7.559803641866835733e-01
-1.356785923242568970e+00 1.359793260693550110e+01 -7.591694511007460733e-01
-1.467503696680068970e+00 1.368509081006050110e+01 -7.623737968038710733e-01
-1.580540806055068970e+00 1.378006151318550110e+01 -7.656849540304335733e-01
-8.577624857425689697e-01 1.416299608349800110e+01 -7.450703300069960733e-01
-9.694568216800689697e-01 1.426931932568550110e+01 -7.484577811788710733e-01
-1.084569126367568970e+00 1.440091112256050110e+01 -7.529743827413710733e-01
-1.202977329492568970e+00 1.453640916943550110e+01 -7.576283134054335733e-01
-1.324071079492568970e+00 1.467495897412300110e+01 -7.623890555929335733e-01
-1.448460727930068970e+00 1.481717088818550110e+01 -7.672718680929335733e-01
-1.576390415430068970e+00 1.496353319287300110e+01 -7.722920096944960733e-01
-1.707493931055068970e+00 1.511343553662300110e+01 -7.774494803976210733e-01
-8.931628763675689697e-01 1.556790331006050110e+01 -7.536762870382460733e-01
-1.020970493555068970e+00 1.573489549756050110e+01 -7.585438407491835733e-01
-1.152074009180068970e+00 1.589883592724800110e+01 -7.635639823507460733e-01
-1.287449985742568970e+00 1.606790331006050110e+01 -7.687214530538710733e-01
-1.426121860742568970e+00 1.624136522412300110e+01 -7.740162528585585733e-01
-1.568822056055068970e+00 1.641970995068550110e+01 -7.794636405538710733e-01
-1.720433384180068970e+00 1.665359666943550110e+01 -7.871082938741835733e-01
-1.879979282617568970e+00 1.692361620068550110e+01 -7.964771903585585733e-01
-9.324695169925689697e-01 1.714041307568550110e+01 -7.552326835226210733e-01
-1.080174595117568970e+00 1.742556932568550110e+01 -7.637318290304335733e-01
-1.235081821680068970e+00 1.774051073193550110e+01 -7.732227958273085733e-01
-1.397801548242568970e+00 1.807132127881050110e+01 -7.832020438741835733e-01
-1.572606235742568970e+00 1.848929002881050110e+01 -7.962483085226210733e-01
-1.764012485742568970e+00 1.901370409131050110e+01 -8.130329764913710733e-01
-1.970067173242568970e+00 1.957962206006050110e+01 -8.311299003194960733e-01
-2.221532016992568970e+00 2.050320604443550110e+01 -8.618916190694960733e-01
-1.000462681055068970e+00 1.983694627881050110e+01 -7.789601005148085733e-01
-1.176976352930068970e+00 2.017935350537300110e+01 -7.871388114523085733e-01
-1.363988071680068970e+00 2.059744432568550110e+01 -7.980335868429335733e-01
-1.572728306055068970e+00 2.124075487256050110e+01 -8.159626639913710733e-01
-1.787938266992568970e+00 2.179300096631050110e+01 -8.308247245382460733e-01
-2.022801548242568970e+00 2.245730760693550110e+01 -8.490589774679335733e-01
-2.282323032617568970e+00 2.324221971631050110e+01 -8.708637870382460733e-01
-2.583226352930068970e+00 2.429922655224800110e+01 -9.014576591085585733e-01
-1.071751743555068970e+00 2.268594530224800110e+01 -7.816914237569960733e-01
-1.287327915430068970e+00 2.332949998974800110e+01 -7.965229667257460733e-01
-1.518040806055068970e+00 2.401809862256050110e+01 -8.123921073507460733e-01
-1.777074009180068970e+00 2.495022752881050110e+01 -8.346699393819960733e-01
-2.062596470117568970e+00 2.601138475537300110e+01 -8.601673759054335733e-01
-2.352147251367568970e+00 2.684121873974800110e+01 -8.791187919210585733e-01
-2.660252720117568970e+00 2.767947557568550110e+01 -8.980244315694960733e-01
-2.974949985742568970e+00 2.841678026318550110e+01 -9.140003837179335733e-01
-1.178685337305068970e+00 2.694619920849800110e+01 -7.912892020773085733e-01
-1.436986118555068970e+00 2.760183885693550110e+01 -8.027485526632460733e-01
-1.720677524805068970e+00 2.852029588818550110e+01 -8.193806327413710733e-01
-2.014134556055068970e+00 2.926284959912300110e+01 -8.323200858663710733e-01
-2.324071079492568970e+00 3.003775194287300110e+01 -8.457783378194960733e-01
-2.659520298242568970e+00 3.094168260693550110e+01 -8.618611014913710733e-01
-3.013035923242568970e+00 3.183035448193550110e+01 -8.780201591085585733e-01
-3.391575962305068970e+00 3.280056932568550110e+01 -8.950337089132460733e-01
-1.291722446680068970e+00 3.147891405224800110e+01 -7.661884940694960733e-01
-1.588597446680068970e+00 3.194583299756050110e+01 -7.703999198507460733e-01
-1.899022251367568970e+00 3.250027635693550110e+01 -7.760609305929335733e-01
-2.260594516992568970e+00 3.375442674756050110e+01 -7.941120780538710733e-01
-2.616063266992568970e+00 3.454141405224800110e+01 -8.034657157491835733e-01
-2.976903110742568970e+00 3.518435838818550110e+01 -8.100117362569960733e-01
-3.356175571680068970e+00 3.587625291943550110e+01 -8.171833671163710733e-01
-3.756077915430068970e+00 3.664517381787300110e+01 -8.254994071554335733e-01
-1.465062290430068970e+00 3.842080858349800110e+01 -7.335499442648085733e-01
-1.829320102930068970e+00 3.883987596631050110e+01 -7.338093436788710733e-01
-2.202244907617568970e+00 3.925845506787300110e+01 -7.339161552023085733e-01
-2.587620884180068970e+00 3.971866014599800110e+01 -7.344196952413710733e-01
-3.002415806055068970e+00 4.050222948193550110e+01 -7.390888846944960733e-01
-3.418919712305068970e+00 4.109256151318550110e+01 -7.409657157491835733e-01
-3.840550571680068970e+00 4.158487108349800110e+01 -7.413624442648085733e-01
-4.256932407617568970e+00 4.192764452099800110e+01 -7.396992362569960733e-01
-2.896458774805068970e+00 9.535391405224800110e+01 -1.099806658131996073e+00
-2.036351352930068970e+00 4.480630663037300110e+01 -6.244953788351210733e-01
-2.449315220117568970e+00 4.479239061474800110e+01 -6.177509940694960733e-01
-2.890233188867568970e+00 4.525650194287300110e+01 -6.151875175069960733e-01
-8.249974399805068970e+00 9.337039354443550110e+01 -9.949177421163710733e-01
-4.768040806055068970e+00 4.732632616162300110e+01 -6.051472343038710733e-01
-2.724583774805068970e+00 8.877762010693550110e+01 -6.472767509054335733e-01
-2.033543735742568970e+00 4.481485155224800110e+01 -4.343861259054335733e-01
-2.446019321680068970e+00 4.478897264599800110e+01 -4.275349296163710733e-01
-2.886815220117568970e+00 4.525296190381050110e+01 -4.227284110616835733e-01
-8.313206821680068970e+00 9.419461229443550110e+01 -5.839069999288710733e-01
-4.765233188867568970e+00 4.733255174756050110e+01 -4.027393973898085733e-01
-2.719823032617568970e+00 8.884451463818550110e+01 -2.536915458273085733e-01
-3.719578891992568970e+00 9.307571581006050110e+01 -2.392414725851210733e-01
-2.442723423242568970e+00 4.478555467724800110e+01 -2.373799003194960733e-01
-2.883519321680068970e+00 4.524942186474800110e+01 -2.303303397726210733e-01
-6.749852329492568970e+00 9.829629686474800110e+01 -1.939991630148085733e-01
-8.253392368555068970e+00 9.357449510693550110e+01 -1.644123710226210733e-01
-4.762425571680068970e+00 4.733889940381050110e+01 -1.992176688741835733e-01
-2.795506626367568970e+00 9.213064745068550110e+01 1.528636299539414267e-01
-3.612401157617568970e+00 9.019644334912300110e+01 1.587230049539414267e-01
-2.439427524805068970e+00 4.478201463818550110e+01 -4.624830852262107328e-02
-2.880101352930068970e+00 4.524588182568550110e+01 -3.694044719449607328e-02
-6.708592563867568970e+00 9.777334764599800110e+01 2.417460762430039267e-01
-8.030003696680068970e+00 9.102810838818550110e+01 2.364817940164414267e-01
-4.760716587305068970e+00 4.735769823193550110e+01 3.327497141441426720e-03
-2.757176548242568970e+00 9.085342577099800110e+01 5.501872383523789267e-01
-3.595921665430068970e+00 8.991140916943550110e+01 5.542308174539414267e-01
-4.460301548242568970e+00 8.993557909131050110e+01 5.692302071023789267e-01
-5.389134556055068970e+00 9.105642870068550110e+01 5.948191963601914267e-01
-6.189183384180068970e+00 8.987295702099800110e+01 5.982676826883164267e-01
-7.417210727930068970e+00 9.471133592724800110e+01 6.611491524148789267e-01
-8.189183384180068970e+00 9.298391893506050110e+01 6.594096504617539267e-01
-8.902074009180068970e+00 9.102127245068550110e+01 6.567698799539414267e-01
-2.845189243555068970e+00 9.466116502881050110e+01 1.003174909250816427e+00
-3.657689243555068970e+00 9.187417772412300110e+01 9.803630196023789267e-01
-4.452977329492568970e+00 8.992007616162300110e+01 9.682933174539414267e-01
-5.397557407617568970e+00 9.133242967724800110e+01 1.003434308664878927e+00
-6.235936313867568970e+00 9.069766405224800110e+01 1.009583600657066427e+00
-7.904271274805068970e+00 8.970755174756050110e+01 1.025468000071128927e+00
-9.033909946680068970e+00 9.248379686474800110e+01 1.081910260813316427e+00
-2.769261509180068970e+00 9.186636522412300110e+01 1.372574933664878927e+00
-3.612645298242568970e+00 9.076492479443550110e+01 1.365662702219566427e+00
-4.479954868555068970e+00 9.066873338818550110e+01 1.379258283274253927e+00
-5.390721470117568970e+00 9.132852342724800110e+01 1.407105573313316427e+00
-7.101414829492568970e+00 9.067093065381050110e+01 1.425583966868003927e+00
-9.364476352930068970e+00 9.604544237256050110e+01 1.563660749094566427e+00
-3.634495884180068970e+00 9.158645799756050110e+01 1.787369855539878927e+00
-2.469823032617568970e+00 4.574466112256050110e+01 7.383586250711289267e-01
-2.894627720117568970e+00 4.574466112256050110e+01 7.459727608133164267e-01
-6.094456821680068970e+00 8.871414354443550110e+01 1.767060407297691427e+00
-7.289281040430068970e+00 9.327981737256050110e+01 1.890885480539878927e+00
-8.633519321680068970e+00 8.840310838818550110e+01 1.805619367258628927e+00
-2.938084751367568970e+00 9.926846483349800110e+01 2.388932355539878927e+00
-3.632664829492568970e+00 9.172671678662300110e+01 2.197754987375816427e+00
-2.466649204492568970e+00 4.574466112256050110e+01 9.327708565164414267e-01
-2.891331821680068970e+00 4.574466112256050110e+01 9.405070625711289267e-01
-6.150120884180068970e+00 8.967923143506050110e+01 2.186143048899253927e+00
-7.181981235742568970e+00 9.193374803662300110e+01 2.265809186594566427e+00
-7.668919712305068970e+00 8.716385057568550110e+01 2.147935041086753927e+00
-9.776341587305068970e+00 1.005520341694355011e+02 2.548142560618003927e+00
-2.797093540430068970e+00 9.380728319287300110e+01 2.655335553782066427e+00
-3.753758579492568970e+00 9.542898729443550110e+01 2.722046979563316427e+00
-2.463475376367568970e+00 4.574466112256050110e+01 1.128220685618003927e+00
-2.888157993555068970e+00 4.574466112256050110e+01 1.136063703196128927e+00
-6.136815220117568970e+00 8.957522752881050110e+01 2.581116803782066427e+00
-7.759862095117568970e+00 9.978714159131050110e+01 2.933808454172691427e+00
-8.113377720117568970e+00 9.249905565381050110e+01 2.710053571360191427e+00
-9.640599399805068970e+00 9.919778612256050110e+01 2.952317365305503927e+00
-1.477391391992568970e+00 1.269412401318550110e+01 -7.550190604757460733e-01
-1.579442173242568970e+00 1.276992967724800110e+01 -7.579334891866835733e-01
-1.682957798242568970e+00 1.284182909131050110e+01 -7.608631766866835733e-01
-1.788670688867568970e+00 1.291519334912300110e+01 -7.638386405538710733e-01
-1.897923618555068970e+00 1.300430467724800110e+01 -7.676533378194960733e-01
-2.031834751367568970e+00 1.324746873974800110e+01 -7.797230399679335733e-01
-2.173436313867568970e+00 1.350467088818550110e+01 -7.925099052023085733e-01
-2.321263462305068970e+00 1.376761034131050110e+01 -8.058003104757460733e-01
-1.580907016992568970e+00 1.378103807568550110e+01 -7.657307303976210733e-01
-1.695531040430068970e+00 1.387063768506050110e+01 -7.690266288351210733e-01
-1.813084751367568970e+00 1.396866014599800110e+01 -7.724751151632460733e-01
-1.942479282617568970e+00 1.413980272412300110e+01 -7.797535575460585733e-01
-2.100926548242568970e+00 1.449820116162300110e+01 -7.962330497335585733e-01
-2.268284946680068970e+00 1.486648729443550110e+01 -8.130940116476210733e-01
-2.446629673242568970e+00 1.525174120068550110e+01 -8.310078300069960733e-01
-2.651585727930068970e+00 1.575064256787300110e+01 -8.541096366476210733e-01
-1.707982212305068970e+00 1.511490038037300110e+01 -7.774952567648085733e-01
-1.841893345117568970e+00 1.526053026318550110e+01 -7.826985038351210733e-01
-2.000584751367568970e+00 1.559231737256050110e+01 -7.962025321554335733e-01
-2.186253696680068970e+00 1.607840135693550110e+01 -8.165424979757460733e-01
-2.382664829492568970e+00 1.657168748974800110e+01 -8.370808280538710733e-01
-2.585911899805068970e+00 1.704080370068550110e+01 -8.564137137960585733e-01
-2.814793735742568970e+00 1.760757616162300110e+01 -8.799732841085585733e-01
-3.073826938867568970e+00 1.828592088818550110e+01 -9.083546317648085733e-01
-1.880711704492568970e+00 1.692605760693550110e+01 -7.965687430929335733e-01
-2.076268345117568970e+00 1.748282030224800110e+01 -8.170460380148085733e-01
-2.288548618555068970e+00 1.808316209912300110e+01 -8.394764579366835733e-01
-2.520848423242568970e+00 1.873977831006050110e+01 -8.640125907491835733e-01
-2.791112095117568970e+00 1.957742479443550110e+01 -8.956135428976210733e-01
-3.166600376367568970e+00 2.101480272412300110e+01 -9.508961356710585733e-01
-3.443211704492568970e+00 2.162710741162300110e+01 -9.730518973898085733e-01
-3.717747837305068970e+00 2.215310838818550110e+01 -9.921101249288710733e-01
-2.223241001367568970e+00 2.051455858349800110e+01 -8.622883475851210733e-01
-2.494237095117568970e+00 2.144351366162300110e+01 -8.933094657491835733e-01
-2.743016391992568970e+00 2.201553514599800110e+01 -9.113606132101210733e-01
-3.016087681055068970e+00 2.267923143506050110e+01 -9.325092948507460733e-01
-3.342869907617568970e+00 2.363894823193550110e+01 -9.639576591085585733e-01
-3.687352329492568970e+00 2.458340623974800110e+01 -9.946125663351210733e-01
-3.710789829492568970e+00 2.334597948193550110e+01 -9.484699882101210733e-01
-3.778416782617568970e+00 2.252652147412300110e+01 -9.172505057882460733e-01
-2.584569126367568970e+00 2.430667284131050110e+01 -9.016712821554335733e-01
-2.904637485742568970e+00 2.533987596631050110e+01 -9.304951346944960733e-01
-3.233250766992568970e+00 2.626187303662300110e+01 -9.560993827413710733e-01
-3.603245884180068970e+00 2.735354784131050110e+01 -9.866779960226210733e-01
-3.747655063867568970e+00 2.662564256787300110e+01 -9.611347831319960733e-01
-3.707860141992568970e+00 2.473599413037300110e+01 -9.002827323507460733e-01
-3.742039829492568970e+00 2.355655077099800110e+01 -8.615254081319960733e-01
-3.954686313867568970e+00 2.359304979443550110e+01 -8.604115165304335733e-01
-2.976781040430068970e+00 2.842666795849800110e+01 -9.142597831319960733e-01
-3.335423618555068970e+00 2.943362596631050110e+01 -9.374378837179335733e-01
-3.707249790430068970e+00 3.037381151318550110e+01 -9.585713065694960733e-01
-4.104100376367568970e+00 3.134793260693550110e+01 -9.802998221944960733e-01
-4.524510532617568970e+00 3.235183885693550110e+01 -1.002547136647621073e+00
-4.149754673242568970e+00 2.777127245068550110e+01 -8.797749198507460733e-01
-5.360203891992568970e+00 3.391482713818550110e+01 -1.034682146413246073e+00
-5.831029087305068970e+00 3.486612108349800110e+01 -1.054762712819496073e+00
-3.393284946680068970e+00 3.280801561474800110e+01 -8.951710380148085733e-01
-3.798558384180068970e+00 3.384036424756050110e+01 -9.134815848898085733e-01
-4.201756626367568970e+00 3.466763475537300110e+01 -9.262684501241835733e-01
-4.603367954492568970e+00 3.533511522412300110e+01 -9.360798514913710733e-01
-5.011571079492568970e+00 3.595279100537300110e+01 -9.446247733663710733e-01
-4.914769321680068970e+00 3.302188280224800110e+01 -8.775623954366835733e-01
-5.388157993555068970e+00 3.410952928662300110e+01 -8.969257987569960733e-01
-6.014378696680068970e+00 3.598318651318550110e+01 -9.317310966085585733e-01
-3.757420688867568970e+00 3.664846971631050110e+01 -8.255451835226210733e-01
-4.156224399805068970e+00 3.725393846631050110e+01 -8.309620536398085733e-01
-4.583958774805068970e+00 3.799710252881050110e+01 -8.385304130148085733e-01
-5.015599399805068970e+00 3.863443163037300110e+01 -8.440540946554335733e-01
-5.440404087305068970e+00 3.912954881787300110e+01 -8.469990409444960733e-01
-5.882542759180068970e+00 3.966739061474800110e+01 -8.505085624288710733e-01
-6.348485141992568970e+00 4.027334764599800110e+01 -8.549183524679335733e-01
-6.815770298242568970e+00 4.081411913037300110e+01 -8.580921805929335733e-01
-4.258519321680068970e+00 4.193033006787300110e+01 -7.397144950460585733e-01
-4.681615024805068970e+00 4.226333788037300110e+01 -7.378681815694960733e-01
-5.173802524805068970e+00 4.312808397412300110e+01 -7.425373710226210733e-01
-5.627293735742568970e+00 4.352627733349800110e+01 -7.411640800069960733e-01
-6.083226352930068970e+00 4.388516405224800110e+01 -7.391804374288710733e-01
-6.548558384180068970e+00 4.425174120068550110e+01 -7.371662772726210733e-01
-7.070164829492568970e+00 4.491482713818550110e+01 -7.384937919210585733e-01
-7.585911899805068970e+00 4.546255663037300110e+01 -7.382801688741835733e-01
-4.769261509180068970e+00 4.732303026318550110e+01 -6.051014579366835733e-01
-5.217991977930068970e+00 4.738540819287300110e+01 -5.984486259054335733e-01
-5.705540806055068970e+00 4.776321581006050110e+01 -5.942219413351210733e-01
-1.374033084511756897e+01 1.003462236225605011e+02 -9.738911307882460733e-01
-1.314328494668006897e+01 8.949575975537300110e+01 -8.784016288351210733e-01
-7.785252720117568970e+00 4.951870897412300110e+01 -5.776203788351210733e-01
-8.248509556055068970e+00 4.946902635693550110e+01 -5.696400321554335733e-01
-4.766453891992568970e+00 4.732925584912300110e+01 -4.027088798116835733e-01
-5.214207798242568970e+00 4.738260057568550110e+01 -3.954762137960585733e-01
-5.701634556055068970e+00 4.776028612256050110e+01 -3.892506278585585733e-01
-1.214755740761756897e+01 9.554629686474800110e+01 -5.270222343038710733e-01
-7.782689243555068970e+00 4.952700975537300110e+01 -3.634632743429335733e-01
-8.244237095117568970e+00 4.946658495068550110e+01 -3.554066337179335733e-01
-4.763524204492568970e+00 4.733560350537300110e+01 -1.992024100851210733e-01
-5.210423618555068970e+00 4.737954881787300110e+01 -1.914662040304335733e-01
-5.697728306055068970e+00 4.775723436474800110e+01 -1.843250907491835733e-01
-1.215988650918006897e+01 9.570352342724800110e+01 -1.008289969991835733e-01
-1.296298709511756897e+01 8.835428026318550110e+01 -8.250319133512107328e-02
-7.781346470117568970e+00 4.954312303662300110e+01 -1.480854667257460733e-01
-8.239964634180068970e+00 4.946426561474800110e+01 -1.400746024679335733e-01
-4.761937290430068970e+00 4.735440233349800110e+01 3.327497141441426720e-03
-5.208592563867568970e+00 4.739492967724800110e+01 1.150620807894142672e-02
-5.701268345117568970e+00 4.781875780224800110e+01 2.203477253206642672e-02
-1.125790897011756897e+01 8.856472948193550110e+01 2.836467110086289267e-01
-1.376462283730506897e+01 1.006999833881855011e+02 3.768473946023789267e-01
-1.378305545449256897e+01 9.403482225537300110e+01 3.507090889383164267e-01
-1.340707889199256897e+01 8.567422655224800110e+01 3.107463203836289267e-01
-1.436179080605506897e+01 8.636172655224800110e+01 3.306132637430039267e-01
-8.904881626367568970e+00 9.101907518506050110e+01 6.568156563211289267e-01
-9.513524204492568970e+00 8.842361620068550110e+01 6.438304268289414267e-01
-1.047568240761756897e+01 8.933487108349800110e+01 6.694346748758164267e-01
-1.235934939980506897e+01 9.037552049756050110e+01 7.132273994851914267e-01
-1.375668826699256897e+01 9.390408495068550110e+01 7.691966377664414267e-01
-1.461545291543006897e+01 9.347793748974800110e+01 7.814799629617539267e-01
-1.432309451699256897e+01 8.617032030224800110e+01 7.158671699930039267e-01
-8.908299595117568970e+00 9.112747362256050110e+01 1.061738141672691427e+00
-9.553685337305068970e+00 8.887051561474800110e+01 1.044556745188316427e+00
-1.042026248574256897e+01 8.891214159131050110e+01 1.061692365305503927e+00
-1.143515506386756897e+01 9.009134081006050110e+01 1.096543439524253927e+00
-1.249570193886756897e+01 9.143557909131050110e+01 1.134431012766441427e+00
-1.290964236855506897e+01 8.813064745068550110e+01 1.099106916086753927e+00
-1.381296268105506897e+01 8.836941698193550110e+01 1.119523175852378927e+00
-1.460141482949256897e+01 8.788980272412300110e+01 1.128327497141441427e+00
-9.349217563867568970e+00 8.698428514599800110e+01 1.401307233469566427e+00
-5.707616001367568970e+00 4.796585252881050110e+01 6.414653145242539267e-01
-1.177548709511756897e+01 9.286770799756050110e+01 1.552918561594566427e+00
-1.205307498574256897e+01 8.821450975537300110e+01 1.476349958078941427e+00
-1.346762576699256897e+01 9.201785448193550110e+01 1.571320661203941427e+00
-1.381711307168006897e+01 8.844070604443550110e+01 1.515137799875816427e+00
-1.463742557168006897e+01 8.814981248974800110e+01 1.528306134836753927e+00
-8.636326938867568970e+00 8.840225389599800110e+01 1.805665143625816427e+00
-5.261326938867568970e+00 4.803201463818550110e+01 8.407908760476914267e-01
-5.704075962305068970e+00 4.796634081006050110e+01 8.483439766336289267e-01
-1.126694217324256897e+01 8.885659959912300110e+01 1.869218000071128927e+00
-1.196127811074256897e+01 8.758621385693550110e+01 1.855134137766441427e+00
-1.277451053261756897e+01 8.729568651318550110e+01 1.865204938547691427e+00
-1.378915897011756897e+01 8.830655077099800110e+01 1.908280500071128927e+00
-1.489767947793006897e+01 8.976260545849800110e+01 1.963135846750816427e+00
-9.680882602930068970e+00 9.950833299756050110e+01 2.518204816477378927e+00
-5.257908970117568970e+00 4.803250291943550110e+01 1.047700055735191427e+00
-5.700535923242568970e+00 4.796682909131050110e+01 1.054108747141441427e+00
-1.141098514199256897e+01 9.006485155224800110e+01 2.299470075266441427e+00
-1.338632693886756897e+01 9.155777147412300110e+01 2.380723127024253927e+00
-1.399826541543006897e+01 8.969693163037300110e+01 2.345887311594566427e+00
-1.488742557168006897e+01 8.974478319287300110e+01 2.365784772532066427e+00
-9.643407016992568970e+00 9.919265916943550110e+01 2.952195294993003927e+00
-1.058652225136756897e+01 9.060025194287300110e+01 2.701081403391441427e+00
-1.127121463418006897e+01 8.900076463818550110e+01 2.665742047922691427e+00
-1.314474979043006897e+01 8.994204881787300110e+01 2.735520490305503927e+00
-1.382870975136756897e+01 8.865115526318550110e+01 2.709824689524253927e+00
-1.476071658730506897e+01 8.902224901318550110e+01 2.743622907297691427e+00
-2.321995884180068970e+00 1.376944139599800110e+01 -8.058918632101210733e-01
-2.479344516992568970e+00 1.405362108349800110e+01 -8.200672782491835733e-01
-2.650609165430068970e+00 1.437906053662300110e+01 -8.366688407491835733e-01
-2.847630649805068970e+00 1.479544237256050110e+01 -8.580616630148085733e-01
-3.069920688867568970e+00 1.529190233349800110e+01 -8.836659110616835733e-01
-3.290867954492568970e+00 1.573245409131050110e+01 -9.062184012960585733e-01
-3.541356235742568970e+00 1.625711229443550110e+01 -9.331654227804335733e-01
-3.797703891992568970e+00 1.676016405224800110e+01 -9.592121757101210733e-01
-2.652806431055068970e+00 1.575515916943550110e+01 -8.543385184835585733e-01
-2.889500766992568970e+00 1.637259081006050110e+01 -8.834675468038710733e-01
-3.087132602930068970e+00 1.671096971631050110e+01 -8.985432303976210733e-01
-3.336522251367568970e+00 1.727029588818550110e+01 -9.246357596944960733e-01
-3.618504673242568970e+00 1.792996385693550110e+01 -9.555195487569960733e-01
-3.981785923242568970e+00 1.889578416943550110e+01 -1.001128069264808573e+00
-4.113499790430068970e+00 1.875796678662300110e+01 -9.935139335226210733e-01
-4.167210727930068970e+00 1.830642870068550110e+01 -9.703663505148085733e-01
-3.074925571680068970e+00 1.828994920849800110e+01 -9.085224784444960733e-01
-3.396214634180068970e+00 1.923782518506050110e+01 -9.490193046163710733e-01
-3.762669712305068970e+00 2.031961229443550110e+01 -9.952229178976210733e-01
-3.945042759180068970e+00 2.035122850537300110e+01 -9.950245536398085733e-01
-4.005101352930068970e+00 1.979226854443550110e+01 -9.689015067648085733e-01
-4.065159946680068970e+00 1.928311327099800110e+01 -9.450520194601210733e-01
-4.122044712305068970e+00 1.880117967724800110e+01 -9.224690116476210733e-01
-4.175633579492568970e+00 1.834720018506050110e+01 -9.011982596944960733e-01
-3.718846470117568970e+00 2.215591600537300110e+01 -9.922169364523085733e-01
-3.830784946680068970e+00 2.169876268506050110e+01 -9.717701591085585733e-01
-3.889256626367568970e+00 2.100271776318550110e+01 -9.424732841085585733e-01
-3.955662876367568970e+00 2.041226366162300110e+01 -9.174488700460585733e-01
-4.013890415430068970e+00 1.984109666943550110e+01 -8.933094657491835733e-01
-4.073826938867568970e+00 1.932913377881050110e+01 -8.715809501241835733e-01
-4.184666782617568970e+00 1.908035448193550110e+01 -8.602131522726210733e-01
-4.357274204492568970e+00 1.911087206006050110e+01 -8.601521171163710733e-01
-3.778294712305068970e+00 2.252127245068550110e+01 -9.170674003194960733e-01
-3.841160923242568970e+00 2.176577928662300110e+01 -8.886097587179335733e-01
-3.899388462305068970e+00 2.106497362256050110e+01 -8.622120536398085733e-01
-4.042576938867568970e+00 2.085965135693550110e+01 -8.531025565694960733e-01
-6.090428501367568970e+00 2.982766893506050110e+01 -1.160551897389808573e+00
-6.228490024805068970e+00 2.919680956006050110e+01 -1.135863176686683573e+00
-6.204930454492568970e+00 2.790884569287300110e+01 -1.088774553639808573e+00
-6.276219516992568970e+00 2.712930467724800110e+01 -1.059340349538246073e+00
-5.230809360742568970e+00 3.124344041943550110e+01 -1.092238298756996073e+00
-5.617406040430068970e+00 3.181216600537300110e+01 -1.105330339772621073e+00
-6.327611118555068970e+00 3.404007127881050110e+01 -1.168806902272621073e+00
-6.728245884180068970e+00 3.445718553662300110e+01 -1.177534929616371073e+00
-7.245457798242568970e+00 3.539199998974800110e+01 -1.201582781178871073e+00
-7.810277134180068970e+00 3.644986131787300110e+01 -1.229048601491371073e+00
-6.518040806055068970e+00 2.928653123974800110e+01 -1.013289324147621073e+00
-6.075291782617568970e+00 2.629898241162300110e+01 -9.227589286398085733e-01
-5.832860141992568970e+00 3.487051561474800110e+01 -1.054854265553871073e+00
-6.249364048242568970e+00 3.539822557568550110e+01 -1.064223162038246073e+00
-6.717259556055068970e+00 3.613626268506050110e+01 -1.078764788014808573e+00
-7.256444126367568970e+00 3.714480760693550110e+01 -1.099913469655433573e+00
-7.660374790430068970e+00 3.740078905224800110e+01 -1.101881853444496073e+00
-8.195897251367568970e+00 3.822879198193550110e+01 -1.118071428639808573e+00
-8.643162876367568970e+00 3.858426073193550110e+01 -1.122252336842933573e+00
-6.074803501367568970e+00 2.630533006787300110e+01 -8.141316093038710733e-01
-6.016575962305068970e+00 3.598941209912300110e+01 -9.318379081319960733e-01
-6.513157993555068970e+00 3.690591600537300110e+01 -9.463947928976210733e-01
-7.040745884180068970e+00 3.787979295849800110e+01 -9.610127128194960733e-01
-7.546971470117568970e+00 3.863089159131050110e+01 -9.715717948507460733e-01
-8.025975376367568970e+00 3.917422655224800110e+01 -9.776753104757460733e-01
-8.521824985742568970e+00 3.973684862256050110e+01 -9.840077079366835733e-01
-9.037449985742568970e+00 4.032144334912300110e+01 -9.914997733663710733e-01
-6.074315220117568970e+00 2.631155565381050110e+01 -7.060383475851210733e-01
-6.817601352930068970e+00 4.081765916943550110e+01 -8.581379569601210733e-01
-7.289891391992568970e+00 4.131717088818550110e+01 -8.606403983663710733e-01
-7.764744907617568970e+00 4.176736620068550110e+01 -8.621815360616835733e-01
-8.248509556055068970e+00 4.220022752881050110e+01 -8.632649100851210733e-01
-8.729100376367568970e+00 4.257412889599800110e+01 -8.632954276632460733e-01
-9.228123813867568970e+00 4.298855760693550110e+01 -8.638294852804335733e-01
-9.728367954492568970e+00 4.335757616162300110e+01 -8.634785331319960733e-01
-1.025607791543006897e+01 4.380740526318550110e+01 -8.642567313741835733e-01
-7.587865024805068970e+00 4.546597459912300110e+01 -7.382954276632460733e-01
-8.093358188867568970e+00 4.588443163037300110e+01 -7.364643729757460733e-01
-8.611058384180068970e+00 4.631277635693550110e+01 -7.345722831319960733e-01
-9.172703891992568970e+00 4.690225389599800110e+01 -7.343128837179335733e-01
-9.831517368555068970e+00 4.789908006787300110e+01 -7.383412040304335733e-01
-1.042831912636756897e+01 4.850833299756050110e+01 -7.378224052023085733e-01
-1.101511111855506897e+01 4.900271776318550110e+01 -7.358082450460585733e-01
-5.878270298242568970e+00 2.550869920849800110e+01 -4.805287040304335733e-01
-8.250462681055068970e+00 4.947134569287300110e+01 -5.696247733663710733e-01
-8.775609165430068970e+00 4.976883104443550110e+01 -5.639485038351210733e-01
-1.484604373574256897e+01 7.970462206006050110e+01 -7.557209647726210733e-01
-1.553928104043006897e+01 7.920706346631050110e+01 -7.395771659444960733e-01
-1.612485232949256897e+01 7.823806932568550110e+01 -7.205952323507460733e-01
-1.693246951699256897e+01 7.836624315381050110e+01 -7.086476005148085733e-01
-1.148947635293006897e+01 5.109658983349800110e+01 -5.325306571554335733e-01
-5.867161899805068970e+00 2.547024706006050110e+01 -3.753193534444960733e-01
-8.246190220117568970e+00 4.946890428662300110e+01 -3.553913749288710733e-01
-8.771214634180068970e+00 4.976638963818550110e+01 -3.478840507101210733e-01
-1.491721072793006897e+01 8.012039354443550110e+01 -4.004963553976210733e-01
-1.549155154824256897e+01 7.899746873974800110e+01 -3.847340262960585733e-01
-1.609726443886756897e+01 7.813614061474800110e+01 -3.697804130148085733e-01
-1.718539920449256897e+01 7.955679491162300110e+01 -3.584431327413710733e-01
-1.148483768105506897e+01 5.109463670849800110e+01 -3.080586112569960733e-01
-7.208226352930068970e+00 3.109280565381050110e+01 -2.772968925069960733e-01
-8.241917759180068970e+00 4.946646288037300110e+01 -1.400440848898085733e-01
-8.766942173242568970e+00 4.976394823193550110e+01 -1.307209647726210733e-01
-1.594015994668006897e+01 8.563504198193550110e+01 -2.787672649137107328e-02
-1.545529666543006897e+01 7.884634569287300110e+01 -3.172194133512107328e-02
-1.617270389199256897e+01 7.853103807568550110e+01 -1.846205363980857328e-02
-1.687411990761756897e+01 7.815762498974800110e+01 -5.461565358558573280e-03
-1.148019900918006897e+01 5.109292772412300110e+01 -8.241163860074607328e-02
-1.203830447793006897e+01 5.133145311474800110e+01 -7.244764934293357328e-02
-1.436472049355506897e+01 8.636245897412300110e+01 3.306742988992539267e-01
-1.520212283730506897e+01 8.628897264599800110e+01 3.463603340555039267e-01
-1.599301639199256897e+01 8.595584276318550110e+01 3.601695381570664267e-01
-1.519614139199256897e+01 7.756314256787300110e+01 3.131877266336289267e-01
-1.605380740761756897e+01 7.798880174756050110e+01 3.311473213601914267e-01
-1.739304080605506897e+01 8.057107713818550110e+01 3.664561592508164267e-01
-1.807651248574256897e+01 8.001699998974800110e+01 3.773814522195664267e-01
-1.851767459511756897e+01 7.849441698193550110e+01 3.800212227273789267e-01
-1.432651248574256897e+01 8.617434862256050110e+01 7.159892403055039267e-01
-1.508078494668006897e+01 8.563980272412300110e+01 7.245646797586289267e-01
-1.514206424355506897e+01 8.143033006787300110e+01 6.909190498758164267e-01
-1.524704471230506897e+01 7.785428026318550110e+01 6.634074531961289267e-01
-1.611398807168006897e+01 7.830996873974800110e+01 6.844950996805039267e-01
-1.709055057168006897e+01 7.921194627881050110e+01 7.114573799539414267e-01
-1.796359744668006897e+01 7.955130174756050110e+01 7.317057930398789267e-01
-1.958261600136756897e+01 8.298587206006050110e+01 7.944957100320664267e-01
-1.428171268105506897e+01 8.594534471631050110e+01 1.096772321360191427e+00
-1.508298221230506897e+01 8.569143846631050110e+01 1.110261090891441427e+00
-1.496396365761756897e+01 8.051040819287300110e+01 1.041459211008628927e+00
-1.517575564980506897e+01 7.752408006787300110e+01 1.007660993235191427e+00
-1.791904178261756897e+01 8.705594041943550110e+01 1.186951764719566427e+00
-1.728769412636756897e+01 8.014883592724800110e+01 1.085374005930503927e+00
-1.865060916543006897e+01 8.259378221631050110e+01 1.145127423899253927e+00
-1.904391971230506897e+01 8.075674608349800110e+01 1.129822858469566427e+00
-1.463754764199256897e+01 8.813296678662300110e+01 1.528016217844566427e+00
-8.840184360742568970e+00 5.026846483349800110e+01 7.448741280008164267e-01
-1.490219607949256897e+01 8.021426561474800110e+01 1.394761212961753927e+00
-1.546713748574256897e+01 7.903762987256050110e+01 1.386735089914878927e+00
-1.631992068886756897e+01 7.936709764599800110e+01 1.411011823313316427e+00
-1.723080936074256897e+01 7.991763475537300110e+01 1.440384992258628927e+00
-1.839279666543006897e+01 8.149344041943550110e+01 1.492951520578941427e+00
-1.968259158730506897e+01 8.346426561474800110e+01 1.557145246164878927e+00
-1.479025760293006897e+01 8.909707811474800110e+01 1.946198590891441427e+00
-8.836522251367568970e+00 5.026980760693550110e+01 9.643107735086289267e-01
-1.481552615761756897e+01 7.978396776318550110e+01 1.743683942453941427e+00
-1.540549197793006897e+01 7.875711229443550110e+01 1.734681256907066427e+00
-1.589072147011756897e+01 7.732473924756050110e+01 1.714463361399253927e+00
-1.678464236855506897e+01 7.789590623974800110e+01 1.747223981516441427e+00
-1.897531619668006897e+01 8.407986620068550110e+01 1.931809552805503927e+00
-1.963998904824256897e+01 8.331497362256050110e+01 1.930222638743003927e+00
-1.488974490761756897e+01 8.974087694287300110e+01 2.365738996164878927e+00
-1.521896854043006897e+01 8.658304002881050110e+01 2.290391095774253927e+00
-1.480392947793006897e+01 7.975625780224800110e+01 2.098984845774253927e+00
-1.538412967324256897e+01 7.868094041943550110e+01 2.084412702219566427e+00
-1.617416873574256897e+01 7.872610643506050110e+01 2.104249128000816427e+00
-1.671262088418006897e+01 7.759427049756050110e+01 2.087205060618003927e+00
-1.902634158730506897e+01 8.433523729443550110e+01 2.321152814524253927e+00
-1.970895877480506897e+01 8.363443163037300110e+01 2.318833478586753927e+00
-1.476413455605506897e+01 8.902542284131050110e+01 2.743806012766441427e+00
-1.492355838418006897e+01 8.494204881787300110e+01 2.619767316477378927e+00
-1.493979373574256897e+01 8.052102831006050110e+01 2.483933576243003927e+00
-1.566049686074256897e+01 8.012112596631050110e+01 2.489289411203941427e+00
-1.626523318886756897e+01 7.919754198193550110e+01 2.475663312571128927e+00
-1.700095096230506897e+01 7.895144823193550110e+01 2.486130841868003927e+00
-1.898495975136756897e+01 8.418435838818550110e+01 2.696030744211753927e+00
-1.991122928261756897e+01 8.451358202099800110e+01 2.730942853586753927e+00
-3.799657016992568970e+00 1.676626756787300110e+01 -9.595478690694960733e-01
-4.137547641992568970e+00 1.755008104443550110e+01 -1.000166765553871073e+00
-4.262181431055068970e+00 1.744949510693550110e+01 -9.942005790304335733e-01
-4.313084751367568970e+00 1.708096483349800110e+01 -9.740437186788710733e-01
-4.358128696680068970e+00 1.671829393506050110e+01 -9.542378104757460733e-01
-4.400975376367568970e+00 1.637246873974800110e+01 -9.353474296163710733e-01
-4.442113071680068970e+00 1.604104784131050110e+01 -9.172505057882460733e-01
-4.481175571680068970e+00 1.572537401318550110e+01 -9.003285087179335733e-01
-4.167088657617568970e+00 1.830349901318550110e+01 -9.702290214132460733e-01
-4.217869907617568970e+00 1.787552049756050110e+01 -9.486836112569960733e-01
-4.269017368555068970e+00 1.748086717724800110e+01 -9.284504569601210733e-01
-4.321141391992568970e+00 1.711514452099800110e+01 -9.100178397726210733e-01
-4.366063266992568970e+00 1.675088670849800110e+01 -8.916767753194960733e-01
-4.431859165430068970e+00 1.648159959912300110e+01 -8.779591239523085733e-01
-4.577977329492568970e+00 1.649197557568550110e+01 -8.780049003194960733e-01
-6.187108188867568970e+00 2.114505174756050110e+01 -1.100310198171058573e+00
-4.175511509180068970e+00 1.834427049756050110e+01 -9.010609305929335733e-01
-4.226170688867568970e+00 1.791409471631050110e+01 -8.812855399679335733e-01
-4.305394321680068970e+00 1.762503221631050110e+01 -8.676747001241835733e-01
-4.464574009180068970e+00 1.764785936474800110e+01 -8.676441825460585733e-01
-6.195775181055068970e+00 2.323672655224800110e+01 -1.108778826100746073e+00
-5.988621860742568970e+00 2.179751756787300110e+01 -1.045088640553871073e+00
-6.176488071680068970e+00 2.175479295849800110e+01 -1.041899553639808573e+00
-6.291722446680068970e+00 2.148294237256050110e+01 -1.028838030202308573e+00
-4.358006626367568970e+00 1.911136034131050110e+01 -8.601673759054335733e-01
-6.187108188867568970e+00 2.575772264599800110e+01 -1.116286150319496073e+00
-6.231907993555068970e+00 2.501773241162300110e+01 -1.085753313405433573e+00
-6.262547641992568970e+00 2.427578905224800110e+01 -1.055250994069496073e+00
-6.296605259180068970e+00 2.360074022412300110e+01 -1.027464739186683573e+00
-5.980809360742568970e+00 2.177688768506050110e+01 -9.555958427023085733e-01
-6.168553501367568970e+00 2.173416307568550110e+01 -9.523762382101210733e-01
-6.355687290430068970e+00 2.169156053662300110e+01 -9.496296561788710733e-01
-6.275731235742568970e+00 2.712393358349800110e+01 -1.059157244069496073e+00
-6.259373813867568970e+00 2.605508592724800110e+01 -1.020445696217933573e+00
-6.340062290430068970e+00 2.543997362256050110e+01 -9.973438895773085733e-01
-6.372288852930068970e+00 2.468728807568550110e+01 -9.696949637960585733e-01
-6.400487095117568970e+00 2.397525194287300110e+01 -9.435566581319960733e-01
-6.430272251367568970e+00 2.331729295849800110e+01 -9.193562186788710733e-01
-6.107884556055068970e+00 2.154019334912300110e+01 -8.577107108663710733e-01
-6.347508579492568970e+00 2.167093065381050110e+01 -8.602741874288710733e-01
-6.075902134180068970e+00 2.629788377881050110e+01 -9.227284110616835733e-01
-6.265599399805068970e+00 2.608816698193550110e+01 -9.134815848898085733e-01
-6.455052524805068970e+00 2.588882616162300110e+01 -9.051655448507460733e-01
-6.465306431055068970e+00 2.503701952099800110e+01 -8.778828300069960733e-01
-6.509740024805068970e+00 2.436953905224800110e+01 -8.561085380148085733e-01
-5.965306431055068970e+00 2.173562791943550110e+01 -7.777241386007460733e-01
-6.116551548242568970e+00 2.157449510693550110e+01 -7.710102714132460733e-01
-6.300511509180068970e+00 2.152725389599800110e+01 -7.680653251241835733e-01
