2.520220743492245674e+00 3.318933543562889099e+01 4.919526852667388539e-01
2.459795938804745674e+00 3.575500926375389099e+01 5.569551266729888539e-01
1.904131876304745674e+00 3.292395457625389099e+01 4.893281735479888539e-01
6.306719766929745674e+00 9.769226512312889099e+01 2.091256884485488854e+00
1.458209024742245674e+00 3.517908152937889099e+01 5.490663327276763539e-01
1.106036173179745674e+00 3.446350535750389099e+01 5.341279782354888539e-01
7.211871134117245674e+00 6.652600535750389099e+01 1.592111376672988854e+00
2.984576212242245674e+00 3.466040477156639099e+01 6.695955075323638539e-01
2.717852579429745674e+00 3.510254344344139099e+01 6.844117917120513539e-01
2.506304727867245674e+00 3.624316844344139099e+01 7.196901120245513539e-01
1.909502970054745674e+00 3.297510203719139099e+01 6.260774411261138539e-01
1.475420938804745674e+00 3.543286570906639099e+01 7.019441403448638539e-01
1.111041055992245674e+00 3.453381785750389099e+01 6.774385251104888539e-01
3.491045938804745674e+00 3.622656688094139099e+01 8.641450680792388539e-01
2.990801798179745674e+00 3.470435008406639099e+01 8.147371090948638539e-01
2.517168985679745674e+00 3.313623484969139099e+01 7.628724850714263539e-01
2.245928751304745674e+00 3.341797313094139099e+01 7.741182126104888539e-01
1.914874063804745674e+00 3.302478465437889099e+01 7.625367917120513539e-01
1.761309610679745674e+00 3.496216258406639099e+01 8.299501217901763539e-01
1.437212930992245674e+00 3.480102977156639099e+01 8.270662106573638539e-01
1.095538126304745674e+00 3.421399363875389099e+01 8.088624753058013539e-01
3.504595743492245674e+00 3.632617625594139099e+01 1.018991259485488854e+00
2.996050821617245674e+00 3.473999461531639099e+01 9.591768063604888539e-01
2.548296915367245674e+00 3.342847117781639099e+01 9.105470456183013539e-01
2.218951212242245674e+00 3.311389598250389099e+01 9.000795163214263539e-01
1.900835977867245674e+00 3.284082469344139099e+01 8.911683835089263539e-01
1.811602579429745674e+00 3.563684520125389099e+01 1.000482348352676354e+00
1.437823282554745674e+00 3.479077586531639099e+01 9.695680417120513539e-01
1.099200235679745674e+00 3.426038035750389099e+01 9.515016354620513539e-01
4.133890755474567413e-02 1.431494578719139099e+01 -7.507383547723236461e-01
-6.193257682025432587e-02 1.438562449812889099e+01 -7.528440676629486461e-01
-1.667909752577543259e-01 1.445068797469139099e+01 -7.549497805535736461e-01
-2.732362877577543259e-01 1.451685008406639099e+01 -7.570707522332611461e-01
-3.805360924452543259e-01 1.458350047469139099e+01 -7.592222414910736461e-01
-4.891786705702543259e-01 1.465100535750389099e+01 -7.614042483270111461e-01
-5.995302330702543259e-01 1.471948680281639099e+01 -7.636015139520111461e-01
-7.117128502577543259e-01 1.483643016219139099e+01 -7.684080325066986461e-01
1.187314856797456741e-01 1.579919871687889099e+01 -7.671415530145111461e-01
6.894934922456741333e-04 1.587195262312889099e+01 -7.691557131707611461e-01
-1.183290611952543259e-01 1.595593699812889099e+01 -7.713377200066986461e-01
-2.396669518202543259e-01 1.603088817000389099e+01 -7.734129153191986461e-01
-3.619814049452543259e-01 1.610632762312889099e+01 -7.755033694207611461e-01
-4.857607018202543259e-01 1.618274363875389099e+01 -7.776090823113861461e-01
-6.113710533827543259e-01 1.624939402937889099e+01 -7.795774661004486461e-01
-7.405214440077543259e-01 1.646423777937889099e+01 -7.876951418816986461e-01
1.900205481797456741e-01 1.716565379500389099e+01 -7.652036868035736461e-01
5.928324349224567413e-02 1.725732859969139099e+01 -7.675077639520111461e-01
-7.340718619525432587e-02 1.735010203719139099e+01 -7.698270998895111461e-01
-2.081728111952543259e-01 1.744458445906639099e+01 -7.721922121941986461e-01
-3.442812096327543259e-01 1.753992137312889099e+01 -7.745878420770111461e-01
-4.823427330702543259e-01 1.763660106062889099e+01 -7.769987307488861461e-01
-6.227235924452543259e-01 1.773486766219139099e+01 -7.794706545770111461e-01
-7.671327721327543259e-01 1.797827586531639099e+01 -7.875578127801361461e-01
2.834043372422456741e-01 1.895361766219139099e+01 -7.657530032098236461e-01
1.358213294297456741e-01 1.907165965437889099e+01 -7.680113039910736461e-01
-1.432515494525432587e-02 1.918054637312889099e+01 -7.703001223504486461e-01
-1.670351158827543259e-01 1.929138621687889099e+01 -7.726347170770111461e-01
-3.214540611952543259e-01 1.940344676375389099e+01 -7.749998293816986461e-01
-4.779482018202543259e-01 1.951697215437889099e+01 -7.773802004754486461e-01
-6.372499596327543259e-01 1.963257274031639099e+01 -7.798216067254486461e-01
-8.026552330702543259e-01 1.999341258406639099e+01 -7.910368166863861461e-01
4.013242591172456741e-01 2.121167430281639099e+01 -7.637541018426361461e-01
2.326230872422456741e-01 2.136279734969139099e+01 -7.666380129754486461e-01
6.074808724224567413e-02 2.150635203719139099e+01 -7.692625246941986461e-01
-1.144228111952543259e-01 2.165259227156639099e+01 -7.719328127801361461e-01
-2.919130455702543259e-01 2.180066356062889099e+01 -7.746488772332611461e-01
-4.722108971327543259e-01 2.195117625594139099e+01 -7.773954592645111461e-01
-6.564149986952543259e-01 2.213403758406639099e+01 -7.810880862176361461e-01
-8.500185143202543259e-01 2.267725047469139099e+01 -7.954313479363861461e-01
5.575742591172456741e-01 2.420337352156639099e+01 -7.602903567254486461e-01
3.640928138047456741e-01 2.447253856062889099e+01 -7.647306643426361461e-01
1.629209388047456741e-01 2.467139109969139099e+01 -7.678129397332611461e-01
-4.264546744525432587e-02 2.487366160750389099e+01 -7.709562502801361461e-01
-2.515077721327543259e-01 2.507922801375389099e+01 -7.741453371941986461e-01
-4.641542565077543259e-01 2.544482859969139099e+01 -7.813474856316986461e-01
-6.848573815077543259e-01 2.584875926375389099e+01 -7.894193850457611461e-01
-9.132509361952543259e-01 2.626965770125389099e+01 -7.984220705926361461e-01
7.679014075547456741e-01 2.822742137312889099e+01 -7.506162844598236461e-01
5.288877356797456741e-01 2.837219676375389099e+01 -7.513334475457611461e-01
2.879209388047456741e-01 2.853809031844139099e+01 -7.524778567254486461e-01
4.378031380474567413e-02 2.875183543562889099e+01 -7.545835696160736461e-01
-2.025575768202543259e-01 2.904492625594139099e+01 -7.582914553582611461e-01
-4.547548424452543259e-01 2.934729442000389099e+01 -7.621519289910736461e-01
-7.140321861952543259e-01 2.968555125594139099e+01 -7.666837893426361461e-01
-9.788026940077543259e-01 3.000915965437889099e+01 -7.708494387566986461e-01
1.040118204429745674e+00 3.343530711531639099e+01 -7.241117678582611461e-01
7.554502356797456741e-01 3.372913035750389099e+01 -7.261564455926361461e-01
4.688291419297456741e-01 3.413965281844139099e+01 -7.293150149285736461e-01
1.717100013047456741e-01 3.448425731062889099e+01 -7.320463381707611461e-01
-1.313905846327543259e-01 3.481555613875389099e+01 -7.345182619988861461e-01
-4.405946861952543259e-01 3.529199656844139099e+01 -7.392484866082611461e-01
-7.596864830702543259e-01 3.567749461531639099e+01 -7.432157717645111461e-01
-1.082318319007754326e+00 3.589831981062889099e+01 -7.437345705926361461e-01
4.172320352867245674e+00 9.351269969344139099e+01 -1.303991528600448646e+00
3.201861368492245674e+00 9.175500926375389099e+01 -1.274816723912948646e+00
2.186358438804745674e+00 8.749072703719139099e+01 -1.216528149694198646e+00
2.773008216172456741e-01 3.918872508406639099e+01 -6.455747805535736461e-01
-7.145406119525432587e-02 3.962439402937889099e+01 -6.473142825066986461e-01
-4.285097252577543259e-01 4.012573680281639099e+01 -6.497404299676361461e-01
-1.174481404945254326e+00 8.934387645125389099e+01 -1.206442090123886146e+00
-1.989422811195254326e+00 8.719910106062889099e+01 -1.174291821569198646e+00
3.998492227867245674e+00 9.011035594344139099e+01 -8.667661868035736461e-01
3.201495157554745674e+00 9.165857371687889099e+01 -8.700315676629486461e-01
2.191363321617245674e+00 8.753906688094139099e+01 -8.324186526238861461e-01
2.787656653672456741e-01 3.918921336531639099e+01 -4.826872073113861461e-01
-6.998921744525432587e-02 3.962231883406639099e+01 -4.824430666863861461e-01
-4.269228111952543259e-01 4.012366160750389099e+01 -4.825956545770111461e-01
-1.966107381507754326e+00 8.607434520125389099e+01 -7.839567385613861461e-01
4.028033243492245674e+00 9.060730418562889099e+01 -4.694120608270111461e-01
3.127032266929745674e+00 8.980810984969139099e+01 -4.593565188348236461e-01
2.171587930992245674e+00 8.681702098250389099e+01 -4.438535891473236461e-01
2.802305091172456741e-01 3.918957957625389099e+01 -3.189298830926361461e-01
-6.840230338275432587e-02 3.962036570906639099e+01 -3.167173586785736461e-01
-4.254579674452543259e-01 4.012158641219139099e+01 -3.145811282098236461e-01
-1.147381795570254326e+00 8.675671824812889099e+01 -4.133207522332611461e-01
-1.966473592445254326e+00 8.629907664656639099e+01 -4.047910891473236461e-01
3.917559610679745674e+00 8.842468699812889099e+01 -7.459089383482364610e-02
3.177325235679745674e+00 9.091382274031639099e+01 -6.207868680357364610e-02
2.319781290367245674e+00 9.130164012312889099e+01 -5.339643582701114610e-02
2.816953528672456741e-01 3.919006785750389099e+01 -1.560575686395111461e-01
-6.693745963275432587e-02 3.961829051375389099e+01 -1.518919192254486461e-01
-4.238710533827543259e-01 4.011951121687889099e+01 -1.474821291863861461e-01
-1.148724569007754326e+00 8.739014109969139099e+01 -3.101179227232364610e-02
-2.060345662757754326e+00 9.183960399031639099e+01 -1.239606961607364610e-02
4.164507852867245674e+00 9.308032664656639099e+01 3.463990963995513539e-01
3.086016641929745674e+00 8.867163524031639099e+01 3.255403317511138539e-01
2.267046915367245674e+00 8.955725535750389099e+01 3.369386471808013539e-01
2.832822669297456741e-01 3.919226512312889099e+01 6.830004602676353898e-03
-6.535054557025432587e-02 3.962488231062889099e+01 1.296403780580135390e-02
-4.222841393202543259e-01 4.013110789656639099e+01 1.967790499330135390e-02
-1.140179647132754326e+00 8.672290477156639099e+01 3.500459469854888539e-01
-1.975384725257754326e+00 8.720911082625389099e+01 3.609407223761138539e-01
3.981768595054745674e+00 8.951831492781639099e+01 7.172029294073638539e-01
3.047930704429745674e+00 8.768933543562889099e+01 7.044770993292388539e-01
2.215044962242245674e+00 8.784070262312889099e+01 7.136476315558013539e-01
1.448809610679745674e+00 9.122424754500389099e+01 7.594392575323638539e-01
5.296201575547456741e-01 8.745654734969139099e+01 7.242524899542388539e-01
-3.057069908827543259e-01 8.714819774031639099e+01 7.281434811651763539e-01
-1.149701131507754326e+00 8.846155223250389099e+01 7.508027829229888539e-01
-2.088543904945254326e+00 9.387549266219139099e+01 8.215272702276763539e-01
3.929156290367245674e+00 8.844482859969139099e+01 1.096307543665176354e+00
2.212359415367245674e+00 8.765124949812889099e+01 1.096627978235488854e+00
1.386431680992245674e+00 8.827576121687889099e+01 1.113977221399551354e+00
5.276670325547456741e-01 8.701709422469139099e+01 1.101312426477676354e+00
-2.985048424452543259e-01 8.865478953719139099e+01 1.134973315149551354e+00
-1.169720662757754326e+00 9.159705027937889099e+01 1.190042284876113854e+00
-2.031537069007754326e+00 9.083203563094139099e+01 1.187494067102676354e+00
1.100665079429745674e+00 3.440552195906639099e+01 3.909547604620513539e-01
3.373492227867245674e+00 9.519678172469139099e+01 1.629892138391738854e+00
2.265582071617245674e+00 8.918274363875389099e+01 1.515069750696426354e+00
1.366656290367245674e+00 8.723828563094139099e+01 1.482675341516738854e+00
5.629453528672456741e-01 8.955310496687889099e+01 1.537652758508926354e+00
-2.960634361952543259e-01 8.815393504500389099e+01 1.516198901087051354e+00
-1.148236287757754326e+00 8.922082957625389099e+01 1.545755175501113854e+00
-2.067914022132754326e+00 9.313318309187889099e+01 1.634820727258926354e+00
1.104937540367245674e+00 3.446301707625389099e+01 5.341127194464263539e-01
3.577349649742245674e+00 9.990857371687889099e+01 2.167077807337051354e+00
2.266192423179745674e+00 8.909216746687889099e+01 1.904901293665176354e+00
1.444048868492245674e+00 9.052124461531639099e+01 1.948175219446426354e+00
5.364560950547456741e-01 8.716028270125389099e+01 1.871057299524551354e+00
-2.936220299452543259e-01 8.774158152937889099e+01 1.892968920618301354e+00
-1.144696248695254326e+00 8.924060496687889099e+01 1.938257006555801354e+00
-2.122357381507754326e+00 9.648840770125389099e+01 2.132318285852676354e+00
1.090655313804745674e+00 3.416565379500389099e+01 6.666047848761138539e-01
7.931699622422456741e-01 3.432312449812889099e+01 6.738679684698638539e-01
2.270220743492245674e+00 8.910644969344139099e+01 2.299081591516738854e+00
1.408526407554745674e+00 8.878625926375389099e+01 2.296930102258926354e+00
5.421933997422456741e-01 8.733130320906639099e+01 2.260873583704238854e+00
-2.913026940077543259e-01 8.727808055281639099e+01 2.266458300501113854e+00
-1.141278279945254326e+00 8.926050242781639099e+01 2.333032397180801354e+00
-2.029828084632754326e+00 9.137329539656639099e+01 2.403848437219863854e+00
1.094317423179745674e+00 3.421179637312889099e+01 8.088014401495513539e-01
8.037900794297456741e-01 3.454272899031639099e+01 8.227021969854888539e-01
2.290728555992245674e+00 8.962549266219139099e+01 2.708566454797988854e+00
1.661944376304745674e+00 9.984753856062889099e+01 3.066385058313613854e+00
5.806455481797456741e-01 9.010132274031639099e+01 2.739541796594863854e+00
-2.814149986952543259e-01 8.965515574812889099e+01 2.731500414758926354e+00
-1.145428670570254326e+00 9.032410106062889099e+01 2.764047411829238854e+00
-2.163617147132754326e+00 9.933472117781639099e+01 3.083642748743301354e+00
1.097979532554745674e+00 3.425818309187889099e+01 9.514253415167388539e-01
3.549883829429745674e+00 9.898413524031639099e+01 3.459955004602676354e+00
5.812558997422456741e-01 8.986389598250389099e+01 3.128534106165176354e+00
-2.500429283827543259e-01 9.995068797469139099e+01 3.529824999719863854e+00
-1.144940389320254326e+00 9.076587352156639099e+01 3.178354052454238854e+00
-1.997723592445254326e+00 8.995081004500389099e+01 3.155816821008926354e+00
-7.120790611952543259e-01 1.483777293562889099e+01 -7.684690676629486461e-01
-8.276796471327543259e-01 1.499499949812889099e+01 -7.749693118035736461e-01
-9.465761315077543259e-01 1.514941844344139099e+01 -7.815916262566986461e-01
-1.069256795570254326e+00 1.530896434187889099e+01 -7.884275637566986461e-01
-1.194989217445254326e+00 1.547253856062889099e+01 -7.954313479363861461e-01
-1.324505819007754326e+00 1.564099559187889099e+01 -8.026487551629486461e-01
-1.459881795570254326e+00 1.583386668562889099e+01 -8.110105715691986461e-01
-1.600995076820254326e+00 1.605066356062889099e+01 -8.207914553582611461e-01
-7.410097252577543259e-01 1.646680125594139099e+01 -7.878019534051361461e-01
-8.755312096327543259e-01 1.671838817000389099e+01 -7.977964602410736461e-01
-1.013958944007754326e+00 1.693689402937889099e+01 -8.060209475457611461e-01
-1.156903279945254326e+00 1.714758738875389099e+01 -8.141691409051361461e-01
-1.304242147132754326e+00 1.736462840437889099e+01 -8.225767336785736461e-01
-1.455853475257754326e+00 1.758008250594139099e+01 -8.308775149285736461e-01
-1.612103475257754326e+00 1.779065379500389099e+01 -8.392851077020111461e-01
-1.796673787757754326e+00 1.827978953719139099e+01 -8.592893801629486461e-01
-7.676210533827543259e-01 1.798047313094139099e+01 -7.876341067254486461e-01
-9.176454674452543259e-01 1.824377879500389099e+01 -7.967893801629486461e-01
-1.075360311195254326e+00 1.857214793562889099e+01 -8.084318362176361461e-01
-1.241864217445254326e+00 1.893127879500389099e+01 -8.212034426629486461e-01
-1.413861287757754326e+00 1.926685008406639099e+01 -8.330137453973236461e-01
-1.593670858070254326e+00 1.961792430281639099e+01 -8.453886233270111461e-01
-1.788006795570254326e+00 2.005518016219139099e+01 -8.609983645379486461e-01
-1.994915975257754326e+00 2.054016551375389099e+01 -8.783781252801361461e-01
-8.032655846327543259e-01 1.999658641219139099e+01 -7.911283694207611461e-01
-9.769716393202543259e-01 2.039404734969139099e+01 -8.030760012566986461e-01
-1.159100545570254326e+00 2.079846629500389099e+01 -8.155882082879486461e-01
-1.351117147132754326e+00 2.122497996687889099e+01 -8.288023196160736461e-01
-1.552411092445254326e+00 2.167212352156639099e+01 -8.426420412957611461e-01
-1.780682576820254326e+00 2.238208445906639099e+01 -8.653166018426361461e-01
-2.026043904945254326e+00 2.311792430281639099e+01 -8.887388430535736461e-01
-2.266156209632754326e+00 2.363122996687889099e+01 -9.050504885613861461e-01
-8.507509361952543259e-01 2.268372020125389099e+01 -7.956144534051361461e-01
-1.056073201820254326e+00 2.325830516219139099e+01 -8.111326418816986461e-01
-1.272503865882754326e+00 2.381555613875389099e+01 -8.260252200066986461e-01
-1.498211873695254326e+00 2.431543406844139099e+01 -8.391630373895111461e-01
-1.728314412757754326e+00 2.472742137312889099e+01 -8.496305666863861461e-01
-1.993573201820254326e+00 2.553247508406639099e+01 -8.715421877801361461e-01
-2.255658162757754326e+00 2.607690867781639099e+01 -8.857023440301361461e-01
-2.535687459632754326e+00 2.670666942000389099e+01 -9.022733889520111461e-01
-9.141054283827543259e-01 2.627307567000389099e+01 -7.984983645379486461e-01
-1.152020467445254326e+00 2.673645457625389099e+01 -8.076841555535736461e-01
-1.396283162757754326e+00 2.711182078719139099e+01 -8.151762209832611461e-01
-1.649701131507754326e+00 2.750293406844139099e+01 -8.229734621941986461e-01
-1.924115194007754326e+00 2.812927684187889099e+01 -8.365385256707611461e-01
-2.213421834632754326e+00 2.878784617781639099e+01 -8.507902346551361461e-01
-2.520062459632754326e+00 2.948621043562889099e+01 -8.658964358270111461e-01
-2.841839803382754326e+00 3.020203074812889099e+01 -8.819791994988861461e-01
-9.797792565077543259e-01 3.001135692000389099e+01 -7.708952151238861461e-01
-1.250409139320254326e+00 3.031116160750389099e+01 -7.748167239129486461e-01
-1.527630819007754326e+00 3.061792430281639099e+01 -7.788297854363861461e-01
-1.830731404945254326e+00 3.131421336531639099e+01 -7.906553469598236461e-01
-2.144207967445254326e+00 3.195959910750389099e+01 -8.013517580926361461e-01
-2.459393514320254326e+00 3.243469676375389099e+01 -8.085081301629486461e-01
-2.788739217445254326e+00 3.295288524031639099e+01 -8.164427004754486461e-01
-3.132123006507754326e+00 3.352161082625389099e+01 -8.253080569207611461e-01
-1.083294881507754326e+00 3.589978465437889099e+01 -7.437498293816986461e-01
-1.409588826820254326e+00 3.609094676375389099e+01 -7.440092287957611461e-01
-1.745648397132754326e+00 3.643005809187889099e+01 -7.457639895379486461e-01
-2.084881795570254326e+00 3.666321238875389099e+01 -7.465879641473236461e-01
-2.428143514320254326e+00 3.689917430281639099e+01 -7.474119387566986461e-01
-2.794720662757754326e+00 3.740442332625389099e+01 -7.523557864129486461e-01
-3.169598592445254326e+00 3.786694774031639099e+01 -7.573911868035736461e-01
-3.545575154945254326e+00 3.824622020125389099e+01 -7.602445803582611461e-01
-1.992108358070254326e+00 8.719446238875389099e+01 -1.174200268834823646e+00
-2.977581990882754326e+00 9.274060496687889099e+01 -1.228964062780136146e+00
-1.959027303382754326e+00 4.213061961531639099e+01 -6.588041506707611461e-01
-2.359662069007754326e+00 4.245654734969139099e+01 -6.589872561395111461e-01
-2.772259725257754326e+00 4.289087352156639099e+01 -6.603147707879486461e-01
-1.968670858070254326e+00 8.607214793562889099e+01 -7.839109621941986461e-01
-2.939740194007754326e+00 9.150720652937889099e+01 -8.124143801629486461e-01
-1.957440389320254326e+00 4.213330516219139099e+01 -4.823820315301361461e-01
-2.357953084632754326e+00 4.245471629500389099e+01 -4.809477053582611461e-01
-2.770428670570254326e+00 4.288892039656639099e+01 -4.801847659051361461e-01
-8.257611287757754326e+00 9.200977000594139099e+01 -7.675840578973236461e-01
-1.969159139320254326e+00 8.629834422469139099e+01 -4.047605715691986461e-01
-2.938397420570254326e+00 9.159607371687889099e+01 -4.077207766473236461e-01
-1.955853475257754326e+00 4.213599070906639099e+01 -3.049986086785736461e-01
-2.356244100257754326e+00 4.245288524031639099e+01 -3.019773684441986461e-01
-2.768597615882754326e+00 4.288708934187889099e+01 -2.991087161004486461e-01
-8.172406209632754326e+00 9.108289012312889099e+01 -3.577787600457611461e-01
-2.063397420570254326e+00 9.184436473250389099e+01 -1.235029324888614610e-02
-2.868817342445254326e+00 8.920850047469139099e+01 -1.076337918638614610e-02
-1.954388631507754326e+00 4.213879832625389099e+01 -1.285307131707611461e-01
-2.354413045570254326e+00 4.245105418562889099e+01 -1.239835940301361461e-01
-2.766766561195254326e+00 4.288513621687889099e+01 -1.190397463738861461e-01
-6.695599569007754326e+00 9.524377879500389099e+01 3.980424776673885390e-02
-7.255902303382754326e+00 9.060950145125389099e+01 3.443315401673885390e-02
-7.950726522132754326e+00 8.859643992781639099e+01 3.641679659486385390e-02
-1.978070272132754326e+00 8.720239695906639099e+01 3.609102047979888539e-01
-2.849896444007754326e+00 8.865845164656639099e+01 3.795411862433013539e-01
-3.665570272132754326e+00 8.781555613875389099e+01 3.796327389776763539e-01
-4.486737264320254326e+00 8.736597117781639099e+01 3.845918454229888539e-01
-5.379559529945254326e+00 8.835278758406639099e+01 4.001405514776763539e-01
-6.695599569007754326e+00 9.530334910750389099e+01 4.609620846808013539e-01
-7.372479451820254326e+00 9.216284617781639099e+01 4.481141842901763539e-01
-7.974164022132754326e+00 8.890710887312889099e+01 4.314821042120513539e-01
-2.091473592445254326e+00 9.387512645125389099e+01 8.215425290167388539e-01
-2.861371053382754326e+00 8.920581492781639099e+01 7.755983151495513539e-01
-3.645062459632754326e+00 8.736536082625389099e+01 7.623079098761138539e-01
-4.475628865882754326e+00 8.720874461531639099e+01 7.688539303839263539e-01
-5.383099569007754326e+00 8.847754344344139099e+01 7.925508297979888539e-01
-7.051678670570254326e+00 1.006417280137538910e+02 9.491670407354888539e-01
-7.376629842445254326e+00 9.226636180281639099e+01 8.561342038214263539e-01
-2.034466756507754326e+00 9.083533152937889099e+01 1.187570361047988854e+00
-2.858197225257754326e+00 8.922119578719139099e+01 1.167947558313613854e+00
-3.679608358070254326e+00 8.838428172469139099e+01 1.162942675501113854e+00
-4.544110311195254326e+00 8.872681102156639099e+01 1.177346972376113854e+00
-6.983563436195254326e+00 9.969385203719139099e+01 1.378732470422988854e+00
-6.973919881507754326e+00 8.711768016219139099e+01 1.176461962610488854e+00
-7.810956014320254326e+00 8.712695750594139099e+01 1.187280444055801354e+00
-2.071087850257754326e+00 9.314429149031639099e+01 1.635080126672988854e+00
-3.042523397132754326e+00 9.608313426375389099e+01 1.706079272180801354e+00
-3.673871053382754326e+00 8.832703074812889099e+01 1.552346972376113854e+00
-4.534100545570254326e+00 8.859460887312889099e+01 1.566934374719863854e+00
-6.007611287757754326e+00 9.949219188094139099e+01 1.807779101282363854e+00
-6.069134725257754326e+00 8.618372020125389099e+01 1.533242968469863854e+00
-8.189496053382754326e+00 9.149890574812889099e+01 1.665460375696426354e+00
-2.125653279945254326e+00 9.650207957625389099e+01 2.132699755579238854e+00
-1.962689412757754326e+00 4.258264598250389099e+01 7.669618405401763539e-01
-2.383587850257754326e+00 4.324414500594139099e+01 7.882020749151763539e-01
-5.452069295570254326e+00 8.987305125594139099e+01 1.998834399133926354e+00
-6.081341756507754326e+00 8.641846141219139099e+01 1.918359545618301354e+00
-7.588788045570254326e+00 8.466931590437889099e+01 1.892404345422988854e+00
-2.032635701820254326e+00 9.137451609969139099e+01 2.403909472376113854e+00
-2.982708944007754326e+00 9.418506297469139099e+01 2.498285082727676354e+00
-1.961224569007754326e+00 4.258972606062889099e+01 9.465883053839263539e-01
-2.381878865882754326e+00 4.324414500594139099e+01 9.707582272589263539e-01
-6.072430623695254326e+00 8.633862742781639099e+01 2.298028735071426354e+00
-6.937909139320254326e+00 8.679370555281639099e+01 2.321145800501113854e+00
-7.576703084632754326e+00 8.457288035750389099e+01 2.261865404993301354e+00
-2.166790975257754326e+00 9.933520945906639099e+01 3.083688525110488854e+00
-3.043499959632754326e+00 9.655395945906639099e+01 2.997720507532363854e+00
-1.959759725257754326e+00 4.259668406844139099e+01 1.125314501672988854e+00
-2.380169881507754326e+00 4.324414500594139099e+01 1.152337817102676354e+00
-5.851727498695254326e+00 9.698682078719139099e+01 3.041925219446426354e+00
-6.108685506507754326e+00 8.693298777937889099e+01 2.698632983118301354e+00
-7.150189412757754326e+00 8.958801707625389099e+01 2.803888110071426354e+00
-8.039227498695254326e+00 8.991077098250389099e+01 2.825006274133926354e+00
-2.000409139320254326e+00 8.994116649031639099e+01 3.155465868860488854e+00
-2.974774373695254326e+00 9.417529734969139099e+01 3.329812792688613854e+00
-3.817181600257754326e+00 9.257361277937889099e+01 3.276971606165176354e+00
-4.896771444007754326e+00 9.658679637312889099e+01 3.446038988977676354e+00
-5.826581014320254326e+00 9.661841258406639099e+01 3.457956103235488854e+00
-6.204144490882754326e+00 8.840662059187889099e+01 3.141748217493301354e+00
-7.744061483070254326e+00 9.732654246687889099e+01 3.507638720422988854e+00
-7.629071248695254326e+00 8.525513133406639099e+01 3.037118700891738854e+00
-1.601483358070254326e+00 1.605188426375389099e+01 -8.208524905145111461e-01
-1.762005819007754326e+00 1.641980418562889099e+01 -8.375456057488861461e-01
-1.934124959632754326e+00 1.682446727156639099e+01 -8.562681399285736461e-01
-2.108441365882754326e+00 1.717163524031639099e+01 -8.722288332879486461e-01
-2.312298787757754326e+00 1.769580516219139099e+01 -8.965513430535736461e-01
-2.539227498695254326e+00 1.830615672469139099e+01 -9.249174319207611461e-01
-2.769818319007754326e+00 1.885229930281639099e+01 -9.501859866082611461e-01
-2.975018514320254326e+00 1.916992625594139099e+01 -9.650022707879486461e-01
-1.797406209632754326e+00 1.828271922469139099e+01 -8.594267092645111461e-01
-1.995160115882754326e+00 1.880237254500389099e+01 -8.810789309441986461e-01
-2.195477498695254326e+00 1.924560984969139099e+01 -8.990232668816986461e-01
-2.393963826820254326e+00 1.959009227156639099e+01 -9.130613528191986461e-01
-2.607342733070254326e+00 1.999792918562889099e+01 -9.298002444207611461e-01
-2.838177694007754326e+00 2.046887645125389099e+01 -9.491789065301361461e-01
-3.103680623695254326e+00 2.110144481062889099e+01 -9.758512698113861461e-01
-3.384198201820254326e+00 2.174841746687889099e+01 -1.002660962194198646e+00
-1.995770467445254326e+00 2.054346141219139099e+01 -8.785001955926361461e-01
-2.214520467445254326e+00 2.104529246687889099e+01 -8.968717776238861461e-01
-2.470623983070254326e+00 2.179675731062889099e+01 -9.247343264520111461e-01
-2.728070272132754326e+00 2.242102488875389099e+01 -9.476682864129486461e-01
-3.009564412757754326e+00 2.313635692000389099e+01 -9.740049563348236461e-01
-3.297406209632754326e+00 2.378918895125389099e+01 -9.978849612176361461e-01
-3.475140584632754326e+00 2.360437449812889099e+01 -9.898283205926361461e-01
-3.456830037757754326e+00 2.221081981062889099e+01 -9.358732424676361461e-01
-2.267132772132754326e+00 2.363440379500389099e+01 -9.051573000848236461e-01
-2.527630819007754326e+00 2.424670848250389099e+01 -9.241697512566986461e-01
-2.810833944007754326e+00 2.495081004500389099e+01 -9.466764651238861461e-01
-3.098309529945254326e+00 2.555969676375389099e+01 -9.659025393426361461e-01
-3.408734334632754326e+00 2.625330027937889099e+01 -9.879057131707611461e-01
-3.725750936195254326e+00 2.688879832625389099e+01 -1.007894726842636146e+00
-3.494305623695254326e+00 2.373901805281639099e+01 -9.014341555535736461e-01
-3.595135701820254326e+00 2.308667430281639099e+01 -8.790342532098236461e-01
-2.536786092445254326e+00 2.671143016219139099e+01 -9.024107180535736461e-01
-2.837323201820254326e+00 2.741626414656639099e+01 -9.214689455926361461e-01
-3.150433553382754326e+00 2.810266551375389099e+01 -9.399168215691986461e-01
-3.474652303382754326e+00 2.875305613875389099e+01 -9.572202883660736461e-01
-3.827191365882754326e+00 2.952295359969139099e+01 -9.778959475457611461e-01
-4.215497029945254326e+00 3.043396434187889099e+01 -1.002538891881698646e+00
-3.947186483070254326e+00 2.679260692000389099e+01 -8.962003909051361461e-01
-4.341229451820254326e+00 2.779028758406639099e+01 -9.233610354363861461e-01
-2.843182576820254326e+00 3.020715770125389099e+01 -8.821165286004486461e-01
-3.186810506507754326e+00 3.099585399031639099e+01 -8.989469729363861461e-01
-3.548260701820254326e+00 3.179578074812889099e+01 -9.165861330926361461e-01
-3.895916951820254326e+00 3.232812938094139099e+01 -9.276182375848236461e-01
-4.252728475257754326e+00 3.284949168562889099e+01 -9.383146487176361461e-01
-4.614300740882754326e+00 3.332446727156639099e+01 -9.478056155145111461e-01
-5.000775350257754326e+00 3.389014109969139099e+01 -9.594175539910736461e-01
-4.839032186195254326e+00 3.093249949812889099e+01 -8.869993411004486461e-01
-3.133587850257754326e+00 3.352551707625389099e+01 -8.253843508660736461e-01
-3.494183553382754326e+00 3.414770945906639099e+01 -8.355467043816986461e-01
-3.850384725257754326e+00 3.460498484969139099e+01 -8.423521243035736461e-01
-4.234051717445254326e+00 3.520178660750389099e+01 -8.518278323113861461e-01
-4.630780233070254326e+00 3.580884227156639099e+01 -8.614256106316986461e-01
-5.017254842445254326e+00 3.624731883406639099e+01 -8.676206789910736461e-01
-5.405316365882754326e+00 3.662305125594139099e+01 -8.725340090691986461e-01
-5.816693319007754326e+00 3.709949168562889099e+01 -8.793394289910736461e-01
-3.547039998695254326e+00 3.824927195906639099e+01 -7.602750979363861461e-01
-3.921185506507754326e+00 3.852515086531639099e+01 -7.617704592645111461e-01
-4.303021444007754326e+00 3.881189402937889099e+01 -7.625181399285736461e-01
-4.680829061195254326e+00 3.899939402937889099e+01 -7.625486575066986461e-01
-5.075604451820254326e+00 3.929150828719139099e+01 -7.641355715691986461e-01
-5.477948201820254326e+00 3.958911570906639099e+01 -7.657530032098236461e-01
-5.893475545570254326e+00 3.991992625594139099e+01 -7.686826907098236461e-01
-6.318402303382754326e+00 4.027063426375389099e+01 -7.709715090691986461e-01
-8.281659139320254326e+00 9.220532664656639099e+01 -1.175985547155136146e+00
-4.534222615882754326e+00 4.480774363875389099e+01 -6.668913088738861461e-01
-4.955121053382754326e+00 4.487183055281639099e+01 -6.640989504754486461e-01
-5.414227498695254326e+00 4.522754344344139099e+01 -6.643125735223236461e-01
-1.335343648307025433e+01 8.462671336531639099e+01 -1.047186108678573646e+00
-8.261517537757754326e+00 9.201990184187889099e+01 -7.676298342645111461e-01
-4.532879842445254326e+00 4.481201609969139099e+01 -4.774534426629486461e-01
-4.953167928382754326e+00 4.487024363875389099e+01 -4.741117678582611461e-01
-5.412152303382754326e+00 4.522595652937889099e+01 -4.724485598504486461e-01
-1.352824117057025433e+01 9.785962352156639099e+01 -7.606718264520111461e-01
-1.303458882682025433e+01 8.264014109969139099e+01 -6.608030520379486461e-01
-8.175091756507754326e+00 9.107898387312889099e+01 -3.577482424676361461e-01
-4.531414998695254326e+00 4.481628856062889099e+01 -2.869932375848236461e-01
-4.951092733070254326e+00 4.486865672469139099e+01 -2.831327639520111461e-01
-5.410077108070254326e+00 4.522436961531639099e+01 -2.795927248895111461e-01
-1.252641011588275433e+01 9.752685984969139099e+01 -3.311674319207611461e-01
-1.273673726432025433e+01 8.608008250594139099e+01 -3.031217776238861461e-01
-1.309452535025775433e+01 8.304138621687889099e+01 -2.928068362176361461e-01
-7.953778279945254326e+00 8.859839305281639099e+01 3.643205538392635390e-02
-4.529950154945254326e+00 4.482056102156639099e+01 -9.750959500669864610e-02
-4.949139608070254326e+00 4.486719188094139099e+01 -9.319135770201114610e-02
-5.408123983070254326e+00 4.522278270125389099e+01 -8.777448758482364610e-02
-1.198087788932025433e+01 9.329712352156639099e+01 8.754899874330135390e-02
-1.441495992057025433e+01 9.742065867781639099e+01 1.213624753058013539e-01
-1.312284566275775433e+01 8.324268016219139099e+01 7.615068331361385390e-02
-8.937054647132754326e+00 9.986548289656639099e+01 5.167329587042388539e-01
-8.810345662757754326e+00 8.867737254500389099e+01 4.387605465948638539e-01
-9.558392537757754326e+00 8.768091258406639099e+01 4.377992428839263539e-01
-1.032584859244525433e+01 8.697656688094139099e+01 4.411256588995513539e-01
-1.348185445182025433e+01 9.761658152937889099e+01 5.471895016729888539e-01
-1.285038472525775433e+01 8.689697703719139099e+01 4.694154538214263539e-01
-1.363737202994525433e+01 8.651331004500389099e+01 4.751222409308013539e-01
-8.225628865882754326e+00 9.178845652937889099e+01 8.591554440558013539e-01
-9.001141561195254326e+00 9.067114695906639099e+01 8.550660885870513539e-01
-9.375042928382754326e+00 8.601221141219139099e+01 8.061311520636138539e-01
-1.030302144400775433e+01 8.681543406844139099e+01 8.256471432745513539e-01
-1.229179097525775433e+01 9.579199656844139099e+01 9.501741208136138539e-01
-1.184611226432025433e+01 8.579724559187889099e+01 8.312776364386138539e-01
-1.349625874869525433e+01 9.128003367781639099e+01 9.121949948370513539e-01
-1.338651753775775433e+01 8.495386180281639099e+01 8.388612546026763539e-01
-7.813885701820254326e+00 8.712805613875389099e+01 1.187310961633926354e+00
-9.119183553382754326e+00 9.192126902937889099e+01 1.277002123743301354e+00
-9.494427694007754326e+00 8.715564402937889099e+01 1.205407885462051354e+00
-1.023588277213275433e+01 8.627685984969139099e+01 1.200082568079238854e+00
-1.117045308463275433e+01 8.705310496687889099e+01 1.223413256555801354e+00
-1.227750874869525433e+01 8.895068797469139099e+01 1.266656664758926354e+00
-1.270866109244525433e+01 8.599194774031639099e+01 1.224511889368301354e+00
-1.335917378775775433e+01 8.480456981062889099e+01 1.215219286829238854e+00
-8.191571248695254326e+00 9.148840770125389099e+01 1.665262011438613854e+00
-8.537152303382754326e+00 8.599158152937889099e+01 1.556695727258926354e+00
-5.013226522132754326e+00 4.553174266219139099e+01 6.830385006964263539e-01
-5.429730428382754326e+00 4.547009715437889099e+01 6.868989743292388539e-01
-1.104349995963275433e+01 8.608960399031639099e+01 1.589486864954238854e+00
-1.182792378775775433e+01 8.571936473250389099e+01 1.591531542688613854e+00
-1.272404195182025433e+01 8.612146434187889099e+01 1.610788134485488854e+00
-1.348331929557025433e+01 8.561279734969139099e+01 1.609674242883926354e+00
-7.591839803382754326e+00 8.467310008406639099e+01 1.892526415735488854e+00
-8.511517537757754326e+00 8.576721629500389099e+01 1.929773119837051354e+00
-5.011395467445254326e+00 4.553198680281639099e+01 8.760164059698638539e-01
-5.427899373695254326e+00 4.547034129500389099e+01 8.798158444464263539e-01
-1.106803609244525433e+01 8.631067332625389099e+01 1.976236132532363854e+00
-1.181046773307025433e+01 8.561987742781639099e+01 1.968454150110488854e+00
-1.268705464713275433e+01 8.589746531844139099e+01 1.986673144251113854e+00
-1.372379781119525433e+01 8.715576609969139099e+01 2.033609179407363854e+00
-7.580365194007754326e+00 8.458227977156639099e+01 2.262185839563613854e+00
-8.832196248695254326e+00 8.909619578719139099e+01 2.412790087610488854e+00
-5.009564412757754326e+00 4.553223094344139099e+01 1.070016650110488854e+00
-5.425946248695254326e+00 4.547058543562889099e+01 1.073770312219863854e+00
-1.123954488150775433e+01 8.768335399031639099e+01 2.403177050501113854e+00
-1.213956929557025433e+01 8.803479442000389099e+01 2.425653246790176354e+00
-1.251310445182025433e+01 8.474731883406639099e+01 2.333200243860488854e+00
-8.041913045570254326e+00 8.990845164656639099e+01 2.824945238977676354e+00
-9.103680623695254326e+00 9.192297801375389099e+01 2.908715990930801354e+00
-1.022684956900775433e+01 8.632617625594139099e+01 2.730844286829238854e+00
-1.114787007682025433e+01 8.699487742781639099e+01 2.766565112024551354e+00
-1.212858296744525433e+01 8.798291453719139099e+01 2.814050463587051354e+00
-1.288615132682025433e+01 8.729370555281639099e+01 2.803140429407363854e+00
-1.385905171744525433e+01 8.805981883406639099e+01 2.842950610071426354e+00
-7.631390584632754326e+00 8.524963817000389099e+01 3.036920336633926354e+00
-8.378338826820254326e+00 8.451099070906639099e+01 3.017114428430801354e+00
-1.020280171744525433e+01 8.615295848250389099e+01 3.107293871790176354e+00
-1.269022847525775433e+01 9.910986766219139099e+01 3.645761279016738854e+00
-1.222416402213275433e+01 8.870483836531639099e+01 3.235589770227676354e+00
-1.310380269400775433e+01 8.879053172469139099e+01 3.251687792688613854e+00
-1.369913960807025433e+01 8.707312449812889099e+01 3.195825365930801354e+00
-2.975995076820254326e+00 1.917236766219139099e+01 -9.651090823113861461e-01
-3.192059529945254326e+00 1.951233348250389099e+01 -9.806730471551361461e-01
-3.421551717445254326e+00 1.988513621687889099e+01 -9.981596194207611461e-01
-3.548138631507754326e+00 1.966870555281639099e+01 -9.877836428582611461e-01
-3.597455037757754326e+00 1.908862742781639099e+01 -9.602262698113861461e-01
-3.643475545570254326e+00 1.854700145125389099e+01 -9.344999514520111461e-01
-3.689740194007754326e+00 1.805249461531639099e+01 -9.110014162957611461e-01
-3.740033162757754326e+00 1.761938914656639099e+01 -8.907682619988861461e-01
-3.385663045570254326e+00 2.175354442000389099e+01 -1.002874585241073646e+00
-3.443036092445254326e+00 2.100024852156639099e+01 -9.704343996941986461e-01
-3.504559529945254326e+00 2.035181102156639099e+01 -9.420835696160736461e-01
-3.557538045570254326e+00 1.972241649031639099e+01 -9.149839602410736461e-01
-3.606732381507754326e+00 1.913855418562889099e+01 -8.898527346551361461e-01
-3.652630819007754326e+00 1.859363231062889099e+01 -8.663847170770111461e-01
-3.797406209632754326e+00 1.854260692000389099e+01 -8.643247805535736461e-01
-5.832440389320254326e+00 2.666199168562889099e+01 -1.209356518834823646e+00
-3.456097615882754326e+00 2.220203074812889099e+01 -9.355375491082611461e-01
-3.450848592445254326e+00 2.105115184187889099e+01 -8.913480959832611461e-01
-3.514203084632754326e+00 2.040979442000389099e+01 -8.665525637566986461e-01
-3.686200154945254326e+00 2.040430125594139099e+01 -8.658964358270111461e-01
-5.462689412757754326e+00 2.841687449812889099e+01 -1.168966504186386146e+00
-6.061932576820254326e+00 3.004321727156639099e+01 -1.229864331334823646e+00
-6.621380819007754326e+00 3.132666453719139099e+01 -1.277685376256698646e+00
-5.969525350257754326e+00 2.725928172469139099e+01 -1.123190136998886146e+00
-3.595868123695254326e+00 2.308704051375389099e+01 -8.790495119988861461e-01
-4.801678670570254326e+00 2.904260692000389099e+01 -1.076132031530136146e+00
-5.149823201820254326e+00 2.953223094344139099e+01 -1.091497632116073646e+00
-5.545819295570254326e+00 3.021033152937889099e+01 -1.113088818639511146e+00
-6.125653279945254326e+00 3.173657664656639099e+01 -1.162756177037948646e+00
-6.494427694007754326e+00 3.210437449812889099e+01 -1.173940869420761146e+00
-6.970501912757754326e+00 3.291309031844139099e+01 -1.199667187780136146e+00
-7.520306600257754326e+00 3.396680125594139099e+01 -1.234213086217636146e+00
-4.349041951820254326e+00 2.783337840437889099e+01 -9.246122561395111461e-01
-5.335492147132754326e+00 3.220715770125389099e+01 -1.048788281530136146e+00
-5.720868123695254326e+00 3.272314891219139099e+01 -1.062261792272323646e+00
-6.098797811195254326e+00 3.313232859969139099e+01 -1.072622510045761146e+00
-6.541058553382754326e+00 3.381995067000389099e+01 -1.090902539342636146e+00
-7.025067342445254326e+00 3.463257274031639099e+01 -1.112661572545761146e+00
-7.379559529945254326e+00 3.477185496687889099e+01 -1.115194531530136146e+00
-7.910199178382754326e+00 3.565881785750389099e+01 -1.138937207311386146e+00
-4.840130819007754326e+00 3.093298777937889099e+01 -8.870145998895111461e-01
-5.369915975257754326e+00 3.241858348250389099e+01 -9.204771243035736461e-01
-5.899090779945254326e+00 3.372424754500389099e+01 -9.501402102410736461e-01
-6.376385701820254326e+00 3.460303172469139099e+01 -9.694730959832611461e-01
-6.882611287757754326e+00 3.553528270125389099e+01 -9.899809084832611461e-01
-7.348797811195254326e+00 3.617871531844139099e+01 -1.003530713170761146e+00
-7.802044881507754326e+00 3.669153270125389099e+01 -1.013891430944198646e+00
-8.269940389320254326e+00 3.722070750594139099e+01 -1.025427075475448646e+00
-5.818524373695254326e+00 3.710290965437889099e+01 -8.794004641473236461e-01
-6.241742147132754326e+00 3.758569774031639099e+01 -8.866331301629486461e-01
-6.662884725257754326e+00 3.799365672469139099e+01 -8.923551760613861461e-01
-7.099774373695254326e+00 3.842639598250389099e+01 -8.984892092645111461e-01
-7.530316365882754326e+00 3.878210887312889099e+01 -9.030821047723236461e-01
-7.971478475257754326e+00 3.914648875594139099e+01 -9.077970705926361461e-01
-8.413617147132754326e+00 3.946899852156639099e+01 -9.116422854363861461e-01
-8.340374959632754326e+00 3.753259715437889099e+01 -8.726865969598236461e-01
-6.320111287757754326e+00 4.027270945906639099e+01 -7.710020266473236461e-01
-6.765057576820254326e+00 4.069189891219139099e+01 -7.745268069207611461e-01
-7.195843709632754326e+00 4.097607859969139099e+01 -7.750913821160736461e-01
-7.671673787757754326e+00 4.145227488875389099e+01 -7.792875491082611461e-01
-8.125653279945254326e+00 4.176892527937889099e+01 -7.811186037957611461e-01
-8.587811483070254326e+00 4.208606395125389099e+01 -7.829038821160736461e-01
-9.097577108070254326e+00 4.257568797469139099e+01 -7.880460940301361461e-01
-9.547528279945254326e+00 4.276147899031639099e+01 -7.878477297723236461e-01
-1.335563374869525433e+01 8.462256297469139099e+01 -1.047125073522323646e+00
-7.804608358070254326e+00 4.685742625594139099e+01 -6.631376467645111461e-01
-8.297772420570254326e+00 4.713684520125389099e+01 -6.624052248895111461e-01
-8.801068319007754326e+00 4.742200145125389099e+01 -6.616728030145111461e-01
-1.590153218619525433e+01 8.069055613875389099e+01 -9.825193606316986461e-01
-1.579227925650775433e+01 7.636743602156639099e+01 -9.344083987176361461e-01
-1.727164937369525433e+01 7.962707957625389099e+01 -9.596769534051361461e-01
-1.089774800650775433e+01 4.861121043562889099e+01 -6.586210452020111461e-01
-1.303861714713275433e+01 8.264709910750389099e+01 -6.608335696160736461e-01
-7.802411092445254326e+00 4.685620555281639099e+01 -4.623777590691986461e-01
-8.295575154945254326e+00 4.713550242781639099e+01 -4.599668703973236461e-01
-8.798748983070254326e+00 4.742065867781639099e+01 -4.575102053582611461e-01
-1.539957906119525433e+01 7.819629344344139099e+01 -6.097624026238861461e-01
-1.567570210807025433e+01 7.582947215437889099e+01 -5.911924563348236461e-01
-1.642582417838275433e+01 7.580957469344139099e+01 -5.844785891473236461e-01
-1.089689351432025433e+01 4.861743602156639099e+01 -4.473020754754486461e-01
-1.304581929557025433e+01 8.271606883406639099e+01 -2.925474368035736461e-01
-7.800213826820254326e+00 4.685486277937889099e+01 -2.605802737176361461e-01
-8.293255819007754326e+00 4.713428172469139099e+01 -2.564604006707611461e-01
-8.796429647132754326e+00 4.741931590437889099e+01 -2.522642336785736461e-01
-1.501749898307025433e+01 7.630066356062889099e+01 -2.587797366082611461e-01
-1.575150777213275433e+01 7.620666942000389099e+01 -2.514860354363861461e-01
-1.718888570182025433e+01 7.928467234969139099e+01 -2.447111330926361461e-01
-1.089616109244525433e+01 4.862353953719139099e+01 -2.348081789910736461e-01
-1.312516499869525433e+01 8.323914012312889099e+01 7.615068331361385390e-02
-7.798138631507754326e+00 4.685425242781639099e+01 -5.986616238951114610e-02
-8.292157186195254326e+00 4.713928660750389099e+01 -5.403730496763614610e-02
-8.796429647132754326e+00 4.743042430281639099e+01 -4.810163602232364610e-02
-1.494572163932025433e+01 7.595862254500389099e+01 7.929399386048885390e-02
-1.590580464713275433e+01 7.695740184187889099e+01 9.157731905580135390e-02
-1.635551167838275433e+01 7.552222117781639099e+01 9.316423311830135390e-02
-1.760697652213275433e+01 7.768579539656639099e+01 1.110780514776763539e-01
-1.364042378775775433e+01 8.651306590437889099e+01 4.751374997198638539e-01
-1.403153706900775433e+01 8.381348094344139099e+01 4.614503659308013539e-01
-1.482877827994525433e+01 8.367444285750389099e+01 4.676149167120513539e-01
-1.475797749869525433e+01 7.893286570906639099e+01 4.350374020636138539e-01
-1.481132222525775433e+01 7.530261668562889099e+01 4.113252438604888539e-01
-1.568558980338275433e+01 7.592554149031639099e+01 4.254548825323638539e-01
-1.641947652213275433e+01 7.582776317000389099e+01 4.349763669073638539e-01
-1.731229878775775433e+01 7.642566356062889099e+01 4.491670407354888539e-01
-1.339030171744525433e+01 8.495886668562889099e+01 8.389375485479888539e-01
-1.410050679557025433e+01 8.424463328719139099e+01 8.396394528448638539e-01
-1.470988179557025433e+01 8.303052195906639099e+01 8.334901608526763539e-01
-1.477445699088275433e+01 7.903870067000389099e+01 7.894838131964263539e-01
-1.481327535025775433e+01 7.532971629500389099e+01 7.483308590948638539e-01
-1.586051656119525433e+01 7.677515086531639099e+01 7.774141110479888539e-01
-1.687479878775775433e+01 7.790893992781639099e+01 8.025758542120513539e-01
-1.770365620963275433e+01 7.813562449812889099e+01 8.153016842901763539e-01
-1.336283589713275433e+01 8.480957469344139099e+01 1.215326098352676354e+00
-1.424235249869525433e+01 8.510767039656639099e+01 1.229562548547988854e+00
-1.473869038932025433e+01 8.321228465437889099e+01 1.206292895227676354e+00
-8.836590779945254326e+00 4.767517527937889099e+01 5.699403561651763539e-01
-1.496574117057025433e+01 7.611035594344139099e+01 1.097619799524551354e+00
-1.629679585807025433e+01 7.886963328719139099e+01 1.158502367883926354e+00
-1.615690327994525433e+01 7.466797313094139099e+01 1.090600756555801354e+00
-1.768937398307025433e+01 7.808935984969139099e+01 1.166406420618301354e+00
-1.348588277213275433e+01 8.561011180281639099e+01 1.609643725305801354e+00
-1.441410542838275433e+01 8.614941844344139099e+01 1.633584765344863854e+00
-1.480131245963275433e+01 8.358374461531639099e+01 1.587075976282363854e+00
-8.834759725257754326e+00 4.767590770125389099e+01 7.763459958136138539e-01
-1.522111226432025433e+01 7.740759715437889099e+01 1.467904833704238854e+00
-1.629862691275775433e+01 7.889551219344139099e+01 1.513147143274551354e+00
-1.759891988150775433e+01 8.122815379500389099e+01 1.578622607141738854e+00
-1.789579488150775433e+01 7.899951609969139099e+01 1.537668017297988854e+00
-1.372684956900775433e+01 8.715552195906639099e+01 2.033624438196426354e+00
-1.454374410025775433e+01 8.694116649031639099e+01 2.038430956751113854e+00
-1.471659566275775433e+01 8.313000926375389099e+01 1.946695116907363854e+00
-8.832806600257754326e+00 4.767664012312889099e+01 9.816530026495513539e-01
-1.501701070182025433e+01 7.640185984969139099e+01 1.784662035852676354e+00
-1.574528218619525433e+01 7.627563914656639099e+01 1.792398241907363854e+00
-1.633610249869525433e+01 7.551184520125389099e+01 1.782296923547988854e+00
-1.706828023307025433e+01 7.542895945906639099e+01 1.792962817102676354e+00
-1.409183980338275433e+01 8.428223094344139099e+01 2.342523363977676354e+00
-1.485709859244525433e+01 8.393738231062889099e+01 2.344507006555801354e+00
-1.559769917838275433e+01 8.346802195906639099e+01 2.342462328821426354e+00
-1.497782613150775433e+01 7.622253856062889099e+01 2.120599535852676354e+00
-1.565202046744525433e+01 7.584753856062889099e+01 2.120263842493301354e+00
-1.620914937369525433e+01 7.495117625594139099e+01 2.102823046594863854e+00
-1.850077535025775433e+01 8.165344676375389099e+01 2.335168627649551354e+00
-1.386369038932025433e+01 8.806946238875389099e+01 2.843332079797988854e+00
-1.445975972525775433e+01 8.648889598250389099e+01 2.799844530969863854e+00
-1.459574605338275433e+01 8.249585399031639099e+01 2.665216235071426354e+00
-1.459660054557025433e+01 7.819141063094139099e+01 2.519861010462051354e+00
