1.239956790581345558e+00 1.756018662452697754e+01 -7.377761662006321330e-01
1.122891360893845558e+00 1.779199814796447754e+01 -7.440017521381321330e-01
1.000576907768845558e+00 1.801514267921447754e+01 -7.502273380756321330e-01
8.673981968313455582e-01 1.817163681983947754e+01 -7.540267765521946330e-01
7.304353062063455582e-01 1.831067490577697754e+01 -7.571700870990696330e-01
5.910310093313455582e-01 1.845203232765197754e+01 -7.603896915912571330e-01
4.471101108938455582e-01 1.856885361671447754e+01 -7.626937687396946330e-01
3.008698765188455582e-01 1.867322373390197754e+01 -7.649368107318821330e-01
1.521084720268845558e+00 1.985364365577697754e+01 -7.434219181537571330e-01
1.367276126518845558e+00 1.996350693702697754e+01 -7.449325382709446330e-01
1.211636478081345558e+00 2.007446885108947754e+01 -7.464584171771946330e-01
1.054531985893845558e+00 2.019714951515197754e+01 -7.483199894428196330e-01
9.003571812063455582e-01 2.037488389015197754e+01 -7.518600285053196330e-01
7.431306187063455582e-01 2.055615830421447754e+01 -7.554611027240696330e-01
5.823640171438455582e-01 2.074170517921447754e+01 -7.591537296771946330e-01
4.187897983938455582e-01 2.093030381202697754e+01 -7.628921329975071330e-01
1.824917728081345558e+00 2.233142685890197754e+01 -7.331222355365696330e-01
1.660000735893845558e+00 2.256482529640197754e+01 -7.367233097553196330e-01
1.485440189018845558e+00 2.274707627296447754e+01 -7.393783390521946330e-01
1.308926517143845558e+00 2.295227646827697754e+01 -7.426132023334446330e-01
1.132168704643845558e+00 2.319067978858947754e+01 -7.466567814350071330e-01
9.512605015188455582e-01 2.343445420265197754e+01 -7.508071720600071330e-01
7.655915562063455582e-01 2.368494248390197754e+01 -7.550643742084446330e-01
5.751618687063455582e-01 2.392163681983947754e+01 -7.594283878803196330e-01
2.312588626518845558e+00 2.630884385108947754e+01 -7.322524845600071330e-01
2.100674564018845558e+00 2.648218369483947754e+01 -7.335799992084446330e-01
1.876431399956345558e+00 2.656323838233947754e+01 -7.328628361225071330e-01
1.650357181206345558e+00 2.664819931983947754e+01 -7.322219669818821330e-01
1.441494876518845558e+00 2.694775986671447754e+01 -7.361739933490696330e-01
1.235073978081345558e+00 2.736060166358947754e+01 -7.424911320209446330e-01
1.014370853081345558e+00 2.768152451515197754e+01 -7.467635929584446330e-01
7.856110874563455582e-01 2.794666123390197754e+01 -7.498000919818821330e-01
2.812344485893845558e+00 3.038294053077697754e+01 -6.967910587787571330e-01
2.776455814018845558e+00 3.248792099952697754e+01 -7.301467716693821330e-01
2.228482181206345558e+00 2.999622178077697754e+01 -6.839889347553196330e-01
2.503018314018845558e+00 3.588648056983947754e+01 -7.810043156146946330e-01
2.161343509331345558e+00 3.569898056983947754e+01 -7.745193302631321330e-01
1.838833743706345558e+00 3.571631455421447754e+01 -7.715133488178196330e-01
1.336880618706345558e+00 3.285803818702697754e+01 -7.213882267475071330e-01
1.057949954643845558e+00 3.315344834327697754e+01 -7.232803165912571330e-01
2.934048587456345558e+00 3.136743760108947754e+01 -5.839370548725071330e-01
2.580655032768845558e+00 3.073560166358947754e+01 -5.732559025287571330e-01
2.261197024956345558e+00 3.030603623390197754e+01 -5.652145206928196330e-01
1.962002689018845558e+00 3.000708603858947754e+01 -5.588668644428196330e-01
2.162808353081345558e+00 3.570044541358947754e+01 -6.258987247943821330e-01
1.828457767143845558e+00 3.555469346046447754e+01 -6.209548771381321330e-01
1.497525149956345558e+00 3.542481064796447754e+01 -6.162246525287571330e-01
4.192349368706345558e+00 9.323450303077697754e+01 -1.303221112489694633e+00
2.901333743706345558e+00 3.109119248390197754e+01 -4.525588810443821330e-01
2.587490970268845558e+00 3.078638291358947754e+01 -4.475234806537571330e-01
2.206021243706345558e+00 2.975659775733947754e+01 -4.368728458881321330e-01
2.462124759331345558e+00 3.541528916358947754e+01 -4.781020939350071330e-01
2.112637454643845558e+00 3.507507920265197754e+01 -4.724868595600071330e-01
1.790249759331345558e+00 3.500733017921447754e+01 -4.689925968646946330e-01
1.497891360893845558e+00 3.540955185890197754e+01 -4.690078556537571330e-01
4.018399173393845558e+00 8.983118271827697754e+01 -8.659805119037571330e-01
3.023159915581345558e+00 3.207629990577697754e+01 -3.273299992084446330e-01
2.522549564018845558e+00 3.019910264015197754e+01 -3.185714542865696330e-01
2.265469485893845558e+00 3.032678818702697754e+01 -3.165420353412571330e-01
2.387906009331345558e+00 3.459668564796447754e+01 -3.273299992084446330e-01
2.149258548393845558e+00 3.550427842140197754e+01 -3.272384464740696330e-01
1.824307376518845558e+00 3.545996689796447754e+01 -3.242172062396946330e-01
1.560391360893845558e+00 3.639246201515197754e+01 -3.239578068256321330e-01
4.058804446831345558e+00 9.053491806983947754e+01 -4.692062199115696330e-01
3.024258548393845558e+00 3.207654404640197754e+01 -1.948989689350071330e-01
2.779629642143845558e+00 3.247461533546447754e+01 -1.918929874896946330e-01
2.574673587456345558e+00 3.333435654640197754e+01 -1.881545841693821330e-01
2.395596439018845558e+00 3.466663193702697754e+01 -1.835464298725071330e-01
2.133755618706345558e+00 3.529944443702697754e+01 -1.798385441303196330e-01
1.843350345268845558e+00 3.570545029640197754e+01 -1.764053165912571330e-01
1.501431399956345558e+00 3.542371201515197754e+01 -1.741164982318821330e-01
4.008511478081345558e+00 8.950623154640197754e+01 -7.130277752875713304e-02
3.025479251518845558e+00 3.207691025733947754e+01 -6.178129315375713304e-02
2.780362064018845558e+00 3.247131943702697754e+01 -5.705106854438213304e-02
2.575528079643845558e+00 3.333081650733947754e+01 -5.019987225531963304e-02
2.401211673393845558e+00 3.471387314796447754e+01 -3.927457928656963304e-02
2.168545657768845558e+00 3.570618271827697754e+01 -3.054655194281963304e-02
1.832730228081345558e+00 3.554041123390197754e+01 -2.892912030219463304e-02
1.562710696831345558e+00 3.638672471046447754e+01 -2.009428143500713304e-02
4.184414798393845558e+00 9.279956650733947754e+01 3.471695125103053670e-01
7.016446048393845558e+00 6.459705185890197754e+01 4.121414363384303670e-01
2.995449954643845558e+00 3.437048935890197754e+01 9.715425372124286696e-02
2.690152103081345558e+00 3.443665146827697754e+01 1.002823054790553670e-01
2.372158939018845558e+00 3.438611435890197754e+01 1.021896541118678670e-01
2.147915774956345558e+00 3.544055771827697754e+01 1.160141170024928670e-01
1.796231204643845558e+00 3.501843857765197754e+01 1.139236629009303670e-01
1.494595462456345558e+00 3.527234482765197754e+01 1.191726863384303670e-01
4.001919681206345558e+00 8.924280381202697754e+01 7.180343806743678670e-01
3.330899173393845558e+00 3.454724717140197754e+01 2.411361873149928670e-01
2.994473392143845558e+00 3.435132431983947754e+01 2.397171199321803670e-01
2.805508548393845558e+00 3.554981064796447754e+01 2.603317439556178670e-01
2.377285892143845558e+00 3.442810654640197754e+01 2.455154597759303670e-01
2.223721439018845558e+00 3.634326767921447754e+01 2.773452937603053670e-01
1.820767337456345558e+00 3.533899521827697754e+01 2.642227351665553670e-01
1.423794681206345558e+00 3.411646103858947754e+01 2.475753962993678670e-01
3.948941165581345558e+00 8.816528916358947754e+01 1.097093218564992867e+00
7.062588626518845558e+00 6.493323349952697754e+01 9.852615535259303670e-01
2.995083743706345558e+00 3.434522080421447754e+01 3.831344783306178670e-01
2.525845462456345558e+00 3.281128525733947754e+01 3.547989070415553670e-01
2.214932376518845558e+00 3.265955185890197754e+01 3.538376033306178670e-01
2.156582767143845558e+00 3.551355576515197754e+01 4.130874812603053670e-01
1.682339603081345558e+00 3.341101670265197754e+01 3.730636775493678670e-01
1.428799564018845558e+00 3.417676377296447754e+01 3.906112849712428670e-01
1.118740970268845558e+00 3.412647080421447754e+01 3.917404353618678670e-01
7.023281985893845558e+00 6.459326767921447754e+01 1.262513750791555367e+00
2.998623782768845558e+00 3.436597275733947754e+01 5.263839900493678670e-01
2.537198001518845558e+00 3.290991806983947754e+01 4.927536189556178670e-01
2.476773196831345558e+00 3.547559189796447754e+01 5.577560603618678670e-01
1.921109134331345558e+00 3.264453721046447754e+01 4.901291072368678670e-01
6.323697024956345558e+00 9.741284775733947754e+01 2.092057818174367867e+00
1.475186282768845558e+00 3.489966416358947754e+01 5.498672664165553670e-01
1.123013431206345558e+00 3.418408799171447754e+01 5.349289119243678670e-01
7.228848392143845558e+00 6.624658799171447754e+01 1.592912310361867867e+00
3.001553470268845558e+00 3.438098740577697754e+01 6.703964412212428670e-01
2.734829837456345558e+00 3.482312607765197754e+01 6.852127254009303670e-01
2.523281985893845558e+00 3.596375107765197754e+01 7.204910457134303670e-01
1.926480228081345558e+00 3.269568467140197754e+01 6.268783748149928670e-01
1.492398196831345558e+00 3.515344834327697754e+01 7.027450740337428670e-01
1.128018314018845558e+00 3.425440049171447754e+01 6.782394587993678670e-01
3.508023196831345558e+00 3.594714951515197754e+01 8.649460017681178670e-01
3.007779056206345558e+00 3.442493271827697754e+01 8.155380427837428670e-01
2.534146243706345558e+00 3.285681748390197754e+01 7.636734187603053670e-01
2.262906009331345558e+00 3.313855576515197754e+01 7.749191462993678670e-01
1.931851321831345558e+00 3.274536728858947754e+01 7.633377254009303670e-01
1.778286868706345558e+00 3.468274521827697754e+01 8.307510554790553670e-01
1.454190189018845558e+00 3.452161240577697754e+01 8.278671443462428670e-01
1.112515384331345558e+00 3.393457627296447754e+01 8.096634089946803670e-01
3.521573001518845558e+00 3.604675889015197754e+01 1.019792193174367867e+00
3.013028079643845558e+00 3.446057724952697754e+01 9.599777400493678670e-01
2.565274173393845558e+00 3.314905381202697754e+01 9.113479793071803670e-01
2.235928470268845558e+00 3.283447861671447754e+01 9.008804500103053670e-01
1.917813235893845558e+00 3.256140732765197754e+01 8.919693171978053670e-01
1.828579837456345558e+00 3.535742783546447754e+01 1.001283282041555367e+00
1.454800540581345558e+00 3.451135849952697754e+01 9.703689754009303670e-01
1.116177493706345558e+00 3.398096299171447754e+01 9.523025691509303670e-01
5.831616558134555817e-02 1.403552842140197754e+01 -7.499374210834446330e-01
-4.495531879365444183e-02 1.410620713233947754e+01 -7.520431339740696330e-01
-1.498137172311544418e-01 1.417127060890197754e+01 -7.541488468646946330e-01
-2.562590297311544418e-01 1.423743271827697754e+01 -7.562698185443821330e-01
-3.635588344186544418e-01 1.430408310890197754e+01 -7.584213078021946330e-01
-4.722014125436544418e-01 1.437158799171447754e+01 -7.606033146381321330e-01
-5.825529750436544418e-01 1.444006943702697754e+01 -7.628005802631321330e-01
-6.947355922311544418e-01 1.455701279640197754e+01 -7.676070988178196330e-01
1.357087437063455582e-01 1.551978135108947754e+01 -7.663406193256321330e-01
1.766675151884555817e-02 1.559253525733947754e+01 -7.683547794818821330e-01
-1.013518031686544418e-01 1.567651963233947754e+01 -7.705367863178196330e-01
-2.226896937936544418e-01 1.575147080421447754e+01 -7.726119816303196330e-01
-3.450041469186544418e-01 1.582691025733947754e+01 -7.747024357318821330e-01
-4.687834437936544418e-01 1.590332627296447754e+01 -7.768081486225071330e-01
-5.943937953561544418e-01 1.596997666358947754e+01 -7.787765324115696330e-01
-7.235441859811544418e-01 1.618482041358947754e+01 -7.868942081928196330e-01
2.069978062063455582e-01 1.688623642921447754e+01 -7.644027531146946330e-01
7.626050151884555817e-02 1.697791123390197754e+01 -7.667068302631321330e-01
-5.642992816865444183e-02 1.707068467140197754e+01 -7.690261662006321330e-01
-1.911955531686544418e-01 1.716516709327697754e+01 -7.713912785053196330e-01
-3.273039516061544418e-01 1.726050400733947754e+01 -7.737869083881321330e-01
-4.653654750436544418e-01 1.735718369483947754e+01 -7.761977970600071330e-01
-6.057463344186544418e-01 1.745545029640197754e+01 -7.786697208881321330e-01
-7.501555141061544418e-01 1.769885849952697754e+01 -7.867568790912571330e-01
3.003815952688455582e-01 1.867420029640197754e+01 -7.649520695209446330e-01
1.527985874563455582e-01 1.879224228858947754e+01 -7.672103703021946330e-01
2.652103081345558167e-03 1.890112900733947754e+01 -7.694991886615696330e-01
-1.500578578561544418e-01 1.901196885108947754e+01 -7.718337833881321330e-01
-3.044768031686544418e-01 1.912402939796447754e+01 -7.741988956928196330e-01
-4.609709437936544418e-01 1.923755478858947754e+01 -7.765792667865696330e-01
-6.202727016061544418e-01 1.935315537452697754e+01 -7.790206730365696330e-01
-7.856779750436544418e-01 1.971399521827697754e+01 -7.902358829975071330e-01
4.183015171438455582e-01 2.093225693702697754e+01 -7.629531681537571330e-01
2.496003452688455582e-01 2.108337998390197754e+01 -7.658370792865696330e-01
7.772534526884555817e-02 2.122693467140197754e+01 -7.684615910053196330e-01
-9.744555316865444183e-02 2.137317490577697754e+01 -7.711318790912571330e-01
-2.749357875436544418e-01 2.152124619483947754e+01 -7.738479435443821330e-01
-4.552336391061544418e-01 2.167175889015197754e+01 -7.765945255756321330e-01
-6.394377406686544418e-01 2.185462021827697754e+01 -7.802871525287571330e-01
-8.330412562936544418e-01 2.239783310890197754e+01 -7.946304142475071330e-01
5.745515171438455582e-01 2.392395615577697754e+01 -7.594894230365696330e-01
3.810700718313455582e-01 2.419312119483947754e+01 -7.639297306537571330e-01
1.798981968313455582e-01 2.439197373390197754e+01 -7.670120060443821330e-01
-2.566820941865444183e-02 2.459424424171447754e+01 -7.701553165912571330e-01
-2.345305141061544418e-01 2.479981064796447754e+01 -7.733444035053196330e-01
-4.471769984811544418e-01 2.516541123390197754e+01 -7.805465519428196330e-01
-6.678801234811544418e-01 2.556934189796447754e+01 -7.886184513568821330e-01
-8.962736781686544418e-01 2.599024033546447754e+01 -7.976211369037571330e-01
7.848786655813455582e-01 2.794800400733947754e+01 -7.498153507709446330e-01
5.458649937063455582e-01 2.809277939796447754e+01 -7.505325138568821330e-01
3.048981968313455582e-01 2.825867295265197754e+01 -7.516769230365696330e-01
6.075757183134555817e-02 2.847241806983947754e+01 -7.537826359271946330e-01
-1.855803187936544418e-01 2.876550889015197754e+01 -7.574905216693821330e-01
-4.377775844186544418e-01 2.906787705421447754e+01 -7.613509953021946330e-01
-6.970549281686544418e-01 2.940613389015197754e+01 -7.658828556537571330e-01
-9.618254359811544418e-01 2.972974228858947754e+01 -7.700485050678196330e-01
1.057095462456345558e+00 3.315588974952697754e+01 -7.233108341693821330e-01
7.724274937063455582e-01 3.344971299171447754e+01 -7.253555119037571330e-01
4.858063999563455582e-01 3.386023545265197754e+01 -7.285140812396946330e-01
1.886872593313455582e-01 3.420483994483947754e+01 -7.312454044818821330e-01
-1.144133266061544418e-01 3.453613877296447754e+01 -7.337173283100071330e-01
-4.236174281686544418e-01 3.501257920265197754e+01 -7.384475529193821330e-01
-7.427092250436544418e-01 3.539807724952697754e+01 -7.424148380756321330e-01
-1.065341060981154442e+00 3.561890244483947754e+01 -7.429336369037571330e-01
4.189297610893845558e+00 9.323328232765197754e+01 -1.303190594911569633e+00
3.218838626518845558e+00 9.147559189796447754e+01 -1.274015790224069633e+00
2.203335696831345558e+00 8.721130967140197754e+01 -1.215727216005319633e+00
2.942780796438455582e-01 3.890930771827697754e+01 -6.447738468646946330e-01
-5.447680316865444183e-02 3.934497666358947754e+01 -6.465133488178196330e-01
-4.115324672311544418e-01 3.984631943702697754e+01 -6.489394962787571330e-01
-1.157504146918654442e+00 8.906445908546447754e+01 -1.205641156435007133e+00
-1.972445553168654442e+00 8.691968369483947754e+01 -1.173490887880319633e+00
4.015469485893845558e+00 8.983093857765197754e+01 -8.659652531146946330e-01
3.218472415581345558e+00 9.137915635108947754e+01 -8.692306339740696330e-01
2.208340579643845558e+00 8.725964951515197754e+01 -8.316177189350071330e-01
2.957429233938455582e-01 3.890979599952697754e+01 -4.818862736225071330e-01
-5.301195941865444183e-02 3.934290146827697754e+01 -4.816421329975071330e-01
-4.099455531686544418e-01 3.984424424171447754e+01 -4.817947208881321330e-01
-1.949130123481154442e+00 8.579492783546447754e+01 -7.831558048725071330e-01
4.045010501518845558e+00 9.032788681983947754e+01 -4.686111271381321330e-01
3.144009524956345558e+00 8.952869248390197754e+01 -4.585555851459446330e-01
2.188565189018845558e+00 8.653760361671447754e+01 -4.430526554584446330e-01
2.972077671438455582e-01 3.891016221046447754e+01 -3.181289494037571330e-01
-5.142504535615444183e-02 3.934094834327697754e+01 -3.159164249896946330e-01
-4.084807094186544418e-01 3.984216904640197754e+01 -3.137801945209446330e-01
-1.130404537543654442e+00 8.647730088233947754e+01 -4.125198185443821330e-01
-1.949496334418654442e+00 8.601965928077697754e+01 -4.039901554584446330e-01
3.934536868706345558e+00 8.814526963233947754e+01 -7.378996014594463304e-02
3.194302493706345558e+00 9.063440537452697754e+01 -6.127775311469463304e-02
2.336758548393845558e+00 9.102222275733947754e+01 -5.259550213813213304e-02
2.986726108938455582e-01 3.891065049171447754e+01 -1.552566349506321330e-01
-4.996020160615444183e-02 3.933887314796447754e+01 -1.510909855365696330e-01
-4.068937953561544418e-01 3.984009385108947754e+01 -1.466811954975071330e-01
-1.131747310981154442e+00 8.711072373390197754e+01 -3.021085858344463304e-02
-2.043368404731154442e+00 9.156018662452697754e+01 -1.159513592719463304e-02
4.181485110893845558e+00 9.280090928077697754e+01 3.472000300884303670e-01
3.102993899956345558e+00 8.839221787452697754e+01 3.263412654399928670e-01
2.284024173393845558e+00 8.927783799171447754e+01 3.377395808696803670e-01
3.002595249563455582e-01 3.891284775733947754e+01 7.630938291555366959e-03
-4.837328754365444183e-02 3.934546494483947754e+01 1.376497149468036696e-02
-4.053068812936544418e-01 3.985169053077697754e+01 2.047883868218036696e-02
-1.123202389106154442e+00 8.644348740577697754e+01 3.508468806743678670e-01
-1.958407467231154442e+00 8.692969346046447754e+01 3.617416560649928670e-01
3.998745853081345558e+00 8.923889756202697754e+01 7.180038630962428670e-01
3.064907962456345558e+00 8.740991806983947754e+01 7.052780330181178670e-01
2.232022220268845558e+00 8.756128525733947754e+01 7.144485652446803670e-01
1.465786868706345558e+00 9.094483017921447754e+01 7.602401912212428670e-01
5.465974155813455582e-01 8.717712998390197754e+01 7.250534236431178670e-01
-2.887297328561544418e-01 8.686878037452697754e+01 7.289444148540553670e-01
-1.132723873481154442e+00 8.818213486671447754e+01 7.516037166118678670e-01
-2.071566646918654442e+00 9.359607529640197754e+01 8.223282039165553670e-01
3.946133548393845558e+00 8.816541123390197754e+01 1.097108477354055367e+00
2.229336673393845558e+00 8.737183213233947754e+01 1.097428911924367867e+00
1.403408939018845558e+00 8.799634385108947754e+01 1.114778155088430367e+00
5.446442905813455582e-01 8.673767685890197754e+01 1.102113360166555367e+00
-2.815275844186544418e-01 8.837537217140197754e+01 1.135774248838430367e+00
-1.152743404731154442e+00 9.131763291358947754e+01 1.190843218564992867e+00
-2.014559810981154442e+00 9.055261826515197754e+01 1.188295000791555367e+00
1.117642337456345558e+00 3.412610459327697754e+01 3.917556941509303670e-01
3.390469485893845558e+00 9.491736435890197754e+01 1.630693072080617867e+00
2.282559329643845558e+00 8.890332627296447754e+01 1.515870684385305367e+00
1.383633548393845558e+00 8.695886826515197754e+01 1.483476275205617867e+00
5.799226108938455582e-01 8.927368760108947754e+01 1.538453692197805367e+00
-2.790861781686544418e-01 8.787451767921447754e+01 1.516999834775930367e+00
-1.131259029731154442e+00 8.894141221046447754e+01 1.546556109189992867e+00
-2.050936764106154442e+00 9.285376572608947754e+01 1.635621660947805367e+00
1.121914798393845558e+00 3.418359971046447754e+01 5.349136531353053670e-01
3.594326907768845558e+00 9.962915635108947754e+01 2.167878741025930367e+00
2.283169681206345558e+00 8.881275010108947754e+01 1.905702227354055367e+00
1.461026126518845558e+00 9.024182724952697754e+01 1.948976153135305367e+00
5.534333530813455582e-01 8.688086533546447754e+01 1.871858233213430367e+00
-2.766447719186544418e-01 8.746216416358947754e+01 1.893769854307180367e+00
-1.127718990668654442e+00 8.896118760108947754e+01 1.939057940244680367e+00
-2.105380123481154442e+00 9.620899033546447754e+01 2.133119219541555367e+00
1.107632571831345558e+00 3.388623642921447754e+01 6.674057185649928670e-01
8.101472202688455582e-01 3.404370713233947754e+01 6.746689021587428670e-01
2.287198001518845558e+00 8.882703232765197754e+01 2.299882525205617867e+00
1.425503665581345558e+00 8.850684189796447754e+01 2.297731035947805367e+00
5.591706577688455582e-01 8.705188584327697754e+01 2.261674517393117867e+00
-2.743254359811544418e-01 8.699866318702697754e+01 2.267259234189992867e+00
-1.124301021918654442e+00 8.898108506202697754e+01 2.333833330869680367e+00
-2.012850826606154442e+00 9.109387803077697754e+01 2.404649370908742867e+00
1.111294681206345558e+00 3.393237900733947754e+01 8.096023738384303670e-01
8.207673374563455582e-01 3.426331162452697754e+01 8.235031306743678670e-01
2.307705814018845558e+00 8.934607529640197754e+01 2.709367388486867867e+00
1.678921634331345558e+00 9.956812119483947754e+01 3.067185992002492867e+00
5.976228062063455582e-01 8.982190537452697754e+01 2.740342730283742867e+00
-2.644377406686544418e-01 8.937573838233947754e+01 2.732301348447805367e+00
-1.128451412543654442e+00 9.004468369483947754e+01 2.764848345518117867e+00
-2.146639889106154442e+00 9.905530381202697754e+01 3.084443682432180367e+00
1.114956790581345558e+00 3.397876572608947754e+01 9.522262752056178670e-01
3.566861087456345558e+00 9.870471787452697754e+01 3.460755938291555367e+00
5.982331577688455582e-01 8.958447861671447754e+01 3.129335039854055367e+00
-2.330656703561544418e-01 9.967127060890197754e+01 3.530625933408742867e+00
-1.127963131293654442e+00 9.048645615577697754e+01 3.179154986143117867e+00
-1.980746334418654442e+00 8.967139267921447754e+01 3.156617754697805367e+00
-6.951018031686544418e-01 1.455835556983947754e+01 -7.676681339740696330e-01
-8.107023891061544418e-01 1.471558213233947754e+01 -7.741683781146946330e-01
-9.295988734811544418e-01 1.487000107765197754e+01 -7.807906925678196330e-01
-1.052279537543654442e+00 1.502954697608947754e+01 -7.876266300678196330e-01
-1.178011959418654442e+00 1.519312119483947754e+01 -7.946304142475071330e-01
-1.307528560981154442e+00 1.536157822608947754e+01 -8.018478214740696330e-01
-1.442904537543654442e+00 1.555444931983947754e+01 -8.102096378803196330e-01
-1.584017818793654442e+00 1.577124619483947754e+01 -8.199905216693821330e-01
-7.240324672311544418e-01 1.618738389015197754e+01 -7.870010197162571330e-01
-8.585539516061544418e-01 1.643897080421447754e+01 -7.969955265521946330e-01
-9.969816859811544418e-01 1.665747666358947754e+01 -8.052200138568821330e-01
-1.139926021918654442e+00 1.686817002296447754e+01 -8.133682072162571330e-01
-1.287264889106154442e+00 1.708521103858947754e+01 -8.217757999896946330e-01
-1.438876217231154442e+00 1.730066514015197754e+01 -8.300765812396946330e-01
-1.595126217231154442e+00 1.751123642921447754e+01 -8.384841740131321330e-01
-1.779696529731154442e+00 1.800037217140197754e+01 -8.584884464740696330e-01
-7.506437953561544418e-01 1.770105576515197754e+01 -7.868331730365696330e-01
-9.006682094186544418e-01 1.796436142921447754e+01 -7.959884464740696330e-01
-1.058383053168654442e+00 1.829273056983947754e+01 -8.076309025287571330e-01
-1.224886959418654442e+00 1.865186142921447754e+01 -8.204025089740696330e-01
-1.396884029731154442e+00 1.898743271827697754e+01 -8.322128117084446330e-01
-1.576693600043654442e+00 1.933850693702697754e+01 -8.445876896381321330e-01
-1.771029537543654442e+00 1.977576279640197754e+01 -8.601974308490696330e-01
-1.977938717231154442e+00 2.026074814796447754e+01 -8.775771915912571330e-01
-7.862883266061544418e-01 1.971716904640197754e+01 -7.903274357318821330e-01
-9.599943812936544418e-01 2.011462998390197754e+01 -8.022750675678196330e-01
-1.142123287543654442e+00 2.051904892921447754e+01 -8.147872745990696330e-01
-1.334139889106154442e+00 2.094556260108947754e+01 -8.280013859271946330e-01
-1.535433834418654442e+00 2.139270615577697754e+01 -8.418411076068821330e-01
-1.763705318793654442e+00 2.210266709327697754e+01 -8.645156681537571330e-01
-2.009066646918654442e+00 2.283850693702697754e+01 -8.879379093646946330e-01
-2.249178951606154442e+00 2.335181260108947754e+01 -9.042495548725071330e-01
-8.337736781686544418e-01 2.240430283546447754e+01 -7.948135197162571330e-01
-1.039095943793654442e+00 2.297888779640197754e+01 -8.103317081928196330e-01
-1.255526607856154442e+00 2.353613877296447754e+01 -8.252242863178196330e-01
-1.481234615668654442e+00 2.403601670265197754e+01 -8.383621037006321330e-01
-1.711337154731154442e+00 2.444800400733947754e+01 -8.488296329975071330e-01
-1.976595943793654442e+00 2.525305771827697754e+01 -8.707412540912571330e-01
-2.238680904731154442e+00 2.579749131202697754e+01 -8.849014103412571330e-01
-2.518710201606154442e+00 2.642725205421447754e+01 -9.014724552631321330e-01
-8.971281703561544418e-01 2.599365830421447754e+01 -7.976974308490696330e-01
-1.135043209418654442e+00 2.645703721046447754e+01 -8.068832218646946330e-01
-1.379305904731154442e+00 2.683240342140197754e+01 -8.143752872943821330e-01
-1.632723873481154442e+00 2.722351670265197754e+01 -8.221725285053196330e-01
-1.907137935981154442e+00 2.784985947608947754e+01 -8.357375919818821330e-01
-2.196444576606154442e+00 2.850842881202697754e+01 -8.499893009662571330e-01
-2.503085201606154442e+00 2.920679306983947754e+01 -8.650955021381321330e-01
-2.824862545356154442e+00 2.992261338233947754e+01 -8.811782658100071330e-01
-9.628019984811544418e-01 2.973193955421447754e+01 -7.700942814350071330e-01
-1.233431881293654442e+00 3.003174424171447754e+01 -7.740157902240696330e-01
-1.510653560981154442e+00 3.033850693702697754e+01 -7.780288517475071330e-01
-1.813754146918654442e+00 3.103479599952697754e+01 -7.898544132709446330e-01
-2.127230709418654442e+00 3.168018174171447754e+01 -8.005508244037571330e-01
-2.442416256293654442e+00 3.215527939796447754e+01 -8.077071964740696330e-01
-2.771761959418654442e+00 3.267346787452697754e+01 -8.156417667865696330e-01
-3.115145748481154442e+00 3.324219346046447754e+01 -8.245071232318821330e-01
-1.066317623481154442e+00 3.562036728858947754e+01 -7.429488956928196330e-01
-1.392611568793654442e+00 3.581152939796447754e+01 -7.432082951068821330e-01
-1.728671139106154442e+00 3.615064072608947754e+01 -7.449630558490696330e-01
-2.067904537543654442e+00 3.638379502296447754e+01 -7.457870304584446330e-01
-2.411166256293654442e+00 3.661975693702697754e+01 -7.466110050678196330e-01
-2.777743404731154442e+00 3.712500596046447754e+01 -7.515548527240696330e-01
-3.152621334418654442e+00 3.758753037452697754e+01 -7.565902531146946330e-01
-3.528597896918654442e+00 3.796680283546447754e+01 -7.594436466693821330e-01
-1.975131100043654442e+00 8.691504502296447754e+01 -1.173399335145944633e+00
-2.960604732856154442e+00 9.246118760108947754e+01 -1.228163129091257133e+00
-1.942050045356154442e+00 4.185120224952697754e+01 -6.580032169818821330e-01
-2.342684810981154442e+00 4.217712998390197754e+01 -6.581863224506321330e-01
-2.755282467231154442e+00 4.261145615577697754e+01 -6.595138370990696330e-01
-1.951693600043654442e+00 8.579273056983947754e+01 -7.831100285053196330e-01
-2.922762935981154442e+00 9.122778916358947754e+01 -8.116134464740696330e-01
-1.940463131293654442e+00 4.185388779640197754e+01 -4.815810978412571330e-01
-2.340975826606154442e+00 4.217529892921447754e+01 -4.801467716693821330e-01
-2.753451412543654442e+00 4.260950303077697754e+01 -4.793838322162571330e-01
-8.240634029731154442e+00 9.173035264015197754e+01 -7.667831242084446330e-01
-1.952181881293654442e+00 8.601892685890197754e+01 -4.039596378803196330e-01
-2.921420162543654442e+00 9.131665635108947754e+01 -4.069198429584446330e-01
-1.938876217231154442e+00 4.185657334327697754e+01 -3.041976749896946330e-01
-2.339266842231154442e+00 4.217346787452697754e+01 -3.011764347553196330e-01
-2.751620357856154442e+00 4.260767197608947754e+01 -2.983077824115696330e-01
-8.155428951606154442e+00 9.080347275733947754e+01 -3.569778263568821330e-01
-2.046420162543654442e+00 9.156494736671447754e+01 -1.154935956000713304e-02
-2.851840084418654442e+00 8.892908310890197754e+01 -9.962445497507133041e-03
-1.937411373481154442e+00 4.185938096046447754e+01 -1.277297794818821330e-01
-2.337435787543654442e+00 4.217163681983947754e+01 -1.231826603412571330e-01
-2.749789303168654442e+00 4.260571885108947754e+01 -1.182388126850071330e-01
-6.678622310981154442e+00 9.496436142921447754e+01 4.060518145561786696e-02
-7.238925045356154442e+00 9.033008408546447754e+01 3.523408770561786696e-02
-7.933749264106154442e+00 8.831702256202697754e+01 3.721773028374286696e-02
-1.961093014106154442e+00 8.692297959327697754e+01 3.617111384868678670e-01
-2.832919185981154442e+00 8.837903428077697754e+01 3.803421199321803670e-01
-3.648593014106154442e+00 8.753613877296447754e+01 3.804336726665553670e-01
-4.469760006293654442e+00 8.708655381202697754e+01 3.853927791118678670e-01
-5.362582271918654442e+00 8.807337021827697754e+01 4.009414851665553670e-01
-6.678622310981154442e+00 9.502393174171447754e+01 4.617630183696803670e-01
-7.355502193793654442e+00 9.188342881202697754e+01 4.489151179790553670e-01
-7.957186764106154442e+00 8.862769150733947754e+01 4.322830379009303670e-01
-2.074496334418654442e+00 9.359570908546447754e+01 8.223434627056178670e-01
-2.844393795356154442e+00 8.892639756202697754e+01 7.763992488384303670e-01
-3.628085201606154442e+00 8.708594346046447754e+01 7.631088435649928670e-01
-4.458651607856154442e+00 8.692932724952697754e+01 7.696548640728053670e-01
-5.366122310981154442e+00 8.819812607765197754e+01 7.933517634868678670e-01
-7.034701412543654442e+00 1.003623106479644775e+02 9.499679744243678670e-01
-7.359652584418654442e+00 9.198694443702697754e+01 8.569351375103053670e-01
-2.017489498481154442e+00 9.055591416358947754e+01 1.188371294736867867e+00
-2.841219967231154442e+00 8.894177842140197754e+01 1.168748492002492867e+00
-3.662631100043654442e+00 8.810486435890197754e+01 1.163743609189992867e+00
-4.527133053168654442e+00 8.844739365577697754e+01 1.178147906064992867e+00
-6.966586178168654442e+00 9.941443467140197754e+01 1.379533404111867867e+00
-6.956942623481154442e+00 8.683826279640197754e+01 1.177262896299367867e+00
-7.793978756293654442e+00 8.684754014015197754e+01 1.188081377744680367e+00
-2.054110592231154442e+00 9.286487412452697754e+01 1.635881060361867867e+00
-3.025546139106154442e+00 9.580371689796447754e+01 1.706880205869680367e+00
-3.656893795356154442e+00 8.804761338233947754e+01 1.553147906064992867e+00
-4.517123287543654442e+00 8.831519150733947754e+01 1.567735308408742867e+00
-5.990634029731154442e+00 9.921277451515197754e+01 1.808580034971242867e+00
-6.052157467231154442e+00 8.590430283546447754e+01 1.534043902158742867e+00
-8.172518795356154442e+00 9.121948838233947754e+01 1.666261309385305367e+00
-2.108676021918654442e+00 9.622266221046447754e+01 2.133500689268117867e+00
-1.945712154731154442e+00 4.230322861671447754e+01 7.677627742290553670e-01
-2.366610592231154442e+00 4.296472764015197754e+01 7.890030086040553670e-01
-5.435092037543654442e+00 8.959363389015197754e+01 1.999635332822805367e+00
-6.064364498481154442e+00 8.613904404640197754e+01 1.919160479307180367e+00
-7.571810787543654442e+00 8.438989853858947754e+01 1.893205279111867867e+00
-2.015658443793654442e+00 9.109509873390197754e+01 2.404710406064992867e+00
-2.965731685981154442e+00 9.390564560890197754e+01 2.499086016416555367e+00
-1.944247310981154442e+00 4.231030869483947754e+01 9.473892390728053670e-01
-2.364901607856154442e+00 4.296472764015197754e+01 9.715591609478053670e-01
-6.055453365668654442e+00 8.605921006202697754e+01 2.298829668760305367e+00
-6.920931881293654442e+00 8.651428818702697754e+01 2.321946734189992867e+00
-7.559725826606154442e+00 8.429346299171447754e+01 2.262666338682180367e+00
-2.149813717231154442e+00 9.905579209327697754e+01 3.084489458799367867e+00
-3.026522701606154442e+00 9.627454209327697754e+01 2.998521441221242867e+00
-1.942782467231154442e+00 4.231726670265197754e+01 1.126115435361867867e+00
-2.363192623481154442e+00 4.296472764015197754e+01 1.153138750791555367e+00
-5.834750240668654442e+00 9.670740342140197754e+01 3.042726153135305367e+00
-6.091708248481154442e+00 8.665357041358947754e+01 2.699433916807180367e+00
-7.133212154731154442e+00 8.930859971046447754e+01 2.804689043760305367e+00
-8.022250240668654442e+00 8.963135361671447754e+01 2.825807207822805367e+00
-1.983431881293654442e+00 8.966174912452697754e+01 3.156266802549367867e+00
-2.957797115668654442e+00 9.389587998390197754e+01 3.330613726377492867e+00
-3.800204342231154442e+00 9.229419541358947754e+01 3.277772539854055367e+00
-4.879794185981154442e+00 9.630737900733947754e+01 3.446839922666555367e+00
-5.809603756293654442e+00 9.633899521827697754e+01 3.458757036924367867e+00
-6.187167232856154442e+00 8.812720322608947754e+01 3.142549151182180367e+00
-7.727084225043654442e+00 9.704712510108947754e+01 3.508439654111867867e+00
-7.612093990668654442e+00 8.497571396827697754e+01 3.037919634580617867e+00
-1.584506100043654442e+00 1.577246689796447754e+01 -8.200515568256321330e-01
-1.745028560981154442e+00 1.614038681983947754e+01 -8.367446720600071330e-01
-1.917147701606154442e+00 1.654504990577697754e+01 -8.554672062396946330e-01
-2.091464107856154442e+00 1.689221787452697754e+01 -8.714278995990696330e-01
-2.295321529731154442e+00 1.741638779640197754e+01 -8.957504093646946330e-01
-2.522250240668654442e+00 1.802673935890197754e+01 -9.241164982318821330e-01
-2.752841060981154442e+00 1.857288193702697754e+01 -9.493850529193821330e-01
-2.958041256293654442e+00 1.889050889015197754e+01 -9.642013370990696330e-01
-1.780428951606154442e+00 1.800330185890197754e+01 -8.586257755756321330e-01
-1.978182857856154442e+00 1.852295517921447754e+01 -8.802779972553196330e-01
-2.178500240668654442e+00 1.896619248390197754e+01 -8.982223331928196330e-01
-2.376986568793654442e+00 1.931067490577697754e+01 -9.122604191303196330e-01
-2.590365475043654442e+00 1.971851181983947754e+01 -9.289993107318821330e-01
-2.821200435981154442e+00 2.018945908546447754e+01 -9.483779728412571330e-01
-3.086703365668654442e+00 2.082202744483947754e+01 -9.750503361225071330e-01
-3.367220943793654442e+00 2.146900010108947754e+01 -1.001860028505319633e+00
-1.978793209418654442e+00 2.026404404640197754e+01 -8.776992619037571330e-01
-2.197543209418654442e+00 2.076587510108947754e+01 -8.960708439350071330e-01
-2.453646725043654442e+00 2.151733994483947754e+01 -9.239333927631321330e-01
-2.711093014106154442e+00 2.214160752296447754e+01 -9.468673527240696330e-01
-2.992587154731154442e+00 2.285693955421447754e+01 -9.732040226459446330e-01
-3.280428951606154442e+00 2.350977158546447754e+01 -9.970840275287571330e-01
-3.458163326606154442e+00 2.332495713233947754e+01 -9.890273869037571330e-01
-3.439852779731154442e+00 2.193140244483947754e+01 -9.350723087787571330e-01
-2.250155514106154442e+00 2.335498642921447754e+01 -9.043563663959446330e-01
-2.510653560981154442e+00 2.396729111671447754e+01 -9.233688175678196330e-01
-2.793856685981154442e+00 2.467139267921447754e+01 -9.458755314350071330e-01
-3.081332271918654442e+00 2.528027939796447754e+01 -9.651016056537571330e-01
-3.391757076606154442e+00 2.597388291358947754e+01 -9.871047794818821330e-01
-3.708773678168654442e+00 2.660938096046447754e+01 -1.007093793153757133e+00
-3.477328365668654442e+00 2.345960068702697754e+01 -9.006332218646946330e-01
-3.578158443793654442e+00 2.280725693702697754e+01 -8.782333195209446330e-01
-2.519808834418654442e+00 2.643201279640197754e+01 -9.016097843646946330e-01
-2.820345943793654442e+00 2.713684678077697754e+01 -9.206680119037571330e-01
-3.133456295356154442e+00 2.782324814796447754e+01 -9.391158878803196330e-01
-3.457675045356154442e+00 2.847363877296447754e+01 -9.564193546771946330e-01
-3.810214107856154442e+00 2.924353623390197754e+01 -9.770950138568821330e-01
-4.198519771918654442e+00 3.015454697608947754e+01 -1.001737958192819633e+00
-3.930209225043654442e+00 2.651318955421447754e+01 -8.953994572162571330e-01
-4.324252193793654442e+00 2.751087021827697754e+01 -9.225601017475071330e-01
-2.826205318793654442e+00 2.992774033546447754e+01 -8.813155949115696330e-01
-3.169833248481154442e+00 3.071643662452697754e+01 -8.981460392475071330e-01
-3.531283443793654442e+00 3.151636338233947754e+01 -9.157851994037571330e-01
-3.878939693793654442e+00 3.204871201515197754e+01 -9.268173038959446330e-01
-4.235751217231154442e+00 3.257007431983947754e+01 -9.375137150287571330e-01
-4.597323482856154442e+00 3.304504990577697754e+01 -9.470046818256321330e-01
-4.983798092231154442e+00 3.361072373390197754e+01 -9.586166203021946330e-01
-4.822054928168654442e+00 3.065308213233947754e+01 -8.861984074115696330e-01
-3.116610592231154442e+00 3.324609971046447754e+01 -8.245834171771946330e-01
-3.477206295356154442e+00 3.386829209327697754e+01 -8.347457706928196330e-01
-3.833407467231154442e+00 3.432556748390197754e+01 -8.415511906146946330e-01
-4.217074459418654442e+00 3.492236924171447754e+01 -8.510268986225071330e-01
-4.613802975043654442e+00 3.552942490577697754e+01 -8.606246769428196330e-01
-5.000277584418654442e+00 3.596790146827697754e+01 -8.668197453021946330e-01
-5.388339107856154442e+00 3.634363389015197754e+01 -8.717330753803196330e-01
-5.799716060981154442e+00 3.682007431983947754e+01 -8.785384953021946330e-01
-3.530062740668654442e+00 3.796985459327697754e+01 -7.594741642475071330e-01
-3.904208248481154442e+00 3.824573349952697754e+01 -7.609695255756321330e-01
-4.286044185981154442e+00 3.853247666358947754e+01 -7.617172062396946330e-01
-4.663851803168654442e+00 3.871997666358947754e+01 -7.617477238178196330e-01
-5.058627193793654442e+00 3.901209092140197754e+01 -7.633346378803196330e-01
-5.460970943793654442e+00 3.930969834327697754e+01 -7.649520695209446330e-01
-5.876498287543654442e+00 3.964050889015197754e+01 -7.678817570209446330e-01
-6.301425045356154442e+00 3.999121689796447754e+01 -7.701705753803196330e-01
-8.264681881293654442e+00 9.192590928077697754e+01 -1.175184613466257133e+00
-4.517245357856154442e+00 4.452832627296447754e+01 -6.660903751850071330e-01
-4.938143795356154442e+00 4.459241318702697754e+01 -6.632980167865696330e-01
-5.397250240668654442e+00 4.494812607765197754e+01 -6.635116398334446330e-01
-1.333645922504365444e+01 8.434729599952697754e+01 -1.046385174989694633e+00
-8.244540279731154442e+00 9.174048447608947754e+01 -7.668289005756321330e-01
-4.515902584418654442e+00 4.453259873390197754e+01 -4.766525089740696330e-01
-4.936190670356154442e+00 4.459082627296447754e+01 -4.733108341693821330e-01
-5.395175045356154442e+00 4.494653916358947754e+01 -4.716476261615696330e-01
-1.351126391254365444e+01 9.758020615577697754e+01 -7.598708927631321330e-01
-1.301761156879365444e+01 8.236072373390197754e+01 -6.600021183490696330e-01
-8.158114498481154442e+00 9.079956650733947754e+01 -3.569473087787571330e-01
-4.514437740668654442e+00 4.453687119483947754e+01 -2.861923038959446330e-01
-4.934115475043654442e+00 4.458923935890197754e+01 -2.823318302631321330e-01
-5.393099850043654442e+00 4.494495224952697754e+01 -2.787917912006321330e-01
-1.250943285785615444e+01 9.724744248390197754e+01 -3.303664982318821330e-01
-1.271976000629365444e+01 8.580066514015197754e+01 -3.023208439350071330e-01
-1.307754809223115444e+01 8.276196885108947754e+01 -2.920059025287571330e-01
-7.936801021918654442e+00 8.831897568702697754e+01 3.723298907280536696e-02
-4.512972896918654442e+00 4.454114365577697754e+01 -9.670866131781963304e-02
-4.932162350043654442e+00 4.458777451515197754e+01 -9.239042401313213304e-02
-5.391146725043654442e+00 4.494336533546447754e+01 -8.697355389594463304e-02
-1.196390063129365444e+01 9.301770615577697754e+01 8.834993243218036696e-02
-1.439798266254365444e+01 9.714124131202697754e+01 1.221634089946803670e-01
-1.310586840473115444e+01 8.296326279640197754e+01 7.695161700249286696e-02
-8.920077389106154442e+00 9.958606553077697754e+01 5.175338923931178670e-01
-8.793368404731154442e+00 8.839795517921447754e+01 4.395614802837428670e-01
-9.541415279731154442e+00 8.740149521827697754e+01 4.386001765728053670e-01
-1.030887133441865444e+01 8.669714951515197754e+01 4.419265925884303670e-01
-1.346487719379365444e+01 9.733716416358947754e+01 5.479904353618678670e-01
-1.283340746723115444e+01 8.661755967140197754e+01 4.702163875103053670e-01
-1.362039477191865444e+01 8.623389267921447754e+01 4.759231746196803670e-01
-8.208651607856154442e+00 9.150903916358947754e+01 8.599563777446803670e-01
-8.984164303168654442e+00 9.039172959327697754e+01 8.558670222759303670e-01
-9.358065670356154442e+00 8.573279404640197754e+01 8.069320857524928670e-01
-1.028604418598115444e+01 8.653601670265197754e+01 8.264480769634303670e-01
-1.227481371723115444e+01 9.551257920265197754e+01 9.509750545024928670e-01
-1.182913500629365444e+01 8.551782822608947754e+01 8.320785701274928670e-01
-1.347928149066865444e+01 9.100061631202697754e+01 9.129959285259303670e-01
-1.336954027973115444e+01 8.467444443702697754e+01 8.396621882915553670e-01
-7.796908443793654442e+00 8.684863877296447754e+01 1.188111895322805367e+00
-9.102206295356154442e+00 9.164185166358947754e+01 1.277803057432180367e+00
-9.477450435981154442e+00 8.687622666358947754e+01 1.206208819150930367e+00
-1.021890551410615444e+01 8.599744248390197754e+01 1.200883501768117867e+00
-1.115347582660615444e+01 8.677368760108947754e+01 1.224214190244680367e+00
-1.226053149066865444e+01 8.867127060890197754e+01 1.267457598447805367e+00
-1.269168383441865444e+01 8.571253037452697754e+01 1.225312823057180367e+00
-1.334219652973115444e+01 8.452515244483947754e+01 1.216020220518117867e+00
-8.174593990668654442e+00 9.120899033546447754e+01 1.666062945127492867e+00
-8.520175045356154442e+00 8.571216416358947754e+01 1.557496660947805367e+00
-4.996249264106154442e+00 4.525232529640197754e+01 6.838394343853053670e-01
-5.412753170356154442e+00 4.519067978858947754e+01 6.876999080181178670e-01
-1.102652270160615444e+01 8.581018662452697754e+01 1.590287798643117867e+00
-1.181094652973115444e+01 8.543994736671447754e+01 1.592332476377492867e+00
-1.270706469379365444e+01 8.584204697608947754e+01 1.611589068174367867e+00
-1.346634203754365444e+01 8.533337998390197754e+01 1.610475176572805367e+00
-7.574862545356154442e+00 8.439368271827697754e+01 1.893327349424367867e+00
-8.494540279731154442e+00 8.548779892921447754e+01 1.930574053525930367e+00
-4.994418209418654442e+00 4.525256943702697754e+01 8.768173396587428670e-01
-5.410922115668654442e+00 4.519092392921447754e+01 8.806167781353053670e-01
-1.105105883441865444e+01 8.603125596046447754e+01 1.977037066221242867e+00
-1.179349047504365444e+01 8.534046006202697754e+01 1.969255083799367867e+00
-1.267007738910615444e+01 8.561804795265197754e+01 1.987474077939992867e+00
-1.370682055316865444e+01 8.687634873390197754e+01 2.034410113096242867e+00
-7.563387935981154442e+00 8.430286240577697754e+01 2.262986773252492867e+00
-8.815218990668654442e+00 8.881677842140197754e+01 2.413591021299367867e+00
-4.992587154731154442e+00 4.525281357765197754e+01 1.070817583799367867e+00
-5.408968990668654442e+00 4.519116806983947754e+01 1.074571245908742867e+00
-1.122256762348115444e+01 8.740393662452697754e+01 2.403977984189992867e+00
-1.212259203754365444e+01 8.775537705421447754e+01 2.426454180479055367e+00
-1.249612719379365444e+01 8.446790146827697754e+01 2.334001177549367867e+00
-8.024935787543654442e+00 8.962903428077697754e+01 2.825746172666555367e+00
-9.086703365668654442e+00 9.164356064796447754e+01 2.909516924619680367e+00
-1.020987231098115444e+01 8.604675889015197754e+01 2.731645220518117867e+00
-1.113089281879365444e+01 8.671546006202697754e+01 2.767366045713430367e+00
-1.211160570941865444e+01 8.770349717140197754e+01 2.814851397275930367e+00
-1.286917406879365444e+01 8.701428818702697754e+01 2.803941363096242867e+00
-1.384207445941865444e+01 8.778040146827697754e+01 2.843751543760305367e+00
-7.614413326606154442e+00 8.497022080421447754e+01 3.037721270322805367e+00
-8.361361568793654442e+00 8.423157334327697754e+01 3.017915362119680367e+00
-1.018582445941865444e+01 8.587354111671447754e+01 3.108094805479055367e+00
-1.267325121723115444e+01 9.883045029640197754e+01 3.646562212705617867e+00
-1.220718676410615444e+01 8.842542099952697754e+01 3.236390703916555367e+00
-1.308682543598115444e+01 8.851111435890197754e+01 3.252488726377492867e+00
-1.368216235004365444e+01 8.679370713233947754e+01 3.196626299619680367e+00
-2.959017818793654442e+00 1.889295029640197754e+01 -9.643081486225071330e-01
-3.175082271918654442e+00 1.923291611671447754e+01 -9.798721134662571330e-01
-3.404574459418654442e+00 1.960571885108947754e+01 -9.973586857318821330e-01
-3.531161373481154442e+00 1.938928818702697754e+01 -9.869827091693821330e-01
-3.580477779731154442e+00 1.880921006202697754e+01 -9.594253361225071330e-01
-3.626498287543654442e+00 1.826758408546447754e+01 -9.336990177631321330e-01
-3.672762935981154442e+00 1.777307724952697754e+01 -9.102004826068821330e-01
-3.723055904731154442e+00 1.733997178077697754e+01 -8.899673283100071330e-01
-3.368685787543654442e+00 2.147412705421447754e+01 -1.002073651552194633e+00
-3.426058834418654442e+00 2.072083115577697754e+01 -9.696334660053196330e-01
-3.487582271918654442e+00 2.007239365577697754e+01 -9.412826359271946330e-01
-3.540560787543654442e+00 1.944299912452697754e+01 -9.141830265521946330e-01
-3.589755123481154442e+00 1.885913681983947754e+01 -8.890518009662571330e-01
-3.635653560981154442e+00 1.831421494483947754e+01 -8.655837833881321330e-01
-3.780428951606154442e+00 1.826318955421447754e+01 -8.635238468646946330e-01
-5.815463131293654442e+00 2.638257431983947754e+01 -1.208555585145944633e+00
-3.439120357856154442e+00 2.192261338233947754e+01 -9.347366154193821330e-01
-3.433871334418654442e+00 2.077173447608947754e+01 -8.905471622943821330e-01
-3.497225826606154442e+00 2.013037705421447754e+01 -8.657516300678196330e-01
-3.669222896918654442e+00 2.012488389015197754e+01 -8.650955021381321330e-01
-5.445712154731154442e+00 2.813745713233947754e+01 -1.168165570497507133e+00
-6.044955318793654442e+00 2.976379990577697754e+01 -1.229063397645944633e+00
-6.604403560981154442e+00 3.104724717140197754e+01 -1.276884442567819633e+00
-5.952548092231154442e+00 2.697986435890197754e+01 -1.122389203310007133e+00
-3.578890865668654442e+00 2.280762314796447754e+01 -8.782485783100071330e-01
-4.784701412543654442e+00 2.876318955421447754e+01 -1.075331097841257133e+00
-5.132845943793654442e+00 2.925281357765197754e+01 -1.090696698427194633e+00
-5.528842037543654442e+00 2.993091416358947754e+01 -1.112287884950632133e+00
-6.108676021918654442e+00 3.145715928077697754e+01 -1.161955243349069633e+00
-6.477450435981154442e+00 3.182495713233947754e+01 -1.173139935731882133e+00
-6.953524654731154442e+00 3.263367295265197754e+01 -1.198866254091257133e+00
-7.503329342231154442e+00 3.368738389015197754e+01 -1.233412152528757133e+00
-4.332064693793654442e+00 2.755396103858947754e+01 -9.238113224506321330e-01
-5.318514889106154442e+00 3.192774033546447754e+01 -1.047987347841257133e+00
-5.703890865668654442e+00 3.244373154640197754e+01 -1.061460858583444633e+00
-6.081820553168654442e+00 3.285291123390197754e+01 -1.071821576356882133e+00
-6.524081295356154442e+00 3.354053330421447754e+01 -1.090101605653757133e+00
-7.008090084418654442e+00 3.435315537452697754e+01 -1.111860638856882133e+00
-7.362582271918654442e+00 3.449243760108947754e+01 -1.114393597841257133e+00
-7.893221920356154442e+00 3.537940049171447754e+01 -1.138136273622507133e+00
-4.823153560981154442e+00 3.065357041358947754e+01 -8.862136662006321330e-01
-5.352938717231154442e+00 3.213916611671447754e+01 -9.196761906146946330e-01
