2.239760608412325382e+00 2.361392551660537720e+01 -7.277696512115596761e-01
2.064955920912325382e+00 2.382803684473037720e+01 -7.304399392974971761e-01
1.886611194349825382e+00 2.404642063379287720e+01 -7.331712625396846761e-01
1.704238147474825382e+00 2.426993137598037720e+01 -7.359636209381221761e-01
1.514785022474825382e+00 2.445523411035537720e+01 -7.377794168365596761e-01
1.321791858412325382e+00 2.463772922754287720e+01 -7.395036600006221761e-01
1.131484241224825382e+00 2.490762668848037720e+01 -7.432573221099971761e-01
9.372703740373253822e-01 2.518313938379287720e+01 -7.470872781646846761e-01
3.157729358412325382e+00 3.031021457910537720e+01 -7.697008035553096761e-01
2.865859241224825382e+00 3.013602024316787720e+01 -7.629106424224971761e-01
2.363539905287325382e+00 2.812442356348037720e+01 -7.192094705474971761e-01
2.147353381849825382e+00 2.841800266504287720e+01 -7.219255350006221761e-01
1.927138538099825382e+00 2.871707493066787720e+01 -7.247026346099971761e-01
1.701918811537325382e+00 2.902261692285537720e+01 -7.275255105865596761e-01
1.472426624037325382e+00 2.935574680566787720e+01 -7.314470193756221761e-01
1.240737170912325382e+00 2.973721653223037720e+01 -7.355974100006221761e-01
3.159194202162325382e+00 3.031241184473037720e+01 -6.458604715240596761e-01
2.765029163099825382e+00 2.933194309473037720e+01 -6.277025125396846761e-01
2.640273303724825382e+00 3.048440891504287720e+01 -6.420915506256221761e-01
2.278823108412325382e+00 2.963943821191787720e+01 -6.261766336334346761e-01
2.029799670912325382e+00 2.976736789941787720e+01 -6.249864480865596761e-01
7.339492053724825382e+00 9.416495090723037720e+01 -1.574342527188122176e+00
1.929946155287325382e+00 3.532352024316787720e+01 -7.002885721099971761e-01
1.620375842787325382e+00 3.543094211816787720e+01 -6.981065652740596761e-01
3.160781116224825382e+00 3.031448704004287720e+01 -5.226762674224971761e-01
3.080336780287325382e+00 3.180667454004287720e+01 -5.354936502349971761e-01
2.596938342787325382e+00 3.010196262598037720e+01 -5.142991922271846761e-01
2.267592639662325382e+00 2.952237278223037720e+01 -5.052202127349971761e-01
2.019667834974825382e+00 2.964920383691787720e+01 -5.035570047271846761e-01
6.856948108412325382e+00 8.853946262598037720e+01 -1.100618161953747176e+00
1.883559436537325382e+00 3.469656711816787720e+01 -5.484636209381221761e-01
1.654433459974825382e+00 3.591946750879287720e+01 -5.571153543365596761e-01
3.162368030287325382e+00 3.031668430566787720e+01 -3.988054178131221761e-01
3.012465686537325382e+00 3.126126438379287720e+01 -4.015367410553096761e-01
2.653212756849825382e+00 3.057327610254287720e+01 -3.944414041412471761e-01
2.331801624037325382e+00 3.011233860254287720e+01 -3.887956521881221761e-01
2.480605334974825382e+00 3.440481907129287720e+01 -4.102495096099971761e-01
2.210585803724825382e+00 3.485123020410537720e+01 -4.093644998443721761e-01
1.891738147474825382e+00 3.478433567285537720e+01 -4.055803201568721761e-01
1.603774280287325382e+00 3.513345676660537720e+01 -4.040391824615596761e-01
3.164809436537325382e+00 3.032559543848037720e+01 -2.756059549224971761e-01
3.083144397474825382e+00 3.180740696191787720e+01 -2.748277566803096761e-01
2.568129749037325382e+00 2.983401829004287720e+01 -2.693345926178096761e-01
2.316542834974825382e+00 2.995804172754287720e+01 -2.667100808990596761e-01
2.482924670912325382e+00 3.441409641504287720e+01 -2.687089822662471761e-01
2.188857288099825382e+00 3.458328586816787720e+01 -2.656419656646846761e-01
1.900038928724825382e+00 3.487222629785537720e+01 -2.626512430084346761e-01
1.606948108412325382e+00 3.515774875879287720e+01 -2.595994851959346761e-01
3.167250842787325382e+00 3.033414036035537720e+01 -1.516588113678096761e-01
3.084487170912325382e+00 3.180765110254287720e+01 -1.441667459381221761e-01
2.828505725599825382e+00 3.205057102441787720e+01 -1.412065408599971761e-01
2.630263538099825382e+00 3.288260227441787720e+01 -1.354844949615596761e-01
2.485976428724825382e+00 3.443008762598037720e+01 -1.270769021881221761e-01
2.166396350599825382e+00 3.430789524316787720e+01 -1.244371316803096761e-01
1.936171741224825382e+00 3.532352024316787720e+01 -1.167772195709346761e-01
1.594496936537325382e+00 3.494815403223037720e+01 -1.150682351959346761e-01
3.168593616224825382e+00 3.033462864160537720e+01 -2.836779574280967609e-02
3.085829944349825382e+00 3.180801731348037720e+01 -1.419238070374717609e-02
2.829482288099825382e+00 3.204666477441787720e+01 -9.584226406872176085e-03
2.631240100599825382e+00 3.287845188379287720e+01 -1.390359771846760850e-04
2.482802600599825382e+00 3.438162571191787720e+01 1.493664761656532391e-02
2.172377795912325382e+00 3.435892063379287720e+01 1.768322964781532391e-02
1.902236194349825382e+00 3.486087375879287720e+01 2.482434292906532391e-02
1.662490100599825382e+00 3.594363743066787720e+01 3.693982144469032391e-02
3.173110217787325382e+00 3.035806614160537720e+01 9.585400601500282391e-02
3.320815295912325382e+00 3.364541965723037720e+01 1.387312032806278239e-01
3.060317249037325382e+00 3.400772434473037720e+01 1.460401632415653239e-01
2.793105334974825382e+00 3.437979465723037720e+01 1.535322286712528239e-01
2.501601428724825382e+00 3.456009250879287720e+01 1.586286642181278239e-01
7.708998889662325382e+00 9.811648899316787720e+01 9.790021993743778239e-01
1.919081897474825382e+00 3.506033664941787720e+01 1.707288839446903239e-01
1.594008655287325382e+00 3.489541965723037720e+01 1.721937276946903239e-01
3.183852405287325382e+00 3.042728000879287720e+01 2.204115011321903239e-01
3.409072131849825382e+00 3.432828098535537720e+01 2.896101095306278239e-01
3.063857288099825382e+00 3.402493625879287720e+01 2.870466329681278239e-01
2.805556506849825382e+00 3.448257786035537720e+01 2.976057149993778239e-01
2.613051624037325382e+00 3.569559055566787720e+01 3.213789083587528239e-01
2.254409045912325382e+00 3.526919895410537720e+01 3.166792013275028239e-01
6.699111194349825382e+00 9.727579075098037720e+01 1.409132204257190324e+00
1.527114124037325382e+00 3.386990696191787720e+01 2.974073507415653239e-01
3.976943225599825382e+00 3.619156223535537720e+01 4.698621847259403239e-01
7.256972522474825382e+00 6.455728489160537720e+01 1.088972292147815324e+00
3.067763538099825382e+00 3.404642063379287720e+01 4.275495626556278239e-01
2.807997913099825382e+00 3.449075657129287720e+01 4.397871114837528239e-01
2.600234241224825382e+00 3.554751926660537720e+01 4.655592062103153239e-01
2.001845569349825382e+00 3.234537082910537720e+01 3.974439718353153239e-01
1.772597522474825382e+00 3.311490207910537720e+01 4.168378927337528239e-01
1.533217639662325382e+00 3.393899875879287720e+01 4.383070089446903239e-01
7.755751819349825382e+00 6.367996555566787720e+01 1.343824587069690324e+00
3.636367053724825382e+00 3.609097629785537720e+01 6.200697042571903239e-01
3.073012561537325382e+00 3.407815891504287720e+01 5.692731954681278239e-01
2.914443225599825382e+00 3.547146946191787720e+01 6.086256124603153239e-01
2.574355334974825382e+00 3.526480442285537720e+01 6.055738546478153239e-01
2.007582874037325382e+00 3.239554172754287720e+01 5.313551046478153239e-01
1.713759631849825382e+00 3.233084446191787720e+01 5.318433858978153239e-01
1.586928577162325382e+00 3.472037082910537720e+01 5.982343771087528239e-01
3.779921741224825382e+00 3.473636204004287720e+01 7.262556173431278239e-01
3.586074084974825382e+00 3.568362766504287720e+01 7.579176046478153239e-01
3.079238147474825382e+00 3.411929661035537720e+01 7.108137228118778239e-01
2.605727405287325382e+00 3.257498508691787720e+01 6.649000265228153239e-01
2.612319202162325382e+00 3.564004856348037720e+01 7.627393819915653239e-01
2.047255725599825382e+00 3.283597141504287720e+01 6.772596456634403239e-01
1.706191272474825382e+00 3.221512180566787720e+01 6.605817892181278239e-01
1.552993030287325382e+00 3.419021946191787720e+01 7.248060323821903239e-01
3.934096545912325382e+00 3.584610325098037720e+01 9.101240255462528239e-01
3.600112170912325382e+00 3.578189426660537720e+01 9.092390157806278239e-01
3.086074084974825382e+00 3.416470676660537720e+01 8.536359884368778239e-01
2.589003772474825382e+00 3.240555149316787720e+01 7.927381612884403239e-01
2.342787952162325382e+00 3.284781223535537720e+01 8.105451681243778239e-01
2.019301624037325382e+00 3.249759250879287720e+01 7.999250509368778239e-01
1.702895374037325382e+00 3.215396457910537720e+01 7.895032980071903239e-01
1.562758655287325382e+00 3.431326633691787720e+01 8.700544454681278239e-01
1.660301396623253822e-01 1.361038547754287720e+01 -7.470262430084346761e-01
7.044908497482538223e-02 1.367801243066787720e+01 -7.489946267974971761e-01
-2.659681346267461777e-02 1.374075657129287720e+01 -7.509630105865596761e-01
-1.252296259626746178e-01 1.380459934473037720e+01 -7.529466531646846761e-01
-2.245948603376746178e-01 1.386893039941787720e+01 -7.549608133209346761e-01
-3.251807978376746178e-01 1.393399387598037720e+01 -7.569902322662471761e-01
-4.273536494001746178e-01 1.400052219629287720e+01 -7.590806863678096761e-01
-5.305030634626746178e-01 1.406766086816787720e+01 -7.614457986724971761e-01
2.508690068498253822e-01 1.488760715723037720e+01 -7.608812234771846761e-01
1.436912724748253822e-01 1.497439914941787720e+01 -7.635515115631221761e-01
3.370592091232538223e-02 1.503909641504287720e+01 -7.648942850006221761e-01
-7.798841502517461777e-02 1.509744602441787720e+01 -7.661912820709346761e-01
-1.904151728376746178e-01 1.515616184473037720e+01 -7.675035379303096761e-01
-3.038184931501746178e-01 1.522305637598037720e+01 -7.691667459381221761e-01
-4.189307978376746178e-01 1.528885227441787720e+01 -7.710435769928096761e-01
-5.348975947126746178e-01 1.536429172754287720e+01 -7.730882547271846761e-01
3.381492802873253822e-01 1.619986301660537720e+01 -7.644365213287471761e-01
2.177879521623253822e-01 1.628616672754287720e+01 -7.665422342193721761e-01
9.583970997482538223e-02 1.637356907129287720e+01 -7.686632058990596761e-01
-2.806165721267461777e-02 1.646243625879287720e+01 -7.708299539459346761e-01
-1.533057978376746178e-01 1.655228000879287720e+01 -7.730119607818721761e-01
-2.802589228376746178e-01 1.664334446191787720e+01 -7.752244851959346761e-01
-4.094093134626746178e-01 1.673587375879287720e+01 -7.774675271881221761e-01
-5.397804072126746178e-01 1.682937961816787720e+01 -7.797410867584346761e-01
4.288475224748253822e-01 1.756058079004287720e+01 -7.580278299224971761e-01
2.976219365373253822e-01 1.769546848535537720e+01 -7.610643289459346761e-01
1.634666630998253822e-01 1.782156711816787720e+01 -7.640855691803096761e-01
2.638170216232538223e-02 1.795022922754287720e+01 -7.671525857818721761e-01
-1.126563837751746178e-01 1.808084446191787720e+01 -7.702806375396846761e-01
-2.542579462751746178e-01 1.820816379785537720e+01 -7.732561014068721761e-01
-3.987891962751746178e-01 1.831582981348037720e+01 -7.754533670318721761e-01
-5.450294306501746178e-01 1.841482883691787720e+01 -7.776964090240596761e-01
5.614158818498253822e-01 1.955240207910537720e+01 -7.595689676178096761e-01
4.118797490373253822e-01 1.971451145410537720e+01 -7.630021951568721761e-01
2.579490849748253822e-01 1.984939914941787720e+01 -7.655046365631221761e-01
1.007225224748253822e-01 1.998233371973037720e+01 -7.679002664459346761e-01
-5.845716502517461777e-02 2.011697727441787720e+01 -7.703264139068721761e-01
-2.200782587751746178e-01 2.025369602441787720e+01 -7.727983377349971761e-01
-3.849952509626746178e-01 2.039322239160537720e+01 -7.753160379303096761e-01
-5.519874384626746178e-01 2.053445774316787720e+01 -7.778795144928096761e-01
7.241356084123253822e-01 2.199515110254287720e+01 -7.559373758209346761e-01
5.539695927873253822e-01 2.222574192285537720e+01 -7.598436258209346761e-01
3.787986943498253822e-01 2.244266086816787720e+01 -7.637498758209346761e-01
1.972801396623253822e-01 2.262088352441787720e+01 -7.665269754303096761e-01
1.307603809982538223e-02 2.280179172754287720e+01 -7.693498514068721761e-01
-1.758888056501746178e-01 2.290848118066787720e+01 -7.700517557037471761e-01
-3.675391962751746178e-01 2.301431614160537720e+01 -7.707231424224971761e-01
-5.604102900251746178e-01 2.310745579004287720e+01 -7.714860818756221761e-01
9.366600224748253822e-01 2.518497043848037720e+01 -7.471330545318721761e-01
7.415916630998253822e-01 2.553995090723037720e+01 -7.530229471099971761e-01
5.341942021623253822e-01 2.577530246973037720e+01 -7.560136697662471761e-01
3.215477177873253822e-01 2.601541477441787720e+01 -7.590501687896846761e-01
1.057274052873253822e-01 2.628030735254287720e+01 -7.626207254303096761e-01
-1.142432978376746178e-01 2.661111789941787720e+01 -7.676713846099971761e-01
-3.425147822126746178e-01 2.675784641504287720e+01 -7.683732889068721761e-01
-5.727393915876746178e-01 2.687393528223037720e+01 -7.683732889068721761e-01
1.240004749037325382e+00 2.973953586816787720e+01 -7.356279275787471761e-01
9.947654912248253822e-01 3.001040989160537720e+01 -7.377946756256221761e-01
7.415916630998253822e-01 3.022195774316787720e+01 -7.381151101959346761e-01
4.857322880998253822e-01 3.049722629785537720e+01 -7.402360818756221761e-01
2.271873662248253822e-01 3.083560520410537720e+01 -7.434862039459346761e-01
-3.721693065017461777e-02 3.122122532129287720e+01 -7.475297830474971761e-01
-3.102882197126746178e-01 3.158243137598037720e+01 -7.517106912506221761e-01
-5.894630244001746178e-01 3.198941379785537720e+01 -7.559831521881221761e-01
1.600600452162325382e+00 3.515005832910537720e+01 -6.940019510162471761e-01
1.368788928724825382e+00 3.661563450098037720e+01 -7.115953348053096761e-01
3.565566272474825382e+00 9.099063450098037720e+01 -1.486802854336559676e+00
2.713271350599825382e+00 9.159488254785537720e+01 -1.485460080899059676e+00
4.370262334123253822e-01 3.871207004785537720e+01 -7.299363992584346761e-01
9.059068653732538223e-02 3.888199192285537720e+01 -7.283342264068721761e-01
-2.581641962751746178e-01 3.937161594629287720e+01 -7.311265848053096761e-01
-6.087501337751746178e-01 3.799307590723037720e+01 -7.081315896881221761e-01
1.653701038099825382e+00 3.592398411035537720e+01 -5.571611307037471761e-01
1.370253772474825382e+00 3.661221653223037720e+01 -5.603197000396846761e-01
3.557509631849825382e+00 9.072549778223037720e+01 -1.083482541836559676e+00
2.712172717787325382e+00 9.144681125879287720e+01 -1.080659665859997176e+00
4.387352177873253822e-01 3.871341282129287720e+01 -5.692308328521846761e-01
9.229967091232538223e-02 3.887955051660537720e+01 -5.668809793365596761e-01
-2.563331415876746178e-01 3.936905246973037720e+01 -5.674760721099971761e-01
-7.664649775251746178e-01 8.492019993066787720e+01 -9.814927957428096761e-01
1.602553577162325382e+00 3.513248020410537720e+01 -4.040239236724971761e-01
1.371718616224825382e+00 3.660867649316787720e+01 -4.082811258209346761e-01
3.493544788099825382e+00 8.925809055566787720e+01 -6.743486307037471761e-01
2.942397327162325382e+00 9.762710911035537720e+01 -7.068040750396846761e-01
4.405662724748253822e-01 3.871475559473037720e+01 -4.076707742584346761e-01
9.400865528732538223e-02 3.887710911035537720e+01 -4.045884988678096761e-01
-2.545020869001746178e-01 3.936661106348037720e+01 -4.029710672271846761e-01
-7.692725947126746178e-01 8.700577121973037720e+01 -6.167619607818721761e-01
1.605727405287325382e+00 3.515677219629287720e+01 -2.595842264068721761e-01
1.373183459974825382e+00 3.660513645410537720e+01 -2.570817850006221761e-01
3.484023303724825382e+00 8.896109348535537720e+01 -2.814500711334346761e-01
2.651747913099825382e+00 8.955301243066787720e+01 -2.723710916412471761e-01
4.423973271623253822e-01 3.871622043848037720e+01 -2.469652078521846761e-01
9.571763966232538223e-02 3.887478977441787720e+01 -2.431810281646846761e-01
-2.527931025251746178e-01 3.936416965723037720e+01 -2.393815896881221761e-01
-7.645118525251746178e-01 8.684488254785537720e+01 -2.349717996490596761e-01
1.593398303724825382e+00 3.494864231348037720e+01 -1.150529764068721761e-01
1.374526233412325382e+00 3.660171848535537720e+01 -1.051195047271846761e-01
3.403578967787325382e+00 8.714664036035537720e+01 1.025373556243778239e-01
2.701186389662325382e+00 9.078726536035537720e+01 1.267072774993778239e-01
4.441063115373253822e-01 3.871756321191787720e+01 -8.625964144593467609e-02
9.754869434982538223e-02 3.887234836816787720e+01 -8.181933382874717609e-02
-2.509620478376746178e-01 3.936160618066787720e+01 -7.495287875062217609e-02
-7.585304072126746178e-01 8.631936985254287720e+01 1.456739523040653239e-01
1.595961780287325382e+00 3.496292454004287720e+01 2.865429898375282391e-02
4.256606311537325382e+00 8.741861301660537720e+01 4.810468771087528239e-01
3.449355334974825382e+00 8.803665500879287720e+01 4.952985860931278239e-01
2.619521350599825382e+00 8.843924289941787720e+01 5.078107931243778239e-01
1.728041858412325382e+00 8.670926243066787720e+01 5.014326192962528239e-01
8.862449834123253822e-01 8.585135227441787720e+01 5.025312521087528239e-01
7.289049122482538223e-02 8.701114231348037720e+01 5.218183614837528239e-01
-7.545020869001746178e-01 8.637002903223037720e+01 5.247327901946903239e-01
1.593032092787325382e+00 3.489700657129287720e+01 1.722089864837528239e-01
4.268691272474825382e+00 8.755936008691787720e+01 8.672315694915653239e-01
3.427260608412325382e+00 8.747452121973037720e+01 8.748914816009403239e-01
2.648207874037325382e+00 8.910721164941787720e+01 9.055158712493778239e-01
1.758193225599825382e+00 8.767813450098037720e+01 8.952161886321903239e-01
9.170067021623253822e-01 8.743411594629287720e+01 9.006788351165653239e-01
7.728502247482538223e-02 8.702676731348037720e+01 9.038984396087528239e-01
-7.639015009626746178e-01 9.071280246973037720e+01 9.655134298431278239e-01
1.526015491224825382e+00 3.386954075098037720e+01 2.974073507415653239e-01
1.221694202162325382e+00 3.382364231348037720e+01 2.997114278900028239e-01
3.475722522474825382e+00 8.842117649316787720e+01 1.278318605624377824e+00
2.586928577162325382e+00 8.732278782129287720e+01 1.267362795077502824e+00
1.812270374037325382e+00 8.953970676660537720e+01 1.316053590975940324e+00
9.135887334123253822e-01 8.698074680566787720e+01 1.278394899569690324e+00
7.911607716232538223e-02 8.668924289941787720e+01 1.281675539218127824e+00
-7.498634150251746178e-01 8.763321262598037720e+01 1.307584963046252824e+00
1.531996936537325382e+00 3.393765598535537720e+01 4.382917501556278239e-01
1.226332874037325382e+00 3.387942844629287720e+01 4.393293478118778239e-01
3.986708850599825382e+00 9.923880344629287720e+01 1.909986696444690324e+00
2.622573108412325382e+00 8.817728000879287720e+01 1.670240602694690324e+00
1.792983264662325382e+00 8.866104465723037720e+01 1.689802370272815324e+00
9.165184209123253822e-01 8.690872532129287720e+01 1.658552370272815324e+00
8.741685841232538223e-02 8.726492649316787720e+01 1.675184450350940324e+00
-7.496192744001746178e-01 8.897720676660537720e+01 1.725080690585315324e+00
1.585829944349825382e+00 3.471976047754287720e+01 5.982191183196903239e-01
1.273452014662325382e+00 3.468033176660537720e+01 6.002790548431278239e-01
3.967055530287325382e+00 9.871939426660537720e+01 2.336637697421252824e+00
3.054091663099825382e+00 9.976321750879287720e+01 2.374555788241565324e+00
1.795180530287325382e+00 8.858206516504287720e+01 2.079328737460315324e+00
9.643699834123253822e-01 8.948147922754287720e+01 2.112455568515002824e+00
8.888170216232538223e-02 8.686087375879287720e+01 2.049085817538440324e+00
-7.454688837751746178e-01 8.902151829004287720e+01 2.116972170077502824e+00
1.551894397474825382e+00 3.418960911035537720e+01 7.247907735931278239e-01
1.232558459974825382e+00 3.393521457910537720e+01 7.197706319915653239e-01
9.685203740373253822e-01 3.474661594629287720e+01 7.477094747650028239e-01
3.008437366224825382e+00 9.839517551660537720e+01 2.771726808749377824e+00
1.803115100599825382e+00 8.871963840723037720e+01 2.472913942538440324e+00
9.715721318498253822e-01 8.964712864160537720e+01 2.510954103671252824e+00
9.156724903732538223e-02 8.664810520410537720e+01 2.425382814608752824e+00
-7.415626337751746178e-01 8.918558079004287720e+01 2.515196047030627824e+00
1.561782092787325382e+00 3.431509739160537720e+01 8.701307394134403239e-01
1.229628772474825382e+00 3.385855442285537720e+01 8.558485128509403239e-01
3.947890491224825382e+00 9.810892063379287720e+01 3.188718996249377824e+00
9.657127568498253822e-01 8.904434543848037720e+01 2.884962282382190324e+00
1.118309209123253822e-01 8.891104465723037720e+01 2.888410768710315324e+00
-7.413184931501746178e-01 9.061404758691787720e+01 2.961408815585315324e+00
-5.308692744001746178e-01 1.406851536035537720e+01 -7.614763162506221761e-01
-6.354835322126746178e-01 1.414908176660537720e+01 -7.642991922271846761e-01
-7.431495478376746178e-01 1.428653293848037720e+01 -7.702348611724971761e-01
-8.542335322126746178e-01 1.442947727441787720e+01 -7.763994119537471761e-01
-9.680030634626746178e-01 1.457596164941787720e+01 -7.827318094146846761e-01
-1.085068493150174618e+00 1.472647434473037720e+01 -7.892320535553096761e-01
-1.205796032212674618e+00 1.488199192285537720e+01 -7.959611795318721761e-01
-1.329209118150174618e+00 1.503433567285537720e+01 -8.027665994537471761e-01
-5.352638056501746178e-01 1.536502414941787720e+01 -7.731187723053096761e-01
-6.534278681501746178e-01 1.548831516504287720e+01 -7.776506326568721761e-01
-7.767188837751746178e-01 1.572061496973037720e+01 -7.868364236724971761e-01
-9.051368525251746178e-01 1.595279270410537720e+01 -7.962663553131221761e-01
-1.038193493150174618e+00 1.619339329004287720e+01 -8.060472391021846761e-01
-1.173691540025174618e+00 1.638797336816787720e+01 -8.136766336334346761e-01
-1.313706188462674618e+00 1.658230930566787720e+01 -8.215654275787471761e-01
-1.458237438462674618e+00 1.679141575098037720e+01 -8.297899148834346761e-01
-5.402686884626746178e-01 1.683035618066787720e+01 -7.797868631256221761e-01
-6.732032587751746178e-01 1.697049289941787720e+01 -7.842729471099971761e-01
-8.104102900251746178e-01 1.716910129785537720e+01 -7.911394021881221761e-01
-9.535987665876746178e-01 1.741141086816787720e+01 -7.997606180084346761e-01
-1.101914196275174618e+00 1.766531711816787720e+01 -8.088090799224971761e-01
-1.261215954087674618e+00 1.803006321191787720e+01 -8.223283670318721761e-01
-1.427109508775174618e+00 1.837405735254287720e+01 -8.349321267974971761e-01
-1.598130016587674618e+00 1.869876438379287720e+01 -8.466813943756221761e-01
-5.455177119001746178e-01 1.841580539941787720e+01 -7.777269266021846761e-01
-6.955421259626746178e-01 1.865701633691787720e+01 -7.847307107818721761e-01
-8.528907587751746178e-01 1.899393039941787720e+01 -7.955339334381221761e-01
-1.018173961900174618e+00 1.934781223535537720e+01 -8.068864725006221761e-01
-1.190659313462674618e+00 1.971731907129287720e+01 -8.187425516021846761e-01
-1.371689586900174618e+00 2.010477024316787720e+01 -8.311784646881221761e-01
-1.562485485337674618e+00 2.051358371973037720e+01 -8.443010232818721761e-01
-1.767319469712674618e+00 2.100674778223037720e+01 -8.608110330474971761e-01
-5.525977900251746178e-01 2.053580051660537720e+01 -7.779100320709346761e-01
-7.249610712751746178e-01 2.086770969629287720e+01 -7.868364236724971761e-01
-9.068458369001746178e-01 2.131375461816787720e+01 -7.993333719146846761e-01
-1.100205211900174618e+00 2.181582981348037720e+01 -8.135240457428096761e-01
-1.309799938462674618e+00 2.246805149316787720e+01 -8.323839090240596761e-01
-1.529038219712674618e+00 2.305801731348037720e+01 -8.491228006256221761e-01
-1.755478649400174618e+00 2.356167942285537720e+01 -8.630235574615596761e-01
-1.991806774400174618e+00 2.406900364160537720e+01 -8.769548318756221761e-01
-5.610206415876746178e-01 2.310818821191787720e+01 -7.715013406646846761e-01
-7.647559931501746178e-01 2.385513645410537720e+01 -7.895067117584346761e-01
-9.780128290876746178e-01 2.437100559473037720e+01 -8.015153787506221761e-01
-1.207260875962674618e+00 2.503091770410537720e+01 -8.173387430084346761e-01
-1.442002086900174618e+00 2.552749973535537720e+01 -8.285997293365596761e-01
-1.686753063462674618e+00 2.602200657129287720e+01 -8.396928689849971761e-01
-1.946152477525174618e+00 2.657828098535537720e+01 -8.523424051178096761e-01
-2.223618297837674618e+00 2.723587375879287720e+01 -8.681810281646846761e-01
-5.735938837751746178e-01 2.687491184473037720e+01 -7.683885476959346761e-01
-8.096778681501746178e-01 2.725076633691787720e+01 -7.745378396881221761e-01
-1.059067516587674618e+00 2.786612278223037720e+01 -7.860582254303096761e-01
-1.311875133775174618e+00 2.818826633691787720e+01 -7.907884500396846761e-01
-1.570908336900174618e+00 2.851822239160537720e+01 -7.956560037506221761e-01
-1.853989391587674618e+00 2.917251926660537720e+01 -8.077104471099971761e-01
-2.160630016587674618e+00 2.997549778223037720e+01 -8.229387185943721761e-01
-2.482773571275174618e+00 3.077798801660537720e+01 -8.379991433990596761e-01
-5.904395869001746178e-01 3.199209934473037720e+01 -7.560289285553096761e-01
-8.763282587751746178e-01 3.228445774316787720e+01 -7.583482644928096761e-01
-1.169174938462674618e+00 3.261539036035537720e+01 -7.605913064849971761e-01
-1.468735485337674618e+00 3.291495090723037720e+01 -7.628953836334346761e-01
-1.775864391587674618e+00 3.326651340723037720e+01 -7.660692117584346761e-01
-2.087998180650174618e+00 3.357852512598037720e+01 -7.684495828521846761e-01
-2.406235485337674618e+00 3.386807590723037720e+01 -7.711046121490596761e-01
-2.738022594712674618e+00 3.427310520410537720e+01 -7.750108621490596761e-01
-6.099708369001746178e-01 3.799441868066787720e+01 -7.081315896881221761e-01
-9.568946650251746178e-01 3.838821750879287720e+01 -7.097947976959346761e-01
-1.312119274400174618e+00 3.878934055566787720e+01 -7.114580057037471761e-01
-1.675766735337674618e+00 3.915835911035537720e+01 -7.126024148834346761e-01
-2.140122204087674618e+00 4.169925266504287720e+01 -7.426011941803096761e-01
-2.542343883775174618e+00 4.212271457910537720e+01 -7.440660379303096761e-01
-2.846909313462674618e+00 4.084402805566787720e+01 -7.231004617584346761e-01
-3.243881969712674618e+00 4.118753391504287720e+01 -7.235277078521846761e-01
-7.692725947126746178e-01 8.491592746973037720e+01 -9.814317605865596761e-01
-1.602890758775174618e+00 8.677615696191787720e+01 -9.893510721099971761e-01
-2.561020641587674618e+00 9.235672336816787720e+01 -1.030183591641247176e+00
-1.760239391587674618e+00 4.174441868066787720e+01 -5.726793191803096761e-01
-2.138047008775174618e+00 4.169705539941787720e+01 -5.680711648834346761e-01
-2.540268688462674618e+00 4.212051731348037720e+01 -5.675218484771846761e-01
-2.953354625962674618e+00 4.255520969629287720e+01 -5.669572732818721761e-01
-7.722022822126746178e-01 8.700625950098037720e+01 -6.167467019928096761e-01
-1.595566540025174618e+00 8.654727512598037720e+01 -6.053789041412471761e-01
-2.401596813462674618e+00 8.570865207910537720e+01 -5.924699685943721761e-01
-1.758408336900174618e+00 4.175052219629287720e+01 -3.971269510162471761e-01
-2.135849743150174618e+00 4.169485813379287720e+01 -3.926256082428096761e-01
-2.538071422837674618e+00 4.211819797754287720e+01 -3.900621316803096761e-01
-2.951035290025174618e+00 4.255289036035537720e+01 -3.874223611724971761e-01
-7.673194697126746178e-01 8.684524875879287720e+01 -2.349565408599971761e-01
-1.587998180650174618e+00 8.629751926660537720e+01 -2.255723855865596761e-01
-2.400376110337674618e+00 8.584109836816787720e+01 -2.162950418365596761e-01
-3.326645641587674618e+00 8.897952610254287720e+01 -2.058122537506221761e-01
-2.133774547837674618e+00 4.169266086816787720e+01 -2.181566141021846761e-01
-2.535874157212674618e+00 4.211587864160537720e+01 -2.135942361724971761e-01
-2.948838024400174618e+00 4.255057102441787720e+01 -2.088945291412471761e-01
-7.613380244001746178e-01 8.630899387598037720e+01 1.456434347259403239e-01
-1.580063610337674618e+00 8.602884250879287720e+01 1.538526632415653239e-01
-2.443955211900174618e+00 8.790274387598037720e+01 1.703779317962528239e-01
-3.260971813462674618e+00 8.713565403223037720e+01 1.763441183196903239e-01
-2.131699352525174618e+00 4.169046360254287720e+01 -4.371813753968467609e-02
-2.533798961900174618e+00 4.211368137598037720e+01 -3.714159945374717609e-02
-2.946640758775174618e+00 4.254825168848037720e+01 -2.942065218812217609e-02
-7.608261852525174618e+00 1.009375339150428772e+02 2.919447042571903239e-01
-7.573097040876746178e-01 8.636636692285537720e+01 5.247327901946903239e-01
-1.572129040025174618e+00 8.574844700098037720e+01 5.286542989837528239e-01
-2.435654430650174618e+00 8.773453098535537720e+01 5.570051290618778239e-01
-3.245468883775174618e+00 8.679825168848037720e+01 5.579511739837528239e-01
-4.081162243150174618e+00 8.694864231348037720e+01 5.691511251556278239e-01
-4.978745250962674618e+00 8.819375950098037720e+01 5.911085226165653239e-01
-5.785141735337674618e+00 8.754544407129287720e+01 5.946485616790653239e-01
-6.569443493150174618e+00 8.680337864160537720e+01 5.970747091400028239e-01
-7.668311884626746178e-01 9.072207981348037720e+01 9.656660177337528239e-01
-1.621811657212674618e+00 8.984549289941787720e+01 9.616987325775028239e-01
-2.433579235337674618e+00 8.783108860254287720e+01 9.437086202728153239e-01
-3.399765758775174618e+00 9.159231907129287720e+01 1.006925783358752824e+00
-4.123154430650174618e+00 8.802481418848037720e+01 9.665357687103153239e-01
-4.950913219712674618e+00 8.775503879785537720e+01 9.727003194915653239e-01
-5.781601696275174618e+00 8.756106907129287720e+01 9.799482442962528239e-01
-6.559067516587674618e+00 8.672281223535537720e+01 9.797498800384403239e-01
-7.527931025251746178e-01 8.763296848535537720e+01 1.307600221835315324e+00
-1.601914196275174618e+00 8.867227512598037720e+01 1.336958131991565324e+00
-2.558335094712674618e+00 9.343802219629287720e+01 1.435957155429065324e+00
-4.113022594712674618e+00 8.789200168848037720e+01 1.353056154452502824e+00
-4.971421032212674618e+00 8.822488743066787720e+01 1.369550905429065324e+00
-6.502060680650174618e+00 9.906412082910537720e+01 1.586942873202502824e+00
-6.734848766587674618e+00 8.919046360254287720e+01 1.408628664218127824e+00
-7.525489619001746178e-01 8.897525364160537720e+01 1.725065431796252824e+00
-1.626206188462674618e+00 9.086758762598037720e+01 1.777082643710315324e+00
-2.613510875962674618e+00 9.604263645410537720e+01 1.907850465975940324e+00
-3.254868297837674618e+00 8.747671848535537720e+01 1.719358644686877824e+00
-2.166489391587674618e+00 4.268497043848037720e+01 6.791059591400028239e-01
-2.555893688462674618e+00 4.268497043848037720e+01 6.838972189056278239e-01
-5.845322399400174618e+00 8.871390110254287720e+01 1.779554567538440324e+00
-6.768418102525174618e+00 8.971377903223037720e+01 1.815931520663440324e+00
-7.482765009626746178e-01 8.901626926660537720e+01 2.116850099765002824e+00
-1.701401500962674618e+00 9.700992161035537720e+01 2.348798952304065324e+00
-2.612656383775174618e+00 9.621072727441787720e+01 2.338163576327502824e+00
-3.255722790025174618e+00 8.763760715723037720e+01 2.110151491366565324e+00
-2.164414196275174618e+00 4.268497043848037720e+01 8.590070821868778239e-01
-2.553818493150174618e+00 4.268497043848037720e+01 8.638593771087528239e-01
-6.778794079087674618e+00 8.991910129785537720e+01 2.216871462069690324e+00
-7.444923212751746178e-01 8.918436008691787720e+01 2.515180788241565324e+00
-1.602402477525174618e+00 8.973074680566787720e+01 2.543592653475940324e+00
-2.449082165025174618e+00 8.927347141504287720e+01 2.537504396640002824e+00
-3.408188610337674618e+00 9.240677219629287720e+01 2.650221071444690324e+00
-2.162339000962674618e+00 4.268497043848037720e+01 1.037946901522815324e+00
-2.551743297837674618e+00 4.268497043848037720e+01 1.042875490390002824e+00
-5.701279430650174618e+00 8.656656223535537720e+01 2.493711672030627824e+00
-6.504502086900174618e+00 8.621829563379287720e+01 2.492674074374377824e+00
-7.442481806501746178e-01 9.060684543848037720e+01 2.961164674960315324e+00
-1.598984508775174618e+00 8.980411106348037720e+01 2.940519533358752824e+00
-2.556504040025174618e+00 9.417447239160537720e+01 3.113249025546252824e+00
-3.547714977525174618e+00 9.680008274316787720e+01 3.222349367343127824e+00
-2.160263805650174618e+00 4.268497043848037720e+01 1.217832765780627824e+00
-2.549668102525174618e+00 4.268497043848037720e+01 1.222822389804065324e+00
-5.824082165025174618e+00 8.859341770410537720e+01 2.950224123202502824e+00
-6.573471813462674618e+00 8.722586399316787720e+01 2.911665163241565324e+00
-1.329697399400174618e+00 1.503543430566787720e+01 -8.028276346099971761e-01
-1.457382946275174618e+00 1.520120579004287720e+01 -8.100603006256221761e-01
-1.592026500962674618e+00 1.540176731348037720e+01 -8.192918680084346761e-01
-1.747055797837674618e+00 1.575369602441787720e+01 -8.360155008209346761e-01
-1.913803844712674618e+00 1.614761692285537720e+01 -8.547532937896846761e-01
-2.081040172837674618e+00 1.647842746973037720e+01 -8.703325174224971761e-01
-2.269638805650174618e+00 1.691385227441787720e+01 -8.910386941803096761e-01
-2.481552868150174618e+00 1.745047336816787720e+01 -9.170244119537471761e-01
-1.458725719712674618e+00 1.679275852441787720e+01 -8.298356912506221761e-01
-1.607407360337674618e+00 1.699832493066787720e+01 -8.382280252349971761e-01
-1.785019665025174618e+00 1.746524387598037720e+01 -8.580339334381221761e-01
-1.975449352525174618e+00 1.795755344629287720e+01 -8.792283914459346761e-01
-2.172226696275174618e+00 1.841958957910537720e+01 -8.990037820709346761e-01
-2.365830211900174618e+00 1.877859836816787720e+01 -9.140794656646846761e-01
-2.563706188462674618e+00 1.910843235254287720e+01 -9.281938455474971761e-01
-2.780625133775174618e+00 1.952627903223037720e+01 -9.458177469146846761e-01
-1.598740368150174618e+00 1.870059543848037720e+01 -8.467576883209346761e-01
-1.784653454087674618e+00 1.912198215723037720e+01 -8.627183816803096761e-01
-1.979111461900174618e+00 1.954141575098037720e+01 -8.785570047271846761e-01
-2.187363415025174618e+00 2.000369602441787720e+01 -8.960588357818721761e-01
-2.411728649400174618e+00 2.052786594629287720e+01 -9.159868142974971761e-01
-2.673935680650174618e+00 2.126871067285537720e+01 -9.445512674224971761e-01
-2.928696422837674618e+00 2.183426243066787720e+01 -9.659440896881221761e-01
-3.224228649400174618e+00 2.260464817285537720e+01 -9.954851053131221761e-01
-1.768173961900174618e+00 2.100992161035537720e+01 -8.609178445709346761e-01
-2.000962047837674618e+00 2.171573215723037720e+01 -8.844774148834346761e-01
-2.249985485337674618e+00 2.244046360254287720e+01 -9.090440652740596761e-01
-2.488632946275174618e+00 2.291421848535537720e+01 -9.244859598053096761e-01
-2.757065563462674618e+00 2.356680637598037720e+01 -9.462449930084346761e-01
-3.050034313462674618e+00 2.430850559473037720e+01 -9.710863016021846761e-01
-3.349106579087674618e+00 2.497464329004287720e+01 -9.930894754303096761e-01
-3.655014782212674618e+00 2.559646946191787720e+01 -1.013978757656872176e+00
-1.992661266587674618e+00 2.407181125879287720e+01 -8.770311258209346761e-01
-2.252671032212674618e+00 2.473672825098037720e+01 -8.961503885162471761e-01
-2.506821422837674618e+00 2.519241672754287720e+01 -9.086168191803096761e-01
-2.800766735337674618e+00 2.593094211816787720e+01 -9.298112771881221761e-01
-3.098130016587674618e+00 2.657156711816787720e+01 -9.478319070709346761e-01
-3.416855602525174618e+00 2.727701145410537720e+01 -9.677598855865596761e-01
-3.750107555650174618e+00 2.797305637598037720e+01 -9.872606180084346761e-01
-4.114121227525174618e+00 2.878714329004287720e+01 -1.010286130703747176e+00
-2.224716930650174618e+00 2.724026829004287720e+01 -8.682878396881221761e-01
-2.514755993150174618e+00 2.788467746973037720e+01 -8.828142068756221761e-01
-2.819931774400174618e+00 2.854849582910537720e+01 -8.983323953521846761e-01
-3.144150524400174618e+00 2.925369602441787720e+01 -9.148118875396846761e-01
-3.486923961900174618e+00 2.999917942285537720e+01 -9.322221658599971761e-01
-3.866684704087674618e+00 3.091678196191787720e+01 -9.540422342193721761e-01
-4.214951305650174618e+00 3.145047336816787720e+01 -9.655931375396846761e-01
-4.567246227525174618e+00 3.193863254785537720e+01 -9.765489480865596761e-01
-2.483872204087674618e+00 3.078201633691787720e+01 -8.380754373443721761e-01
-2.810166149400174618e+00 3.143692356348037720e+01 -8.500078103912471761e-01
-3.143418102525174618e+00 3.201980930566787720e+01 -8.602159402740596761e-01
-3.486435680650174618e+00 3.256778293848037720e+01 -8.695390603912471761e-01
-3.835190563462674618e+00 3.307352024316787720e+01 -8.778398416412471761e-01
-4.202988415025174618e+00 3.364480930566787720e+01 -8.874681375396846761e-01
-4.589340954087674618e+00 3.425479465723037720e+01 -8.977983377349971761e-01
-4.978989391587674618e+00 3.480533176660537720e+01 -9.067399881256221761e-01
-2.739121227525174618e+00 3.427530246973037720e+01 -7.750413797271846761e-01
-3.073227672837674618e+00 3.460489231348037720e+01 -7.777727029693721761e-01
-3.416611461900174618e+00 3.495743137598037720e+01 -7.800767801178096761e-01
-3.776108532212674618e+00 3.537845188379287720e+01 -7.842271707428096761e-01
-4.181870250962674618e+00 3.613614231348037720e+01 -7.940843484771846761e-01
-4.558213024400174618e+00 3.652713352441787720e+01 -7.975175760162471761e-01
-4.948960094712674618e+00 3.695267063379287720e+01 -8.022630594146846761e-01
-5.377548961900174618e+00 3.758340793848037720e+01 -8.095872781646846761e-01
-3.245224743150174618e+00 4.118997532129287720e+01 -7.235429666412471761e-01
-3.639267711900174618e+00 4.140957981348037720e+01 -7.224748514068721761e-01
-4.053330211900174618e+00 4.178616672754287720e+01 -7.233446023834346761e-01
-4.478012829087674618e+00 4.217239719629287720e+01 -7.242448709381221761e-01
-4.912216930650174618e+00 4.257876926660537720e+01 -7.253129861724971761e-01
-5.353867321275174618e+00 4.297098118066787720e+01 -7.261217019928096761e-01
-5.796616344712674618e+00 4.329605442285537720e+01 -7.259843728912471761e-01
-6.229355602525174618e+00 4.350931125879287720e+01 -7.244279764068721761e-01
-8.666123180650174618e+00 9.118387180566787720e+01 -9.521501443756221761e-01
-4.677719860337674618e+00 4.412186008691787720e+01 -5.625322244537471761e-01
-5.124741344712674618e+00 4.446829563379287720e+01 -5.608384988678096761e-01
-5.580551891587674618e+00 4.482144504785537720e+01 -5.591295144928096761e-01
-1.292833021190017462e+01 9.659219700098037720e+01 -9.554765603912471761e-01
-7.762680797837674618e+00 9.093790012598037720e+01 -5.561998269928096761e-01
-8.545761852525174618e+00 8.994522434473037720e+01 -5.426957986724971761e-01
-4.675278454087674618e+00 4.412002903223037720e+01 -3.750932596099971761e-01
-5.122299938462674618e+00 4.446646457910537720e+01 -3.715989969146846761e-01
-5.577988415025174618e+00 4.481961399316787720e+01 -3.680436990631221761e-01
-1.296153333690017462e+01 9.687942844629287720e+01 -5.244157693756221761e-01
-7.646958141587674618e+00 8.960599094629287720e+01 -1.561296365631221761e-01
-8.785507946275174618e+00 9.256436496973037720e+01 -1.427781961334346761e-01
-4.672837047837674618e+00 4.411819797754287720e+01 -1.886766336334346761e-01
-5.119858532212674618e+00 4.446451145410537720e+01 -1.833818338287471761e-01
-5.575547008775174618e+00 4.481766086816787720e+01 -1.779954812896846761e-01
-1.240647962596267462e+01 9.276773411035537720e+01 -9.974841097718467609e-02
-1.252525404002517462e+01 8.731155735254287720e+01 -9.799365023499717609e-02
-7.611679821275174618e+00 1.009403415322303772e+02 2.919904806243778239e-01
-7.665512829087674618e+00 8.988492161035537720e+01 2.426893331634403239e-01
-9.556870250962674618e+00 1.008879733681678772e+02 3.134595968353153239e-01
-4.671982555650174618e+00 4.413089329004287720e+01 -2.214231289684676085e-03
-5.120713024400174618e+00 4.449258762598037720e+01 4.972658358752823915e-03
-1.084495618846267462e+01 8.749270969629287720e+01 2.691785909759403239e-01
-1.140184095408767462e+01 8.529068332910537720e+01 2.681867696868778239e-01
-1.393040540721267462e+01 9.711429172754287720e+01 3.529493429290653239e-01
-6.572251110337674618e+00 8.680350071191787720e+01 5.971052267181278239e-01
-7.501450329087674618e+00 8.796780735254287720e+01 6.196424581634403239e-01
-9.501206188462674618e+00 1.003475680947303772e+02 7.577802755462528239e-01
-9.664902477525174618e+00 9.248819309473037720e+01 6.885511495696903239e-01
-9.711411266587674618e+00 8.500369602441787720e+01 6.211988546478153239e-01
-1.186412122752517462e+01 9.578470188379287720e+01 7.467939474212528239e-01
-1.139024427440017462e+01 8.523758274316787720e+01 6.449415304290653239e-01
-1.254283216502517462e+01 8.749954563379287720e+01 6.803266622650028239e-01
-6.561753063462674618e+00 8.672134739160537720e+01 9.797651388275028239e-01
-7.385971813462674618e+00 8.663296848535537720e+01 9.875318624603153239e-01
-8.481308727525174618e+00 8.945547825098037720e+01 1.040662965975940324e+00
-9.604233532212674618e+00 9.194705539941787720e+01 1.089658937655627824e+00
-9.790024547837674618e+00 8.573599582910537720e+01 1.007459840975940324e+00
-1.184214857127517462e+01 9.564786106348037720e+01 1.170057497225940324e+00
-1.154563978221267462e+01 8.643509250879287720e+01 1.040464601718127824e+00
-1.266771009471267462e+01 8.840127903223037720e+01 1.084379396640002824e+00
-6.738266735337674618e+00 8.919815403223037720e+01 1.408796510897815324e+00
-7.365708141587674618e+00 8.644314914941787720e+01 1.367307863436877824e+00
-8.760971813462674618e+00 9.250845676660537720e+01 1.497160158358752824e+00
-9.609116344712674618e+00 9.204153782129287720e+01 1.500410280429065324e+00
-9.865708141587674618e+00 8.644498020410537720e+01 1.402021608554065324e+00
-1.045384290721267462e+01 8.443570286035537720e+01 1.373579225741565324e+00
-1.150914075877517462e+01 8.619656711816787720e+01 1.420286379061877824e+00
-1.220896986033767462e+01 8.524136692285537720e+01 1.412595949374377824e+00
-6.771836071275174618e+00 8.972171360254287720e+01 1.816145143710315324e+00
-7.641953258775174618e+00 8.982425266504287720e+01 1.828855714999377824e+00
-8.870346813462674618e+00 9.373709446191787720e+01 1.935621462069690324e+00
-9.731064586900174618e+00 9.327151829004287720e+01 1.937376222811877824e+00
-5.163071422837674618e+00 4.494571262598037720e+01 7.712080099212528239e-01
-1.074656751658767462e+01 8.684634739160537720e+01 1.805647096835315324e+00
-1.136314466502517462e+01 8.513663059473037720e+01 1.775556764804065324e+00
-1.304551771190017462e+01 9.109830051660537720e+01 1.937666139804065324e+00
-6.781845836900174618e+00 8.992142063379287720e+01 2.216963014804065324e+00
-7.991196422837674618e+00 8.433475071191787720e+01 2.082105837069690324e+00
-8.854111461900174618e+00 8.481106907129287720e+01 2.107969484530627824e+00
-5.160752086900174618e+00 4.494595676660537720e+01 9.625837423431278239e-01
-1.066722181346267462e+01 8.624026829004287720e+01 2.174009523593127824e+00
-1.143211439158767462e+01 8.568802219629287720e+01 2.170271120272815324e+00
-1.219981458690017462e+01 8.524136692285537720e+01 2.169462404452502824e+00
-6.507065563462674618e+00 8.621561008691787720e+01 2.492613039218127824e+00
-7.320542125962674618e+00 8.605948215723037720e+01 2.500120363436877824e+00
-8.436020641587674618e+00 8.916800266504287720e+01 2.614423952304065324e+00
-9.704209118150174618e+00 9.310501438379287720e+01 2.759535036288440324e+00
-5.158554821275174618e+00 4.494632297754287720e+01 1.152921877108752824e+00
-1.066551282908767462e+01 8.626260715723037720e+01 2.555937013827502824e+00
-1.193577650096267462e+01 8.949942356348037720e+01 2.680860719882190324e+00
-1.245506361033767462e+01 8.705191379785537720e+01 2.610670290194690324e+00
-7.276352672837674618e+00 9.683780246973037720e+01 3.273771486483752824e+00
-8.595932750962674618e+00 1.015080905556678772e+02 3.462843141757190324e+00
-8.634140758775174618e+00 9.135123020410537720e+01 3.092802248202502824e+00
-9.902939586900174618e+00 8.693497043848037720e+01 2.951765260897815324e+00
-1.061314466502517462e+01 8.587552219629287720e+01 2.924360475741565324e+00
-1.181187513377517462e+01 8.860574680566787720e+01 3.042982301913440324e+00
-1.245152357127517462e+01 8.706082493066787720e+01 2.998823366366565324e+00
-2.482651500962674618e+00 1.745425754785537720e+01 -9.172075174224971761e-01
-2.721665172837674618e+00 1.809256321191787720e+01 -9.479082010162471761e-01
-2.923203258775174618e+00 1.842142063379287720e+01 -9.636247537506221761e-01
-3.129990368150174618e+00 1.873562961816787720e+01 -9.785936258209346761e-01
-3.345810680650174618e+00 1.906351047754287720e+01 -9.942186258209346761e-01
-3.514511852525174618e+00 1.911331516504287720e+01 -9.961412332428096761e-01
-3.561630993150174618e+00 1.856302219629287720e+01 -9.685075662506221761e-01
-3.605332165025174618e+00 1.805020481348037720e+01 -9.431322000396846761e-01
-2.781601696275174618e+00 1.952908664941787720e+01 -9.459398172271846761e-01
-3.044663219712674618e+00 2.018606907129287720e+01 -9.746415994537471761e-01
-3.295639782212674618e+00 2.068545871973037720e+01 -9.958207986724971761e-01
-3.426621227525174618e+00 2.043374973535537720e+01 -9.838426492584346761e-01
-3.473496227525174618e+00 1.975686985254287720e+01 -9.529436014068721761e-01
-3.523667125962674618e+00 1.916470676660537720e+01 -9.258745096099971761e-01
-3.570542125962674618e+00 1.861062961816787720e+01 -9.009111307037471761e-01
-3.614243297837674618e+00 1.809488254785537720e+01 -8.773210428131221761e-01
-3.225571422837674618e+00 2.260940891504287720e+01 -9.956682107818721761e-01
-3.434311657212674618e+00 2.271280246973037720e+01 -9.988420389068721761e-01
-3.418076305650174618e+00 2.143399387598037720e+01 -9.466874978912471761e-01
-3.426865368150174618e+00 2.044119602441787720e+01 -9.060991189849971761e-01
-3.482773571275174618e+00 1.981216770410537720e+01 -8.801134012115596761e-01
-3.576401500962674618e+00 1.943887668848037720e+01 -8.643968484771846761e-01
-3.744736461900174618e+00 1.945987278223037720e+01 -8.644121072662471761e-01
-6.023667125962674618e+00 2.922745090723037720e+01 -1.251878537930309676e+00
-3.656479625962674618e+00 2.560135227441787720e+01 -1.014146604336559676e+00
-3.452500133775174618e+00 2.283731418848037720e+01 -9.144456766021846761e-01
-3.461411266587674618e+00 2.170352512598037720e+01 -8.732164285553096761e-01
-3.653427868150174618e+00 2.174063450098037720e+01 -8.734453103912471761e-01
-5.063828258775174618e+00 2.834744602441787720e+01 -1.105058469570934676e+00
-5.406235485337674618e+00 2.879581028223037720e+01 -1.119325437344372176e+00
-6.105210094712674618e+00 3.092019993066787720e+01 -1.192369260586559676e+00
-6.461411266587674618e+00 3.125686985254287720e+01 -1.203187742031872176e+00
-4.115708141587674618e+00 2.879190403223037720e+01 -1.010423459805309676e+00
-3.777695446275174618e+00 2.494900852441787720e+01 -8.904893777740596761e-01
-4.638901500962674618e+00 2.885879856348037720e+01 -1.009050168789684676e+00
-5.261826305650174618e+00 3.093790012598037720e+01 -1.071000852383434676e+00
-5.636704235337674618e+00 3.144742161035537720e+01 -1.084703244961559676e+00
-6.000107555650174618e+00 3.183926731348037720e+01 -1.094728269375622176e+00
-6.376572399400174618e+00 3.224515110254287720e+01 -1.105134763516247176e+00
-6.993759899400174618e+00 3.372427707910537720e+01 -1.148042478359997176e+00
-4.568833141587674618e+00 3.194229465723037720e+01 -9.766405008209346761e-01
-4.377548961900174618e+00 2.884146457910537720e+01 -8.928544900787471761e-01
-4.834091930650174618e+00 3.005276829004287720e+01 -9.224565408599971761e-01
-5.546860485337674618e+00 3.257620579004287720e+01 -9.859025857818721761e-01
-5.992050915025174618e+00 3.337442356348037720e+01 -1.004319944180309676e+00
-6.471054821275174618e+00 3.425589329004287720e+01 -1.024751462734997176e+00
-6.977646618150174618e+00 3.517215305566787720e+01 -1.045930661953747176e+00
-7.393540172837674618e+00 3.558047825098037720e+01 -1.054750242031872176e+00
-4.980698375962674618e+00 3.480972629785537720e+01 -9.068315408599971761e-01
-5.378159313462674618e+00 3.533194309473037720e+01 -9.154069803131221761e-01
-5.766587047837674618e+00 3.572745090723037720e+01 -9.211748025787471761e-01
-6.174912243150174618e+00 3.617740207910537720e+01 -9.280259988678096761e-01
