2.280219609849154949e+00 2.924641066789627075e+01 -5.058365084929334898e-01
2.032294805161654949e+00 2.937324172258377075e+01 -5.041733004851209898e-01
6.869575078599154949e+00 8.826350051164627075e+01 -1.101234457711683490e+00
1.896186406724154949e+00 3.442060500383377075e+01 -5.490799166960584898e-01
1.667060430161654949e+00 3.564350539445877075e+01 -5.577316500944959898e-01
3.174995000474154949e+00 3.004072219133377075e+01 -3.994217135710584898e-01
3.025092656724154949e+00 3.098530226945877075e+01 -4.021530368132459898e-01
2.665839727036654949e+00 3.029731398820877075e+01 -3.950576998991834898e-01
2.344428594224154949e+00 2.983637648820877075e+01 -3.894119479460584898e-01
2.493232305161654949e+00 3.412885695695877075e+01 -4.108658053679334898e-01
2.223212773911654949e+00 3.457526808977127075e+01 -4.099807956023084898e-01
1.904365117661654949e+00 3.450837355852127075e+01 -4.061966159148084898e-01
1.616401250474154949e+00 3.485749465227127075e+01 -4.046554782194959898e-01
3.177436406724154949e+00 3.004963332414627075e+01 -2.762222506804334898e-01
3.095771367661654949e+00 3.153144484758377075e+01 -2.754440524382459898e-01
2.580756719224154949e+00 2.955805617570877075e+01 -2.699508883757459898e-01
2.329169805161654949e+00 2.968207961320877075e+01 -2.673263766569959898e-01
2.495551641099154949e+00 3.413813430070877075e+01 -2.693252780241834898e-01
2.201484258286654949e+00 3.430732375383377075e+01 -2.662582614226209898e-01
1.912665898911654949e+00 3.459626418352127075e+01 -2.632675387663709898e-01
1.619575078599154949e+00 3.488178664445877075e+01 -2.602157809538709898e-01
3.179877812974154949e+00 3.005817824602127075e+01 -1.522751071257459898e-01
3.097114141099154949e+00 3.153168898820877075e+01 -1.447830416960584898e-01
2.841132695786654949e+00 3.177460891008377075e+01 -1.418228366179334898e-01
2.642890508286654949e+00 3.260664016008377075e+01 -1.361007907194959898e-01
2.498603398911654949e+00 3.415412551164627075e+01 -1.276931979460584898e-01
2.179023320786654949e+00 3.403193312883377075e+01 -1.250534274382459898e-01
1.948798711411654949e+00 3.504755812883377075e+01 -1.173935153288709898e-01
1.607123906724154949e+00 3.467219191789627075e+01 -1.156845309538709898e-01
3.181220586411654949e+00 3.005866652727127075e+01 -2.898409150074598983e-02
3.098456914536654949e+00 3.153205519914627075e+01 -1.480867646168348983e-02
2.842109258286654949e+00 3.177070266008377075e+01 -1.020052216480848983e-02
2.643867070786654949e+00 3.260248976945877075e+01 -7.553317351209898334e-04
2.495429570786654949e+00 3.410566359758377075e+01 1.432035185862901017e-02
2.185004766099154949e+00 3.408295851945877075e+01 1.706693388987901017e-02
1.914863164536654949e+00 3.458491164445877075e+01 2.420804717112901017e-02
1.675117070786654949e+00 3.566767531633377075e+01 3.632352568675401017e-02
3.185737187974154949e+00 3.008210402727127075e+01 9.523771025706651017e-02
3.333442266099154949e+00 3.336945754289627075e+01 1.381149075226915102e-01
3.072944219224154949e+00 3.373176223039627075e+01 1.454238674836290102e-01
2.805732305161654949e+00 3.410383254289627075e+01 1.529159329133165102e-01
2.514228398911654949e+00 3.428413039445877075e+01 1.580123684601915102e-01
7.721625859849154949e+00 9.784052687883377075e+01 9.783859036164415102e-01
1.931708867661654949e+00 3.478437453508377075e+01 1.701125881867540102e-01
1.606635625474154949e+00 3.461945754289627075e+01 1.715774319367540102e-01
3.196479375474154949e+00 3.015131789445877075e+01 2.197952053742540102e-01
3.421699102036654949e+00 3.405231887102127075e+01 2.889938137726915102e-01
3.076484258286654949e+00 3.374897414445877075e+01 2.864303372101915102e-01
2.818183477036654949e+00 3.420661574602127075e+01 2.969894192414415102e-01
2.625678594224154949e+00 3.541962844133377075e+01 3.207626126008165102e-01
2.267036016099154949e+00 3.499323683977127075e+01 3.160629055695665102e-01
6.711738164536654949e+00 9.699982863664627075e+01 1.408515908499254010e+00
1.539741094224154949e+00 3.359394484758377075e+01 2.967910549836290102e-01
3.989570195786654949e+00 3.591560012102127075e+01 4.692458889680040102e-01
7.269599492661654949e+00 6.428132277727127075e+01 1.088355996389879010e+00
3.080390508286654949e+00 3.377045851945877075e+01 4.269332668976915102e-01
2.820624883286654949e+00 3.421479445695877075e+01 4.391708157258165102e-01
2.612861211411654949e+00 3.527155715227127075e+01 4.649429104523790102e-01
2.014472539536654949e+00 3.206940871477127075e+01 3.968276760773790102e-01
1.785224492661654949e+00 3.283893996477127075e+01 4.162215969758165102e-01
1.545844609849154949e+00 3.366303664445877075e+01 4.376907131867540102e-01
7.768378789536654949e+00 6.340400344133377075e+01 1.343208291311754010e+00
3.648994023911654949e+00 3.581501418352127075e+01 6.194534084992540102e-01
3.085639531724154949e+00 3.380219680070877075e+01 5.686568997101915102e-01
2.927070195786654949e+00 3.519550734758377075e+01 6.080093167023790102e-01
2.586982305161654949e+00 3.498884230852127075e+01 6.049575588898790102e-01
2.020209844224154949e+00 3.211957961320877075e+01 5.307388088898790102e-01
1.726386602036654949e+00 3.205488234758377075e+01 5.312270901398790102e-01
1.599555547349154949e+00 3.444440871477127075e+01 5.976180813508165102e-01
3.792548711411654949e+00 3.446039992570877075e+01 7.256393215851915102e-01
3.598701055161654949e+00 3.540766555070877075e+01 7.573013088898790102e-01
3.091865117661654949e+00 3.384333449602127075e+01 7.101974270539415102e-01
2.618354375474154949e+00 3.229902297258377075e+01 6.642837307648790102e-01
2.624946172349154949e+00 3.536408644914627075e+01 7.621230862336290102e-01
2.059882695786654949e+00 3.256000930070877075e+01 6.766433499055040102e-01
1.718818242661654949e+00 3.193915969133377075e+01 6.599654934601915102e-01
1.565620000474154949e+00 3.391425734758377075e+01 7.241897366242540102e-01
3.946723516099154949e+00 3.557014113664627075e+01 9.095077297883165102e-01
3.612739141099154949e+00 3.550593215227127075e+01 9.086227200226915102e-01
3.098701055161654949e+00 3.388874465227127075e+01 8.530196926789415102e-01
2.601630742661654949e+00 3.212958937883377075e+01 7.921218655305040102e-01
2.355414922349154949e+00 3.257185012102127075e+01 8.099288723664415102e-01
2.031928594224154949e+00 3.222163039445877075e+01 7.993087551789415102e-01
1.715522344224154949e+00 3.187800246477127075e+01 7.888870022492540102e-01
1.575385625474154949e+00 3.403730422258377075e+01 8.694381497101915102e-01
1.786571098491549492e-01 1.333442336320877075e+01 -7.476425387663709898e-01
8.307605516165494919e-02 1.340205031633377075e+01 -7.496109225554334898e-01
-1.396984327584505081e-02 1.346479445695877075e+01 -7.515793063444959898e-01
-1.126026557758450508e-01 1.352863723039627075e+01 -7.535629489226209898e-01
-2.119678901508450508e-01 1.359296828508377075e+01 -7.555771090788709898e-01
-3.125538276508450508e-01 1.365803176164627075e+01 -7.576065280241834898e-01
-4.147266792133450508e-01 1.372456008195877075e+01 -7.596969821257459898e-01
-5.178760932758450508e-01 1.379169875383377075e+01 -7.620620944304334898e-01
2.634959770366549492e-01 1.461164504289627075e+01 -7.614975192351209898e-01
1.563182426616549492e-01 1.469843703508377075e+01 -7.641678073210584898e-01
4.633289109915494919e-02 1.476313430070877075e+01 -7.655105807585584898e-01
-6.536144483834505081e-02 1.482148391008377075e+01 -7.668075778288709898e-01
-1.777882026508450508e-01 1.488019973039627075e+01 -7.681198336882459898e-01
-2.911915229633450508e-01 1.494709426164627075e+01 -7.697830416960584898e-01
-4.063038276508450508e-01 1.501289016008377075e+01 -7.716598727507459898e-01
-5.222706245258450508e-01 1.508832961320877075e+01 -7.737045504851209898e-01
3.507762504741549492e-01 1.592390090227127075e+01 -7.650528170866834898e-01
2.304149223491549492e-01 1.601020461320877075e+01 -7.671585299773084898e-01
1.084666801616549492e-01 1.609760695695877075e+01 -7.692795016569959898e-01
-1.543468702584505081e-02 1.618647414445877075e+01 -7.714462497038709898e-01
-1.406788276508450508e-01 1.627631789445877075e+01 -7.736282565398084898e-01
-2.676319526508450508e-01 1.636738234758377075e+01 -7.758407809538709898e-01
-3.967823432758450508e-01 1.645991164445877075e+01 -7.780838229460584898e-01
-5.271534370258450508e-01 1.655341750383377075e+01 -7.803573825163709898e-01
4.414744926616549492e-01 1.728461867570877075e+01 -7.586441256804334898e-01
3.102489067241549492e-01 1.741950637102127075e+01 -7.616806247038709898e-01
1.760936332866549492e-01 1.754560500383377075e+01 -7.647018649382459898e-01
3.900867234915494919e-02 1.767426711320877075e+01 -7.677688815398084898e-01
-1.000294135883450508e-01 1.780488234758377075e+01 -7.708969332976209898e-01
-2.416309760883450508e-01 1.793220168352127075e+01 -7.738723971648084898e-01
-3.861622260883450508e-01 1.803986769914627075e+01 -7.760696627898084898e-01
-5.324024604633450508e-01 1.813886672258377075e+01 -7.783127047819959898e-01
5.740428520366549492e-01 1.927643996477127075e+01 -7.601852633757459898e-01
4.245067192241549492e-01 1.943854933977127075e+01 -7.636184909148084898e-01
2.705760551616549492e-01 1.957343703508377075e+01 -7.661209323210584898e-01
1.133494926616549492e-01 1.970637160539627075e+01 -7.685165622038709898e-01
-4.583019483834505081e-02 1.984101516008377075e+01 -7.709427096648084898e-01
-2.074512885883450508e-01 1.997773391008377075e+01 -7.734146334929334898e-01
-3.723682807758450508e-01 2.011726027727127075e+01 -7.759323336882459898e-01
-5.393604682758450508e-01 2.025849562883377075e+01 -7.784958102507459898e-01
7.367625785991549492e-01 2.171918898820877075e+01 -7.565536715788709898e-01
5.665965629741549492e-01 2.194977980852127075e+01 -7.604599215788709898e-01
3.914256645366549492e-01 2.216669875383377075e+01 -7.643661715788709898e-01
2.099071098491549492e-01 2.234492141008377075e+01 -7.671432711882459898e-01
2.570300828665494919e-02 2.252582961320877075e+01 -7.699661471648084898e-01
-1.632618354633450508e-01 2.263251906633377075e+01 -7.706680514616834898e-01
-3.549122260883450508e-01 2.273835402727127075e+01 -7.713394381804334898e-01
-5.477833198383450508e-01 2.283149367570877075e+01 -7.721023776335584898e-01
9.492869926616549492e-01 2.490900832414627075e+01 -7.477493502898084898e-01
7.542186332866549492e-01 2.526398879289627075e+01 -7.536392428679334898e-01
5.468211723491549492e-01 2.549934035539627075e+01 -7.566299655241834898e-01
3.341746879741549492e-01 2.573945266008377075e+01 -7.596664645476209898e-01
1.183543754741549492e-01 2.600434523820877075e+01 -7.632370211882459898e-01
-1.016163276508450508e-01 2.633515578508377075e+01 -7.682876803679334898e-01
-3.298878120258450508e-01 2.648188430070877075e+01 -7.689895846648084898e-01
-5.601124214008450508e-01 2.659797316789627075e+01 -7.689895846648084898e-01
1.252631719224154949e+00 2.946357375383377075e+01 -7.362442233366834898e-01
1.007392461411654949e+00 2.973444777727127075e+01 -7.384109713835584898e-01
7.542186332866549492e-01 2.994599562883377075e+01 -7.387314059538709898e-01
4.983592582866549492e-01 3.022126418352127075e+01 -7.408523776335584898e-01
2.398143364116549492e-01 3.055964308977127075e+01 -7.441024997038709898e-01
-2.458996046334505081e-02 3.094526320695877075e+01 -7.481460788054334898e-01
-2.976612495258450508e-01 3.130646926164627075e+01 -7.523269870085584898e-01
-5.768360542133450508e-01 3.171345168352127075e+01 -7.565994479460584898e-01
1.613227422349154949e+00 3.487409621477127075e+01 -6.946182467741834898e-01
1.381415898911654949e+00 3.633967238664627075e+01 -7.122116305632459898e-01
3.578193242661654949e+00 9.071467238664627075e+01 -1.487419150094495990e+00
2.725898320786654949e+00 9.131892043352127075e+01 -1.486076376656995990e+00
4.496532035991549492e-01 3.843610793352127075e+01 -7.305526950163709898e-01
1.032176567241549492e-01 3.860602980852127075e+01 -7.289505221648084898e-01
-2.455372260883450508e-01 3.909565383195877075e+01 -7.317428805632459898e-01
-5.961231635883450508e-01 3.771711379289627075e+01 -7.087478854460584898e-01
1.666328008286654949e+00 3.564802199602127075e+01 -5.577774264616834898e-01
1.382880742661654949e+00 3.633625441789627075e+01 -5.609359957976209898e-01
3.570136602036654949e+00 9.044953566789627075e+01 -1.084098837594495990e+00
2.724799687974154949e+00 9.117084914445877075e+01 -1.081275961617933490e+00
4.513621879741549492e-01 3.843745070695877075e+01 -5.698471286101209898e-01
1.049266410991549492e-01 3.860358840227127075e+01 -5.674972750944959898e-01
-2.437061714008450508e-01 3.909309035539627075e+01 -5.680923678679334898e-01
-7.538380073383450508e-01 8.464423781633377075e+01 -9.821090915007459898e-01
1.615180547349154949e+00 3.485651808977127075e+01 -4.046402194304334898e-01
1.384345586411654949e+00 3.633271437883377075e+01 -4.088974215788709898e-01
3.506171758286654949e+00 8.898212844133377075e+01 -6.749649264616834898e-01
2.955024297349154949e+00 9.735114699602127075e+01 -7.074203707976209898e-01
4.531932426616549492e-01 3.843879348039627075e+01 -4.082870700163709898e-01
1.066356254741549492e-01 3.860114699602127075e+01 -4.052047946257459898e-01
-2.418751167133450508e-01 3.909064894914627075e+01 -4.035873629851209898e-01
-7.566456245258450508e-01 8.672980910539627075e+01 -6.173782565398084898e-01
1.618354375474154949e+00 3.488081008195877075e+01 -2.602005221648084898e-01
1.385810430161654949e+00 3.632917433977127075e+01 -2.576980807585584898e-01
3.496650273911654949e+00 8.868513137102127075e+01 -2.820663668913709898e-01
2.664374883286654949e+00 8.927705031633377075e+01 -2.729873873991834898e-01
4.550242973491549492e-01 3.844025832414627075e+01 -2.475815036101209898e-01
1.083446098491549492e-01 3.859882766008377075e+01 -2.437973239226209898e-01
-2.401661323383450508e-01 3.908820754289627075e+01 -2.399978854460584898e-01
-7.518848823383450508e-01 8.656892043352127075e+01 -2.355880954069959898e-01
1.606025273911654949e+00 3.467268019914627075e+01 -1.156692721648084898e-01
1.387153203599154949e+00 3.632575637102127075e+01 -1.057358004851209898e-01
3.416205937974154949e+00 8.687067824602127075e+01 1.019210598664415102e-01
2.713813359849154949e+00 9.051130324602127075e+01 1.260909817414415102e-01
4.567332817241549492e-01 3.844160109758377075e+01 -8.687593720387098983e-02
1.101756645366549492e-01 3.859638625383377075e+01 -8.243562958668348983e-02
-2.383350776508450508e-01 3.908564406633377075e+01 -7.556917450855848983e-02
-7.459034370258450508e-01 8.604340773820877075e+01 1.450576565461290102e-01
1.608588750474154949e+00 3.468696242570877075e+01 2.803800322581651017e-02
4.269233281724154949e+00 8.714265090227127075e+01 4.804305813508165102e-01
3.461982305161654949e+00 8.776069289445877075e+01 4.946822903351915102e-01
2.632148320786654949e+00 8.816328078508377075e+01 5.071944973664415102e-01
1.740668828599154949e+00 8.643330031633377075e+01 5.008163235383165102e-01
8.988719535991549492e-01 8.557539016008377075e+01 5.019149563508165102e-01
8.551746141165494919e-02 8.673518019914627075e+01 5.212020657258165102e-01
-7.418751167133450508e-01 8.609406691789627075e+01 5.241164944367540102e-01
1.605659062974154949e+00 3.462104445695877075e+01 1.715926907258165102e-01
4.281318242661654949e+00 8.728339797258377075e+01 8.666152737336290102e-01
3.439887578599154949e+00 8.719855910539627075e+01 8.742751858430040102e-01
2.660834844224154949e+00 8.883124953508377075e+01 9.048995754914415102e-01
1.770820195786654949e+00 8.740217238664627075e+01 8.945998928742540102e-01
9.296336723491549492e-01 8.715815383195877075e+01 9.000625393586290102e-01
8.991199266165494919e-02 8.675080519914627075e+01 9.032821438508165102e-01
-7.512745307758450508e-01 9.043684035539627075e+01 9.648971340851915102e-01
1.538642461411654949e+00 3.359357863664627075e+01 2.967910549836290102e-01
1.234321172349154949e+00 3.354768019914627075e+01 2.990951321320665102e-01
3.488349492661654949e+00 8.814521437883377075e+01 1.277702309866441510e+00
2.599555547349154949e+00 8.704682570695877075e+01 1.266746499319566510e+00
1.824897344224154949e+00 8.926374465227127075e+01 1.315437295218004010e+00
9.262157035991549492e-01 8.670478469133377075e+01 1.277778603811754010e+00
9.174304734915494919e-02 8.641328078508377075e+01 1.281059243460191510e+00
-7.372364448383450508e-01 8.735725051164627075e+01 1.306968667288316510e+00
1.544623906724154949e+00 3.366169387102127075e+01 4.376754543976915102e-01
1.238959844224154949e+00 3.360346633195877075e+01 4.387130520539415102e-01
3.999335820786654949e+00 9.896284133195877075e+01 1.909370400686754010e+00
2.635200078599154949e+00 8.790131789445877075e+01 1.669624306936754010e+00
1.805610234849154949e+00 8.838508254289627075e+01 1.689186074514879010e+00
9.291453910991549492e-01 8.663276320695877075e+01 1.657936074514879010e+00
1.000438285991549492e-01 8.698896437883377075e+01 1.674568154593004010e+00
-7.369923042133450508e-01 8.870124465227127075e+01 1.724464394827379010e+00
1.598456914536654949e+00 3.444379836320877075e+01 5.976028225617540102e-01
1.286078984849154949e+00 3.440436965227127075e+01 5.996627590851915102e-01
3.979682500474154949e+00 9.844343215227127075e+01 2.336021401663316510e+00
3.066718633286654949e+00 9.948725539445877075e+01 2.373939492483629010e+00
1.807807500474154949e+00 8.830610305070877075e+01 2.078712441702379010e+00
9.769969535991549492e-01 8.920551711320877075e+01 2.111839272757066510e+00
1.015086723491549492e-01 8.658491164445877075e+01 2.048469521780504010e+00
-7.328419135883450508e-01 8.874555617570877075e+01 2.116355874319566510e+00
1.564521367661654949e+00 3.391364699602127075e+01 7.241744778351915102e-01
1.245185430161654949e+00 3.365925246477127075e+01 7.191543362336290102e-01
9.811473442241549492e-01 3.447065383195877075e+01 7.470931790070665102e-01
3.021064336411654949e+00 9.811921340227127075e+01 2.771110512991441510e+00
1.815742070786654949e+00 8.844367629289627075e+01 2.472297646780504010e+00
9.841991020366549492e-01 8.937116652727127075e+01 2.510337807913316510e+00
1.041942192241549492e-01 8.637214308977127075e+01 2.424766518850816510e+00
-7.289356635883450508e-01 8.890961867570877075e+01 2.514579751272691510e+00
1.574409062974154949e+00 3.403913527727127075e+01 8.695144436555040102e-01
1.242255742661654949e+00 3.358259230852127075e+01 8.552322170930040102e-01
3.960517461411654949e+00 9.783295851945877075e+01 3.188102700491441510e+00
9.783397270366549492e-01 8.876838332414627075e+01 2.884345986624254010e+00
1.244578910991549492e-01 8.863508254289627075e+01 2.887794472952379010e+00
-7.286915229633450508e-01 9.033808547258377075e+01 2.960792519827379010e+00
-5.182423042133450508e-01 1.379255324602127075e+01 -7.620926120085584898e-01
-6.228565620258450508e-01 1.387311965227127075e+01 -7.649154879851209898e-01
-7.305225776508450508e-01 1.401057082414627075e+01 -7.708511569304334898e-01
-8.416065620258450508e-01 1.415351516008377075e+01 -7.770157077116834898e-01
-9.553760932758450508e-01 1.429999953508377075e+01 -7.833481051726209898e-01
-1.072441522963345051e+00 1.445051223039627075e+01 -7.898483493132459898e-01
-1.193169062025845051e+00 1.460602980852127075e+01 -7.965774752898084898e-01
-1.316582147963345051e+00 1.475837355852127075e+01 -8.033828952116834898e-01
-5.226368354633450508e-01 1.508906203508377075e+01 -7.737350680632459898e-01
-6.408008979633450508e-01 1.521235305070877075e+01 -7.782669284148084898e-01
-7.640919135883450508e-01 1.544465285539627075e+01 -7.874527194304334898e-01
-8.925098823383450508e-01 1.567683058977127075e+01 -7.968826510710584898e-01
-1.025566522963345051e+00 1.591743117570877075e+01 -8.066635348601209898e-01
-1.161064569838345051e+00 1.611201125383377075e+01 -8.142929293913709898e-01
-1.301079218275845051e+00 1.630634719133377075e+01 -8.221817233366834898e-01
-1.445610468275845051e+00 1.651545363664627075e+01 -8.304062106413709898e-01
-5.276417182758450508e-01 1.655439406633377075e+01 -7.804031588835584898e-01
-6.605762885883450508e-01 1.669453078508377075e+01 -7.848892428679334898e-01
-7.977833198383450508e-01 1.689313918352127075e+01 -7.917556979460584898e-01
-9.409717964008450508e-01 1.713544875383377075e+01 -8.003769137663709898e-01
-1.089287226088345051e+00 1.738935500383377075e+01 -8.094253756804334898e-01
-1.248588983900845051e+00 1.775410109758377075e+01 -8.229446627898084898e-01
-1.414482538588345051e+00 1.809809523820877075e+01 -8.355484225554334898e-01
-1.585503046400845051e+00 1.842280226945877075e+01 -8.472976901335584898e-01
-5.328907417133450508e-01 1.813984328508377075e+01 -7.783432223601209898e-01
-6.829151557758450508e-01 1.838105422258377075e+01 -7.853470065398084898e-01
-8.402637885883450508e-01 1.871796828508377075e+01 -7.961502291960584898e-01
-1.005546991713345051e+00 1.907185012102127075e+01 -8.075027682585584898e-01
-1.178032343275845051e+00 1.944135695695877075e+01 -8.193588473601209898e-01
-1.359062616713345051e+00 1.982880812883377075e+01 -8.317947604460584898e-01
-1.549858515150845051e+00 2.023762160539627075e+01 -8.449173190398084898e-01
-1.754692499525845051e+00 2.073078566789627075e+01 -8.614273288054334898e-01
-5.399708198383450508e-01 2.025983840227127075e+01 -7.785263278288709898e-01
-7.123341010883450508e-01 2.059174758195877075e+01 -7.874527194304334898e-01
-8.942188667133450508e-01 2.103779250383377075e+01 -7.999496676726209898e-01
-1.087578241713345051e+00 2.153986769914627075e+01 -8.141403415007459898e-01
-1.297172968275845051e+00 2.219208937883377075e+01 -8.330002047819959898e-01
-1.516411249525845051e+00 2.278205519914627075e+01 -8.497390963835584898e-01
-1.742851679213345051e+00 2.328571730852127075e+01 -8.636398532194959898e-01
-1.979179804213345051e+00 2.379304152727127075e+01 -8.775711276335584898e-01
-5.483936714008450508e-01 2.283222609758377075e+01 -7.721176364226209898e-01
-7.521290229633450508e-01 2.357917433977127075e+01 -7.901230075163709898e-01
-9.653858589008450508e-01 2.409504348039627075e+01 -8.021316745085584898e-01
-1.194633905775845051e+00 2.475495558977127075e+01 -8.179550387663709898e-01
-1.429375116713345051e+00 2.525153762102127075e+01 -8.292160250944959898e-01
-1.674126093275845051e+00 2.574604445695877075e+01 -8.403091647429334898e-01
-1.933525507338345051e+00 2.630231887102127075e+01 -8.529587008757459898e-01
-2.210991327650845051e+00 2.695991164445877075e+01 -8.687973239226209898e-01
-5.609669135883450508e-01 2.659894973039627075e+01 -7.690048434538709898e-01
-7.970508979633450508e-01 2.697480422258377075e+01 -7.751541354460584898e-01
-1.046440546400845051e+00 2.759016066789627075e+01 -7.866745211882459898e-01
-1.299248163588345051e+00 2.791230422258377075e+01 -7.914047457976209898e-01
-1.558281366713345051e+00 2.824226027727127075e+01 -7.962722995085584898e-01
-1.841362421400845051e+00 2.889655715227127075e+01 -8.083267428679334898e-01
-2.148003046400845051e+00 2.969953566789627075e+01 -8.235550143523084898e-01
-2.470146601088345051e+00 3.050202590227127075e+01 -8.386154391569959898e-01
-5.778126167133450508e-01 3.171613723039627075e+01 -7.566452243132459898e-01
-8.637012885883450508e-01 3.200849562883377075e+01 -7.589645602507459898e-01
-1.156547968275845051e+00 3.233942824602127075e+01 -7.612076022429334898e-01
-1.456108515150845051e+00 3.263898879289627075e+01 -7.635116793913709898e-01
-1.763237421400845051e+00 3.299055129289627075e+01 -7.666855075163709898e-01
-2.075371210463345051e+00 3.330256301164627075e+01 -7.690658786101209898e-01
-2.393608515150845051e+00 3.359211379289627075e+01 -7.717209079069959898e-01
-2.725395624525845051e+00 3.399714308977127075e+01 -7.756271579069959898e-01
-5.973438667133450508e-01 3.771845656633377075e+01 -7.087478854460584898e-01
-9.442676948383450508e-01 3.811225539445877075e+01 -7.104110934538709898e-01
-1.299492304213345051e+00 3.851337844133377075e+01 -7.120743014616834898e-01
-1.663139765150845051e+00 3.888239699602127075e+01 -7.132187106413709898e-01
-2.127495233900845051e+00 4.142329055070877075e+01 -7.432174899382459898e-01
-2.529716913588345051e+00 4.184675246477127075e+01 -7.446823336882459898e-01
-2.834282343275845051e+00 4.056806594133377075e+01 -7.237167575163709898e-01
-3.231254999525845051e+00 4.091157180070877075e+01 -7.241440036101209898e-01
-7.566456245258450508e-01 8.463996535539627075e+01 -9.820480563444959898e-01
-1.590263788588345051e+00 8.650019484758377075e+01 -9.899673678679334898e-01
-2.548393671400845051e+00 9.208076125383377075e+01 -1.030799887399183490e+00
-1.747612421400845051e+00 4.146845656633377075e+01 -5.732956149382459898e-01
-2.125420038588345051e+00 4.142109328508377075e+01 -5.686874606413709898e-01
-2.527641718275845051e+00 4.184455519914627075e+01 -5.681381442351209898e-01
-2.940727655775845051e+00 4.227924758195877075e+01 -5.675735690398084898e-01
-7.595753120258450508e-01 8.673029738664627075e+01 -6.173629977507459898e-01
-1.582939569838345051e+00 8.627131301164627075e+01 -6.059951998991834898e-01
-2.388969843275845051e+00 8.543268996477127075e+01 -5.930862643523084898e-01
-1.745781366713345051e+00 4.147456008195877075e+01 -3.977432467741834898e-01
-2.123222772963345051e+00 4.141889601945877075e+01 -3.932419040007459898e-01
-2.525444452650845051e+00 4.184223586320877075e+01 -3.906784274382459898e-01
-2.938408319838345051e+00 4.227692824602127075e+01 -3.880386569304334898e-01
-7.546924995258450508e-01 8.656928664445877075e+01 -2.355728366179334898e-01
-1.575371210463345051e+00 8.602155715227127075e+01 -2.261886813444959898e-01
-2.387749140150845051e+00 8.556513625383377075e+01 -2.169113375944959898e-01
-3.314018671400845051e+00 8.870356398820877075e+01 -2.064285495085584898e-01
-2.121147577650845051e+00 4.141669875383377075e+01 -2.187729098601209898e-01
-2.523247187025845051e+00 4.183991652727127075e+01 -2.142105319304334898e-01
-2.936211054213345051e+00 4.227460891008377075e+01 -2.095108248991834898e-01
-7.487110542133450508e-01 8.603303176164627075e+01 1.450271389680040102e-01
-1.567436640150845051e+00 8.575288039445877075e+01 1.532363674836290102e-01
-2.431328241713345051e+00 8.762678176164627075e+01 1.697616360383165102e-01
-3.248344843275845051e+00 8.685969191789627075e+01 1.757278225617540102e-01
-2.119072382338345051e+00 4.141450148820877075e+01 -4.433443329762098983e-02
-2.521171991713345051e+00 4.183771926164627075e+01 -3.775789521168348983e-02
-2.934013788588345051e+00 4.227228957414627075e+01 -3.003694794605848983e-02
-7.595634882338345051e+00 1.006615718007087708e+02 2.913284084992540102e-01
-7.446827339008450508e-01 8.609040480852127075e+01 5.241164944367540102e-01
-1.559502069838345051e+00 8.547248488664627075e+01 5.280380032258165102e-01
-2.423027460463345051e+00 8.745856887102127075e+01 5.563888333039415102e-01
-3.232841913588345051e+00 8.652228957414627075e+01 5.573348782258165102e-01
-4.068535272963345051e+00 8.667268019914627075e+01 5.685348293976915102e-01
-4.966118280775845051e+00 8.791779738664627075e+01 5.904922268586290102e-01
-5.772514765150845051e+00 8.726948195695877075e+01 5.940322659211290102e-01
-6.556816522963345051e+00 8.652741652727127075e+01 5.964584133820665102e-01
-7.542042182758450508e-01 9.044611769914627075e+01 9.650497219758165102e-01
-1.609184687025845051e+00 8.956953078508377075e+01 9.610824368195665102e-01
-2.420952265150845051e+00 8.755512648820877075e+01 9.430923245148790102e-01
-3.387138788588345051e+00 9.131635695695877075e+01 1.006309487600816510e+00
-4.110527460463345051e+00 8.774885207414627075e+01 9.659194729523790102e-01
-4.938286249525845051e+00 8.747907668352127075e+01 9.720840237336290102e-01
-5.768974726088345051e+00 8.728510695695877075e+01 9.793319485383165102e-01
-6.546440546400845051e+00 8.644685012102127075e+01 9.791335842805040102e-01
-7.401661323383450508e-01 8.735700637102127075e+01 1.306983926077379010e+00
-1.589287226088345051e+00 8.839631301164627075e+01 1.336341836233629010e+00
-2.545708124525845051e+00 9.316206008195877075e+01 1.435340859671129010e+00
-4.100395624525845051e+00 8.761603957414627075e+01 1.352439858694566510e+00
-4.958794062025845051e+00 8.794892531633377075e+01 1.368934609671129010e+00
-6.489433710463345051e+00 9.878815871477127075e+01 1.586326577444566510e+00
-6.722221796400845051e+00 8.891450148820877075e+01 1.408012368460191510e+00
-7.399219917133450508e-01 8.869929152727127075e+01 1.724449136038316510e+00
-1.613579218275845051e+00 9.059162551164627075e+01 1.776466347952379010e+00
-2.600883905775845051e+00 9.576667433977127075e+01 1.907234170218004010e+00
-3.242241327650845051e+00 8.720075637102127075e+01 1.718742348928941510e+00
-2.153862421400845051e+00 4.240900832414627075e+01 6.784896633820665102e-01
-2.543266718275845051e+00 4.240900832414627075e+01 6.832809231476915102e-01
-5.832695429213345051e+00 8.843793898820877075e+01 1.778938271780504010e+00
-6.755791132338345051e+00 8.943781691789627075e+01 1.815315224905504010e+00
-7.356495307758450508e-01 8.874030715227127075e+01 2.116233804007066510e+00
-1.688774530775845051e+00 9.673395949602127075e+01 2.348182656546129010e+00
-2.600029413588345051e+00 9.593476516008377075e+01 2.337547280569566510e+00
-3.243095819838345051e+00 8.736164504289627075e+01 2.109535195608629010e+00
-2.151787226088345051e+00 4.240900832414627075e+01 8.583907864289415102e-01
-2.541191522963345051e+00 4.240900832414627075e+01 8.632430813508165102e-01
-6.766167108900845051e+00 8.964313918352127075e+01 2.216255166311754010e+00
-7.318653510883450508e-01 8.890839797258377075e+01 2.514564492483629010e+00
-1.589775507338345051e+00 8.945478469133377075e+01 2.542976357718004010e+00
-2.436455194838345051e+00 8.899750930070877075e+01 2.536888100882066510e+00
-3.395561640150845051e+00 9.213081008195877075e+01 2.649604775686754010e+00
-2.149712030775845051e+00 4.240900832414627075e+01 1.037330605764879010e+00
-2.539116327650845051e+00 4.240900832414627075e+01 1.042259194632066510e+00
-5.688652460463345051e+00 8.629060012102127075e+01 2.493095376272691510e+00
-6.491875116713345051e+00 8.594233351945877075e+01 2.492057778616441510e+00
-7.316212104633450508e-01 9.033088332414627075e+01 2.960548379202379010e+00
-1.586357538588345051e+00 8.952814894914627075e+01 2.939903237600816510e+00
-2.543877069838345051e+00 9.389851027727127075e+01 3.112632729788316510e+00
-3.535088007338345051e+00 9.652412062883377075e+01 3.221733071585191510e+00
-2.147636835463345051e+00 4.240900832414627075e+01 1.217216470022691510e+00
-2.537041132338345051e+00 4.240900832414627075e+01 1.222206094046129010e+00
-5.811455194838345051e+00 8.831745558977127075e+01 2.949607827444566510e+00
-6.560844843275845051e+00 8.694990187883377075e+01 2.911048867483629010e+00
-1.317070429213345051e+00 1.475947219133377075e+01 -8.034439303679334898e-01
-1.444755976088345051e+00 1.492524367570877075e+01 -8.106765963835584898e-01
-1.579399530775845051e+00 1.512580519914627075e+01 -8.199081637663709898e-01
-1.734428827650845051e+00 1.547773391008377075e+01 -8.366317965788709898e-01
-1.901176874525845051e+00 1.587165480852127075e+01 -8.553695895476209898e-01
-2.068413202650845051e+00 1.620246535539627075e+01 -8.709488131804334898e-01
-2.257011835463345051e+00 1.663789016008377075e+01 -8.916549899382459898e-01
-2.468925897963345051e+00 1.717451125383377075e+01 -9.176407077116834898e-01
-1.446098749525845051e+00 1.651679641008377075e+01 -8.304519870085584898e-01
-1.594780390150845051e+00 1.672236281633377075e+01 -8.388443209929334898e-01
-1.772392694838345051e+00 1.718928176164627075e+01 -8.586502291960584898e-01
-1.962822382338345051e+00 1.768159133195877075e+01 -8.798446872038709898e-01
-2.159599726088345051e+00 1.814362746477127075e+01 -8.996200778288709898e-01
-2.353203241713345051e+00 1.850263625383377075e+01 -9.146957614226209898e-01
-2.551079218275845051e+00 1.883247023820877075e+01 -9.288101413054334898e-01
-2.767998163588345051e+00 1.925031691789627075e+01 -9.464340426726209898e-01
-1.586113397963345051e+00 1.842463332414627075e+01 -8.473739840788709898e-01
-1.772026483900845051e+00 1.884602004289627075e+01 -8.633346774382459898e-01
-1.966484491713345051e+00 1.926545363664627075e+01 -8.791733004851209898e-01
-2.174736444838345051e+00 1.972773391008377075e+01 -8.966751315398084898e-01
-2.399101679213345051e+00 2.025190383195877075e+01 -9.166031100554334898e-01
-2.661308710463345051e+00 2.099274855852127075e+01 -9.451675631804334898e-01
-2.916069452650845051e+00 2.155830031633377075e+01 -9.665603854460584898e-01
-3.211601679213345051e+00 2.232868605852127075e+01 -9.961014010710584898e-01
-1.755546991713345051e+00 2.073395949602127075e+01 -8.615341403288709898e-01
-1.988335077650845051e+00 2.143977004289627075e+01 -8.850937106413709898e-01
-2.237358515150845051e+00 2.216450148820877075e+01 -9.096603610319959898e-01
-2.476005976088345051e+00 2.263825637102127075e+01 -9.251022555632459898e-01
-2.744438593275845051e+00 2.329084426164627075e+01 -9.468612887663709898e-01
-3.037407343275845051e+00 2.403254348039627075e+01 -9.717025973601209898e-01
-3.336479608900845051e+00 2.469868117570877075e+01 -9.937057711882459898e-01
-3.642387812025845051e+00 2.532050734758377075e+01 -1.014595053414808490e+00
-1.980034296400845051e+00 2.379584914445877075e+01 -8.776474215788709898e-01
-2.240044062025845051e+00 2.446076613664627075e+01 -8.967666842741834898e-01
-2.494194452650845051e+00 2.491645461320877075e+01 -9.092331149382459898e-01
-2.788139765150845051e+00 2.565498000383377075e+01 -9.304275729460584898e-01
-3.085503046400845051e+00 2.629560500383377075e+01 -9.484482028288709898e-01
-3.404228632338345051e+00 2.700104933977127075e+01 -9.683761813444959898e-01
-3.737480585463345051e+00 2.769709426164627075e+01 -9.878769137663709898e-01
-4.101494257338345051e+00 2.851118117570877075e+01 -1.010902426461683490e+00
-2.212089960463345051e+00 2.696430617570877075e+01 -8.689041354460584898e-01
-2.502129022963345051e+00 2.760871535539627075e+01 -8.834305026335584898e-01
-2.807304804213345051e+00 2.827253371477127075e+01 -8.989486911101209898e-01
-3.131523554213345051e+00 2.897773391008377075e+01 -9.154281832976209898e-01
-3.474296991713345051e+00 2.972321730852127075e+01 -9.328384616179334898e-01
-3.854057733900845051e+00 3.064081984758377075e+01 -9.546585299773084898e-01
-4.202324335463345051e+00 3.117451125383377075e+01 -9.662094332976209898e-01
-4.554619257338345051e+00 3.166267043352127075e+01 -9.771652438444959898e-01
-2.471245233900845051e+00 3.050605422258377075e+01 -8.386917331023084898e-01
-2.797539179213345051e+00 3.116096144914627075e+01 -8.506241061491834898e-01
-3.130791132338345051e+00 3.174384719133377075e+01 -8.608322360319959898e-01
-3.473808710463345051e+00 3.229182082414627075e+01 -8.701553561491834898e-01
-3.822563593275845051e+00 3.279755812883377075e+01 -8.784561373991834898e-01
-4.190361444838345051e+00 3.336884719133377075e+01 -8.880844332976209898e-01
-4.576713983900845051e+00 3.397883254289627075e+01 -8.984146334929334898e-01
-4.966362421400845051e+00 3.452936965227127075e+01 -9.073562838835584898e-01
-2.726494257338345051e+00 3.399934035539627075e+01 -7.756576754851209898e-01
-3.060600702650845051e+00 3.432893019914627075e+01 -7.783889987273084898e-01
-3.403984491713345051e+00 3.468146926164627075e+01 -7.806930758757459898e-01
-3.763481562025845051e+00 3.510248976945877075e+01 -7.848434665007459898e-01
-4.169243280775845051e+00 3.586018019914627075e+01 -7.947006442351209898e-01
-4.545586054213345051e+00 3.625117141008377075e+01 -7.981338717741834898e-01
-4.936333124525845051e+00 3.667670851945877075e+01 -8.028793551726209898e-01
-5.364921991713345051e+00 3.730744582414627075e+01 -8.102035739226209898e-01
-3.232597772963345051e+00 4.091401320695877075e+01 -7.241592623991834898e-01
-3.626640741713345051e+00 4.113361769914627075e+01 -7.230911471648084898e-01
-4.040703241713345051e+00 4.151020461320877075e+01 -7.239608981413709898e-01
-4.465385858900845051e+00 4.189643508195877075e+01 -7.248611666960584898e-01
-4.899589960463345051e+00 4.230280715227127075e+01 -7.259292819304334898e-01
-5.341240351088345051e+00 4.269501906633377075e+01 -7.267379977507459898e-01
-5.783989374525845051e+00 4.302009230852127075e+01 -7.266006686491834898e-01
-6.216728632338345051e+00 4.323334914445877075e+01 -7.250442721648084898e-01
-8.653496210463345051e+00 9.090790969133377075e+01 -9.527664401335584898e-01
-4.665092890150845051e+00 4.384589797258377075e+01 -5.631485202116834898e-01
-5.112114374525845051e+00 4.419233351945877075e+01 -5.614547946257459898e-01
-5.567924921400845051e+00 4.454548293352127075e+01 -5.597458102507459898e-01
-1.291570324171334505e+01 9.631623488664627075e+01 -9.560928561491834898e-01
-7.750053827650845051e+00 9.066193801164627075e+01 -5.568161227507459898e-01
-8.533134882338345051e+00 8.966926223039627075e+01 -5.433120944304334898e-01
-4.662651483900845051e+00 4.384406691789627075e+01 -3.757095553679334898e-01
-5.109672968275845051e+00 4.419050246477127075e+01 -3.722152926726209898e-01
-5.565361444838345051e+00 4.454365187883377075e+01 -3.686599948210584898e-01
-1.294890636671334505e+01 9.660346633195877075e+01 -5.250320651335584898e-01
-7.634331171400845051e+00 8.933002883195877075e+01 -1.567459323210584898e-01
-8.772880976088345051e+00 9.228840285539627075e+01 -1.433944918913709898e-01
-4.660210077650845051e+00 4.384223586320877075e+01 -1.892929293913709898e-01
-5.107231562025845051e+00 4.418854933977127075e+01 -1.839981295866834898e-01
-5.562920038588345051e+00 4.454169875383377075e+01 -1.786117770476209898e-01
-1.239385265577584505e+01 9.249177199602127075e+01 -1.003647067351209898e-01
-1.251262706983834505e+01 8.703559523820877075e+01 -9.860994599293348983e-02
-7.599052851088345051e+00 1.006643794178962708e+02 2.913741848664415102e-01
-7.652885858900845051e+00 8.960895949602127075e+01 2.420730374055040102e-01
-9.544243280775845051e+00 1.006120112538337708e+02 3.128433010773790102e-01
-4.659355585463345051e+00 4.385493117570877075e+01 -2.830527047620989833e-03
-5.108086054213345051e+00 4.421662551164627075e+01 4.356362600816510167e-03
-1.083232921827584505e+01 8.721674758195877075e+01 2.685622952180040102e-01
-1.138921398390084505e+01 8.501472121477127075e+01 2.675704739289415102e-01
-1.391777843702584505e+01 9.683832961320877075e+01 3.523330471711290102e-01
-6.559624140150845051e+00 8.652753859758377075e+01 5.964889309601915102e-01
-7.488823358900845051e+00 8.769184523820877075e+01 6.190261624055040102e-01
-9.488579218275845051e+00 1.000716059803962708e+02 7.571639797883165102e-01
-9.652275507338345051e+00 9.221223098039627075e+01 6.879348538117540102e-01
-9.698784296400845051e+00 8.472773391008377075e+01 6.205825588898790102e-01
-1.185149425733834505e+01 9.550873976945877075e+01 7.461776516633165102e-01
-1.137761730421334505e+01 8.496162062883377075e+01 6.443252346711290102e-01
-1.253020519483834505e+01 8.722358351945877075e+01 6.797103665070665102e-01
-6.549126093275845051e+00 8.644538527727127075e+01 9.791488430695665102e-01
-7.373344843275845051e+00 8.635700637102127075e+01 9.869155667023790102e-01
-8.468681757338345051e+00 8.917951613664627075e+01 1.040046670218004010e+00
-9.591606562025845051e+00 9.167109328508377075e+01 1.089042641897691510e+00
-9.777397577650845051e+00 8.546003371477127075e+01 1.006843545218004010e+00
-1.182952160108834505e+01 9.537189894914627075e+01 1.169441201468004010e+00
-1.153301281202584505e+01 8.615913039445877075e+01 1.039848305960191510e+00
-1.265508312452584505e+01 8.812531691789627075e+01 1.083763100882066510e+00
-6.725639765150845051e+00 8.892219191789627075e+01 1.408180215139879010e+00
-7.353081171400845051e+00 8.616718703508377075e+01 1.366691567678941510e+00
-8.748344843275845051e+00 9.223249465227127075e+01 1.496543862600816510e+00
-9.596489374525845051e+00 9.176557570695877075e+01 1.499793984671129010e+00
-9.853081171400845051e+00 8.616901808977127075e+01 1.401405312796129010e+00
-1.044121593702584505e+01 8.415974074602127075e+01 1.372962929983629010e+00
-1.149651378858834505e+01 8.592060500383377075e+01 1.419670083303941510e+00
-1.219634289015084505e+01 8.496540480852127075e+01 1.411979653616441510e+00
-6.759209101088345051e+00 8.944575148820877075e+01 1.815528847952379010e+00
-7.629326288588345051e+00 8.954829055070877075e+01 1.828239419241441510e+00
-8.857719843275845051e+00 9.346113234758377075e+01 1.935005166311754010e+00
-9.718437616713345051e+00 9.299555617570877075e+01 1.936759927053941510e+00
-5.150444452650845051e+00 4.466975051164627075e+01 7.705917141633165102e-01
-1.073394054640084505e+01 8.657038527727127075e+01 1.805030801077379010e+00
-1.135051769483834505e+01 8.486066848039627075e+01 1.774940469046129010e+00
-1.303289074171334505e+01 9.082233840227127075e+01 1.937049844046129010e+00
-6.769218866713345051e+00 8.964545851945877075e+01 2.216346719046129010e+00
-7.978569452650845051e+00 8.405878859758377075e+01 2.081489541311754010e+00
-8.841484491713345051e+00 8.453510695695877075e+01 2.107353188772691510e+00
-5.148125116713345051e+00 4.466999465227127075e+01 9.619674465851915102e-01
-1.065459484327584505e+01 8.596430617570877075e+01 2.173393227835191510e+00
-1.141948742140084505e+01 8.541206008195877075e+01 2.169654824514879010e+00
-1.218718761671334505e+01 8.496540480852127075e+01 2.168846108694566510e+00
-6.494438593275845051e+00 8.593964797258377075e+01 2.491996743460191510e+00
-7.307915155775845051e+00 8.578352004289627075e+01 2.499504067678941510e+00
-8.423393671400845051e+00 8.889204055070877075e+01 2.613807656546129010e+00
-9.691582147963345051e+00 9.282905226945877075e+01 2.758918740530504010e+00
-5.145927851088345051e+00 4.467036086320877075e+01 1.152305581350816510e+00
-1.065288585890084505e+01 8.598664504289627075e+01 2.555320718069566510e+00
-1.192314953077584505e+01 8.922346144914627075e+01 2.680244424124254010e+00
-1.244243664015084505e+01 8.677595168352127075e+01 2.610053994436754010e+00
-7.263725702650845051e+00 9.656184035539627075e+01 3.273155190725816510e+00
-8.583305780775845051e+00 1.012321284413337708e+02 3.462226845999254010e+00
-8.621513788588345051e+00 9.107526808977127075e+01 3.092185952444566510e+00
-9.890312616713345051e+00 8.665900832414627075e+01 2.951148965139879010e+00
-1.060051769483834505e+01 8.559956008195877075e+01 2.923744179983629010e+00
-1.179924816358834505e+01 8.832978469133377075e+01 3.042366006155504010e+00
-1.243889660108834505e+01 8.678486281633377075e+01 2.998207070608629010e+00
-2.470024530775845051e+00 1.717829543352127075e+01 -9.178238131804334898e-01
-2.709038202650845051e+00 1.781660109758377075e+01 -9.485244967741834898e-01
-2.910576288588345051e+00 1.814545851945877075e+01 -9.642410495085584898e-01
-3.117363397963345051e+00 1.845966750383377075e+01 -9.792099215788709898e-01
-3.333183710463345051e+00 1.878754836320877075e+01 -9.948349215788709898e-01
-3.501884882338345051e+00 1.883735305070877075e+01 -9.967575290007459898e-01
-3.549004022963345051e+00 1.828706008195877075e+01 -9.691238620085584898e-01
-3.592705194838345051e+00 1.777424269914627075e+01 -9.437484957976209898e-01
-2.768974726088345051e+00 1.925312453508377075e+01 -9.465561129851209898e-01
-3.032036249525845051e+00 1.991010695695877075e+01 -9.752578952116834898e-01
-3.283012812025845051e+00 2.040949660539627075e+01 -9.964370944304334898e-01
-3.413994257338345051e+00 2.015778762102127075e+01 -9.844589450163709898e-01
-3.460869257338345051e+00 1.948090773820877075e+01 -9.535598971648084898e-01
-3.511040155775845051e+00 1.888874465227127075e+01 -9.264908053679334898e-01
-3.557915155775845051e+00 1.833466750383377075e+01 -9.015274264616834898e-01
-3.601616327650845051e+00 1.781892043352127075e+01 -8.779373385710584898e-01
-3.212944452650845051e+00 2.233344680070877075e+01 -9.962845065398084898e-01
-3.421684687025845051e+00 2.243684035539627075e+01 -9.994583346648084898e-01
-3.405449335463345051e+00 2.115803176164627075e+01 -9.473037936491834898e-01
-3.414238397963345051e+00 2.016523391008377075e+01 -9.067154147429334898e-01
-3.470146601088345051e+00 1.953620558977127075e+01 -8.807296969694959898e-01
-3.563774530775845051e+00 1.916291457414627075e+01 -8.650131442351209898e-01
-3.732109491713345051e+00 1.918391066789627075e+01 -8.650284030241834898e-01
-6.011040155775845051e+00 2.895148879289627075e+01 -1.252494833688245990e+00
-3.643852655775845051e+00 2.532539016008377075e+01 -1.014762900094495990e+00
-3.439873163588345051e+00 2.256135207414627075e+01 -9.150619723601209898e-01
-3.448784296400845051e+00 2.142756301164627075e+01 -8.738327243132459898e-01
-3.640800897963345051e+00 2.146467238664627075e+01 -8.740616061491834898e-01
-5.051201288588345051e+00 2.807148391008377075e+01 -1.105674765328870990e+00
-5.393608515150845051e+00 2.851984816789627075e+01 -1.119941733102308490e+00
-6.092583124525845051e+00 3.064423781633377075e+01 -1.192985556344495990e+00
-6.448784296400845051e+00 3.098090773820877075e+01 -1.203804037789808490e+00
-4.103081171400845051e+00 2.851594191789627075e+01 -1.011039755563245990e+00
-3.765068476088345051e+00 2.467304641008377075e+01 -8.911056735319959898e-01
-4.626274530775845051e+00 2.858283644914627075e+01 -1.009666464547620990e+00
-5.249199335463345051e+00 3.066193801164627075e+01 -1.071617148141370990e+00
-5.624077265150845051e+00 3.117145949602127075e+01 -1.085319540719495990e+00
-5.987480585463345051e+00 3.156330519914627075e+01 -1.095344565133558490e+00
-6.363945429213345051e+00 3.196918898820877075e+01 -1.105751059274183490e+00
-6.981132929213345051e+00 3.344831496477127075e+01 -1.148658774117933490e+00
-4.556206171400845051e+00 3.166633254289627075e+01 -9.772567965788709898e-01
-4.364921991713345051e+00 2.856550246477127075e+01 -8.934707858366834898e-01
-4.821464960463345051e+00 2.977680617570877075e+01 -9.230728366179334898e-01
-5.534233515150845051e+00 3.230024367570877075e+01 -9.865188815398084898e-01
-5.979423944838345051e+00 3.309846144914627075e+01 -1.004936239938245990e+00
-6.458427851088345051e+00 3.397993117570877075e+01 -1.025367758492933490e+00
-6.965019647963345051e+00 3.489619094133377075e+01 -1.046546957711683490e+00
-7.380913202650845051e+00 3.530451613664627075e+01 -1.055366537789808490e+00
-4.968071405775845051e+00 3.453376418352127075e+01 -9.074478366179334898e-01
-5.365532343275845051e+00 3.505598098039627075e+01 -9.160232760710584898e-01
-5.753960077650845051e+00 3.545148879289627075e+01 -9.217910983366834898e-01
-6.162285272963345051e+00 3.590143996477127075e+01 -9.286422946257459898e-01
-6.060356562025845051e+00 3.354499465227127075e+01 -8.758926608366834898e-01
-6.472465937025845051e+00 3.406123000383377075e+01 -8.842087008757459898e-01
-6.989799921400845051e+00 3.502570754289627075e+01 -9.018478610319959898e-01
-7.421928827650845051e+00 3.550312453508377075e+01 -9.091263034148084898e-01
-5.366264765150845051e+00 3.730854445695877075e+01 -8.102188327116834898e-01
-5.748588983900845051e+00 3.754938918352127075e+01 -8.111191012663709898e-01
-6.201469843275845051e+00 3.818268996477127075e+01 -8.176803805632459898e-01
-6.614799921400845051e+00 3.850043898820877075e+01 -8.196945407194959898e-01
-7.045586054213345051e+00 3.887690383195877075e+01 -8.226242282194959898e-01
-7.490166132338345051e+00 3.927790480852127075e+01 -8.258743502898084898e-01
-7.914604608900845051e+00 3.952802687883377075e+01 -8.274612643523084898e-01
-8.356499140150845051e+00 3.983430129289627075e+01 -8.290176608366834898e-01
-6.218315546400845051e+00 4.323505812883377075e+01 -7.250442721648084898e-01
-6.654350702650845051e+00 4.343391066789627075e+01 -7.234420993132459898e-01
-7.117119257338345051e+00 4.376179152727127075e+01 -7.233352877898084898e-01
-7.631035272963345051e+00 4.432709914445877075e+01 -7.259750582976209898e-01
-8.074394647963345051e+00 4.444770461320877075e+01 -7.232284762663709898e-01
-1.456316417921334505e+01 7.549201613664627075e+01 -1.083885214547620990e+00
-1.546038097608834505e+01 7.621101027727127075e+01 -1.084831259469495990e+00
-9.678398554213345051e+00 4.595954543352127075e+01 -7.280044772429334898e-01
-1.398723644483834505e+01 9.100007277727127075e+01 -8.956375338835584898e-01
-7.508720819838345051e+00 4.615754348039627075e+01 -5.535660006804334898e-01
-7.942924921400845051e+00 4.612543898820877075e+01 -5.486068942351209898e-01
-8.433769647963345051e+00 4.640351516008377075e+01 -5.458908297819959898e-01
-1.514177746046334505e+01 7.847651320695877075e+01 -7.682876803679334898e-01
-1.626982921827584505e+01 8.016645461320877075e+01 -7.716751315398084898e-01
