2.120101266540586948e+00 2.506746554374694824e+01 -7.308788574533480187e-01
1.926253610290586948e+00 2.526644015312194824e+01 -7.323894775705355187e-01
1.729110055603086948e+00 2.546858859062194824e+01 -7.339458740549105187e-01
1.524764352478086948e+00 2.563814425468444824e+01 -7.352428711252230187e-01
1.328963571228086948e+00 2.593880343437194824e+01 -7.388897217111605187e-01
3.338118844665586948e+00 2.879585909843444824e+01 -7.097912109689730187e-01
3.219222360290586948e+00 2.976070284843444824e+01 -7.241497314767855187e-01
2.907820993103086948e+00 2.940413546562194824e+01 -7.141399658517855187e-01
2.569930368103086948e+00 2.877132296562194824e+01 -6.992016113595980187e-01
2.356429391540586948e+00 2.913020968437194824e+01 -7.022991455392855187e-01
2.189070993103086948e+00 3.001180148124694824e+01 -7.146435058908480187e-01
1.981795602478086948e+00 3.065340304374694824e+01 -7.225017822580355187e-01
1.740462594665586948e+00 3.101277804374694824e+01 -7.252331055002230187e-01
3.318099313415586948e+00 2.865572237968444824e+01 -5.914440430002230187e-01
3.221175485290586948e+00 2.976509737968444824e+01 -6.034832275705355187e-01
3.023421579040586948e+00 3.027449679374694824e+01 -6.070537842111605187e-01
2.671614938415586948e+00 2.959969210624694824e+01 -5.945110596017855187e-01
2.344954782165586948e+00 2.901521944999694824e+01 -5.833721435861605187e-01
2.160994821228086948e+00 2.971956515312194824e+01 -5.894451416330355187e-01
7.823104196228086948e+00 9.486629366874694824e+01 -1.440580395539285519e+00
2.007552438415586948e+00 3.429512667655944824e+01 -6.422252930002230187e-01
3.224105172790586948e+00 2.802803683280944824e+01 -4.692974365549105187e-01
3.223128610290586948e+00 2.976949191093444824e+01 -4.821300781564730187e-01
3.022445016540586948e+00 3.025630831718444824e+01 -4.832744873361605187e-01
2.725814157165586948e+00 3.003511691093444824e+01 -4.780254638986605187e-01
2.412703805603086948e+00 2.961250948905944824e+01 -4.710979736642855187e-01
2.157454782165586948e+00 2.967159152030944824e+01 -4.684276855783480187e-01
2.366561227478086948e+00 3.485005831718444824e+01 -5.091839111642855187e-01
2.049788766540586948e+00 3.479720187187194824e+01 -5.049419678049105187e-01
3.223250680603086948e+00 2.801436495780944824e+01 -3.564129150705355187e-01
3.224593454040586948e+00 2.977059054374694824e+01 -3.613872803049105187e-01
3.050887399353086948e+00 3.046211886405944824e+01 -3.613109863595980187e-01
2.886580758728086948e+00 3.134981417655944824e+01 -3.619060791330355187e-01
2.400252633728086948e+00 2.948787569999694824e+01 -3.509807861642855187e-01
2.586776071228086948e+00 3.390242648124694824e+01 -3.656292236642855187e-01
2.343978219665586948e+00 3.458272433280944824e+01 -3.647136963205355187e-01
2.009383493103086948e+00 3.427693819999694824e+01 -3.599529541330355187e-01
3.222518258728086948e+00 2.800069308280944824e+01 -2.430553711252230187e-01
3.223128610290586948e+00 2.975093722343444824e+01 -2.400036133127230187e-01
3.157576852478086948e+00 3.126290011405944824e+01 -2.373028076486605187e-01
2.887557321228086948e+00 3.134590792655944824e+01 -2.341594971017855187e-01
2.697127633728086948e+00 3.214473605155944824e+01 -2.306499756174105187e-01
2.588118844665586948e+00 3.389974093437194824e+01 -2.264080322580355187e-01
2.331160836853086948e+00 3.442403292655944824e+01 -2.218914306955355187e-01
2.017684274353086948e+00 3.435945773124694824e+01 -2.185192383127230187e-01
3.341048532165586948e+00 2.877315402030944824e+01 -1.267528808908480187e-01
3.225692086853086948e+00 2.975972628593444824e+01 -1.193218506174105187e-01
3.159041696228086948e+00 3.126326632499694824e+01 -1.091289795236605187e-01
2.888533883728086948e+00 3.134187960624694824e+01 -1.057720459299105187e-01
2.698226266540586948e+00 3.214046359062194824e+01 -9.872248538303551868e-02
2.587752633728086948e+00 3.388045382499694824e+01 -8.657648928928551868e-02
2.275008493103086948e+00 3.379048800468444824e+01 -8.382990725803551868e-02
2.023665719665586948e+00 3.441255831718444824e+01 -7.723811038303551868e-02
3.341658883728086948e+00 2.876863741874694824e+01 -9.931591828348018680e-03
3.228987985290586948e+00 2.977303194999694824e+01 1.481982390401981320e-03
3.161605172790586948e+00 3.127193331718444824e+01 1.843449703883948132e-02
2.892806344665586948e+00 3.136458468437194824e+01 2.214238278102698132e-02
2.703719430603086948e+00 3.217684054374694824e+01 3.286931149196448132e-02
2.596907907165586948e+00 3.395503878593444824e+01 5.325505367946448132e-02
2.281234079040586948e+00 3.384053683280944824e+01 5.519291989040198132e-02
2.032943063415586948e+00 3.450728487968444824e+01 6.567570797633948132e-02
3.402938180603086948e+00 2.916390109062194824e+01 1.118030273122769813e-01
3.233504586853086948e+00 2.979585909843444824e+01 1.231708251638394813e-01
3.395125680603086948e+00 3.303462862968444824e+01 1.716174804372769813e-01
3.145613961853086948e+00 3.343318819999694824e+01 1.801471435232144813e-01
2.896468454040586948e+00 3.389302706718444824e+01 1.896228515310269813e-01
2.571639352478086948e+00 3.368977999687194824e+01 1.895770751638394813e-01
2.383040719665586948e+00 3.493892550468444824e+01 2.106647216482144813e-01
2.041365914978086948e+00 3.459065890312194824e+01 2.085437499685269813e-01
3.404280954040586948e+00 2.916390109062194824e+01 2.304553710622769813e-01
3.240218454040586948e+00 2.983382296562194824e+01 2.446918212575894813e-01
3.396224313415586948e+00 3.303121066093444824e+01 3.072070800466519813e-01
3.151473336853086948e+00 3.346907687187194824e+01 3.181628905935269813e-01
6.491195016540586948e+00 6.612642550468444824e+01 9.408130370779019813e-01
2.709456735290586948e+00 3.503401827812194824e+01 3.534106933279019813e-01
2.371688180603086948e+00 3.479585909843444824e+01 3.517017089529019813e-01
7.066024118103086948e+00 9.637789034843444824e+01 1.542558642546651981e+00
3.405623727478086948e+00 2.916402316093444824e+01 3.484821044607144813e-01
7.929061227478086948e+00 6.286434054374694824e+01 1.137941332976339481e+00
3.518050485290586948e+00 3.394454073905944824e+01 4.649524413747769813e-01
3.157454782165586948e+00 3.350520968437194824e+01 4.572162353200894813e-01
6.343489938415586948e+00 6.477303194999694824e+01 1.198259326140401981e+00
2.395491891540586948e+00 3.192305636405944824e+01 4.248065673513394813e-01
2.101058297790586948e+00 3.181624484062194824e+01 4.246844970388394813e-01
2.021956735290586948e+00 3.431148409843444824e+01 4.866504394216519813e-01
3.407088571228086948e+00 2.916548800468444824e+01 4.671649657888394813e-01
3.996321969665586948e+00 3.514034152030944824e+01 6.365833007497769813e-01
3.729720407165586948e+00 3.553780245780944824e+01 6.494922362966519813e-01
3.164534860290586948e+00 3.355074191093444824e+01 5.961322509450894813e-01
6.264632516540586948e+00 6.403743624687194824e+01 1.459108325163839481e+00
2.408553414978086948e+00 3.203670382499694824e+01 5.580615722341519813e-01
2.107405954040586948e+00 3.186873507499694824e+01 5.562610351247769813e-01
2.099349313415586948e+00 3.524080538749694824e+01 6.545734130544644813e-01
3.408675485290586948e+00 2.916695284843444824e+01 5.858478271169644813e-01
3.857283883728086948e+00 3.415010714530944824e+01 7.497729980154019813e-01
3.692122750915586948e+00 3.524056124687194824e+01 7.877368652029019813e-01
3.173445993103086948e+00 3.361177706718444824e+01 7.367114745779019813e-01
2.853743844665586948e+00 3.345369601249694824e+01 7.337512694997769813e-01
2.418929391540586948e+00 3.212410616874694824e+01 6.921863280935269813e-01
2.114363961853086948e+00 3.192854952812194824e+01 6.878528319997769813e-01
2.709801727905869484e-01 1.289412569999694824e+01 -7.466717041330355187e-01
1.830895477905869484e-01 1.295625948905944824e+01 -7.484875000314730187e-01
9.385614935308694839e-02 1.301436495780944824e+01 -7.503032959299105187e-01
3.279977478086948395e-03 1.307344698905944824e+01 -7.521343506174105187e-01
-8.815068658441305161e-02 1.313265109062194824e+01 -7.539654053049105187e-01
-1.805579131469130516e-01 1.319734835624694824e+01 -7.560863769845980187e-01
-2.743079131469130516e-01 1.326314425468444824e+01 -7.582378662424105187e-01
-3.691565459594130516e-01 1.332503390312194824e+01 -7.604046142892855187e-01
3.547204071655869484e-01 1.392769503593444824e+01 -7.556133545236605187e-01
2.580407196655869484e-01 1.401302218437194824e+01 -7.583904541330355187e-01
1.603844696655869484e-01 1.410689425468444824e+01 -7.613201416330355187e-01
6.028681341558694839e-02 1.419527316093444824e+01 -7.642040527658480187e-01
-4.188603814691305161e-02 1.426387667655944824e+01 -7.660961426095980187e-01
-1.458899443969130516e-01 1.431917452812194824e+01 -7.673015869455355187e-01
-2.512366240844130516e-01 1.436897921562194824e+01 -7.684917724924105187e-01
-3.570715850219130516e-01 1.442525362968444824e+01 -7.697277344064730187e-01
4.548180634155869484e-01 1.516512179374694824e+01 -7.642345703439730187e-01
3.466637665405869484e-01 1.526228976249694824e+01 -7.669964111642855187e-01
2.364342743530869484e-01 1.535469698905944824e+01 -7.695293701486605187e-01
1.241295868530869484e-01 1.544869112968444824e+01 -7.721081055002230187e-01
1.048212591558694839e-02 1.554390597343444824e+01 -7.747020996408480187e-01
-1.049963897094130516e-01 1.563875460624694824e+01 -7.772655762033480187e-01
-2.229163115844130516e-01 1.572298312187194824e+01 -7.793255127267855187e-01
-3.419348662719130516e-01 1.580794405937194824e+01 -7.814007080392855187e-01
5.450280243530869484e-01 1.627620577812194824e+01 -7.565746582345980187e-01
4.271081024780869484e-01 1.639363741874694824e+01 -7.592754638986605187e-01
3.057702118530869484e-01 1.648995089530944824e+01 -7.614116943674105187e-01
1.822350556030869484e-01 1.658638644218444824e+01 -7.635021484689730187e-01
5.772333685308694839e-02 1.669393038749694824e+01 -7.660351074533480187e-01
-6.849736627191305161e-02 1.681123995780944824e+01 -7.689342773752230187e-01
-1.974036162719130516e-01 1.693111300468444824e+01 -7.718792236642855187e-01
-3.281409209594130516e-01 1.704439425468444824e+01 -7.748852051095980187e-01
6.867516571655869484e-01 1.802620577812194824e+01 -7.613964355783480187e-01
5.510094696655869484e-01 1.813851046562194824e+01 -7.634716308908480187e-01
4.133141571655869484e-01 1.825240206718444824e+01 -7.655773437814730187e-01
2.730553681030869484e-01 1.836849093437194824e+01 -7.677135742502230187e-01
1.312096649780869484e-01 1.848592257499694824e+01 -7.698803222970980187e-01
-1.283330377191305161e-02 1.860506319999694824e+01 -7.720928467111605187e-01
-1.596838897094130516e-01 1.872640109062194824e+01 -7.743358887033480187e-01
-3.081213897094130516e-01 1.884932589530944824e+01 -7.765941894845980187e-01
8.425133759155869484e-01 1.994832491874694824e+01 -7.558269775705355187e-01
6.932213837280869484e-01 2.014034152030944824e+01 -7.592602051095980187e-01
5.397790009155869484e-01 2.032430148124694824e+01 -7.627697265939730187e-01
3.819420868530869484e-01 2.050459933280944824e+01 -7.661266601877230187e-01
2.201989227905869484e-01 2.065755343437194824e+01 -7.685985840158480187e-01
5.564814154058694839e-02 2.081331515312194824e+01 -7.711162842111605187e-01
-1.123206084594130516e-01 2.097225069999694824e+01 -7.736797607736605187e-01
-2.829749053344130516e-01 2.111958956718444824e+01 -7.762890137033480187e-01
1.055526071228086948e+00 2.257576632499694824e+01 -7.510662353830355187e-01
8.834069306030869484e-01 2.281722140312194824e+01 -7.550030029611605187e-01
7.070153290405869484e-01 2.306477999687194824e+01 -7.590465820627230187e-01
5.256188446655869484e-01 2.331941866874694824e+01 -7.632122314767855187e-01
3.392174774780869484e-01 2.355794405937194824e+01 -7.668895996408480187e-01
1.474450165405869484e-01 2.377010226249694824e+01 -7.698345459299105187e-01
-4.896611627191305161e-02 2.398738741874694824e+01 -7.728252685861605187e-01
-2.476965850219130516e-01 2.430635714530944824e+01 -7.784252441720980187e-01
1.328475289978086948e+00 2.594209933280944824e+01 -7.389507568674105187e-01
1.134261422790586948e+00 2.634810519218444824e+01 -7.450084961252230187e-01
9.319909149780869484e-01 2.675044894218444824e+01 -7.503338135080355187e-01
7.140954071655869484e-01 2.701412081718444824e+01 -7.530803955392855187e-01
4.877770477905869484e-01 2.717647433280944824e+01 -7.535686767892855187e-01
2.597497040405869484e-01 2.738167452812194824e+01 -7.549572265939730187e-01
2.708368841558694839e-02 2.759004855155944824e+01 -7.569256103830355187e-01
-2.077795928344130516e-01 2.788558077812194824e+01 -7.601299560861605187e-01
1.739730172790586948e+00 3.101534152030944824e+01 -7.252636230783480187e-01
1.491927438415586948e+00 3.138118624687194824e+01 -7.281627930002230187e-01
1.234481149353086948e+00 3.170345187187194824e+01 -7.302074707345980187e-01
9.692223602905869484e-01 3.201131319999694824e+01 -7.319164551095980187e-01
6.990807587280869484e-01 3.232478976249694824e+01 -7.336559570627230187e-01
4.233239227905869484e-01 3.264485812187194824e+01 -7.354259765939730187e-01
1.404870087280869484e-01 3.297310519218444824e+01 -7.372570312814730187e-01
-1.474768584594130516e-01 3.330733370780944824e+01 -7.391033447580355187e-01
2.006820016540586948e+00 3.429964327812194824e+01 -6.422558105783480187e-01
1.720931344665586948e+00 3.459053683280944824e+01 -6.421489990549105187e-01
1.487166696228086948e+00 3.582918429374694824e+01 -6.540508545236605187e-01
3.971541696228086948e+00 9.103206515312194824e+01 -1.346159008820535519e+00
3.075057321228086948e+00 9.043208956718444824e+01 -1.327711132843973019e+00
2.078353219665586948e+00 8.617830538749694824e+01 -1.264265087922098019e+00
2.499840790405869484e-01 3.813484835624694824e+01 -6.661205566720980187e-01
-8.790654595941305161e-02 3.860909152030944824e+01 -6.675548828439730187e-01
2.048690133728086948e+00 3.479622530937194824e+01 -5.049114502267855187e-01
1.723616891540586948e+00 3.460445284843444824e+01 -4.994945801095980187e-01
1.412825875915586948e+00 3.458016085624694824e+01 -4.954815185861605187e-01
4.072005563415586948e+00 9.291158175468444824e+01 -9.580517090158480187e-01
3.088240914978086948e+00 9.063704562187194824e+01 -9.291515625314730187e-01
2.093001657165586948e+00 8.650398898124694824e+01 -8.864116943674105187e-01
2.518151337280869484e-01 3.813216280937194824e+01 -5.073070801095980187e-01
-8.595342095941305161e-02 3.860640597343444824e+01 -5.066356933908480187e-01
2.008284860290586948e+00 3.427632784843444824e+01 -3.599376953439730187e-01
1.706893258728086948e+00 3.434590792655944824e+01 -3.564739502267855187e-01
1.490218454040586948e+00 3.582173800468444824e+01 -3.579693115549105187e-01
3.899764352478086948e+00 8.943379855155944824e+01 -5.366344726877230187e-01
3.017684274353086948e+00 8.879927706718444824e+01 -5.241527832345980187e-01
2.072127633728086948e+00 8.567977023124694824e+01 -5.039806640939730187e-01
2.537682587280869484e-01 3.812959933280944824e+01 -3.493938721017855187e-01
-8.400029595941305161e-02 3.860372042655944824e+01 -3.466167724924105187e-01
2.016585641540586948e+00 3.435884737968444824e+01 -2.185039795236605187e-01
1.727401071228086948e+00 3.461092257499694824e+01 -2.145977295236605187e-01
1.491805368103086948e+00 3.581807589530944824e+01 -2.103863037424105187e-01
3.865218454040586948e+00 8.866365694999694824e+01 -1.439647949533480187e-01
3.072737985290586948e+00 9.002425265312194824e+01 -1.320781982736605187e-01
2.069320016540586948e+00 8.544234347343444824e+01 -1.283245361642855187e-01
2.555993134155869484e-01 3.812691378593444824e+01 -1.906566894845980187e-01
-8.204717095941305161e-02 3.860103487968444824e+01 -1.857738769845980187e-01
2.022567086853086948e+00 3.441207003593444824e+01 -7.723811038303551868e-02
1.712264352478086948e+00 3.437349581718444824e+01 -7.385065921116051868e-02
1.493270211853086948e+00 3.581441378593444824e+01 -6.207087405491051868e-02
3.804183297790586948e+00 8.737837862968444824e+01 2.406787597341519813e-01
3.092635446228086948e+00 9.039302706718444824e+01 2.682971679372769813e-01
2.092025094665586948e+00 8.602400851249694824e+01 2.520770751638394813e-01
2.575524384155869484e-01 3.812435030937194824e+01 -3.281977542209801868e-02
-8.009404595941305161e-02 3.859834933280944824e+01 -2.583125003147301868e-02
2.031844430603086948e+00 3.450606417655944824e+01 6.567570797633948132e-02
1.717757516540586948e+00 3.442879366874694824e+01 6.768986813258948132e-02
4.683333688415586948e+00 8.795906710624694824e+01 6.210651122732144813e-01
3.852645211853086948e+00 8.823616671562194824e+01 6.336688720388394813e-01
2.913436227478086948e+00 8.592085909843444824e+01 6.190662109060269813e-01
2.091292672790586948e+00 8.585640597343444824e+01 6.278094970388394813e-01
1.256087594665586948e+00 8.520894503593444824e+01 6.303119384450894813e-01
4.528649384155869484e-01 8.594771456718444824e+01 6.496753417654019813e-01
2.040145211853086948e+00 3.458772921562194824e+01 2.085132323904019813e-01
1.707137399353086948e+00 3.425582003593444824e+01 2.070941650075894813e-01
4.707503610290586948e+00 8.827767062187194824e+01 1.014772387663839481e+00
3.811263375915586948e+00 8.733540987968444824e+01 1.010210009734151981e+00
3.170272164978086948e+00 9.204549288749694824e+01 1.090822192351339481e+00
2.105452829040586948e+00 8.616011691093444824e+01 1.011171313445089481e+00
1.272445016540586948e+00 8.576302218437194824e+01 1.014390917937276981e+00
4.581139618530869484e-01 8.599227023124694824e+01 1.027147265593526981e+00
7.062972360290586948e+00 9.638008761405944824e+01 1.542619677702901981e+00
1.816268258728086948e+00 3.576387667655944824e+01 3.767108642263394813e-01
1.401351266540586948e+00 3.422627902030944824e+01 3.503131591482144813e-01
1.045150094665586948e+00 3.325081515312194824e+01 3.345966064138394813e-01
2.994368844665586948e+00 8.766170382499694824e+01 1.409700366179464481e+00
2.089949899353086948e+00 8.551924777030944824e+01 1.376543017546651981e+00
1.286605172790586948e+00 8.620992159843444824e+01 1.399370165984151981e+00
4.712975556030869484e-01 8.674971652030944824e+01 1.421312304656026981e+00
2.020858102478086948e+00 3.431001925468444824e+01 4.866199218435269813e-01
1.655135446228086948e+00 3.347945284843444824e+01 4.700336181325894813e-01
1.349593454040586948e+00 3.335555148124694824e+01 4.702777587575894813e-01
1.046126657165586948e+00 3.323885226249694824e+01 4.706897460622769813e-01
2.992049508728086948e+00 8.749263644218444824e+01 1.792757006804464481e+00
2.109847360290586948e+00 8.600874972343444824e+01 1.765596362273214481e+00
1.288314157165586948e+00 8.607051730155944824e+01 1.776063891570089481e+00
4.697106415405869484e-01 8.619893527030944824e+01 1.788133593718526981e+00
2.098372750915586948e+00 3.524312472343444824e+01 6.546497069997769813e-01
1.547225289978086948e+00 3.194429659843444824e+01 5.636768066091519813e-01
1.355330758728086948e+00 3.342342257499694824e+01 6.084155761404019813e-01
1.093856149353086948e+00 3.413509249687194824e+01 6.320819579763394813e-01
3.404403024353086948e+00 9.735176730155944824e+01 2.461915942351339481e+00
2.172835641540586948e+00 8.786763644218444824e+01 2.196824999968526981e+00
1.326644235290586948e+00 8.764815402030944824e+01 2.201463671843526981e+00
4.750817352905869484e-01 8.625874972343444824e+01 2.169740649382589481e+00
1.820296579040586948e+00 3.180623507499694824e+01 6.866016112966519813e-01
1.821395211853086948e+00 3.576204562187194824e+01 8.201465331716519813e-01
1.390609079040586948e+00 3.396993136405944824e+01 7.638263427419644813e-01
1.101180368103086948e+00 3.424605441093444824e+01 7.762164794607144813e-01
3.415999704040586948e+00 9.750533175468444824e+01 2.898805590788839481e+00
2.181258493103086948e+00 8.798457980155944824e+01 2.588609667937276981e+00
5.131676727905869484e-01 8.916316866874694824e+01 2.648134204070089481e+00
-3.695227568969130516e-01 1.332564425468444824e+01 -7.604351318674105187e-01
-4.654700225219130516e-01 1.339180636405944824e+01 -7.626323974924105187e-01
-5.627600615844130516e-01 1.345442843437194824e+01 -7.648601806955355187e-01
-6.622473662719130516e-01 1.354085421562194824e+01 -7.683391846017855187e-01
-7.642981475219130516e-01 1.366719698905944824e+01 -7.739086426095980187e-01
-8.690344756469130516e-01 1.379830050468444824e+01 -7.797069824533480187e-01
-9.770667022094130516e-01 1.393355441093444824e+01 -7.856884277658480187e-01
-1.087296194396913052e+00 1.406600069999694824e+01 -7.917461670236605187e-01
-3.574377959594130516e-01 1.442586398124694824e+01 -7.697429931955355187e-01
-4.643713897094130516e-01 1.447566866874694824e+01 -7.709484375314730187e-01
-5.724036162719130516e-01 1.453243136405944824e+01 -7.721996582345980187e-01
-6.839758818969130516e-01 1.468868136405944824e+01 -7.785320556955355187e-01
-7.995764678344130516e-01 1.488667941093444824e+01 -7.868480957345980187e-01
-9.194495147094130516e-01 1.509200167655944824e+01 -7.954693115549105187e-01
-1.043839163146913052e+00 1.529646944999694824e+01 -8.042888916330355187e-01
-1.172989553771913052e+00 1.551741671562194824e+01 -8.135814941720980187e-01
-3.423010772094130516e-01 1.580843234062194824e+01 -7.814159668283480187e-01
-4.630286162719130516e-01 1.588887667655944824e+01 -7.835674560861605187e-01
-5.853430693969130516e-01 1.597151827812194824e+01 -7.857952392892855187e-01
-7.116858428344130516e-01 1.614888644218444824e+01 -7.921581543283480187e-01
-8.414465850219130516e-01 1.633101534843444824e+01 -7.986889160470980187e-01
-9.749915068969130516e-01 1.651851534843444824e+01 -8.054180420236605187e-01
-1.113907522521913052e+00 1.672835421562194824e+01 -8.130626953439730187e-01
-1.258438772521913052e+00 1.696871066093444824e+01 -8.219890869455355187e-01
-3.285071318969130516e-01 1.704512667655944824e+01 -7.749004638986605187e-01
-4.615637725219130516e-01 1.717000460624694824e+01 -7.779522217111605187e-01
-5.971838897094130516e-01 1.730171847343444824e+01 -7.815685547189730187e-01
-7.387854522094130516e-01 1.758357882499694824e+01 -7.910442627267855187e-01
-8.864905303344130516e-01 1.789302706718444824e+01 -8.015423096017855187e-01
-1.040543264709413052e+00 1.820662569999694824e+01 -8.121319092111605187e-01
-1.202286428771913052e+00 1.853560519218444824e+01 -8.232403076486605187e-01
-1.370255178771913052e+00 1.886800265312194824e+01 -8.347912109689730187e-01
-3.086096709594130516e-01 1.885005831718444824e+01 -7.766247070627230187e-01
-4.596106475219130516e-01 1.896724581718444824e+01 -7.789287842111605187e-01
-6.134192412719130516e-01 1.913167452812194824e+01 -7.828502930002230187e-01
-7.750403350219130516e-01 1.950423312187194824e+01 -7.939586914377230187e-01
-9.442297881469130516e-01 1.989424777030944824e+01 -8.055706299142855187e-01
-1.122086233459413052e+00 2.030415987968444824e+01 -8.177929199533480187e-01
-1.309830374084413052e+00 2.073714327812194824e+01 -8.307018555002230187e-01
-1.516983694396913052e+00 2.135860323905944824e+01 -8.499737060861605187e-01
-2.835852568969130516e-01 2.112093234062194824e+01 -7.763195312814730187e-01
-4.570471709594130516e-01 2.129073214530944824e+01 -7.789745605783480187e-01
-6.347815459594130516e-01 2.153999972343444824e+01 -7.844066894845980187e-01
-8.232581084594130516e-01 2.205538058280944824e+01 -7.977886474924105187e-01
-1.021012014709413052e+00 2.255489230155944824e+01 -8.105755127267855187e-01
-1.234268850646913052e+00 2.319344210624694824e+01 -8.274059570627230187e-01
-1.446427053771913052e+00 2.353316378593444824e+01 -8.351726806955355187e-01
-1.679337210021913052e+00 2.412093234062194824e+01 -8.507213867502230187e-01
-2.483069365844130516e-01 2.430916476249694824e+01 -7.784862793283480187e-01
-4.533850615844130516e-01 2.467403292655944824e+01 -7.853985107736605187e-01
-6.651770537719130516e-01 2.497054171562194824e+01 -7.904796875314730187e-01
-8.864905303344130516e-01 2.540486788749694824e+01 -7.989940918283480187e-01
-1.114884085021913052e+00 2.581343722343444824e+01 -8.067608154611605187e-01
-1.350357717834413052e+00 2.618953585624694824e+01 -8.136120117502230187e-01
-1.595230764709413052e+00 2.658626437187194824e+01 -8.208599365549105187e-01
-1.860855764709413052e+00 2.721028780937194824e+01 -8.337383545236605187e-01
-2.086340850219130516e-01 2.788777804374694824e+01 -7.601604736642855187e-01
-4.493567412719130516e-01 2.820040011405944824e+01 -7.638531006174105187e-01
-6.970374053344130516e-01 2.859187960624694824e+01 -7.685070312814730187e-01
-9.524084990844130516e-01 2.891683077812194824e+01 -7.722606933908480187e-01
-1.213150686584413052e+00 2.923519015312194824e+01 -7.758159912424105187e-01
-1.480850881896913052e+00 2.956172823905944824e+01 -7.794628418283480187e-01
-1.773453420959413052e+00 3.024568819999694824e+01 -7.910137451486605187e-01
-2.075455374084413052e+00 3.086775851249694824e+01 -8.005047119455355187e-01
-1.484534209594130516e-01 3.330977511405944824e+01 -7.391338623361605187e-01
-4.431311553344130516e-01 3.364583468437194824e+01 -7.410869873361605187e-01
-7.453772490844130516e-01 3.407271456718444824e+01 -7.444286621408480187e-01
-1.056412405334413052e+00 3.444734835624694824e+01 -7.468090332345980187e-01
-1.371597952209413052e+00 3.474336886405944824e+01 -7.478466308908480187e-01
-1.692887014709413052e+00 3.503707003593444824e+01 -7.487621582345980187e-01
-2.020035452209413052e+00 3.530708956718444824e+01 -7.492046631174105187e-01
-2.351944631896913052e+00 3.558089327812194824e+01 -7.496624267892855187e-01
-8.900517877191305161e-02 3.861238741874694824e+01 -6.675701416330355187e-01
-4.362952178344130516e-01 3.909993624687194824e+01 -6.691112793283480187e-01
-1.261612600646913052e+00 9.152059054374694824e+01 -1.286558178742410519e+00
-2.158096975646913052e+00 9.248653292655944824e+01 -1.287015942414285519e+00
-3.040787405334413052e+00 9.240096163749694824e+01 -1.275037793000223019e+00
-1.923355764709413052e+00 4.100020480155944824e+01 -6.734295166330355187e-01
-2.314102835021913052e+00 4.135079073905944824e+01 -6.727733887033480187e-01
-2.714981741271913052e+00 4.177278780937194824e+01 -6.728496826486605187e-01
-8.705205377191305161e-02 3.860970187187194824e+01 -5.066509521799105187e-01
-4.342200225219130516e-01 3.909712862968444824e+01 -5.058880127267855187e-01
-1.210831350646913052e+00 8.642696261405944824e+01 -8.447857178049105187e-01
-2.125870413146913052e+00 9.105831027030944824e+01 -8.674450195627230187e-01
-2.977066702209413052e+00 9.037447237968444824e+01 -8.517589844064730187e-01
-1.921158499084413052e+00 4.100191378593444824e+01 -5.013256347970980187e-01
-2.311783499084413052e+00 4.134822726249694824e+01 -4.989910400705355187e-01
-2.712540335021913052e+00 4.177022433280944824e+01 -4.970836914377230187e-01
-8.509892877191305161e-02 3.860701632499694824e+01 -3.466015137033480187e-01
-4.321448272094130516e-01 3.909432101249694824e+01 -3.435802734689730187e-01
-1.197525686584413052e+00 8.545894503593444824e+01 -4.629040039377230187e-01
-2.009781545959413052e+00 8.518392062187194824e+01 -4.518871582345980187e-01
-2.905899710021913052e+00 8.808418917655944824e+01 -4.486522949533480187e-01
-1.919083303771913052e+00 4.100362277030944824e+01 -3.301372803049105187e-01
-2.309342092834413052e+00 4.134578585624694824e+01 -3.261547363595980187e-01
-2.710098928771913052e+00 4.176766085624694824e+01 -3.222790039377230187e-01
-8.314580377191305161e-02 3.860433077812194824e+01 -1.857586181955355187e-01
-4.301917022094130516e-01 3.909151339530944824e+01 -1.804485596017855187e-01
-1.195694631896913052e+00 8.578438448905944824e+01 -8.746149905491051868e-02
-2.050797170959413052e+00 8.761104464530944824e+01 -7.328608401584801868e-02
-2.901749319396913052e+00 8.811092257499694824e+01 -6.155207522678551868e-02
-1.917008108459413052e+00 4.100606417655944824e+01 -1.589336670236605187e-01
-2.307022756896913052e+00 4.134334444999694824e+01 -1.524486816720980187e-01
-2.707657522521913052e+00 4.176509737968444824e+01 -1.465740478830355187e-01
-8.119267877191305161e-02 3.860164523124694824e+01 -2.578547366428551868e-02
-4.281165068969130516e-01 3.908882784843444824e+01 -1.821711428928551868e-02
-1.197403616271913052e+00 8.652254366874694824e+01 2.956561767263394813e-01
-2.040543264709413052e+00 8.732747530937194824e+01 3.116321288747769813e-01
-2.880142874084413052e+00 8.753548312187194824e+01 3.237476073904019813e-01
-1.915299124084413052e+00 4.102022433280944824e+01 1.326176754665198132e-02
-2.305557913146913052e+00 4.135970187187194824e+01 2.043339840602698132e-02
-2.708023733459413052e+00 4.180867648124694824e+01 2.849003903102698132e-02
4.501793915405869484e-01 8.595223116874694824e+01 6.497516357107144813e-01
-3.685461943969130516e-01 8.600899386405944824e+01 6.589679443044644813e-01
-1.198258108459413052e+00 8.716976046562194824e+01 6.824664794607144813e-01
-2.035660452209413052e+00 8.732186007499694824e+01 6.949786864919644813e-01
-3.023209280334413052e+00 9.269283175468444824e+01 7.668018066091519813e-01
-3.707413381896913052e+00 8.743440890312194824e+01 7.178668700857144813e-01
-2.342179006896913052e+00 4.215791964530944824e+01 2.025470458669644813e-01
-5.335709280334413052e+00 8.665144991874694824e+01 7.323779784841519813e-01
4.553063446655869484e-01 8.599666476249694824e+01 1.027254077116964481e+00
-3.628088897094130516e-01 8.680489230155944824e+01 1.050538989226339481e+00
-1.193253225646913052e+00 8.713826632499694824e+01 1.066575976531026981e+00
-2.025894827209413052e+00 8.705989718437194824e+01 1.076234790007589481e+00
-3.665787405334413052e+00 8.648323702812194824e+01 1.088655444304464481e+00
-2.340103811584413052e+00 4.216292452812194824e+01 3.800372802419644813e-01
4.684899384155869484e-01 8.674935030937194824e+01 1.421342822234151981e+00
-3.582922881469130516e-01 8.665083956718444824e+01 1.428209277312276981e+00
-1.185196585021913052e+00 8.676119112968444824e+01 1.441316577116964481e+00
-2.105728811584413052e+00 9.160787081718444824e+01 1.551240893523214481e+00
-3.213028616271913052e+00 9.969917941093444824e+01 1.729097338835714481e+00
-3.690445608459413052e+00 8.724922823905944824e+01 1.484147998015401981e+00
-2.338150686584413052e+00 4.216780734062194824e+01 5.566272460622769813e-01
-6.011734670959413052e+00 9.837203097343444824e+01 1.741487475554464481e+00
4.670250946655869484e-01 8.620918917655944824e+01 1.788423510710714481e+00
-3.521887725219130516e-01 8.757344698905944824e+01 1.833116503874776981e+00
-1.202896780334413052e+00 8.939400362968444824e+01 1.889528247038839481e+00
-2.219742483459413052e+00 9.803145480155944824e+01 2.117113085906026981e+00
-3.197281545959413052e+00 9.934615206718444824e+01 2.162675830046651981e+00
-1.921158499084413052e+00 4.140010714530944824e+01 7.095203124685269813e-01
-2.333878225646913052e+00 4.212837862968444824e+01 7.330646239919644813e-01
-5.320450491271913052e+00 8.664583468437194824e+01 1.876085253874776981e+00
4.722741181030869484e-01 8.625826144218444824e+01 2.169755908171651981e+00
-3.492590850219130516e-01 8.632686495780944824e+01 2.182771655241964481e+00
-1.198624319396913052e+00 8.947151827812194824e+01 2.284471484343526981e+00
-2.072037405334413052e+00 9.033907198905944824e+01 2.321626635710714481e+00
-3.092423147521913052e+00 9.585713839530944824e+01 2.497331591765401981e+00
-1.919205374084413052e+00 4.140926241874694824e+01 8.827075683279019813e-01
-2.331680960021913052e+00 4.212837862968444824e+01 9.102954589529019813e-01
-5.286637014709413052e+00 8.615108370780944824e+01 2.243699999968526981e+00
5.103600556030869484e-01 8.917024874687194824e+01 2.648393603484151981e+00
-3.412024443969130516e-01 8.853121066093444824e+01 2.636095019499776981e+00
-1.197891897521913052e+00 8.997078585624694824e+01 2.696550341765401981e+00
-2.137222952209413052e+00 9.415181612968444824e+01 2.851274462859151981e+00
-3.077164358459413052e+00 9.550667452812194824e+01 2.909975024382589481e+00
-1.917374319396913052e+00 4.141866183280944824e+01 1.056901904265401981e+00
-2.329361624084413052e+00 4.212837862968444824e+01 1.086564990202901981e+00
-5.392838186584413052e+00 8.805647921562194824e+01 2.690202685515401981e+00
-1.087784475646913052e+00 1.406722140312194824e+01 -7.918072021799105187e-01
-1.201431936584413052e+00 1.420809054374694824e+01 -7.980938232736605187e-01
-1.317887014709413052e+00 1.434664034843444824e+01 -8.044872558908480187e-01
-1.438126272521913052e+00 1.448970675468444824e+01 -8.110943115549105187e-01
-1.561539358459413052e+00 1.463851046562194824e+01 -8.179607666330355187e-01
-1.705216116271913052e+00 1.494112277030944824e+01 -8.328533447580355187e-01
-1.860855764709413052e+00 1.528902316093444824e+01 -8.500500000314730187e-01
-2.024307913146913052e+00 1.564339327812194824e+01 -8.678112305002230187e-01
-1.173477835021913052e+00 1.551936984062194824e+01 -8.136577881174105187e-01
-1.305435842834413052e+00 1.571553683280944824e+01 -8.220348633127230187e-01
-1.440933889709413052e+00 1.590352511405944824e+01 -8.296795166330355187e-01
-1.580704397521913052e+00 1.609004855155944824e+01 -8.375072754220980187e-01
-1.737808889709413052e+00 1.641414523124694824e+01 -8.518657959299105187e-01
-1.920181936584413052e+00 1.690816378593444824e+01 -8.742656982736605187e-01
-2.110245413146913052e+00 1.737654757499694824e+01 -8.956737793283480187e-01
-2.306534475646913052e+00 1.782198214530944824e+01 -9.156017578439730187e-01
-1.259049124084413052e+00 1.697151827812194824e+01 -8.221111572580355187e-01
-1.415177053771913052e+00 1.730586886405944824e+01 -8.353863037424105187e-01
-1.579117483459413052e+00 1.765242648124694824e+01 -8.491192138986605187e-01
-1.755753225646913052e+00 1.805464816093444824e+01 -8.651867187814730187e-01
-1.939224905334413052e+00 1.844563937187194824e+01 -8.807049072580355187e-01
-2.128311819396913052e+00 1.881429171562194824e+01 -8.951702392892855187e-01
-2.333634085021913052e+00 1.924959444999694824e+01 -9.124279297189730187e-01
-2.552628225646913052e+00 1.972420382499694824e+01 -9.313030517892855187e-01
-1.370987600646913052e+00 1.887093234062194824e+01 -8.348980224924105187e-01
-1.547867483459413052e+00 1.923226046562194824e+01 -8.470592773752230187e-01
-1.738419241271913052e+00 1.967122530937194824e+01 -8.625164306955355187e-01
-1.942887014709413052e+00 2.015718722343444824e+01 -8.796978271799105187e-01
-2.174698538146913052e+00 2.082222628593444824e+01 -9.036693847970980187e-01
-2.415054983459413052e+00 2.143990206718444824e+01 -9.256878174142855187e-01
-2.664322561584413052e+00 2.202107882499694824e+01 -9.461803711252230187e-01
-2.927628225646913052e+00 2.262056612968444824e+01 -9.677257812814730187e-01
-1.517960256896913052e+00 2.136482882499694824e+01 -8.501720703439730187e-01
-1.739151663146913052e+00 2.200667452812194824e+01 -8.703136719064730187e-01
-1.966080374084413052e+00 2.255342745780944824e+01 -8.870678222970980187e-01
-2.208145803771913052e+00 2.313631319999694824e+01 -9.049358642892855187e-01
-2.460465139709413052e+00 2.370784640312194824e+01 -9.223156250314730187e-01
-2.719620413146913052e+00 2.423238253593444824e+01 -9.379711426095980187e-01
-3.007706350646913052e+00 2.490108370780944824e+01 -9.583721435861605187e-01
-3.307388967834413052e+00 2.555769991874694824e+01 -9.782238281564730187e-01
-1.680557913146913052e+00 2.412837862968444824e+01 -8.509350097970980187e-01
-1.929825491271913052e+00 2.477718234062194824e+01 -8.674450195627230187e-01
-2.188004202209413052e+00 2.536934542655944824e+01 -8.826427734689730187e-01
-2.459732717834413052e+00 2.596736788749694824e+01 -8.978710449533480187e-01
-2.756119436584413052e+00 2.669527316093444824e+01 -9.167766846017855187e-01
-3.056046194396913052e+00 2.731819796562194824e+01 -9.324627197580355187e-01
-3.374405569396913052e+00 2.797945284843444824e+01 -9.491253174142855187e-01
-3.713761038146913052e+00 2.870210909843444824e+01 -9.680309570627230187e-01
-1.861954397521913052e+00 2.721541476249694824e+01 -8.338604248361605187e-01
-2.142105764709413052e+00 2.786507296562194824e+01 -8.474712646799105187e-01
-2.438736624084413052e+00 2.855367159843444824e+01 -8.619060791330355187e-01
-2.754532522521913052e+00 2.928597140312194824e+01 -8.772564209299105187e-01
-3.088883108459413052e+00 3.006111788749694824e+01 -8.935070312814730187e-01
-3.435929006896913052e+00 3.080611300468444824e+01 -9.088421142892855187e-01
-3.776261038146913052e+00 3.135530734062194824e+01 -9.192333496408480187e-01
-4.121720022521913052e+00 3.186287569999694824e+01 -9.284801758127230187e-01
-2.076676077209413052e+00 3.087166476249694824e+01 -8.005810058908480187e-01
-2.380997366271913052e+00 3.134383273124694824e+01 -8.070812500314730187e-01
-2.699478811584413052e+00 3.186824679374694824e+01 -8.138408935861605187e-01
-3.033951467834413052e+00 3.243697237968444824e+01 -8.220348633127230187e-01
-3.387833303771913052e+00 3.309102511405944824e+01 -8.318004883127230187e-01
-3.730240530334413052e+00 3.351399874687194824e+01 -8.368206299142855187e-01
-4.102310842834413052e+00 3.410042452812194824e+01 -8.457165039377230187e-01
-4.488419241271913052e+00 3.470760226249694824e+01 -8.541393555002230187e-01
-2.353165335021913052e+00 3.558296847343444824e+01 -7.496929443674105187e-01
-2.701798147521913052e+00 3.601473116874694824e+01 -7.526989258127230187e-01
-3.073868460021913052e+00 3.662544894218444824e+01 -7.584057129220980187e-01
-3.443253225646913052e+00 3.704964327812194824e+01 -7.610607422189730187e-01
-3.812637991271913052e+00 3.739278292655944824e+01 -7.623577392892855187e-01
-4.184830374084413052e+00 3.769270968437194824e+01 -7.629223144845980187e-01
-4.555313772521913052e+00 3.791158175468444824e+01 -7.621593750314730187e-01
-4.943009085021913052e+00 3.823433566093444824e+01 -7.629223144845980187e-01
-2.716568655334413052e+00 4.177571749687194824e+01 -6.728802002267855187e-01
-8.185684866271913052e+00 1.013654391765594482e+02 -1.318922070343973019e+00
-8.251846975646913052e+00 9.106697726249694824e+01 -1.194883374054910519e+00
-4.439835256896913052e+00 4.374263644218444824e+01 -6.753216064767855187e-01
-4.839615530334413052e+00 4.370894503593444824e+01 -6.700268066720980187e-01
-5.286026663146913052e+00 4.405489230155944824e+01 -6.686992920236605187e-01
-5.739517874084413052e+00 4.440633273124694824e+01 -6.673565185861605187e-01
-2.714127249084413052e+00 4.177315402030944824e+01 -4.970836914377230187e-01
-8.064835256896913052e+00 8.902681612968444824e+01 -7.777843750314730187e-01
-4.437882131896913052e+00 4.374764132499694824e+01 -4.898052490549105187e-01
-4.836807913146913052e+00 4.370686984062194824e+01 -4.844494140939730187e-01
-5.283219045959413052e+00 4.405281710624694824e+01 -4.813366211252230187e-01
-5.736710256896913052e+00 4.440413546562194824e+01 -4.781933105783480187e-01
-2.711685842834413052e+00 4.177059054374694824e+01 -3.222637451486605187e-01
-8.139298147521913052e+00 1.009284274578094482e+02 -4.174175537424105187e-01
-8.143204397521913052e+00 8.996651339530944824e+01 -3.865642822580355187e-01
-4.435929006896913052e+00 4.375252413749694824e+01 -3.052501953439730187e-01
-4.834122366271913052e+00 4.370479464530944824e+01 -2.998943603830355187e-01
-5.280411428771913052e+00 4.405061984062194824e+01 -2.950268066720980187e-01
-5.733780569396913052e+00 4.440193819999694824e+01 -2.900677002267855187e-01
-2.709244436584413052e+00 4.176802706718444824e+01 -1.465587890939730187e-01
-7.192154592834413052e+00 1.013990085124969482e+02 2.015874020290198132e-02
-7.231461233459413052e+00 8.948409152030944824e+01 -2.607373078348018680e-03
-7.917252249084413052e+00 8.748360323905944824e+01 3.160449187276981320e-03
-4.434342092834413052e+00 4.376155734062194824e+01 -1.206493652658480187e-01
-4.831436819396913052e+00 4.370271944999694824e+01 -1.153850830392855187e-01
-5.277603811584413052e+00 4.404842257499694824e+01 -1.077404297189730187e-01
-5.730972952209413052e+00 4.439974093437194824e+01 -1.009807861642855187e-01
-2.709488577209413052e+00 4.181197237968444824e+01 2.852055660915198132e-02
-6.162613577209413052e+00 8.650508761405944824e+01 3.602008544607144813e-01
-7.348282522521913052e+00 9.103377413749694824e+01 4.054736816091519813e-01
-8.055069631896913052e+00 8.909322237968444824e+01 4.030322753591519813e-01
-8.762345022521913052e+00 8.756612277030944824e+01 4.032306396169644813e-01
-9.324600881896913052e+00 8.497530245780944824e+01 3.946399413747769813e-01
-1.025257939752191305e+01 8.585933566093444824e+01 4.132098876638394813e-01
-1.286232060845941305e+01 9.963728976249694824e+01 5.370349609060269813e-01
-5.336685842834413052e+00 8.661873507499694824e+01 7.320117675466519813e-01
-7.078140920959413052e+00 9.991011691093444824e+01 8.999957763357144813e-01
-7.351700491271913052e+00 9.114473605155944824e+01 8.083362304372769813e-01
-8.189713186584413052e+00 9.066988253593444824e+01 8.152179443044644813e-01
-9.359390920959413052e+00 9.366207003593444824e+01 8.646869384450894813e-01
-9.310318655334413052e+00 8.489144015312194824e+01 7.683276855154019813e-01
-1.022840947564691305e+01 8.570015597343444824e+01 7.903613769216519813e-01
-1.250209111627191305e+01 9.689400362968444824e+01 9.474658691091519813e-01
-6.424820608459413052e+00 9.047273898124694824e+01 1.188417407195089481e+00
-6.942398733459413052e+00 8.600655245780944824e+01 1.126893969695089481e+00
-7.773209280334413052e+00 8.603352999687194824e+01 1.139619799773214481e+00
-8.896012014709413052e+00 8.902510714530944824e+01 1.202623339812276981e+00
-9.431900686584413052e+00 8.605501437187194824e+01 1.164537402312276981e+00
-1.016297978814691305e+01 8.519307589530944824e+01 1.162019702116964481e+00
-1.108741826470941305e+01 8.597542452812194824e+01 1.187852831999776981e+00
-6.015274710021913052e+00 9.837520480155944824e+01 1.741579028288839481e+00
-6.415299124084413052e+00 9.041097140312194824e+01 1.585618945281026981e+00
-7.203751272521913052e+00 8.939644503593444824e+01 1.577287646452901981e+00
-8.375626272521913052e+00 9.288777804374694824e+01 1.665193530241964481e+00
-8.728287405334413052e+00 8.737911105155944824e+01 1.560090991179464481e+00
-1.008241338189691305e+01 9.208467745780944824e+01 1.675111743132589481e+00
-5.305069631896913052e+00 4.436458468437194824e+01 6.451282226247769813e-01
-1.119691533502191305e+01 8.686434054374694824e+01 1.589464160124776981e+00
-5.323258108459413052e+00 8.664278292655944824e+01 1.876024218718526981e+00
-6.318009085021913052e+00 8.906697726249694824e+01 1.951372119109151981e+00
-7.546646780334413052e+00 8.358968234062194824e+01 1.835649462859151981e+00
-8.458389944396913052e+00 8.469441866874694824e+01 1.877183886687276981e+00
-9.191055960021913052e+00 8.393355441093444824e+01 1.869920703093526981e+00
-5.302506155334413052e+00 4.436495089530944824e+01 8.337878905935269813e-01
-1.111317510064691305e+01 8.625594210624694824e+01 1.957292529265401981e+00
-5.289444631896913052e+00 8.615010714530944824e+01 2.243699999968526981e+00
-7.010880178771913052e+00 9.926595187187194824e+01 2.654817553679464481e+00
-6.905777639709413052e+00 8.573079562187194824e+01 2.255464526335714481e+00
-7.547135061584413052e+00 8.365035128593444824e+01 2.205034228484151981e+00
-9.869400686584413052e+00 9.022554659843444824e+01 2.434480639616964481e+00
-5.299942678771913052e+00 4.436531710624694824e+01 1.022447558562276981e+00
-1.113990849908441305e+01 8.650435519218444824e+01 2.348314257781026981e+00
-5.395767874084413052e+00 8.805623507499694824e+01 2.690233203093526981e+00
-6.085953420959413052e+00 8.582405734062194824e+01 2.624147387663839481e+00
-6.879776663146913052e+00 8.546407198905944824e+01 2.625108691374776981e+00
-7.510513967834413052e+00 8.329256319999694824e+01 2.562150927702901981e+00
-8.749039358459413052e+00 8.774800753593444824e+01 2.733201953093526981e+00
-5.297501272521913052e+00 4.436568331718444824e+01 1.210084887663839481e+00
-1.150123662408441305e+01 8.935115694999694824e+01 2.835023852507589481e+00
-2.025040335021913052e+00 1.564522433280944824e+01 -8.679027832345980187e-01
-2.188736624084413052e+00 1.594832491874694824e+01 -8.827343262033480187e-01
-2.379532522521913052e+00 1.638765597343444824e+01 -9.048900879220980187e-01
-2.590470022521913052e+00 1.689119601249694824e+01 -9.303417480783480187e-01
-2.826676077209413052e+00 1.748189425468444824e+01 -9.602489746408480187e-01
-3.029556936584413052e+00 1.781929659843444824e+01 -9.769726074533480187e-01
-3.233414358459413052e+00 1.812105441093444824e+01 -9.918041504220980187e-01
-3.444595999084413052e+00 1.842720675468444824e+01 -1.007200268586160519e+00
-2.307388967834413052e+00 1.782454562187194824e+01 -9.157085693674105187e-01
-2.494644827209413052e+00 1.813790011405944824e+01 -9.296856201486605187e-01
-2.690079397521913052e+00 1.845943331718444824e+01 -9.436474121408480187e-01
-2.899918264709413052e+00 1.882466769218444824e+01 -9.599743164377230187e-01
-3.155777639709413052e+00 1.941512179374694824e+01 -9.868908203439730187e-01
-3.399185842834413052e+00 1.986690402030944824e+01 -1.007200268586160519e+00
-3.443863577209413052e+00 1.922566866874694824e+01 -9.763927734689730187e-01
-3.491593069396913052e+00 1.866561007499694824e+01 -9.490795410470980187e-01
-2.553848928771913052e+00 1.972859835624694824e+01 -9.314861572580355187e-01
-2.806534475646913052e+00 2.037117648124694824e+01 -9.578380859689730187e-01
-3.063248342834413052e+00 2.095064425468444824e+01 -9.813976562814730187e-01
-3.361344045959413052e+00 2.170650362968444824e+01 -1.012388256867410519e+00
-3.388199514709413052e+00 2.078267550468444824e+01 -9.718303955392855187e-01
-3.401261038146913052e+00 1.988448214530944824e+01 -9.324932373361605187e-01
-3.453018850646913052e+00 1.927876925468444824e+01 -9.056682861642855187e-01
-3.500626272521913052e+00 1.871492648124694824e+01 -8.807201660470980187e-01
-2.928726858459413052e+00 2.262447237968444824e+01 -9.678783691720980187e-01
-3.225235647521913052e+00 2.337081027030944824e+01 -9.943676269845980187e-01
-3.519058889709413052e+00 2.399434542655944824e+01 -1.016538647492410519e+00
-3.419937795959413052e+00 2.207942843437194824e+01 -9.423504150705355187e-01
-3.404312795959413052e+00 2.088399386405944824e+01 -8.956737793283480187e-01
-3.465836233459413052e+00 2.024715304374694824e+01 -8.702678955392855187e-01
-3.644913381896913052e+00 2.028804659843444824e+01 -8.705120361642855187e-01
-5.276016897521913052e+00 2.752889132499694824e+01 -1.142164257843973019e+00
-3.308731741271913052e+00 2.556172823905944824e+01 -9.783458984689730187e-01
-3.617813772521913052e+00 2.618636202812194824e+01 -9.973888672189730187e-01
-3.956314749084413052e+00 2.691658663749694824e+01 -1.019849804718973019e+00
-3.581803030334413052e+00 2.309627413749694824e+01 -8.907299316720980187e-01
-4.670670217834413052e+00 2.831636691093444824e+01 -1.062345532258035519e+00
-5.034073538146913052e+00 2.892696261405944824e+01 -1.080457714875223019e+00
-5.448013967834413052e+00 2.972688937187194824e+01 -1.104703930695535519e+00
-5.911148733459413052e+00 3.068880343437194824e+01 -1.134138134797098019e+00
-3.715470022521913052e+00 2.870906710624694824e+01 -9.682140625314730187e-01
-4.101700491271913052e+00 2.965682101249694824e+01 -9.925823486642855187e-01
-4.468155569396913052e+00 3.033894991874694824e+01 -1.009763745148660519e+00
-4.127579397521913052e+00 2.651021456718444824e+01 -8.977489746408480187e-01
-4.943009085021913052e+00 2.992342257499694824e+01 -9.929638183908480187e-01
-5.564224905334413052e+00 3.186910128593444824e+01 -1.045820263703348019e+00
-5.938126272521913052e+00 3.230135226249694824e+01 -1.055418042023660519e+00
-6.375992483459413052e+00 3.300630831718444824e+01 -1.073362377961160519e+00
-4.123184866271913052e+00 3.186617159843444824e+01 -9.285564697580355187e-01
-4.475479788146913052e+00 3.234297823905944824e+01 -9.372692383127230187e-01
-4.853165335021913052e+00 3.291817355155944824e+01 -9.482403076486605187e-01
-5.261978811584413052e+00 3.360249972343444824e+01 -9.616985596017855187e-01
-5.043350881896913052e+00 3.052229952812194824e+01 -8.851757324533480187e-01
-5.624161428771913052e+00 3.221138644218444824e+01 -9.226055420236605187e-01
-6.079239553771913052e+00 3.304976534843444824e+01 -9.395427978830355187e-01
-6.561905569396913052e+00 3.393892550468444824e+01 -9.575176513986605187e-01
-4.490006155334413052e+00 3.471102023124694824e+01 -8.542003906564730187e-01
-4.867447561584413052e+00 3.516194796562194824e+01 -8.596782959299105187e-01
-5.246842092834413052e+00 3.555806612968444824e+01 -8.632030762033480187e-01
-5.648087210021913052e+00 3.602608370780944824e+01 -8.687877930002230187e-01
