-1.539755575358867645e-01 1.236031311750411987e+01 -7.322876911144646783e-01
-2.389364950358867645e-01 1.241426819562911987e+01 -7.339966754894646783e-01
-3.251181356608867645e-01 1.246895569562911987e+01 -7.357361774425896783e-01
-4.121542684733867645e-01 1.252425354719161987e+01 -7.374909381847771783e-01
-5.001669637858867645e-01 1.258443421125411987e+01 -7.395050983410271783e-01
-5.896445028483867645e-01 1.264571350812911987e+01 -7.415497760754021783e-01
-6.799765340983867645e-01 1.270357483625411987e+01 -7.436249713879021783e-01
-1.896579191088676453e-02 1.314107483625411987e+01 -7.334931354504021783e-01
-1.114950887858867645e-01 1.318880432844161987e+01 -7.345459918957146783e-01
-2.047568075358867645e-01 1.324092835187911987e+01 -7.355683307629021783e-01
-2.994833700358867645e-01 1.328975647687911987e+01 -7.366517047863396783e-01
-3.948202840983867645e-01 1.333895081281661987e+01 -7.377350788097771783e-01
-4.910116903483867645e-01 1.339852112531661987e+01 -7.393219928722771783e-01
-5.885458700358867645e-01 1.346639221906661987e+01 -7.415650348644646783e-01
-6.871786825358867645e-01 1.353987854719161987e+01 -7.438233356457146783e-01
3.083889558911323547e-02 1.395198792219161987e+01 -7.274048786144646783e-01
-6.754977628588676453e-02 1.404610413312911987e+01 -7.302887897472771783e-01
-1.675253622233867645e-01 1.414412659406661987e+01 -7.333252887707146783e-01
-2.696982137858867645e-01 1.424434632062911987e+01 -7.364380817394646783e-01
-3.734579794108867645e-01 1.434615296125411987e+01 -7.395813922863396783e-01
-4.790487997233867645e-01 1.444979065656661987e+01 -7.428009967785271783e-01
-5.872030965983867645e-01 1.455574768781661987e+01 -7.460816364269646783e-01
-6.969443075358867645e-01 1.466341370344161987e+01 -7.494233112316521783e-01
1.083535440266132355e-01 1.521932190656661987e+01 -7.333100299816521783e-01
-1.998018473386764526e-03 1.532613343000411987e+01 -7.358277301769646783e-01
-1.145468465983867645e-01 1.542818421125411987e+01 -7.384064655285271783e-01
-2.294150106608867645e-01 1.553231018781661987e+01 -7.410462360363396783e-01
-3.459921590983867645e-01 1.563790100812911987e+01 -7.437165241222771783e-01
-4.645224325358867645e-01 1.574532288312911987e+01 -7.464325885754021783e-01
-5.854941122233867645e-01 1.585494202375411987e+01 -7.492096881847771783e-01
-7.081747762858867645e-01 1.595882385969161987e+01 -7.520173053722771783e-01
2.038125284016132355e-01 1.677925843000411987e+01 -7.382081012707146783e-01
7.832424715161323547e-02 1.689339417219161987e+01 -7.405884723644646783e-01
-4.801852628588676453e-02 1.704256409406661987e+01 -7.442505817394646783e-01
-1.768027059733867645e-01 1.722115296125411987e+01 -7.489350299816521783e-01
-3.085165731608867645e-01 1.740377014875411987e+01 -7.537415485363396783e-01
-4.443808309733867645e-01 1.753414124250411987e+01 -7.565796833019646783e-01
-5.831747762858867645e-01 1.763924378156661987e+01 -7.584412555675896783e-01
-7.236777059733867645e-01 1.774556702375411987e+01 -7.603333454113396783e-01
3.376015909016132355e-01 1.896627014875411987e+01 -7.496827106457146783e-01
1.933144815266132355e-01 1.913899964094161987e+01 -7.527802448254021783e-01
4.451077058911323547e-02 1.928658264875411987e+01 -7.553894977550896783e-01
-1.078329794108867645e-01 1.942903870344161987e+01 -7.577851276379021783e-01
-2.623739950358867645e-01 1.957369202375411987e+01 -7.602265338879021783e-01
-4.196005575358867645e-01 1.972090882062911987e+01 -7.627137165050896783e-01
-5.803671590983867645e-01 1.987117737531661987e+01 -7.652466754894646783e-01
-7.433310262858867645e-01 2.002449768781661987e+01 -7.682373981457146783e-01
4.925088174641132355e-01 2.149471253156661987e+01 -7.502625446300896783e-01
3.233193643391132355e-01 2.167586487531661987e+01 -7.528565387707146783e-01
1.507119424641132355e-01 2.186067932844161987e+01 -7.554963092785271783e-01
-2.592379972338676453e-02 2.204964417219161987e+01 -7.581971149425896783e-01
-2.054892294108867645e-01 2.224190491437911987e+01 -7.609436969738396783e-01
-3.888388387858867645e-01 2.243807190656661987e+01 -7.637360553722771783e-01
-5.765829794108867645e-01 2.263912171125411987e+01 -7.666047077160271783e-01
-7.676230184733867645e-01 2.284358948469161987e+01 -7.695343952160271783e-01
6.869668252766132355e-01 2.466988343000411987e+01 -7.433197956066521783e-01
4.928750284016132355e-01 2.498372620344161987e+01 -7.477753620129021783e-01
2.939004190266132355e-01 2.532881897687911987e+01 -7.523377399425896783e-01
8.650295808911323547e-02 2.564315003156661987e+01 -7.566102008800896783e-01
-1.283407919108867645e-01 2.586275452375411987e+01 -7.586243610363396783e-01
-3.477011434733867645e-01 2.606160706281661987e+01 -7.601044635754021783e-01
-5.715780965983867645e-01 2.634371155500411987e+01 -7.639801959972771783e-01
-8.005820028483867645e-01 2.666951721906661987e+01 -7.682221393566521783e-01
9.558877237141132355e-01 2.905757874250411987e+01 -7.296936969738396783e-01
7.294472940266132355e-01 2.959639710187911987e+01 -7.363770465832146783e-01
4.925088174641132355e-01 3.013692444562911987e+01 -7.429383258800896783e-01
2.355508096516132355e-01 3.040572327375411987e+01 -7.442963581066521783e-01
-2.567965909838676453e-02 3.067501038312911987e+01 -7.455780963879021783e-01
-2.919150106608867645e-01 3.097481507062911987e+01 -7.473633747082146783e-01
-5.646200887858867645e-01 3.140767639875411987e+01 -7.514832477550896783e-01
-8.451376669108867645e-01 3.185616272687911987e+01 -7.557709674816521783e-01
1.511185575276613235e+00 3.812874573469161987e+01 -7.439301471691521783e-01
1.050980497151613235e+00 3.586251038312911987e+01 -7.068207721691521783e-01
7.488564737141132355e-01 3.633711975812911987e+01 -7.091401081066521783e-01
4.381875284016132355e-01 3.687313050031661987e+01 -7.121918659191521783e-01
1.230019815266132355e-01 3.763875550031661987e+01 -7.182953815441521783e-01
-2.100058309733867645e-01 3.816170471906661987e+01 -7.208588581066521783e-01
-5.547323934733867645e-01 3.850740784406661987e+01 -7.208588581066521783e-01
-9.048300497233867645e-01 3.884444397687911987e+01 -7.206604938488396783e-01
1.502274442464113235e+00 3.794942444562911987e+01 -5.829651813488396783e-01
1.158524442464113235e+00 3.792598694562911987e+01 -5.780976276379021783e-01
3.221390653401613235e+00 9.637264221906661987e+01 -1.131793306348839678e+00
2.159501004964113235e+00 9.207808655500411987e+01 -1.078784273145714678e+00
2.068642862141132355e-01 4.150057190656661987e+01 -5.973694782238396783e-01
-1.683798544108867645e-01 4.168563050031661987e+01 -5.939515094738396783e-01
-5.480185262858867645e-01 4.221858948469161987e+01 -5.936005573254021783e-01
-1.392134737223386765e+00 9.488179749250411987e+01 -1.055896089551964678e+00
1.474686551839113235e+00 3.746407288312911987e+01 -4.229004840832146783e-01
1.160721708089113235e+00 3.792940491437911987e+01 -4.207337360363396783e-01
3.049271512776613235e+00 9.206111878156661987e+01 -6.849244098644646783e-01
2.167069364339113235e+00 9.214742249250411987e+01 -6.734498004894646783e-01
2.091836221516132355e-01 4.150240296125411987e+01 -4.237397174816521783e-01
-1.660605184733867645e-01 4.168233460187911987e+01 -4.194825153332146783e-01
-5.455771200358867645e-01 4.221529358625411987e+01 -4.167511920910271783e-01
-1.341475557535886765e+00 8.970796936750411987e+01 -6.156037311535271783e-01
1.484208036214113235e+00 3.758626526594161987e+01 -2.668641071300896783e-01
1.174271512776613235e+00 3.815328186750411987e+01 -2.626374225597771783e-01
2.954911161214113235e+00 8.964412659406661987e+01 -2.783539752941521783e-01
2.211136747151613235e+00 9.338545960187911987e+01 -2.678254108410271783e-01
2.115029580891132355e-01 4.150411194562911987e+01 -2.500946979504021783e-01
-1.637411825358867645e-01 4.167916077375411987e+01 -2.450745563488396783e-01
-5.432577840983867645e-01 4.221187561750411987e+01 -2.390015583019646783e-01
-1.331832002848386765e+00 8.921846741437911987e+01 -2.193024616222771783e-01
1.520340848714113235e+00 3.814253968000411987e+01 -1.088288288097771783e-01
1.176834989339113235e+00 3.816268128156661987e+01 -1.042054157238396783e-01
3.009964872151613235e+00 9.084957093000411987e+01 1.233794231433478217e-01
2.167435575276613235e+00 9.181600159406661987e+01 1.390959758777228217e-01
2.139443643391132355e-01 4.150594300031661987e+01 -7.554940986446467832e-02
-1.614218465983867645e-01 4.167598694562911987e+01 -6.978158759883967832e-02
-5.408163778483867645e-01 4.220857971906661987e+01 -6.224374580196467832e-02
-1.330855440348386765e+00 8.972249573469161987e+01 1.751982707995978217e-01
1.515213895589113235e+00 3.802571839094161987e+01 4.937429619022282168e-02
3.857865262776613235e+00 9.031392639875411987e+01 5.073515911120978217e-01
3.015824247151613235e+00 9.086531800031661987e+01 5.235106487292853217e-01
2.122025419026613235e+00 9.019722718000411987e+01 5.289427776355353217e-01
1.235672879964113235e+00 8.910213440656661987e+01 5.302550334949103217e-01
3.856972940266132355e-01 8.922774475812911987e+01 5.425383586902228217e-01
-4.690390340983867645e-01 8.951937073469161987e+01 5.564391155261603217e-01
-1.318648409098386765e+00 8.893392151594161987e+01 5.641448040027228217e-01
1.488602567464113235e+00 3.755928772687911987e+01 2.010314006824103217e-01
3.936966825276613235e+00 9.174971741437911987e+01 9.261900920886603217e-01
2.994706083089113235e+00 9.022750061750411987e+01 9.171263713855353217e-01
2.123856473714113235e+00 9.008760803937911987e+01 9.264342327136603217e-01
1.235672879964113235e+00 8.885652893781661987e+01 9.207427043933478217e-01
3.852090127766132355e-01 8.871932190656661987e+01 9.298216838855353217e-01
-4.640341512858867645e-01 8.925667542219161987e+01 9.483153362292853217e-01
-1.343306612223386765e+00 9.249031800031661987e+01 1.004864408494910322e+00
1.585770536214113235e+00 3.910787171125411987e+01 3.850523967761603217e-01
1.151932645589113235e+00 3.755855530500411987e+01 3.610198040027228217e-01
7.731484659016132355e-01 3.658760803937911987e+01 3.478667278308478217e-01
2.119706083089113235e+00 8.978877991437911987e+01 1.317333890916785322e+00
1.299393583089113235e+00 9.156990784406661987e+01 1.360897733690222822e+00
4.162148721516132355e-01 9.094197815656661987e+01 1.360562040330847822e+00
-4.574423544108867645e-01 9.004549378156661987e+01 1.355145170213660322e+00
-1.318892549723386765e+00 9.024800843000411987e+01 1.372067167283972822e+00
1.448563504964113235e+00 3.684444397687911987e+01 4.971587200183478217e-01
1.138260770589113235e+00 3.725423401594161987e+01 5.105864543933478217e-01
8.074502237141132355e-01 3.736409729719161987e+01 5.173308391589728217e-01
2.169632840901613235e+00 9.120381897687911987e+01 1.746563627244910322e+00
1.284867215901613235e+00 9.064571350812911987e+01 1.744869901658972822e+00
4.285439737141132355e-01 9.153267639875411987e+01 1.776287748338660322e+00
-4.519491903483867645e-01 9.010189026594161987e+01 1.754345609666785322e+00
-1.311324190348386765e+00 8.999275940656661987e+01 1.762722684862097822e+00
1.351395536214113235e+00 3.523445862531661987e+01 6.068694133777228217e-01
1.116898465901613235e+00 3.680245178937911987e+01 6.533476848620978217e-01
7.801064737141132355e-01 3.666072815656661987e+01 6.528441448230353217e-01
2.175003934651613235e+00 9.120601624250411987e+01 2.147976591112097822e+00
1.299271512776613235e+00 9.106807678937911987e+01 2.155163480760535322e+00
4.116982705891132355e-01 8.963863343000411987e+01 2.126690580369910322e+00
-4.473105184733867645e-01 8.963790100812911987e+01 2.139584257127722822e+00
-1.318404268473386765e+00 9.150582093000411987e+01 2.202389432908972822e+00
1.471634794026613235e+00 3.715364807844161987e+01 8.132292766589728217e-01
1.143876004964113235e+00 3.728475159406661987e+01 8.207213420886603217e-01
8.219765909016132355e-01 3.761556214094161987e+01 8.354308147449103217e-01
4.544228799641132355e-01 3.674703186750411987e+01 8.119170207995978217e-01
4.480752237141132355e-01 9.226717346906661987e+01 2.607342435838660322e+00
-4.374228231608867645e-01 9.221126526594161987e+01 2.616558744432410322e+00
-1.321944307535886765e+00 9.262300843000411987e+01 2.643078519823035322e+00
-6.803427450358867645e-01 1.270394104719161987e+01 -7.436402301769646783e-01
-7.718954794108867645e-01 1.276570862531661987e+01 -7.457306842785271783e-01
-8.645468465983867645e-01 1.282210510969161987e+01 -7.477448444347771783e-01
-9.584189169108867645e-01 1.287032288312911987e+01 -7.493012409191521783e-01
-1.054244112223386765e+00 1.294026917219161987e+01 -7.520173053722771783e-01
-1.151412080973386765e+00 1.301143616437911987e+01 -7.547944049816521783e-01
-1.250655245035886765e+00 1.308394593000411987e+01 -7.576172809582146783e-01
-1.350752901285886765e+00 1.315218323469161987e+01 -7.604248981457146783e-01
-6.875448934733867645e-01 1.354036682844161987e+01 -7.438385944347771783e-01
-7.875204794108867645e-01 1.360958069562911987e+01 -7.461274127941521783e-01
-8.894491903483867645e-01 1.369075745344161987e+01 -7.487671833019646783e-01
-9.935751669108867645e-01 1.377852600812911987e+01 -7.519410114269646783e-01
-1.099288057535886765e+00 1.386775940656661987e+01 -7.551758747082146783e-01
-1.206954073160886765e+00 1.395845764875411987e+01 -7.584565143566521783e-01
-1.317793916910886765e+00 1.406160706281661987e+01 -7.625916461925896783e-01
-1.431075166910886765e+00 1.417415589094161987e+01 -7.669098834972771783e-01
-6.973105184733867645e-01 1.466426819562911987e+01 -7.494538288097771783e-01
-8.091269247233867645e-01 1.476692932844161987e+01 -7.527955036144646783e-01
-9.236288778483867645e-01 1.488680237531661987e+01 -7.569001178722771783e-01
-1.041548799723386765e+00 1.501863831281661987e+01 -7.614930133800896783e-01
-1.161788057535886765e+00 1.515315979719161987e+01 -7.662079792004021783e-01
-1.285201143473386765e+00 1.529109925031661987e+01 -7.710144977550896783e-01
-1.412032198160886765e+00 1.543294495344161987e+01 -7.759736042004021783e-01
-1.541670870035886765e+00 1.557796448469161987e+01 -7.810395221691521783e-01
-7.085409872233867645e-01 1.595943421125411987e+01 -7.520325641613396783e-01
-8.335409872233867645e-01 1.607369202375411987e+01 -7.549012165050896783e-01
-9.619589559733867645e-01 1.622505921125411987e+01 -7.595551471691521783e-01
-1.094405245035886765e+00 1.638765686750411987e+01 -7.646058063488396783e-01
-1.229903291910886765e+00 1.655391663312911987e+01 -7.697937946300896783e-01
-1.373335909098386765e+00 1.679537171125411987e+01 -7.779572467785271783e-01
-1.523482393473386765e+00 1.705574768781661987e+01 -7.868226032238396783e-01
-1.678267549723386765e+00 1.731417053937911987e+01 -7.958863239269646783e-01
-7.241659872233867645e-01 1.774629944562911987e+01 -7.603486042004021783e-01
-8.669882528483867645e-01 1.786812561750411987e+01 -7.630188922863396783e-01
-1.020064424723386765e+00 1.825167053937911987e+01 -7.751191120129021783e-01
-1.183882784098386765e+00 1.870027893781661987e+01 -7.894776325207146783e-01
-1.354781221598386765e+00 1.911531800031661987e+01 -8.025238971691521783e-01
-1.530440401285886765e+00 1.946956604719161987e+01 -8.132813434582146783e-01
-1.715132784098386765e+00 1.984212464094161987e+01 -8.245881061535271783e-01
-1.918135713785886765e+00 2.035774964094161987e+01 -8.408997516613396783e-01
-7.439413778483867645e-01 2.002596253156661987e+01 -7.682831745129021783e-01
-9.123984090983867645e-01 2.030074280500411987e+01 -7.745240192394646783e-01
-1.090498995035886765e+00 2.071187561750411987e+01 -7.853882770519646783e-01
-1.282759737223386765e+00 2.125936096906661987e+01 -8.004487018566521783e-01
-1.483931612223386765e+00 2.177193421125411987e+01 -8.142731647472771783e-01
-1.697188448160886765e+00 2.231551331281661987e+01 -8.289368610363396783e-01
-1.927779268473386765e+00 2.293953675031661987e+01 -8.459504108410271783e-01
-2.182051729410886765e+00 2.371028870344161987e+01 -8.678467731457146783e-01
-7.683554403483867645e-01 2.284505432844161987e+01 -7.695649127941521783e-01
-9.679404012858867645e-01 2.328035706281661987e+01 -7.789032917004021783e-01
-1.182295870035886765e+00 2.392000550031661987e+01 -7.936432819347771783e-01
-1.415572237223386765e+00 2.469564026594161987e+01 -8.118622760754021783e-01
-1.670210909098386765e+00 2.560396546125411987e+01 -8.334534625988396783e-01
-1.931563448160886765e+00 2.631307190656661987e+01 -8.494904499035271783e-01
-2.205611299723386765e+00 2.698580139875411987e+01 -8.643677692394646783e-01
-2.507491182535886765e+00 2.784957093000411987e+01 -8.841126422863396783e-01
-8.014364950358867645e-01 2.667171448469161987e+01 -7.682526569347771783e-01
-1.048628877848386765e+00 2.761055725812911987e+01 -7.864258747082146783e-01
-1.309981416910886765e+00 2.838716858625411987e+01 -8.000824909191521783e-01
-1.580733370035886765e+00 2.898006409406661987e+01 -8.100312213879021783e-01
-1.857710909098386765e+00 2.946858948469161987e+01 -8.175385456066521783e-01
-2.161665987223386765e+00 3.024642151594161987e+01 -8.312561969738396783e-01
-2.484175752848386765e+00 3.105269593000411987e+01 -8.460572223644646783e-01
-2.827925752848386765e+00 3.192977112531661987e+01 -8.615448932629021783e-01
-8.461142294108867645e-01 3.185897034406661987e+01 -7.558167438488396783e-01
-1.135542940348386765e+00 3.230123108625411987e+01 -7.599976520519646783e-01
-1.433272432535886765e+00 3.271932190656661987e+01 -7.636445026379021783e-01
-1.741133760660886765e+00 3.315169495344161987e+01 -7.674134235363396783e-01
-2.077559541910886765e+00 3.400814026594161987e+01 -7.785065631847771783e-01
-2.415816377848386765e+00 3.460018128156661987e+01 -7.847779254894646783e-01
-2.772505830973386765e+00 3.526680725812911987e+01 -7.921631793957146783e-01
-3.133467745035886765e+00 3.583089417219161987e+01 -7.976105670910271783e-01
-9.060507528483867645e-01 3.884664124250411987e+01 -7.206757526379021783e-01
-1.265181612223386765e+00 3.929976624250411987e+01 -7.219880084972771783e-01
-1.634932588785886765e+00 3.980147522687911987e+01 -7.238190631847771783e-01
-2.020552705973386765e+00 4.041231507062911987e+01 -7.269165973644646783e-01
-2.417891573160886765e+00 4.103121155500411987e+01 -7.299836139660271783e-01
-2.812300752848386765e+00 4.138472718000411987e+01 -7.294648151379021783e-01
-3.221114229410886765e+00 4.182186096906661987e+01 -7.298920612316521783e-01
-3.635909151285886765e+00 4.223543518781661987e+01 -7.299073200207146783e-01
-1.395308565348386765e+00 9.488436096906661987e+01 -1.055880830762902178e+00
-2.198653291910886765e+00 8.927315491437911987e+01 -9.943879108410271783e-01
-3.213667940348386765e+00 9.491268128156661987e+01 -1.031222627637902178e+00
-2.170577120035886765e+00 4.435091370344161987e+01 -5.906098346691521783e-01
-2.594161104410886765e+00 4.470247620344161987e+01 -5.879700641613396783e-01
-3.031416963785886765e+00 4.516268128156661987e+01 -5.861237506847771783e-01
-1.344405245035886765e+00 8.970259827375411987e+01 -6.155426959972771783e-01
-2.172896455973386765e+00 8.818611878156661987e+01 -5.973237018566521783e-01
-3.207930635660886765e+00 9.491487854719161987e+01 -6.126435260754021783e-01
-2.168135713785886765e+00 4.435457581281661987e+01 -4.038269977550896783e-01
-2.591353487223386765e+00 4.469942444562911987e+01 -3.994629840832146783e-01
-3.028487276285886765e+00 4.515962952375411987e+01 -3.954194049816521783e-01
-1.334883760660886765e+00 8.921688050031661987e+01 -2.192719440441521783e-01
-2.176558565348386765e+00 8.866805237531661987e+01 -2.075074176769646783e-01
-3.090376924723386765e+00 9.100081604719161987e+01 -1.963227252941521783e-01
-2.165694307535886765e+00 4.435823792219161987e+01 -2.170136432629021783e-01
-2.588545870035886765e+00 4.469649475812911987e+01 -2.110016803722771783e-01
-3.025679659098386765e+00 4.515657776594161987e+01 -2.047608356457146783e-01
-7.582320284098386765e+00 9.256233948469161987e+01 -1.305420856457146783e-01
-1.333785127848386765e+00 8.972505921125411987e+01 1.752593059558478217e-01
-2.210372041910886765e+00 9.078353089094161987e+01 1.928374309558478217e-01
-3.069136690348386765e+00 9.045528382062911987e+01 2.035491008777228217e-01
-2.163130830973386765e+00 4.436190003156661987e+01 -2.919320869258967832e-02
-2.585738252848386765e+00 4.469356507062911987e+01 -2.157907295040217832e-02
-3.022749971598386765e+00 4.515352600812911987e+01 -1.312570380977717832e-02
-6.507491182535886765e+00 8.994795960187911987e+01 2.503172893542853217e-01
-7.744429659098386765e+00 9.470320862531661987e+01 2.906767864245978217e-01
-1.321578096598386765e+00 8.893013733625411987e+01 5.641448040027228217e-01
-2.199996065348386765e+00 9.052083557844161987e+01 5.896574993152228217e-01
-3.220015596598386765e+00 9.595442932844161987e+01 6.552397747058478217e-01
-3.903975557535886765e+00 8.971932190656661987e+01 6.068694133777228217e-01
-2.621138643473386765e+00 4.547994202375411987e+01 1.747252483386603217e-01
-5.670088838785886765e+00 9.053096741437911987e+01 6.400725383777228217e-01
-6.476851534098386765e+00 8.958248108625411987e+01 6.429106731433478217e-01
-7.395674776285886765e+00 9.033406800031661987e+01 6.653868694324103217e-01
-1.346358370035886765e+00 9.249385803937911987e+01 1.004955961229285322e+00
-2.238814424723386765e+00 9.293270081281661987e+01 1.024197294237097822e+00
-3.172652315348386765e+00 9.449300354719161987e+01 1.059689237596472822e+00
-3.933760713785886765e+00 9.064144104719161987e+01 1.017147733690222822e+00
-2.618453096598386765e+00 4.548104065656661987e+01 3.677641887683478217e-01
-5.695479463785886765e+00 9.106282776594161987e+01 1.048916532518347822e+00
-6.760542940348386765e+00 9.381539124250411987e+01 1.102978422166785322e+00
-7.311568330973386765e+00 8.933504456281661987e+01 1.048580839158972822e+00
-1.321944307535886765e+00 9.024495667219161987e+01 1.372036649705847822e+00
-2.269820284098386765e+00 9.493172425031661987e+01 1.470898344041785322e+00
-3.944991182535886765e+00 9.108077210187911987e+01 1.424496366502722822e+00
-2.615767549723386765e+00 4.548213928937911987e+01 5.597502727527228217e-01
-6.069991182535886765e+00 9.758882874250411987e+01 1.576748563768347822e+00
-6.397872041910886765e+00 8.859249085187911987e+01 1.414944364549597822e+00
-7.281539034098386765e+00 8.902413147687911987e+01 1.438198759080847822e+00
-1.314375948160886765e+00 8.999080628156661987e+01 1.762707426073035322e+00
-2.335249971598386765e+00 9.882881897687911987e+01 1.982586576463660322e+00
-2.170088838785886765e+00 4.481917542219161987e+01 7.307097454089728217e-01
-2.612227510660886765e+00 4.546492737531661987e+01 7.523314495105353217e-01
-5.624068330973386765e+00 9.003389710187911987e+01 1.828793241502722822e+00
-6.618819307535886765e+00 9.191280335187911987e+01 1.887280179979285322e+00
-1.321456026285886765e+00 9.150044983625411987e+01 2.202267362596472822e+00
-2.235762666910886765e+00 9.369466370344161987e+01 2.277111722948035322e+00
-3.287276338785886765e+00 9.918221253156661987e+01 2.443066312791785322e+00
-2.167891573160886765e+00 4.483016175031661987e+01 9.198424358386603217e-01
-2.609541963785886765e+00 4.546492737531661987e+01 9.441802043933478217e-01
-5.586958955973386765e+00 8.949288147687911987e+01 2.209759428026160322e+00
-6.385420870035886765e+00 8.857491272687911987e+01 2.198620512010535322e+00
-7.609419893473386765e+00 9.336434143781661987e+01 2.350186063768347822e+00
-1.325118135660886765e+00 9.262837952375411987e+01 2.643292142869910322e+00
-2.371504854410886765e+00 1.014905621409416199e+02 2.943676664354285322e+00
-3.198531221598386765e+00 9.623995178937911987e+01 2.786846830369910322e+00
-2.165694307535886765e+00 4.484127014875411987e+01 1.110058500291785322e+00
-2.606734346598386765e+00 4.546492737531661987e+01 1.137051298143347822e+00
-5.689864229410886765e+00 9.136153382062911987e+01 2.667843534471472822e+00
-6.424117159098386765e+00 8.922554749250411987e+01 2.610195829393347822e+00
-7.247359346598386765e+00 8.880623596906661987e+01 2.611508085252722822e+00
-1.351119112223386765e+00 1.315267151594161987e+01 -7.604554157238396783e-01
-1.453169893473386765e+00 1.322603577375411987e+01 -7.633545856457146783e-01
-1.556441377848386765e+00 1.329524964094161987e+01 -7.662537555675896783e-01
-1.661910127848386765e+00 1.336592835187911987e+01 -7.691987018566521783e-01
-1.768721651285886765e+00 1.343758362531661987e+01 -7.721894245129021783e-01
-1.882613252848386765e+00 1.355001038312911987e+01 -7.773621540050896783e-01
-2.017745088785886765e+00 1.379415100812911987e+01 -7.895386676769646783e-01
-2.161665987223386765e+00 1.406502503156661987e+01 -8.033783893566521783e-01
-1.431563448160886765e+00 1.417476624250411987e+01 -7.669404010754021783e-01
-1.546919893473386765e+00 1.428255432844161987e+01 -7.712738971691521783e-01
-1.665572237223386765e+00 1.439961975812911987e+01 -7.758057575207146783e-01
-1.786788057535886765e+00 1.451290100812911987e+01 -7.803681354504021783e-01
-1.922652315348386765e+00 1.473030823469161987e+01 -7.900116901379021783e-01
-2.079634737223386765e+00 1.507430237531661987e+01 -8.058197956066521783e-01
-2.246260713785886765e+00 1.543282288312911987e+01 -8.225586872082146783e-01
-2.448409151285886765e+00 1.598018616437911987e+01 -8.481476764660271783e-01
-1.542159151285886765e+00 1.557869690656661987e+01 -7.810700397472771783e-01
-1.674483370035886765e+00 1.571907776594161987e+01 -7.861817340832146783e-01
-1.810225557535886765e+00 1.586324280500411987e+01 -7.914307575207146783e-01
-1.971114229410886765e+00 1.620345276594161987e+01 -8.053772907238396783e-01
-2.151290010660886765e+00 1.664839905500411987e+01 -8.239014606457146783e-01
-2.345015596598386765e+00 1.712715882062911987e+01 -8.438446979504021783e-01
-2.554854463785886765e+00 1.764546936750411987e+01 -8.654206256847771783e-01
-2.781172823160886765e+00 1.820430725812911987e+01 -8.886902790050896783e-01
-1.678877901285886765e+00 1.731575745344161987e+01 -7.959473590832146783e-01
-1.841353487223386765e+00 1.759883850812911987e+01 -8.055603961925896783e-01
-2.034957002848386765e+00 1.813533753156661987e+01 -8.255646686535271783e-01
-2.266158174723386765e+00 1.890889710187911987e+01 -8.549073200207146783e-01
-2.503707002848386765e+00 1.960543030500411987e+01 -8.810151081066521783e-01
-2.811568330973386765e+00 2.073384827375411987e+01 -9.241211872082146783e-01
-3.071578096598386765e+00 2.134871643781661987e+01 -9.466584186535271783e-01
-3.323409151285886765e+00 2.182759827375411987e+01 -9.641602497082146783e-01
-1.919112276285886765e+00 2.036299866437911987e+01 -8.410828571300896783e-01
-2.158125948160886765e+00 2.116194885969161987e+01 -8.676178913097771783e-01
-2.392989229410886765e+00 2.175374573469161987e+01 -8.866608600597771783e-01
-2.642012666910886765e+00 2.235628479719161987e+01 -9.059174518566521783e-01
-2.921431612223386765e+00 2.311263245344161987e+01 -9.304688434582146783e-01
-3.253829073160886765e+00 2.415731018781661987e+01 -9.649537067394646783e-01
-3.617232393473386765e+00 2.526363343000411987e+01 -1.001345918653527178e+00
-3.653853487223386765e+00 2.404109925031661987e+01 -9.564240436535271783e-01
-2.183394502848386765e+00 2.371932190656661987e+01 -8.681061725597771783e-01
-2.481856416910886765e+00 2.480916565656661987e+01 -8.989594440441521783e-01
-2.772017549723386765e+00 2.558895081281661987e+01 -9.205201129894646783e-01
-3.103194307535886765e+00 2.658907288312911987e+01 -9.486420612316521783e-01
-3.444136690348386765e+00 2.750411194562911987e+01 -9.739411334972771783e-01
-3.794722627848386765e+00 2.834688538312911987e+01 -9.968293170910271783e-01
-3.697676729410886765e+00 2.585079163312911987e+01 -9.184296588879021783e-01
-3.673506807535886765e+00 2.418160218000411987e+01 -8.660614948254021783e-01
-2.508711885660886765e+00 2.785323303937911987e+01 -8.842041950207146783e-01
-2.818770479410886765e+00 2.860872620344161987e+01 -9.011567096691521783e-01
-3.162520479410886765e+00 2.954500550031661987e+01 -9.226563434582146783e-01
-3.521040987223386765e+00 3.043099182844161987e+01 -9.425995807629021783e-01
-3.893233370035886765e+00 3.128340882062911987e+01 -9.614747028332146783e-01
-4.312911104410886765e+00 3.236458557844161987e+01 -9.860413532238396783e-01
-4.076460909098386765e+00 2.857576721906661987e+01 -8.854401569347771783e-01
-4.520186495035886765e+00 2.984627503156661987e+01 -9.148743610363396783e-01
-2.829268526285886765e+00 3.193575257062911987e+01 -8.616669635754021783e-01
-3.195723604410886765e+00 3.286531800031661987e+01 -8.782837848644646783e-01
-3.590498995035886765e+00 3.388594788312911987e+01 -8.958771686535271783e-01
-3.973067354410886765e+00 3.459017151594161987e+01 -9.071686725597771783e-01
-4.358443330973386765e+00 3.520210999250411987e+01 -9.163086872082146783e-01
-4.752120088785886765e+00 3.577608460187911987e+01 -9.245026569347771783e-01
-5.178145479410886765e+00 3.648604553937911987e+01 -9.361908893566521783e-01
-5.106734346598386765e+00 3.377779358625411987e+01 -8.755219440441521783e-01
-3.134932588785886765e+00 3.583541077375411987e+01 -7.976716022472771783e-01
-3.531050752848386765e+00 3.665914124250411987e+01 -8.075440387707146783e-01
-3.904830049723386765e+00 3.708370178937911987e+01 -8.104584674816521783e-01
-4.320845674723386765e+00 3.779903382062911987e+01 -8.181031208019646783e-01
-4.737959932535886765e+00 3.840560120344161987e+01 -8.237641315441521783e-01
-5.155562471598386765e+00 3.891548889875411987e+01 -8.276551227550896783e-01
-5.588912080973386765e+00 3.944856995344161987e+01 -8.317749958019646783e-01
-6.038252901285886765e+00 4.001961487531661987e+01 -8.363831500988396783e-01
-3.637373995035886765e+00 4.223763245344161987e+01 -7.299225788097771783e-01
-4.069258760660886765e+00 4.274312561750411987e+01 -7.310364704113396783e-01
-4.522749971598386765e+00 4.335555237531661987e+01 -7.333100299816521783e-01
-4.981612276285886765e+00 4.388411682844161987e+01 -7.343628864269646783e-01
-5.415694307535886765e+00 4.411824768781661987e+01 -7.317536334972771783e-01
-5.867598604410886765e+00 4.444600647687911987e+01 -7.301819782238396783e-01
-6.349288057535886765e+00 4.492330139875411987e+01 -7.302430133800896783e-01
-6.841841768473386765e+00 4.541109436750411987e+01 -7.303040485363396783e-01
-8.673995088785886765e+00 9.465193909406661987e+01 -9.539063434582146783e-01
-4.869063448160886765e+00 4.688838928937911987e+01 -5.763276081066521783e-01
-5.343306612223386765e+00 4.723018616437911987e+01 -5.728333454113396783e-01
-5.827925752848386765e+00 4.760567444562911987e+01 -5.694916706066521783e-01
-1.298881442472338676e+01 9.962239807844161987e+01 -9.388764362316521783e-01
-1.311711032316088676e+01 8.742122620344161987e+01 -8.271668415050896783e-01
-8.462813448160886765e+00 9.233931702375411987e+01 -5.277894000988396783e-01
-4.866499971598386765e+00 4.689156311750411987e+01 -3.770935993175896783e-01
-5.340010713785886765e+00 4.722762268781661987e+01 -3.717835407238396783e-01
-5.824629854410886765e+00 4.760311096906661987e+01 -3.664887409191521783e-01
-1.246684176847338676e+01 9.562935608625411987e+01 -4.848664264660271783e-01
-1.333366305753588676e+01 8.891109436750411987e+01 -4.424775104504021783e-01
-7.585127901285886765e+00 9.255928772687911987e+01 -1.304963092785271783e-01
-8.522994112223386765e+00 9.308614319562911987e+01 -1.164582233410271783e-01
-4.863814424723386765e+00 4.689473694562911987e+01 -1.778595905285271783e-01
-5.336836885660886765e+00 4.722518128156661987e+01 -1.707795124035271783e-01
-5.821333955973386765e+00 4.760054749250411987e+01 -1.635163288097771783e-01
-1.245402438566088676e+01 9.558016175031661987e+01 -5.983285713008967832e-02
-1.313481051847338676e+01 8.762007874250411987e+01 -4.841928291133967832e-02
-7.747359346598386765e+00 9.469991272687911987e+01 2.907073040027228217e-01
-8.466109346598386765e+00 9.251119202375411987e+01 2.915465374011603217e-01
-4.865035127848386765e+00 4.693709534406661987e+01 2.268667411991032168e-02
-1.050627047941088676e+01 9.480879944562911987e+01 3.337523479480353217e-01
-1.073503024503588676e+01 8.899031800031661987e+01 3.100554485339728217e-01
-1.244743258878588676e+01 9.557894104719161987e+01 3.672911663074103217e-01
-1.399357516691088676e+01 9.997237366437911987e+01 4.117095012683478217e-01
-1.311601169034838676e+01 8.753353089094161987e+01 3.399474163074103217e-01
-7.731612276285886765e+00 9.457772034406661987e+01 7.100340862292853217e-01
-8.515059541910886765e+00 9.313252991437911987e+01 7.069365520495978217e-01
-9.234175752848386765e+00 9.130745667219161987e+01 7.015501995105353217e-01
-9.796919893473386765e+00 8.833675354719161987e+01 6.830870647449103217e-01
-1.085246188566088676e+01 9.002877014875411987e+01 7.155272502917853217e-01
-1.170658786222338676e+01 8.987789124250411987e+01 7.277495403308478217e-01
-1.256132419034838676e+01 8.971700257062911987e+01 7.398955364245978217e-01
-1.302738864347338676e+01 8.697981995344161987e+01 7.241179485339728217e-01
-7.314498018473386765e+00 8.933528870344161987e+01 1.048626615526160322e+00
-8.574141573160886765e+00 9.386873596906661987e+01 1.131985380174597822e+00
-9.575240205973386765e+00 9.483272522687911987e+01 1.161785795213660322e+00
-1.034696872159838676e+01 9.345650452375411987e+01 1.155468656541785322e+00
-1.079887301847338676e+01 8.962850159406661987e+01 1.110027982713660322e+00
-1.145316989347338676e+01 8.795650452375411987e+01 1.097698881151160322e+00
-1.275932223722338676e+01 9.118575257062911987e+01 1.163815214158972822e+00
-1.399760348722338676e+01 9.352657288312911987e+01 1.216534330369910322e+00
-7.284346651285886765e+00 8.902205628156661987e+01 1.438198759080847822e+00
-8.803145479410886765e+00 9.652925843000411987e+01 1.599789335252722822e+00
-9.539473604410886765e+00 9.453218811750411987e+01 1.575604154588660322e+00
-5.379561495035886765e+00 4.772945374250411987e+01 6.453368206042853217e-01
-1.145573337003588676e+01 8.802181214094161987e+01 1.488568021776160322e+00
-1.282292087003588676e+01 9.168856018781661987e+01 1.579128934862097822e+00
-1.297880465909838676e+01 8.673311585187911987e+01 1.492809965135535322e+00
-7.959273409098386765e+00 8.704146546125411987e+01 1.796841337205847822e+00
-5.376631807535886765e+00 4.772981995344161987e+01 8.496520061511603217e-01
-1.047526462003588676e+01 8.699813050031661987e+01 1.839886381151160322e+00
-1.167497165128588676e+01 8.977266663312911987e+01 1.924542142869910322e+00
-1.217826754972338676e+01 8.708785218000411987e+01 1.871746732713660322e+00
-1.300871188566088676e+01 8.697298401594161987e+01 1.883648588182410322e+00
-8.865279268473386765e+00 8.779647034406661987e+01 2.217495634080847822e+00
-5.373580049723386765e+00 4.773030823469161987e+01 1.052868558885535322e+00
-1.073490817472338676e+01 8.923812073469161987e+01 2.290829374315222822e+00
-1.151347262784838676e+01 8.856270569562911987e+01 2.286282255174597822e+00
-1.242582614347338676e+01 8.891500061750411987e+01 2.314526273729285322e+00
-1.398576266691088676e+01 9.357601135969161987e+01 2.470913602830847822e+00
-7.250289034098386765e+00 8.880611389875411987e+01 2.611538602830847822e+00
-7.917159151285886765e+00 8.669100159406661987e+01 2.553982450487097822e+00
-8.764937471598386765e+00 8.683272522687911987e+01 2.574246122362097822e+00
-9.921675752848386765e+00 8.975618714094161987e+01 2.689449979783972822e+00
-1.073039157316088676e+01 8.925008362531661987e+01 2.688214017869910322e+00
-1.272099215909838676e+01 9.108736389875411987e+01 2.784054471971472822e+00
-1.335246188566088676e+01 8.936324280500411987e+01 2.742581083299597822e+00
-2.162642549723386765e+00 1.406880921125411987e+01 -8.035767536144646783e-01
-2.324873995035886765e+00 1.441658753156661987e+01 -8.212769489269646783e-01
-2.490035127848386765e+00 1.473775452375411987e+01 -8.377564411144646783e-01
-2.665572237223386765e+00 1.507527893781661987e+01 -8.550904254894646783e-01
-2.881514620035886765e+00 1.558724182844161987e+01 -8.816407184582146783e-01
-3.090254854410886765e+00 1.600911682844161987e+01 -9.033539752941521783e-01
-3.280074190348386765e+00 1.629598206281661987e+01 -9.178498249035271783e-01
-3.525191377848386765e+00 1.680428284406661987e+01 -9.443696002941521783e-01
-2.449507784098386765e+00 1.598458069562911987e+01 -8.483612995129021783e-01
-2.633711885660886765e+00 1.634786194562911987e+01 -8.652375202160271783e-01
-2.831465791910886765e+00 1.674446839094161987e+01 -8.833497028332146783e-01
-3.052535127848386765e+00 1.721956604719161987e+01 -9.055359821300896783e-01
-3.305220674723386765e+00 1.780831116437911987e+01 -9.331696491222771783e-01
-3.607100557535886765e+00 1.857881897687911987e+01 -9.695313434582146783e-01
-3.959151338785886765e+00 1.950447815656661987e+01 -1.013675020216027178e+00
-4.018843721598386765e+00 1.902901428937911987e+01 -9.896271686535271783e-01
-2.782515596598386765e+00 1.820980042219161987e+01 -8.889344196300896783e-01
-3.043501924723386765e+00 1.891121643781661987e+01 -9.187348346691521783e-01
-3.382369112223386765e+00 1.998189514875411987e+01 -9.646485309582146783e-01
-3.712935518473386765e+00 2.087776917219161987e+01 -1.002734468458214678e+00
-3.849532198160886765e+00 2.066219300031661987e+01 -9.919922809582146783e-01
-3.913619112223386765e+00 2.010555237531661987e+01 -9.663575153332146783e-01
-3.969771455973386765e+00 1.956050843000411987e+01 -9.413025836925896783e-01
-4.027388643473386765e+00 1.907234925031661987e+01 -9.188111286144646783e-01
-3.324629854410886765e+00 2.183174866437911987e+01 -9.643280963879021783e-01
-3.678267549723386765e+00 2.288094300031661987e+01 -1.003665254591027178e+00
-3.743208955973386765e+00 2.210628479719161987e+01 -9.716217975597771783e-01
-3.803633760660886765e+00 2.138680237531661987e+01 -9.418671588879021783e-01
-3.859419893473386765e+00 2.072090882062911987e+01 -9.143250446300896783e-01
-3.920332979410886765e+00 2.014510315656661987e+01 -8.903992633800896783e-01
-3.978438448160886765e+00 1.960677307844161987e+01 -8.680298786144646783e-01
-4.098921846598386765e+00 1.939998596906661987e+01 -8.590271930675896783e-01
-3.652998995035886765e+00 2.403072327375411987e+01 -9.560578327160271783e-01
-3.688765596598386765e+00 2.295503968000411987e+01 -9.168274860363396783e-01
-3.753584932535886765e+00 2.217476624250411987e+01 -8.880341510754021783e-01
-3.813765596598386765e+00 2.145003479719161987e+01 -8.612854938488396783e-01
-3.975264620035886765e+00 2.133382385969161987e+01 -8.556244831066521783e-01
-6.414595674723386765e+00 3.254280823469161987e+01 -1.239032075880089678e+00
-6.102950166910886765e+00 2.964754456281661987e+01 -1.137133882520714678e+00
-6.238570284098386765e+00 2.903719300031661987e+01 -1.113848970411339678e+00
-3.672652315348386765e+00 2.417110413312911987e+01 -8.657410602550896783e-01
-3.883833955973386765e+00 2.418233460187911987e+01 -8.635132770519646783e-01
-5.365889620035886765e+00 3.165267151594161987e+01 -1.085208223341027178e+00
-5.805831026285886765e+00 3.248970764875411987e+01 -1.107348726270714678e+00
-6.404585909098386765e+00 3.406844300031661987e+01 -1.151400850294152178e+00
-6.805220674723386765e+00 3.449471253156661987e+01 -1.160937593458214678e+00
-7.328414034098386765e+00 3.544747132062911987e+01 -1.185931489942589678e+00
-7.864058565348386765e+00 3.636592835187911987e+01 -1.210528657911339678e+00
-4.526900362223386765e+00 2.988472718000411987e+01 -9.158509235363396783e-01
-5.492110323160886765e+00 3.424605530500411987e+01 -1.023822114942589678e+00
-5.972334932535886765e+00 3.522786682844161987e+01 -1.045321748731652178e+00
-6.412764620035886765e+00 3.586421936750411987e+01 -1.057879732130089678e+00
-6.932051729410886765e+00 3.684481018781661987e+01 -1.078921602247277178e+00
-7.345748018473386765e+00 3.719319885969161987e+01 -1.083957002637902178e+00
-7.801314424723386765e+00 3.769417542219161987e+01 -1.092685029981652178e+00
-8.274458955973386765e+00 3.822627991437911987e+01 -1.102053926466027178e+00
-5.107955049723386765e+00 3.377889221906661987e+01 -8.755219440441521783e-01
-5.522383760660886765e+00 3.444954651594161987e+01 -8.859131793957146783e-01
-6.086836885660886765e+00 3.591451233625411987e+01 -9.117310504894646783e-01
-6.585494112223386765e+00 3.683455628156661987e+01 -9.267762165050896783e-01
-7.113448213785886765e+00 3.780879944562911987e+01 -9.427063922863396783e-01
-7.596724580973386765e+00 3.845406311750411987e+01 -9.517090778332146783e-01
-8.073897432535886765e+00 3.899495667219161987e+01 -9.593232135754021783e-01
-8.566329073160886765e+00 3.955342835187911987e+01 -9.662812213879021783e-01
-6.040206026285886765e+00 4.002388733625411987e+01 -8.364289264660271783e-01
-6.493208955973386765e+00 4.053792542219161987e+01 -8.401215534191521783e-01
-6.957686495035886765e+00 4.104915589094161987e+01 -8.436310749035271783e-01
-7.420699190348386765e+00 4.147896546125411987e+01 -8.456757526379021783e-01
-7.894576143473386765e+00 4.191902893781661987e+01 -8.477814655285271783e-01
-8.362959932535886765e+00 4.227877014875411987e+01 -8.484986286144646783e-01
-8.842452120035886765e+00 4.264266175031661987e+01 -8.491547565441521783e-01
-9.331099580973386765e+00 4.301302307844161987e+01 -8.498108844738396783e-01
-6.843916963785886765e+00 4.541573303937911987e+01 -7.303345661144646783e-01
-7.317671846598386765e+00 4.571578186750411987e+01 -7.281525592785271783e-01
-7.799239229410886765e+00 4.601595276594161987e+01 -7.258789997082146783e-01
-8.323531221598386765e+00 4.650228089094161987e+01 -7.255585651379021783e-01
-8.867720674723386765e+00 4.704024475812911987e+01 -7.256806354504021783e-01
-9.630538057535886765e+00 4.860250061750411987e+01 -7.368195514660271783e-01
-1.010539157316088676e+01 4.863252991437911987e+01 -7.309754352550896783e-01
-1.107780368253588676e+01 5.090303772687911987e+01 -7.489502887707146783e-01
-1.312260348722338676e+01 8.743904846906661987e+01 -8.272431354504021783e-01
-7.849043916910886765e+00 4.906221741437911987e+01 -5.545227985363396783e-01
-8.348433565348386765e+00 4.926705139875411987e+01 -5.493653278332146783e-01
-8.871993135660886765e+00 4.956368225812911987e+01 -5.447113971691521783e-01
-1.543119723722338676e+01 8.151009339094161987e+01 -7.413208942394646783e-01
-1.547514254972338676e+01 7.771907776594161987e+01 -7.064545612316521783e-01
-1.659525973722338676e+01 7.936836975812911987e+01 -7.056458454113396783e-01
-1.107609469816088676e+01 5.091170471906661987e+01 -5.259736042004021783e-01
-1.333647067472338676e+01 8.890975159406661987e+01 -4.424317340832146783e-01
-7.846968721598386765e+00 4.906966370344161987e+01 -3.437073688488396783e-01
-8.344771455973386765e+00 4.926497620344161987e+01 -3.371918659191521783e-01
-8.868331026285886765e+00 4.956148499250411987e+01 -3.307679157238396783e-01
-1.525895602628588676e+01 8.063558167219161987e+01 -3.764222125988396783e-01
-1.554850680753588676e+01 7.811165589094161987e+01 -3.606904010754021783e-01
-1.627128512784838676e+01 7.786092346906661987e+01 -3.488190631847771783e-01
-1.107438571378588676e+01 5.092037171125411987e+01 -3.041260700207146783e-01
-1.313639743253588676e+01 8.761067932844161987e+01 -4.838876533321467832e-02
-7.844893526285886765e+00 4.907710999250411987e+01 -1.317170124035271783e-01
-8.341231416910886765e+00 4.926290100812911987e+01 -1.250641803722771783e-01
-8.864546846598386765e+00 4.955940979719161987e+01 -1.168549518566521783e-01
-1.477531344816088676e+01 7.812471741437911987e+01 -2.458505439571467832e-02
-1.570854098722338676e+01 7.893697327375411987e+01 -9.951875684777178321e-03
-1.634159762784838676e+01 7.822078675031661987e+01 1.873685838660321679e-03
-1.107292087003588676e+01 5.092989319562911987e+01 -8.102731513790217832e-02
-1.330644137784838676e+01 8.879000061750411987e+01 3.487669963855353217e-01
-1.392094333097338676e+01 8.720210999250411987e+01 3.517577190417853217e-01
-1.506462008878588676e+01 8.890633362531661987e+01 3.783690471667853217e-01
-8.932906221598386765e+00 4.995784729719161987e+01 1.011473674792853217e-01
-1.486967379972338676e+01 7.864986389875411987e+01 3.288390178699103217e-01
-1.530961520597338676e+01 7.697652405500411987e+01 3.285643596667853217e-01
-1.651603610441088676e+01 7.907344788312911987e+01 3.579833049792853217e-01
-1.704228122159838676e+01 7.790132874250411987e+01 3.613860149402228217e-01
-1.302970797941088676e+01 8.697530335187911987e+01 7.241026897449103217e-01
-1.398087985441088676e+01 8.761580628156661987e+01 7.443511028308478217e-01
-1.459709079191088676e+01 8.618575257062911987e+01 7.421538372058478217e-01
-8.929488252848386765e+00 4.995784729719161987e+01 3.168608684558478217e-01
-1.505412204191088676e+01 7.964852112531661987e+01 6.911131877917853217e-01
-1.556181247159838676e+01 7.826094788312911987e+01 6.874053020495978217e-01
-1.648185641691088676e+01 7.893856018781661987e+01 7.095000286120978217e-01
-1.757023532316088676e+01 8.031172913312911987e+01 7.427184124011603217e-01
-1.400102145597338676e+01 9.352828186750411987e+01 1.216610624315222822e+00
-1.391911227628588676e+01 8.726631897687911987e+01 1.130261137010535322e+00
-1.441410739347338676e+01 8.514180725812911987e+01 1.110485746385535322e+00
-8.926070284098386765e+00 4.995772522687911987e+01 5.337035198230353217e-01
-1.507194430753588676e+01 7.977156800031661987e+01 1.049679471971472822e+00
-1.566105563566088676e+01 7.878401917219161987e+01 1.047024442674597822e+00
-1.647428805753588676e+01 7.892940491437911987e+01 1.063793851854285322e+00
-1.693522555753588676e+01 7.746834534406661987e+01 1.052380277635535322e+00
-1.298100192472338676e+01 8.672798889875411987e+01 1.492764188768347822e+00
-1.396610934659838676e+01 8.759908264875411987e+01 1.525204374315222822e+00
-1.453105075284838676e+01 8.586641663312911987e+01 1.504666044237097822e+00
-8.920332979410886765e+00 4.994441956281661987e+01 7.490813274402228217e-01
-1.503361422941088676e+01 7.959944885969161987e+01 1.401058866502722822e+00
-1.571842868253588676e+01 7.909798401594161987e+01 1.405041410448035322e+00
-1.606132419034838676e+01 7.699752014875411987e+01 1.373638822557410322e+00
-1.693290622159838676e+01 7.748311585187911987e+01 1.400860502244910322e+00
-1.301176364347338676e+01 8.697408264875411987e+01 1.883724882127722822e+00
-1.519743258878588676e+01 9.537288635969161987e+01 2.116909696580847822e+00
-1.448905856534838676e+01 8.565425843000411987e+01 1.883282377244910322e+00
-8.917159151285886765e+00 4.994564026594161987e+01 9.658476848620978217e-01
-1.500822360441088676e+01 7.949495667219161987e+01 1.754467679979285322e+00
-1.550236422941088676e+01 7.804744690656661987e+01 1.731594755174597822e+00
-1.599748141691088676e+01 7.672029846906661987e+01 1.711453153612097822e+00
-1.691703708097338676e+01 7.743709534406661987e+01 1.745938016893347822e+00
-1.324333102628588676e+01 8.856893128156661987e+01 2.319729520799597822e+00
-1.473393161222338676e+01 9.250069397687911987e+01 2.457256986619910322e+00
-1.488090426847338676e+01 8.800276917219161987e+01 2.336224271776160322e+00
-1.536588962003588676e+01 8.586739319562911987e+01 2.288403226854285322e+00
-1.491581637784838676e+01 7.903816956281661987e+01 2.094036771776160322e+00
-1.556132419034838676e+01 7.836934632062911987e+01 2.089291288377722822e+00
-1.612895114347338676e+01 7.737056702375411987e+01 2.075833036424597822e+00
-1.685685641691088676e+01 7.718978089094161987e+01 2.086025907518347822e+00
-1.335490329191088676e+01 8.935897034406661987e+01 2.742489530565222822e+00
-1.412968356534838676e+01 8.874056214094161987e+01 2.737515165330847822e+00
-1.444389254972338676e+01 8.545687073469161987e+01 2.640438749315222822e+00
-1.536967379972338676e+01 8.592171448469161987e+01 2.675106718065222822e+00
-1.517301852628588676e+01 8.042232483625411987e+01 2.496945096971472822e+00
-1.534770114347338676e+01 7.733028382062911987e+01 2.402920438768347822e+00
-1.618949801847338676e+01 7.768440979719161987e+01 2.432263090135535322e+00
-1.727665622159838676e+01 7.911458557844161987e+01 2.502819730760535322e+00
-3.526656221598386765e+00 1.680855530500411987e+01 -9.445984821300896783e-01
-3.805831026285886765e+00 1.741500061750411987e+01 -9.760315875988396783e-01
-4.116377901285886765e+00 1.809444397687911987e+01 -1.011615083692589678e+00
-4.165450166910886765e+00 1.768331116437911987e+01 -9.894440631847771783e-01
-4.211958955973386765e+00 1.729415100812911987e+01 -9.684632282238396783e-01
-4.267256807535886765e+00 1.696468323469161987e+01 -9.506562213879021783e-01
-4.308150362223386765e+00 1.660543030500411987e+01 -9.312928180675896783e-01
-4.349410127848386765e+00 1.627230042219161987e+01 -9.136536579113396783e-01
