1.332498431205749512e+00 9.078848928213119507e+01 2.152869543153798304e+00
4.449251890182495117e-01 8.935904592275619507e+01 2.124396642763173304e+00
-4.140836000442504883e-01 8.935831350088119507e+01 2.137290319520985804e+00
-1.285177350044250488e+00 9.122623342275619507e+01 2.200095495302235804e+00
1.504861712455749512e+00 3.687406057119369507e+01 8.109353390522358040e-01
1.177102923393249512e+00 3.700516408681869507e+01 8.184274044819233040e-01
8.552035093307495117e-01 3.733597463369369507e+01 8.331368771381733040e-01
4.876497983932495117e-01 3.646744436025619507e+01 8.096230831928608040e-01
4.813021421432495117e-01 9.198758596181869507e+01 2.605048498231923304e+00
-4.041959047317504883e-01 9.193167775869369507e+01 2.614264806825673304e+00
-1.288717389106750488e+00 9.234342092275619507e+01 2.640784582216298304e+00
-6.471158266067504883e-01 1.242435353994369507e+01 -7.459341677837016960e-01
-7.386685609817504883e-01 1.248612111806869507e+01 -7.480246218852641960e-01
-8.313199281692504883e-01 1.254251760244369507e+01 -7.500387820415141960e-01
-9.251919984817504883e-01 1.259073537588119507e+01 -7.515951785258891960e-01
-1.021017193794250488e+00 1.266068166494369507e+01 -7.543112429790141960e-01
-1.118185162544250488e+00 1.273184865713119507e+01 -7.570883425883891960e-01
-1.217428326606750488e+00 1.280435842275619507e+01 -7.599112185649516960e-01
-1.317525982856750488e+00 1.287259572744369507e+01 -7.627188357524516960e-01
-6.543179750442504883e-01 1.326077932119369507e+01 -7.461325320415141960e-01
-7.542935609817504883e-01 1.332999318838119507e+01 -7.484213504008891960e-01
-8.562222719192504883e-01 1.341116994619369507e+01 -7.510611209087016960e-01
-9.603482484817504883e-01 1.349893850088119507e+01 -7.542349490337016960e-01
-1.066061139106750488e+00 1.358817189931869507e+01 -7.574698123149516960e-01
-1.173727154731750488e+00 1.367887014150619507e+01 -7.607504519633891960e-01
-1.284566998481750488e+00 1.378201955556869507e+01 -7.648855837993266960e-01
-1.397848248481750488e+00 1.389456838369369507e+01 -7.692038211040141960e-01
-6.640836000442504883e-01 1.438468068838119507e+01 -7.517477664165141960e-01
-7.759000062942504883e-01 1.448734182119369507e+01 -7.550894412212016960e-01
-8.904019594192504883e-01 1.460721486806869507e+01 -7.591940554790141960e-01
-1.008321881294250488e+00 1.473905080556869507e+01 -7.637869509868266960e-01
-1.128561139106750488e+00 1.487357228994369507e+01 -7.685019168071391960e-01
-1.251974225044250488e+00 1.501151174306869507e+01 -7.733084353618266960e-01
-1.378805279731750488e+00 1.515335744619369507e+01 -7.782675418071391960e-01
-1.508443951606750488e+00 1.529837697744369507e+01 -7.833334597758891960e-01
-6.753140687942504883e-01 1.567984670400619507e+01 -7.543265017680766960e-01
-8.003140687942504883e-01 1.579410451650619507e+01 -7.571951541118266960e-01
-9.287320375442504883e-01 1.594547170400619507e+01 -7.618490847758891960e-01
-1.061178326606750488e+00 1.610806936025619507e+01 -7.668997439555766960e-01
-1.196676373481750488e+00 1.627432912588119507e+01 -7.720877322368266960e-01
-1.340108990669250488e+00 1.651578420400619507e+01 -7.802511843852641960e-01
-1.490255475044250488e+00 1.677616018056869507e+01 -7.891165408305766960e-01
-1.645040631294250488e+00 1.703458303213119507e+01 -7.981802615337016960e-01
-6.909390687942504883e-01 1.746671193838119507e+01 -7.626425418071391960e-01
-8.337613344192504883e-01 1.758853811025619507e+01 -7.653128298930766960e-01
-9.868375062942504883e-01 1.797208303213119507e+01 -7.774130496196391960e-01
-1.150655865669250488e+00 1.842069143056869507e+01 -7.917715701274516960e-01
-1.321554303169250488e+00 1.883573049306869507e+01 -8.048178347758891960e-01
-1.497213482856750488e+00 1.918997853994369507e+01 -8.155752810649516960e-01
-1.681905865669250488e+00 1.956253713369369507e+01 -8.268820437602641960e-01
-1.884908795356750488e+00 2.007816213369369507e+01 -8.431936892680766960e-01
-7.107144594192504883e-01 1.974637502431869507e+01 -7.705771121196391960e-01
-8.791714906692504883e-01 2.002115529775619507e+01 -7.768179568462016960e-01
-1.057272076606750488e+00 2.043228811025619507e+01 -7.876822146587016960e-01
-1.249532818794250488e+00 2.097977346181869507e+01 -8.027426394633891960e-01
-1.450704693794250488e+00 2.149234670400619507e+01 -8.165671023540141960e-01
-1.663961529731750488e+00 2.203592580556869507e+01 -8.312307986430766960e-01
-1.894552350044250488e+00 2.265994924306869507e+01 -8.482443484477641960e-01
-2.148824810981750488e+00 2.343070119619369507e+01 -8.701407107524516960e-01
-7.351285219192504883e-01 2.256546682119369507e+01 -7.718588504008891960e-01
-9.347134828567504883e-01 2.300076955556869507e+01 -7.811972293071391960e-01
-1.149068951606750488e+00 2.364041799306869507e+01 -7.959372195415141960e-01
-1.382345318794250488e+00 2.441605275869369507e+01 -8.141562136821391960e-01
-1.636983990669250488e+00 2.532437795400619507e+01 -8.357474002055766960e-01
-1.898336529731750488e+00 2.603348439931869507e+01 -8.517843875102641960e-01
-2.172384381294250488e+00 2.670621389150619507e+01 -8.666617068462016960e-01
-2.474264264106750488e+00 2.756998342275619507e+01 -8.864065798930766960e-01
-7.682095766067504883e-01 2.639212697744369507e+01 -7.705465945415141960e-01
-1.015401959419250488e+00 2.733096975088119507e+01 -7.887198123149516960e-01
-1.276754498481750488e+00 2.810758107900619507e+01 -8.023764285258891960e-01
-1.547506451606750488e+00 2.870047658681869507e+01 -8.123251589946391960e-01
-1.824483990669250488e+00 2.918900197744369507e+01 -8.198324832133891960e-01
-2.128439068794250488e+00 2.996683400869369507e+01 -8.335501345805766960e-01
-2.450948834419250488e+00 3.077310842275619507e+01 -8.483511599712016960e-01
-2.794698834419250488e+00 3.165018361806869507e+01 -8.638388308696391960e-01
-8.128873109817504883e-01 3.157938283681869507e+01 -7.581106814555766960e-01
-1.102316021919250488e+00 3.202164357900619507e+01 -7.622915896587016960e-01
-1.400045514106750488e+00 3.243973439931869507e+01 -7.659384402446391960e-01
-1.707906842231750488e+00 3.287210744619369507e+01 -7.697073611430766960e-01
-2.044332623481750488e+00 3.372855275869369507e+01 -7.808005007915141960e-01
-2.382589459419250488e+00 3.432059377431869507e+01 -7.870718630962016960e-01
-2.739278912544250488e+00 3.498721975088119507e+01 -7.944571170024516960e-01
-3.100240826606750488e+00 3.555130666494369507e+01 -7.999045046977641960e-01
-8.728238344192504883e-01 3.856705373525619507e+01 -7.229696902446391960e-01
-1.231954693794250488e+00 3.902017873525619507e+01 -7.242819461040141960e-01
-1.601705670356750488e+00 3.952188771963119507e+01 -7.261130007915141960e-01
-1.987325787544250488e+00 4.013272756338119507e+01 -7.292105349712016960e-01
-2.384664654731750488e+00 4.075162404775619507e+01 -7.322775515727641960e-01
-2.779073834419250488e+00 4.110513967275619507e+01 -7.317587527446391960e-01
-3.187887310981750488e+00 4.154227346181869507e+01 -7.321859988383891960e-01
-3.602682232856750488e+00 4.195584768056869507e+01 -7.322012576274516960e-01
-1.362081646919250488e+00 9.460477346181869507e+01 -1.058174768369639196e+00
-2.165426373481750488e+00 8.899356740713119507e+01 -9.966818484477641960e-01
-3.180441021919250488e+00 9.463309377431869507e+01 -1.033516565244639196e+00
-2.137350201606750488e+00 4.407132619619369507e+01 -5.929037722758891960e-01
-2.560934185981750488e+00 4.442288869619369507e+01 -5.902640017680766960e-01
-2.998190045356750488e+00 4.488309377431869507e+01 -5.884176882915141960e-01
-1.311178326606750488e+00 8.942301076650619507e+01 -6.178366336040141960e-01
-2.139669537544250488e+00 8.790653127431869507e+01 -5.996176394633891960e-01
-3.174703717231750488e+00 9.463529103994369507e+01 -6.149374636821391960e-01
-2.134908795356750488e+00 4.407498830556869507e+01 -4.061209353618266960e-01
-2.558126568794250488e+00 4.441983693838119507e+01 -4.017569216899516960e-01
-2.995260357856750488e+00 4.488004201650619507e+01 -3.977133425883891960e-01
-1.301656842231750488e+00 8.893729299306869507e+01 -2.215658816508891960e-01
-2.143331646919250488e+00 8.838846486806869507e+01 -2.098013552837016960e-01
-3.057150006294250488e+00 9.072122853994369507e+01 -1.986166629008891960e-01
-2.132467389106750488e+00 4.407865041494369507e+01 -2.193075808696391960e-01
-2.555318951606750488e+00 4.441690725088119507e+01 -2.132956179790141960e-01
-2.992452740669250488e+00 4.487699025869369507e+01 -2.070547732524516960e-01
-7.549093365669250488e+00 9.228275197744369507e+01 -1.328360232524516960e-01
-1.300558209419250488e+00 8.944547170400619507e+01 1.729653683491108040e-01
-2.177145123481750488e+00 9.050394338369369507e+01 1.905434933491108040e-01
-3.035909771919250488e+00 9.017569631338119507e+01 2.012551632709858040e-01
-2.129903912544250488e+00 4.408231252431869507e+01 -3.148714629932669595e-02
-2.552511334419250488e+00 4.441397756338119507e+01 -2.387301055713919595e-02
-2.989523053169250488e+00 4.487393850088119507e+01 -1.541964141651419595e-02
-6.474264264106750488e+00 8.966837209463119507e+01 2.480233517475483040e-01
-7.711202740669250488e+00 9.442362111806869507e+01 2.883828488178608040e-01
-1.288351178169250488e+00 8.865054982900619507e+01 5.618508663959858040e-01
-2.166769146919250488e+00 9.024124807119369507e+01 5.873635617084858040e-01
-3.186788678169250488e+00 9.567484182119369507e+01 6.529458370991108040e-01
-3.870748639106750488e+00 8.943973439931869507e+01 6.045754757709858040e-01
-2.587911725044250488e+00 4.520035451650619507e+01 1.724313107319233040e-01
-5.636861920356750488e+00 9.025137990713119507e+01 6.377786007709858040e-01
-6.443624615669250488e+00 8.930289357900619507e+01 6.406167355366108040e-01
-7.362447857856750488e+00 9.005448049306869507e+01 6.630929318256733040e-01
-1.313131451606750488e+00 9.221427053213119507e+01 1.002662023622548304e+00
-2.205587506294250488e+00 9.265311330556869507e+01 1.021903356630360804e+00
-3.139425396919250488e+00 9.421341603994369507e+01 1.057395299989735804e+00
-3.900533795356750488e+00 9.036185353994369507e+01 1.014853796083485804e+00
-2.585226178169250488e+00 4.520145314931869507e+01 3.654702511616108040e-01
-5.662252545356750488e+00 9.078324025869369507e+01 1.046622594911610804e+00
-6.727316021919250488e+00 9.353580373525619507e+01 1.100684484560048304e+00
-7.278341412544250488e+00 8.905545705556869507e+01 1.046286901552235804e+00
-1.288717389106750488e+00 8.996536916494369507e+01 1.369742712099110804e+00
-2.236593365669250488e+00 9.465213674306869507e+01 1.468604406435048304e+00
-3.911764264106750488e+00 9.080118459463119507e+01 1.422202428895985804e+00
-2.582540631294250488e+00 4.520255178213119507e+01 5.574563351459858040e-01
-6.036764264106750488e+00 9.730924123525619507e+01 1.574454626161610804e+00
-6.364645123481750488e+00 8.831290334463119507e+01 1.412650426942860804e+00
-7.248312115669250488e+00 8.874454396963119507e+01 1.435904821474110804e+00
-1.281149029731750488e+00 8.971121877431869507e+01 1.760413488466298304e+00
-2.302023053169250488e+00 9.854923146963119507e+01 1.980292638856923304e+00
-2.136861920356750488e+00 4.453958791494369507e+01 7.284158078022358040e-01
-2.579000592231750488e+00 4.518533986806869507e+01 7.500375119037983040e-01
-5.590841412544250488e+00 8.975430959463119507e+01 1.826499303895985804e+00
-6.585592389106750488e+00 9.163321584463119507e+01 1.884986242372548304e+00
-1.288229107856750488e+00 9.122086232900619507e+01 2.199973424989735804e+00
-2.202535748481750488e+00 9.341507619619369507e+01 2.274817785341298304e+00
-3.254049420356750488e+00 9.890262502431869507e+01 2.440772375185048304e+00
-2.134664654731750488e+00 4.455057424306869507e+01 9.175484982319233040e-01
-2.576315045356750488e+00 4.518533986806869507e+01 9.418862667866108040e-01
-5.553732037544250488e+00 8.921329396963119507e+01 2.207465490419423304e+00
-6.352193951606750488e+00 8.829532521963119507e+01 2.196326574403798304e+00
-7.576192975044250488e+00 9.308475393056869507e+01 2.347892126161610804e+00
-1.291891217231750488e+00 9.234879201650619507e+01 2.640998205263173304e+00
-2.338277935981750488e+00 1.012109746336936951e+02 2.941382726747548304e+00
-3.165304303169250488e+00 9.596036428213119507e+01 2.784552892763173304e+00
-2.132467389106750488e+00 4.456168264150619507e+01 1.107764562685048304e+00
-2.573507428169250488e+00 4.518533986806869507e+01 1.134757360536610804e+00
-5.656637310981750488e+00 9.108194631338119507e+01 2.665549596864735804e+00
-6.390890240669250488e+00 8.894595998525619507e+01 2.607901891786610804e+00
-7.214132428169250488e+00 8.852664846181869507e+01 2.609214147645985804e+00
-1.317892193794250488e+00 1.287308400869369507e+01 -7.627493533305766960e-01
-1.419942975044250488e+00 1.294644826650619507e+01 -7.656485232524516960e-01
-1.523214459419250488e+00 1.301566213369369507e+01 -7.685476931743266960e-01
-1.628683209419250488e+00 1.308634084463119507e+01 -7.714926394633891960e-01
-1.735494732856750488e+00 1.315799611806869507e+01 -7.744833621196391960e-01
-1.849386334419250488e+00 1.327042287588119507e+01 -7.796560916118266960e-01
-1.984518170356750488e+00 1.351456350088119507e+01 -7.918326052837016960e-01
-2.128439068794250488e+00 1.378543752431869507e+01 -8.056723269633891960e-01
-1.398336529731750488e+00 1.389517873525619507e+01 -7.692343386821391960e-01
-1.513692975044250488e+00 1.400296682119369507e+01 -7.735678347758891960e-01
-1.632345318794250488e+00 1.412003225088119507e+01 -7.780996951274516960e-01
-1.753561139106750488e+00 1.423331350088119507e+01 -7.826620730571391960e-01
-1.889425396919250488e+00 1.445072072744369507e+01 -7.923056277446391960e-01
-2.046407818794250488e+00 1.479471486806869507e+01 -8.081137332133891960e-01
-2.213033795356750488e+00 1.515323537588119507e+01 -8.248526248149516960e-01
-2.415182232856750488e+00 1.570059865713119507e+01 -8.504416140727641960e-01
-1.508932232856750488e+00 1.529910939931869507e+01 -7.833639773540141960e-01
-1.641256451606750488e+00 1.543949025869369507e+01 -7.884756716899516960e-01
-1.776998639106750488e+00 1.558365529775619507e+01 -7.937246951274516960e-01
-1.937887310981750488e+00 1.592386525869369507e+01 -8.076712283305766960e-01
-2.118063092231750488e+00 1.636881154775619507e+01 -8.261953982524516960e-01
-2.311788678169250488e+00 1.684757131338119507e+01 -8.461386355571391960e-01
-2.521627545356750488e+00 1.736588186025619507e+01 -8.677145632915141960e-01
-2.747945904731750488e+00 1.792471975088119507e+01 -8.909842166118266960e-01
-1.645650982856750488e+00 1.703616994619369507e+01 -7.982412966899516960e-01
-1.808126568794250488e+00 1.731925100088119507e+01 -8.078543337993266960e-01
-2.001730084419250488e+00 1.785575002431869507e+01 -8.278586062602641960e-01
-2.232931256294250488e+00 1.862930959463119507e+01 -8.572012576274516960e-01
-2.470480084419250488e+00 1.932584279775619507e+01 -8.833090457133891960e-01
-2.778341412544250488e+00 2.045426076650619507e+01 -9.264151248149516960e-01
-3.038351178169250488e+00 2.106912893056869507e+01 -9.489523562602641960e-01
-3.290182232856750488e+00 2.154801076650619507e+01 -9.664541873149516960e-01
-1.885885357856750488e+00 2.008341115713119507e+01 -8.433767947368266960e-01
-2.124899029731750488e+00 2.088236135244369507e+01 -8.699118289165141960e-01
-2.359762310981750488e+00 2.147415822744369507e+01 -8.889547976665141960e-01
-2.608785748481750488e+00 2.207669728994369507e+01 -9.082113894633891960e-01
-2.888204693794250488e+00 2.283304494619369507e+01 -9.327627810649516960e-01
-3.220602154731750488e+00 2.387772268056869507e+01 -9.672476443462016960e-01
-3.584005475044250488e+00 2.498404592275619507e+01 -1.003639856260264196e+00
-3.620626568794250488e+00 2.376151174306869507e+01 -9.587179812602641960e-01
-2.150167584419250488e+00 2.343973439931869507e+01 -8.704001101665141960e-01
-2.448629498481750488e+00 2.452957814931869507e+01 -9.012533816508891960e-01
-2.738790631294250488e+00 2.530936330556869507e+01 -9.228140505962016960e-01
-3.069967389106750488e+00 2.630948537588119507e+01 -9.509359988383891960e-01
-3.410909771919250488e+00 2.722452443838119507e+01 -9.762350711040141960e-01
-3.761495709419250488e+00 2.806729787588119507e+01 -9.991232546977641960e-01
-3.664449810981750488e+00 2.557120412588119507e+01 -9.207235964946391960e-01
-3.640279889106750488e+00 2.390201467275619507e+01 -8.683554324321391960e-01
-2.475484967231750488e+00 2.757364553213119507e+01 -8.864981326274516960e-01
-2.785543560981750488e+00 2.832913869619369507e+01 -9.034506472758891960e-01
-3.129293560981750488e+00 2.926541799306869507e+01 -9.249502810649516960e-01
-3.487814068794250488e+00 3.015140432119369507e+01 -9.448935183696391960e-01
-3.860006451606750488e+00 3.100382131338119507e+01 -9.637686404399516960e-01
-4.279684185981750488e+00 3.208499807119369507e+01 -9.883352908305766960e-01
-4.043233990669250488e+00 2.829617971181869507e+01 -8.877340945415141960e-01
-4.486959576606750488e+00 2.956668752431869507e+01 -9.171682986430766960e-01
-2.796041607856750488e+00 3.165616506338119507e+01 -8.639609011821391960e-01
-3.162496685981750488e+00 3.258573049306869507e+01 -8.805777224712016960e-01
-3.557272076606750488e+00 3.360636037588119507e+01 -8.981711062602641960e-01
-3.939840435981750488e+00 3.431058400869369507e+01 -9.094626101665141960e-01
-4.325216412544250488e+00 3.492252248525619507e+01 -9.186026248149516960e-01
-4.718893170356750488e+00 3.549649709463119507e+01 -9.267965945415141960e-01
-5.144918560981750488e+00 3.620645803213119507e+01 -9.384848269633891960e-01
-5.073507428169250488e+00 3.349820607900619507e+01 -8.778158816508891960e-01
-3.101705670356750488e+00 3.555582326650619507e+01 -7.999655398540141960e-01
-3.497823834419250488e+00 3.637955373525619507e+01 -8.098379763774516960e-01
-3.871603131294250488e+00 3.680411428213119507e+01 -8.127524050883891960e-01
-4.287618756294250488e+00 3.751944631338119507e+01 -8.203970584087016960e-01
-4.704733014106750488e+00 3.812601369619369507e+01 -8.260580691508891960e-01
-5.122335553169250488e+00 3.863590139150619507e+01 -8.299490603618266960e-01
-5.555685162544250488e+00 3.916898244619369507e+01 -8.340689334087016960e-01
-6.005025982856750488e+00 3.974002736806869507e+01 -8.386770877055766960e-01
-3.604147076606750488e+00 4.195804494619369507e+01 -7.322165164165141960e-01
-4.036031842231750488e+00 4.246353811025619507e+01 -7.333304080180766960e-01
-4.489523053169250488e+00 4.307596486806869507e+01 -7.356039675883891960e-01
-4.948385357856750488e+00 4.360452932119369507e+01 -7.366568240337016960e-01
-5.382467389106750488e+00 4.383866018056869507e+01 -7.340475711040141960e-01
-5.834371685981750488e+00 4.416641896963119507e+01 -7.324759158305766960e-01
-6.316061139106750488e+00 4.464371389150619507e+01 -7.325369509868266960e-01
-6.808614850044250488e+00 4.513150686025619507e+01 -7.325979861430766960e-01
-8.640768170356750488e+00 9.437235158681869507e+01 -9.562002810649516960e-01
-4.835836529731750488e+00 4.660880178213119507e+01 -5.786215457133891960e-01
-5.310079693794250488e+00 4.695059865713119507e+01 -5.751272830180766960e-01
-5.794698834419250488e+00 4.732608693838119507e+01 -5.717856082133891960e-01
-1.295558750629425049e+01 9.934281057119369507e+01 -9.411703738383891960e-01
-1.308388340473175049e+01 8.714163869619369507e+01 -8.294607791118266960e-01
-8.429586529731750488e+00 9.205972951650619507e+01 -5.300833377055766960e-01
-4.833273053169250488e+00 4.661197561025619507e+01 -3.793875369243266960e-01
-5.306783795356750488e+00 4.694803518056869507e+01 -3.740774783305766960e-01
-5.791402935981750488e+00 4.732352346181869507e+01 -3.687826785258891960e-01
-1.243361485004425049e+01 9.534976857900619507e+01 -4.871603640727641960e-01
-1.330043613910675049e+01 8.863150686025619507e+01 -4.447714480571391960e-01
-7.551900982856750488e+00 9.227970021963119507e+01 -1.327902468852641960e-01
-8.489767193794250488e+00 9.280655568838119507e+01 -1.187521609477641960e-01
-4.830587506294250488e+00 4.661514943838119507e+01 -1.801535281352641960e-01
-5.303609967231750488e+00 4.694559377431869507e+01 -1.730734500102641960e-01
-5.788107037544250488e+00 4.732095998525619507e+01 -1.658102664165141960e-01
-1.242079746723175049e+01 9.530057424306869507e+01 -6.212679473682669595e-02
-1.310158360004425049e+01 8.734049123525619507e+01 -5.071322051807669595e-02
-7.714132428169250488e+00 9.442032521963119507e+01 2.884133663959858040e-01
-8.432882428169250488e+00 9.223160451650619507e+01 2.892525997944233040e-01
-4.831808209419250488e+00 4.665750783681869507e+01 2.039273651317330405e-02
-1.047304356098175049e+01 9.452921193838119507e+01 3.314584103412983040e-01
-1.070180332660675049e+01 8.871073049306869507e+01 3.077615109272358040e-01
-1.241420567035675049e+01 9.529935353994369507e+01 3.649972287006733040e-01
-1.396034824848175049e+01 9.969278615713119507e+01 4.094155636616108040e-01
-1.308278477191925049e+01 8.725394338369369507e+01 3.376534787006733040e-01
-7.698385357856750488e+00 9.429813283681869507e+01 7.077401486225483040e-01
-8.481832623481750488e+00 9.285294240713119507e+01 7.046426144428608040e-01
-9.200948834419250488e+00 9.102786916494369507e+01 6.992562619037983040e-01
-9.763692975044250488e+00 8.805716603994369507e+01 6.807931271381733040e-01
-1.081923496723175049e+01 8.974918264150619507e+01 7.132333126850483040e-01
-1.167336094379425049e+01 8.959830373525619507e+01 7.254556027241108040e-01
-1.252809727191925049e+01 8.943741506338119507e+01 7.376015988178608040e-01
-1.299416172504425049e+01 8.670023244619369507e+01 7.218240109272358040e-01
-7.281271100044250488e+00 8.905570119619369507e+01 1.046332677919423304e+00
-8.540914654731750488e+00 9.358914846181869507e+01 1.129691442567860804e+00
-9.542013287544250488e+00 9.455313771963119507e+01 1.159491857606923304e+00
-1.031374180316925049e+01 9.317691701650619507e+01 1.153174718935048304e+00
-1.076564610004425049e+01 8.934891408681869507e+01 1.107734045106923304e+00
-1.141994297504425049e+01 8.767691701650619507e+01 1.095404943544423304e+00
-1.272609531879425049e+01 9.090616506338119507e+01 1.161521276552235804e+00
-1.396437656879425049e+01 9.324698537588119507e+01 1.214240392763173304e+00
-7.251119732856750488e+00 8.874246877431869507e+01 1.435904821474110804e+00
-8.769918560981750488e+00 9.624967092275619507e+01 1.597495397645985804e+00
-9.506246685981750488e+00 9.425260061025619507e+01 1.573310216981923304e+00
-5.346334576606750488e+00 4.744986623525619507e+01 6.430428829975483040e-01
-1.142250645160675049e+01 8.774222463369369507e+01 1.486274084169423304e+00
-1.278969395160675049e+01 9.140897268056869507e+01 1.576834997255360804e+00
-1.294557774066925049e+01 8.645352834463119507e+01 1.490516027528798304e+00
-7.926046490669250488e+00 8.676187795400619507e+01 1.794547399599110804e+00
-5.343404889106750488e+00 4.745023244619369507e+01 8.473580685444233040e-01
-1.044203770160675049e+01 8.671854299306869507e+01 1.837592443544423304e+00
-1.164174473285675049e+01 8.949307912588119507e+01 1.922248205263173304e+00
-1.214504063129425049e+01 8.680826467275619507e+01 1.869452795106923304e+00
-1.297548496723175049e+01 8.669339650869369507e+01 1.881354650575673304e+00
-8.832052350044250488e+00 8.751688283681869507e+01 2.215201696474110804e+00
-5.340353131294250488e+00 4.745072072744369507e+01 1.050574621278798304e+00
-1.070168125629425049e+01 8.895853322744369507e+01 2.288535436708485804e+00
-1.148024570941925049e+01 8.828311818838119507e+01 2.283988317567860804e+00
-1.239259922504425049e+01 8.863541311025619507e+01 2.312232336122548304e+00
-1.395253574848175049e+01 9.329642385244369507e+01 2.468619665224110804e+00
-7.217062115669250488e+00 8.852652639150619507e+01 2.609244665224110804e+00
-7.883932232856750488e+00 8.641141408681869507e+01 2.551688512880360804e+00
-8.731710553169250488e+00 8.655313771963119507e+01 2.571952184755360804e+00
-9.888448834419250488e+00 8.947659963369369507e+01 2.687156042177235804e+00
-1.069716465473175049e+01 8.897049611806869507e+01 2.685920080263173304e+00
-1.268776524066925049e+01 9.080777639150619507e+01 2.781760534364735804e+00
-1.331923496723175049e+01 8.908365529775619507e+01 2.740287145692860804e+00
-2.129415631294250488e+00 1.378922170400619507e+01 -8.058706912212016960e-01
-2.291647076606750488e+00 1.413700002431869507e+01 -8.235708865337016960e-01
-2.456808209419250488e+00 1.445816701650619507e+01 -8.400503787212016960e-01
-2.632345318794250488e+00 1.479569143056869507e+01 -8.573843630962016960e-01
-2.848287701606750488e+00 1.530765432119369507e+01 -8.839346560649516960e-01
-3.057027935981750488e+00 1.572952932119369507e+01 -9.056479129008891960e-01
-3.246847271919250488e+00 1.601639455556869507e+01 -9.201437625102641960e-01
-3.491964459419250488e+00 1.652469533681869507e+01 -9.466635379008891960e-01
-2.416280865669250488e+00 1.570499318838119507e+01 -8.506552371196391960e-01
-2.600484967231750488e+00 1.606827443838119507e+01 -8.675314578227641960e-01
-2.798238873481750488e+00 1.646488088369369507e+01 -8.856436404399516960e-01
-3.019308209419250488e+00 1.693997853994369507e+01 -9.078299197368266960e-01
-3.271993756294250488e+00 1.752872365713119507e+01 -9.354635867290141960e-01
-3.573873639106750488e+00 1.829923146963119507e+01 -9.718252810649516960e-01
-3.925924420356750488e+00 1.922489064931869507e+01 -1.015968957822764196e+00
-3.985616803169250488e+00 1.874942678213119507e+01 -9.919211062602641960e-01
-2.749288678169250488e+00 1.793021291494369507e+01 -8.912283572368266960e-01
-3.010275006294250488e+00 1.863162893056869507e+01 -9.210287722758891960e-01
-3.349142193794250488e+00 1.970230764150619507e+01 -9.669424685649516960e-01
-3.679708600044250488e+00 2.059818166494369507e+01 -1.005028406064951696e+00
-3.816305279731750488e+00 2.038260549306869507e+01 -9.942862185649516960e-01
-3.880392193794250488e+00 1.982596486806869507e+01 -9.686514529399516960e-01
-3.936544537544250488e+00 1.928092092275619507e+01 -9.435965212993266960e-01
-3.994161725044250488e+00 1.879276174306869507e+01 -9.211050662212016960e-01
-3.291402935981750488e+00 2.155216115713119507e+01 -9.666220339946391960e-01
-3.645040631294250488e+00 2.260135549306869507e+01 -1.005959192197764196e+00
-3.709982037544250488e+00 2.182669728994369507e+01 -9.739157351665141960e-01
-3.770406842231750488e+00 2.110721486806869507e+01 -9.441610964946391960e-01
-3.826192975044250488e+00 2.044132131338119507e+01 -9.166189822368266960e-01
-3.887106060981750488e+00 1.986551564931869507e+01 -8.926932009868266960e-01
-3.945211529731750488e+00 1.932718557119369507e+01 -8.703238162212016960e-01
-4.065694928169250488e+00 1.912039846181869507e+01 -8.613211306743266960e-01
-3.619772076606750488e+00 2.375113576650619507e+01 -9.583517703227641960e-01
-3.655538678169250488e+00 2.267545217275619507e+01 -9.191214236430766960e-01
-3.720358014106750488e+00 2.189517873525619507e+01 -8.903280886821391960e-01
-3.780538678169250488e+00 2.117044728994369507e+01 -8.635794314555766960e-01
-3.942037701606750488e+00 2.105423635244369507e+01 -8.579184207133891960e-01
-6.381368756294250488e+00 3.226322072744369507e+01 -1.241326013486826696e+00
-6.069723248481750488e+00 2.936795705556869507e+01 -1.139427820127451696e+00
-6.205343365669250488e+00 2.875760549306869507e+01 -1.116142908018076696e+00
-3.639425396919250488e+00 2.389151662588119507e+01 -8.680349978618266960e-01
-3.850607037544250488e+00 2.390274709463119507e+01 -8.658072146587016960e-01
-5.332662701606750488e+00 3.137308400869369507e+01 -1.087502160947764196e+00
-5.772604107856750488e+00 3.221012014150619507e+01 -1.109642663877451696e+00
-6.371358990669250488e+00 3.378885549306869507e+01 -1.153694787900889196e+00
-6.771993756294250488e+00 3.421512502431869507e+01 -1.163231531064951696e+00
-7.295187115669250488e+00 3.516788381338119507e+01 -1.188225427549326696e+00
-7.830831646919250488e+00 3.608634084463119507e+01 -1.212822595518076696e+00
-4.493673443794250488e+00 2.960513967275619507e+01 -9.181448611430766960e-01
-5.458883404731750488e+00 3.396646779775619507e+01 -1.026116052549326696e+00
-5.939108014106750488e+00 3.494827932119369507e+01 -1.047615686338389196e+00
-6.379537701606750488e+00 3.558463186025619507e+01 -1.060173669736826696e+00
-6.898824810981750488e+00 3.656522268056869507e+01 -1.081215539854014196e+00
-7.312521100044250488e+00 3.691361135244369507e+01 -1.086250940244639196e+00
-7.768087506294250488e+00 3.741458791494369507e+01 -1.094978967588389196e+00
-8.241232037544250488e+00 3.794669240713119507e+01 -1.104347864072764196e+00
-5.074728131294250488e+00 3.349930471181869507e+01 -8.778158816508891960e-01
-5.489156842231750488e+00 3.416995900869369507e+01 -8.882071170024516960e-01
-6.053609967231750488e+00 3.563492482900619507e+01 -9.140249880962016960e-01
-6.552267193794250488e+00 3.655496877431869507e+01 -9.290701541118266960e-01
-7.080221295356750488e+00 3.752921193838119507e+01 -9.450003298930766960e-01
-7.563497662544250488e+00 3.817447561025619507e+01 -9.540030154399516960e-01
-8.040670514106750488e+00 3.871536916494369507e+01 -9.616171511821391960e-01
-8.533102154731750488e+00 3.927384084463119507e+01 -9.685751589946391960e-01
-6.006979107856750488e+00 3.974429982900619507e+01 -8.387228640727641960e-01
-6.459982037544250488e+00 4.025833791494369507e+01 -8.424154910258891960e-01
-6.924459576606750488e+00 4.076956838369369507e+01 -8.459250125102641960e-01
-7.387472271919250488e+00 4.119937795400619507e+01 -8.479696902446391960e-01
-7.861349225044250488e+00 4.163944143056869507e+01 -8.500754031352641960e-01
-8.329733014106750488e+00 4.199918264150619507e+01 -8.507925662212016960e-01
-8.809225201606750488e+00 4.236307424306869507e+01 -8.514486941508891960e-01
-9.297872662544250488e+00 4.273343557119369507e+01 -8.521048220805766960e-01
-6.810690045356750488e+00 4.513614553213119507e+01 -7.326285037212016960e-01
-7.284444928169250488e+00 4.543619436025619507e+01 -7.304464968852641960e-01
-7.766012310981750488e+00 4.573636525869369507e+01 -7.281729373149516960e-01
-8.290304303169250488e+00 4.622269338369369507e+01 -7.278525027446391960e-01
-8.834493756294250488e+00 4.676065725088119507e+01 -7.279745730571391960e-01
-9.597311139106750488e+00 4.832291311025619507e+01 -7.391134890727641960e-01
-1.007216465473175049e+01 4.835294240713119507e+01 -7.332693728618266960e-01
-1.104457676410675049e+01 5.062345021963119507e+01 -7.512442263774516960e-01
-1.308937656879425049e+01 8.715946096181869507e+01 -8.295370730571391960e-01
-7.815816998481750488e+00 4.878262990713119507e+01 -5.568167361430766960e-01
-8.315206646919250488e+00 4.898746389150619507e+01 -5.516592654399516960e-01
-8.838766217231750488e+00 4.928409475088119507e+01 -5.470053347758891960e-01
-1.539797031879425049e+01 8.123050588369369507e+01 -7.436148318462016960e-01
-1.544191563129425049e+01 7.743949025869369507e+01 -7.087484988383891960e-01
-1.656203281879425049e+01 7.908878225088119507e+01 -7.079397830180766960e-01
-1.104286777973175049e+01 5.063211721181869507e+01 -5.282675418071391960e-01
-1.330324375629425049e+01 8.863016408681869507e+01 -4.447256716899516960e-01
-7.813741803169250488e+00 4.879007619619369507e+01 -3.460013064555766960e-01
-8.311544537544250488e+00 4.898538869619369507e+01 -3.394858035258891960e-01
-8.835104107856750488e+00 4.928189748525619507e+01 -3.330618533305766960e-01
-1.522572910785675049e+01 8.035599416494369507e+01 -3.787161502055766960e-01
-1.551527988910675049e+01 7.783206838369369507e+01 -3.629843386821391960e-01
-1.623805820941925049e+01 7.758133596181869507e+01 -3.511130007915141960e-01
-1.104115879535675049e+01 5.064078420400619507e+01 -3.064200076274516960e-01
-1.310317051410675049e+01 8.733109182119369507e+01 -5.068270293995169595e-02
-7.811666607856750488e+00 4.879752248525619507e+01 -1.340109500102641960e-01
-8.308004498481750488e+00 4.898331350088119507e+01 -1.273581179790141960e-01
-8.831319928169250488e+00 4.927982228994369507e+01 -1.191488894633891960e-01
-1.474208652973175049e+01 7.784512990713119507e+01 -2.687899200245169595e-02
-1.567531406879425049e+01 7.865738576650619507e+01 -1.224581329151419595e-02
-1.630837070941925049e+01 7.794119924306869507e+01 -4.202517680766959529e-04
-1.103969395160675049e+01 5.065030568838119507e+01 -8.332125274463919595e-02
-1.327321445941925049e+01 8.851041311025619507e+01 3.464730587787983040e-01
-1.388771641254425049e+01 8.692252248525619507e+01 3.494637814350483040e-01
-1.503139317035675049e+01 8.862674611806869507e+01 3.760751095600483040e-01
-8.899679303169250488e+00 4.967825978994369507e+01 9.885342987254830405e-02
-1.483644688129425049e+01 7.837027639150619507e+01 3.265450802631733040e-01
-1.527638828754425049e+01 7.669693654775619507e+01 3.262704220600483040e-01
-1.648280918598175049e+01 7.879386037588119507e+01 3.556893673725483040e-01
-1.700905430316925049e+01 7.762174123525619507e+01 3.590920773334858040e-01
-1.299648106098175049e+01 8.669571584463119507e+01 7.218087521381733040e-01
-1.394765293598175049e+01 8.733621877431869507e+01 7.420571652241108040e-01
-1.456386387348175049e+01 8.590616506338119507e+01 7.398598995991108040e-01
-8.896261334419250488e+00 4.967825978994369507e+01 3.145669308491108040e-01
-1.502089512348175049e+01 7.936893361806869507e+01 6.888192501850483040e-01
-1.552858555316925049e+01 7.798136037588119507e+01 6.851113644428608040e-01
-1.644862949848175049e+01 7.865897268056869507e+01 7.072060910053608040e-01
-1.753700840473175049e+01 8.003214162588119507e+01 7.404244747944233040e-01
-1.396779453754425049e+01 9.324869436025619507e+01 1.214316686708485804e+00
-1.388588535785675049e+01 8.698673146963119507e+01 1.127967199403798304e+00
-1.438088047504425049e+01 8.486221975088119507e+01 1.108191808778798304e+00
-8.892843365669250488e+00 4.967813771963119507e+01 5.314095822162983040e-01
-1.503871738910675049e+01 7.949198049306869507e+01 1.047385534364735804e+00
-1.562782871723175049e+01 7.850443166494369507e+01 1.044730505067860804e+00
-1.644106113910675049e+01 7.864981740713119507e+01 1.061499914247548304e+00
-1.690199863910675049e+01 7.718875783681869507e+01 1.050086340028798304e+00
-1.294777500629425049e+01 8.644840139150619507e+01 1.490470251161610804e+00
-1.393288242816925049e+01 8.731949514150619507e+01 1.522910436708485804e+00
-1.449782383441925049e+01 8.558682912588119507e+01 1.502372106630360804e+00
-8.887106060981750488e+00 4.966483205556869507e+01 7.467873898334858040e-01
-1.500038731098175049e+01 7.931986135244369507e+01 1.398764928895985804e+00
-1.568520176410675049e+01 7.881839650869369507e+01 1.402747472841298304e+00
-1.602809727191925049e+01 7.671793264150619507e+01 1.371344884950673304e+00
-1.689967930316925049e+01 7.720352834463119507e+01 1.398566564638173304e+00
-1.297853672504425049e+01 8.669449514150619507e+01 1.881430944520985804e+00
-1.516420567035675049e+01 9.509329885244369507e+01 2.114615758974110804e+00
-1.445583164691925049e+01 8.537467092275619507e+01 1.880988439638173304e+00
-8.883932232856750488e+00 4.966605275869369507e+01 9.635537472553608040e-01
-1.497499668598175049e+01 7.921536916494369507e+01 1.752173742372548304e+00
-1.546913731098175049e+01 7.776785939931869507e+01 1.729300817567860804e+00
-1.596425449848175049e+01 7.644071096181869507e+01 1.709159216005360804e+00
-1.688381016254425049e+01 7.715750783681869507e+01 1.743644079286610804e+00
-1.321010410785675049e+01 8.828934377431869507e+01 2.317435583192860804e+00
-1.470070469379425049e+01 9.222110646963119507e+01 2.454963049013173304e+00
-1.484767735004425049e+01 8.772318166494369507e+01 2.333930334169423304e+00
-1.533266270160675049e+01 8.558780568838119507e+01 2.286109289247548304e+00
-1.488258945941925049e+01 7.875858205556869507e+01 2.091742834169423304e+00
-1.552809727191925049e+01 7.808975881338119507e+01 2.086997350770985804e+00
-1.609572422504425049e+01 7.709097951650619507e+01 2.073539098817860804e+00
-1.682362949848175049e+01 7.691019338369369507e+01 2.083731969911610804e+00
-1.332167637348175049e+01 8.907938283681869507e+01 2.740195592958485804e+00
-1.409645664691925049e+01 8.846097463369369507e+01 2.735221227724110804e+00
-1.441066563129425049e+01 8.517728322744369507e+01 2.638144811708485804e+00
-1.533644688129425049e+01 8.564212697744369507e+01 2.672812780458485804e+00
-1.513979160785675049e+01 8.014273732900619507e+01 2.494651159364735804e+00
-1.531447422504425049e+01 7.705069631338119507e+01 2.400626501161610804e+00
-1.615627110004425049e+01 7.740482228994369507e+01 2.429969152528798304e+00
-1.724342930316925049e+01 7.883499807119369507e+01 2.500525793153798304e+00
-3.493429303169250488e+00 1.652896779775619507e+01 -9.468924197368266960e-01
-3.772604107856750488e+00 1.713541311025619507e+01 -9.783255252055766960e-01
-4.083150982856750488e+00 1.781485646963119507e+01 -1.013909021299326696e+00
-4.132223248481750488e+00 1.740372365713119507e+01 -9.917380007915141960e-01
-4.178732037544250488e+00 1.701456350088119507e+01 -9.707571658305766960e-01
-4.234029889106750488e+00 1.668509572744369507e+01 -9.529501589946391960e-01
-4.274923443794250488e+00 1.632584279775619507e+01 -9.335867556743266960e-01
-4.316183209419250488e+00 1.599271291494369507e+01 -9.159475955180766960e-01
-3.985494732856750488e+00 1.874625295400619507e+01 -9.917685183696391960e-01
-4.039938092231750488e+00 1.828751271963119507e+01 -9.690176638774516960e-01
-4.091451764106750488e+00 1.785343068838119507e+01 -9.471060427837016960e-01
-4.140401959419250488e+00 1.744010061025619507e+01 -9.266134890727641960e-01
-4.186788678169250488e+00 1.704910939931869507e+01 -9.072348269633891960e-01
-4.243551373481750488e+00 1.672354787588119507e+01 -8.910147341899516960e-01
-4.315206646919250488e+00 1.647012990713119507e+01 -8.786245974712016960e-01
-4.460470318794250488e+00 1.648221486806869507e+01 -8.786703738383891960e-01
-3.994039654731750488e+00 1.878958791494369507e+01 -9.209677371196391960e-01
-4.048238873481750488e+00 1.832840627431869507e+01 -9.000784548930766960e-01
-4.099630475044250488e+00 1.789188283681869507e+01 -8.803183230571391960e-01
-4.191671490669250488e+00 1.764615529775619507e+01 -8.688742312602641960e-01
-4.348165631294250488e+00 1.766348928213119507e+01 -8.688742312602641960e-01
-6.115743756294250488e+00 2.352896779775619507e+01 -1.122200647275889196e+00
-6.151144146919250488e+00 2.289237111806869507e+01 -1.093575158994639196e+00
-5.872213482856750488e+00 2.124185842275619507e+01 -1.021202722471201696e+00
-4.066427350044250488e+00 1.912076467275619507e+01 -8.613363894633891960e-01
-6.053243756294250488e+00 2.694901174306869507e+01 -1.163643518369639196e+00
-6.117574810981750488e+00 2.619254201650619507e+01 -1.132820764463389196e+00
-6.142721295356750488e+00 2.533658498525619507e+01 -1.098229089658701696e+00
-6.189718365669250488e+00 2.463004201650619507e+01 -1.069527307432139196e+00
-6.218893170356750488e+00 2.391007131338119507e+01 -1.040383020322764196e+00
-6.250265240669250488e+00 2.324442189931869507e+01 -1.013420740049326696e+00
-5.864889264106750488e+00 2.122183889150619507e+01 -9.348837527446391960e-01
-6.205343365669250488e+00 2.875382131338119507e+01 -1.116005578916514196e+00
-6.181539654731750488e+00 2.750797170400619507e+01 -1.071602502744639196e+00
-6.004049420356750488e+00 2.573258107900619507e+01 -1.009361902158701696e+00
-6.185812115669250488e+00 2.551297658681869507e+01 -1.000176111143076696e+00
-6.292379498481750488e+00 2.502506154775619507e+01 -9.819418582133891960e-01
-6.326925396919250488e+00 2.430863088369369507e+01 -9.560629519633891960e-01
-6.352560162544250488e+00 2.360782521963119507e+01 -9.307943972758891960e-01
-6.381124615669250488e+00 2.296683400869369507e+01 -9.076620730571391960e-01
-7.833273053169250488e+00 3.609232228994369507e+01 -1.212990442197764196e+00
-6.486837506294250488e+00 2.882901662588119507e+01 -9.960562380962016960e-01
-6.349386334419250488e+00 2.716031545400619507e+01 -9.449545535258891960e-01
-6.409078717231750488e+00 2.640006154775619507e+01 -9.206473025493266960e-01
-6.413107037544250488e+00 2.548807424306869507e+01 -8.920523318462016960e-01
-6.375631451606750488e+00 2.449185842275619507e+01 -8.611685427837016960e-01
-6.461568951606750488e+00 2.399515432119369507e+01 -8.448874148540141960e-01
-6.484518170356750488e+00 2.332071584463119507e+01 -8.240896853618266960e-01
-8.243307232856750488e+00 3.794998830556869507e+01 -1.104424158018076696e+00
-8.702291607856750488e+00 3.836637014150619507e+01 -1.111214319150889196e+00
-5.829610943794250488e+00 2.502921193838119507e+01 -7.802817019633891960e-01
-6.060201764106750488e+00 2.503140920400619507e+01 -7.781454714946391960e-01
-6.555074810981750488e+00 2.603201955556869507e+01 -8.002859744243266960e-01
-6.374288678169250488e+00 2.449307912588119507e+01 -7.606588992290141960e-01
-6.575094342231750488e+00 2.439798635244369507e+01 -7.561880740337016960e-01
-6.592306256294250488e+00 2.368985646963119507e+01 -7.369925173930766960e-01
-8.535421490669250488e+00 3.927799123525619507e+01 -9.686361941508891960e-01
-9.046041607856750488e+00 3.985697072744369507e+01 -9.761435183696391960e-01
-5.823751568794250488e+00 2.501200002431869507e+01 -6.771170291118266960e-01
-6.054830670356750488e+00 2.501676076650619507e+01 -6.747366580180766960e-01
-6.382589459419250488e+00 2.538590139150619507e+01 -6.794974002055766960e-01
-6.372945904731750488e+00 2.449429982900619507e+01 -6.596151980571391960e-01
-6.690084576606750488e+00 2.480655568838119507e+01 -6.637655886821391960e-01
-6.706808209419250488e+00 2.408170217275619507e+01 -6.473166140727641960e-01
-9.299947857856750488e+00 4.273612111806869507e+01 -8.521353396587016960e-01
-5.576192975044250488e+00 2.493436330556869507e+01 -5.764395388774516960e-01
-1.032533848285675049e+01 4.355521291494369507e+01 -8.546682986430766960e-01
-6.048727154731750488e+00 2.499967092275619507e+01 -5.719992312602641960e-01
-6.942159771919250488e+00 2.751102346181869507e+01 -6.065298709087016960e-01
-6.372091412544250488e+00 2.449710744619369507e+01 -5.591360720805766960e-01
-6.699239850044250488e+00 2.484488576650619507e+01 -5.615011843852641960e-01
-6.827657818794250488e+00 2.449503225088119507e+01 -5.536886843852641960e-01
-1.104518711566925049e+01 5.061856740713119507e+01 -7.511679324321391960e-01
-1.153188145160675049e+01 5.058426564931869507e+01 -7.443625125102641960e-01
-5.803976178169250488e+00 2.494412893056869507e+01 -4.720389041118266960e-01
-7.276754498481750488e+00 2.985245412588119507e+01 -5.192648562602641960e-01
-6.400289654731750488e+00 2.546597951650619507e+01 -4.713217410258891960e-01
-6.372091412544250488e+00 2.450345510244369507e+01 -4.586722048930766960e-01
-6.687399029731750488e+00 2.480924123525619507e+01 -4.587027224712016960e-01
-6.864523053169250488e+00 2.462528127431869507e+01 -4.539114627055766960e-01
-1.104347813129425049e+01 5.062723439931869507e+01 -5.282065066508891960e-01
-1.152785313129425049e+01 5.058267873525619507e+01 -5.209433230571391960e-01
-5.793233990669250488e+00 2.490677541494369507e+01 -3.694235476665141960e-01
-7.305929303169250488e+00 2.997574514150619507e+01 -3.939444216899516960e-01
-6.262838482856750488e+00 2.495169728994369507e+01 -3.631827029399516960e-01
-6.372213482856750488e+00 2.450980275869369507e+01 -3.576132449321391960e-01
-6.675436139106750488e+00 2.477347463369369507e+01 -3.557058962993266960e-01
-6.856100201606750488e+00 2.460282033681869507e+01 -3.516012820415141960e-01
-1.104189121723175049e+01 5.063577932119369507e+01 -3.063894900493266960e-01
-1.152394688129425049e+01 5.058096975088119507e+01 -2.987448367290141960e-01
-7.160787701606750488e+00 3.055020803213119507e+01 -2.728964480571391960e-01
-6.039083600044250488e+00 2.498160451650619507e+01 -2.643210086040141960e-01
-6.242818951606750488e+00 2.488248342275619507e+01 -2.607351931743266960e-01
-6.372213482856750488e+00 2.451615041494369507e+01 -2.570578250102641960e-01
-6.686544537544250488e+00 2.481864064931869507e+01 -2.536398562602641960e-01
-7.080465435981750488e+00 2.536649221181869507e+01 -2.501303347758891960e-01
-1.104042637348175049e+01 5.064530080556869507e+01 -8.330599395557669595e-02
-1.152138340473175049e+01 5.058560842275619507e+01 -7.537142364307669595e-02
-1.207533848285675049e+01 5.082144826650619507e+01 -6.748262969776419595e-02
-2.072438633441925049e+01 8.299759572744369507e+01 6.890042694286080405e-02
-6.237325787544250488e+00 2.486783498525619507e+01 -1.587301882915141960e-01
-6.372335553169250488e+00 2.452249807119369507e+01 -1.564413699321391960e-01
-6.760030865669250488e+00 2.508243459463119507e+01 -1.496054324321391960e-01
-6.896261334419250488e+00 2.475028127431869507e+01 -1.473013552837016960e-01
-1.730800449848175049e+01 7.895902150869369507e+01 3.700784054584858040e-01
-1.803896152973175049e+01 7.870023244619369507e+01 3.818581906147358040e-01
-1.984572422504425049e+01 8.288345998525619507e+01 4.315865841694233040e-01
-2.054347813129425049e+01 8.230741018056869507e+01 4.414285031147358040e-01
-6.231710553169250488e+00 2.485318654775619507e+01 -5.632845489307669595e-02
-6.372335553169250488e+00 2.452884572744369507e+01 -5.524508086963919595e-02
-6.638937115669250488e+00 2.466361135244369507e+01 -4.996553985401419595e-02
-6.930441021919250488e+00 2.487137502431869507e+01 -4.393831817432669595e-02
-1.754054844379425049e+01 8.003519338369369507e+01 7.405160275287983040e-01
-1.827065098285675049e+01 7.972403615713119507e+01 7.495950070209858040e-01
-1.869960606098175049e+01 7.818057912588119507e+01 7.442086544819233040e-01
-2.072121250629425049e+01 8.303433889150619507e+01 8.244393673725483040e-01
-7.709005475044250488e+00 3.046317189931869507e+01 1.221993771381733040e-01
-6.372457623481750488e+00 2.453519338369369507e+01 4.547818573192330405e-02
-8.627828717231750488e+00 3.164652150869369507e+01 1.497720089741108040e-01
-6.934103131294250488e+00 2.488980764150619507e+01 5.965360077098580405e-02
-1.690419590473175049e+01 7.718656057119369507e+01 1.050116857606923304e+00
-1.844643223285675049e+01 8.050772756338119507e+01 1.124595007020985804e+00
-1.933632481098175049e+01 8.083219045400619507e+01 1.146613439638173304e+00
-2.048891270160675049e+01 8.214041799306869507e+01 1.186805090028798304e+00
-7.692648053169250488e+00 3.040933889150619507e+01 2.503732052631733040e-01
-6.372457623481750488e+00 2.454166311025619507e+01 1.467812863178608040e-01
-6.758932232856750488e+00 2.509659475088119507e+01 1.617959347553608040e-01
-6.933736920356750488e+00 2.489420217275619507e+01 1.626046505756733040e-01
-1.690236485004425049e+01 7.720328420400619507e+01 1.398612341005360804e+00
-1.854250156879425049e+01 8.094754689931869507e+01 1.497275671083485804e+00
-1.985829746723175049e+01 8.301163381338119507e+01 1.561362585145985804e+00
-2.074745762348175049e+01 8.318717092275619507e+01 1.583182653505360804e+00
-2.209840977191925049e+01 8.509586232900619507e+01 1.645270666200673304e+00
-6.372579693794250488e+00 2.454801076650619507e+01 2.475961056537983040e-01
-6.751241803169250488e+00 2.507596486806869507e+01 2.648690548725483040e-01
-1.688771641254425049e+01 7.716251271963119507e+01 1.743842443544423304e+00
-1.893507969379425049e+01 8.266800588369369507e+01 1.910865148622548304e+00
-1.974672520160675049e+01 8.257620900869369507e+01 1.926886877138173304e+00
-2.041676914691925049e+01 8.190372365713119507e+01 1.926947912294423304e+00
-2.248842442035675049e+01 8.660111135244369507e+01 2.076667150575673304e+00
-6.372579693794250488e+00 2.455435842275619507e+01 3.489907589741108040e-01
-8.176656842231750488e+00 3.008646291494369507e+01 5.111916867084858040e-01
-1.682594883441925049e+01 7.690848439931869507e+01 2.083731969911610804e+00
-1.910695469379425049e+01 8.343631643056869507e+01 2.310263952333485804e+00
-1.994008457660675049e+01 8.340018361806869507e+01 2.326773962099110804e+00
-2.114577305316925049e+01 8.481265920400619507e+01 2.392402013856923304e+00
-2.221132481098175049e+01 8.557327932119369507e+01 2.437476476747548304e+00
-6.372701764106750488e+00 2.456070607900619507e+01 4.498971310444233040e-01
-8.172262310981750488e+00 3.007828420400619507e+01 6.389077511616108040e-01
-1.724733555316925049e+01 7.884024709463119507e+01 2.500785192567860804e+00
-1.918971836566925049e+01 8.382034963369369507e+01 2.700766882020985804e+00
-1.999233067035675049e+01 8.364188283681869507e+01 2.714942297060048304e+00
-1.988869297504425049e+01 7.986160939931869507e+01 2.595328649599110804e+00
-2.059096348285675049e+01 7.944229787588119507e+01 2.599570592958485804e+00
