9.042620472609996796e-01 8.922194379568099976e+01 1.018497052928438507e+00
5.050228163599967957e-02 8.893874067068099976e+01 1.024356427928438507e+00
2.090297203510999680e+00 3.811501020193099976e+01 3.983646066393760066e-01
5.861171226948499680e+00 9.928200238943099976e+01 1.549655500194063507e+00
1.286220055073499680e+00 3.611342328786849976e+01 3.677249582018760066e-01
3.514979820698499680e+00 9.014027875661849976e+01 1.398212018748751007e+00
2.664149742573499680e+00 9.046815961599349976e+01 1.414523664256563507e+00
1.744716148823499680e+00 8.849574750661849976e+01 1.386645856639376007e+00
9.151263050734996796e-01 8.955812543630599976e+01 1.417071882030001007e+00
5.636165663599967957e-02 8.904750531911849976e+01 1.419177594920626007e+00
1.820033531635999680e+00 3.459657758474349976e+01 4.747958810534385066e-01
1.547084312885999680e+00 3.513991254568099976e+01 4.910464914050010066e-01
1.292933922260999680e+00 3.619838422536849976e+01 5.195193917956260066e-01
9.632220081984996796e-01 3.612270063161849976e+01 5.214725167956260066e-01
2.645839195698499680e+00 8.984291547536849976e+01 1.799884382030001007e+00
1.812465172260999680e+00 9.078835004568099976e+01 1.832263532420626007e+00
9.090227894484996796e-01 8.892018598318099976e+01 1.797473493358126007e+00
6.283138319849967957e-02 8.923805707693099976e+01 1.814837995311251007e+00
1.826137047260999680e+00 3.465236371755599976e+01 6.192660958971885066e-01
1.519984703510999680e+00 3.471242231130599976e+01 6.244235666003135066e-01
1.344813805073499680e+00 3.706984418630599976e+01 6.933780343737510066e-01
9.532122425734996796e-01 3.587270063161849976e+01 6.633792550768760066e-01
6.355852894484996796e-01 3.597768110036849976e+01 6.699710519518760066e-01
1.819056969135999680e+00 9.084218305349349976e+01 2.233127179881563507e+00
9.700579456984996796e-01 9.212611860036849976e+01 2.281741681834688507e+00
6.612728163599967957e-02 8.901137250661849976e+01 2.202334943553438507e+00
1.832972984760999680e+00 3.471803754568099976e+01 7.645450265612510066e-01
1.323207359760999680e+00 3.665968793630599976e+01 8.341403634753135066e-01
9.556536488234996796e-01 3.588564008474349976e+01 8.123965890612510066e-01
6.460833363234996796e-01 3.620888227224349976e+01 8.266025216784385066e-01
1.820399742573499680e+00 9.071083539724349976e+01 2.630481305858126007e+00
9.573626331984996796e-01 9.110927289724349976e+01 2.653308454295626007e+00
7.992122694849967957e-02 9.016823285818099976e+01 2.633746686717501007e+00
-5.148053355515003204e-01 1.290285199880599976e+01 -7.461208669934364934e-01
-6.072125621140003204e-01 1.296632856130599976e+01 -7.482418386731239934e-01
-7.009625621140003204e-01 1.302638715505599976e+01 -7.503933279309364934e-01
-7.962994761765003204e-01 1.308888715505599976e+01 -7.526516287121864934e-01
-8.931012339890003204e-01 1.316469281911849976e+01 -7.555965750012489934e-01
-9.914899058640003204e-01 1.324159711599349976e+01 -7.586025564465614934e-01
-1.091831702739000320e+00 1.332021039724349976e+01 -7.616695730481239934e-01
-1.193272132426500320e+00 1.339516156911849976e+01 -7.647671072278114934e-01
-5.082135386765003204e-01 1.382912153005599976e+01 -7.492184011731239934e-01
-6.100201793015003204e-01 1.391371625661849976e+01 -7.521938650403114934e-01
-7.135358043015003204e-01 1.400600141286849976e+01 -7.552761404309364934e-01
-8.194928355515003204e-01 1.410023969411849976e+01 -7.586788503918739934e-01
-9.274029918015003204e-01 1.420985883474349976e+01 -7.628139822278114934e-01
-1.037754554301500320e+00 1.432179731130599976e+01 -7.670254080090614934e-01
-1.150547523051500320e+00 1.442995160818099976e+01 -7.712978689465614934e-01
-1.265781898051500320e+00 1.454677289724349976e+01 -7.757076589856239934e-01
-5.001568980515003204e-01 1.497218793630599976e+01 -7.535061208996864934e-01
-6.133160777390003204e-01 1.506032270193099976e+01 -7.561001150403114934e-01
-7.283063121140003204e-01 1.514980024099349976e+01 -7.587246267590614934e-01
-8.459820933640003204e-01 1.526186078786849976e+01 -7.623409597668739934e-01
-9.664654918015003204e-01 1.539662641286849976e+01 -7.669338552746864934e-01
-1.089756507426500320e+00 1.553456586599349976e+01 -7.716335623059364934e-01
-1.216465491801500320e+00 1.567641156911849976e+01 -7.764705984387489934e-01
-1.345860023051500320e+00 1.582130903005599976e+01 -7.814144460949989934e-01
-4.908795543015003204e-01 1.629262250661849976e+01 -7.546963064465614934e-01
-6.172223277390003204e-01 1.640846723318099976e+01 -7.575039236340614934e-01
-7.460065074265003204e-01 1.652614301443099976e+01 -7.606777517590614934e-01
-8.793072886765003204e-01 1.671620649099349976e+01 -7.667049734387489934e-01
-1.017857093364000320e+00 1.696303266286849976e+01 -7.749294607434364934e-01
-1.161900062114000320e+00 1.721950238943099976e+01 -7.834896414074989934e-01
-1.313633460551500320e+00 1.751356977224349976e+01 -7.934688894543739934e-01
-1.475010413676500320e+00 1.787489789724349976e+01 -8.063778250012489934e-01
-4.753766246140003204e-01 1.850587934255599976e+01 -7.752498953137489934e-01
-6.238141246140003204e-01 1.862660688161849976e+01 -7.777370779309364934e-01
-7.746930308640003204e-01 1.874916547536849976e+01 -7.802547781262489934e-01
-9.317975230515003204e-01 1.900539106130599976e+01 -7.874569265637489934e-01
-1.094151038676500320e+00 1.928090375661849976e+01 -7.952694265637489934e-01
-1.264072913676500320e+00 1.960268110036849976e+01 -8.046383230481239934e-01
-1.447422523051500320e+00 2.004286664724349976e+01 -8.180507986340614934e-01
-1.644688148051500320e+00 2.057143110036849976e+01 -8.344387380871864934e-01
-4.608502574265003204e-01 2.054909223318099976e+01 -7.705654470715614934e-01
-6.296734996140003204e-01 2.071315473318099976e+01 -7.731441824231239934e-01
-8.021588511765003204e-01 2.089442914724349976e+01 -7.766231863293739934e-01
-9.858746714890003204e-01 2.137563031911849976e+01 -7.892574636731239934e-01
-1.179478187114000320e+00 2.188295453786849976e+01 -8.025631277356239934e-01
-1.384556312114000320e+00 2.241615766286849976e+01 -8.165401785168739934e-01
-1.603306312114000320e+00 2.299306195974349976e+01 -8.317074148449989934e-01
-1.840855140239000320e+00 2.369411176443099976e+01 -8.509640066418739934e-01
-4.399762339890003204e-01 2.348793500661849976e+01 -7.703518240246864934e-01
-6.382184214890003204e-01 2.369643110036849976e+01 -7.733883230481239934e-01
-8.423199839890003204e-01 2.402504438161849976e+01 -7.795070974621864934e-01
-1.063267249614000320e+00 2.476564496755599976e+01 -7.962765066418739934e-01
-1.295811194926500320e+00 2.542567914724349976e+01 -8.107876150403114934e-01
-1.543613929301500320e+00 2.613271039724349976e+01 -8.263363210949989934e-01
-1.798496741801500320e+00 2.668971723318099976e+01 -8.378567068371864934e-01
-2.086216468364000320e+00 2.760133832693099976e+01 -8.583034841809364934e-01
-4.098248668015003204e-01 2.774171918630599976e+01 -7.723812429699989934e-01
-6.506695933640003204e-01 2.803249067068099976e+01 -7.756924001965614934e-01
-8.992047496140003204e-01 2.846095746755599976e+01 -7.812923757824989934e-01
-1.157993812114000320e+00 2.892274945974349976e+01 -7.880825369153114934e-01
-1.425938148051500320e+00 2.940077680349349976e+01 -7.951015798840614934e-01
-1.705845374614000320e+00 2.993410199880599976e+01 -8.031887380871864934e-01
-2.004185218364000320e+00 3.059364789724349976e+01 -8.144497244153114934e-01
-2.326450843364000320e+00 3.143410199880599976e+01 -8.286861746106239934e-01
-3.743024058640003204e-01 3.269447797536849976e+01 -7.467922537121864934e-01
-6.649518199265003204e-01 3.316872113943099976e+01 -7.512478201184364934e-01
-9.654889293015003204e-01 3.365895551443099976e+01 -7.558407156262489934e-01
-1.275669593364000320e+00 3.409718793630599976e+01 -7.594265310559364934e-01
-1.587803382426500320e+00 3.435341352224349976e+01 -7.598690359387489934e-01
-1.922642249614000320e+00 3.501479047536849976e+01 -7.669643728528114934e-01
-2.256992835551500320e+00 3.539418500661849976e+01 -7.692379324231239934e-01
-2.595737952739000320e+00 3.573842328786849976e+01 -7.708401052746864934e-01
-3.120465464890003204e-01 4.142348188161849976e+01 -7.242702810559364934e-01
-6.897320933640003204e-01 4.195375531911849976e+01 -7.260860769543739934e-01
-1.053745765239000320e+00 4.060414594411849976e+01 -7.044491140637489934e-01
-1.433994788676500320e+00 4.106947797536849976e+01 -7.054256765637489934e-01
-3.580723304301500320e+00 9.490187543630599976e+01 -1.355175432423123993e+00
-2.302402991801500320e+00 4.390724653005599976e+01 -7.299923269543739934e-01
-2.729404944926500320e+00 4.435683149099349976e+01 -7.301601736340614934e-01
-3.164951819926500320e+00 4.481520551443099976e+01 -7.303432791028114934e-01
-3.098492808640003204e-01 4.142043012380599976e+01 -5.501980154309364934e-01
-6.874127574265003204e-01 4.195058149099349976e+01 -5.495418875012489934e-01
-1.736607093364000320e+00 9.364113324880599976e+01 -9.480861990246864934e-01
-2.656406898051500320e+00 9.451356977224349976e+01 -9.431270925793739934e-01
-3.530796546489000320e+00 9.355202192068099976e+01 -9.241299001965614934e-01
-2.299839515239000320e+00 4.390456098318099976e+01 -5.442318289074989934e-01
-2.726841468364000320e+00 4.435402387380599976e+01 -5.422787039074989934e-01
-3.162144202739000320e+00 4.481227582693099976e+01 -5.402950613293739934e-01
-3.076520152390003204e-01 4.141737836599349976e+01 -3.771023123059364934e-01
-6.852154918015003204e-01 4.194740766286849976e+01 -3.739590017590614934e-01
-1.657261390239000320e+00 8.788832563161849976e+01 -5.169796316418739934e-01
-2.500278968364000320e+00 8.791762250661849976e+01 -5.060543386731239934e-01
-3.439487952739000320e+00 9.093678754568099976e+01 -5.040096609387489934e-01
-2.297276038676500320e+00 4.390187543630599976e+01 -3.594936697278114934e-01
-2.724155921489000320e+00 4.435121625661849976e+01 -3.554348318371864934e-01
-3.159458655864000320e+00 4.480946820974349976e+01 -3.512997000012489934e-01
-3.054547496140003204e-01 4.141432660818099976e+01 -2.031215994153114934e-01
-6.828961558640003204e-01 4.194423383474349976e+01 -1.974911062512489934e-01
-1.660801429301500320e+00 8.855202192068099976e+01 -1.299251882824989934e-01
-2.560215491801500320e+00 9.077321332693099976e+01 -1.153835623059364934e-01
-3.439854163676500320e+00 9.110731977224349976e+01 -1.033748953137489934e-01
-2.294590491801500320e+00 4.389918988943099976e+01 -1.748165457043739934e-01
-2.721470374614000320e+00 4.434840863943099976e+01 -1.676296560559364934e-01
-3.156651038676500320e+00 4.480653852224349976e+01 -1.613277761731239934e-01
-3.032574839890003204e-01 4.141127485036849976e+01 -3.011744902468649343e-02
-6.805768199265003204e-01 4.194106000661849976e+01 -2.201503203249899343e-02
-1.651402015239000320e+00 8.821767133474349976e+01 2.593265207018760066e-01
-2.559849280864000320e+00 9.098463910818099976e+01 2.874942453112510066e-01
-3.379307288676500320e+00 8.942116254568099976e+01 2.893558175768760066e-01
-2.292393226176500320e+00 4.390468305349349976e+01 1.086765839718850657e-02
-2.719639319926500320e+00 4.436134809255599976e+01 1.921421601437600657e-02
-5.954258460551500320e+00 8.948390668630599976e+01 3.240543039050010066e-01
4.293392226099967957e-02 8.897841352224349976e+01 6.341586740221885066e-01
-8.054547496140003204e-01 8.866005414724349976e+01 6.401858957018760066e-01
-1.658726233989000320e+00 8.919069379568099976e+01 6.571841867175010066e-01
-2.548618812114000320e+00 9.072475141286849976e+01 6.850925119128135066e-01
-3.426670569926500320e+00 9.103236860036849976e+01 7.001224191393760066e-01
-4.218540687114000320e+00 8.916225141286849976e+01 6.913638742175010066e-01
-5.151035804301500320e+00 9.060768598318099976e+01 7.189212472643760066e-01
-5.968052405864000320e+00 8.979054731130599976e+01 7.235599191393760066e-01
4.769466444849967957e-02 8.894350141286849976e+01 1.024478498240938507e+00
-8.032574839890003204e-01 8.974953168630599976e+01 1.048114362498751007e+00
-1.675449866801500320e+00 9.092152875661849976e+01 1.077533307811251007e+00
-2.523350257426500320e+00 8.984084028005599976e+01 1.072864118358126007e+00
-3.398472327739000320e+00 9.032912153005599976e+01 1.092090192576876007e+00
-4.258335608989000320e+00 9.022108930349349976e+01 1.102145734569063507e+00
-5.247837562114000320e+00 9.255189985036849976e+01 1.150531354686251007e+00
-6.757236976176500320e+00 1.024933061003684998e+02 1.320056501170626007e+00
5.343196913599967957e-02 8.904225629568099976e+01 1.419116559764376007e+00
-7.983746714890003204e-01 8.980031293630599976e+01 1.443545881053438507e+00
-1.680698890239000320e+00 9.175563520193099976e+01 1.493915143748751007e+00
-2.545933265239000320e+00 9.106996625661849976e+01 1.492374006053438507e+00
-3.401768226176500320e+00 9.059254926443099976e+01 1.494769635936251007e+00
-4.241489905864000320e+00 8.994752973318099976e+01 1.493671003123751007e+00
-5.124180335551500320e+00 9.030251020193099976e+01 1.512729230662813507e+00
5.990169569849967957e-02 8.924098676443099976e+01 1.814944806834688507e+00
-8.025250621140003204e-01 9.344337934255599976e+01 1.928485456248751007e+00
-1.801304358989000320e+00 1.018303422331809998e+02 2.145053449412813507e+00
-2.701450843364000320e+00 9.822145551443099976e+01 2.070285383006563507e+00
-3.402134437114000320e+00 9.076723188161849976e+01 1.899783674022188507e+00
-2.325230140239000320e+00 4.491005414724349976e+01 7.763248117175010066e-01
-2.738316077739000320e+00 4.491005414724349976e+01 7.820468576159385066e-01
-6.701572913676500320e+00 1.017972611784934998e+02 2.212115827342501007e+00
6.319759413599967957e-02 8.901088422536849976e+01 2.202365461131563507e+00
-7.921490855515003204e-01 9.141066449880599976e+01 2.283389631053438507e+00
-1.672520179301500320e+00 9.194606488943099976e+01 2.308932843944063507e+00
-2.322666663676500320e+00 4.491005414724349976e+01 9.655337960925010066e-01
-2.735752601176500320e+00 4.491005414724349976e+01 9.723086984362510066e-01
-5.887852210551500320e+00 8.884840863943099976e+01 2.280871930858126007e+00
7.711360976099967957e-02 9.018568891286849976e+01 2.634372297069063507e+00
-7.870221324265003204e-01 9.145937055349349976e+01 2.686938825389376007e+00
-1.669224280864000320e+00 9.210487836599349976e+01 2.720920148631563507e+00
-2.539341468364000320e+00 9.148085492849349976e+01 2.712359967967501007e+00
-2.320103187114000320e+00 4.491005414724349976e+01 1.155734601756563507e+00
-2.733189124614000320e+00 4.491005414724349976e+01 1.161563459178438507e+00
-6.017368812114000320e+00 9.101320356130599976e+01 2.747973981639376007e+00
-1.193638343364000320e+00 1.339577192068099976e+01 -7.648128835949989934e-01
-1.298008460551500320e+00 1.348744672536849976e+01 -7.685970632824989934e-01
-1.404209632426500320e+00 1.357765668630599976e+01 -7.725185720715614934e-01
-1.512974280864000320e+00 1.367006391286849976e+01 -7.765468923840614934e-01
-1.623692054301500320e+00 1.376405805349349976e+01 -7.806515066418739934e-01
-1.736607093364000320e+00 1.386000531911849976e+01 -7.848324148449989934e-01
-1.865025062114000320e+00 1.405959028005599976e+01 -7.944607107434364934e-01
-2.008213538676500320e+00 1.434145063161849976e+01 -8.086361257824989934e-01
-1.266148108989000320e+00 1.454787153005599976e+01 -7.757534353528114934e-01
-1.383457679301500320e+00 1.465968793630599976e+01 -7.801937429699989934e-01
-1.504063148051500320e+00 1.478126996755599976e+01 -7.848018972668739934e-01
-1.627354163676500320e+00 1.489882367849349976e+01 -7.894558279309364934e-01
-1.753086585551500320e+00 1.501869672536849976e+01 -7.942165701184364934e-01
-1.900303382426500320e+00 1.530531781911849976e+01 -8.069729177746864934e-01
-2.063267249614000320e+00 1.566676801443099976e+01 -8.235592214856239934e-01
-2.236485023051500320e+00 1.605104535818099976e+01 -8.408932058606239934e-01
-1.346348304301500320e+00 1.582240766286849976e+01 -7.814602224621864934e-01
-1.482700843364000320e+00 1.602089399099349976e+01 -7.890133230481239934e-01
-1.624546546489000320e+00 1.623317426443099976e+01 -7.971309988293739934e-01
-1.772007483989000320e+00 1.645412153005599976e+01 -8.055691091809364934e-01
-1.944492835551500320e+00 1.687514203786849976e+01 -8.227047292981239934e-01
-2.131748694926500320e+00 1.734889692068099976e+01 -8.420528738293739934e-01
-2.334141273051500320e+00 1.786085981130599976e+01 -8.629574148449989934e-01
-2.561314124614000320e+00 1.848268598318099976e+01 -8.885311453137489934e-01
-1.475742835551500320e+00 1.787782758474349976e+01 -8.064846365246864934e-01
-1.647617835551500320e+00 1.828004926443099976e+01 -8.205074636731239934e-01
-1.825474280864000320e+00 1.865468305349349976e+01 -8.337215750012489934e-01
-2.027866858989000320e+00 1.920058149099349976e+01 -8.535427419934364934e-01
-2.276035804301500320e+00 2.008681195974349976e+01 -8.865322439465614934e-01
-2.517124671489000320e+00 2.074916547536849976e+01 -9.106258718762489934e-01
-2.746494788676500320e+00 2.120168012380599976e+01 -9.264339773449989934e-01
-2.995518226176500320e+00 2.173488324880599976e+01 -9.457363455090614934e-01
-1.645420569926500320e+00 2.057497113943099976e+01 -8.345608083996864934e-01
-1.851597327739000320e+00 2.107753461599349976e+01 -8.502163259778114934e-01
-2.074741858989000320e+00 2.165797895193099976e+01 -8.684658376965614934e-01
-2.316441077739000320e+00 2.230189985036849976e+01 -8.887752859387489934e-01
-2.592197913676500320e+00 2.315297406911849976e+01 -9.160580007824989934e-01
-2.890293616801500320e+00 2.404652875661849976e+01 -9.446224539074989934e-01
-3.210606116801500320e+00 2.496474164724349976e+01 -9.738277761731239934e-01
-3.546665687114000320e+00 2.586354535818099976e+01 -1.002178606251248993e+00
-1.842075843364000320e+00 2.370204633474349976e+01 -8.511928884778114934e-01
-2.119297523051500320e+00 2.474831098318099976e+01 -8.799709646496864934e-01
-2.386875648051500320e+00 2.542250531911849976e+01 -8.978542654309364934e-01
-2.685093421489000320e+00 2.626686567068099976e+01 -9.206661550793739934e-01
-2.987339515239000320e+00 2.698866742849349976e+01 -9.396480886731239934e-01
-3.321323890239000320e+00 2.785817426443099976e+01 -9.628414480481239934e-01
-3.660679358989000320e+00 2.861842817068099976e+01 -9.826015798840614934e-01
-4.025181312114000320e+00 2.945424360036849976e+01 -1.005077776173123993e+00
-2.087315101176500320e+00 2.760646528005599976e+01 -8.584255544934364934e-01
-2.382969398051500320e+00 2.837086957693099976e+01 -8.751644460949989934e-01
-2.696445960551500320e+00 2.916164106130599976e+01 -8.924068777356239934e-01
-3.029331702739000320e+00 2.997401899099349976e+01 -9.100002615246864934e-01
-3.376499671489000320e+00 3.077077192068099976e+01 -9.270138113293739934e-01
-3.746128577739000320e+00 3.161879438161849976e+01 -9.451107351574989934e-01
-4.165684241801500320e+00 3.271962445974349976e+01 -9.693111746106239934e-01
-4.559727210551500320e+00 3.346657270193099976e+01 -9.844784109387489934e-01
-2.327671546489000320e+00 3.144020551443099976e+01 -8.288082449231239934e-01
-2.670567054301500320e+00 3.232838910818099976e+01 -8.440670339856239934e-01
-3.038975257426500320e+00 3.330226606130599976e+01 -8.601650564465614934e-01
-3.403721351176500320e+00 3.400966352224349976e+01 -8.712124197278114934e-01
-3.776279944926500320e+00 3.466005414724349976e+01 -8.809475271496864934e-01
-4.151768226176500320e+00 3.521486371755599976e+01 -8.885616628918739934e-01
-4.548618812114000320e+00 3.583705610036849976e+01 -8.981899587903114934e-01
-4.968418616801500320e+00 3.654115766286849976e+01 -9.085354177746864934e-01
-2.597080726176500320e+00 3.574171918630599976e+01 -7.708706228528114934e-01
-2.966709632426500320e+00 3.640907758474349976e+01 -7.777981130871864934e-01
-3.326450843364000320e+00 3.678664106130599976e+01 -7.798733083996864934e-01
-3.696445960551500320e+00 3.717519086599349976e+01 -7.820095388684364934e-01
-4.089878577739000320e+00 3.771864789724349976e+01 -7.865108816418739934e-01
-4.530430335551500320e+00 3.857606977224349976e+01 -7.958187429699989934e-01
-4.926792640239000320e+00 3.891981977224349976e+01 -7.968715994153114934e-01
-5.374546546489000320e+00 3.959987348318099976e+01 -8.030514089856239934e-01
-3.166660804301500320e+00 4.482130903005599976e+01 -7.303890554699989934e-01
-3.930576819926500320e+00 4.409242719411849976e+01 -7.115597097668739934e-01
-8.923618812114000320e+00 9.337514203786849976e+01 -1.267864641407498993e+00
-4.854771155864000320e+00 4.515810102224349976e+01 -7.132534353528114934e-01
-5.460728187114000320e+00 4.681544965505599976e+01 -7.264065115246864934e-01
-5.944370765239000320e+00 4.719020551443099976e+01 -7.249874441418739934e-01
-3.163731116801500320e+00 4.481557172536849976e+01 -5.402950613293739934e-01
-7.993565101176500320e+00 9.312721723318099976e+01 -8.626369802746864934e-01
-8.785313148051500320e+00 9.194984906911849976e+01 -8.428463308606239934e-01
-4.984776038676500320e+00 4.644667524099349976e+01 -5.294308035168739934e-01
-5.457676429301500320e+00 4.681300824880599976e+01 -5.261501638684364934e-01
-5.941196937114000320e+00 4.718776410818099976e+01 -5.228084890637489934e-01
-1.337967349961400032e+01 9.965883344411849976e+01 -8.441433279309364934e-01
-3.161045569926500320e+00 4.481264203786849976e+01 -3.512844412121864934e-01
-7.982334632426500320e+00 9.306105512380599976e+01 -4.509090750012489934e-01
-8.741245765239000320e+00 9.153566449880599976e+01 -4.353908865246864934e-01
-4.981846351176500320e+00 4.644435590505599976e+01 -3.321651785168739934e-01
-5.454502601176500320e+00 4.681068891286849976e+01 -3.270077078137489934e-01
-5.938023108989000320e+00 4.718532270193099976e+01 -3.217281667981239934e-01
-3.158237952739000320e+00 4.480983442068099976e+01 -1.612972585949989934e-01
-7.877964515239000320e+00 9.186830610036849976e+01 -4.241603300906149343e-02
-9.042027015239000320e+00 9.483571332693099976e+01 -2.271693632937399343e-02
-4.978794593364000320e+00 4.644203656911849976e+01 -1.349453298840614934e-01
-5.451450843364000320e+00 4.680836957693099976e+01 -1.278957693371864934e-01
-5.934849280864000320e+00 4.718288129568099976e+01 -1.196255056653114934e-01
-5.956455726176500320e+00 8.947304242849349976e+01 3.240390451159385066e-01
-9.329746741801500320e+00 9.799940961599349976e+01 4.216647775378135066e-01
-1.003982974961400032e+01 8.746510785818099976e+01 3.715701730456260066e-01
-1.104300357773900032e+01 8.871669477224349976e+01 3.932376535143760066e-01
-1.332461978867650032e+01 9.938856977224349976e+01 4.873843820300010066e-01
-5.970615882426500320e+00 8.978627485036849976e+01 7.235599191393760066e-01
-6.774815101176500320e+00 8.900099653005599976e+01 7.253451974596885066e-01
-8.038486976176500320e+00 9.394569867849349976e+01 7.950778634753135066e-01
-9.289829749614000320e+00 8.843837445974349976e+01 7.570377023425010066e-01
-1.033243228867650032e+01 9.010573285818099976e+01 7.897372873034385066e-01
-1.108829166367650032e+01 8.913063520193099976e+01 7.909732492175010066e-01
-1.216409732773900032e+01 9.071730512380599976e+01 8.254886300768760066e-01
-6.761387366801500320e+00 1.025071000456809998e+02 1.320331159373751007e+00
-6.762485999614000320e+00 8.890590375661849976e+01 1.117984357615938507e+00
-7.605625648051500320e+00 8.877431195974349976e+01 1.128985944530001007e+00
-9.012974280864000320e+00 9.471095746755599976e+01 1.238910260936251007e+00
-9.256382483989000320e+00 8.816542524099349976e+01 1.145267072459688507e+00
-1.034024478867650032e+01 9.022523969411849976e+01 1.192554059764376007e+00
-1.220584537461400032e+01 9.826772016286849976e+01 1.340854230662813507e+00
-1.171744205430150032e+01 8.740260785818099976e+01 1.171710553905001007e+00
-6.828526038676500320e+00 8.988881391286849976e+01 1.529819074412813507e+00
-7.888584632426500320e+00 9.226698774099349976e+01 1.592807355662813507e+00
-8.875767249614000320e+00 9.329152387380599976e+01 1.628314557811251007e+00
-9.868443030864000320e+00 9.418129438161849976e+01 1.661288800975313507e+00
-5.478794593364000320e+00 4.715041059255599976e+01 6.777072580065635066e-01
-1.113589908555150032e+01 8.960951703786849976e+01 1.592456403514376007e+00
-1.222891666367650032e+01 9.129127973318099976e+01 1.644580426951876007e+00
-6.704990882426500320e+00 1.018003129363059998e+02 2.212253156444063507e+00
-6.980625648051500320e+00 9.206447309255599976e+01 1.982837262889376007e+00
-8.336094398051500320e+00 8.752187055349349976e+01 1.895740094920626007e+00
-9.690464515239000320e+00 9.250331586599349976e+01 2.037417951365938507e+00
-5.475986976176500320e+00 4.715077680349349976e+01 8.793674142565635066e-01
-1.107327701523900032e+01 8.914540570974349976e+01 1.979220929881563507e+00
-1.223062564805150032e+01 9.134767621755599976e+01 2.050937238475313507e+00
-5.890659827739000320e+00 8.884743207693099976e+01 2.280887189647188507e+00
-6.989170569926500320e+00 9.225941938161849976e+01 2.396853986522188507e+00
-7.560093421489000320e+00 8.841689008474349976e+01 2.294360700389376007e+00
-8.236240882426500320e+00 8.649904340505599976e+01 2.250827375194063507e+00
-9.104527015239000320e+00 8.684315961599349976e+01 2.275165143748751007e+00
-5.473301429301500320e+00 4.715126508474349976e+01 1.079959455272188507e+00
-1.096927310898900032e+01 8.834315961599349976e+01 2.351275983592501007e+00
-1.200589420273900032e+01 8.969972699880599976e+01 2.407397809764376007e+00
-6.708286780864000320e+00 1.020511674284934998e+02 3.126208844920626007e+00
-6.772861976176500320e+00 8.934547895193099976e+01 2.703464093944063507e+00
-7.535923499614000320e+00 8.818922895193099976e+01 2.678195539256563507e+00
-8.215122718364000320e+00 8.632863324880599976e+01 2.628131452342501007e+00
-8.975742835551500320e+00 8.563881391286849976e+01 2.618274274608126007e+00
-1.001822330430150032e+01 8.756374067068099976e+01 2.700000348826876007e+00
-1.096609928086400032e+01 8.836269086599349976e+01 2.742755475780001007e+00
-1.201822330430150032e+01 8.983498090505599976e+01 2.811755719920626007e+00
-2.008823890239000320e+00 1.434364789724349976e+01 -8.087429373059364934e-01
-2.161411780864000320e+00 1.464833539724349976e+01 -8.238796560559364934e-01
-2.326694983989000320e+00 1.499281781911849976e+01 -8.413357107434364934e-01
-2.521030921489000320e+00 1.546596235036849976e+01 -8.654903738293739934e-01
-2.698887366801500320e+00 1.579042524099349976e+01 -8.817867605481239934e-01
-2.880161780864000320e+00 1.609401410818099976e+01 -8.969845144543739934e-01
-3.093662757426500320e+00 1.652638715505599976e+01 -9.188503591809364934e-01
-3.328281898051500320e+00 1.701784223318099976e+01 -9.440883962903114934e-01
-2.237339515239000320e+00 1.605434125661849976e+01 -8.410305349621864934e-01
-2.421665687114000320e+00 1.645839399099349976e+01 -8.596004812512489934e-01
-2.620762366801500320e+00 1.690346235036849976e+01 -8.797268240246864934e-01
-2.835972327739000320e+00 1.738502973318099976e+01 -9.018520681653114934e-01
-3.077305335551500320e+00 1.795937055349349976e+01 -9.283413259778114934e-01
-3.376743812114000320e+00 1.878139203786849976e+01 -9.665493337903114934e-01
-3.700230140239000320e+00 1.963417524099349976e+01 -1.006512102344998993e+00
-3.845371741801500320e+00 1.953432172536849976e+01 -1.000713762501248993e+00
-2.562290687114000320e+00 1.848659223318099976e+01 -8.886837332043739934e-01
-2.830112952739000320e+00 1.929994672536849976e+01 -9.227871267590614934e-01
-3.144566077739000320e+00 2.030495160818099976e+01 -9.650387136731239934e-01
-3.392246741801500320e+00 2.077174848318099976e+01 -9.839443533215614934e-01
-3.645542640239000320e+00 2.121632856130599976e+01 -1.001827654102811493e+00
-3.739902991801500320e+00 2.074953168630599976e+01 -9.804806082043739934e-01
-3.793369788676500320e+00 2.011659711599349976e+01 -9.520687429699989934e-01
-3.853062171489000320e+00 1.957741254568099976e+01 -9.277614919934364934e-01
-2.996738929301500320e+00 2.173915570974349976e+01 -9.458889333996864934e-01
-3.308872718364000320e+00 2.263148969411849976e+01 -9.784206716809364934e-01
-3.575474280864000320e+00 2.310670942068099976e+01 -9.952053396496864934e-01
-3.630894202739000320e+00 2.223024457693099976e+01 -9.599422781262489934e-01
-3.692661780864000320e+00 2.149281781911849976e+01 -9.301418630871864934e-01
-3.749790687114000320e+00 2.080946820974349976e+01 -9.025387136731239934e-01
-3.803135413676500320e+00 2.017238324880599976e+01 -8.768123953137489934e-01
-3.890781898051500320e+00 1.976613324880599976e+01 -8.603786794934364934e-01
-3.548008460551500320e+00 2.586867231130599976e+01 -1.002346452930936493e+00
-3.615147132426500320e+00 2.476820844411849976e+01 -9.630245535168739934e-01
-3.594028968364000320e+00 2.323549360036849976e+01 -9.092373220715614934e-01
-3.641148108989000320e+00 2.230043500661849976e+01 -8.758968679699989934e-01
-3.765903968364000320e+00 2.191920942068099976e+01 -8.614010183606239934e-01
-5.501011390239000320e+00 3.028664106130599976e+01 -1.140942033985623993e+00
-6.027500648051500320e+00 3.156935590505599976e+01 -1.181545671680936493e+00
-6.652622718364000320e+00 3.320351117849349976e+01 -1.233654436329373993e+00
-4.026890296489000320e+00 2.946010297536849976e+01 -1.005230364063748993e+00
-3.675327796489000320e+00 2.519618695974349976e+01 -8.771786062512489934e-01
-3.908482093364000320e+00 2.528468793630599976e+01 -8.776821462903114934e-01
-5.245640296489000320e+00 3.207314008474349976e+01 -1.073208269337186493e+00
-5.674961585551500320e+00 3.286293500661849976e+01 -1.093365129688748993e+00
-6.117588538676500320e+00 3.363185590505599976e+01 -1.112759050587186493e+00
-6.509922523051500320e+00 3.405104535818099976e+01 -1.121899065235623993e+00
-6.996616858989000320e+00 3.488673871755599976e+01 -1.143719133594998993e+00
-4.561192054301500320e+00 3.347035688161849976e+01 -9.845547048840614934e-01
-4.339878577739000320e+00 2.982692426443099976e+01 -8.915829031262489934e-01
-4.796543616801500320e+00 3.106142133474349976e+01 -9.191860525403114934e-01
-5.632969398051500320e+00 3.444289106130599976e+01 -9.990352957043739934e-01
-6.138828773051500320e+00 3.553261274099349976e+01 -1.022350725391873993e+00
-6.635899085551500320e+00 3.644850629568099976e+01 -1.041225847462186493e+00
-7.106724280864000320e+00 3.712074750661849976e+01 -1.053982195118436493e+00
-7.553257483989000320e+00 3.760683149099349976e+01 -1.062130388477811493e+00
-4.970127601176500320e+00 3.654543012380599976e+01 -9.086117117199989934e-01
-5.391026038676500320e+00 3.715138715505599976e+01 -9.170955984387489934e-01
-5.815342444926500320e+00 3.769228070974349976e+01 -9.232754080090614934e-01
-5.783848304301500320e+00 3.537501996755599976e+01 -8.735927908215614934e-01
-6.150425452739000320e+00 3.561195844411849976e+01 -8.746761648449989934e-01
-6.649204749614000320e+00 3.653249067068099976e+01 -8.890804617199989934e-01
-7.183872718364000320e+00 3.752797406911849976e+01 -9.055446951184364934e-01
-7.638096351176500320e+00 3.803114789724349976e+01 -9.114345876965614934e-01
-5.377476233989000320e+00 3.961232465505599976e+01 -8.032192556653114934e-01
-5.787998694926500320e+00 3.992982953786849976e+01 -8.038143484387489934e-01
-6.235508460551500320e+00 4.043788617849349976e+01 -8.072323171887489934e-01
-6.708775062114000320e+00 4.102431195974349976e+01 -8.116878835949989934e-01
-7.159824866801500320e+00 4.141420453786849976e+01 -8.130459158215614934e-01
-7.633579749614000320e+00 4.187624067068099976e+01 -8.153805105481239934e-01
-8.084995765239000320e+00 4.216176313161849976e+01 -8.149532644543739934e-01
-8.581211585551500320e+00 4.263612836599349976e+01 -8.172115652356239934e-01
-1.369778873398900032e+01 8.897658246755599976e+01 -1.152355608204373993e+00
-7.934849280864000320e+00 4.851369184255599976e+01 -7.166256277356239934e-01
-8.444981116801500320e+00 4.880275434255599976e+01 -7.138790457043739934e-01
-8.963535804301500320e+00 4.909657758474349976e+01 -7.110714285168739934e-01
-1.504251529648900032e+01 7.786989301443099976e+01 -9.961513845715614934e-01
-1.662247135117650032e+01 8.182362836599349976e+01 -1.025997575977811493e+00
-1.338296939805150032e+01 9.965871137380599976e+01 -8.440822927746864934e-01
-1.368179752305150032e+01 8.890981000661849976e+01 -7.540706960949989934e-01
-7.931431312114000320e+00 4.851186078786849976e+01 -5.070461599621864934e-01
-8.441563148051500320e+00 4.880080121755599976e+01 -5.025905935559364934e-01
-8.959995765239000320e+00 4.909450238943099976e+01 -4.980587332043739934e-01
-1.544424869492650032e+01 7.995851606130599976e+01 -6.590236990246864934e-01
-1.651297428086400032e+01 8.131679242849349976e+01 -6.556972830090614934e-01
-1.290372135117650032e+01 8.957472699880599976e+01 -3.718075125012489934e-01
-1.339578678086400032e+01 8.708583539724349976e+01 -3.562282888684364934e-01
-7.928135413676500320e+00 4.850990766286849976e+01 -2.986111013684364934e-01
-8.438145179301500320e+00 4.879884809255599976e+01 -2.924618093762489934e-01
-8.956577796489000320e+00 4.909254926443099976e+01 -2.862057058606239934e-01
-1.505386783555150032e+01 7.798134320974349976e+01 -3.012356130871864934e-01
-1.585965396836400032e+01 7.815846723318099976e+01 -2.905392019543739934e-01
-1.260245181992650032e+01 8.751418012380599976e+01 2.154881074093850657e-02
-1.357120181992650032e+01 8.826430219411849976e+01 3.459507538937600657e-02
-7.924717444926500320e+00 4.850795453786849976e+01 -9.022181914187399343e-02
-8.434727210551500320e+00 4.879689496755599976e+01 -8.236354277468649343e-02
-8.953037757426500320e+00 4.909059613943099976e+01 -7.438319609499899343e-02
-1.484317447617650032e+01 7.692604535818099976e+01 4.350620820187600657e-02
-1.578616764023900032e+01 7.782582563161849976e+01 5.842930390500100657e-02
-1.332828189805150032e+01 9.939064496755599976e+01 4.874454171862510066e-01
-1.428934146836400032e+01 9.932106488943099976e+01 5.020328195300010066e-01
-1.365262271836400032e+01 8.883192914724349976e+01 4.335666330065635066e-01
-1.394693424180150032e+01 8.529933637380599976e+01 4.184451730456260066e-01
-1.470023014023900032e+01 8.482143110036849976e+01 4.275088937487510066e-01
-1.462772037461400032e+01 7.989980024099349976e+01 3.989139230456260066e-01
-1.481326724961400032e+01 7.679835981130599976e+01 3.844943673815635066e-01
-1.574600650742650032e+01 7.765565961599349976e+01 4.037967355456260066e-01
-1.216727115586400032e+01 9.071852582693099976e+01 8.255496652331260066e-01
-1.363834049180150032e+01 8.877614301443099976e+01 8.278232248034385066e-01
-1.394620181992650032e+01 8.532899945974349976e+01 7.980228097643760066e-01
-1.474771549180150032e+01 8.512587445974349976e+01 8.090701730456260066e-01
-1.560940982773900032e+01 8.525722211599349976e+01 8.244815499987510066e-01
-1.481412174180150032e+01 7.682875531911849976e+01 7.263522775378135066e-01
-1.570132877305150032e+01 7.746291059255599976e+01 7.490878732409385066e-01
-1.172024967148900032e+01 8.740187543630599976e+01 1.171741071483126007e+00
-1.306424381211400032e+01 9.085561078786849976e+01 1.245303693553438507e+00
-1.325345279648900032e+01 8.630421918630599976e+01 1.181888166209688507e+00
-1.389603092148900032e+01 8.505605024099349976e+01 1.174609723826876007e+00
-1.471902896836400032e+01 8.499367231130599976e+01 1.187778058787813507e+00
-8.989292640239000320e+00 4.933888715505599976e+01 5.676150949206260066e-01
-1.500064517930150032e+01 7.781435102224349976e+01 1.087451520701876007e+00
-1.588492252305150032e+01 7.838441938161849976e+01 1.110919538280001007e+00
-1.223184635117650032e+01 9.129054731130599976e+01 1.644610944530001007e+00
-1.258267642930150032e+01 8.753224653005599976e+01 1.576694074412813507e+00
-1.337027408555150032e+01 8.710255903005599976e+01 1.582538190623751007e+00
-1.445425846055150032e+01 8.850319379568099976e+01 1.628741803905001007e+00
-1.470877506211400032e+01 8.496645063161849976e+01 1.565524640819063507e+00
-8.986362952739000320e+00 4.933998578786849976e+01 7.805209787096885066e-01
-1.501981021836400032e+01 7.793959516286849976e+01 1.436420026561251007e+00
-1.579544498398900032e+01 7.797279828786849976e+01 1.452762189647188507e+00
-1.223343326523900032e+01 9.134523481130599976e+01 2.050921979686251007e+00
-1.243094303086400032e+01 8.651051801443099976e+01 1.939990583201876007e+00
-1.406436588242650032e+01 9.166835492849349976e+01 2.092700544139376007e+00
-1.449710514023900032e+01 8.880043500661849976e+01 2.032779279490938507e+00
-1.468973209336400032e+01 8.488905805349349976e+01 1.943652692576876007e+00
-8.983433265239000320e+00 4.934108442068099976e+01 9.945560128893760066e-01
-1.505740787461400032e+01 7.815932172536849976e+01 1.790957990428438507e+00
-1.604715396836400032e+01 7.922792524099349976e+01 1.834735456248751007e+00
-1.200894596055150032e+01 8.969997113943099976e+01 2.407443586131563507e+00
-1.301907779648900032e+01 9.066164106130599976e+01 2.454211774608126007e+00
-1.451761295273900032e+01 9.466530317068099976e+01 2.594150129100313507e+00
-1.433694889023900032e+01 8.785597699880599976e+01 2.398440900584688507e+00
-1.527969791367650032e+01 8.831801313161849976e+01 2.429782453319063507e+00
-1.564065982773900032e+01 8.554994672536849976e+01 2.358645978709688507e+00
-1.501883365586400032e+01 7.798756879568099976e+01 2.134982648631563507e+00
-1.548685123398900032e+01 7.651588910818099976e+01 2.102496686717501007e+00
-1.202066471055150032e+01 8.983131879568099976e+01 2.811679425975313507e+00
-1.299612857773900032e+01 9.054213422536849976e+01 2.852527204295626007e+00
-1.361233951523900032e+01 8.879298871755599976e+01 2.807635846873751007e+00
-1.402237369492650032e+01 8.596510785818099976e+01 2.723239484569063507e+00
-1.457742740586400032e+01 8.430592817068099976e+01 2.680072370311251007e+00
-1.546976139023900032e+01 8.465089887380599976e+01 2.709369245311251007e+00
-1.534683658555150032e+01 7.970326703786849976e+01 2.544772687694063507e+00
-1.555423404648900032e+01 7.687074750661849976e+01 2.457965436717501007e+00
-3.329624671489000320e+00 1.702223676443099976e+01 -9.443172781262489934e-01
-3.586582679301500320e+00 1.756654828786849976e+01 -9.720119802746864934e-01
-3.936069983989000320e+00 1.846584028005599976e+01 -1.018520769337186493e+00
-3.998325843364000320e+00 1.806984418630599976e+01 -9.974788992199989934e-01
-4.047764319926500320e+00 1.765517133474349976e+01 -9.754757253918739934e-01
-4.094639319926500320e+00 1.726173871755599976e+01 -9.546017019543739934e-01
-4.139317054301500320e+00 1.688686078786849976e+01 -9.347042410168739934e-01
-4.188633460551500320e+00 1.655653852224349976e+01 -9.174923269543739934e-01
-3.845005530864000320e+00 1.952980512380599976e+01 -1.000484880665311493e+00
-3.898960608989000320e+00 1.901576703786849976e+01 -9.754757253918739934e-01
-3.954136390239000320e+00 1.855043500661849976e+01 -9.524349539074989934e-01
-4.006382483989000320e+00 1.810866254568099976e+01 -9.309200613293739934e-01
-4.055820960551500320e+00 1.769191449880599976e+01 -9.106258718762489934e-01
-4.102573890239000320e+00 1.729652875661849976e+01 -8.913692800793739934e-01
-4.148716468364000320e+00 1.692567914724349976e+01 -8.736385671887489934e-01
-4.294224280864000320e+00 1.693727582693099976e+01 -8.736690847668739934e-01
-3.853672523051500320e+00 1.957765668630599976e+01 -9.277767507824989934e-01
-3.907383460551500320e+00 1.905959028005599976e+01 -9.048275320324989934e-01
-3.962437171489000320e+00 1.859145063161849976e+01 -8.840603201184364934e-01
-4.029575843364000320e+00 1.821059125661849976e+01 -8.670620291028114934e-01
-4.187534827739000320e+00 1.822792524099349976e+01 -8.670620291028114934e-01
-6.056675452739000320e+00 2.486464399099349976e+01 -1.148769792774686493e+00
-6.099888343364000320e+00 2.418214887380599976e+01 -1.118664201954373993e+00
-6.130283851176500320e+00 2.350502485036849976e+01 -1.088863786915311493e+00
-3.891392249614000320e+00 1.976637738943099976e+01 -8.603786794934364934e-01
-4.064732093364000320e+00 1.979237836599349976e+01 -8.599819509778114934e-01
-6.089024085551500320e+00 2.798231977224349976e+01 -1.170071062305936493e+00
-6.073154944926500320e+00 2.683388227224349976e+01 -1.125011858204373993e+00
-6.137852210551500320e+00 2.610707563161849976e+01 -1.096065935352811493e+00
-6.165318030864000320e+00 2.529176801443099976e+01 -1.063839372852811493e+00
-6.202549476176500320e+00 2.456947797536849976e+01 -1.035229143360623993e+00
-6.233311194926500320e+00 2.387868207693099976e+01 -1.008404192188748993e+00
-6.654331702739000320e+00 3.320680707693099976e+01 -1.233761247852811493e+00
-7.182896155864000320e+00 3.423048871755599976e+01 -1.265774187305936493e+00
-6.245029944926500320e+00 2.867897504568099976e+01 -1.078792986134061493e+00
-6.360386390239000320e+00 2.805275434255599976e+01 -1.056164201954373993e+00
-5.976353187114000320e+00 2.546132367849349976e+01 -9.685177175793739934e-01
-6.153721351176500320e+00 2.525294965505599976e+01 -9.600185720715614934e-01
-6.304844398051500320e+00 2.495595258474349976e+01 -9.486049978528114934e-01
-6.332798499614000320e+00 2.423976606130599976e+01 -9.234585134778114934e-01
-7.002964515239000320e+00 3.491237348318099976e+01 -1.144436296680936493e+00
-7.565098304301500320e+00 3.600978559255599976e+01 -1.172466692188748993e+00
-7.995518226176500320e+00 3.641737836599349976e+01 -1.181393083790311493e+00
-8.525669593364000320e+00 3.719789594411849976e+01 -1.200832781055936493e+00
-6.406406898051500320e+00 2.720558637380599976e+01 -9.143795339856239934e-01
-6.424961585551500320e+00 2.631007856130599976e+01 -8.870357839856239934e-01
-6.237461585551500320e+00 2.471107953786849976e+01 -8.399776785168739934e-01
-6.332920569926500320e+00 2.424574750661849976e+01 -8.256038992199989934e-01
-7.555332679301500320e+00 3.761073774099349976e+01 -1.062221941212186493e+00
-7.994663733989000320e+00 3.800990766286849976e+01 -1.068554338673123993e+00
-8.444859046489000320e+00 3.841310590505599976e+01 -1.074901994923123993e+00
-8.906773108989000320e+00 3.881691449880599976e+01 -1.081158098438748993e+00
-5.796909827739000320e+00 2.474904340505599976e+01 -7.449459402356239934e-01
-6.564976233989000320e+00 2.685890668630599976e+01 -7.926143972668739934e-01
-6.339634437114000320e+00 2.509731000661849976e+01 -7.490200369153114934e-01
-6.333042640239000320e+00 2.425197309255599976e+01 -7.271694509778114934e-01
-7.640049476176500320e+00 3.803493207693099976e+01 -9.115108816418739934e-01
-8.113438148051500320e+00 3.857179731130599976e+01 -9.181942312512489934e-01
-8.604282874614000320e+00 3.912868207693099976e+01 -9.242519705090614934e-01
-9.117344398051500320e+00 3.971693891286849976e+01 -9.316219656262489934e-01
-5.791416663676500320e+00 2.473317426443099976e+01 -6.444057791028114934e-01
-6.016026038676500320e+00 2.473769086599349976e+01 -6.422085134778114934e-01
-6.719273108989000320e+00 2.651637738943099976e+01 -6.737331716809364934e-01
-6.333164710551500320e+00 2.425795453786849976e+01 -6.292232839856239934e-01
-8.584263343364000320e+00 4.264430707693099976e+01 -8.173183767590614934e-01
-9.055088538676500320e+00 4.294740766286849976e+01 -8.171657888684364934e-01
-9.554844398051500320e+00 4.334157270193099976e+01 -8.182186453137489934e-01
-5.548740882426500320e+00 2.465419477224349976e+01 -5.461544363293739934e-01
-1.054581119492650032e+01 4.396547406911849976e+01 -8.176388113293739934e-01
-6.163120765239000320e+00 2.531398481130599976e+01 -5.504268972668739934e-01
-7.976353187114000320e+00 3.120326703786849976e+01 -6.299557058606239934e-01
-6.333408851176500320e+00 2.426418012380599976e+01 -5.306972830090614934e-01
-1.662283756211400032e+01 8.181178754568099976e+01 -1.025860246876248993e+00
-1.651419498398900032e+01 7.754152387380599976e+01 -9.737362234387489934e-01
-1.109634830430150032e+01 5.017079633474349976e+01 -6.980404226574989934e-01
-1.163174869492650032e+01 5.036293500661849976e+01 -6.938289968762489934e-01
-5.771519202739000320e+00 2.466518110036849976e+01 -4.445309011731239934e-01
-7.269810218364000320e+00 2.961269086599349976e+01 -4.879574148449989934e-01
-6.366245765239000320e+00 2.521413129568099976e+01 -4.440578787121864934e-01
-6.333530921489000320e+00 2.427028363943099976e+01 -4.326443044934364934e-01
-1.651565982773900032e+01 8.131667035818099976e+01 -6.556667654309364934e-01
-1.742886783555150032e+01 8.180788129568099976e+01 -6.473507253918739934e-01
-1.109402896836400032e+01 5.017543500661849976e+01 -4.782223074231239934e-01
-1.162796451523900032e+01 5.036134809255599976e+01 -4.725460378918739934e-01
-5.761387366801500320e+00 2.463026899099349976e+01 -3.445553152356239934e-01
-5.995518226176500320e+00 2.467616742849349976e+01 -3.417782156262489934e-01
-6.219883460551500320e+00 2.467470258474349976e+01 -3.387569753918739934e-01
-6.333652991801500320e+00 2.427638715505599976e+01 -3.340114919934364934e-01
-1.668130924180150032e+01 8.215028852224349976e+01 -2.929043142590614934e-01
-1.715457584336400032e+01 8.056105512380599976e+01 -2.803463308606239934e-01
-1.109170963242650032e+01 5.017995160818099976e+01 -2.595486013684364934e-01
-1.162430240586400032e+01 5.035988324880599976e+01 -2.524685232434364934e-01
-1.217313053086400032e+01 5.058791059255599976e+01 -2.453121511731239934e-01
-6.002842444926500320e+00 2.471071332693099976e+01 -2.422146169934364934e-01
-6.202061194926500320e+00 2.461427778005599976e+01 -2.389644949231239934e-01
-6.333897132426500320e+00 2.428249067068099976e+01 -2.358669607434364934e-01
-1.578860904648900032e+01 7.782497113943099976e+01 5.845982148312600657e-02
-1.695889713242650032e+01 7.967848676443099976e+01 7.837254120968850657e-02
-1.110562564805150032e+01 5.025624555349349976e+01 -4.055446074343649343e-02
-1.813785221055150032e+01 7.792079633474349976e+01 9.331089570187600657e-02
-1.946951724961400032e+01 8.014186567068099976e+01 1.160159738268760066e-01
-2.089432193711400032e+01 8.252675336599349976e+01 1.403232248034385066e-01
-6.196934241801500320e+00 2.460072797536849976e+01 -1.390041677746864934e-01
-6.334019202739000320e+00 2.428859418630599976e+01 -1.371425955090614934e-01
-1.574808170273900032e+01 7.765272992849349976e+01 4.038119943346885066e-01
-1.649258853867650032e+01 7.753871625661849976e+01 4.156222970690635066e-01
-1.734927799180150032e+01 7.791566938161849976e+01 4.319186837878135066e-01
-1.810306217148900032e+01 7.779665082693099976e+01 4.438510568346885066e-01
-1.882718326523900032e+01 7.756325238943099976e+01 4.546847970690635066e-01
-5.992832679301500320e+00 2.468361371755599976e+01 -4.252284453249899343e-02
-6.191685218364000320e+00 2.458730024099349976e+01 -3.971522734499899343e-02
-6.334141273051500320e+00 2.429469770193099976e+01 -3.890651152468649343e-02
-1.570254947617650032e+01 7.745607465505599976e+01 7.490420968737510066e-01
-1.690286685898900032e+01 7.946840375661849976e+01 7.882419259753135066e-01
-1.776712467148900032e+01 7.978981488943099976e+01 8.067508371081260066e-01
-1.900003482773900032e+01 8.161464399099349976e+01 8.465305001940635066e-01
-1.992447330430150032e+01 8.203017133474349976e+01 8.670230539050010066e-01
-5.987827796489000320e+00 2.467006391286849976e+01 5.685764863156350657e-02
-7.695103187114000320e+00 3.019997113943099976e+01 1.414218576159385066e-01
-6.334263343364000320e+00 2.430080121755599976e+01 5.990940644406350657e-02
-1.588797428086400032e+01 7.838637250661849976e+01 1.110995832225313507e+00
-1.624576236680150032e+01 7.644093793630599976e+01 1.089938703319063507e+00
-1.709195377305150032e+01 7.682252973318099976e+01 1.111331525584688507e+00
-1.869827701523900032e+01 8.036122602224349976e+01 1.192157331248751007e+00
-1.958694889023900032e+01 8.068568891286849976e+01 1.213534894725313507e+00
-2.074820377305150032e+01 8.202675336599349976e+01 1.254565778514376007e+00
-7.678867835551500320e+00 3.014699262380599976e+01 2.670322091784385066e-01
-8.215366858989000320e+00 3.105482953786849976e+01 2.901034982409385066e-01
-1.579813053086400032e+01 7.797340863943099976e+01 1.452823224803438507e+00
-1.794669010117650032e+01 8.436891645193099976e+01 1.613635602733126007e+00
-1.709305240586400032e+01 7.685048383474349976e+01 1.455707135936251007e+00
-1.873624088242650032e+01 8.054567426443099976e+01 1.557696882030001007e+00
-1.989676334336400032e+01 8.196413129568099976e+01 1.607394758006563507e+00
-2.177151920273900032e+01 8.602663129568099976e+01 1.720874372264376007e+00
-2.222659732773900032e+01 8.444154828786849976e+01 1.700229230662813507e+00
-8.215855140239000320e+00 3.106374067068099976e+01 4.213443429675010066e-01
