1.862311895936727524e+00 3.443878176808357239e+01 7.621115034911838393e-01
1.352546270936727524e+00 3.638043215870857239e+01 8.317068404052463393e-01
9.849925599992275238e-01 3.560638430714607239e+01 8.099630659911838393e-01
6.754222474992275238e-01 3.592962649464607239e+01 8.241689986083713393e-01
1.849738653749227524e+00 9.043157961964607239e+01 2.628047782788058839e+00
9.867015443742275238e-01 9.083001711964607239e+01 2.650874931225558839e+00
1.092601381242275238e-01 8.988897708058357239e+01 2.631313163647433839e+00
-4.854664243757724762e-01 1.262359622120857239e+01 -7.485543900635036607e-01
-5.778736509382724762e-01 1.268707278370857239e+01 -7.506753617431911607e-01
-6.716236509382724762e-01 1.274713137745857239e+01 -7.528268510010036607e-01
-7.669605650007724762e-01 1.280963137745857239e+01 -7.550851517822536607e-01
-8.637623228132724762e-01 1.288543704152107239e+01 -7.580300980713161607e-01
-9.621509946882724762e-01 1.296234133839607239e+01 -7.610360795166286607e-01
-1.062492791563272476e+00 1.304095461964607239e+01 -7.641030961181911607e-01
-1.163933221250772476e+00 1.311590579152107239e+01 -7.672006302978786607e-01
-4.788746275007724762e-01 1.354986575245857239e+01 -7.516519242431911607e-01
-5.806812681257724762e-01 1.363446047902107239e+01 -7.546273881103786607e-01
-6.841968931257724762e-01 1.372674563527107239e+01 -7.577096635010036607e-01
-7.901539243757724762e-01 1.382098391652107239e+01 -7.611123734619411607e-01
-8.980640806257724762e-01 1.393060305714607239e+01 -7.652475052978786607e-01
-1.008415643125772476e+00 1.404254153370857239e+01 -7.694589310791286607e-01
-1.121208611875772476e+00 1.415069583058357239e+01 -7.737313920166286607e-01
-1.236442986875772476e+00 1.426751711964607239e+01 -7.781411820556911607e-01
-4.708179868757724762e-01 1.469293215870857239e+01 -7.559396439697536607e-01
-5.839771665632724762e-01 1.478106692433357239e+01 -7.585336381103786607e-01
-6.989674009382724762e-01 1.487054446339607239e+01 -7.611581498291286607e-01
-8.166431821882724762e-01 1.498260501027107239e+01 -7.647744828369411607e-01
-9.371265806257724762e-01 1.511737063527107239e+01 -7.693673783447536607e-01
-1.060417596250772476e+00 1.525531008839607239e+01 -7.740670853760036607e-01
-1.187126580625772476e+00 1.539715579152107239e+01 -7.789041215088161607e-01
-1.316521111875772476e+00 1.554205325245857239e+01 -7.838479691650661607e-01
-4.615406431257724762e-01 1.601336672902107239e+01 -7.571298295166286607e-01
-5.878834165632724762e-01 1.612921145558357239e+01 -7.599374467041286607e-01
-7.166675962507724762e-01 1.624688723683357239e+01 -7.631112748291286607e-01
-8.499683775007724762e-01 1.643695071339607239e+01 -7.691384965088161607e-01
-9.885181821882724762e-01 1.668377688527107239e+01 -7.773629838135036607e-01
-1.132561150938272476e+00 1.694024661183357239e+01 -7.859231644775661607e-01
-1.284294549375772476e+00 1.723431399464607239e+01 -7.959024125244411607e-01
-1.445671502500772476e+00 1.759564211964607239e+01 -8.088113480713161607e-01
-4.460377134382724762e-01 1.822662356495857239e+01 -7.776834183838161607e-01
-5.944752134382724762e-01 1.834735110402107239e+01 -7.801706010010036607e-01
-7.453541196882724762e-01 1.846990969777107239e+01 -7.826883011963161607e-01
-9.024586118757724762e-01 1.872613528370857239e+01 -7.898904496338161607e-01
-1.064812127500772476e+00 1.900164797902107239e+01 -7.977029496338161607e-01
-1.234734002500772476e+00 1.932342532277107239e+01 -8.070718461181911607e-01
-1.418083611875772476e+00 1.976361086964607239e+01 -8.204843217041286607e-01
-1.615349236875772476e+00 2.029217532277107239e+01 -8.368722611572536607e-01
-4.315113462507724762e-01 2.026983645558357239e+01 -7.729989701416286607e-01
-6.003345884382724762e-01 2.043389895558357239e+01 -7.755777054931911607e-01
-7.728199400007724762e-01 2.061517336964607239e+01 -7.790567093994411607e-01
-9.565357603132724762e-01 2.109637454152107239e+01 -7.916909867431911607e-01
-1.150139275938272476e+00 2.160369876027107239e+01 -8.049966508056911607e-01
-1.355217400938272476e+00 2.213690188527107239e+01 -8.189737015869411607e-01
-1.573967400938272476e+00 2.271380618214607239e+01 -8.341409379150661607e-01
-1.811516229063272476e+00 2.341485598683357239e+01 -8.533975297119411607e-01
-4.106373228132724762e-01 2.320867922902107239e+01 -7.727853470947536607e-01
-6.088795103132724762e-01 2.341717532277107239e+01 -7.758218461181911607e-01
-8.129810728132724762e-01 2.374578860402107239e+01 -7.819406205322536607e-01
-1.033928338438272476e+00 2.448638918995857239e+01 -7.987100297119411607e-01
-1.266472283750772476e+00 2.514642336964607239e+01 -8.132211381103786607e-01
-1.514275018125772476e+00 2.585345461964607239e+01 -8.287698441650661607e-01
-1.769157830625772476e+00 2.641046145558357239e+01 -8.402902299072536607e-01
-2.056877557188272476e+00 2.732208254933357239e+01 -8.607370072510036607e-01
-3.804859556257724762e-01 2.746246340870857239e+01 -7.748147660400661607e-01
-6.213306821882724762e-01 2.775323489308357239e+01 -7.781259232666286607e-01
-8.698658384382724762e-01 2.818170168995857239e+01 -7.837258988525661607e-01
-1.128654900938272476e+00 2.864349368214607239e+01 -7.905160599853786607e-01
-1.396599236875772476e+00 2.912152102589607239e+01 -7.975351029541286607e-01
-1.676506463438272476e+00 2.965484622120857239e+01 -8.056222611572536607e-01
-1.974846307188272476e+00 3.031439211964607239e+01 -8.168832474853786607e-01
-2.297111932188272476e+00 3.115484622120857239e+01 -8.311196976806911607e-01
-3.449634946882724762e-01 3.241522219777107239e+01 -7.492257767822536607e-01
-6.356129087507724762e-01 3.288946536183357239e+01 -7.536813431885036607e-01
-9.361500181257724762e-01 3.337969973683357239e+01 -7.582742386963161607e-01
-1.246330682188272476e+00 3.381793215870857239e+01 -7.618600541260036607e-01
-1.558464471250772476e+00 3.407415774464607239e+01 -7.623025590088161607e-01
-1.893303338438272476e+00 3.473553469777107239e+01 -7.693978959228786607e-01
-2.227653924375772476e+00 3.511492922902107239e+01 -7.716714554931911607e-01
-2.566399041563272476e+00 3.545916751027107239e+01 -7.732736283447536607e-01
-2.827076353132724762e-01 4.114422610402107239e+01 -7.267038041260036607e-01
-6.603931821882724762e-01 4.167449954152107239e+01 -7.285196000244411607e-01
-1.024406854063272476e+00 4.032489016652107239e+01 -7.068826371338161607e-01
-1.404655877500772476e+00 4.079022219777107239e+01 -7.078591996338161607e-01
-3.551384393125772476e+00 9.462261965870857239e+01 -1.357608955493191161e+00
-2.273064080625772476e+00 4.362799075245857239e+01 -7.324258500244411607e-01
-2.700066033750772476e+00 4.407757571339607239e+01 -7.325936967041286607e-01
-3.135612908750772476e+00 4.453594973683357239e+01 -7.327768021728786607e-01
-2.805103696882724762e-01 4.114117434620857239e+01 -5.526315385010036607e-01
-6.580738462507724762e-01 4.167132571339607239e+01 -5.519754105713161607e-01
-1.707268182188272476e+00 9.336187747120857239e+01 -9.505197220947536607e-01
-2.627067986875772476e+00 9.423431399464607239e+01 -9.455606156494411607e-01
-3.501457635313272476e+00 9.327276614308357239e+01 -9.265634232666286607e-01
-2.270500604063272476e+00 4.362530520558357239e+01 -5.466653519775661607e-01
-2.697502557188272476e+00 4.407476809620857239e+01 -5.447122269775661607e-01
-3.132805291563272476e+00 4.453302004933357239e+01 -5.427285843994411607e-01
-2.783131040632724762e-01 4.113812258839607239e+01 -3.795358353760036607e-01
-6.558765806257724762e-01 4.166815188527107239e+01 -3.763925248291286607e-01
-1.627922479063272476e+00 8.760906985402107239e+01 -5.194131547119411607e-01
-2.470940057188272476e+00 8.763836672902107239e+01 -5.084878617431911607e-01
-3.410149041563272476e+00 9.065753176808357239e+01 -5.064431840088161607e-01
-2.267937127500772476e+00 4.362261965870857239e+01 -3.619271927978786607e-01
-2.694817010313272476e+00 4.407196047902107239e+01 -3.578683549072536607e-01
-3.130119744688272476e+00 4.453021243214607239e+01 -3.537332230713161607e-01
-2.761158384382724762e-01 4.113507083058357239e+01 -2.055551224853786607e-01
-6.535572446882724762e-01 4.166497805714607239e+01 -1.999246293213161607e-01
-1.631462518125772476e+00 8.827276614308357239e+01 -1.323587113525661607e-01
-2.530876580625772476e+00 9.049395754933357239e+01 -1.178170853760036607e-01
-3.410515252500772476e+00 9.082806399464607239e+01 -1.058084183838161607e-01
-2.265251580625772476e+00 4.361993411183357239e+01 -1.772500687744411607e-01
-2.692131463438272476e+00 4.406915286183357239e+01 -1.700631791260036607e-01
-3.127312127500772476e+00 4.452728274464607239e+01 -1.637612992431911607e-01
-2.739185728132724762e-01 4.113201907277107239e+01 -3.255097209475366071e-02
-6.512379087507724762e-01 4.166180422902107239e+01 -2.444855510256616071e-02
-1.622063104063272476e+00 8.793841555714607239e+01 2.568929976318088393e-01
-2.530510369688272476e+00 9.070538333058357239e+01 2.850607222411838393e-01
-3.349968377500772476e+00 8.914190676808357239e+01 2.869222945068088393e-01
-2.263054315000772476e+00 4.362542727589607239e+01 8.434135327121339287e-03
-2.690300408750772476e+00 4.408209231495857239e+01 1.678069294430883929e-02
-5.924919549375772476e+00 8.920465090870857239e+01 3.216207808349338393e-01
7.227283343672752380e-02 8.869915774464607239e+01 6.317251509521213393e-01
-7.761158384382724762e-01 8.838079836964607239e+01 6.377523726318088393e-01
-1.629387322813272476e+00 8.891143801808357239e+01 6.547506636474338393e-01
-2.519279900938272476e+00 9.044549563527107239e+01 6.826589888427463393e-01
-3.397331658750772476e+00 9.075311282277107239e+01 6.976888960693088393e-01
-4.189201775938272476e+00 8.888299563527107239e+01 6.889303511474338393e-01
-5.121696893125772476e+00 9.032843020558357239e+01 7.164877241943088393e-01
-5.938713494688272476e+00 8.951129153370857239e+01 7.211263960693088393e-01
7.703357562422752380e-02 8.866424563527107239e+01 1.022044975170871339e+00
-7.739185728132724762e-01 8.947027590870857239e+01 1.045680839428683839e+00
-1.646110955625772476e+00 9.064227297902107239e+01 1.075099784741183839e+00
-2.494011346250772476e+00 8.956158450245857239e+01 1.070430595288058839e+00
-3.369133416563272476e+00 9.004986575245857239e+01 1.089656669506808839e+00
-4.228996697813272476e+00 8.994183352589607239e+01 1.099712211498996339e+00
-5.218498650938272476e+00 9.227264407277107239e+01 1.148097831616183839e+00
-6.727898065000772476e+00 1.022140503227710724e+02 1.317622978100558839e+00
8.277088031172752380e-02 8.876300051808357239e+01 1.416683036694308839e+00
-7.690357603132724762e-01 8.952105715870857239e+01 1.441112357983371339e+00
-1.651359979063272476e+00 9.147637942433357239e+01 1.491481620678683839e+00
-2.516594354063272476e+00 9.079071047902107239e+01 1.489940482983371339e+00
-3.372429315000772476e+00 9.031329348683357239e+01 1.492336112866183839e+00
-4.212150994688272476e+00 8.966827395558357239e+01 1.491237480053683839e+00
-5.094841424375772476e+00 9.002325442433357239e+01 1.510295707592746339e+00
8.924060687422752380e-02 8.896173098683357239e+01 1.812511283764621339e+00
-7.731861509382724762e-01 9.316412356495857239e+01 1.926051933178683839e+00
-1.771965447813272476e+00 1.015510864555835724e+02 2.142619926342746339e+00
-2.672111932188272476e+00 9.794219973683357239e+01 2.067851859936496339e+00
-3.372795525938272476e+00 9.048797610402107239e+01 1.897350150952121339e+00
-2.295891229063272476e+00 4.463079836964607239e+01 7.738912886474338393e-01
-2.708977166563272476e+00 4.463079836964607239e+01 7.796133345458713393e-01
-6.672234002500772476e+00 1.015180054008960724e+02 2.209682304272433839e+00
9.253650531172752380e-02 8.873162844777107239e+01 2.199931938061496339e+00
-7.628101743757724762e-01 9.113140872120857239e+01 2.280956107983371339e+00
-1.643181268125772476e+00 9.166680911183357239e+01 2.306499320873996339e+00
-2.293327752500772476e+00 4.463079836964607239e+01 9.631002730224338393e-01
-2.706413690000772476e+00 4.463079836964607239e+01 9.698751753661838393e-01
-5.858513299375772476e+00 8.856915286183357239e+01 2.278438407788058839e+00
1.064525209367275238e-01 8.990643313527107239e+01 2.631938773998996339e+00
-7.576832212507724762e-01 9.118011477589607239e+01 2.684505302319308839e+00
-1.639885369688272476e+00 9.182562258839607239e+01 2.718486625561496339e+00
-2.510002557188272476e+00 9.120159915089607239e+01 2.709926444897433839e+00
-2.290764275938272476e+00 4.463079836964607239e+01 1.153301078686496339e+00
-2.703850213438272476e+00 4.463079836964607239e+01 1.159129936108371339e+00
-5.988029900938272476e+00 9.073394778370857239e+01 2.745540458569308839e+00
-1.164299432188272476e+00 1.311651614308357239e+01 -7.672464066650661607e-01
-1.268669549375772476e+00 1.320819094777107239e+01 -7.710305863525661607e-01
-1.374870721250772476e+00 1.329840090870857239e+01 -7.749520951416286607e-01
-1.483635369688272476e+00 1.339080813527107239e+01 -7.789804154541286607e-01
-1.594353143125772476e+00 1.348480227589607239e+01 -7.830850297119411607e-01
-1.707268182188272476e+00 1.358074954152107239e+01 -7.872659379150661607e-01
-1.835686150938272476e+00 1.378033450245857239e+01 -7.968942338135036607e-01
-1.978874627500772476e+00 1.406219485402107239e+01 -8.110696488525661607e-01
-1.236809197813272476e+00 1.426861575245857239e+01 -7.781869584228786607e-01
-1.354118768125772476e+00 1.438043215870857239e+01 -7.826272660400661607e-01
-1.474724236875772476e+00 1.450201418995857239e+01 -7.872354203369411607e-01
-1.598015252500772476e+00 1.461956790089607239e+01 -7.918893510010036607e-01
-1.723747674375772476e+00 1.473944094777107239e+01 -7.966500931885036607e-01
-1.870964471250772476e+00 1.502606204152107239e+01 -8.094064408447536607e-01
-2.033928338438272476e+00 1.538751223683357239e+01 -8.259927445556911607e-01
-2.207146111875772476e+00 1.577178958058357239e+01 -8.433267289306911607e-01
-1.317009393125772476e+00 1.554315188527107239e+01 -7.838937455322536607e-01
-1.453361932188272476e+00 1.574163821339607239e+01 -7.914468461181911607e-01
-1.595207635313272476e+00 1.595391848683357239e+01 -7.995645218994411607e-01
-1.742668572813272476e+00 1.617486575245857239e+01 -8.080026322510036607e-01
-1.915153924375772476e+00 1.659588626027107239e+01 -8.251382523681911607e-01
-2.102409783750772476e+00 1.706964114308357239e+01 -8.444863968994411607e-01
-2.304802361875772476e+00 1.758160403370857239e+01 -8.653909379150661607e-01
-2.531975213438272476e+00 1.820343020558357239e+01 -8.909646683838161607e-01
-1.446403924375772476e+00 1.759857180714607239e+01 -8.089181595947536607e-01
-1.618278924375772476e+00 1.800079348683357239e+01 -8.229409867431911607e-01
-1.796135369688272476e+00 1.837542727589607239e+01 -8.361550980713161607e-01
-1.998527947813272476e+00 1.892132571339607239e+01 -8.559762650635036607e-01
-2.246696893125772476e+00 1.980755618214607239e+01 -8.889657670166286607e-01
-2.487785760313272476e+00 2.046990969777107239e+01 -9.130593949463161607e-01
-2.717155877500772476e+00 2.092242434620857239e+01 -9.288675004150661607e-01
-2.966179315000772476e+00 2.145562747120857239e+01 -9.481698685791286607e-01
-1.616081658750772476e+00 2.029571536183357239e+01 -8.369943314697536607e-01
-1.822258416563272476e+00 2.079827883839607239e+01 -8.526498490478786607e-01
-2.045402947813272476e+00 2.137872317433357239e+01 -8.708993607666286607e-01
-2.287102166563272476e+00 2.202264407277107239e+01 -8.912088090088161607e-01
-2.562859002500772476e+00 2.287371829152107239e+01 -9.184915238525661607e-01
-2.860954705625772476e+00 2.376727297902107239e+01 -9.470559769775661607e-01
-3.181267205625772476e+00 2.468548586964607239e+01 -9.762612992431911607e-01
-3.517326775938272476e+00 2.558428958058357239e+01 -1.004612129321316161e+00
-1.812736932188272476e+00 2.342279055714607239e+01 -8.536264115478786607e-01
-2.089958611875772476e+00 2.446905520558357239e+01 -8.824044877197536607e-01
-2.357536736875772476e+00 2.514324954152107239e+01 -9.002877885010036607e-01
-2.655754510313272476e+00 2.598760989308357239e+01 -9.230996781494411607e-01
-2.958000604063272476e+00 2.670941165089607239e+01 -9.420816117431911607e-01
-3.291984979063272476e+00 2.757891848683357239e+01 -9.652749711181911607e-01
-3.631340447813272476e+00 2.833917239308357239e+01 -9.850351029541286607e-01
-3.995842400938272476e+00 2.917498782277107239e+01 -1.007511299243191161e+00
-2.057976190000772476e+00 2.732720950245857239e+01 -8.608590775635036607e-01
-2.353630486875772476e+00 2.809161379933357239e+01 -8.775979691650661607e-01
-2.667107049375772476e+00 2.888238528370857239e+01 -8.948404008056911607e-01
-2.999992791563272476e+00 2.969476321339607239e+01 -9.124337845947536607e-01
-3.347160760313272476e+00 3.049151614308357239e+01 -9.294473343994411607e-01
-3.716789666563272476e+00 3.133953860402107239e+01 -9.475442582275661607e-01
-4.136345330625772476e+00 3.244036868214607239e+01 -9.717446976806911607e-01
-4.530388299375772476e+00 3.318731692433357239e+01 -9.869119340088161607e-01
-2.298332635313272476e+00 3.116094973683357239e+01 -8.312417679931911607e-01
-2.641228143125772476e+00 3.204913333058357239e+01 -8.465005570556911607e-01
-3.009636346250772476e+00 3.302301028370857239e+01 -8.625985795166286607e-01
-3.374382440000772476e+00 3.373040774464607239e+01 -8.736459427978786607e-01
-3.746941033750772476e+00 3.438079836964607239e+01 -8.833810502197536607e-01
-4.122429315000772476e+00 3.493560793995857239e+01 -8.909951859619411607e-01
-4.519279900938272476e+00 3.555780032277107239e+01 -9.006234818603786607e-01
-4.939079705625772476e+00 3.626190188527107239e+01 -9.109689408447536607e-01
-2.567741815000772476e+00 3.546246340870857239e+01 -7.733041459228786607e-01
-2.937370721250772476e+00 3.612982180714607239e+01 -7.802316361572536607e-01
-3.297111932188272476e+00 3.650738528370857239e+01 -7.823068314697536607e-01
-3.667107049375772476e+00 3.689593508839607239e+01 -7.844430619385036607e-01
-4.060539666563272476e+00 3.743939211964607239e+01 -7.889444047119411607e-01
-4.501091424375772476e+00 3.829681399464607239e+01 -7.982522660400661607e-01
-4.897453729063272476e+00 3.864056399464607239e+01 -7.993051224853786607e-01
-5.345207635313272476e+00 3.932061770558357239e+01 -8.054849320556911607e-01
-3.137321893125772476e+00 4.454205325245857239e+01 -7.328225785400661607e-01
-3.901237908750772476e+00 4.381317141652107239e+01 -7.139932328369411607e-01
-8.894279900938272476e+00 9.309588626027107239e+01 -1.270298164477566161e+00
-4.825432244688272476e+00 4.487884524464607239e+01 -7.156869584228786607e-01
-5.431389275938272476e+00 4.653619387745857239e+01 -7.288400345947536607e-01
-5.915031854063272476e+00 4.691094973683357239e+01 -7.274209672119411607e-01
-3.134392205625772476e+00 4.453631594777107239e+01 -5.427285843994411607e-01
-7.964226190000772476e+00 9.284796145558357239e+01 -8.650705033447536607e-01
-8.755974236875772476e+00 9.167059329152107239e+01 -8.452798539306911607e-01
-4.955437127500772476e+00 4.616741946339607239e+01 -5.318643265869411607e-01
-5.428337518125772476e+00 4.653375247120857239e+01 -5.285836869385036607e-01
-5.911858025938272476e+00 4.690850833058357239e+01 -5.252420121338161607e-01
-1.335033458843827248e+01 9.937957766652107239e+01 -8.465768510010036607e-01
-3.131706658750772476e+00 4.453338626027107239e+01 -3.537179642822536607e-01
-7.952995721250772476e+00 9.278179934620857239e+01 -4.533425980713161607e-01
-8.711906854063272476e+00 9.125640872120857239e+01 -4.378244095947536607e-01
-4.952507440000772476e+00 4.616510012745857239e+01 -3.345987015869411607e-01
-5.425163690000772476e+00 4.653143313527107239e+01 -3.294412308838161607e-01
-5.908684197813272476e+00 4.690606692433357239e+01 -3.241616898681911607e-01
-3.128899041563272476e+00 4.453057864308357239e+01 -1.637307816650661607e-01
-7.848625604063272476e+00 9.158905032277107239e+01 -4.484955607912866071e-02
-9.012688104063272476e+00 9.455645754933357239e+01 -2.515045939944116071e-02
-4.949455682188272476e+00 4.616278079152107239e+01 -1.373788529541286607e-01
-5.422111932188272476e+00 4.652911379933357239e+01 -1.303292924072536607e-01
-5.905510369688272476e+00 4.690362551808357239e+01 -1.220590287353786607e-01
-5.927116815000772476e+00 8.919378665089607239e+01 3.216055220458713393e-01
-9.300407830625772476e+00 9.772015383839607239e+01 4.192312544677463393e-01
-1.001049083843827248e+01 8.718585208058357239e+01 3.691366499755588393e-01
-1.101366466656327248e+01 8.843743899464607239e+01 3.908041304443088393e-01
-1.329528087750077248e+01 9.910931399464607239e+01 4.849508589599338393e-01
-5.941276971250772476e+00 8.950701907277107239e+01 7.211263960693088393e-01
-6.745476190000772476e+00 8.872174075245857239e+01 7.229116743896213393e-01
-8.009148065000772476e+00 9.366644290089607239e+01 7.926443404052463393e-01
-9.260490838438272476e+00 8.815911868214607239e+01 7.546041792724338393e-01
-1.030309337750077248e+01 8.982647708058357239e+01 7.873037642333713393e-01
-1.105895275250077248e+01 8.885137942433357239e+01 7.885397261474338393e-01
-1.213475841656327248e+01 9.043804934620857239e+01 8.230551070068088393e-01
-6.732048455625772476e+00 1.022278442680835724e+02 1.317897636303683839e+00
-6.733147088438272476e+00 8.862664797902107239e+01 1.115550834545871339e+00
-7.576286736875772476e+00 8.849505618214607239e+01 1.126552421459933839e+00
-8.983635369688272476e+00 9.443170168995857239e+01 1.236476737866183839e+00
-9.227043572813272476e+00 8.788616946339607239e+01 1.142833549389621339e+00
-1.031090587750077248e+01 8.994598391652107239e+01 1.190120536694308839e+00
-1.217650646343827248e+01 9.798846438527107239e+01 1.338420707592746339e+00
-1.168810314312577248e+01 8.712335208058357239e+01 1.169277030834933839e+00
-6.799187127500772476e+00 8.960955813527107239e+01 1.527385551342746339e+00
-7.859245721250772476e+00 9.198773196339607239e+01 1.590373832592746339e+00
-8.846428338438272476e+00 9.301226809620857239e+01 1.625881034741183839e+00
-9.839104119688272476e+00 9.390203860402107239e+01 1.658855277905246339e+00
-5.449455682188272476e+00 4.687115481495857239e+01 6.752737349364963393e-01
-1.110656017437577248e+01 8.933026126027107239e+01 1.590022880444308839e+00
-1.219957775250077248e+01 9.101202395558357239e+01 1.642146903881808839e+00
-6.675651971250772476e+00 1.015210571587085724e+02 2.209819633373996339e+00
-6.951286736875772476e+00 9.178521731495857239e+01 1.980403739819308839e+00
-8.306755486875772476e+00 8.724261477589607239e+01 1.893306571850558839e+00
-9.661125604063272476e+00 9.222406008839607239e+01 2.034984428295871339e+00
-5.446648065000772476e+00 4.687152102589607239e+01 8.769338911864963393e-01
-1.104393810406327248e+01 8.886614993214607239e+01 1.976787406811496339e+00
-1.220128673687577248e+01 9.106842043995857239e+01 2.048503715405246339e+00
-5.861320916563272476e+00 8.856817629933357239e+01 2.278453666577121339e+00
-6.959831658750772476e+00 9.198016360402107239e+01 2.394420463452121339e+00
-7.530754510313272476e+00 8.813763430714607239e+01 2.291927177319308839e+00
-8.206901971250772476e+00 8.621978762745857239e+01 2.248393852123996339e+00
-9.075188104063272476e+00 8.656390383839607239e+01 2.272731620678683839e+00
-5.443962518125772476e+00 4.687200930714607239e+01 1.077525932202121339e+00
-1.093993419781327248e+01 8.806390383839607239e+01 2.348842460522433839e+00
-1.197655529156327248e+01 8.942047122120857239e+01 2.404964286694308839e+00
-6.678947869688272476e+00 1.017719116508960724e+02 3.123775321850558839e+00
-6.743523065000772476e+00 8.906622317433357239e+01 2.701030570873996339e+00
-7.506584588438272476e+00 8.790997317433357239e+01 2.675762016186496339e+00
-8.185783807188272476e+00 8.604937747120857239e+01 2.625697929272433839e+00
-8.946403924375772476e+00 8.535955813527107239e+01 2.615840751538058839e+00
-9.988884393125772476e+00 8.728448489308357239e+01 2.697566825756808839e+00
-1.093676036968827248e+01 8.808343508839607239e+01 2.740321952709933839e+00
-1.198888439312577248e+01 8.955572512745857239e+01 2.809322196850558839e+00
-1.979484979063272476e+00 1.406439211964607239e+01 -8.111764603760036607e-01
-2.132072869688272476e+00 1.436907961964607239e+01 -8.263131791260036607e-01
-2.297356072813272476e+00 1.471356204152107239e+01 -8.437692338135036607e-01
-2.491692010313272476e+00 1.518670657277107239e+01 -8.679238968994411607e-01
-2.669548455625772476e+00 1.551116946339607239e+01 -8.842202836181911607e-01
-2.850822869688272476e+00 1.581475833058357239e+01 -8.994180375244411607e-01
-3.064323846250772476e+00 1.624713137745857239e+01 -9.212838822510036607e-01
-3.298942986875772476e+00 1.673858645558357239e+01 -9.465219193603786607e-01
-2.208000604063272476e+00 1.577508547902107239e+01 -8.434640580322536607e-01
-2.392326775938272476e+00 1.617913821339607239e+01 -8.620340043213161607e-01
-2.591423455625772476e+00 1.662420657277107239e+01 -8.821603470947536607e-01
-2.806633416563272476e+00 1.710577395558357239e+01 -9.042855912353786607e-01
-3.047966424375772476e+00 1.768011477589607239e+01 -9.307748490478786607e-01
-3.347404900938272476e+00 1.850213626027107239e+01 -9.689828568603786607e-01
-3.670891229063272476e+00 1.935491946339607239e+01 -1.008945625415066161e+00
-3.816032830625772476e+00 1.925506594777107239e+01 -1.003147285571316161e+00
-2.532951775938272476e+00 1.820733645558357239e+01 -8.911172562744411607e-01
-2.800774041563272476e+00 1.902069094777107239e+01 -9.252206498291286607e-01
-3.115227166563272476e+00 2.002569583058357239e+01 -9.674722367431911607e-01
-3.362907830625772476e+00 2.049249270558357239e+01 -9.863778763916286607e-01
-3.616203729063272476e+00 2.093707278370857239e+01 -1.004261177172878661e+00
-3.710564080625772476e+00 2.047027590870857239e+01 -9.829141312744411607e-01
-3.764030877500772476e+00 1.983734133839607239e+01 -9.545022660400661607e-01
-3.823723260313272476e+00 1.929815676808357239e+01 -9.301950150635036607e-01
-2.967400018125772476e+00 2.145989993214607239e+01 -9.483224564697536607e-01
-3.279533807188272476e+00 2.235223391652107239e+01 -9.808541947510036607e-01
-3.546135369688272476e+00 2.282745364308357239e+01 -9.976388627197536607e-01
-3.601555291563272476e+00 2.195098879933357239e+01 -9.623758011963161607e-01
-3.663322869688272476e+00 2.121356204152107239e+01 -9.325753861572536607e-01
-3.720451775938272476e+00 2.053021243214607239e+01 -9.049722367431911607e-01
-3.773796502500772476e+00 1.989312747120857239e+01 -8.792459183838161607e-01
-3.861442986875772476e+00 1.948687747120857239e+01 -8.628122025635036607e-01
-3.518669549375772476e+00 2.558941653370857239e+01 -1.004779976001003661e+00
-3.585808221250772476e+00 2.448895266652107239e+01 -9.654580765869411607e-01
-3.564690057188272476e+00 2.295623782277107239e+01 -9.116708451416286607e-01
-3.611809197813272476e+00 2.202117922902107239e+01 -8.783303910400661607e-01
-3.736565057188272476e+00 2.163995364308357239e+01 -8.638345414306911607e-01
-5.471672479063272476e+00 3.000738528370857239e+01 -1.143375557055691161e+00
-5.998161736875772476e+00 3.129010012745857239e+01 -1.183979194751003661e+00
-6.623283807188272476e+00 3.292425540089607239e+01 -1.236087959399441161e+00
-3.997551385313272476e+00 2.918084719777107239e+01 -1.007663887133816161e+00
-3.645988885313272476e+00 2.491693118214607239e+01 -8.796121293213161607e-01
-3.879143182188272476e+00 2.500543215870857239e+01 -8.801156693603786607e-01
-5.216301385313272476e+00 3.179388430714607239e+01 -1.075641792407253661e+00
-5.645622674375772476e+00 3.258367922902107239e+01 -1.095798652758816161e+00
-6.088249627500772476e+00 3.335260012745857239e+01 -1.115192573657253661e+00
-6.480583611875772476e+00 3.377178958058357239e+01 -1.124332588305691161e+00
-6.967277947813272476e+00 3.460748293995857239e+01 -1.146152656665066161e+00
-4.531853143125772476e+00 3.319110110402107239e+01 -9.869882279541286607e-01
-4.310539666563272476e+00 2.954766848683357239e+01 -8.940164261963161607e-01
-4.767204705625772476e+00 3.078216555714607239e+01 -9.216195756103786607e-01
-5.603630486875772476e+00 3.416363528370857239e+01 -1.001468818774441161e+00
-6.109489861875772476e+00 3.525335696339607239e+01 -1.024784248461941161e+00
-6.606560174375772476e+00 3.616925051808357239e+01 -1.043659370532253661e+00
-7.077385369688272476e+00 3.684149172902107239e+01 -1.056415718188503661e+00
-7.523918572813272476e+00 3.732757571339607239e+01 -1.064563911547878661e+00
-4.940788690000772476e+00 3.626617434620857239e+01 -9.110452347900661607e-01
-5.361687127500772476e+00 3.687213137745857239e+01 -9.195291215088161607e-01
-5.786003533750772476e+00 3.741302493214607239e+01 -9.257089310791286607e-01
-5.754509393125772476e+00 3.509576418995857239e+01 -8.760263138916286607e-01
-6.121086541563272476e+00 3.533270266652107239e+01 -8.771096879150661607e-01
-6.619865838438272476e+00 3.625323489308357239e+01 -8.915139847900661607e-01
-7.154533807188272476e+00 3.724871829152107239e+01 -9.079782181885036607e-01
-7.608757440000772476e+00 3.775189211964607239e+01 -9.138681107666286607e-01
-5.348137322813272476e+00 3.933306887745857239e+01 -8.056527787353786607e-01
-5.758659783750772476e+00 3.965057376027107239e+01 -8.062478715088161607e-01
-6.206169549375772476e+00 4.015863040089607239e+01 -8.096658402588161607e-01
-6.679436150938272476e+00 4.074505618214607239e+01 -8.141214066650661607e-01
-7.130485955625772476e+00 4.113494876027107239e+01 -8.154794388916286607e-01
-7.604240838438272476e+00 4.159698489308357239e+01 -8.178140336181911607e-01
-8.055656854063272476e+00 4.188250735402107239e+01 -8.173867875244411607e-01
-8.551872674375772476e+00 4.235687258839607239e+01 -8.196450883056911607e-01
-1.366844982281327248e+01 8.869732668995857239e+01 -1.154789131274441161e+00
-7.905510369688272476e+00 4.823443606495857239e+01 -7.190591508056911607e-01
-8.415642205625772476e+00 4.852349856495857239e+01 -7.163125687744411607e-01
-8.934196893125772476e+00 4.881732180714607239e+01 -7.135049515869411607e-01
-1.501317638531327248e+01 7.759063723683357239e+01 -9.985849076416286607e-01
-1.659313244000077248e+01 8.154437258839607239e+01 -1.028431099047878661e+00
-1.335363048687577248e+01 9.937945559620857239e+01 -8.465158158447536607e-01
-1.365245861187577248e+01 8.863055422902107239e+01 -7.565042191650661607e-01
-7.902092400938272476e+00 4.823260501027107239e+01 -5.094796830322536607e-01
-8.412224236875772476e+00 4.852154543995857239e+01 -5.050241166260036607e-01
-8.930656854063272476e+00 4.881524661183357239e+01 -5.004922562744411607e-01
-1.541490978375077248e+01 7.967926028370857239e+01 -6.614572220947536607e-01
-1.648363536968827248e+01 8.103753665089607239e+01 -6.581308060791286607e-01
-1.287438244000077248e+01 8.929547122120857239e+01 -3.742410355713161607e-01
-1.336644786968827248e+01 8.680657961964607239e+01 -3.586618119385036607e-01
-7.898796502500772476e+00 4.823065188527107239e+01 -3.010446244385036607e-01
-8.408806268125772476e+00 4.851959231495857239e+01 -2.948953324463161607e-01
-8.927238885313272476e+00 4.881329348683357239e+01 -2.886392289306911607e-01
-1.502452892437577248e+01 7.770208743214607239e+01 -3.036691361572536607e-01
-1.583031505718827248e+01 7.787921145558357239e+01 -2.929727250244411607e-01
-1.257311290875077248e+01 8.723492434620857239e+01 1.911528767087133929e-02
-1.354186290875077248e+01 8.798504641652107239e+01 3.216155231930883929e-02
-7.895378533750772476e+00 4.822869876027107239e+01 -9.265534221194116071e-02
-8.405388299375772476e+00 4.851763918995857239e+01 -8.479706584475366071e-02
-8.923698846250772476e+00 4.881134036183357239e+01 -7.681671916506616071e-02
-1.481383556500077248e+01 7.664678958058357239e+01 4.107268513180883929e-02
-1.575682872906327248e+01 7.754656985402107239e+01 5.599578083493383929e-02
-1.329894298687577248e+01 9.911138918995857239e+01 4.850118941161838393e-01
-1.426000255718827248e+01 9.904180911183357239e+01 4.995992964599338393e-01
-1.362328380718827248e+01 8.855267336964607239e+01 4.311331099364963393e-01
-1.391759533062577248e+01 8.502008059620857239e+01 4.160116499755588393e-01
-1.467089122906327248e+01 8.454217532277107239e+01 4.250753706786838393e-01
-1.459838146343827248e+01 7.962054446339607239e+01 3.964803999755588393e-01
-1.478392833843827248e+01 7.651910403370857239e+01 3.820608443114963393e-01
-1.571666759625077248e+01 7.737640383839607239e+01 4.013632124755588393e-01
-1.213793224468827248e+01 9.043927004933357239e+01 8.231161421630588393e-01
-1.360900158062577248e+01 8.849688723683357239e+01 8.253897017333713393e-01
-1.391686290875077248e+01 8.504974368214607239e+01 7.955892866943088393e-01
-1.471837658062577248e+01 8.484661868214607239e+01 8.066366499755588393e-01
-1.558007091656327248e+01 8.497796633839607239e+01 8.220480269286838393e-01
-1.478478283062577248e+01 7.654949954152107239e+01 7.239187544677463393e-01
-1.567198986187577248e+01 7.718365481495857239e+01 7.466543501708713393e-01
-1.169091076031327248e+01 8.712261965870857239e+01 1.169307548413058839e+00
-1.303490490093827248e+01 9.057635501027107239e+01 1.242870170483371339e+00
-1.322411388531327248e+01 8.602496340870857239e+01 1.179454643139621339e+00
-1.386669201031327248e+01 8.477679446339607239e+01 1.172176200756808839e+00
-1.468969005718827248e+01 8.471441653370857239e+01 1.185344535717746339e+00
-8.959953729063272476e+00 4.905963137745857239e+01 5.651815718505588393e-01
-1.497130626812577248e+01 7.753509524464607239e+01 1.085017997631808839e+00
-1.585558361187577248e+01 7.810516360402107239e+01 1.108486015209933839e+00
-1.220250744000077248e+01 9.101129153370857239e+01 1.642177421459933839e+00
-1.255333751812577248e+01 8.725299075245857239e+01 1.574260551342746339e+00
-1.334093517437577248e+01 8.682330325245857239e+01 1.580104667553683839e+00
-1.442491954937577248e+01 8.822393801808357239e+01 1.626308280834933839e+00
-1.467943615093827248e+01 8.468719485402107239e+01 1.563091117748996339e+00
-8.957024041563272476e+00 4.906073001027107239e+01 7.780874556396213393e-01
-1.499047130718827248e+01 7.766033938527107239e+01 1.433986503491183839e+00
-1.576610607281327248e+01 7.769354251027107239e+01 1.450328666577121339e+00
-1.220409435406327248e+01 9.106597903370857239e+01 2.048488456616183839e+00
-1.240160411968827248e+01 8.623126223683357239e+01 1.937557060131808839e+00
-1.403502697125077248e+01 9.138909915089607239e+01 2.090267021069308839e+00
-1.446776622906327248e+01 8.852117922902107239e+01 2.030345756420871339e+00
-1.466039318218827248e+01 8.460980227589607239e+01 1.941219169506808839e+00
-8.954094354063272476e+00 4.906182864308357239e+01 9.921224898193088393e-01
-1.502806896343827248e+01 7.788006594777107239e+01 1.788524467358371339e+00
-1.601781505718827248e+01 7.894866946339607239e+01 1.832301933178683839e+00
-1.197960704937577248e+01 8.942071536183357239e+01 2.405010063061496339e+00
-1.298973888531327248e+01 9.038238528370857239e+01 2.451778251538058839e+00
-1.448827404156327248e+01 9.438604739308357239e+01 2.591716606030246339e+00
-1.430760997906327248e+01 8.757672122120857239e+01 2.396007377514621339e+00
-1.525035900250077248e+01 8.803875735402107239e+01 2.427348930248996339e+00
-1.561132091656327248e+01 8.527069094777107239e+01 2.356212455639621339e+00
-1.498949474468827248e+01 7.770831301808357239e+01 2.132549125561496339e+00
-1.545751232281327248e+01 7.623663333058357239e+01 2.100063163647433839e+00
-1.199132579937577248e+01 8.955206301808357239e+01 2.809245902905246339e+00
-1.296678966656327248e+01 9.026287844777107239e+01 2.850093681225558839e+00
-1.358300060406327248e+01 8.851373293995857239e+01 2.805202323803683839e+00
-1.399303478375077248e+01 8.568585208058357239e+01 2.720805961498996339e+00
-1.454808849468827248e+01 8.402667239308357239e+01 2.677638847241183839e+00
-1.544042247906327248e+01 8.437164309620857239e+01 2.706935722241183839e+00
-1.531749767437577248e+01 7.942401126027107239e+01 2.542339164623996339e+00
-1.552489513531327248e+01 7.659149172902107239e+01 2.455531913647433839e+00
-3.300285760313272476e+00 1.674298098683357239e+01 -9.467508011963161607e-01
-3.557243768125772476e+00 1.728729251027107239e+01 -9.744455033447536607e-01
-3.906731072813272476e+00 1.818658450245857239e+01 -1.020954292407253661e+00
-3.968986932188272476e+00 1.779058840870857239e+01 -9.999124222900661607e-01
-4.018425408750772476e+00 1.737591555714607239e+01 -9.779092484619411607e-01
-4.065300408750772476e+00 1.698248293995857239e+01 -9.570352250244411607e-01
-4.109978143125772476e+00 1.660760501027107239e+01 -9.371377640869411607e-01
-4.159294549375772476e+00 1.627728274464607239e+01 -9.199258500244411607e-01
-3.815666619688272476e+00 1.925054934620857239e+01 -1.002918403735378661e+00
-3.869621697813272476e+00 1.873651126027107239e+01 -9.779092484619411607e-01
-3.924797479063272476e+00 1.827117922902107239e+01 -9.548684769775661607e-01
-3.977043572813272476e+00 1.782940676808357239e+01 -9.333535843994411607e-01
-4.026482049375772476e+00 1.741265872120857239e+01 -9.130593949463161607e-01
-4.073234979063272476e+00 1.701727297902107239e+01 -8.938028031494411607e-01
-4.119377557188272476e+00 1.664642336964607239e+01 -8.760720902588161607e-01
-4.264885369688272476e+00 1.665802004933357239e+01 -8.761026078369411607e-01
-3.824333611875772476e+00 1.929840090870857239e+01 -9.302102738525661607e-01
-3.878044549375772476e+00 1.878033450245857239e+01 -9.072610551025661607e-01
-3.933098260313272476e+00 1.831219485402107239e+01 -8.864938431885036607e-01
-4.000236932188272476e+00 1.793133547902107239e+01 -8.694955521728786607e-01
-4.158195916563272476e+00 1.794866946339607239e+01 -8.694955521728786607e-01
-6.027336541563272476e+00 2.458538821339607239e+01 -1.151203315844753661e+00
-6.070549432188272476e+00 2.390289309620857239e+01 -1.121097725024441161e+00
-6.100944940000772476e+00 2.322576907277107239e+01 -1.091297309985378661e+00
-3.862053338438272476e+00 1.948712161183357239e+01 -8.628122025635036607e-01
-4.035393182188272476e+00 1.951312258839607239e+01 -8.624154740478786607e-01
-6.059685174375772476e+00 2.770306399464607239e+01 -1.172504585376003661e+00
-6.043816033750772476e+00 2.655462649464607239e+01 -1.127445381274441161e+00
-6.108513299375772476e+00 2.582781985402107239e+01 -1.098499458422878661e+00
-6.135979119688272476e+00 2.501251223683357239e+01 -1.066272895922878661e+00
-6.173210565000772476e+00 2.429022219777107239e+01 -1.037662666430691161e+00
-6.203972283750772476e+00 2.359942629933357239e+01 -1.010837715258816161e+00
-6.624992791563272476e+00 3.292755129933357239e+01 -1.236194770922878661e+00
-7.153557244688272476e+00 3.395123293995857239e+01 -1.268207710376003661e+00
-6.215691033750772476e+00 2.839971926808357239e+01 -1.081226509204128661e+00
-6.331047479063272476e+00 2.777349856495857239e+01 -1.058597725024441161e+00
-5.947014275938272476e+00 2.518206790089607239e+01 -9.709512406494411607e-01
-6.124382440000772476e+00 2.497369387745857239e+01 -9.624520951416286607e-01
-6.275505486875772476e+00 2.467669680714607239e+01 -9.510385209228786607e-01
-6.303459588438272476e+00 2.396051028370857239e+01 -9.258920365478786607e-01
-6.973625604063272476e+00 3.463311770558357239e+01 -1.146869819751003661e+00
-7.535759393125772476e+00 3.573052981495857239e+01 -1.174900215258816161e+00
-7.966179315000772476e+00 3.613812258839607239e+01 -1.183826606860378661e+00
-8.496330682188272476e+00 3.691864016652107239e+01 -1.203266304126003661e+00
-6.377067986875772476e+00 2.692633059620857239e+01 -9.168130570556911607e-01
-6.395622674375772476e+00 2.603082278370857239e+01 -8.894693070556911607e-01
-6.208122674375772476e+00 2.443182376027107239e+01 -8.424112015869411607e-01
-6.303581658750772476e+00 2.396649172902107239e+01 -8.280374222900661607e-01
-7.525993768125772476e+00 3.733148196339607239e+01 -1.064655464282253661e+00
-7.965324822813272476e+00 3.773065188527107239e+01 -1.070987861743191161e+00
-8.415520135313272476e+00 3.813385012745857239e+01 -1.077335517993191161e+00
-8.877434197813272476e+00 3.853765872120857239e+01 -1.083591621508816161e+00
-5.767570916563272476e+00 2.446978762745857239e+01 -7.473794633056911607e-01
-6.535637322813272476e+00 2.657965090870857239e+01 -7.950479203369411607e-01
-6.310295525938272476e+00 2.481805422902107239e+01 -7.514535599853786607e-01
-6.303703729063272476e+00 2.397271731495857239e+01 -7.296029740478786607e-01
-7.610710565000772476e+00 3.775567629933357239e+01 -9.139444047119411607e-01
-8.084099236875772476e+00 3.829254153370857239e+01 -9.206277543213161607e-01
-8.574943963438272476e+00 3.884942629933357239e+01 -9.266854935791286607e-01
-9.088005486875772476e+00 3.943768313527107239e+01 -9.340554886963161607e-01
-5.762077752500772476e+00 2.445391848683357239e+01 -6.468393021728786607e-01
-5.986687127500772476e+00 2.445843508839607239e+01 -6.446420365478786607e-01
-6.689934197813272476e+00 2.623712161183357239e+01 -6.761666947510036607e-01
-6.303825799375772476e+00 2.397869876027107239e+01 -6.316568070556911607e-01
-8.554924432188272476e+00 4.236505129933357239e+01 -8.197518998291286607e-01
-9.025749627500772476e+00 4.266815188527107239e+01 -8.195993119385036607e-01
-9.525505486875772476e+00 4.306231692433357239e+01 -8.206521683838161607e-01
-5.519401971250772476e+00 2.437493899464607239e+01 -5.485879593994411607e-01
-1.051647228375077248e+01 4.368621829152107239e+01 -8.200723343994411607e-01
-6.133781854063272476e+00 2.503472903370857239e+01 -5.528604203369411607e-01
-7.947014275938272476e+00 3.092401126027107239e+01 -6.323892289306911607e-01
-6.304069940000772476e+00 2.398492434620857239e+01 -5.331308060791286607e-01
-1.659349865093827248e+01 8.153253176808357239e+01 -1.028293769946316161e+00
-1.648485607281327248e+01 7.726226809620857239e+01 -9.761697465088161607e-01
-1.106700939312577248e+01 4.989154055714607239e+01 -7.004739457275661607e-01
-1.160240978375077248e+01 5.008367922902107239e+01 -6.962625199463161607e-01
-5.742180291563272476e+00 2.438592532277107239e+01 -4.469644242431911607e-01
-7.240471307188272476e+00 2.933343508839607239e+01 -4.903909379150661607e-01
-6.336906854063272476e+00 2.493487551808357239e+01 -4.464914017822536607e-01
-6.304192010313272476e+00 2.399102786183357239e+01 -4.350778275635036607e-01
-1.648632091656327248e+01 8.103741458058357239e+01 -6.581002885010036607e-01
-1.739952892437577248e+01 8.152862551808357239e+01 -6.497842484619411607e-01
-1.106469005718827248e+01 4.989617922902107239e+01 -4.806558304931911607e-01
-1.159862560406327248e+01 5.008209231495857239e+01 -4.749795609619411607e-01
-5.732048455625772476e+00 2.435101321339607239e+01 -3.469888383056911607e-01
-5.966179315000772476e+00 2.439691165089607239e+01 -3.442117386963161607e-01
-6.190544549375772476e+00 2.439544680714607239e+01 -3.411904984619411607e-01
-6.304314080625772476e+00 2.399713137745857239e+01 -3.364450150635036607e-01
-1.665197033062577248e+01 8.187103274464607239e+01 -2.953378373291286607e-01
-1.712523693218827248e+01 8.028179934620857239e+01 -2.827798539306911607e-01
-1.106237072125077248e+01 4.990069583058357239e+01 -2.619821244385036607e-01
-1.159496349468827248e+01 5.008062747120857239e+01 -2.549020463135036607e-01
-1.214379161968827248e+01 5.030865481495857239e+01 -2.477456742431911607e-01
-5.973503533750772476e+00 2.443145754933357239e+01 -2.446481400635036607e-01
-6.172722283750772476e+00 2.433502200245857239e+01 -2.413980179931911607e-01
-6.304558221250772476e+00 2.400323489308357239e+01 -2.383004838135036607e-01
-1.575927013531327248e+01 7.754571536183357239e+01 5.602629841305883929e-02
-1.692955822125077248e+01 7.939923098683357239e+01 7.593901813962133929e-02
-1.107628673687577248e+01 4.997698977589607239e+01 -4.298798381350366071e-02
-1.810851329937577248e+01 7.764154055714607239e+01 9.087737263180883929e-02
-1.944017833843827248e+01 7.986260989308357239e+01 1.135824507568088393e-01
-2.086498302593827248e+01 8.224749758839607239e+01 1.378897017333713393e-01
-6.167595330625772476e+00 2.432147219777107239e+01 -1.414376908447536607e-01
-6.304680291563272476e+00 2.400933840870857239e+01 -1.395761185791286607e-01
-1.571874279156327248e+01 7.737347415089607239e+01 4.013784712646213393e-01
-1.646324962750077248e+01 7.725946047902107239e+01 4.131887739989963393e-01
-1.731993908062577248e+01 7.763641360402107239e+01 4.294851607177463393e-01
-1.807372326031327248e+01 7.751739504933357239e+01 4.414175337646213393e-01
-1.879784435406327248e+01 7.728399661183357239e+01 4.522512739989963393e-01
-5.963493768125772476e+00 2.440435793995857239e+01 -4.495636760256616071e-02
-6.162346307188272476e+00 2.430804446339607239e+01 -4.214875041506616071e-02
-6.304802361875772476e+00 2.401544192433357239e+01 -4.134003459475366071e-02
-1.567321056500077248e+01 7.717681887745857239e+01 7.466085738036838393e-01
-1.687352794781327248e+01 7.918914797902107239e+01 7.858084029052463393e-01
-1.773778576031327248e+01 7.951055911183357239e+01 8.043173140380588393e-01
-1.897069591656327248e+01 8.133538821339607239e+01 8.440969771239963393e-01
-1.989513439312577248e+01 8.175091555714607239e+01 8.645895308349338393e-01
-5.958488885313272476e+00 2.439080813527107239e+01 5.442412556149633929e-02
-7.665764275938272476e+00 2.992071536183357239e+01 1.389883345458713393e-01
-6.304924432188272476e+00 2.402154543995857239e+01 5.747588337399633929e-02
-1.585863536968827248e+01 7.810711672902107239e+01 1.108562309155246339e+00
-1.621642345562577248e+01 7.616168215870857239e+01 1.087505180248996339e+00
-1.706261486187577248e+01 7.654327395558357239e+01 1.108898002514621339e+00
-1.866893810406327248e+01 8.008197024464607239e+01 1.189723808178683839e+00
-1.955760997906327248e+01 8.040643313527107239e+01 1.211101371655246339e+00
-2.071886486187577248e+01 8.174749758839607239e+01 1.252132255444308839e+00
-7.649528924375772476e+00 2.986773684620857239e+01 2.645986861083713393e-01
-8.186027947813272476e+00 3.077557376027107239e+01 2.876699751708713393e-01
-1.576879161968827248e+01 7.769415286183357239e+01 1.450389701733371339e+00
-1.791735119000077248e+01 8.408966067433357239e+01 1.611202079663058839e+00
-1.706371349468827248e+01 7.657122805714607239e+01 1.453273612866183839e+00
-1.870690197125077248e+01 8.026641848683357239e+01 1.555263358959933839e+00
-1.986742443218827248e+01 8.168487551808357239e+01 1.604961234936496339e+00
-2.174218029156327248e+01 8.574737551808357239e+01 1.718440849194308839e+00
-2.219725841656327248e+01 8.416229251027107239e+01 1.697795707592746339e+00
-8.186516229063272476e+00 3.078448489308357239e+01 4.189108198974338393e-01
-1.600634044781327248e+01 7.887994387745857239e+01 1.830455619702121339e+00
-1.638353771343827248e+01 7.698626711964607239e+01 1.794399101147433839e+00
-1.709398693218827248e+01 7.672906497120857239e+01 1.803340751538058839e+00
-1.917443126812577248e+01 8.227032473683357239e+01 1.975719291577121339e+00
-1.987841076031327248e+01 8.175262454152107239e+01 1.978481132397433839e+00
-2.237889904156327248e+01 8.824652102589607239e+01 2.181789237866183839e+00
-2.227330822125077248e+01 8.446868899464607239e+01 2.091838676342746339e+00
-8.188591424375772476e+00 3.079937747120857239e+01 5.496939009521213393e-01
-1.545922130718827248e+01 7.623272708058357239e+01 2.099986869702121339e+00
-1.639159435406327248e+01 7.704827883839607239e+01 2.143169242748996339e+00
-1.849901622906327248e+01 8.298297122120857239e+01 2.352092582592746339e+00
-1.913842052593827248e+01 8.214202883839607239e+01 2.342937309155246339e+00
-1.986669201031327248e+01 8.172821047902107239e+01 2.347560722241183839e+00
-2.151219982281327248e+01 8.489996340870857239e+01 2.471675712475558839e+00
-2.069493908062577248e+01 7.859820559620857239e+01 2.281123954663058839e+00
-8.191154900938272476e+00 3.081585696339607239e+01 6.813619917724338393e-01
-1.552806896343827248e+01 7.659405520558357239e+01 2.455684501538058839e+00
-1.632628673687577248e+01 7.676861575245857239e+01 2.477947074780246339e+00
-1.945922130718827248e+01 8.726776126027107239e+01 2.888103324780246339e+00
-1.956615490093827248e+01 8.397894290089607239e+01 2.784831840405246339e+00
-2.016307872906327248e+01 8.295404055714607239e+01 2.765697318920871339e+00
-2.006359142437577248e+01 7.928863528370857239e+01 2.645519096264621339e+00
-2.261156505718827248e+01 8.577691653370857239e+01 2.913173515209933839e+00
-8.191643182188272476e+00 3.082537844777107239e+01 8.128927534911838393e-01
-8.109245721250772476e+00 2.952081301808357239e+01 7.611196822021213393e-01
-8.643181268125772476e+00 1.760504153370857239e+01 4.879873579833713393e-01
