2.224666144698858261e+00 8.869306337833404541e+01 1.266085995920008145e+00
1.417781379073858261e+00 9.045746767520904541e+01 1.305774106271570645e+00
2.280086066573858261e+00 3.417597353458404541e+01 4.233430759981331448e-01
1.962581183761358261e+00 3.403962099552154541e+01 4.225191013887581448e-01
6.381526496261358261e+00 9.899506533145904541e+01 1.849536313302820645e+00
1.455623175948858261e+00 3.567499697208404541e+01 4.643129246309456448e-01
1.129451300948858261e+00 3.556061708927154541e+01 4.648012058809456448e-01
3.126765754073858261e+00 8.979132997989654541e+01 1.672244443185633145e+00
2.224177863448858261e+00 8.854670107364654541e+01 1.652652158029383145e+00
1.417415168136358261e+00 9.024738466739654541e+01 1.700869931466883145e+00
2.290584113448858261e+00 3.427387392520904541e+01 5.663331883028206448e-01
1.968806769698858261e+00 3.409687197208404541e+01 5.644868748262581448e-01
1.691463019698858261e+00 3.447651064395904541e+01 5.773652927950081448e-01
1.358333136886358261e+00 3.409870302677154541e+01 5.701631443575081448e-01
1.134944465011358261e+00 3.563373720645904541e+01 6.139863865450081448e-01
8.076739571988582611e-01 3.544745790958404541e+01 6.119264500215706448e-01
2.224055793136358261e+00 8.841266787052154541e+01 2.040255917795008145e+00
2.300838019698858261e+00 3.436762392520904541e+01 7.108491795137581448e-01
1.975642707198858261e+00 3.416156923770904541e+01 7.072023289278206448e-01
1.652034308761358261e+00 3.391327822208404541e+01 7.014497654512581448e-01
1.473201300948858261e+00 3.590497744083404541e+01 7.663606541231331448e-01
1.135921027511358261e+00 3.562214052677154541e+01 7.603944675996956448e-01
8.521075509488582611e-01 3.644709169864654541e+01 7.891572849825081448e-01
2.313655402511358261e+00 9.101496279239654541e+01 2.512835873849695645e+00
1.431331183761358261e+00 9.047187197208404541e+01 2.503451718576258145e+00
2.309260871261358261e+00 3.444330751895904541e+01 8.555635349825081448e-01
1.977595832198858261e+00 3.416718447208404541e+01 8.476442234590706448e-01
1.648738410323858261e+00 3.384833681583404541e+01 8.389009373262581448e-01
1.482600715011358261e+00 3.602961122989654541e+01 9.197114842012581448e-01
1.135310675948858261e+00 3.558039247989654541e+01 9.063753025606331448e-01
3.559871222823858261e+00 9.959858095645904541e+01 3.214785947091883145e+00
-3.322186209261417389e-01 1.367963564395904541e+01 -7.539335353299918552e-01
-4.310955740511417389e-01 1.376203310489654541e+01 -7.568327052518668552e-01
-5.316815115511417389e-01 1.384015810489654541e+01 -7.597318751737418552e-01
-6.342205740511417389e-01 1.390924990177154541e+01 -7.621580226346793552e-01
-7.377361990511417389e-01 1.398005068302154541e+01 -7.646452052518668552e-01
-8.435711599886417389e-01 1.408161318302154541e+01 -7.686887843534293552e-01
-9.519695974886417389e-01 1.418561708927154541e+01 -7.728239161893668552e-01
-1.061832878738641739e+00 1.428595888614654541e+01 -7.770200831815543552e-01
-3.095135428011417389e-01 1.469147646427154541e+01 -7.547575099393668552e-01
-4.185223318636417389e-01 1.477070009708404541e+01 -7.572446925565543552e-01
-5.291180349886417389e-01 1.485688173770904541e+01 -7.597776515409293552e-01
-6.419110037386417389e-01 1.493879091739654541e+01 -7.623716456815543552e-01
-7.560467459261417389e-01 1.503058779239654541e+01 -7.653928859159293552e-01
-8.729901053011417389e-01 1.515412294864654541e+01 -7.698484523221793552e-01
-9.926190115511417389e-01 1.527448427677154541e+01 -7.744260890409293552e-01
-1.114811394363641739e+00 1.540351259708404541e+01 -7.790952784940543552e-01
-2.792401053011417389e-01 1.604230654239654541e+01 -7.604490382596793552e-01
-4.011883474886417389e-01 1.616266787052154541e+01 -7.641569240018668552e-01
-5.257000662386417389e-01 1.623371279239654541e+01 -7.657743556424918552e-01
-6.520428396761417389e-01 1.630207216739654541e+01 -7.672697169706168552e-01
-7.804608084261417389e-01 1.642890322208404541e+01 -7.711759669706168552e-01
-9.141278006136417389e-01 1.665094912052154541e+01 -7.789884669706168552e-01
-1.053287956863641739e+00 1.689106142520904541e+01 -7.875028712674918552e-01
-1.200504753738641739e+00 1.720661318302154541e+01 -7.990690333768668552e-01
-2.362713553011417389e-01 1.796210634708404541e+01 -7.752805812284293552e-01
-3.773846365511417389e-01 1.807648622989654541e+01 -7.776456935331168552e-01
-5.209393240511417389e-01 1.818476259708404541e+01 -7.801023585721793552e-01
-6.670574881136417389e-01 1.829511415958404541e+01 -7.826047999784293552e-01
-8.164715506136417389e-01 1.848224794864654541e+01 -7.879301173612418552e-01
-9.712567068636417389e-01 1.873139345645904541e+01 -7.954832179471793552e-01
-1.133121941238641739e+00 1.902021181583404541e+01 -8.044401271268668552e-01
-1.302311394363641739e+00 1.935273134708404541e+01 -8.153196437284293552e-01
-1.934246756136417389e-01 1.986823427677154541e+01 -7.716642482206168552e-01
-3.533367849886417389e-01 1.999701845645904541e+01 -7.741056544706168552e-01
-5.159344412386417389e-01 2.012799990177154541e+01 -7.765928370878043552e-01
-6.817059256136417389e-01 2.026154482364654541e+01 -7.791257960721793552e-01
-8.533367849886417389e-01 2.060419619083404541e+01 -7.883878810331168552e-01
-1.034733269363641739e+00 2.104889833927154541e+01 -8.008543116971793552e-01
-1.226627800613641739e+00 2.151899111270904541e+01 -8.140379054471793552e-01
-1.428410027176141739e+00 2.201398622989654541e+01 -8.279234034940543552e-01
-1.345867849886417389e-01 2.248322451114654541e+01 -7.708555324003043552e-01
-3.198895193636417389e-01 2.267414247989654541e+01 -7.736936671659293552e-01
-5.089764334261417389e-01 2.285212099552154541e+01 -7.765775782987418552e-01
-7.024578787386417389e-01 2.303412783145904541e+01 -7.795377833768668552e-01
-9.049725271761417389e-01 2.356195986270904541e+01 -7.920347316190543552e-01
-1.123478386551141739e+00 2.428608095645904541e+01 -8.098264796659293552e-01
-1.354557488113641739e+00 2.493622744083404541e+01 -8.254209620878043552e-01
-1.592838738113641739e+00 2.548163759708404541e+01 -8.385435206815543552e-01
-5.279967561364173889e-02 2.612641298770904541e+01 -7.697568995878043552e-01
-2.732586599886417389e-01 2.640339052677154541e+01 -7.737699611112418552e-01
-4.988445974886417389e-01 2.689252626895904541e+01 -7.826810939237418552e-01
-7.330975271761417389e-01 2.713898622989654541e+01 -7.858549220487418552e-01
-9.761395193636417389e-01 2.764618837833404541e+01 -7.949796779081168552e-01
-1.228214714676141739e+00 2.811103212833404541e+01 -8.030363185331168552e-01
-1.489323113113641739e+00 2.854804384708404541e+01 -8.103452784940543552e-01
-1.760441277176141739e+00 2.902521669864654541e+01 -8.184782130643668552e-01
4.973938688635826111e-02 3.068720400333404541e+01 -7.530943019315543552e-01
-2.155194021761417389e-01 3.100556337833404541e+01 -7.561155421659293552e-01
-4.873699881136417389e-01 3.130329287052154541e+01 -7.579923732206168552e-01
-7.659344412386417389e-01 3.159320986270904541e+01 -7.603269679471793552e-01
-1.050968620926141739e+00 3.196137392520904541e+01 -7.640653712674918552e-01
-1.343571159988641739e+00 3.233942568302154541e+01 -7.678800685331168552e-01
-1.644230339676141739e+00 3.270063173770904541e+01 -7.720304591581168552e-01
-1.963077995926141739e+00 3.331476747989654541e+01 -7.799802882596793552e-01
1.974444650113582611e-01 3.724958193302154541e+01 -7.225462062284293552e-01
-1.333660818636417389e-01 3.754718935489654541e+01 -7.230650050565543552e-01
-4.702801443636417389e-01 3.785016787052154541e+01 -7.235838038846793552e-01
-8.164715506136417389e-01 3.841767275333404541e+01 -7.277341945096793552e-01
-1.171207878738641739e+00 3.889081728458404541e+01 -7.304655177518668552e-01
-1.527409050613641739e+00 3.906745302677154541e+01 -7.290006740018668552e-01
-1.912174675613641739e+00 3.987897646427154541e+01 -7.361570460721793552e-01
-2.282658074051141739e+00 4.007148134708404541e+01 -7.347532374784293552e-01
2.683673165738582611e-01 4.034479677677154541e+01 -5.987058741971793552e-01
-9.332701936364173889e-02 4.063776552677154541e+01 -5.974546534940543552e-01
-4.605145193636417389e-01 4.115326845645904541e+01 -5.982481105253043552e-01
-1.232853386551141739e+00 9.372858583927154541e+01 -1.089062319509679355e+00
-2.033878777176141739e+00 8.821820986270904541e+01 -1.027783022634679355e+00
-2.995548699051141739e+00 9.254218447208404541e+01 -1.058132754079991855e+00
-2.036686394363641739e+00 4.325068056583404541e+01 -6.005979640409293552e-01
-2.446232292801141739e+00 4.356012880802154541e+01 -5.989652736112418552e-01
2.703204415738582611e-01 4.034613955020904541e+01 -4.296384913846793552e-01
-9.149596467614173889e-02 4.063520205020904541e+01 -4.269834620878043552e-01
-4.585613943636417389e-01 4.115058290958404541e+01 -4.253965480253043552e-01
-1.190006706863641739e+00 8.864118349552154541e+01 -6.494260890409293552e-01
-2.015079949051141739e+00 8.739399111270904541e+01 -6.340757472440543552e-01
-3.001530144363641739e+00 9.292902529239654541e+01 -6.500822169706168552e-01
-2.034733269363641739e+00 4.325385439395904541e+01 -4.179960353299918552e-01
-2.444035027176141739e+00 4.355780947208404541e+01 -4.148985011503043552e-01
2.721514962613582611e-01 4.034760439395904541e+01 -2.614561183378043552e-01
-8.966490998864173889e-02 4.063263857364654541e+01 -2.574583156034293552e-01
-4.566082693636417389e-01 4.114789736270904541e+01 -2.534910304471793552e-01
-1.183292839676141739e+00 8.833063662052154541e+01 -2.597166163846793552e-01
-2.007999870926141739e+00 8.723908388614654541e+01 -2.500883204862418552e-01
-2.987003777176141739e+00 9.257074892520904541e+01 -2.406736476346793552e-01
-2.032780144363641739e+00 4.325702822208404541e+01 -2.363706691190543552e-01
-2.441837761551141739e+00 4.355549013614654541e+01 -2.318388087674918552e-01
2.741046212613582611e-01 4.034906923770904541e+01 -9.237347673624185518e-02
-8.783385530114173889e-02 4.063007509708404541e+01 -8.706341814249185518e-02
-4.547772146761417389e-01 4.114521181583404541e+01 -8.161603044717935518e-02
-1.180729363113641739e+00 8.857526552677154541e+01 1.295350925996956448e-01
-2.071476433426141739e+00 9.114289247989654541e+01 1.506227390840706448e-01
-2.893497917801141739e+00 8.931952822208404541e+01 1.521333592012581448e-01
-2.030827019363641739e+00 4.326007997989654541e+01 -5.373822282999185518e-02
-2.439640495926141739e+00 4.355317080020904541e+01 -4.784833025186685518e-02
1.350642707198858261e+00 8.800141298770904541e+01 4.870332615450081448e-01
5.121417306363582611e-01 8.809882509708404541e+01 4.974550144746956448e-01
-3.279461599886417389e-01 8.842926943302154541e+01 5.099519627168831448e-01
-1.170963738113641739e+00 8.784333193302154541e+01 5.143464939668831448e-01
-2.039127800613641739e+00 8.953852236270904541e+01 5.392946140840706448e-01
-2.915348503738641739e+00 9.028217470645904541e+01 5.558809177950081448e-01
-3.720158074051141739e+00 8.863080751895904541e+01 5.503724949434456448e-01
-4.558292839676141739e+00 8.843598330020904541e+01 5.581697361543831448e-01
1.349422004073858261e+00 8.775776064395904541e+01 8.723634617403206448e-01
5.101886056363582611e-01 8.761103212833404541e+01 8.779329197481331448e-01
-3.178143240511417389e-01 9.056684267520904541e+01 9.272188084200081448e-01
-1.186100456863641739e+00 9.050544130802154541e+01 9.363283054903206448e-01
-2.073185417801141739e+00 9.176654970645904541e+01 9.634736912325081448e-01
-3.748478386551141739e+00 8.950922548770904541e+01 9.522279636934456448e-01
-4.579288933426141739e+00 8.897541201114654541e+01 9.566377537325081448e-01
1.414729621261358261e+00 9.045722353458404541e+01 1.305804623849695645e+00
5.258136056363582611e-01 8.850568544864654541e+01 1.280749692209070645e+00
-3.181805349886417389e-01 8.884052431583404541e+01 1.296512021310633145e+00
-1.172062370926141739e+00 8.919831240177154541e+01 1.312793149240320645e+00
-2.131535027176141739e+00 9.542511904239654541e+01 1.436404599435633145e+00
-3.741886589676141739e+00 8.945417177677154541e+01 1.346972836740320645e+00
-4.617130730301141739e+00 8.987384951114654541e+01 1.364627255685633145e+00
1.414363410323858261e+00 9.024311220645904541e+01 1.700808896310633145e+00
5.629229806363582611e-01 9.107843935489654541e+01 1.727466000802820645e+00
-3.132977224886417389e-01 8.901069033145904541e+01 1.690738095529383145e+00
-1.165958855301141739e+00 8.896637880802154541e+01 1.699588193185633145e+00
-2.240177605301141739e+00 1.020343719720840454e+02 2.008136166818445645e+00
-3.227482292801141739e+00 1.022930389642715454e+02 2.025409116037195645e+00
-2.040714714676141739e+00 4.375153505802154541e+01 6.850770847871956448e-01
-2.468693230301141739e+00 4.435175478458404541e+01 7.046235935762581448e-01
1.416682746261358261e+00 9.015326845645904541e+01 2.095065488107508145e+00
5.352130196988582611e-01 8.855707705020904541e+01 2.061786069162195645e+00
-3.101238943636417389e-01 8.858832705020904541e+01 2.072451962716883145e+00
-1.171940300613641739e+00 9.041156923770904541e+01 2.132174863107508145e+00
-2.044620964676141739e+00 9.090155947208404541e+01 2.155673398263758145e+00
-2.038883659988641739e+00 4.376032412052154541e+01 8.701509373262581448e-01
-2.466618034988641739e+00 4.435175478458404541e+01 8.912385838106331448e-01
1.428401496261358261e+00 9.047406923770904541e+01 2.503558530099695645e+00
5.398516915738582611e-01 8.858149111270904541e+01 2.453616513498133145e+00
-2.985272146761417389e-01 9.106586611270904541e+01 2.540439023263758145e+00
-1.167667839676141739e+00 9.043232119083404541e+01 2.530413998849695645e+00
-2.045109245926141739e+00 9.119660341739654541e+01 2.564990414865320645e+00
-3.029362175613641739e+00 9.534015810489654541e+01 2.708453549630945645e+00
-2.037052605301141739e+00 4.376923525333404541e+01 1.055285825021570645e+00
-2.464420769363641739e+00 4.435175478458404541e+01 1.078845395334070645e+00
5.757403634488582611e-01 9.102973330020904541e+01 2.931552304513758145e+00
-2.932781912386417389e-01 9.134211122989654541e+01 2.953143491037195645e+00
-1.173893425613641739e+00 9.195966494083404541e+01 2.985980405099695645e+00
-2.053410027176141739e+00 9.195661318302154541e+01 2.996188534982508145e+00
-2.035343620926141739e+00 4.377802431583404541e+01 1.239520444162195645e+00
-2.462223503738641739e+00 4.435175478458404541e+01 1.266436948068445645e+00
-1.062321159988641739e+00 1.428669130802154541e+01 -7.770658595487418552e-01
-1.174625847488641739e+00 1.439325869083404541e+01 -7.813535792753043552e-01
-1.289127800613641739e+00 1.449653017520904541e+01 -7.857175929471793552e-01
-1.406437370926141739e+00 1.460236513614654541e+01 -7.902036769315543552e-01
-1.525822136551141739e+00 1.471003115177154541e+01 -7.947507960721793552e-01
-1.647892449051141739e+00 1.482013857364654541e+01 -7.994047267362418552e-01
-1.781437370926141739e+00 1.501117861270904541e+01 -8.080869777128043552e-01
-1.933414909988641739e+00 1.532758486270904541e+01 -8.232694728299918552e-01
-1.115299675613641739e+00 1.540424501895904541e+01 -7.791257960721793552e-01
-1.242252800613641739e+00 1.556928408145904541e+01 -7.857328517362418552e-01
-1.374454949051141739e+00 1.576178896427154541e+01 -7.932554347440543552e-01
-1.511173699051141739e+00 1.595270693302154541e+01 -8.009763820096793552e-01
-1.651920769363641739e+00 1.614948427677154541e+01 -8.089262111112418552e-01
-1.806095574051141739e+00 1.644049990177154541e+01 -8.211179835721793552e-01
-1.979069206863641739e+00 1.684540712833404541e+01 -8.387418849393668552e-01
-2.164494011551141739e+00 1.728791201114654541e+01 -8.576933009549918552e-01
-1.200993034988641739e+00 1.720832216739654541e+01 -7.991300685331168552e-01
-1.354679558426141739e+00 1.752509462833404541e+01 -8.110166652128043552e-01
-1.516056511551141739e+00 1.785761415958404541e+01 -8.234830958768668552e-01
-1.679142449051141739e+00 1.811689150333404541e+01 -8.328977687284293552e-01
-1.859928581863641739e+00 1.852265322208404541e+01 -8.482481105253043552e-01
-2.078190300613641739e+00 1.922467958927154541e+01 -8.755918605253043552e-01
-2.307804558426141739e+00 1.989301455020904541e+01 -9.014555079862418552e-01
-2.527409050613641739e+00 2.036493837833404541e+01 -9.192319972440543552e-01
-1.302921745926141739e+00 1.935517275333404541e+01 -8.154111964628043552e-01
-1.488956902176141739e+00 1.985956728458404541e+01 -8.320432765409293552e-01
-1.677799675613641739e+00 2.025470888614654541e+01 -8.449979884549918552e-01
-1.884830925613641739e+00 2.077057802677154541e+01 -8.622556788846793552e-01
-2.103214714676141739e+00 2.130060732364654541e+01 -8.799406154081168552e-01
-2.338444206863641739e+00 2.189020693302154541e+01 -8.996854884549918552e-01
-2.614811394363641739e+00 2.274335634708404541e+01 -9.287992579862418552e-01
-2.894230339676141739e+00 2.347846376895904541e+01 -9.540220363065543552e-01
-1.429264519363641739e+00 2.201667177677154541e+01 -8.279996974393668552e-01
-1.642155144363641739e+00 2.252863466739654541e+01 -8.426481349393668552e-01
-1.881412956863641739e+00 2.327265322208404541e+01 -8.645597560331168552e-01
-2.149235222488641739e+00 2.418122255802154541e+01 -8.915525538846793552e-01
-2.408268425613641739e+00 2.478388369083404541e+01 -9.087186915799918552e-01
-2.692203972488641739e+00 2.551508486270904541e+01 -9.298215968534293552e-01
-2.998112175613641739e+00 2.630341494083404541e+01 -9.525571925565543552e-01
-3.315372917801141739e+00 2.705573427677154541e+01 -9.740415675565543552e-01
-1.593693230301141739e+00 2.548371279239654541e+01 -8.386045558378043552e-01
-1.844913933426141739e+00 2.605988466739654541e+01 -8.516965968534293552e-01
-2.123112175613641739e+00 2.685895693302154541e+01 -8.712736232206168552e-01
-2.410343620926141739e+00 2.755414736270904541e+01 -8.878599269315543552e-01
-2.714664909988641739e+00 2.828803408145904541e+01 -9.053770167753043552e-01
-3.041813347488641739e+00 2.910126650333404541e+01 -9.248777491971793552e-01
-3.377506706863641739e+00 2.983039247989654541e+01 -9.419675929471793552e-01
-3.729923699051141739e+00 3.057966005802154541e+01 -9.601102931424918552e-01
-1.761539909988641739e+00 2.902936708927154541e+01 -8.185697657987418552e-01
-2.056339714676141739e+00 2.974860537052154541e+01 -8.323637111112418552e-01
-2.368839714676141739e+00 3.051056826114654541e+01 -8.469663722440543552e-01
-2.701847527176141739e+00 3.132294619083404541e+01 -8.625608546659293552e-01
-3.055119011551141739e+00 3.218464052677154541e+01 -8.790861232206168552e-01
-3.423893425613641739e+00 3.302424013614654541e+01 -8.949552638456168552e-01
-3.788395378738641739e+00 3.365302431583404541e+01 -9.059568507596793552e-01
-4.154850456863641739e+00 3.419538271427154541e+01 -9.149442775174918552e-01
-1.964298699051141739e+00 3.331903994083404541e+01 -7.800565822049918552e-01
-2.306705925613641739e+00 3.412153017520904541e+01 -7.915159327909293552e-01
-2.631290886551141739e+00 3.441584169864654541e+01 -7.929197413846793552e-01
-2.980778191238641739e+00 3.493427431583404541e+01 -7.990079982206168552e-01
-3.360172722488641739e+00 3.568256533145904541e+01 -8.090635402128043552e-01
-3.716495964676141739e+00 3.603461611270904541e+01 -8.119627101346793552e-01
-4.111515495926141739e+00 3.666510927677154541e+01 -8.204771144315543552e-01
-4.511295769363641739e+00 3.723346865177154541e+01 -8.269926173612418552e-01
-2.283878777176141739e+00 4.007270205020904541e+01 -7.347532374784293552e-01
-2.671452019363641739e+00 4.048835146427154541e+01 -7.364927394315543552e-01
-3.065006706863641739e+00 4.086249697208404541e+01 -7.375761134549918552e-01
-3.465153191238641739e+00 4.119953310489654541e+01 -7.380643947049918552e-01
-3.876530144363641739e+00 4.159687197208404541e+01 -7.392698390409293552e-01
-4.308170769363641739e+00 4.211249697208404541e+01 -7.419401271268668552e-01
-4.752506706863641739e+00 4.263129580020904541e+01 -7.445188624784293552e-01
-5.169620964676141739e+00 4.283600771427154541e+01 -7.429624659940543552e-01
-2.447819206863641739e+00 4.356318056583404541e+01 -5.989805324003043552e-01
-2.871891472488641739e+00 4.400959169864654541e+01 -5.985532863065543552e-01
-8.398014519363641739e+00 9.326154482364654541e+01 -1.005261049978429355e+00
-4.671452019363641739e+00 4.585590517520904541e+01 -5.962797267362418552e-01
-5.116886589676141739e+00 4.603461611270904541e+01 -5.930753810331168552e-01
-5.587101433426141739e+00 4.639887392520904541e+01 -5.913663966581168552e-01
-2.445499870926141739e+00 4.356086122989654541e+01 -4.148985011503043552e-01
-2.869572136551141739e+00 4.400715029239654541e+01 -4.122587306424918552e-01
-8.212711784988641739e+00 9.120050966739654541e+01 -5.826231105253043552e-01
-4.669620964676141739e+00 4.586078798770904541e+01 -4.008604152128043552e-01
-5.114323113113641739e+00 4.603266298770904541e+01 -3.966337306424918552e-01
-5.584415886551141739e+00 4.639692080020904541e+01 -3.930784327909293552e-01
-2.443302605301141739e+00 4.355854189395904541e+01 -2.318388087674918552e-01
-2.867252800613641739e+00 4.400483095645904541e+01 -2.270017726346793552e-01
-8.074406120926141739e+00 8.967341005802154541e+01 -1.807981593534293552e-01
-4.667789909988641739e+00 4.586554872989654541e+01 -2.064481837674918552e-01
-5.111759636551141739e+00 4.603070986270904541e+01 -2.012754542753043552e-01
-5.581852409988641739e+00 4.639496767520904541e+01 -1.958738429471793552e-01
-2.441105339676141739e+00 4.355622255802154541e+01 -4.781781267374185518e-02
-2.864933464676141739e+00 4.400238955020904541e+01 -4.076825212686685518e-02
-7.180119011551141739e+00 1.021142059564590454e+02 2.570070164278206448e-01
-7.363956902176141739e+00 9.170160830020904541e+01 2.150758640840706448e-01
-8.219303581863641739e+00 9.138410341739654541e+01 2.241090672090706448e-01
-4.666935417801141739e+00 4.588044130802154541e+01 -1.194439958780435518e-02
-5.110905144363641739e+00 4.604425966739654541e+01 -4.818545095616855178e-03
-5.583561394363641739e+00 4.643000185489654541e+01 2.566708810633144822e-03
-4.561100456863641739e+00 8.843451845645904541e+01 5.581849949434456448e-01
-5.463688347488641739e+00 8.942048037052154541e+01 5.781892674043831448e-01
-6.793034050613641739e+00 9.643842470645904541e+01 6.568178074434456448e-01
-7.485294792801141739e+00 9.333295595645904541e+01 6.380342381075081448e-01
-8.184147331863641739e+00 9.103730165958404541e+01 6.264985935762581448e-01
-9.106998894363641739e+00 9.149872744083404541e+01 6.421235935762581448e-01
-1.019012877717614174e+01 9.332465517520904541e+01 6.718019383028206448e-01
-1.047357604280114174e+01 8.804706728458404541e+01 6.287263767793831448e-01
-4.582218620926141739e+00 8.897760927677154541e+01 9.566987888887581448e-01
-5.478580925613641739e+00 8.976032412052154541e+01 9.766420261934456448e-01
-7.125553581863641739e+00 1.014594208002090454e+02 1.154666318185633145e+00
-7.089054558426141739e+00 8.826740419864654541e+01 9.773897068575081448e-01
-8.548283074051141739e+00 9.526337587833404541e+01 1.089953793771570645e+00
-8.916447136551141739e+00 8.959125673770904541e+01 1.018679990060633145e+00
-9.544010613113641739e+00 8.735590517520904541e+01 9.968141453340706448e-01
-1.045026061311364174e+01 8.788837587833404541e+01 1.017703427560633145e+00
-4.619816277176141739e+00 8.986982119083404541e+01 1.364581479318445645e+00
-7.065739128738641739e+00 8.802460634708404541e+01 1.363818539865320645e+00
-8.111759636551141739e+00 9.031647646427154541e+01 1.418933285959070645e+00
-9.388493034988641739e+00 9.449250185489654541e+01 1.511020077951258145e+00
-1.028607604280114174e+01 9.431025087833404541e+01 1.519656552560633145e+00
-1.026434752717614174e+01 8.634626162052154541e+01 1.376056088693445645e+00
-2.470158074051141739e+00 4.435187685489654541e+01 7.046388523653206448e-01
-6.101017449051141739e+00 1.008218475580215454e+02 2.027285947091883145e+00
-7.721256706863641739e+00 8.589057314395904541e+01 1.712497128732508145e+00
-8.653141472488641739e+00 8.697956240177154541e+01 1.749789609201258145e+00
-5.164494011551141739e+00 4.663031923770904541e+01 7.917970554903206448e-01
-5.590153191238641739e+00 4.656720888614654541e+01 7.972444431856331448e-01
-2.467960808426141739e+00 4.435187685489654541e+01 8.912538425996956448e-01
-5.466373894363641739e+00 8.978742372989654541e+01 2.167086972482508145e+00
-6.151676628738641739e+00 8.716950380802154541e+01 2.105609311349695645e+00
-7.062077019363641739e+00 8.809516298770904541e+01 2.143512143380945645e+00
-8.171574089676141739e+00 9.111078798770904541e+01 2.240954770334070645e+00
-8.904606316238641739e+00 8.961457216739654541e+01 2.210605038888758145e+00
-5.162052605301141739e+00 4.663056337833404541e+01 9.909089939668831448e-01
-5.587833855301141739e+00 4.656757509708404541e+01 9.951661961153206448e-01
-2.465763542801141739e+00 4.435187685489654541e+01 1.078860654123133145e+00
-5.484196159988641739e+00 9.018146669864654541e+01 2.577273740060633145e+00
-6.195011589676141739e+00 8.788239443302154541e+01 2.512439145334070645e+00
-7.030338738113641739e+00 8.774335634708404541e+01 2.520068539865320645e+00
-9.696598503738641739e+00 9.781903994083404541e+01 2.878070248849695645e+00
-5.159733269363641739e+00 4.663092958927154541e+01 1.190005673654383145e+00
-5.585514519363641739e+00 4.656794130802154541e+01 1.194140805490320645e+00
-2.463688347488641739e+00 4.435187685489654541e+01 1.266452206857508145e+00
-5.429752800613641739e+00 8.930658876895904541e+01 2.941775693185633145e+00
-6.211002800613641739e+00 8.818952333927154541e+01 2.912753476388758145e+00
-9.107487175613641739e+00 9.180231630802154541e+01 3.086749448068445645e+00
-1.050458190217614174e+01 8.855231630802154541e+01 2.991458310373133145e+00
-1.934269402176141739e+00 1.533124697208404541e+01 -8.234525782987418552e-01
-2.096378777176141739e+00 1.567414247989654541e+01 -8.396879298612418552e-01
-2.267399284988641739e+00 1.602863466739654541e+01 -8.567625148221793552e-01
-2.450016472488641739e+00 1.640668642520904541e+01 -8.749815089628043552e-01
-2.643986199051141739e+00 1.680841982364654541e+01 -8.943296534940543552e-01
-2.857365105301141739e+00 1.727350771427154541e+01 -9.167753322049918552e-01
-3.113590691238641739e+00 1.791913759708404541e+01 -9.481168849393668552e-01
-3.388004753738641739e+00 1.859101259708404541e+01 -9.810911281034293552e-01
-2.165592644363641739e+00 1.729279482364654541e+01 -8.579069240018668552e-01
-2.375675652176141739e+00 1.785480654239654541e+01 -8.825651271268668552e-01
-2.599552605301141739e+00 1.843183290958404541e+01 -9.074674708768668552e-01
-2.875919792801141739e+00 1.927607119083404541e+01 -9.446836574003043552e-01
-3.142155144363641739e+00 1.994831240177154541e+01 -9.740720851346793552e-01
-3.374699089676141739e+00 2.033649599552154541e+01 -9.906431300565543552e-01
-3.617985222488641739e+00 2.073505556583404541e+01 -1.008038149587804355e+00
-3.685734245926141739e+00 2.016474306583404541e+01 -9.815488917753043552e-01
-2.528385613113641739e+00 2.036872255802154541e+01 -9.193845851346793552e-01
-2.749577019363641739e+00 2.077546083927154541e+01 -9.348569972440543552e-01
-2.995304558426141739e+00 2.129633486270904541e+01 -9.548917872831168552e-01
-3.297306511551141739e+00 2.211676943302154541e+01 -9.869505031034293552e-01
-3.515690300613641739e+00 2.230524599552154541e+01 -9.934354884549918552e-01
-3.582218620926141739e+00 2.156965029239654541e+01 -9.626737697049918552e-01
-3.641056511551141739e+00 2.086884462833404541e+01 -9.333921534940543552e-01
-3.695377800613641739e+00 2.022089540958404541e+01 -9.063230616971793552e-01
-2.895573113113641739e+00 2.348468935489654541e+01 -9.542509181424918552e-01
-3.209171745926141739e+00 2.436664736270904541e+01 -9.840513331815543552e-01
-3.530094597488641739e+00 2.516803896427154541e+01 -1.011334048025304355e+00
-3.551701042801141739e+00 2.383588564395904541e+01 -9.622770411893668552e-01
-3.532536003738641739e+00 2.241852724552154541e+01 -9.103666407987418552e-01
-3.592350456863641739e+00 2.163569033145904541e+01 -8.812223536893668552e-01
-3.704899284988641739e+00 2.123090517520904541e+01 -8.655973536893668552e-01
-3.890079949051141739e+00 2.125287783145904541e+01 -8.656126124784293552e-01
-3.317203972488641739e+00 2.706452333927154541e+01 -9.743009669706168552e-01
-3.646305534988641739e+00 2.778510439395904541e+01 -9.950834376737418552e-01
-3.998600456863641739e+00 2.856354677677154541e+01 -1.017544375173741855e+00
-3.598942253738641739e+00 2.416132509708404541e+01 -8.787962062284293552e-01
-3.817814324051141739e+00 2.422248232364654541e+01 -8.791471583768668552e-01
-5.136051628738641739e+00 3.077863466739654541e+01 -1.080471621267491855e+00
-5.574406120926141739e+00 3.166535341739654541e+01 -1.105785952322179355e+00
-6.094791863113641739e+00 3.288947451114654541e+01 -1.141354189626866855e+00
-3.731754753738641739e+00 3.058722841739654541e+01 -9.603086574003043552e-01
-4.135441277176141739e+00 3.161286318302154541e+01 -9.847227199003043552e-01
-4.538029167801141739e+00 3.247516787052154541e+01 -1.005306826345616855e+00
-4.237858269363641739e+00 2.847199404239654541e+01 -8.971220118924918552e-01
-5.056217644363641739e+00 3.203437197208404541e+01 -9.889494044706168552e-01
-5.704655144363641739e+00 3.415412294864654541e+01 -1.042294131033116855e+00
-6.112980339676141739e+00 3.467975771427154541e+01 -1.053524599783116855e+00
-6.572452995926141739e+00 3.541938173770904541e+01 -1.071041689626866855e+00
-4.156437370926141739e+00 3.420002138614654541e+01 -9.150205714628043552e-01
-4.532047722488641739e+00 3.472199404239654541e+01 -9.237943751737418552e-01
-4.936832878738641739e+00 3.537153017520904541e+01 -9.352537257596793552e-01
-5.362125847488641739e+00 3.605671083927154541e+01 -9.473539454862418552e-01
-5.239689324051141739e+00 3.320087587833404541e+01 -8.824735743924918552e-01
-5.743107292801141739e+00 3.439216005802154541e+01 -9.055753810331168552e-01
-6.215763542801141739e+00 3.526362001895904541e+01 -9.215665919706168552e-01
-6.715763542801141739e+00 3.618549501895904541e+01 -9.384885890409293552e-01
-4.513004753738641739e+00 3.723774111270904541e+01 -8.270536525174918552e-01
-4.916447136551141739e+00 3.773798525333404541e+01 -8.325315577909293552e-01
-5.328190300613641739e+00 3.821747744083404541e+01 -8.366819484159293552e-01
-5.759586784988641739e+00 3.874811708927154541e+01 -8.424497706815543552e-01
-6.193790886551141739e+00 3.922907412052154541e+01 -8.472562892362418552e-01
-6.639469597488641739e+00 3.971332705020904541e+01 -8.520170314237418552e-01
-7.083927605301141739e+00 4.012201845645904541e+01 -8.563047511503043552e-01
-7.535099480301141739e+00 4.052192080020904541e+01 -8.594633204862418552e-01
-5.171207878738641739e+00 4.283783876895904541e+01 -7.429777247831168552e-01
-5.587589714676141739e+00 4.299701845645904541e+01 -7.409788234159293552e-01
-6.035099480301141739e+00 4.335004580020904541e+01 -7.413908107206168552e-01
-6.496403191238641739e+00 4.372992861270904541e+01 -7.420164210721793552e-01
-6.958683464676141739e+00 4.406781923770904541e+01 -7.420621974393668552e-01
-7.426578972488641739e+00 4.439057314395904541e+01 -7.418485743924918552e-01
-7.905094597488641739e+00 4.472077333927154541e+01 -7.416044337674918552e-01
-8.400577995926141739e+00 4.510529482364654541e+01 -7.419706447049918552e-01
-5.588932488113641739e+00 4.640168154239654541e+01 -5.913663966581168552e-01
-1.268634459748864174e+01 9.850946962833404541e+01 -1.008068667165929355e+00
-1.284186217561364174e+01 8.654755556583404541e+01 -8.930631740018668552e-01
-1.328046080842614174e+01 8.398114931583404541e+01 -8.639951808378043552e-01
-8.041080925613641739e+00 4.804767763614654541e+01 -5.803800685331168552e-01
-8.549747917801141739e+00 4.833576357364654541e+01 -5.776029689237418552e-01
-1.470026061311364174e+01 7.840400087833404541e+01 -7.957731349393668552e-01
-5.586246941238641739e+00 4.639960634708404541e+01 -3.930631740018668552e-01
-1.321686217561364174e+01 8.910944521427154541e+01 -5.150266749784293552e-01
-1.324640319123864174e+01 8.379462587833404541e+01 -4.885526759549918552e-01
-8.038273308426141739e+00 4.804596865177154541e+01 -3.728757960721793552e-01
-8.546818230301141739e+00 4.833417665958404541e+01 -3.684202296659293552e-01
-9.065128777176141739e+00 4.864338076114654541e+01 -3.639646632596793552e-01
-5.583683464676141739e+00 4.639765322208404541e+01 -1.958433253690543552e-01
-1.219525573030114174e+01 9.475043642520904541e+01 -1.335874659940543552e-01
-1.288861510530114174e+01 8.692646181583404541e+01 -1.220975978299918552e-01
-1.323712584748864174e+01 8.376496279239654541e+01 -1.166196925565543552e-01
-8.035343620926141739e+00 4.804438173770904541e+01 -1.665006740018668552e-01
-8.543888542801141739e+00 4.833246767520904541e+01 -1.603818995878043552e-01
-9.061344597488641739e+00 4.863739931583404541e+01 -1.541715724393668552e-01
-5.585392449051141739e+00 4.643293154239654541e+01 2.597226388758144822e-03
-1.216022155061364174e+01 9.451630556583404541e+01 2.881807224825081448e-01
-1.231561705842614174e+01 8.896552431583404541e+01 2.649263279512581448e-01
-1.299933287873864174e+01 8.770612490177154541e+01 2.685274021700081448e-01
-1.387945983186364174e+01 8.785297548770904541e+01 2.805208103731331448e-01
-1.473651549592614174e+01 8.782892763614654541e+01 2.914918797090706448e-01
-1.504803893342614174e+01 8.472528994083404541e+01 2.846712009981331448e-01
-1.584686705842614174e+01 8.453766787052154541e+01 2.942232029512581448e-01
-1.047699401155114174e+01 8.805121767520904541e+01 6.288179295137581448e-01
-1.115802428498864174e+01 8.670758974552154541e+01 6.263917820528206448e-01
-1.244684264436364174e+01 8.995270693302154541e+01 6.721986668184456448e-01
-1.304059264436364174e+01 8.801752626895904541e+01 6.634401218965706448e-01
-1.389252135530114174e+01 8.796589052677154541e+01 6.746095554903206448e-01
-1.420734069123864174e+01 8.471601259708404541e+01 6.506074802950081448e-01
-1.502301451936364174e+01 8.461103212833404541e+01 6.608003513887581448e-01
-1.588531920686364174e+01 8.476654970645904541e+01 6.739076511934456448e-01
-1.058221862092614174e+01 8.898713076114654541e+01 1.034152402170008145e+00
-1.183844420686364174e+01 9.207538759708404541e+01 1.090899838693445645e+00
-1.189020201936364174e+01 8.594770205020904541e+01 1.010562314279383145e+00
-1.272467467561364174e+01 8.591462099552154541e+01 1.022067441232508145e+00
-1.374371764436364174e+01 8.705549013614654541e+01 1.051761044748133145e+00
-1.412067076936364174e+01 8.422907412052154541e+01 1.019748105295008145e+00
-1.496918151155114174e+01 8.433612978458404541e+01 1.033313168771570645e+00
-1.495990416780114174e+01 7.989399111270904541e+01 9.762910740450081448e-01
-1.026703307405114174e+01 8.634406435489654541e+01 1.376040829904383145e+00
-1.131757018342614174e+01 8.803144228458404541e+01 1.421832455880945645e+00
-1.249628112092614174e+01 9.038251650333404541e+01 1.481356992013758145e+00
-1.271808287873864174e+01 8.590229189395904541e+01 1.405002011545008145e+00
-1.356000182405114174e+01 8.592353212833404541e+01 1.418017758615320645e+00
-1.422003600373864174e+01 8.484687197208404541e+01 1.408770932443445645e+00
-8.633976433426141739e+00 4.889472353458404541e+01 6.853364842012581448e-01
-9.068058464676141739e+00 4.872870790958404541e+01 6.889070408418831448e-01
-5.591618034988641739e+00 4.656696474552154541e+01 7.972597019746956448e-01
-1.174884459748864174e+01 9.144989931583404541e+01 1.894717587716883145e+00
-1.399408385530114174e+01 1.012984100580215454e+02 2.149814023263758145e+00
-1.270856139436364174e+01 8.586933290958404541e+01 1.785235776193445645e+00
-1.369464537873864174e+01 8.680549013614654541e+01 1.821627988107508145e+00
-1.412030455842614174e+01 8.428205263614654541e+01 1.771991147287195645e+00
-8.631412956863641739e+00 4.889570009708404541e+01 8.959382908418831448e-01
-9.065617058426141739e+00 4.872968447208404541e+01 9.001802342012581448e-01
-5.589298699051141739e+00 4.656733095645904541e+01 9.951814549043831448e-01
-1.124567076936364174e+01 8.754096376895904541e+01 2.189151181466883145e+00
-1.270587584748864174e+01 8.588239443302154541e+01 2.168536557443445645e+00
-1.440436217561364174e+01 9.132819521427154541e+01 2.342761410959070645e+00
-1.434979674592614174e+01 8.567426455020904541e+01 2.189914120920008145e+00
-8.628971550613641739e+00 4.889667665958404541e+01 1.107653989084070645e+00
-9.063175652176141739e+00 4.873066103458404541e+01 1.110324277170008145e+00
-5.586979363113641739e+00 4.656757509708404541e+01 1.194156064279383145e+00
-1.123993346467614174e+01 8.753327333927154541e+01 2.578372372873133145e+00
-1.332709166780114174e+01 9.011945497989654541e+01 2.693210019357508145e+00
-1.379132506623864174e+01 8.747785341739654541e+01 2.618197812326258145e+00
-1.434662291780114174e+01 8.568366396427154541e+01 2.571353329904383145e+00
-1.560358092561364174e+01 8.799701845645904541e+01 2.667590512521570645e+00
-1.478070494905114174e+01 7.903962099552154541e+01 2.371997250802820645e+00
-1.050665709748864174e+01 8.854535830020904541e+01 2.991244687326258145e+00
-1.127655455842614174e+01 8.785810244083404541e+01 2.978137387521570645e+00
-1.292218444123864174e+01 8.741120302677154541e+01 2.991366757638758145e+00
-1.490887877717614174e+01 9.458771669864654541e+01 3.284793271310633145e+00
-1.466486022248864174e+01 8.760468447208404541e+01 3.029345883615320645e+00
-1.605145690217614174e+01 9.053522646427154541e+01 3.159396542795008145e+00
-1.477972838655114174e+01 7.905780947208404541e+01 2.725924863107508145e+00
-3.389225456863641739e+00 1.859455263614654541e+01 -9.812589747831168552e-01
-3.689030144363641739e+00 1.932062685489654541e+01 -1.016567812673741855e+00
-3.787418816238641739e+00 1.901545107364654541e+01 -1.001217470876866855e+00
-3.836979363113641739e+00 1.851178896427154541e+01 -9.760557277128043552e-01
-3.889713738113641739e+00 1.806708681583404541e+01 -9.538236720487418552e-01
-3.939640495926141739e+00 1.764631044864654541e+01 -9.327970607206168552e-01
-3.987003777176141739e+00 1.724640810489654541e+01 -9.127927882596793552e-01
-4.031803581863641739e+00 1.686811220645904541e+01 -8.942228419706168552e-01
-3.685490105301141739e+00 2.016059267520904541e+01 -9.813505275174918552e-01
-3.736271355301141739e+00 1.956134951114654541e+01 -9.540678126737418552e-01
-3.792301628738641739e+00 1.904279482364654541e+01 -9.300352199003043552e-01
-3.845158074051141739e+00 1.855317080020904541e+01 -9.077116115018668552e-01
-3.897770378738641739e+00 1.810602724552154541e+01 -8.873106105253043552e-01
-3.963077995926141739e+00 1.774714052677154541e+01 -8.708921534940543552e-01
-4.113224480301141739e+00 1.774945986270904541e+01 -8.709531886503043552e-01
-5.987369988113641739e+00 2.430219423770904541e+01 -1.163128481619054355e+00
-3.695255730301141739e+00 2.021674501895904541e+01 -9.061552150174918552e-01
-3.745792839676141739e+00 1.961371767520904541e+01 -8.813444240018668552e-01
-3.826725456863641739e+00 1.921051943302154541e+01 -8.646055324003043552e-01
-3.992496941238641739e+00 1.922443544864654541e+01 -8.645597560331168552e-01
-6.016300652176141739e+00 2.726703798770904541e+01 -1.185650454275304355e+00
-6.003239128738641739e+00 2.618525087833404541e+01 -1.141522036306554355e+00
-6.065128777176141739e+00 2.548407900333404541e+01 -1.112682924978429355e+00
-6.091129753738641739e+00 2.470185244083404541e+01 -1.080639467947179355e+00
-3.890812370926141739e+00 2.125312197208404541e+01 -8.656278712674918552e-01
-6.005192253738641739e+00 3.091681826114654541e+01 -1.206509218923741855e+00
-6.616032097488641739e+00 3.247516787052154541e+01 -1.260311709158116855e+00
-6.046452019363641739e+00 2.853009951114654541e+01 -1.119610415212804355e+00
-6.173527214676141739e+00 2.795295107364654541e+01 -1.098065005056554355e+00
-6.142033074051141739e+00 2.676520693302154541e+01 -1.055050478689366855e+00
-5.917423699051141739e+00 2.490412294864654541e+01 -9.884763820096793552e-01
-6.089054558426141739e+00 2.469867861270904541e+01 -9.807554347440543552e-01
-6.096378777176141739e+00 3.289203798770904541e+01 -1.141430483572179355e+00
-6.476994011551141739e+00 3.328461611270904541e+01 -1.151791201345616855e+00
-6.923893425613641739e+00 3.394696962833404541e+01 -1.170376406423741855e+00
-7.524113152176141739e+00 3.523053896427154541e+01 -1.207897768728429355e+00
-7.949161980301141739e+00 3.563800966739654541e+01 -1.218487368337804355e+00
-6.442448113113641739e+00 2.801362001895904541e+01 -9.840665919706168552e-01
-6.299625847488641739e+00 2.642414247989654541e+01 -9.342313868924918552e-01
-6.343815300613641739e+00 2.567231142520904541e+01 -9.100309474393668552e-01
-6.574528191238641739e+00 3.542438662052154541e+01 -1.071179018728429355e+00
-7.018864128738641739e+00 3.600470888614654541e+01 -1.083309756033116855e+00
-7.447941277176141739e+00 3.644843447208404541e+01 -1.092602358572179355e+00
-7.899235222488641739e+00 3.693854677677154541e+01 -1.103008852712804355e+00
-8.336124870926141739e+00 3.732074892520904541e+01 -1.110561953298741855e+00
-8.814152214676141739e+00 3.783307802677154541e+01 -1.121410952322179355e+00
-5.735538933426141739e+00 2.419367372989654541e+01 -7.686735255643668552e-01
-5.954899284988641739e+00 2.419831240177154541e+01 -7.678800685331168552e-01
-6.718204949051141739e+00 3.619220888614654541e+01 -9.386259181424918552e-01
-7.228092644363641739e+00 3.706134951114654541e+01 -9.546171290799918552e-01
-7.683170769363641739e+00 3.757685244083404541e+01 -9.629331691190543552e-01
-8.156315300613641739e+00 3.811298525333404541e+01 -9.715849025174918552e-01
-8.645206902176141739e+00 3.866681826114654541e+01 -9.805112941190543552e-01
-9.151676628738641739e+00 3.923847353458404541e+01 -9.897276027128043552e-01
-5.730411980301141739e+00 2.417817080020904541e+01 -6.712156398221793552e-01
-5.949528191238641739e+00 2.418268740177154541e+01 -6.696439845487418552e-01
-7.536930534988641739e+00 4.052460634708404541e+01 -8.595090968534293552e-01
-7.992619011551141739e+00 4.089924013614654541e+01 -8.624540431424918552e-01
-8.450016472488641739e+00 4.123639833927154541e+01 -8.637662990018668552e-01
-8.920841667801141739e+00 4.158832705020904541e+01 -8.661466700956168552e-01
-9.392643425613641739e+00 4.191071474552154541e+01 -8.679929835721793552e-01
-5.493473503738641739e+00 2.410382997989654541e+01 -5.743223292753043552e-01
-5.721867058426141739e+00 2.414924013614654541e+01 -5.736967189237418552e-01
-5.944157097488641739e+00 2.416730654239654541e+01 -5.721098048612418552e-01
-8.402531120926141739e+00 4.510773622989654541e+01 -7.419859034940543552e-01
-8.919132683426141739e+00 4.555024111270904541e+01 -7.431455714628043552e-01
-9.487247917801141739e+00 4.618464052677154541e+01 -7.464872462674918552e-01
-1.008771178498864174e+01 4.688996279239654541e+01 -7.504850490018668552e-01
-1.059296080842614174e+01 4.711737978458404541e+01 -7.487608058378043552e-01
-1.119220397248864174e+01 4.770588076114654541e+01 -7.511564357206168552e-01
-5.711979363113641739e+00 2.411506044864654541e+01 -4.758726222440543552e-01
-7.233829949051141739e+00 2.908112490177154541e+01 -5.302549464628043552e-01
-1.470367858186364174e+01 7.840802919864654541e+01 -7.957731349393668552e-01
-1.536005065217614174e+01 7.782758486270904541e+01 -7.832914454862418552e-01
-1.623236510530114174e+01 7.831635439395904541e+01 -7.785764796659293552e-01
-1.698822448030114174e+01 7.820295107364654541e+01 -7.694364650174918552e-01
-1.117218444123864174e+01 4.963715517520904541e+01 -5.618101222440543552e-01
-1.170978209748864174e+01 4.986042177677154541e+01 -5.581785304471793552e-01
-5.702213738113641739e+00 2.408124697208404541e+01 -3.789030177518668552e-01
-7.250431511551141739e+00 2.915033876895904541e+01 -4.102293116971793552e-01
-1.473651549592614174e+01 7.860517275333404541e+01 -4.458433253690543552e-01
-1.539569518342614174e+01 7.802875673770904541e+01 -4.352842433378043552e-01
-1.590912291780114174e+01 7.679804384708404541e+01 -4.231840236112418552e-01
-1.744012877717614174e+01 8.027362978458404541e+01 -4.224821193143668552e-01
-1.116913268342614174e+01 4.963581240177154541e+01 -3.442655665799918552e-01
-1.170660826936364174e+01 4.985920107364654541e+01 -3.390775782987418552e-01
-7.131290886551141739e+00 2.975800478458404541e+01 -2.931638820096793552e-01
-7.257633659988641739e+00 2.918366396427154541e+01 -2.888456447049918552e-01
-9.064030144363641739e+00 4.864301455020904541e+01 -1.541410548612418552e-01
-1.528180358186364174e+01 7.747968447208404541e+01 -8.883343767374185518e-02
-1.674701354280114174e+01 8.081086122989654541e+01 -7.178937029092935518e-02
-1.680719420686364174e+01 7.742206728458404541e+01 -6.942425798624185518e-02
-1.116608092561364174e+01 4.963459169864654541e+01 -1.279111964628043552e-01
-1.170355651155114174e+01 4.985785830020904541e+01 -1.211820704862418552e-01
-1.225055358186364174e+01 5.008515322208404541e+01 -1.143461329862418552e-01
-5.933903191238641739e+00 2.414765322208404541e+01 -1.822935206815543552e-01
-1.499896666780114174e+01 8.003937685489654541e+01 2.644990818575081448e-01
-1.501593444123864174e+01 7.616877138614654541e+01 2.491639988496956448e-01
-1.587408873811364174e+01 7.667231142520904541e+01 2.611268894746956448e-01
-1.668817565217614174e+01 7.690180361270904541e+01 2.732118504121956448e-01
-1.773480651155114174e+01 7.811445009708404541e+01 2.924074070528206448e-01
-1.872540709748864174e+01 7.897480165958404541e+01 3.094362156465706448e-01
-1.956647155061364174e+01 7.914423525333404541e+01 3.235505955293831448e-01
-5.929142449051141739e+00 2.413434755802154541e+01 -8.477459978311685518e-02
-1.588910338655114174e+01 8.477082216739654541e+01 6.739992039278206448e-01
-1.506354186311364174e+01 7.642841494083404541e+01 5.909761326387581448e-01
-1.592328307405114174e+01 7.692817080020904541e+01 6.078828709200081448e-01
-1.689252135530114174e+01 7.784980165958404541e+01 6.299928562715706448e-01
-1.776617858186364174e+01 7.827008974552154541e+01 6.464265720918831448e-01
-1.830756041780114174e+01 7.726154482364654541e+01 6.458314793184456448e-01
-1.968707701936364174e+01 7.964154970645904541e+01 6.863740818575081448e-01
-5.924381706863641739e+00 2.412104189395904541e+01 1.208819318563314482e-02
-1.496222350373864174e+01 7.989203798770904541e+01 9.763063328340706448e-01
-1.500592467561364174e+01 7.616132509708404541e+01 9.267152683809456448e-01
-1.655536315217614174e+01 7.996308290958404541e+01 1.000399960763758145e+00
-1.721649596467614174e+01 7.934162294864654541e+01 1.002749814279383145e+00
-1.811127135530114174e+01 7.978608095645904541e+01 1.022586240060633145e+00
-1.842401549592614174e+01 7.776313173770904541e+01 1.001284970529383145e+00
-1.969879576936364174e+01 7.970685732364654541e+01 1.046542538888758145e+00
-2.099847838655114174e+01 8.158515322208404541e+01 1.093325986154383145e+00
-9.070133659988641739e+00 4.873139345645904541e+01 6.889833347871956448e-01
-1.521027037873864174e+01 7.720832216739654541e+01 1.289080991037195645e+00
-1.617108580842614174e+01 7.815143740177154541e+01 1.321643246896570645e+00
-1.703888365998864174e+01 7.855524599552154541e+01 1.343234433420008145e+00
-1.857489440217614174e+01 8.181684267520904541e+01 1.425921811349695645e+00
-1.934601256623864174e+01 8.160627138614654541e+01 1.435153378732508145e+00
-1.971234557405114174e+01 7.977924501895904541e+01 1.409396542795008145e+00
-2.089386412873864174e+01 8.120453798770904541e+01 1.454074277170008145e+00
-9.067081902176141739e+00 4.872882997989654541e+01 9.001802342012581448e-01
-1.526361510530114174e+01 7.749762880802154541e+01 1.640094174630945645e+00
-1.569281432405114174e+01 7.589106142520904541e+01 1.612475766427820645e+00
-1.688361022248864174e+01 7.786994326114654541e+01 1.677020444162195645e+00
-1.855536315217614174e+01 8.175275576114654541e+01 1.791873349435633145e+00
-1.945709655061364174e+01 8.208686220645904541e+01 1.815219296701258145e+00
-2.016510436311364174e+01 8.159699404239654541e+01 1.817050351388758145e+00
-2.259112975373864174e+01 8.769562685489654541e+01 1.996035947091883145e+00
-9.064518425613641739e+00 4.872980654239654541e+01 1.110324277170008145e+00
-1.521979186311364174e+01 7.729975283145904541e+01 1.980929745920008145e+00
-1.567584655061364174e+01 7.583039247989654541e+01 1.950656308420008145e+00
-1.649676940217614174e+01 7.613202822208404541e+01 1.974048032052820645e+00
-1.879474303498864174e+01 8.281159365177154541e+01 2.193713559396570645e+00
-1.948028990998864174e+01 8.220319521427154541e+01 2.190509213693445645e+00
