3.116312237456440926e+00 8.888345110416412354e+01 8.704995452193600158e-01
2.250833721831440926e+00 8.857925188541412354e+01 8.750771819381100158e-01
1.377542706206440926e+00 8.748989641666412354e+01 8.712319670943600158e-01
2.565042706206440926e+00 3.671902239322662354e+01 3.292702971724850158e-01
2.230814190581440926e+00 3.672207415103912354e+01 3.325814543990475158e-01
6.345438214018940926e+00 9.794204485416412354e+01 1.396805697563110016e+00
5.636575909331440926e+00 1.017831093072891235e+02 1.472992831352172516e+00
1.150003643706440926e+00 3.522683489322662354e+01 3.161324797896725158e-01
8.268835265189409256e-01 3.510671770572662354e+01 3.171090422896725158e-01
2.249857159331440926e+00 8.841824114322662354e+01 1.264893466117797516e+00
1.442972393706440926e+00 9.018264544010162354e+01 1.304581576469360016e+00
2.305277081206440926e+00 3.390115129947662354e+01 4.221505461959225158e-01
1.987772198393940926e+00 3.376479876041412354e+01 4.213265715865475158e-01
6.406717510893940926e+00 9.872024309635162354e+01 1.848343783500610016e+00
1.480814190581440926e+00 3.540017473697662354e+01 4.631203948287350158e-01
1.154642315581440926e+00 3.528579485416412354e+01 4.636086760787350158e-01
3.151956768706440926e+00 8.951650774478912354e+01 1.671051913383422516e+00
2.249368878081440926e+00 8.827187883853912354e+01 1.651459628227172516e+00
1.442606182768940926e+00 8.997256243228912354e+01 1.699677401664672516e+00
2.315775128081440926e+00 3.399905169010162354e+01 5.651406585006100158e-01
1.993997784331440926e+00 3.382204973697662354e+01 5.632943450240475158e-01
1.716654034331440926e+00 3.420168840885162354e+01 5.761727629927975158e-01
1.383524151518940926e+00 3.382388079166412354e+01 5.689706145552975158e-01
1.160135479643940926e+00 3.535891497135162354e+01 6.127938567427975158e-01
8.328649718314409256e-01 3.517263567447662354e+01 6.107339202193600158e-01
2.249246807768940926e+00 8.813784563541412354e+01 2.039063387992797516e+00
2.326029034331440926e+00 3.409280169010162354e+01 7.096566497115475158e-01
2.000833721831440926e+00 3.388674700260162354e+01 7.060097991256100158e-01
1.677225323393940926e+00 3.363845598697662354e+01 7.002572356490475158e-01
1.498392315581440926e+00 3.563015520572662354e+01 7.651681243209225158e-01
1.161112042143940926e+00 3.534731829166412354e+01 7.592019377974850158e-01
8.772985655814409256e-01 3.617226946353912354e+01 7.879647551802975158e-01
2.338846417143940926e+00 9.074014055728912354e+01 2.511643344047485016e+00
1.456522198393940926e+00 9.019704973697662354e+01 2.502259188774047516e+00
2.334451885893940926e+00 3.416848528385162354e+01 8.543710051802975158e-01
2.002786846831440926e+00 3.389236223697662354e+01 8.464516936568600158e-01
1.673929424956440926e+00 3.357351458072662354e+01 8.377084075240475158e-01
1.507791729643940926e+00 3.575478899478912354e+01 9.185189543990475158e-01
1.160501690581440926e+00 3.530557024478912354e+01 9.051827727584225158e-01
3.585062237456440926e+00 9.932375872135162354e+01 3.213593417289672516e+00
-3.070276062935590744e-01 1.340481340885162354e+01 -7.551260651322024842e-01
-4.059045594185590744e-01 1.348721086978912354e+01 -7.580252350540774842e-01
-5.064904969185590744e-01 1.356533586978912354e+01 -7.609244049759524842e-01
-6.090295594185590744e-01 1.363442766666412354e+01 -7.633505524368899842e-01
-7.125451844185590744e-01 1.370522844791412354e+01 -7.658377350540774842e-01
-8.183801453560590744e-01 1.380679094791412354e+01 -7.698813141556399842e-01
-9.267785828560590744e-01 1.391079485416412354e+01 -7.740164459915774842e-01
-1.036641864106059074e+00 1.401113665103912354e+01 -7.782126129837649842e-01
-2.843225281685590744e-01 1.441665422916412354e+01 -7.559500397415774842e-01
-3.933313172310590744e-01 1.449587786197662354e+01 -7.584372223587649842e-01
-5.039270203560590744e-01 1.458205950260162354e+01 -7.609701813431399842e-01
-6.167199891060590744e-01 1.466396868228912354e+01 -7.635641754837649842e-01
-7.308557312935590744e-01 1.475576555728912354e+01 -7.665854157181399842e-01
-8.477990906685590744e-01 1.487930071353912354e+01 -7.710409821243899842e-01
-9.674279969185590744e-01 1.499966204166412354e+01 -7.756186188431399842e-01
-1.089620379731059074e+00 1.512869036197662354e+01 -7.802878082962649842e-01
-2.540490906685590744e-01 1.576748430728912354e+01 -7.616415680618899842e-01
-3.759973328560590744e-01 1.588784563541412354e+01 -7.653494538040774842e-01
-5.005090516060590744e-01 1.595889055728912354e+01 -7.669668854447024842e-01
-6.268518250435590744e-01 1.602724993228912354e+01 -7.684622467728274842e-01
-7.552697937935590744e-01 1.615408098697662354e+01 -7.723684967728274842e-01
-8.889367859810590744e-01 1.637612688541412354e+01 -7.801809967728274842e-01
-1.028096942231059074e+00 1.661623919010162354e+01 -7.886954010697024842e-01
-1.175313739106059074e+00 1.693179094791412354e+01 -8.002615631790774842e-01
-2.110803406685590744e-01 1.768728411197662354e+01 -7.764731110306399842e-01
-3.521936219185590744e-01 1.780166399478912354e+01 -7.788382233353274842e-01
-4.957483094185590744e-01 1.790994036197662354e+01 -7.812948883743899842e-01
-6.418664734810590744e-01 1.802029192447662354e+01 -7.837973297806399842e-01
-7.912805359810590744e-01 1.820742571353912354e+01 -7.891226471634524842e-01
-9.460656922310590744e-01 1.845657122135162354e+01 -7.966757477493899842e-01
-1.107930926606059074e+00 1.874538958072662354e+01 -8.056326569290774842e-01
-1.277120379731059074e+00 1.907790911197662354e+01 -8.165121735306399842e-01
-1.682336609810590744e-01 1.959341204166412354e+01 -7.728567780228274842e-01
-3.281457703560590744e-01 1.972219622135162354e+01 -7.752981842728274842e-01
-4.907434266060590744e-01 1.985317766666412354e+01 -7.777853668900149842e-01
-6.565149109810590744e-01 1.998672258853912354e+01 -7.803183258743899842e-01
-8.281457703560590744e-01 2.032937395572662354e+01 -7.895804108353274842e-01
-1.009542254731059074e+00 2.077407610416412354e+01 -8.020468414993899842e-01
-1.201436785981059074e+00 2.124416887760162354e+01 -8.152304352493899842e-01
-1.403219012543559074e+00 2.173916399478912354e+01 -8.291159332962649842e-01
-1.093957703560590744e-01 2.220840227603912354e+01 -7.720480622025149842e-01
-2.946985047310590744e-01 2.239932024478912354e+01 -7.748861969681399842e-01
-4.837854187935590744e-01 2.257729876041412354e+01 -7.777701081009524842e-01
-6.772668641060590744e-01 2.275930559635162354e+01 -7.807303131790774842e-01
-8.797815125435590744e-01 2.328713762760162354e+01 -7.932272614212649842e-01
-1.098287371918559074e+00 2.401125872135162354e+01 -8.110190094681399842e-01
-1.329366473481059074e+00 2.466140520572662354e+01 -8.266134918900149842e-01
-1.567647723481059074e+00 2.520681536197662354e+01 -8.397360504837649842e-01
-2.760866098105907440e-02 2.585159075260162354e+01 -7.709494293900149842e-01
-2.480676453560590744e-01 2.612856829166412354e+01 -7.749624909134524842e-01
-4.736535828560590744e-01 2.661770403385162354e+01 -7.838736237259524842e-01
-7.079065125435590744e-01 2.686416399478912354e+01 -7.870474518509524842e-01
-9.509485047310590744e-01 2.737136614322662354e+01 -7.961722077103274842e-01
-1.203023700043559074e+00 2.783620989322662354e+01 -8.042288483353274842e-01
-1.464132098481059074e+00 2.827322161197662354e+01 -8.115378082962649842e-01
-1.735250262543559074e+00 2.875039446353912354e+01 -8.196707428665774842e-01
7.493040151894092560e-02 3.041238176822662354e+01 -7.542868317337649842e-01
-1.903283875435590744e-01 3.073074114322662354e+01 -7.573080719681399842e-01
-4.621789734810590744e-01 3.102847063541412354e+01 -7.591849030228274842e-01
-7.407434266060590744e-01 3.131838762760162354e+01 -7.615194977493899842e-01
-1.025777606293559074e+00 3.168655169010162354e+01 -7.652579010697024842e-01
-1.318380145356059074e+00 3.206460344791412354e+01 -7.690725983353274842e-01
-1.619039325043559074e+00 3.242580950260162354e+01 -7.732229889603274842e-01
-1.937886981293559074e+00 3.303994524478912354e+01 -7.811728180618899842e-01
2.226354796439409256e-01 3.697475969791412354e+01 -7.237387360306399842e-01
-1.081750672310590744e-01 3.727236711978912354e+01 -7.242575348587649842e-01
-4.450891297310590744e-01 3.757534563541412354e+01 -7.247763336868899842e-01
-7.912805359810590744e-01 3.814285051822662354e+01 -7.289267243118899842e-01
-1.146016864106059074e+00 3.861599504947662354e+01 -7.316580475540774842e-01
-1.502218035981059074e+00 3.879263079166412354e+01 -7.301932038040774842e-01
-1.886983660981059074e+00 3.960415422916412354e+01 -7.373495758743899842e-01
-2.257467059418559074e+00 3.979665911197662354e+01 -7.359457672806399842e-01
2.935583312064409256e-01 4.006997454166412354e+01 -5.998984039993899842e-01
-6.813600473105907440e-02 4.036294329166412354e+01 -5.986471832962649842e-01
-4.353235047310590744e-01 4.087844622135162354e+01 -5.994406403275149842e-01
-1.207662371918559074e+00 9.345376360416412354e+01 -1.090254849311889984e+00
-2.008687762543559074e+00 8.794338762760162354e+01 -1.028975552436889984e+00
-2.970357684418559074e+00 9.226736223697662354e+01 -1.059325283882202484e+00
-2.011495379731059074e+00 4.297585833072662354e+01 -6.017904938431399842e-01
-2.421041278168559074e+00 4.328530657291412354e+01 -6.001578034134524842e-01
2.955114562064409256e-01 4.007131731510162354e+01 -4.308310211868899842e-01
-6.630495004355907440e-02 4.036037981510162354e+01 -4.281759918900149842e-01
-4.333703797310590744e-01 4.087576067447662354e+01 -4.265890778275149842e-01
-1.164815692231059074e+00 8.836636126041412354e+01 -6.506186188431399842e-01
-1.989888934418559074e+00 8.711916887760162354e+01 -6.352682770462649842e-01
-2.976339129731059074e+00 9.265420305728912354e+01 -6.512747467728274842e-01
-2.009542254731059074e+00 4.297903215885162354e+01 -4.191885651322024842e-01
-2.418844012543559074e+00 4.328298723697662354e+01 -4.160910309525149842e-01
2.973425108939409256e-01 4.007278215885162354e+01 -2.626486481400149842e-01
-6.447389535605907440e-02 4.035781633853912354e+01 -2.586508454056399842e-01
-4.314172547310590744e-01 4.087307512760162354e+01 -2.546835602493899842e-01
-1.158101825043559074e+00 8.805581438541412354e+01 -2.609091461868899842e-01
-1.982808856293559074e+00 8.696426165103912354e+01 -2.512808502884524842e-01
-2.961812762543559074e+00 9.229592669010162354e+01 -2.418661774368899842e-01
-2.007589129731059074e+00 4.298220598697662354e+01 -2.375631989212649842e-01
-2.416646746918559074e+00 4.328066790103912354e+01 -2.330313385697024842e-01
2.992956358939409256e-01 4.007424700260162354e+01 -9.356600653845248416e-02
-6.264284066855907440e-02 4.035525286197662354e+01 -8.825594794470248416e-02
-4.295862000435590744e-01 4.087038958072662354e+01 -8.280856024938998416e-02
-1.155538348481059074e+00 8.830044329166412354e+01 1.283425627974850158e-01
-2.046285418793559074e+00 9.086807024478912354e+01 1.494302092818600158e-01
-2.868306903168559074e+00 8.904470598697662354e+01 1.509408293990475158e-01
-2.005636004731059074e+00 4.298525774478912354e+01 -5.493075263220248416e-02
-2.414449481293559074e+00 4.327834856510162354e+01 -4.904086005407748416e-02
1.375833721831440926e+00 8.772659075260162354e+01 4.858407317427975158e-01
5.373327452689409256e-01 8.782400286197662354e+01 4.962624846724850158e-01
-3.027551453560590744e-01 8.815444719791412354e+01 5.087594329146725158e-01
-1.145772723481059074e+00 8.756850969791412354e+01 5.131539641646725158e-01
-2.013936785981059074e+00 8.926370012760162354e+01 5.381020842818600158e-01
-2.890157489106059074e+00 9.000735247135162354e+01 5.546883879927975158e-01
-3.694967059418559074e+00 8.835598528385162354e+01 5.491799651412350158e-01
-4.533101825043559074e+00 8.816116106510162354e+01 5.569772063521725158e-01
1.374613018706440926e+00 8.748293840885162354e+01 8.711709319381100158e-01
5.353796202689409256e-01 8.733620989322662354e+01 8.767403899459225158e-01
-2.926233094185590744e-01 9.029202044010162354e+01 9.260262786177975158e-01
-1.160909442231059074e+00 9.023061907291412354e+01 9.351357756881100158e-01
-2.047994403168559074e+00 9.149172747135162354e+01 9.622811614302975158e-01
-3.723287371918559074e+00 8.923440325260162354e+01 9.510354338912350158e-01
-4.554097918793559074e+00 8.870058977603912354e+01 9.554452239302975158e-01
1.439920635893940926e+00 9.018240129947662354e+01 1.304612094047485016e+00
5.510046202689409256e-01 8.823086321353912354e+01 1.279557162406860016e+00
-2.929895203560590744e-01 8.856570208072662354e+01 1.295319491508422516e+00
-1.146871356293559074e+00 8.892349016666412354e+01 1.311600619438110016e+00
-2.106344012543559074e+00 9.515029680728912354e+01 1.435212069633422516e+00
-3.716695575043559074e+00 8.917934954166412354e+01 1.345780306938110016e+00
-4.591939715668559074e+00 8.959902727603912354e+01 1.363434725883422516e+00
1.439554424956440926e+00 8.996828997135162354e+01 1.699616366508422516e+00
5.881139952689409256e-01 9.080361711978912354e+01 1.726273471000610016e+00
-2.881067078560590744e-01 8.873586809635162354e+01 1.689545565727172516e+00
-1.140767840668559074e+00 8.869155657291412354e+01 1.698395663383422516e+00
-2.214986590668559074e+00 1.017595497369766235e+02 2.006943637016235016e+00
-3.202291278168559074e+00 1.020182167291641235e+02 2.024216586234985016e+00
-2.015523700043559074e+00 4.347671282291412354e+01 6.838845549849850158e-01
-2.443502215668559074e+00 4.407693254947662354e+01 7.034310637740475158e-01
1.441873760893940926e+00 8.987844622135162354e+01 2.093872958305297516e+00
5.604040343314409256e-01 8.828225481510162354e+01 2.060593539359985016e+00
-2.849328797310590744e-01 8.831350481510162354e+01 2.071259432914672516e+00
-1.146749285981059074e+00 9.013674700260162354e+01 2.130982333305297516e+00
-2.019429950043559074e+00 9.062673723697662354e+01 2.154480868461547516e+00
-2.013692645356059074e+00 4.348550188541412354e+01 8.689584075240475158e-01
-2.441427020356059074e+00 4.407693254947662354e+01 8.900460540084225158e-01
1.453592510893940926e+00 9.019924700260162354e+01 2.502366000297485016e+00
5.650427062064409256e-01 8.830666887760162354e+01 2.452423983695922516e+00
-2.733362000435590744e-01 9.079104387760162354e+01 2.539246493461547516e+00
-1.142476825043559074e+00 9.015749895572662354e+01 2.529221469047485016e+00
-2.019918231293559074e+00 9.092178118228912354e+01 2.563797885063110016e+00
-3.004171160981059074e+00 9.506533586978912354e+01 2.707261019828735016e+00
-2.011861590668559074e+00 4.349441301822662354e+01 1.054093295219360016e+00
-2.439229754731059074e+00 4.407693254947662354e+01 1.077652865531860016e+00
6.009313780814409256e-01 9.075491106510162354e+01 2.930359774711547516e+00
-2.680871766060590744e-01 9.106728899478912354e+01 2.951950961234985016e+00
-1.148702410981059074e+00 9.168484270572662354e+01 2.984787875297485016e+00
-2.028219012543559074e+00 9.168179094791412354e+01 2.994996005180297516e+00
-2.010152606293559074e+00 4.350320208072662354e+01 1.238327914359985016e+00
-2.437032489106059074e+00 4.407693254947662354e+01 1.265244418266235016e+00
-1.037130145356059074e+00 1.401186907291412354e+01 -7.782583893509524842e-01
-1.149434832856059074e+00 1.411843645572662354e+01 -7.825461090775149842e-01
-1.263936785981059074e+00 1.422170794010162354e+01 -7.869101227493899842e-01
-1.381246356293559074e+00 1.432754290103912354e+01 -7.913962067337649842e-01
-1.500631121918559074e+00 1.443520891666412354e+01 -7.959433258743899842e-01
-1.622701434418559074e+00 1.454531633853912354e+01 -8.005972565384524842e-01
-1.756246356293559074e+00 1.473635637760162354e+01 -8.092795075150149842e-01
-1.908223895356059074e+00 1.505276262760162354e+01 -8.244620026322024842e-01
-1.090108660981059074e+00 1.512942278385162354e+01 -7.803183258743899842e-01
-1.217061785981059074e+00 1.529446184635162354e+01 -7.869253815384524842e-01
-1.349263934418559074e+00 1.548696672916412354e+01 -7.944479645462649842e-01
-1.485982684418559074e+00 1.567788469791412354e+01 -8.021689118118899842e-01
-1.626729754731059074e+00 1.587466204166412354e+01 -8.101187409134524842e-01
-1.780904559418559074e+00 1.616567766666412354e+01 -8.223105133743899842e-01
-1.953878192231059074e+00 1.657058489322662354e+01 -8.399344147415774842e-01
-2.139302996918559074e+00 1.701308977603912354e+01 -8.588858307572024842e-01
-1.175802020356059074e+00 1.693349993228912354e+01 -8.003225983353274842e-01
-1.329488543793559074e+00 1.725027239322662354e+01 -8.122091950150149842e-01
-1.490865496918559074e+00 1.758279192447662354e+01 -8.246756256790774842e-01
-1.653951434418559074e+00 1.784206926822662354e+01 -8.340902985306399842e-01
-1.834737567231059074e+00 1.824783098697662354e+01 -8.494406403275149842e-01
-2.052999285981059074e+00 1.894985735416412354e+01 -8.767843903275149842e-01
-2.282613543793559074e+00 1.961819231510162354e+01 -9.026480377884524842e-01
-2.502218035981059074e+00 2.009011614322662354e+01 -9.204245270462649842e-01
-1.277730731293559074e+00 1.908035051822662354e+01 -8.166037262650149842e-01
-1.463765887543559074e+00 1.958474504947662354e+01 -8.332358063431399842e-01
-1.652608660981059074e+00 1.997988665103912354e+01 -8.461905182572024842e-01
-1.859639910981059074e+00 2.049575579166412354e+01 -8.634482086868899842e-01
-2.078023700043559074e+00 2.102578508853912354e+01 -8.811331452103274842e-01
-2.313253192231059074e+00 2.161538469791412354e+01 -9.008780182572024842e-01
-2.589620379731059074e+00 2.246853411197662354e+01 -9.299917877884524842e-01
-2.869039325043559074e+00 2.320364153385162354e+01 -9.552145661087649842e-01
-1.404073504731059074e+00 2.174184954166412354e+01 -8.291922272415774842e-01
-1.616964129731059074e+00 2.225381243228912354e+01 -8.438406647415774842e-01
-1.856221942231059074e+00 2.299783098697662354e+01 -8.657522858353274842e-01
-2.124044207856059074e+00 2.390640032291412354e+01 -8.927450836868899842e-01
-2.383077410981059074e+00 2.450906145572662354e+01 -9.099112213822024842e-01
-2.667012957856059074e+00 2.524026262760162354e+01 -9.310141266556399842e-01
-2.972921160981059074e+00 2.602859270572662354e+01 -9.537497223587649842e-01
-3.290181903168559074e+00 2.678091204166412354e+01 -9.752340973587649842e-01
-1.568502215668559074e+00 2.520889055728912354e+01 -8.397970856400149842e-01
-1.819722918793559074e+00 2.578506243228912354e+01 -8.528891266556399842e-01
-2.097921160981059074e+00 2.658413469791412354e+01 -8.724661530228274842e-01
-2.385152606293559074e+00 2.727932512760162354e+01 -8.890524567337649842e-01
-2.689473895356059074e+00 2.801321184635162354e+01 -9.065695465775149842e-01
-3.016622332856059074e+00 2.882644426822662354e+01 -9.260702789993899842e-01
-3.352315692231059074e+00 2.955557024478912354e+01 -9.431601227493899842e-01
-3.704732684418559074e+00 3.030483782291412354e+01 -9.613028229447024842e-01
-1.736348895356059074e+00 2.875454485416412354e+01 -8.197622956009524842e-01
-2.031148700043559074e+00 2.947378313541412354e+01 -8.335562409134524842e-01
-2.343648700043559074e+00 3.023574602603912354e+01 -8.481589020462649842e-01
-2.676656512543559074e+00 3.104812395572662354e+01 -8.637533844681399842e-01
-3.029927996918559074e+00 3.190981829166412354e+01 -8.802786530228274842e-01
-3.398702410981059074e+00 3.274941790103912354e+01 -8.961477936478274842e-01
-3.763204364106059074e+00 3.337820208072662354e+01 -9.071493805618899842e-01
-4.129659442231059074e+00 3.392056047916412354e+01 -9.161368073197024842e-01
-1.939107684418559074e+00 3.304421770572662354e+01 -7.812491120072024842e-01
-2.281514910981059074e+00 3.384670794010162354e+01 -7.927084625931399842e-01
-2.606099871918559074e+00 3.414101946353912354e+01 -7.941122711868899842e-01
-2.955587176606059074e+00 3.465945208072662354e+01 -8.002005280228274842e-01
-3.334981707856059074e+00 3.540774309635162354e+01 -8.102560700150149842e-01
-3.691304950043559074e+00 3.575979387760162354e+01 -8.131552399368899842e-01
-4.086324481293559074e+00 3.639028704166412354e+01 -8.216696442337649842e-01
-4.486104754731059074e+00 3.695864641666412354e+01 -8.281851471634524842e-01
-2.258687762543559074e+00 3.979787981510162354e+01 -7.359457672806399842e-01
-2.646261004731059074e+00 4.021352922916412354e+01 -7.376852692337649842e-01
-3.039815692231059074e+00 4.058767473697662354e+01 -7.387686432572024842e-01
-3.439962176606059074e+00 4.092471086978912354e+01 -7.392569245072024842e-01
-3.851339129731059074e+00 4.132204973697662354e+01 -7.404623688431399842e-01
-4.282979754731059074e+00 4.183767473697662354e+01 -7.431326569290774842e-01
-4.727315692231059074e+00 4.235647356510162354e+01 -7.457113922806399842e-01
-5.144429950043559074e+00 4.256118547916412354e+01 -7.441549957962649842e-01
-2.422628192231059074e+00 4.328835833072662354e+01 -6.001730622025149842e-01
-2.846700457856059074e+00 4.373476946353912354e+01 -5.997458161087649842e-01
-8.372823504731059074e+00 9.298672258853912354e+01 -1.006453579780639984e+00
-4.646261004731059074e+00 4.558108294010162354e+01 -5.974722565384524842e-01
-5.091695575043559074e+00 4.575979387760162354e+01 -5.942679108353274842e-01
-5.561910418793559074e+00 4.612405169010162354e+01 -5.925589264603274842e-01
-2.420308856293559074e+00 4.328603899478912354e+01 -4.160910309525149842e-01
-2.844381121918559074e+00 4.373232805728912354e+01 -4.134512604447024842e-01
-8.187520770356059074e+00 9.092568743228912354e+01 -5.838156403275149842e-01
-4.644429950043559074e+00 4.558596575260162354e+01 -4.020529450150149842e-01
-5.089132098481059074e+00 4.575784075260162354e+01 -3.978262604447024842e-01
-5.559224871918559074e+00 4.612209856510162354e+01 -3.942709625931399842e-01
-2.418111590668559074e+00 4.328371965885162354e+01 -2.330313385697024842e-01
-2.842061785981059074e+00 4.373000872135162354e+01 -2.281943024368899842e-01
-8.049215106293559074e+00 8.939858782291412354e+01 -1.819906891556399842e-01
-4.642598895356059074e+00 4.559072649478912354e+01 -2.076407135697024842e-01
-5.086568621918559074e+00 4.575588762760162354e+01 -2.024679840775149842e-01
-5.556661395356059074e+00 4.612014544010162354e+01 -1.970663727493899842e-01
-2.415914325043559074e+00 4.328140032291412354e+01 -4.901034247595248416e-02
-2.839742450043559074e+00 4.372756731510162354e+01 -4.196078192907748416e-02
-7.154927996918559074e+00 1.018393837213516235e+02 2.558144866256100158e-01
-7.338765887543559074e+00 9.142678606510162354e+01 2.138833342818600158e-01
-8.194112567231059074e+00 9.110928118228912354e+01 2.229165374068600158e-01
-4.641744403168559074e+00 4.560561907291412354e+01 -1.313692939001498416e-02
-5.085714129731059074e+00 4.576943743228912354e+01 -6.011074897827484165e-03
-5.558370379731059074e+00 4.615517961978912354e+01 1.374179008422515835e-03
-4.535909442231059074e+00 8.815969622135162354e+01 5.569924651412350158e-01
-5.438497332856059074e+00 8.914565813541412354e+01 5.769967376021725158e-01
-6.767843035981059074e+00 9.616360247135162354e+01 6.556252776412350158e-01
-7.460103778168559074e+00 9.305813372135162354e+01 6.368417083052975158e-01
-8.158956317231059074e+00 9.076247942447662354e+01 6.253060637740475158e-01
-9.081807879731059074e+00 9.122390520572662354e+01 6.409310637740475158e-01
-1.016493776254355907e+01 9.304983294010162354e+01 6.706094085006100158e-01
-1.044838502816855907e+01 8.777224504947662354e+01 6.275338469771725158e-01
-4.557027606293559074e+00 8.870278704166412354e+01 9.555062590865475158e-01
-5.453389910981059074e+00 8.948550188541412354e+01 9.754494963912350158e-01
-7.100362567231059074e+00 1.011845985651016235e+02 1.153473788383422516e+00
-7.063863543793559074e+00 8.799258196353912354e+01 9.761971770552975158e-01
-8.523092059418559074e+00 9.498855364322662354e+01 1.088761263969360016e+00
-8.891256121918559074e+00 8.931643450260162354e+01 1.017487460258422516e+00
-9.518819598481059074e+00 8.708108294010162354e+01 9.956216155318600158e-01
-1.042506959848105907e+01 8.761355364322662354e+01 1.016510897758422516e+00
-4.594625262543559074e+00 8.959499895572662354e+01 1.363388949516235016e+00
-7.040548114106059074e+00 8.774978411197662354e+01 1.362626010063110016e+00
-8.086568621918559074e+00 9.004165422916412354e+01 1.417740756156860016e+00
-9.363302020356059074e+00 9.421767961978912354e+01 1.509827548149047516e+00
-1.026088502816855907e+01 9.403542864322662354e+01 1.518464022758422516e+00
-1.023915651254355907e+01 8.607143938541412354e+01 1.374863558891235016e+00
-2.444967059418559074e+00 4.407705461978912354e+01 7.034463225631100158e-01
-6.075826434418559074e+00 1.005470253229141235e+02 2.026093417289672516e+00
-7.696065692231059074e+00 8.561575090885162354e+01 1.711304598930297516e+00
-8.627950457856059074e+00 8.670474016666412354e+01 1.748597079399047516e+00
-5.139302996918559074e+00 4.635549700260162354e+01 7.906045256881100158e-01
-5.564962176606059074e+00 4.629238665103912354e+01 7.960519133834225158e-01
-2.442769793793559074e+00 4.407705461978912354e+01 8.900613127974850158e-01
-5.441182879731059074e+00 8.951260149478912354e+01 2.165894442680297516e+00
-6.126485614106059074e+00 8.689468157291412354e+01 2.104416781547485016e+00
-7.036886004731059074e+00 8.782034075260162354e+01 2.142319613578735016e+00
-8.146383075043559074e+00 9.083596575260162354e+01 2.239762240531860016e+00
-8.879415301606059074e+00 8.933974993228912354e+01 2.209412509086547516e+00
-5.136861590668559074e+00 4.635574114322662354e+01 9.897164641646725158e-01
-5.562642840668559074e+00 4.629275286197662354e+01 9.939736663131100158e-01
-2.440572528168559074e+00 4.407705461978912354e+01 1.077668124320922516e+00
-5.459005145356059074e+00 8.990664446353912354e+01 2.576081210258422516e+00
-6.169820575043559074e+00 8.760757219791412354e+01 2.511246615531860016e+00
-7.005147723481059074e+00 8.746853411197662354e+01 2.518876010063110016e+00
-9.671407489106059074e+00 9.754421770572662354e+01 2.876877719047485016e+00
-5.134542254731059074e+00 4.635610735416412354e+01 1.188813143852172516e+00
-5.560323504731059074e+00 4.629311907291412354e+01 1.192948275688110016e+00
-2.438497332856059074e+00 4.407705461978912354e+01 1.265259677055297516e+00
-5.404561785981059074e+00 8.903176653385162354e+01 2.940583163383422516e+00
-6.185811785981059074e+00 8.791470110416412354e+01 2.911560946586547516e+00
-9.082296160981059074e+00 9.152749407291412354e+01 3.085556918266235016e+00
-1.047939088754355907e+01 8.827749407291412354e+01 2.990265780570922516e+00
-1.909078387543559074e+00 1.505642473697662354e+01 -8.246451081009524842e-01
-2.071187762543559074e+00 1.539932024478912354e+01 -8.408804596634524842e-01
-2.242208270356059074e+00 1.575381243228912354e+01 -8.579550446243899842e-01
-2.424825457856059074e+00 1.613186419010162354e+01 -8.761740387650149842e-01
-2.618795184418559074e+00 1.653359758853912354e+01 -8.955221832962649842e-01
-2.832174090668559074e+00 1.699868547916412354e+01 -9.179678620072024842e-01
-3.088399676606059074e+00 1.764431536197662354e+01 -9.493094147415774842e-01
-3.362813739106059074e+00 1.831619036197662354e+01 -9.822836579056399842e-01
-2.140401629731059074e+00 1.701797258853912354e+01 -8.590994538040774842e-01
-2.350484637543559074e+00 1.757998430728912354e+01 -8.837576569290774842e-01
-2.574361590668559074e+00 1.815701067447662354e+01 -9.086600006790774842e-01
-2.850728778168559074e+00 1.900124895572662354e+01 -9.458761872025149842e-01
-3.116964129731059074e+00 1.967349016666412354e+01 -9.752646149368899842e-01
-3.349508075043559074e+00 2.006167376041412354e+01 -9.918356598587649842e-01
-3.592794207856059074e+00 2.046023333072662354e+01 -1.009230679390014984e+00
-3.660543231293559074e+00 1.988992083072662354e+01 -9.827414215775149842e-01
-2.503194598481059074e+00 2.009390032291412354e+01 -9.205771149368899842e-01
-2.724386004731059074e+00 2.050063860416412354e+01 -9.360495270462649842e-01
-2.970113543793559074e+00 2.102151262760162354e+01 -9.560843170853274842e-01
-3.272115496918559074e+00 2.184194719791412354e+01 -9.881430329056399842e-01
-3.490499285981059074e+00 2.203042376041412354e+01 -9.946280182572024842e-01
-3.557027606293559074e+00 2.129482805728912354e+01 -9.638662995072024842e-01
-3.615865496918559074e+00 2.059402239322662354e+01 -9.345846832962649842e-01
-3.670186785981059074e+00 1.994607317447662354e+01 -9.075155914993899842e-01
-2.870382098481059074e+00 2.320986711978912354e+01 -9.554434479447024842e-01
-3.183980731293559074e+00 2.409182512760162354e+01 -9.852438629837649842e-01
-3.504903582856059074e+00 2.489321672916412354e+01 -1.012526577827514984e+00
-3.526510028168559074e+00 2.356106340885162354e+01 -9.634695709915774842e-01
-3.507344989106059074e+00 2.214370501041412354e+01 -9.115591706009524842e-01
-3.567159442231059074e+00 2.136086809635162354e+01 -8.824148834915774842e-01
-3.679708270356059074e+00 2.095608294010162354e+01 -8.667898834915774842e-01
-3.864888934418559074e+00 2.097805559635162354e+01 -8.668051422806399842e-01
-3.292012957856059074e+00 2.678970110416412354e+01 -9.754934967728274842e-01
-3.621114520356059074e+00 2.751028215885162354e+01 -9.962759674759524842e-01
-3.973409442231059074e+00 2.828872454166412354e+01 -1.018736904975952484e+00
-3.573751239106059074e+00 2.388650286197662354e+01 -8.799887360306399842e-01
-3.792623309418559074e+00 2.394766008853912354e+01 -8.803396881790774842e-01
-5.110860614106059074e+00 3.050381243228912354e+01 -1.081664151069702484e+00
-5.549215106293559074e+00 3.139053118228912354e+01 -1.106978482124389984e+00
-6.069600848481059074e+00 3.261465227603912354e+01 -1.142546719429077484e+00
-3.706563739106059074e+00 3.031240618228912354e+01 -9.615011872025149842e-01
-4.110250262543559074e+00 3.133804094791412354e+01 -9.859152497025149842e-01
-4.512838153168559074e+00 3.220034563541412354e+01 -1.006499356147827484e+00
-4.212667254731059074e+00 2.819717180728912354e+01 -8.983145416947024842e-01
-5.031026629731059074e+00 3.175954973697662354e+01 -9.901419342728274842e-01
-5.679464129731059074e+00 3.387930071353912354e+01 -1.043486660835327484e+00
-6.087789325043559074e+00 3.440493547916412354e+01 -1.054717129585327484e+00
-6.547261981293559074e+00 3.514455950260162354e+01 -1.072234219429077484e+00
-4.131246356293559074e+00 3.392519915103912354e+01 -9.162131012650149842e-01
-4.506856707856059074e+00 3.444717180728912354e+01 -9.249869049759524842e-01
-4.911641864106059074e+00 3.509670794010162354e+01 -9.364462555618899842e-01
-5.336934832856059074e+00 3.578188860416412354e+01 -9.485464752884524842e-01
-5.214498309418559074e+00 3.292605364322662354e+01 -8.836661041947024842e-01
-5.717916278168559074e+00 3.411733782291412354e+01 -9.067679108353274842e-01
-6.190572528168559074e+00 3.498879778385162354e+01 -9.227591217728274842e-01
-6.690572528168559074e+00 3.591067278385162354e+01 -9.396811188431399842e-01
-4.487813739106059074e+00 3.696291887760162354e+01 -8.282461823197024842e-01
-4.891256121918559074e+00 3.746316301822662354e+01 -8.337240875931399842e-01
-5.302999285981059074e+00 3.794265520572662354e+01 -8.378744782181399842e-01
-5.734395770356059074e+00 3.847329485416412354e+01 -8.436423004837649842e-01
-6.168599871918559074e+00 3.895425188541412354e+01 -8.484488190384524842e-01
-6.614278582856059074e+00 3.943850481510162354e+01 -8.532095612259524842e-01
-7.058736590668559074e+00 3.984719622135162354e+01 -8.574972809525149842e-01
-7.509908465668559074e+00 4.024709856510162354e+01 -8.606558502884524842e-01
-5.146016864106059074e+00 4.256301653385162354e+01 -7.441702545853274842e-01
-5.562398700043559074e+00 4.272219622135162354e+01 -7.421713532181399842e-01
-6.009908465668559074e+00 4.307522356510162354e+01 -7.425833405228274842e-01
-6.471212176606059074e+00 4.345510637760162354e+01 -7.432089508743899842e-01
-6.933492450043559074e+00 4.379299700260162354e+01 -7.432547272415774842e-01
-7.401387957856059074e+00 4.411575090885162354e+01 -7.430411041947024842e-01
-7.879903582856059074e+00 4.444595110416412354e+01 -7.427969635697024842e-01
-8.375386981293559074e+00 4.483047258853912354e+01 -7.431631745072024842e-01
-5.563741473481059074e+00 4.612685930728912354e+01 -5.925589264603274842e-01
-1.266115358285605907e+01 9.823464739322662354e+01 -1.009261196968139984e+00
-1.281667116098105907e+01 8.627273333072662354e+01 -8.942557038040774842e-01
-1.325526979379355907e+01 8.370632708072662354e+01 -8.651877106400149842e-01
-8.015889910981059074e+00 4.777285540103912354e+01 -5.815725983353274842e-01
-8.524556903168559074e+00 4.806094133853912354e+01 -5.787954987259524842e-01
-1.467506959848105907e+01 7.812917864322662354e+01 -7.969656647415774842e-01
-5.561055926606059074e+00 4.612478411197662354e+01 -3.942557038040774842e-01
-1.319167116098105907e+01 8.883462297916412354e+01 -5.162192047806399842e-01
-1.322121217660605907e+01 8.351980364322662354e+01 -4.897452057572024842e-01
-8.013082293793559074e+00 4.777114641666412354e+01 -3.740683258743899842e-01
-8.521627215668559074e+00 4.805935442447662354e+01 -3.696127594681399842e-01
-9.039937762543559074e+00 4.836855852603912354e+01 -3.651571930618899842e-01
-5.558492450043559074e+00 4.612283098697662354e+01 -1.970358551712649842e-01
-1.217006471566855907e+01 9.447561419010162354e+01 -1.347799957962649842e-01
-1.286342409066855907e+01 8.665163958072662354e+01 -1.232901276322024842e-01
-1.321193483285605907e+01 8.349014055728912354e+01 -1.178122223587649842e-01
-8.010152606293559074e+00 4.776955950260162354e+01 -1.676932038040774842e-01
-8.518697528168559074e+00 4.805764544010162354e+01 -1.615744293900149842e-01
-9.036153582856059074e+00 4.836257708072662354e+01 -1.553641022415774842e-01
-5.560201434418559074e+00 4.615810930728912354e+01 1.404696586547515835e-03
-1.213503053598105907e+01 9.424148333072662354e+01 2.869881926802975158e-01
-1.229042604379355907e+01 8.869070208072662354e+01 2.637337981490475158e-01
-1.297414186410605907e+01 8.743130266666412354e+01 2.673348723677975158e-01
-1.385426881723105907e+01 8.757815325260162354e+01 2.793282805709225158e-01
-1.471132448129355907e+01 8.755410540103912354e+01 2.902993499068600158e-01
-1.502284791879355907e+01 8.445046770572662354e+01 2.834786711959225158e-01
-1.582167604379355907e+01 8.426284563541412354e+01 2.930306731490475158e-01
-1.045180299691855907e+01 8.777639544010162354e+01 6.276253997115475158e-01
-1.113283327035605907e+01 8.643276751041412354e+01 6.251992522506100158e-01
-1.242165162973105907e+01 8.967788469791412354e+01 6.710061370162350158e-01
-1.301540162973105907e+01 8.774270403385162354e+01 6.622475920943600158e-01
-1.386733034066855907e+01 8.769106829166412354e+01 6.734170256881100158e-01
-1.418214967660605907e+01 8.444119036197662354e+01 6.494149504927975158e-01
-1.499782350473105907e+01 8.433620989322662354e+01 6.596078215865475158e-01
-1.586012819223105907e+01 8.449172747135162354e+01 6.727151213912350158e-01
-1.055702760629355907e+01 8.871230852603912354e+01 1.032959872367797516e+00
-1.181325319223105907e+01 9.180056536197662354e+01 1.089707308891235016e+00
-1.186501100473105907e+01 8.567287981510162354e+01 1.009369784477172516e+00
-1.269948366098105907e+01 8.563979876041412354e+01 1.020874911430297516e+00
-1.371852662973105907e+01 8.678066790103912354e+01 1.050568514945922516e+00
-1.409547975473105907e+01 8.395425188541412354e+01 1.018555575492797516e+00
-1.494399049691855907e+01 8.406130754947662354e+01 1.032120638969360016e+00
-1.493471315316855907e+01 7.961916887760162354e+01 9.750985442427975158e-01
-1.024184205941855907e+01 8.606924211978912354e+01 1.374848300102172516e+00
-1.129237916879355907e+01 8.775662004947662354e+01 1.420639926078735016e+00
-1.247109010629355907e+01 9.010769426822662354e+01 1.480164462211547516e+00
-1.269289186410605907e+01 8.562746965885162354e+01 1.403809481742797516e+00
-1.353481080941855907e+01 8.564870989322662354e+01 1.416825228813110016e+00
-1.419484498910605907e+01 8.457204973697662354e+01 1.407578402641235016e+00
-8.608785418793559074e+00 4.861990129947662354e+01 6.841439543990475158e-01
-9.042867450043559074e+00 4.845388567447662354e+01 6.877145110396725158e-01
-5.566427020356059074e+00 4.629214251041412354e+01 7.960671721724850158e-01
-1.172365358285605907e+01 9.117507708072662354e+01 1.893525057914672516e+00
-1.396889284066855907e+01 1.010235878229141235e+02 2.148621493461547516e+00
-1.268337037973105907e+01 8.559451067447662354e+01 1.784043246391235016e+00
-1.366945436410605907e+01 8.653066790103912354e+01 1.820435458305297516e+00
-1.409511354379355907e+01 8.400723040103912354e+01 1.770798617484985016e+00
-8.606221942231059074e+00 4.862087786197662354e+01 8.947457610396725158e-01
-9.040426043793559074e+00 4.845486223697662354e+01 8.989877043990475158e-01
-5.564107684418559074e+00 4.629250872135162354e+01 9.939889251021725158e-01
-1.122047975473105907e+01 8.726614153385162354e+01 2.187958651664672516e+00
-1.268068483285605907e+01 8.560757219791412354e+01 2.167344027641235016e+00
-1.437917116098105907e+01 9.105337297916412354e+01 2.341568881156860016e+00
-1.432460573129355907e+01 8.539944231510162354e+01 2.188721591117797516e+00
-8.603780535981059074e+00 4.862185442447662354e+01 1.106461459281860016e+00
-9.037984637543559074e+00 4.845583879947662354e+01 1.109131747367797516e+00
-5.561788348481059074e+00 4.629275286197662354e+01 1.192963534477172516e+00
-1.121474245004355907e+01 8.725845110416412354e+01 2.577179843070922516e+00
-1.330190065316855907e+01 8.984463274478912354e+01 2.692017489555297516e+00
-1.376613405160605907e+01 8.720303118228912354e+01 2.617005282524047516e+00
-1.432143190316855907e+01 8.540884172916412354e+01 2.570160800102172516e+00
-1.557838991098105907e+01 8.772219622135162354e+01 2.666397982719360016e+00
-1.475551393441855907e+01 7.876479876041412354e+01 2.370804721000610016e+00
-1.048146608285605907e+01 8.827053606510162354e+01 2.990052157524047516e+00
-1.125136354379355907e+01 8.758328020572662354e+01 2.976944857719360016e+00
-1.289699342660605907e+01 8.713638079166412354e+01 2.990174227836547516e+00
-1.488368776254355907e+01 9.431289446353912354e+01 3.283600741508422516e+00
-1.463966920785605907e+01 8.732986223697662354e+01 3.028153353813110016e+00
-1.602626588754355907e+01 9.026040422916412354e+01 3.158204012992797516e+00
-1.475453737191855907e+01 7.878298723697662354e+01 2.724732333305297516e+00
-3.364034442231059074e+00 1.831973040103912354e+01 -9.824515045853274842e-01
-3.663839129731059074e+00 1.904580461978912354e+01 -1.017760342475952484e+00
-3.762227801606059074e+00 1.874062883853912354e+01 -1.002410000679077484e+00
-3.811788348481059074e+00 1.823696672916412354e+01 -9.772482575150149842e-01
-3.864522723481059074e+00 1.779226458072662354e+01 -9.550162018509524842e-01
-3.914449481293559074e+00 1.737148821353912354e+01 -9.339895905228274842e-01
-3.961812762543559074e+00 1.697158586978912354e+01 -9.139853180618899842e-01
-4.006612567231059074e+00 1.659328997135162354e+01 -8.954153717728274842e-01
-3.660299090668559074e+00 1.988577044010162354e+01 -9.825430573197024842e-01
-3.711080340668559074e+00 1.928652727603912354e+01 -9.552603424759524842e-01
-3.767110614106059074e+00 1.876797258853912354e+01 -9.312277497025149842e-01
-3.819967059418559074e+00 1.827834856510162354e+01 -9.089041413040774842e-01
-3.872579364106059074e+00 1.783120501041412354e+01 -8.885031403275149842e-01
-3.937886981293559074e+00 1.747231829166412354e+01 -8.720846832962649842e-01
-4.088033465668559074e+00 1.747463762760162354e+01 -8.721457184525149842e-01
-5.962178973481059074e+00 2.402737200260162354e+01 -1.164321011421264984e+00
-3.670064715668559074e+00 1.994192278385162354e+01 -9.073477448197024842e-01
-3.720601825043559074e+00 1.933889544010162354e+01 -8.825369538040774842e-01
-3.801534442231059074e+00 1.893569719791412354e+01 -8.657980622025149842e-01
-3.967305926606059074e+00 1.894961321353912354e+01 -8.657522858353274842e-01
-5.991109637543559074e+00 2.699221575260162354e+01 -1.186842984077514984e+00
-5.978048114106059074e+00 2.591042864322662354e+01 -1.142714566108764984e+00
-6.039937762543559074e+00 2.520925676822662354e+01 -1.113875454780639984e+00
-6.065938739106059074e+00 2.442703020572662354e+01 -1.081831997749389984e+00
-3.865621356293559074e+00 2.097829973697662354e+01 -8.668204010697024842e-01
-5.980001239106059074e+00 3.064199602603912354e+01 -1.207701748725952484e+00
-6.590841082856059074e+00 3.220034563541412354e+01 -1.261504238960327484e+00
-6.021261004731059074e+00 2.825527727603912354e+01 -1.120802945015014984e+00
-6.148336200043559074e+00 2.767812883853912354e+01 -1.099257534858764984e+00
-6.116842059418559074e+00 2.649038469791412354e+01 -1.056243008491577484e+00
-5.892232684418559074e+00 2.462930071353912354e+01 -9.896689118118899842e-01
-6.063863543793559074e+00 2.442385637760162354e+01 -9.819479645462649842e-01
-6.071187762543559074e+00 3.261721575260162354e+01 -1.142623013374389984e+00
-6.451802996918559074e+00 3.300979387760162354e+01 -1.152983731147827484e+00
-6.898702410981059074e+00 3.367214739322662354e+01 -1.171568936225952484e+00
-7.498922137543559074e+00 3.495571672916412354e+01 -1.209090298530639984e+00
-7.923970965668559074e+00 3.536318743228912354e+01 -1.219679898140014984e+00
-6.417257098481059074e+00 2.773879778385162354e+01 -9.852591217728274842e-01
-6.274434832856059074e+00 2.614932024478912354e+01 -9.354239166947024842e-01
-6.318624285981059074e+00 2.539748919010162354e+01 -9.112234772415774842e-01
-6.549337176606059074e+00 3.514956438541412354e+01 -1.072371548530639984e+00
-6.993673114106059074e+00 3.572988665103912354e+01 -1.084502285835327484e+00
-7.422750262543559074e+00 3.617361223697662354e+01 -1.093794888374389984e+00
-7.874044207856059074e+00 3.666372454166412354e+01 -1.104201382515014984e+00
-8.310933856293559074e+00 3.704592669010162354e+01 -1.111754483100952484e+00
-8.788961200043559074e+00 3.755825579166412354e+01 -1.122603482124389984e+00
-5.710347918793559074e+00 2.391885149478912354e+01 -7.698660553665774842e-01
-5.929708270356059074e+00 2.392349016666412354e+01 -7.690725983353274842e-01
-6.693013934418559074e+00 3.591738665103912354e+01 -9.398184479447024842e-01
-7.202901629731059074e+00 3.678652727603912354e+01 -9.558096588822024842e-01
-7.657979754731059074e+00 3.730203020572662354e+01 -9.641256989212649842e-01
-8.131124285981059074e+00 3.783816301822662354e+01 -9.727774323197024842e-01
-8.620015887543559074e+00 3.839199602603912354e+01 -9.817038239212649842e-01
-9.126485614106059074e+00 3.896365129947662354e+01 -9.909201325150149842e-01
-5.705220965668559074e+00 2.390334856510162354e+01 -6.724081696243899842e-01
-5.924337176606059074e+00 2.390786516666412354e+01 -6.708365143509524842e-01
-7.511739520356059074e+00 4.024978411197662354e+01 -8.607016266556399842e-01
-7.967427996918559074e+00 4.062441790103912354e+01 -8.636465729447024842e-01
-8.424825457856059074e+00 4.096157610416412354e+01 -8.649588288040774842e-01
-8.895650653168559074e+00 4.131350481510162354e+01 -8.673391998978274842e-01
-9.367452410981059074e+00 4.163589251041412354e+01 -8.691855133743899842e-01
-5.468282489106059074e+00 2.382900774478912354e+01 -5.755148590775149842e-01
-5.696676043793559074e+00 2.387441790103912354e+01 -5.748892487259524842e-01
-5.918966082856059074e+00 2.389248430728912354e+01 -5.733023346634524842e-01
-8.377340106293559074e+00 4.483291399478912354e+01 -7.431784332962649842e-01
-8.893941668793559074e+00 4.527541887760162354e+01 -7.443381012650149842e-01
-9.462056903168559074e+00 4.590981829166412354e+01 -7.476797760697024842e-01
-1.006252077035605907e+01 4.661514055728912354e+01 -7.516775788040774842e-01
-1.056776979379355907e+01 4.684255754947662354e+01 -7.499533356400149842e-01
-1.116701295785605907e+01 4.743105852603912354e+01 -7.523489655228274842e-01
-5.686788348481059074e+00 2.384023821353912354e+01 -4.770651520462649842e-01
-7.208638934418559074e+00 2.880630266666412354e+01 -5.314474762650149842e-01
-1.467848756723105907e+01 7.813320696353912354e+01 -7.969656647415774842e-01
-1.533485963754355907e+01 7.755276262760162354e+01 -7.844839752884524842e-01
-1.620717409066855907e+01 7.804153215885162354e+01 -7.797690094681399842e-01
-1.696303346566855907e+01 7.792812883853912354e+01 -7.706289948197024842e-01
-1.114699342660605907e+01 4.936233294010162354e+01 -5.630026520462649842e-01
-1.168459108285605907e+01 4.958559954166412354e+01 -5.593710602493899842e-01
-5.677022723481059074e+00 2.380642473697662354e+01 -3.800955475540774842e-01
-7.225240496918559074e+00 2.887551653385162354e+01 -4.114218414993899842e-01
-1.471132448129355907e+01 7.833035051822662354e+01 -4.470358551712649842e-01
-1.537050416879355907e+01 7.775393450260162354e+01 -4.364767731400149842e-01
-1.588393190316855907e+01 7.652322161197662354e+01 -4.243765534134524842e-01
-1.741493776254355907e+01 7.999880754947662354e+01 -4.236746491165774842e-01
-1.114394166879355907e+01 4.936099016666412354e+01 -3.454580963822024842e-01
-1.168141725473105907e+01 4.958437883853912354e+01 -3.402701081009524842e-01
-7.106099871918559074e+00 2.948318254947662354e+01 -2.943564118118899842e-01
-7.232442645356059074e+00 2.890884172916412354e+01 -2.900381745072024842e-01
-9.038839129731059074e+00 4.836819231510162354e+01 -1.553335846634524842e-01
-1.525661256723105907e+01 7.720486223697662354e+01 -9.002596747595248416e-02
-1.672182252816855907e+01 8.053603899478912354e+01 -7.298190009313998416e-02
-1.678200319223105907e+01 7.714724504947662354e+01 -7.061678778845248416e-02
-1.114088991098105907e+01 4.935976946353912354e+01 -1.291037262650149842e-01
-1.167836549691855907e+01 4.958303606510162354e+01 -1.223746002884524842e-01
-1.222536256723105907e+01 4.981033098697662354e+01 -1.155386627884524842e-01
-5.908712176606059074e+00 2.387283098697662354e+01 -1.834860504837649842e-01
-1.497377565316855907e+01 7.976455461978912354e+01 2.633065520552975158e-01
-1.499074342660605907e+01 7.589394915103912354e+01 2.479714690474850158e-01
-1.584889772348105907e+01 7.639748919010162354e+01 2.599343596724850158e-01
-1.666298463754355907e+01 7.662698137760162354e+01 2.720193206099850158e-01
-1.770961549691855907e+01 7.783962786197662354e+01 2.912148772506100158e-01
-1.870021608285605907e+01 7.869997942447662354e+01 3.082436858443600158e-01
-1.954128053598105907e+01 7.886941301822662354e+01 3.223580657271725158e-01
-5.903951434418559074e+00 2.385952532291412354e+01 -8.596712958532748416e-02
-1.586391237191855907e+01 8.449599993228912354e+01 6.728066741256100158e-01
-1.503835084848105907e+01 7.615359270572662354e+01 5.897836028365475158e-01
-1.589809205941855907e+01 7.665334856510162354e+01 6.066903411177975158e-01
-1.686733034066855907e+01 7.757497942447662354e+01 6.288003264693600158e-01
-1.774098756723105907e+01 7.799526751041412354e+01 6.452340422896725158e-01
-1.828236940316855907e+01 7.698672258853912354e+01 6.446389495162350158e-01
-1.966188600473105907e+01 7.936672747135162354e+01 6.851815520552975158e-01
-5.899190692231059074e+00 2.384621965885162354e+01 1.089566338342251584e-02
-1.493703248910605907e+01 7.961721575260162354e+01 9.751138030318600158e-01
-1.498073366098105907e+01 7.588650286197662354e+01 9.255227385787350158e-01
-1.653017213754355907e+01 7.968826067447662354e+01 9.992074309615475158e-01
-1.719130495004355907e+01 7.906680071353912354e+01 1.001557284477172516e+00
-1.808608034066855907e+01 7.951125872135162354e+01 1.021393710258422516e+00
-1.839882448129355907e+01 7.748830950260162354e+01 1.000092440727172516e+00
-1.967360475473105907e+01 7.943203508853912354e+01 1.045350009086547516e+00
-2.097328737191855907e+01 8.131033098697662354e+01 1.092133456352172516e+00
-9.044942645356059074e+00 4.845657122135162354e+01 6.877908049849850158e-01
-1.518507936410605907e+01 7.693349993228912354e+01 1.287888461234985016e+00
-1.614589479379355907e+01 7.787661516666412354e+01 1.320450717094360016e+00
-1.701369264535605907e+01 7.828042376041412354e+01 1.342041903617797516e+00
-1.854970338754355907e+01 8.154202044010162354e+01 1.424729281547485016e+00
-1.932082155160605907e+01 8.133144915103912354e+01 1.433960848930297516e+00
-1.968715455941855907e+01 7.950442278385162354e+01 1.408204012992797516e+00
-2.086867311410605907e+01 8.092971575260162354e+01 1.452881747367797516e+00
-9.041890887543559074e+00 4.845400774478912354e+01 8.989877043990475158e-01
-1.523842409066855907e+01 7.722280657291412354e+01 1.638901644828735016e+00
-1.566762330941855907e+01 7.561623919010162354e+01 1.611283236625610016e+00
-1.685841920785605907e+01 7.759512102603912354e+01 1.675827914359985016e+00
-1.853017213754355907e+01 8.147793352603912354e+01 1.790680819633422516e+00
