1.285605520009994507e+00 3.506446835398674011e+01 5.369570075767171602e-01
1.003867238759994507e+00 3.575013729929924011e+01 5.563051521079671602e-01
2.705527395009994507e+00 8.916371151804924011e+01 1.881530982186092160e+00
2.684897512197494507e+00 3.341847226023674011e+01 6.226808845298421602e-01
2.423544973134994507e+00 3.380580136179924011e+01 6.361086189048421602e-01
2.102622121572494507e+00 3.359852597117424011e+01 6.323702155845296602e-01
2.054160207509994507e+00 3.684461972117424011e+01 7.288667976157796602e-01
1.774619191884994507e+00 3.762184140086174011e+01 7.539675056235921602e-01
1.294516652822494507e+00 3.519276425242424011e+01 6.856233894126546602e-01
9.710303246974945068e-01 3.503529354929924011e+01 6.833803474204671602e-01
2.889243215322494507e+00 3.529664608836174011e+01 8.233034431235921602e-01
2.425986379384994507e+00 3.381715390086174011e+01 7.760011970298421602e-01
2.113364309072494507e+00 3.370606991648674011e+01 7.736971198814046602e-01
2.005698293447494507e+00 3.620411679148674011e+01 8.598635017173421602e-01
1.621298879384994507e+00 3.534169003367424011e+01 8.331148444907796602e-01
1.304526418447494507e+00 3.534169003367424011e+01 8.353884040610921602e-01
9.551611840724945068e-01 3.467445370554924011e+01 8.158266364829671602e-01
6.630469262599945068e-01 3.512416073679924011e+01 8.332979499595296602e-01
2.893149465322494507e+00 3.532032772898674011e+01 9.707186042564046602e-01
2.429526418447494507e+00 3.383985897898674011e+01 9.156801521079671602e-01
2.169394582509994507e+00 3.432752987742424011e+01 9.363710700767171602e-01
1.783164113759994507e+00 3.333119198679924011e+01 9.003603278892171602e-01
1.778159230947494507e+00 3.762965390086174011e+01 1.067093115975154660e+00
4.019980520009994507e+00 9.856019589304924011e+01 3.414840918709529660e+00
-1.365136206150054932e-01 1.428688046336174011e+01 -7.536008537514078398e-01
-2.402733862400054932e-01 1.436305233836174011e+01 -7.559659660560953398e-01
-3.457421362400054932e-01 1.443482968211174011e+01 -7.583921135170328398e-01
-4.529198706150054932e-01 1.450782772898674011e+01 -7.608487785560953398e-01
-5.613183081150054932e-01 1.458168026804924011e+01 -7.633207023842203398e-01
-6.710595190525054932e-01 1.465638729929924011e+01 -7.658384025795328398e-01
-7.834862768650054932e-01 1.476527401804924011e+01 -7.699735344154703398e-01
-8.976220190525054932e-01 1.487330624461174011e+01 -7.743375480873453398e-01
-8.853998780250549316e-02 1.556629940867424011e+01 -7.611692131264078398e-01
-2.043847143650054932e-01 1.566896054148674011e+01 -7.644956291420328398e-01
-3.225487768650054932e-01 1.575709530711174011e+01 -7.668760002357828398e-01
-4.430321753025054932e-01 1.581617733836174011e+01 -7.682492912514078398e-01
-5.643700659275054932e-01 1.587550351023674011e+01 -7.696378410560953398e-01
-6.869286596775054932e-01 1.594178768992424011e+01 -7.713010490639078398e-01
-8.138817846775054932e-01 1.612953183054924011e+01 -7.785642326576578398e-01
-9.451073706150054932e-01 1.634095761179924011e+01 -7.865140617592203398e-01
-2.433100342750549316e-02 1.727735897898674011e+01 -7.740476310951578398e-01
-1.573876440525054932e-01 1.737452694773674011e+01 -7.765195549232828398e-01
-2.923974096775054932e-01 1.746949765086174011e+01 -7.788846672279703398e-01
-4.298485815525054932e-01 1.756617733836174011e+01 -7.812955558998453398e-01
-5.686425268650054932e-01 1.766383358836174011e+01 -7.837369621498453398e-01
-7.097558081150054932e-01 1.778651425242424011e+01 -7.871244133217203398e-01
-8.559960424900054932e-01 1.800856015086174011e+01 -7.943723381264078398e-01
-1.006386667490005493e+00 1.823683163523674011e+01 -8.018186271889078398e-01
3.548344969749450684e-02 1.886695858836174011e+01 -7.672727287514078398e-01
-1.119774878025054932e-01 1.901905819773674011e+01 -7.706754387123453398e-01
-2.624901831150054932e-01 1.916041561961174011e+01 -7.740628898842203398e-01
-4.164208471775054932e-01 1.930482479929924011e+01 -7.775113762123453398e-01
-5.726708471775054932e-01 1.941810604929924011e+01 -7.798764885170328398e-01
-7.320946753025054932e-01 1.961378476023674011e+01 -7.850492180092203398e-01
-9.003075659275054932e-01 1.999623104929924011e+01 -7.966001213295328398e-01
-1.075600534677505493e+00 2.038331601023674011e+01 -8.086545646889078398e-01
1.245947778224945068e-01 2.123915097117424011e+01 -7.693021476967203398e-01
-4.666987061500549316e-02 2.138356015086174011e+01 -7.719266594154703398e-01
-2.207421362400054932e-01 2.153028866648674011e+01 -7.745816887123453398e-01
-3.983544409275054932e-01 2.168006893992424011e+01 -7.772977531654703398e-01
-5.782860815525054932e-01 2.183180233836174011e+01 -7.800595939857828398e-01
-7.631005346775054932e-01 2.213404843211174011e+01 -7.872770012123453398e-01
-9.593895971775054932e-01 2.264881893992424011e+01 -8.007657707435953398e-01
-1.170571237802505493e+00 2.332704159617424011e+01 -8.190305412514078398e-01
2.388525903224945068e-01 2.428114315867424011e+01 -7.672574699623453398e-01
3.902348875999450684e-02 2.448658749461174011e+01 -7.699735344154703398e-01
-1.649560034275054932e-01 2.468934628367424011e+01 -7.730863273842203398e-01
-3.736962378025054932e-01 2.489674374461174011e+01 -7.762754142982828398e-01
-5.858544409275054932e-01 2.510755917429924011e+01 -7.795102775795328398e-01
-8.063134253025054932e-01 2.564930722117424011e+01 -7.910764396889078398e-01
-1.043251901865005493e+00 2.640870663523674011e+01 -8.080136955482828398e-01
-1.284340769052505493e+00 2.685450741648674011e+01 -8.175046623451578398e-01
3.909521996974945068e-01 2.832484433054924011e+01 -7.579953850014078398e-01
1.508398950099945068e-01 2.853114315867424011e+01 -7.598874748451578398e-01
-9.330072999000549316e-02 2.874806210398674011e+01 -7.619626701576578398e-01
-3.424462378025054932e-01 2.896766659617424011e+01 -7.640531242592203398e-01
-5.951317846775054932e-01 2.918177792429924011e+01 -7.659909904701578398e-01
-8.536767065525054932e-01 2.952760311961174011e+01 -7.705991447670328398e-01
-1.121865183115005493e+00 2.995130917429924011e+01 -7.767484367592203398e-01
-1.397255808115005493e+00 3.036732479929924011e+01 -7.826688469154703398e-01
5.968848168849945068e-01 3.380250546336174011e+01 -7.360074699623453398e-01
3.050146996974945068e-01 3.411158749461174011e+01 -7.381131828529703398e-01
8.383840322494506836e-03 3.450013729929924011e+01 -7.407071769935953398e-01
-2.975243628025054932e-01 3.481996151804924011e+01 -7.428434074623453398e-01
-6.088036596775054932e-01 3.514527890086174011e+01 -7.450101555092203398e-01
-9.254540503025054932e-01 3.539039608836174011e+01 -7.458188713295328398e-01
-1.249428659677505493e+00 3.569471737742424011e+01 -7.483060539467203398e-01
-1.580239206552505493e+00 3.605433651804924011e+01 -7.508542717201578398e-01
2.788046926259994507e+00 9.226942440867424011e+01 -1.300048607657657840e+00
1.844931691884994507e+00 9.007948300242424011e+01 -1.265105980704532840e+00
1.040869653224945068e-01 3.987489315867424011e+01 -6.628568351967203398e-01
-2.541894018650054932e-01 4.037782284617424011e+01 -6.651456535560953398e-01
-6.212548315525054932e-01 4.089332577586174011e+01 -6.674802482826578398e-01
-1.655068308115005493e+00 9.436561581492424011e+01 -1.280090111563907840e+00
-2.578896433115005493e+00 9.513270565867424011e+01 -1.279800194571720340e+00
-3.415078073740005493e+00 9.281629940867424011e+01 -1.244476097892032840e+00
1.796958059072494507e+00 8.819569393992424011e+01 -8.550565422279703398e-01
1.056738793849945068e-01 3.987257382273674011e+01 -4.967954338295328398e-01
-2.526024878025054932e-01 4.037562558054924011e+01 -4.967801750404703398e-01
-6.195458471775054932e-01 4.089088436961174011e+01 -4.967649162514078398e-01
-1.570229440927505493e+00 8.783778378367424011e+01 -8.189389885170328398e-01
-2.505165964365005493e+00 9.202198788523674011e+01 -8.391721428139078398e-01
-3.441079050302505493e+00 9.374977108836174011e+01 -8.420560539467203398e-01
2.741171926259994507e+00 9.080592343211174011e+01 -4.811856926185953398e-01
1.751914113759994507e+00 8.642347714304924011e+01 -4.605710685951578398e-01
1.072607934474945068e-01 3.987037655711174011e+01 -3.298795402748453398e-01
-2.508935034275054932e-01 4.037330624461174011e+01 -3.275449455482828398e-01
-6.178368628025054932e-01 4.088856503367424011e+01 -3.251645744545328398e-01
-1.560830026865005493e+00 8.738441464304924011e+01 -4.299314201576578398e-01
-2.448281198740005493e+00 8.965589901804924011e+01 -4.266660392982828398e-01
-3.310097604990005493e+00 8.981837460398674011e+01 -4.184720695717203398e-01
2.781210988759994507e+00 9.176942440867424011e+01 -7.994057543109533981e-02
1.776572316884994507e+00 8.718006893992424011e+01 -7.972695238422033981e-02
1.088477075099945068e-01 3.986817929148674011e+01 -1.638791740639078398e-01
-2.493065893650054932e-01 4.037098690867424011e+01 -1.592405021889078398e-01
-6.161278784275054932e-01 4.088624569773674011e+01 -1.544950187904703398e-01
-1.565590769052505493e+00 8.808949276804924011e+01 -4.454018480609533981e-02
-2.437172800302505493e+00 8.933607479929924011e+01 -3.321816332172033981e-02
-3.257851511240005493e+00 8.831922909617424011e+01 -2.720620043109533981e-02
2.646323293447494507e+00 8.807826229929924011e+01 3.026583015220296602e-01
1.792685598134994507e+00 8.762477108836174011e+01 3.080904304282796602e-01
1.104346215724945068e-01 3.986805722117424011e+01 2.105933357967160191e-03
-2.475976049900054932e-01 4.037599179148674011e+01 9.079199959529660191e-03
-6.144188940525054932e-01 4.089649960398674011e+01 1.622031324077966019e-02
-1.574501901865005493e+00 8.914137265086174011e+01 3.496706306235921602e-01
-2.423500925302505493e+00 8.889869686961174011e+01 3.585665046470296602e-01
-3.247597604990005493e+00 8.812318417429924011e+01 3.615267097251546602e-01
2.632773488759994507e+00 8.761842343211174011e+01 6.846315681235921602e-01
1.804160207509994507e+00 8.790235897898674011e+01 6.960604011314046602e-01
9.453955590724945068e-01 8.680238339304924011e+01 6.921388923423421602e-01
1.233740746974945068e-01 8.798341366648674011e+01 7.136537849204671602e-01
-7.156151831150054932e-01 8.752589413523674011e+01 7.168123542564046602e-01
-1.571083933115005493e+00 8.918263241648674011e+01 7.440492927329671602e-01
-2.501015573740005493e+00 9.257484433054924011e+01 7.916872321860921602e-01
-3.301430612802505493e+00 8.992286679148674011e+01 7.696077644126546602e-01
2.621909230947494507e+00 8.722987362742424011e+01 1.065506201912654660e+00
1.807456105947494507e+00 8.788368222117424011e+01 1.081939917732967160e+00
9.723730981349945068e-01 8.810536190867424011e+01 1.093734961678279660e+00
1.267920434474945068e-01 8.791578671336174011e+01 1.099106055428279660e+00
-7.230614721775054932e-01 9.276686093211174011e+01 1.184692603279842160e+00
-1.560219675302505493e+00 8.860670468211174011e+01 1.126816016365779660e+00
-2.411049753427505493e+00 8.869361874461174011e+01 1.136642676522029660e+00
-3.275063425302505493e+00 8.922596737742424011e+01 1.155761939217342160e+00
2.705161184072494507e+00 8.933436581492424011e+01 1.490982276131404660e+00
1.792075246572494507e+00 8.719288632273674011e+01 1.456085425545467160e+00
1.008017629384994507e+00 8.989222714304924011e+01 1.519226294686092160e+00
1.305762231349945068e-01 8.790919491648674011e+01 1.487228614022029660e+00
-7.102440893650054932e-01 8.865541073679924011e+01 1.510864478279842160e+00
-1.586708933115005493e+00 9.112745663523674011e+01 1.570251685311092160e+00
-2.474892526865005493e+00 9.176612851023674011e+01 1.592148047615779660e+00
-3.279946237802505493e+00 8.950184628367424011e+01 1.553665381600154660e+00
2.702597707509994507e+00 8.916481015086174011e+01 1.881592017342342160e+00
1.865073293447494507e+00 8.968043515086174011e+01 1.900711280037654660e+00
9.738379418849945068e-01 8.775990292429924011e+01 1.861328345467342160e+00
1.455908715724945068e-01 8.932276913523674011e+01 1.908737403084529660e+00
-7.056054174900054932e-01 8.826991268992424011e+01 1.890732031990779660e+00
-1.578286081552505493e+00 9.075978085398674011e+01 1.961853247811092160e+00
-2.610390573740005493e+00 9.810304257273674011e+01 2.156357031990779660e+00
-3.257119089365005493e+00 8.891346737742424011e+01 1.934204322029842160e+00
1.873374074697494507e+00 8.983692929148674011e+01 2.301696997811092160e+00
1.047080129384994507e+00 9.163038632273674011e+01 2.363128882576717160e+00
1.487646996974945068e-01 8.923670956492424011e+01 2.300888281990779660e+00
-7.080468237400054932e-01 9.144044491648674011e+01 2.374817114998592160e+00
-1.575112253427505493e+00 9.083741757273674011e+01 2.365463477303279660e+00
-2.439614206552505493e+00 9.052796933054924011e+01 2.364807349373592160e+00
6.619482934474945068e-01 3.512428280711174011e+01 8.333132087485921602e-01
1.022421926259994507e+00 9.003504940867424011e+01 2.711883765389217160e+00
1.574316918849945068e-01 8.983900448679924011e+01 2.713684302498592160e+00
-7.019433081150054932e-01 9.034986874461174011e+01 2.739685279061092160e+00
-1.575356394052505493e+00 9.119093319773674011e+01 2.777145606209529660e+00
-2.461464792490005493e+00 9.171107479929924011e+01 2.805877906014217160e+00
-3.393227487802505493e+00 9.343263241648674011e+01 2.874145728279842160e+00
1.049643605947494507e+00 9.132789608836174011e+01 3.159897071053279660e+00
1.659766137599945068e-01 9.040821835398674011e+01 3.132827979256404660e+00
-7.031640112400054932e-01 9.306227108836174011e+01 3.244629126717342160e+00
-1.566079050302505493e+00 9.074818417429924011e+01 3.163116675545467160e+00
-2.542397409677505493e+00 9.559181210398674011e+01 3.361145239998592160e+00
-3.419594675302505493e+00 9.439064022898674011e+01 3.325287085701717160e+00
-8.981103003025054932e-01 1.487403866648674011e+01 -7.743680656654703398e-01
-1.014931589365005493e+00 1.499391171336174011e+01 -7.790677726967203398e-01
-1.136391550302505493e+00 1.515174862742424011e+01 -7.858426750404703398e-01
-1.261879831552505493e+00 1.531483456492424011e+01 -7.928312004310953398e-01
-1.390786081552505493e+00 1.548219296336174011e+01 -8.000180900795328398e-01
-1.523476511240005493e+00 1.565455624461174011e+01 -8.074186027748453398e-01
-1.660927683115005493e+00 1.583290097117424011e+01 -8.150785148842203398e-01
-1.816201120615005493e+00 1.615345761179924011e+01 -8.297727287514078398e-01
-9.455956518650054932e-01 1.634242245554924011e+01 -7.865750969154703398e-01
-1.082924753427505493e+00 1.659889218211174011e+01 -7.967832267982828398e-01
-1.226845651865005493e+00 1.687892147898674011e+01 -8.076474846107828398e-01
-1.376992136240005493e+00 1.715943905711174011e+01 -8.188169182045328398e-01
-1.530800729990005493e+00 1.741542050242424011e+01 -8.288877189857828398e-01
-1.688271433115005493e+00 1.765345761179924011e+01 -8.381345451576578398e-01
-1.866738229990005493e+00 1.805702206492424011e+01 -8.548276603920328398e-01
-2.079384714365005493e+00 1.871803280711174011e+01 -8.822019279701578398e-01
-1.006874948740005493e+00 1.823841854929924011e+01 -8.018644035560953398e-01
-1.163491159677505493e+00 1.850123593211174011e+01 -8.109586418373453398e-01
-1.328652292490005493e+00 1.882484433054924011e+01 -8.223722160560953398e-01
-1.507973581552505493e+00 1.925941464304924011e+01 -8.380124748451578398e-01
-1.691079050302505493e+00 1.963026425242424011e+01 -8.511350334389078398e-01
-1.892617136240005493e+00 2.013331601023674011e+01 -8.692929924232828398e-01
-2.100624948740005493e+00 2.058729550242424011e+01 -8.854825676185953398e-01
-2.324746042490005493e+00 2.111170956492424011e+01 -9.042966545326578398e-01
-1.076332956552505493e+00 2.038661190867424011e+01 -8.087461174232828398e-01
-1.261025339365005493e+00 2.080836483836174011e+01 -8.214414299232828398e-01
-1.454750925302505493e+00 2.123841854929924011e+01 -8.347623527748453398e-01
-1.659584909677505493e+00 2.169276425242424011e+01 -8.488462150795328398e-01
-1.886513620615005493e+00 2.233253476023674011e+01 -8.691404045326578398e-01
-2.141396433115005493e+00 2.315296933054924011e+01 -8.954618156654703398e-01
-2.399697214365005493e+00 2.382240292429924011e+01 -9.165342033607828398e-01
-2.653237253427505493e+00 2.431690976023674011e+01 -9.321286857826578398e-01
-1.171425729990005493e+00 2.333119198679924011e+01 -8.191373527748453398e-01
-1.394326120615005493e+00 2.396058651804924011e+01 -8.361661613685953398e-01
-1.626870065927505493e+00 2.453077694773674011e+01 -8.513486564857828398e-01
-1.867104440927505493e+00 2.502442929148674011e+01 -8.641507805092203398e-01
-2.135292917490005493e+00 2.577418515086174011e+01 -8.844144523842203398e-01
-2.400063425302505493e+00 2.629664608836174011e+01 -8.978879631264078398e-01
-2.688149362802505493e+00 2.694606015086174011e+01 -9.149778068764078398e-01
-3.000771433115005493e+00 2.771083065867424011e+01 -9.353330314857828398e-01
-1.285195261240005493e+00 2.685816952586174011e+01 -8.175809562904703398e-01
-1.537026315927505493e+00 2.734156796336174011e+01 -8.271176994545328398e-01
-1.797768503427505493e+00 2.780519101023674011e+01 -8.366544426185953398e-01
-2.081704050302505493e+00 2.847389218211174011e+01 -8.511960685951578398e-01
-2.379189401865005493e+00 2.915150448679924011e+01 -8.658292473060953398e-01
-2.693764597177505493e+00 2.986842343211174011e+01 -8.813321769935953398e-01
-3.028359323740005493e+00 3.063087460398674011e+01 -8.978116691810953398e-01
-3.379799753427505493e+00 3.141493222117424011e+01 -9.153897941810953398e-01
-1.398232370615005493e+00 3.036976620554924011e+01 -7.826993644935953398e-01
-1.677773386240005493e+00 3.068251034617424011e+01 -7.867276848060953398e-01
-1.997353464365005493e+00 3.163441464304924011e+01 -8.036954582435953398e-01
-2.324990183115005493e+00 3.238771054148674011e+01 -8.164518058998453398e-01
-2.647866159677505493e+00 3.287611386179924011e+01 -8.237455070717203398e-01
-2.988930612802505493e+00 3.346205136179924011e+01 -8.329160392982828398e-01
-3.340859323740005493e+00 3.402235409617424011e+01 -8.414457023842203398e-01
-3.704140573740005493e+00 3.458900448679924011e+01 -8.500058830482828398e-01
-1.581459909677505493e+00 3.605628964304924011e+01 -7.508695305092203398e-01
-1.919960886240005493e+00 3.642579647898674011e+01 -7.537534416420328398e-01
-2.262368112802505493e+00 3.671791073679924011e+01 -7.545316398842203398e-01
-2.610756784677505493e+00 3.698915097117424011e+01 -7.557218254310953398e-01
-2.969887644052505493e+00 3.734181210398674011e+01 -7.581327141029703398e-01
-3.349648386240005493e+00 3.785426327586174011e+01 -7.629544914467203398e-01
-3.736977487802505493e+00 3.831971737742424011e+01 -7.677915275795328398e-01
-4.111000925302505493e+00 3.857118222117424011e+01 -7.684323967201578398e-01
-3.418251901865005493e+00 9.281910702586174011e+01 -1.244460839102970340e+00
-2.187905222177505493e+00 4.278675839304924011e+01 -6.740720451576578398e-01
-2.601113229990005493e+00 4.322181698679924011e+01 -6.752011955482828398e-01
-3.025795847177505493e+00 4.366883847117424011e+01 -6.763761223060953398e-01
-7.846596628427505493e+00 9.245533749461174011e+01 -1.198135155509220340e+00
-8.716957956552505493e+00 9.219825741648674011e+01 -1.186874169181095340e+00
-4.796059519052505493e+00 4.526966854929924011e+01 -6.781614006264078398e-01
-3.444130808115005493e+00 9.374781796336174011e+01 -8.419950187904703398e-01
-2.185952097177505493e+00 4.278480526804924011e+01 -4.945676506264078398e-01
-2.599160104990005493e+00 4.321974179148674011e+01 -4.935910881264078398e-01
-3.023720651865005493e+00 4.366664120554924011e+01 -4.925840080482828398e-01
-7.930947214365005493e+00 9.353089901804924011e+01 -7.964322746498453398e-01
-8.814370065927505493e+00 9.329823300242424011e+01 -7.861173332435953398e-01
-4.793862253427505493e+00 4.526795956492424011e+01 -4.865110100014078398e-01
-3.313027292490005493e+00 8.981983944773674011e+01 -4.184415519935953398e-01
-2.183998972177505493e+00 4.278273007273674011e+01 -3.141324699623453398e-01
-2.597206979990005493e+00 4.321766659617424011e+01 -3.110196769935953398e-01
-3.021645456552505493e+00 4.366456601023674011e+01 -3.078305900795328398e-01
-8.553627878427505493e+00 9.052223202586174011e+01 -3.671109855873453398e-01
-4.791664987802505493e+00 4.526637265086174011e+01 -2.938535392982828398e-01
-3.260659128427505493e+00 8.831861874461174011e+01 -2.717568285297033981e-02
-2.182167917490005493e+00 4.278077694773674011e+01 -1.346891105873453398e-01
-2.595253854990005493e+00 4.321559140086174011e+01 -1.294553459389078398e-01
-3.019692331552505493e+00 4.366236874461174011e+01 -1.240842521889078398e-01
-7.649697214365005493e+00 1.022227935492992401e+02 4.800437085796716019e-02
-8.747841745615005493e+00 9.267176815867424011e+01 3.926108472515466019e-02
-4.789467722177505493e+00 4.526466366648674011e+01 -1.022489250404703398e-01
-3.250649362802505493e+00 8.812855526804924011e+01 3.616030036704671602e-01
-4.085488229990005493e+00 8.796229550242424011e+01 3.694612800376546602e-01
-4.991982370615005493e+00 8.921388241648674011e+01 3.854982673423421602e-01
-5.807289987802505493e+00 8.852882382273674011e+01 3.896639167564046602e-01
-6.629555612802505493e+00 8.815443417429924011e+01 3.959963142173421602e-01
-8.578652292490005493e+00 9.088453671336174011e+01 4.373323737876546602e-01
-8.992348581552505493e+00 8.636244198679924011e+01 4.114229499595296602e-01
-3.304360300302505493e+00 8.992286679148674011e+01 7.696535407798421602e-01
-4.084633737802505493e+00 8.803590390086174011e+01 7.569734870689046602e-01
-4.975258737802505493e+00 8.897035214304924011e+01 7.773592292564046602e-01
-5.815468698740005493e+00 8.872584530711174011e+01 7.838899909751546602e-01
-6.587685495615005493e+00 8.763038632273674011e+01 7.800447761314046602e-01
-7.455483347177505493e+00 8.795277401804924011e+01 7.932741462485921602e-01
-8.617226511240005493e+00 9.134803768992424011e+01 8.444368659751546602e-01
-8.867714792490005493e+00 8.518312069773674011e+01 7.776186286704671602e-01
-3.277993112802505493e+00 8.922767636179924011e+01 1.155838233162654660e+00
-4.125161081552505493e+00 8.909315487742424011e+01 1.161224585701717160e+00
-4.994423776865005493e+00 8.941468808054924011e+01 1.176193457772029660e+00
-5.834511667490005493e+00 8.909669491648674011e+01 1.180694800545467160e+00
-6.595742136240005493e+00 8.779798886179924011e+01 1.168731909920467160e+00
-7.424233347177505493e+00 8.762062069773674011e+01 1.175323706795467160e+00
-8.445839792490005493e+00 8.953407284617424011e+01 1.217285376717342160e+00
-9.061074167490005493e+00 8.711256405711174011e+01 1.187912207772029660e+00
-3.282997995615005493e+00 8.950526425242424011e+01 1.553772193123592160e+00
-4.107094675302505493e+00 8.876002499461174011e+01 1.548141699959529660e+00
-4.983315378427505493e+00 8.927784726023674011e+01 1.568954688240779660e+00
-6.664345651865005493e+00 8.880531308054924011e+01 1.578903418709529660e+00
-9.210854440927505493e+00 9.788380429148674011e+01 1.794342261482967160e+00
-9.226113229990005493e+00 8.876747128367424011e+01 1.608001929451717160e+00
-3.259926706552505493e+00 8.890968319773674011e+01 1.934143286873592160e+00
-2.215615183115005493e+00 4.379811093211174011e+01 7.903139411704671602e-01
-2.616249948740005493e+00 4.379798886179924011e+01 7.951052009360921602e-01
-5.760414987802505493e+00 8.803138729929924011e+01 1.940002661873592160e+00
-6.811684519052505493e+00 9.090858456492424011e+01 2.024612647225154660e+00
-7.768959909677505493e+00 9.192274472117424011e+01 2.061462622811092160e+00
-8.601479440927505493e+00 9.131434628367424011e+01 2.056198340584529660e+00
-9.591347604990005493e+00 9.238404843211174011e+01 2.097015601326717160e+00
-2.213784128427505493e+00 4.379811093211174011e+01 9.753572761314046602e-01
-2.614296823740005493e+00 4.379798886179924011e+01 9.802706062095296602e-01
-5.737831979990005493e+00 8.773219296336174011e+01 2.320404273201717160e+00
-6.576943308115005493e+00 8.770362851023674011e+01 2.329864722420467160e+00
-7.384316354990005493e+00 8.728114315867424011e+01 2.327270728279842160e+00
-8.043373972177505493e+00 8.529566952586174011e+01 2.276519995857967160e+00
-8.915810495615005493e+00 8.580836483836174011e+01 2.302429419686092160e+00
-3.396279245615005493e+00 9.343251034617424011e+01 2.874176245857967160e+00
-2.211953073740005493e+00 4.379811093211174011e+01 1.160400611092342160e+00
-2.612465769052505493e+00 4.379798886179924011e+01 1.164444190193904660e+00
-7.309487253427505493e+00 9.794837948679924011e+01 3.075699073006404660e+00
-7.648476511240005493e+00 9.055445858836174011e+01 2.827072364022029660e+00
-8.497231394052505493e+00 9.027186581492424011e+01 2.830215674568904660e+00
-8.785683542490005493e+00 8.457142636179924011e+01 2.638733130623592160e+00
-3.422524362802505493e+00 9.438563534617424011e+01 3.325134497811092160e+00
-4.561684519052505493e+00 1.000045318305492401e+02 3.555618506600154660e+00
-5.386757761240005493e+00 9.737660214304924011e+01 3.464294654061092160e+00
-5.845986276865005493e+00 8.960792538523674011e+01 3.168792945076717160e+00
-6.600258737802505493e+00 8.813795468211174011e+01 3.121490698982967160e+00
-8.241372019052505493e+00 9.784657284617424011e+01 3.519348364998592160e+00
-8.032387644052505493e+00 8.526161190867424011e+01 3.028351050545467160e+00
-9.505776315927505493e+00 9.167201229929924011e+01 3.298248511482967160e+00
-1.816933542490005493e+00 1.615663143992424011e+01 -8.299253166420328398e-01
-1.985024362802505493e+00 1.653053280711174011e+01 -8.469083488685953398e-01
-2.168251901865005493e+00 1.696314999461174011e+01 -8.669431389076578398e-01
-2.363808542490005493e+00 1.741554257273674011e+01 -8.878781975014078398e-01
-2.579995065927505493e+00 1.794935604929924011e+01 -9.126584709389078398e-01
-2.837197214365005493e+00 1.867665097117424011e+01 -9.465635002357828398e-01
-3.096962839365005493e+00 1.932301327586174011e+01 -9.765622795326578398e-01
-3.316567331552505493e+00 1.966297909617424011e+01 -9.924009025795328398e-01
-2.080361276865005493e+00 1.872267147898674011e+01 -8.824002922279703398e-01
-2.298134714365005493e+00 1.930738827586174011e+01 -9.067990959389078398e-01
-2.508828073740005493e+00 1.973609921336174011e+01 -9.240720451576578398e-01
-2.721352487802505493e+00 2.010475155711174011e+01 -9.391019523842203398e-01
-2.950234323740005493e+00 2.053700253367424011e+01 -9.568326652748453398e-01
-3.243691354990005493e+00 2.132850643992424011e+01 -9.898679435951578398e-01
-3.472084909677505493e+00 2.161830136179924011e+01 -1.001846093009220340e+00
-3.538002878427505493e+00 2.094007870554924011e+01 -9.720456779701578398e-01
-2.325722604990005493e+00 2.111561581492424011e+01 -9.044492424232828398e-01
-2.573037058115005493e+00 2.174928280711174011e+01 -9.278104484779703398e-01
-2.849770456552505493e+00 2.251441952586174011e+01 -9.561155021889078398e-01
-3.141640573740005493e+00 2.326686093211174011e+01 -9.838712394935953398e-01
-3.452797800302505493e+00 2.404957577586174011e+01 -1.012679833243595340e+00
-3.495766550302505493e+00 2.297657772898674011e+01 -9.707029045326578398e-01
-3.483315378427505493e+00 2.169239804148674011e+01 -9.207914055092203398e-01
-3.547890573740005493e+00 2.100184628367424011e+01 -8.935849846107828398e-01
-2.654335886240005493e+00 2.432118222117424011e+01 -9.322660148842203398e-01
-2.964638620615005493e+00 2.522657772898674011e+01 -9.610288322670328398e-01
-3.268471628427505493e+00 2.592689511179924011e+01 -9.832914055092203398e-01
-3.586342722177505493e+00 2.661585995554924011e+01 -1.005080956290470340e+00
-3.635781198740005493e+00 2.533375546336174011e+01 -9.607541740639078398e-01
-3.514199167490005493e+00 2.310316464304924011e+01 -8.848569572670328398e-01
-3.677895456552505493e+00 2.288612362742424011e+01 -8.764341057045328398e-01
-5.024819284677505493e+00 2.949903866648674011e+01 -1.096267479727970340e+00
-3.002236276865005493e+00 2.771693417429924011e+01 -9.355008781654703398e-01
-3.330117136240005493e+00 2.847657772898674011e+01 -9.560086906654703398e-01
-3.662880808115005493e+00 2.914466854929924011e+01 -9.737394035560953398e-01
-4.036660104990005493e+00 3.000807186961174011e+01 -9.970395744545328398e-01
-3.847817331552505493e+00 2.682191464304924011e+01 -9.033048332435953398e-01
-4.048867136240005493e+00 2.659523007273674011e+01 -8.952481926185953398e-01
-5.173867136240005493e+00 3.203395077586174011e+01 -1.050002831290470340e+00
-5.595497995615005493e+00 3.278858944773674011e+01 -1.069747704337345340e+00
-3.381386667490005493e+00 3.142091366648674011e+01 -9.155271232826578398e-01
-3.759682565927505493e+00 3.229725643992424011e+01 -9.342496574623453398e-01
-4.112465769052505493e+00 3.281520077586174011e+01 -9.448087394935953398e-01
-4.481484323740005493e+00 3.336219784617424011e+01 -9.559629142982828398e-01
-4.856850534677505493e+00 3.387757870554924011e+01 -9.662931144935953398e-01
-4.706704050302505493e+00 3.089259335398674011e+01 -8.920285881264078398e-01
-5.205117136240005493e+00 3.223353573679924011e+01 -9.223172844154703398e-01
-5.809853464365005493e+00 3.403028866648674011e+01 -9.640958488685953398e-01
-3.705605417490005493e+00 3.459339901804924011e+01 -8.500821769935953398e-01
-4.083535104990005493e+00 3.518263241648674011e+01 -8.593442619545328398e-01
-4.477211862802505493e+00 3.579664608836174011e+01 -8.689878166420328398e-01
-4.882241159677505493e+00 3.638685604929924011e+01 -8.780515373451578398e-01
-5.277382761240005493e+00 3.682630917429924011e+01 -8.840635002357828398e-01
-5.671547800302505493e+00 3.719532772898674011e+01 -8.886411369545328398e-01
-6.108071237802505493e+00 3.776429745554924011e+01 -8.970182121498453398e-01
-6.530556589365005493e+00 3.818629452586174011e+01 -9.024655998451578398e-01
-4.112465769052505493e+00 3.857301327586174011e+01 -7.684476555092203398e-01
-4.492958933115005493e+00 3.882997128367424011e+01 -7.693937004310953398e-01
-4.904702097177505493e+00 3.929212948679924011e+01 -7.725217521889078398e-01
-5.299965769052505493e+00 3.954249569773674011e+01 -7.732389152748453398e-01
-5.716835886240005493e+00 3.990931698679924011e+01 -7.756498039467203398e-01
-6.160073190927505493e+00 4.039369198679924011e+01 -7.797391594154703398e-01
-6.592080026865005493e+00 4.073475643992424011e+01 -7.825315178139078398e-01
-7.046547800302505493e+00 4.116651913523674011e+01 -7.856900871498453398e-01
-4.797646433115005493e+00 4.527223202586174011e+01 -6.781766594154703398e-01
-5.256752878427505493e+00 4.562794491648674011e+01 -6.781614006264078398e-01
-5.725014597177505493e+00 4.599073788523674011e+01 -6.781308830482828398e-01
-7.678872019052505493e+00 4.739588925242424011e+01 -6.767728508217203398e-01
-8.160073190927505493e+00 4.758863827586174011e+01 -6.746518791420328398e-01
-4.795571237802505493e+00 4.527052304148674011e+01 -4.865110100014078398e-01
-5.254555612802505493e+00 4.562623593211174011e+01 -4.845884025795328398e-01
-5.722695261240005493e+00 4.598902890086174011e+01 -4.826200187904703398e-01
-1.303885737061500549e+01 9.783644101023674011e+01 -7.771451652748453398e-01
-1.339786615967750549e+01 8.767787167429924011e+01 -7.021329582435953398e-01
-7.677651315927505493e+00 4.740174862742424011e+01 -4.736936271889078398e-01
-8.157631784677505493e+00 4.758729550242424011e+01 -4.703672111732828398e-01
-4.793373972177505493e+00 4.526893612742424011e+01 -2.938382805092203398e-01
-5.252236276865005493e+00 4.562452694773674011e+01 -2.899930656654703398e-01
-5.720375925302505493e+00 4.598731991648674011e+01 -2.860868156654703398e-01
-1.254935541749000549e+01 9.418421933054924011e+01 -3.352201164467203398e-01
-1.265079584717750549e+01 8.846424862742424011e+01 -3.200223625404703398e-01
-1.278519526124000549e+01 8.370362851023674011e+01 -3.068387687904703398e-01
-7.676430612802505493e+00 4.740760800242424011e+01 -2.694852531654703398e-01
-8.155190378427505493e+00 4.758583065867424011e+01 -2.649991691810953398e-01
-4.791176706552505493e+00 4.526722714304924011e+01 -1.022184074623453398e-01
-5.250039011240005493e+00 4.562281796336174011e+01 -9.648110277484533981e-02
-5.718178659677505493e+00 4.598548886179924011e+01 -9.062172777484533981e-02
-1.250479975342750549e+01 9.388197323679924011e+01 8.233664624859216019e-02
-1.402188959717750549e+01 9.809095761179924011e+01 1.075746833579671602e-01
-1.302042475342750549e+01 8.526637265086174011e+01 7.016013257671716019e-02
-7.675209909677505493e+00 4.741346737742424011e+01 -6.631447679828283981e-02
-8.153237253427505493e+00 4.758717343211174011e+01 -6.074501879047033981e-02
-8.995400339365005493e+00 8.636402890086174011e+01 4.114687263267171602e-01
-1.159317865967750549e+01 1.020664214789867401e+02 5.455629646079671602e-01
-1.080289545655250549e+01 8.750660702586174011e+01 4.378359138267171602e-01
-1.174771967530250549e+01 8.820936581492424011e+01 4.533693610923421602e-01
-1.265543451905250549e+01 8.855580136179924011e+01 4.661409675376546602e-01
-1.391471186280250549e+01 9.113807675242424011e+01 4.977266608970296602e-01
-1.413907709717750549e+01 8.702442929148674011e+01 4.752046882407796602e-01
-1.503360834717750549e+01 8.726222226023674011e+01 4.871065437095296602e-01
-8.871865183115005493e+00 8.519606015086174011e+01 7.778169929282796602e-01
-9.885292917490005493e+00 8.691017147898674011e+01 8.092958747642171602e-01
-1.081754389405250549e+01 8.765980526804924011e+01 8.290102302329671602e-01
-1.183841791749000549e+01 8.892433163523674011e+01 8.555605232017171602e-01
-1.218277826905250549e+01 8.527381893992424011e+01 8.189699470298421602e-01
-1.373990717530250549e+01 9.002394101023674011e+01 8.909914314048421602e-01
-1.367215815186500549e+01 8.418885800242424011e+01 8.249666511314046602e-01
-1.441104975342750549e+01 8.369715878367424011e+01 8.284609138267171602e-01
-9.063515573740005493e+00 8.710841366648674011e+01 1.187881690193904660e+00
-1.009354487061500549e+01 8.880018612742424011e+01 1.225586157967342160e+00
-1.148844233155250549e+01 8.631617733836174011e+01 1.204406958748592160e+00
-1.281473627686500549e+01 8.973072811961174011e+01 1.275024634529842160e+00
-1.301200190186500549e+01 8.529115292429924011e+01 1.207779151131404660e+00
-1.362711420655250549e+01 8.393739315867424011e+01 1.194381934334529660e+00
-1.441361322999000549e+01 8.373463436961174011e+01 1.203247290779842160e+00
-9.228188425302505493e+00 8.875990292429924011e+01 1.607879859139217160e+00
-5.289956003427505493e+00 4.605067440867424011e+01 6.889192878501546602e-01
-1.079093256592750549e+01 8.750953671336174011e+01 1.603500586678279660e+00
-1.147892084717750549e+01 8.627503964304924011e+01 1.587707739998592160e+00
-1.232889643311500549e+01 8.635487362742424011e+01 1.600723487068904660e+00
-1.477689447999000549e+01 9.686415097117424011e+01 1.846710425545467160e+00
-1.395169916749000549e+01 8.595228573679924011e+01 1.614349585701717160e+00
-1.441727533936500549e+01 8.377943417429924011e+01 1.576538306404842160e+00
-9.593544870615005493e+00 9.237599179148674011e+01 2.096847754647029660e+00
-5.287880808115005493e+00 4.605091854929924011e+01 8.843691169517171602e-01
-1.229459467530250549e+01 9.983644101023674011e+01 2.317779761482967160e+00
-1.148014155030250549e+01 8.631459042429924011e+01 1.970718604256404660e+00
-1.219046869874000549e+01 8.541322323679924011e+01 1.958328467537654660e+00
-1.300272455811500549e+01 8.528346249461174011e+01 1.966522437264217160e+00
-1.420206537842750549e+01 8.751295468211174011e+01 2.038696509529842160e+00
-1.442264643311500549e+01 8.383338925242424011e+01 1.952469092537654660e+00
-8.918129831552505493e+00 8.580274960398674011e+01 2.302307349373592160e+00
-5.285927683115005493e+00 4.605128476023674011e+01 1.080871802498592160e+00
-1.076224604249000549e+01 8.734181210398674011e+01 2.374603491951717160e+00
-1.178019037842750549e+01 8.861097714304924011e+01 2.426834326912654660e+00
-1.245401850342750549e+01 8.729017636179924011e+01 2.397918921639217160e+00
-1.333194819092750549e+01 8.746534726023674011e+01 2.415939551522029660e+00
-1.427713862061500549e+01 8.799940487742424011e+01 2.445511084725154660e+00
-1.444522944092750549e+01 8.398719784617424011e+01 2.330078345467342160e+00
-8.787880808115005493e+00 8.456642147898674011e+01 2.638611060311092160e+00
-9.786171823740005493e+00 8.620680233836174011e+01 2.709579688240779660e+00
-1.073502436280250549e+01 8.715211483836174011e+01 2.754135352303279660e+00
-1.322599115967750549e+01 9.956520077586174011e+01 3.213394385506404660e+00
-1.334989252686500549e+01 8.761000058054924011e+01 2.809677344490779660e+00
-1.464298334717750549e+01 9.027064511179924011e+01 2.921890479256404660e+00
-1.563382807374000549e+01 9.087403866648674011e+01 2.957535010506404660e+00
-9.509438425302505493e+00 9.167811581492424011e+01 3.298553687264217160e+00
-9.698403269052505493e+00 8.545912167429924011e+01 3.060013037850154660e+00
-1.091190424561500549e+01 8.863441464304924011e+01 3.201568823982967160e+00
-1.177115717530250549e+01 8.860646054148674011e+01 3.214187842537654660e+00
-1.256949701905250549e+01 8.815821835398674011e+01 3.209655982186092160e+00
-1.343119135499000549e+01 8.817018124461174011e+01 3.223831397225154660e+00
-1.356742182374000549e+01 8.369386288523674011e+01 3.053711157967342160e+00
-1.461417475342750549e+01 8.500990292429924011e+01 3.123062354256404660e+00
-3.317299753427505493e+00 1.966432186961174011e+01 -9.924619377357828398e-01
-3.548867136240005493e+00 2.002845761179924011e+01 -1.009124535392032840e+00
-3.635781198740005493e+00 1.960743710398674011e+01 -9.890439689857828398e-01
-3.684365183115005493e+00 1.903602597117424011e+01 -9.618528068764078398e-01
-3.736000925302505493e+00 1.853321835398674011e+01 -9.379117668373453398e-01
-3.787392526865005493e+00 1.807276913523674011e+01 -9.159848869545328398e-01
-3.837929636240005493e+00 1.764491268992424011e+01 -8.956144035560953398e-01
-3.885537058115005493e+00 1.724122616648674011e+01 -8.767392814857828398e-01
-3.537758737802505493e+00 2.093544003367424011e+01 -9.718473137123453398e-01
-3.593422800302505493e+00 2.027455136179924011e+01 -9.433133781654703398e-01
-3.645302683115005493e+00 1.966029354929924011e+01 -9.163968742592203398e-01
-3.693642526865005493e+00 1.908522030711174011e+01 -8.915860832435953398e-01
-3.743447214365005493e+00 1.857142636179924011e+01 -8.693998039467203398e-01
-3.899941354990005493e+00 1.857460018992424011e+01 -8.692166984779703398e-01
-5.873452097177505493e+00 2.625746151804924011e+01 -1.196227806876407840e+00
-5.929848581552505493e+00 2.552235409617424011e+01 -1.164489525626407840e+00
-3.547646433115005493e+00 2.099720761179924011e+01 -8.934018791420328398e-01
-3.603188425302505493e+00 2.033180233836174011e+01 -8.676297844154703398e-01
-3.774575144052505493e+00 2.032899472117424011e+01 -8.670194328529703398e-01
-5.750893503427505493e+00 2.912416073679924011e+01 -1.199935692618595340e+00
-6.554360300302505493e+00 3.162489315867424011e+01 -1.293884056876407840e+00
-5.968911081552505493e+00 2.773902890086174011e+01 -1.145965355704532840e+00
-6.088417917490005493e+00 2.717201229929924011e+01 -1.123794335196720340e+00
-6.033974558115005493e+00 2.594862362742424011e+01 -1.076843041251407840e+00
-5.026284128427505493e+00 2.950160214304924011e+01 -1.096343773673282840e+00
-5.379433542490005493e+00 2.997816464304924011e+01 -1.110549706290470340e+00
-6.051186472177505493e+00 3.203504940867424011e+01 -1.177886742423282840e+00
-6.418496042490005493e+00 3.238832089304924011e+01 -1.188476342032657840e+00
-6.867104440927505493e+00 3.308387753367424011e+01 -1.210387963126407840e+00
-7.362343698740005493e+00 3.391566464304924011e+01 -1.236770409415470340e+00
-7.760048776865005493e+00 3.425099179148674011e+01 -1.246627587149845340e+00
-6.350014597177505493e+00 2.723365780711174011e+01 -1.014129418204532840e+00
-5.597084909677505493e+00 3.279139706492424011e+01 -1.069823998282657840e+00
-5.975869089365005493e+00 3.322303768992424011e+01 -1.080749291251407840e+00
-6.362587839365005493e+00 3.364332577586174011e+01 -1.091293114493595340e+00
-6.938881784677505493e+00 3.493495175242424011e+01 -1.126647728751407840e+00
-7.314980417490005493e+00 3.517079159617424011e+01 -1.131805199454532840e+00
-7.676308542490005493e+00 3.531349179148674011e+01 -1.134292382071720340e+00
-8.227822214365005493e+00 3.623756405711174011e+01 -1.158904808829532840e+00
-8.626992136240005493e+00 3.646412655711174011e+01 -1.163680809806095340e+00
-5.812050729990005493e+00 3.403627011179924011e+01 -9.642331779701578398e-01
-6.284218698740005493e+00 3.490602108836174011e+01 -9.824979484779703398e-01
-6.786293894052505493e+00 3.583045956492424011e+01 -1.002731102774845340e+00
-7.278847604990005493e+00 3.660292050242424011e+01 -1.019210594962345340e+00
-7.731972604990005493e+00 3.711549374461174011e+01 -1.029418724845157840e+00
-8.201210886240005493e+00 3.764662167429924011e+01 -1.040008324454532840e+00
-8.686074167490005493e+00 3.818458554148674011e+01 -1.050674218009220340e+00
-9.128212839365005493e+00 3.850282284617424011e+01 -1.056976097892032840e+00
-6.532387644052505493e+00 3.818922421336174011e+01 -9.025266350014078398e-01
-6.965737253427505493e+00 3.861683651804924011e+01 -9.084012687904703398e-01
-7.405190378427505493e+00 3.902284237742424011e+01 -9.137876213295328398e-01
-7.387001901865005493e+00 3.713880917429924011e+01 -8.752896965248453398e-01
-7.758950144052505493e+00 3.724940487742424011e+01 -8.750760734779703398e-01
-8.212441354990005493e+00 3.770387265086174011e+01 -8.813626945717203398e-01
-8.701699167490005493e+00 3.825831601023674011e+01 -8.894651115639078398e-01
-9.190590769052505493e+00 3.876283261179924011e+01 -8.965451896889078398e-01
-7.048134714365005493e+00 4.116773983836174011e+01 -7.856900871498453398e-01
-7.463784128427505493e+00 4.133241268992424011e+01 -7.851712883217203398e-01
-7.995034128427505493e+00 4.206703183054924011e+01 -7.919309318764078398e-01
-8.427040964365005493e+00 4.222731015086174011e+01 -7.911985100014078398e-01
-8.918129831552505493e+00 4.264503476023674011e+01 -7.941434562904703398e-01
-9.417641550302505493e+00 4.305458065867424011e+01 -7.968900383217203398e-01
-9.867104440927505493e+00 4.320167538523674011e+01 -7.968137443764078398e-01
-5.430947214365005493e+00 2.352735897898674011e+01 -5.155027092201578398e-01
-8.162026315927505493e+00 4.759083554148674011e+01 -6.746671379310953398e-01
-8.665810495615005493e+00 4.787623593211174011e+01 -6.736295402748453398e-01
-1.481864252686500549e+01 7.719654843211174011e+01 -9.582669914467203398e-01
-1.547904291749000549e+01 7.668910214304924011e+01 -9.467771232826578398e-01
-1.617057123780250549e+01 7.637281796336174011e+01 -9.372098625404703398e-01
-1.720157709717750549e+01 7.757655331492424011e+01 -9.422452629310953398e-01
-1.126749506592750549e+01 4.914295956492424011e+01 -6.659391105873453398e-01
-1.180118647217750549e+01 4.936463925242424011e+01 -6.639249504310953398e-01
-8.159584909677505493e+00 4.758949276804924011e+01 -4.703672111732828398e-01
-8.663247019052505493e+00 4.787489315867424011e+01 -4.675748527748453398e-01
-1.480594721436500549e+01 7.715052792429924011e+01 -6.146238029701578398e-01
-1.627872553467750549e+01 8.061476132273674011e+01 -6.249387443764078398e-01
-1.614847651124000549e+01 7.628724667429924011e+01 -5.958097160560953398e-01
-1.691129389405250549e+01 7.630604550242424011e+01 -5.886991203529703398e-01
-1.126480951905250549e+01 4.914186093211174011e+01 -4.517514885170328398e-01
-1.179850092530250549e+01 4.936354061961174011e+01 -4.482419670326578398e-01
-8.157143503427505493e+00 4.758802792429924011e+01 -2.649839103920328398e-01
-8.660805612802505493e+00 4.787342831492424011e+01 -2.604367912514078398e-01
-1.473148432374000549e+01 7.678590390086174011e+01 -2.694547355873453398e-01
-1.718839350342750549e+01 8.508045956492424011e+01 -2.645566642982828398e-01
-1.621659174561500549e+01 7.662135311961174011e+01 -2.535245598060953398e-01
-1.690567865967750549e+01 7.629823300242424011e+01 -2.455136955482828398e-01
-1.126224604249000549e+01 4.914076229929924011e+01 -2.364499748451578398e-01
-1.179581537842750549e+01 4.936244198679924011e+01 -2.314298332435953398e-01
-8.155190378427505493e+00 4.758949276804924011e+01 -6.071450121234533981e-02
-8.659951120615005493e+00 4.788087460398674011e+01 -5.439736254047033981e-02
-1.514261713624000549e+01 7.892286679148674011e+01 8.096335523296716019e-02
-1.520829096436500549e+01 7.542018124461174011e+01 7.476828687359216019e-02
-1.619217768311500549e+01 7.652564999461174011e+01 8.816550367046716019e-02
-1.701883783936500549e+01 7.681703183054924011e+01 9.814475171734216019e-02
-1.780899897217750549e+01 7.690296933054924011e+01 1.073152839439046602e-01
-1.856925287842750549e+01 7.685804745554924011e+01 1.158907233970296602e-01
-1.503629389405250549e+01 8.726087948679924011e+01 4.871218024985921602e-01
-8.734536081552505493e+00 4.829920956492424011e+01 1.564180671470296602e-01
-1.475443354249000549e+01 7.694264218211174011e+01 4.148256599204671602e-01
-1.545890131592750549e+01 7.666383358836174011e+01 4.217073737876546602e-01
-1.665824213624000549e+01 7.871180722117424011e+01 4.497377692954671602e-01
-1.686649408936500549e+01 7.615785214304924011e+01 4.357759773032796602e-01
-1.771585932374000549e+01 7.652442929148674011e+01 4.504549323814046602e-01
-1.852079096436500549e+01 7.667689511179924011e+01 4.613802253501546602e-01
-1.441056147217750549e+01 8.367726132273674011e+01 8.282320319907796602e-01
-8.732582956552505493e+00 4.830104061961174011e+01 3.644258796470296602e-01
-1.520853510499000549e+01 7.930213925242424011e+01 7.907869636314046602e-01
-1.520731440186500549e+01 7.545106503367424011e+01 7.484896003501546602e-01
-1.624796381592750549e+01 7.682032772898674011e+01 7.773287116782796602e-01
-1.678226557374000549e+01 7.580055233836174011e+01 7.732240974204671602e-01
-1.812333002686500549e+01 7.826844784617424011e+01 8.181307136314046602e-01
-1.859208002686500549e+01 7.698182675242424011e+01 8.102266608970296602e-01
-1.441666498780250549e+01 8.373561093211174011e+01 1.203293067147029660e+00
-8.727700144052505493e+00 4.828627011179924011e+01 5.721437751548421602e-01
-1.516996088624000549e+01 7.912281796336174011e+01 1.140670996834529660e+00
-1.556522455811500549e+01 7.722035214304924011e+01 1.116867285897029660e+00
-1.757645502686500549e+01 8.302272030711174011e+01 1.235199195076717160e+00
-1.686747065186500549e+01 7.619520565867424011e+01 1.119522315193904660e+00
-1.859708490967750549e+01 8.029457089304924011e+01 1.207519751717342160e+00
-1.924124994874000549e+01 7.963356015086174011e+01 1.208358985115779660e+00
-1.442081537842750549e+01 8.378285214304924011e+01 1.576645117928279660e+00
-8.725502878427505493e+00 4.828712460398674011e+01 7.811739265220296602e-01
-1.472367182374000549e+01 7.684169003367424011e+01 1.442581397225154660e+00
-1.561063471436500549e+01 7.746107479929924011e+01 1.468399268318904660e+00
-1.656363764405250549e+01 7.832569882273674011e+01 1.500122290779842160e+00
-1.678275385499000549e+01 7.583583065867424011e+01 1.453705054451717160e+00
-1.841410151124000549e+01 7.953553768992424011e+01 1.552353125740779660e+00
-1.962918940186500549e+01 8.122535702586174011e+01 1.604522925545467160e+00
-1.442520990967750549e+01 8.383168026804924011e+01 1.952453833748592160e+00
-8.723427683115005493e+00 4.828797909617424011e+01 9.891054450767171602e-01
-1.481546869874000549e+01 7.733424374461174011e+01 1.797790747811092160e+00
-1.547416010499000549e+01 7.681141659617424011e+01 1.795608740975154660e+00
-1.653568354249000549e+01 7.821290585398674011e+01 1.847000342537654660e+00
-1.676175776124000549e+01 7.575917050242424011e+01 1.790603858162654660e+00
-1.906400385499000549e+01 8.231007382273674011e+01 1.987945777107967160e+00
-1.961393061280250549e+01 8.117982479929924011e+01 1.971100073982967160e+00
-1.444889155030250549e+01 8.399147030711174011e+01 2.330261450936092160e+00
-1.536966791749000549e+01 8.451405331492424011e+01 2.361099463631404660e+00
-1.484378901124000549e+01 7.750013729929924011e+01 2.148910742928279660e+00
-1.542252436280250549e+01 7.657740780711174011e+01 2.132034522225154660e+00
-1.599088373780250549e+01 7.569300839304924011e+01 2.116104346443904660e+00
-1.670011225342750549e+01 7.550196835398674011e+01 2.122665625740779660e+00
-1.890421381592750549e+01 8.164918515086174011e+01 2.338348609139217160e+00
-1.997586908936500549e+01 8.266712948679924011e+01 2.386108618904842160e+00
-1.433829584717750549e+01 8.337623593211174011e+01 2.683166724373592160e+00
