-2.185372710227966309e-01 1.408414971828460693e+01 -7.552951724734100480e-01
-3.240060210227966309e-01 1.415592706203460693e+01 -7.577213199343475480e-01
-4.311837553977966309e-01 1.422892510890960693e+01 -7.601779849734100480e-01
-5.395821928977966309e-01 1.430277764797210693e+01 -7.626499088015350480e-01
-6.493234038352966309e-01 1.437748467922210693e+01 -7.651676089968475480e-01
-7.617501616477966309e-01 1.448637139797210693e+01 -7.693027408327850480e-01
-8.758859038352966309e-01 1.459440362453460693e+01 -7.736667545046600480e-01
-6.680387258529663086e-02 1.528739678859710693e+01 -7.604984195437225480e-01
-1.826485991477966309e-01 1.539005792140960693e+01 -7.638248355593475480e-01
-3.008126616477966309e-01 1.547819268703460693e+01 -7.662052066530975480e-01
-4.212960600852966309e-01 1.553727471828460693e+01 -7.675784976687225480e-01
-5.426339507102966309e-01 1.559660089015960693e+01 -7.689670474734100480e-01
-6.651925444602966309e-01 1.566288506984710693e+01 -7.706302554812225480e-01
-7.921456694602966309e-01 1.585062921047210693e+01 -7.778934390749725480e-01
-9.233712553977966309e-01 1.606205499172210693e+01 -7.858432681765350480e-01
-2.594888210296630859e-03 1.699845635890960693e+01 -7.733768375124725480e-01
-1.356515288352966309e-01 1.709562432765960693e+01 -7.758487613405975480e-01
-2.706612944602966309e-01 1.719059503078460693e+01 -7.782138736452850480e-01
-4.081124663352966309e-01 1.728727471828460693e+01 -7.806247623171600480e-01
-5.469064116477966309e-01 1.738493096828460693e+01 -7.830661685671600480e-01
-6.880196928977966309e-01 1.750761163234710693e+01 -7.864536197390350480e-01
-8.342599272727966309e-01 1.772965753078460693e+01 -7.937015445437225480e-01
-9.846505522727966309e-01 1.795792901515960693e+01 -8.011478336062225480e-01
5.721956491470336914e-02 1.858805596828460693e+01 -7.666019351687225480e-01
-9.024137258529663086e-02 1.874015557765960693e+01 -7.700046451296600480e-01
-2.407540678977966309e-01 1.888151299953460693e+01 -7.733920963015350480e-01
-3.946847319602966309e-01 1.902592217922210693e+01 -7.768405826296600480e-01
-5.509347319602966309e-01 1.913920342922210693e+01 -7.792056949343475480e-01
-7.103585600852966309e-01 1.933488214015960693e+01 -7.843784244265350480e-01
-8.785714507102966309e-01 1.971732842922210693e+01 -7.959293277468475480e-01
-1.053864419460296631e+00 2.010441339015960693e+01 -8.079837711062225480e-01
1.463308930397033691e-01 2.096024835109710693e+01 -7.686313541140350480e-01
-2.493375539779663086e-02 2.110465753078460693e+01 -7.712558658327850480e-01
-1.990060210227966309e-01 2.125138604640960693e+01 -7.739108951296600480e-01
-3.766183257102966309e-01 2.140116631984710693e+01 -7.766269595827850480e-01
-5.565499663352966309e-01 2.155289971828460693e+01 -7.793888004030975480e-01
-7.413644194602966309e-01 2.185514581203460693e+01 -7.866062076296600480e-01
-9.376534819602966309e-01 2.236991631984710693e+01 -8.000949771609100480e-01
-1.148835122585296631e+00 2.304813897609710693e+01 -8.183597476687225480e-01
2.605887055397033691e-01 2.400224053859710693e+01 -7.665866763796600480e-01
6.075960397720336914e-02 2.420768487453460693e+01 -7.693027408327850480e-01
-1.432198882102966309e-01 2.441044366359710693e+01 -7.724155338015350480e-01
-3.519601225852966309e-01 2.461784112453460693e+01 -7.756046207155975480e-01
-5.641183257102966309e-01 2.482865655422210693e+01 -7.788394839968475480e-01
-7.845773100852966309e-01 2.537040460109710693e+01 -7.904056461062225480e-01
-1.021515786647796631e+00 2.612980401515960693e+01 -8.073429019655975480e-01
-1.262604653835296631e+00 2.657560479640960693e+01 -8.168338687624725480e-01
4.126883149147033691e-01 2.804594171047210693e+01 -7.573245914187225480e-01
1.725760102272033691e-01 2.825224053859710693e+01 -7.592166812624725480e-01
-7.156461477279663086e-02 2.846915948390960693e+01 -7.612918765749725480e-01
-3.207101225852966309e-01 2.868876397609710693e+01 -7.633823306765350480e-01
-5.733956694602966309e-01 2.890287530422210693e+01 -7.653201968874725480e-01
-8.319405913352966309e-01 2.924870049953460693e+01 -7.699283511843475480e-01
-1.100129067897796631e+00 2.967240655422210693e+01 -7.760776431765350480e-01
-1.375519692897796631e+00 3.008842217922210693e+01 -7.819980533327850480e-01
6.186209321022033691e-01 3.352360284328460693e+01 -7.353366763796600480e-01
3.267508149147033691e-01 3.383268487453460693e+01 -7.374423892702850480e-01
3.011995553970336914e-02 3.422123467922210693e+01 -7.400363834109100480e-01
-2.757882475852966309e-01 3.454105889797210693e+01 -7.421726138796600480e-01
-5.870675444602966309e-01 3.486637628078460693e+01 -7.443393619265350480e-01
-9.037179350852966309e-01 3.511149346828460693e+01 -7.451480777468475480e-01
-1.227692544460296631e+00 3.541581475734710693e+01 -7.476352603640350480e-01
-1.558503091335296631e+00 3.577543389797210693e+01 -7.501834781374725480e-01
2.809783041477203369e+00 9.199052178859710693e+01 -1.299377814074972548e+00
1.866667807102203369e+00 8.980058038234710693e+01 -1.264435187121847548e+00
1.258230805397033691e-01 3.959599053859710693e+01 -6.621860416140350480e-01
-2.324532866477966309e-01 4.009892022609710693e+01 -6.644748599734100480e-01
-5.995187163352966309e-01 4.061442315578460693e+01 -6.668094546999725480e-01
-1.633332192897796631e+00 9.408671319484710693e+01 -1.279419317981222548e+00
-2.557160317897796631e+00 9.485380303859710693e+01 -1.279129400989035048e+00
-3.393341958522796631e+00 9.253739678859710693e+01 -1.243805304309347548e+00
1.818694174289703369e+00 8.791679131984710693e+01 -8.543857486452850480e-01
1.274099946022033691e-01 3.959367120265960693e+01 -4.961246402468475480e-01
-2.308663725852966309e-01 4.009672296047210693e+01 -4.961093814577850480e-01
-5.978097319602966309e-01 4.061198174953460693e+01 -4.960941226687225480e-01
-1.548493325710296631e+00 8.755888116359710693e+01 -8.182681949343475480e-01
-2.483429849147796631e+00 9.174308526515960693e+01 -8.385013492312225480e-01
-3.419342935085296631e+00 9.347086846828460693e+01 -8.413852603640350480e-01
2.762908041477203369e+00 9.052702081203460693e+01 -4.805148990359100480e-01
1.773650228977203369e+00 8.614457452297210693e+01 -4.599002750124725480e-01
1.289969086647033691e-01 3.959147393703460693e+01 -3.292087466921600480e-01
-2.291573882102966309e-01 4.009440362453460693e+01 -3.268741519655975480e-01
-5.961007475852966309e-01 4.060966241359710693e+01 -3.244937808718475480e-01
-1.539093911647796631e+00 8.710551202297210693e+01 -4.292606265749725480e-01
-2.426545083522796631e+00 8.937699639797210693e+01 -4.259952457155975480e-01
-3.288361489772796631e+00 8.953947198390960693e+01 -4.178012759890350480e-01
2.802947103977203369e+00 9.149052178859710693e+01 -7.926978184841004804e-02
1.798308432102203369e+00 8.690116631984710693e+01 -7.905615880153504804e-02
1.305838227272033691e-01 3.958927667140960693e+01 -1.632083804812225480e-01
-2.275704741477966309e-01 4.009208428859710693e+01 -1.585697086062225480e-01
-5.943917632102966309e-01 4.060734307765960693e+01 -1.538242252077850480e-01
-1.543854653835296631e+00 8.781059014797210693e+01 -4.386939122341004804e-02
-2.415436685085296631e+00 8.905717217922210693e+01 -3.254736973903504804e-02
-3.236115396022796631e+00 8.804032647609710693e+01 -2.653540684841004804e-02
2.668059408664703369e+00 8.779935967922210693e+01 3.033290951047149520e-01
1.814421713352203369e+00 8.734586846828460693e+01 3.087612240109649520e-01
1.321707367897033691e-01 3.958915460109710693e+01 2.776726940652451958e-03
-2.258614897727966309e-01 4.009708917140960693e+01 9.749993542214951958e-03
-5.926827788352966309e-01 4.061759698390960693e+01 1.689110682346495196e-02
-1.552765786647796631e+00 8.886247003078460693e+01 3.503414242062774520e-01
-2.401764810085296631e+00 8.861979424953460693e+01 3.592372982297149520e-01
-3.225861489772796631e+00 8.784428155422210693e+01 3.621975033078399520e-01
2.654509603977203369e+00 8.733952081203460693e+01 6.853023617062774520e-01
1.825896322727203369e+00 8.762345635890960693e+01 6.967311947140899520e-01
9.671316742897033691e-01 8.652348077297210693e+01 6.928096859250274520e-01
1.451101899147033691e-01 8.770451104640960693e+01 7.143245785031524520e-01
-6.938790678977966309e-01 8.724699151515960693e+01 7.174831478390899520e-01
-1.549347817897796631e+00 8.890372979640960693e+01 7.447200863156524520e-01
-2.479279458522796631e+00 9.229594171047210693e+01 7.923580257687774520e-01
-3.279694497585296631e+00 8.964396417140960693e+01 7.702785579953399520e-01
2.643645346164703369e+00 8.695097100734710693e+01 1.066176995495339952e+00
1.829192221164703369e+00 8.760477960109710693e+01 1.082610711315652452e+00
9.941092133522033691e-01 8.782645928859710693e+01 1.094405755260964952e+00
1.485281586647033691e-01 8.763688409328460693e+01 1.099776849010964952e+00
-7.013253569602966309e-01 9.248795831203460693e+01 1.185363396862527452e+00
-1.538483560085296631e+00 8.832780206203460693e+01 1.127486809948464952e+00
-2.389313638210296631e+00 8.841471612453460693e+01 1.137313470104714952e+00
-3.253327310085296631e+00 8.894706475734710693e+01 1.156432732800027452e+00
2.726897299289703369e+00 8.905546319484710693e+01 1.491653069714089952e+00
1.813811361789703369e+00 8.691398370265960693e+01 1.456756219128152452e+00
1.029753744602203369e+00 8.961332452297210693e+01 1.519897088268777452e+00
1.523123383522033691e-01 8.763029229640960693e+01 1.487899407604714952e+00
-6.885079741477966309e-01 8.837650811672210693e+01 1.511535271862527452e+00
-1.564972817897796631e+00 9.084855401515960693e+01 1.570922478893777452e+00
-2.453156411647796631e+00 9.148722589015960693e+01 1.592818841198464952e+00
-3.258210122585296631e+00 8.922294366359710693e+01 1.554336175182839952e+00
2.724333822727203369e+00 8.888590753078460693e+01 1.882262810925027452e+00
1.886809408664703369e+00 8.940153253078460693e+01 1.901382073620339952e+00
9.955740571022033691e-01 8.748100030422210693e+01 1.861999139050027452e+00
1.673269867897033691e-01 8.904386651515960693e+01 1.909408196667214952e+00
-6.838693022727966309e-01 8.799101006984710693e+01 1.891402825573464952e+00
-1.556549966335296631e+00 9.048087823390960693e+01 1.962524041393777452e+00
-2.588654458522796631e+00 9.782413995265960693e+01 2.157027825573464952e+00
-3.235382974147796631e+00 8.863456475734710693e+01 1.934875115612527452e+00
1.895110189914703369e+00 8.955802667140960693e+01 2.302367791393777452e+00
1.068816244602203369e+00 9.135148370265960693e+01 2.363799676159402452e+00
1.705008149147033691e-01 8.895780694484710693e+01 2.301559075573464952e+00
-6.863107085227966309e-01 9.116154229640960693e+01 2.375487908581277452e+00
-1.553376138210296631e+00 9.055851495265960693e+01 2.366134270885964952e+00
-2.417878091335296631e+00 9.024906671047210693e+01 2.365478142956277452e+00
6.836844086647033691e-01 3.484538018703460693e+01 8.339840023312774520e-01
1.044158041477203369e+00 8.975614678859710693e+01 2.712554558971902452e+00
1.791678071022033691e-01 8.956010186672210693e+01 2.714355096081277452e+00
-6.802071928977966309e-01 9.007096612453460693e+01 2.740356072643777452e+00
-1.553620278835296631e+00 9.091203057765960693e+01 2.777816399792214952e+00
-2.439728677272796631e+00 9.143217217922210693e+01 2.806548699596902452e+00
-3.371491372585296631e+00 9.315372979640960693e+01 2.874816521862527452e+00
1.071379721164703369e+00 9.104899346828460693e+01 3.160567864635964952e+00
1.877127289772033691e-01 9.012931573390960693e+01 3.133498772839089952e+00
-6.814278960227966309e-01 9.278336846828460693e+01 3.245299920300027452e+00
-1.544342935085296631e+00 9.046928155422210693e+01 3.163787469128152452e+00
-2.520661294460296631e+00 9.531290948390960693e+01 3.361816033581277452e+00
-3.397858560085296631e+00 9.411173760890960693e+01 3.325957879284402452e+00
-8.763741850852966309e-01 1.459513604640960693e+01 -7.736972720827850480e-01
-9.931954741477966309e-01 1.471500909328460693e+01 -7.783969791140350480e-01
-1.114655435085296631e+00 1.487284600734710693e+01 -7.851718814577850480e-01
-1.240143716335296631e+00 1.503593194484710693e+01 -7.921604068484100480e-01
-1.369049966335296631e+00 1.520329034328460693e+01 -7.993472964968475480e-01
-1.501740396022796631e+00 1.537565362453460693e+01 -8.067478091921600480e-01
-1.639191567897796631e+00 1.555399835109710693e+01 -8.144077213015350480e-01
-1.794465005397796631e+00 1.587455499172210693e+01 -8.291019351687225480e-01
-9.238595366477966309e-01 1.606351983547210693e+01 -7.859043033327850480e-01
-1.061188638210296631e+00 1.631998956203460693e+01 -7.961124332155975480e-01
-1.205109536647796631e+00 1.660001885890960693e+01 -8.069766910280975480e-01
-1.355256021022796631e+00 1.688053643703460693e+01 -8.181461246218475480e-01
-1.509064614772796631e+00 1.713651788234710693e+01 -8.282169254030975480e-01
-1.666535317897796631e+00 1.737455499172210693e+01 -8.374637515749725480e-01
-1.845002114772796631e+00 1.777811944484710693e+01 -8.541568668093475480e-01
-2.057648599147796631e+00 1.843913018703460693e+01 -8.815311343874725480e-01
-9.851388335227966309e-01 1.795951592922210693e+01 -8.011936099734100480e-01
-1.141755044460296631e+00 1.822233331203460693e+01 -8.102878482546600480e-01
-1.306916177272796631e+00 1.854594171047210693e+01 -8.217014224734100480e-01
-1.486237466335296631e+00 1.898051202297210693e+01 -8.373416812624725480e-01
-1.669342935085296631e+00 1.935136163234710693e+01 -8.504642398562225480e-01
-1.870881021022796631e+00 1.985441339015960693e+01 -8.686221988405975480e-01
-2.078888833522796631e+00 2.030839288234710693e+01 -8.848117740359100480e-01
-2.303009927272796631e+00 2.083280694484710693e+01 -9.036258609499725480e-01
-1.054596841335296631e+00 2.010770928859710693e+01 -8.080753238405975480e-01
-1.239289224147796631e+00 2.052946221828460693e+01 -8.207706363405975480e-01
-1.433014810085296631e+00 2.095951592922210693e+01 -8.340915591921600480e-01
-1.637848794460296631e+00 2.141386163234710693e+01 -8.481754214968475480e-01
-1.864777505397796631e+00 2.205363214015960693e+01 -8.684696109499725480e-01
-2.119660317897796631e+00 2.287406671047210693e+01 -8.947910220827850480e-01
-2.377961099147796631e+00 2.354350030422210693e+01 -9.158634097780975480e-01
-2.631501138210296631e+00 2.403800714015960693e+01 -9.314578921999725480e-01
-1.149689614772796631e+00 2.305228936672210693e+01 -8.184665591921600480e-01
-1.372590005397796631e+00 2.368168389797210693e+01 -8.354953677859100480e-01
-1.605133950710296631e+00 2.425187432765960693e+01 -8.506778629030975480e-01
-1.845368325710296631e+00 2.474552667140960693e+01 -8.634799869265350480e-01
-2.113556802272796631e+00 2.549528253078460693e+01 -8.837436588015350480e-01
-2.378327310085296631e+00 2.601774346828460693e+01 -8.972171695437225480e-01
-2.666413247585296631e+00 2.666715753078460693e+01 -9.143070132937225480e-01
-2.979035317897796631e+00 2.743192803859710693e+01 -9.346622379030975480e-01
-1.263459146022796631e+00 2.657926690578460693e+01 -8.169101627077850480e-01
-1.515290200710296631e+00 2.706266534328460693e+01 -8.264469058718475480e-01
-1.776032388210296631e+00 2.752628839015960693e+01 -8.359836490359100480e-01
-2.059967935085296631e+00 2.819498956203460693e+01 -8.505252750124725480e-01
-2.357453286647796631e+00 2.887260186672210693e+01 -8.651584537234100480e-01
-2.672028481960296631e+00 2.958952081203460693e+01 -8.806613834109100480e-01
-3.006623208522796631e+00 3.035197198390960693e+01 -8.971408755984100480e-01
-3.358063638210296631e+00 3.113602960109710693e+01 -9.147190005984100480e-01
-1.376496255397796631e+00 3.009086358547210693e+01 -7.820285709109100480e-01
-1.656037271022796631e+00 3.040360772609710693e+01 -7.860568912234100480e-01
-1.975617349147796631e+00 3.135551202297210693e+01 -8.030246646609100480e-01
-2.303254067897796631e+00 3.210880792140960693e+01 -8.157810123171600480e-01
-2.626130044460296631e+00 3.259721124172210693e+01 -8.230747134890350480e-01
-2.967194497585296631e+00 3.318314874172210693e+01 -8.322452457155975480e-01
-3.319123208522796631e+00 3.374345147609710693e+01 -8.407749088015350480e-01
-3.682404458522796631e+00 3.431010186672210693e+01 -8.493350894655975480e-01
-1.559723794460296631e+00 3.577738702297210693e+01 -7.501987369265350480e-01
-1.898224771022796631e+00 3.614689385890960693e+01 -7.530826480593475480e-01
-2.240631997585296631e+00 3.643900811672210693e+01 -7.538608463015350480e-01
-2.589020669460296631e+00 3.671024835109710693e+01 -7.550510318484100480e-01
-2.948151528835296631e+00 3.706290948390960693e+01 -7.574619205202850480e-01
-3.327912271022796631e+00 3.757536065578460693e+01 -7.622836978640350480e-01
-3.715241372585296631e+00 3.804081475734710693e+01 -7.671207339968475480e-01
-4.089264810085296631e+00 3.829227960109710693e+01 -7.677616031374725480e-01
-3.396515786647796631e+00 9.254020440578460693e+01 -1.243790045520285048e+00
-2.166169106960296631e+00 4.250785577297210693e+01 -6.734012515749725480e-01
-2.579377114772796631e+00 4.294291436672210693e+01 -6.745304019655975480e-01
-3.004059731960296631e+00 4.338993585109710693e+01 -6.757053287234100480e-01
-7.824860513210296631e+00 9.217643487453460693e+01 -1.197464361926535048e+00
-8.695221841335296631e+00 9.191935479640960693e+01 -1.186203375598410048e+00
-4.774323403835296631e+00 4.499076592922210693e+01 -6.774906070437225480e-01
-3.422394692897796631e+00 9.346891534328460693e+01 -8.413242252077850480e-01
-2.164215981960296631e+00 4.250590264797210693e+01 -4.938968570437225480e-01
-2.577423989772796631e+00 4.294083917140960693e+01 -4.929202945437225480e-01
-3.001984536647796631e+00 4.338773858547210693e+01 -4.919132144655975480e-01
-7.909211099147796631e+00 9.325199639797210693e+01 -7.957614810671600480e-01
-8.792633950710296631e+00 9.301933038234710693e+01 -7.854465396609100480e-01
-4.772126138210296631e+00 4.498905694484710693e+01 -4.858402164187225480e-01
-3.291291177272796631e+00 8.954093682765960693e+01 -4.177707584109100480e-01
-2.162262856960296631e+00 4.250382745265960693e+01 -3.134616763796600480e-01
-2.575470864772796631e+00 4.293876397609710693e+01 -3.103488834109100480e-01
-2.999909341335296631e+00 4.338566339015960693e+01 -3.071597964968475480e-01
-8.531891763210296631e+00 9.024332940578460693e+01 -3.664401920046600480e-01
-4.769928872585296631e+00 4.498747003078460693e+01 -2.931827457155975480e-01
-3.238923013210296631e+00 8.803971612453460693e+01 -2.650488927028504804e-02
-2.160431802272796631e+00 4.250187432765960693e+01 -1.340183170046600480e-01
-2.573517739772796631e+00 4.293668878078460693e+01 -1.287845523562225480e-01
-2.997956216335296631e+00 4.338346612453460693e+01 -1.234134586062225480e-01
-7.627961099147796631e+00 1.019438909292221069e+02 4.867516444065245196e-02
-8.726105630397796631e+00 9.239286553859710693e+01 3.993187830783995196e-02
-4.767731606960296631e+00 4.498576104640960693e+01 -1.015781314577850480e-01
-3.228913247585296631e+00 8.784965264797210693e+01 3.622737972531524520e-01
-4.063752114772796631e+00 8.768339288234710693e+01 3.701320736203399520e-01
-4.970246255397796631e+00 8.893497979640960693e+01 3.861690609250274520e-01
-5.785553872585296631e+00 8.824992120265960693e+01 3.903347103390899520e-01
-6.607819497585296631e+00 8.787553155422210693e+01 3.966671078000274520e-01
-8.556916177272796631e+00 9.060563409328460693e+01 4.380031673703399520e-01
-8.970612466335296631e+00 8.608353936672210693e+01 4.120937435422149520e-01
-3.282624185085296631e+00 8.964396417140960693e+01 7.703243343625274520e-01
-4.062897622585296631e+00 8.775700128078460693e+01 7.576442806515899520e-01
-4.953522622585296631e+00 8.869144952297210693e+01 7.780300228390899520e-01
-5.793732583522796631e+00 8.844694268703460693e+01 7.845607845578399520e-01
-6.565949380397796631e+00 8.735148370265960693e+01 7.807155697140899520e-01
-7.433747231960296631e+00 8.767387139797210693e+01 7.939449398312774520e-01
-8.595490396022796631e+00 9.106913506984710693e+01 8.451076595578399520e-01
-8.845978677272796631e+00 8.490421807765960693e+01 7.782894222531524520e-01
-3.256256997585296631e+00 8.894877374172210693e+01 1.156509026745339952e+00
-4.103424966335296631e+00 8.881425225734710693e+01 1.161895379284402452e+00
-4.972687661647796631e+00 8.913578546047210693e+01 1.176864251354714952e+00
-5.812775552272796631e+00 8.881779229640960693e+01 1.181365594128152452e+00
-6.574006021022796631e+00 8.751908624172210693e+01 1.169402703503152452e+00
-7.402497231960296631e+00 8.734171807765960693e+01 1.175994500378152452e+00
-8.424103677272796631e+00 8.925517022609710693e+01 1.217956170300027452e+00
-9.039338052272796631e+00 8.683366143703460693e+01 1.188583001354714952e+00
-3.261261880397796631e+00 8.922636163234710693e+01 1.554442986706277452e+00
-4.085358560085296631e+00 8.848112237453460693e+01 1.548812493542214952e+00
-4.961579263210296631e+00 8.899894464015960693e+01 1.569625481823464952e+00
-6.642609536647796631e+00 8.852641046047210693e+01 1.579574212292214952e+00
-9.189118325710296631e+00 9.760490167140960693e+01 1.795013055065652452e+00
-9.204377114772796631e+00 8.848856866359710693e+01 1.608672723034402452e+00
-3.238190591335296631e+00 8.863078057765960693e+01 1.934814080456277452e+00
-2.193879067897796631e+00 4.351920831203460693e+01 7.909847347531524520e-01
-2.594513833522796631e+00 4.351908624172210693e+01 7.957759945187774520e-01
-5.738678872585296631e+00 8.775248467922210693e+01 1.940673455456277452e+00
-6.789948403835296631e+00 9.062968194484710693e+01 2.025283440807839952e+00
-7.747223794460296631e+00 9.164384210109710693e+01 2.062133416393777452e+00
-8.579743325710296631e+00 9.103544366359710693e+01 2.056869134167214952e+00
-9.569611489772796631e+00 9.210514581203460693e+01 2.097686394909402452e+00
-2.192048013210296631e+00 4.351920831203460693e+01 9.760280697140899520e-01
-2.592560708522796631e+00 4.351908624172210693e+01 9.809413997922149520e-01
-5.716095864772796631e+00 8.745329034328460693e+01 2.321075066784402452e+00
-6.555207192897796631e+00 8.742472589015960693e+01 2.330535516003152452e+00
-7.362580239772796631e+00 8.700224053859710693e+01 2.327941521862527452e+00
-8.021637856960296631e+00 8.501676690578460693e+01 2.277190789440652452e+00
-8.894074380397796631e+00 8.552946221828460693e+01 2.303100213268777452e+00
-3.374543130397796631e+00 9.315360772609710693e+01 2.874847039440652452e+00
-2.190216958522796631e+00 4.351920831203460693e+01 1.161071404675027452e+00
-2.590729653835296631e+00 4.351908624172210693e+01 1.165114983776589952e+00
-7.287751138210296631e+00 9.766947686672210693e+01 3.076369866589089952e+00
-7.626740396022796631e+00 9.027555596828460693e+01 2.827743157604714952e+00
-8.475495278835296631e+00 8.999296319484710693e+01 2.830886468151589952e+00
-8.763947427272796631e+00 8.429252374172210693e+01 2.639403924206277452e+00
-3.400788247585296631e+00 9.410673272609710693e+01 3.325805291393777452e+00
-4.539948403835296631e+00 9.972562921047210693e+01 3.556289300182839952e+00
-5.365021646022796631e+00 9.709769952297210693e+01 3.464965447643777452e+00
-5.824250161647796631e+00 8.932902276515960693e+01 3.169463738659402452e+00
-6.578522622585296631e+00 8.785905206203460693e+01 3.122161492565652452e+00
-8.219635903835296631e+00 9.756767022609710693e+01 3.520019158581277452e+00
-8.010651528835296631e+00 8.498270928859710693e+01 3.029021844128152452e+00
-9.484040200710296631e+00 9.139310967922210693e+01 3.298919305065652452e+00
-1.795197427272796631e+00 1.587772881984710693e+01 -8.292545230593475480e-01
-1.963288247585296631e+00 1.625163018703460693e+01 -8.462375552859100480e-01
-2.146515786647796631e+00 1.668424737453460693e+01 -8.662723453249725480e-01
-2.342072427272796631e+00 1.713663995265960693e+01 -8.872074039187225480e-01
-2.558258950710296631e+00 1.767045342922210693e+01 -9.119876773562225480e-01
-2.815461099147796631e+00 1.839774835109710693e+01 -9.458927066530975480e-01
-3.075226724147796631e+00 1.904411065578460693e+01 -9.758914859499725480e-01
-3.294831216335296631e+00 1.938407647609710693e+01 -9.917301089968475480e-01
-2.058625161647796631e+00 1.844376885890960693e+01 -8.817294986452850480e-01
-2.276398599147796631e+00 1.902848565578460693e+01 -9.061283023562225480e-01
-2.487091958522796631e+00 1.945719659328460693e+01 -9.234012515749725480e-01
-2.699616372585296631e+00 1.982584893703460693e+01 -9.384311588015350480e-01
-2.928498208522796631e+00 2.025809991359710693e+01 -9.561618716921600480e-01
-3.221955239772796631e+00 2.104960381984710693e+01 -9.891971500124725480e-01
-3.450348794460296631e+00 2.133939874172210693e+01 -1.001175299426535048e+00
-3.516266763210296631e+00 2.066117608547210693e+01 -9.713748843874725480e-01
-2.303986489772796631e+00 2.083671319484710693e+01 -9.037784488405975480e-01
-2.551300942897796631e+00 2.147038018703460693e+01 -9.271396548952850480e-01
-2.828034341335296631e+00 2.223551690578460693e+01 -9.554447086062225480e-01
-3.119904458522796631e+00 2.298795831203460693e+01 -9.832004459109100480e-01
-3.431061685085296631e+00 2.377067315578460693e+01 -1.012009039660910048e+00
-3.474030435085296631e+00 2.269767510890960693e+01 -9.700321109499725480e-01
-3.461579263210296631e+00 2.141349542140960693e+01 -9.201206119265350480e-01
-3.526154458522796631e+00 2.072294366359710693e+01 -8.929141910280975480e-01
-2.632599771022796631e+00 2.404227960109710693e+01 -9.315952213015350480e-01
-2.942902505397796631e+00 2.494767510890960693e+01 -9.603580386843475480e-01
-3.246735513210296631e+00 2.564799249172210693e+01 -9.826206119265350480e-01
-3.564606606960296631e+00 2.633695733547210693e+01 -1.004410162707785048e+00
-3.614045083522796631e+00 2.505485284328460693e+01 -9.600833804812225480e-01
-3.492463052272796631e+00 2.282426202297210693e+01 -8.841861636843475480e-01
-3.656159341335296631e+00 2.260722100734710693e+01 -8.757633121218475480e-01
-5.003083169460296631e+00 2.922013604640960693e+01 -1.095596686145285048e+00
-2.980500161647796631e+00 2.743803155422210693e+01 -9.348300845827850480e-01
-3.308381021022796631e+00 2.819767510890960693e+01 -9.553378970827850480e-01
-3.641144692897796631e+00 2.886576592922210693e+01 -9.730686099734100480e-01
-4.014923989772796631e+00 2.972916924953460693e+01 -9.963687808718475480e-01
-3.826081216335296631e+00 2.654301202297210693e+01 -9.026340396609100480e-01
-4.027131021022796631e+00 2.631632745265960693e+01 -8.945773990359100480e-01
-5.152131021022796631e+00 3.175504815578460693e+01 -1.049332037707785048e+00
-5.573761880397796631e+00 3.250968682765960693e+01 -1.069076910754660048e+00
-3.359650552272796631e+00 3.114201104640960693e+01 -9.148563296999725480e-01
-3.737946450710296631e+00 3.201835381984710693e+01 -9.335788638796600480e-01
-4.090729653835296631e+00 3.253629815578460693e+01 -9.441379459109100480e-01
-4.459748208522796631e+00 3.308329522609710693e+01 -9.552921207155975480e-01
-4.835114419460296631e+00 3.359867608547210693e+01 -9.656223209109100480e-01
-4.684967935085296631e+00 3.061369073390960693e+01 -8.913577945437225480e-01
-5.183381021022796631e+00 3.195463311672210693e+01 -9.216464908327850480e-01
-5.788117349147796631e+00 3.375138604640960693e+01 -9.634250552859100480e-01
-3.683869302272796631e+00 3.431449639797210693e+01 -8.494113834109100480e-01
-4.061798989772796631e+00 3.490372979640960693e+01 -8.586734683718475480e-01
-4.455475747585296631e+00 3.551774346828460693e+01 -8.683170230593475480e-01
-4.860505044460296631e+00 3.610795342922210693e+01 -8.773807437624725480e-01
-5.255646646022796631e+00 3.654740655422210693e+01 -8.833927066530975480e-01
-5.649811685085296631e+00 3.691642510890960693e+01 -8.879703433718475480e-01
-6.086335122585296631e+00 3.748539483547210693e+01 -8.963474185671600480e-01
-6.508820474147796631e+00 3.790739190578460693e+01 -9.017948062624725480e-01
-4.090729653835296631e+00 3.829411065578460693e+01 -7.677768619265350480e-01
-4.471222817897796631e+00 3.855106866359710693e+01 -7.687229068484100480e-01
-4.882965981960296631e+00 3.901322686672210693e+01 -7.718509586062225480e-01
-5.278229653835296631e+00 3.926359307765960693e+01 -7.725681216921600480e-01
-5.695099771022796631e+00 3.963041436672210693e+01 -7.749790103640350480e-01
-6.138337075710296631e+00 4.011478936672210693e+01 -7.790683658327850480e-01
-6.570343911647796631e+00 4.045585381984710693e+01 -7.818607242312225480e-01
-7.024811685085296631e+00 4.088761651515960693e+01 -7.850192935671600480e-01
-4.775910317897796631e+00 4.499332940578460693e+01 -6.775058658327850480e-01
-5.235016763210296631e+00 4.534904229640960693e+01 -6.774906070437225480e-01
-5.703278481960296631e+00 4.571183526515960693e+01 -6.774600894655975480e-01
-7.657135903835296631e+00 4.711698663234710693e+01 -6.761020572390350480e-01
-8.138337075710296631e+00 4.730973565578460693e+01 -6.739810855593475480e-01
-4.773835122585296631e+00 4.499162042140960693e+01 -4.858402164187225480e-01
-5.232819497585296631e+00 4.534733331203460693e+01 -4.839176089968475480e-01
-5.700959146022796631e+00 4.571012628078460693e+01 -4.819492252077850480e-01
-1.301712125539779663e+01 9.755753839015960693e+01 -7.764743716921600480e-01
-1.337613004446029663e+01 8.739896905422210693e+01 -7.014621646609100480e-01
-7.655915200710296631e+00 4.712284600734710693e+01 -4.730228336062225480e-01
-8.135895669460296631e+00 4.730839288234710693e+01 -4.696964175905975480e-01
-4.771637856960296631e+00 4.499003350734710693e+01 -2.931674869265350480e-01
-5.230500161647796631e+00 4.534562432765960693e+01 -2.893222720827850480e-01
-5.698639810085296631e+00 4.570841729640960693e+01 -2.854160220827850480e-01
-1.252761930227279663e+01 9.390531671047210693e+01 -3.345493228640350480e-01
-1.262905973196029663e+01 8.818534600734710693e+01 -3.193515689577850480e-01
-1.276345914602279663e+01 8.342472589015960693e+01 -3.061679752077850480e-01
-7.654694497585296631e+00 4.712870538234710693e+01 -2.688144595827850480e-01
-8.133454263210296631e+00 4.730692803859710693e+01 -2.643283755984100480e-01
-4.769440591335296631e+00 4.498832452297210693e+01 -1.015476138796600480e-01
-5.228302896022796631e+00 4.534391534328460693e+01 -9.581030919216004804e-02
-5.696442544460296631e+00 4.570658624172210693e+01 -8.995093419216004804e-02
-1.248306363821029663e+01 9.360307061672210693e+01 8.300743983127745196e-02
-1.400015348196029663e+01 9.781205499172210693e+01 1.082454769406524520e-01
-1.299868863821029663e+01 8.498747003078460693e+01 7.083092615940245196e-02
-7.653473794460296631e+00 4.713456475734710693e+01 -6.564368321559754804e-02
-8.131501138210296631e+00 4.730827081203460693e+01 -6.007422520778504804e-02
-8.973664224147796631e+00 8.608512628078460693e+01 4.121395199094024520e-01
-1.157144254446029663e+01 1.017875188589096069e+02 5.462337581906524520e-01
-1.078115934133529663e+01 8.722770440578460693e+01 4.385067074094024520e-01
-1.172598356008529663e+01 8.793046319484710693e+01 4.540401546750274520e-01
-1.263369840383529663e+01 8.827689874172210693e+01 4.668117611203399520e-01
-1.389297574758529663e+01 9.085917413234710693e+01 4.983974544797149520e-01
-1.411734098196029663e+01 8.674552667140960693e+01 4.758754818234649520e-01
-1.501187223196029663e+01 8.698331964015960693e+01 4.877773372922149520e-01
-8.850129067897796631e+00 8.491715753078460693e+01 7.784877865109649520e-01
-9.863556802272796631e+00 8.663126885890960693e+01 8.099666683469024520e-01
-1.079580777883529663e+01 8.738090264797210693e+01 8.296810238156524520e-01
-1.181668180227279663e+01 8.864542901515960693e+01 8.562313167844024520e-01
-1.216104215383529663e+01 8.499491631984710693e+01 8.196407406125274520e-01
-1.371817106008529663e+01 8.974503839015960693e+01 8.916622249875274520e-01
-1.365042203664779663e+01 8.390995538234710693e+01 8.256374447140899520e-01
-1.438931363821029663e+01 8.341825616359710693e+01 8.291317074094024520e-01
-9.041779458522796631e+00 8.682951104640960693e+01 1.188552483776589952e+00
-1.007180875539779663e+01 8.852128350734710693e+01 1.226256951550027452e+00
-1.146670621633529663e+01 8.603727471828460693e+01 1.205077752331277452e+00
-1.279300016164779663e+01 8.945182549953460693e+01 1.275695428112527452e+00
-1.299026578664779663e+01 8.501225030422210693e+01 1.208449944714089952e+00
-1.360537809133529663e+01 8.365849053859710693e+01 1.195052727917214952e+00
-1.439187711477279663e+01 8.345573174953460693e+01 1.203918084362527452e+00
-9.206452310085296631e+00 8.848100030422210693e+01 1.608550652721902452e+00
-5.268219888210296631e+00 4.577177178859710693e+01 6.895900814328399520e-01
-1.076919645071029663e+01 8.723063409328460693e+01 1.604171380260964952e+00
-1.145718473196029663e+01 8.599613702297210693e+01 1.588378533581277452e+00
-1.230716031789779663e+01 8.607597100734710693e+01 1.601394280651589952e+00
-1.475515836477279663e+01 9.658524835109710693e+01 1.847381219128152452e+00
-1.392996305227279663e+01 8.567338311672210693e+01 1.615020379284402452e+00
-1.439553922414779663e+01 8.350053155422210693e+01 1.577209099987527452e+00
-9.571808755397796631e+00 9.209708917140960693e+01 2.097518548229714952e+00
-5.266144692897796631e+00 4.577201592922210693e+01 8.850399105344024520e-01
-1.227285856008529663e+01 9.955753839015960693e+01 2.318450555065652452e+00
-1.145840543508529663e+01 8.603568780422210693e+01 1.971389397839089952e+00
-1.216873258352279663e+01 8.513432061672210693e+01 1.958999261120339952e+00
-1.298098844289779663e+01 8.500455987453460693e+01 1.967193230846902452e+00
-1.418032926321029663e+01 8.723405206203460693e+01 2.039367303112527452e+00
-1.440091031789779663e+01 8.355448663234710693e+01 1.953139886120339952e+00
-8.896393716335296631e+00 8.552384698390960693e+01 2.302978142956277452e+00
-5.264191567897796631e+00 4.577238214015960693e+01 1.081542596081277452e+00
-1.074050992727279663e+01 8.706290948390960693e+01 2.375274285534402452e+00
-1.175845426321029663e+01 8.833207452297210693e+01 2.427505120495339952e+00
-1.243228238821029663e+01 8.701127374172210693e+01 2.398589715221902452e+00
-1.331021207571029663e+01 8.718644464015960693e+01 2.416610345104714952e+00
-1.425540250539779663e+01 8.772050225734710693e+01 2.446181878307839952e+00
-1.442349332571029663e+01 8.370829522609710693e+01 2.330749139050027452e+00
-8.766144692897796631e+00 8.428751885890960693e+01 2.639281853893777452e+00
-9.764435708522796631e+00 8.592789971828460693e+01 2.710250481823464952e+00
-1.071328824758529663e+01 8.687321221828460693e+01 2.754806145885964952e+00
-1.320425504446029663e+01 9.928629815578460693e+01 3.214065179089089952e+00
-1.332815641164779663e+01 8.733109796047210693e+01 2.810348138073464952e+00
-1.462124723196029663e+01 8.999174249172210693e+01 2.922561272839089952e+00
-1.561209195852279663e+01 9.059513604640960693e+01 2.958205804089089952e+00
-9.487702310085296631e+00 9.139921319484710693e+01 3.299224480846902452e+00
-9.676667153835296631e+00 8.518021905422210693e+01 3.060683831432839952e+00
-1.089016813039779663e+01 8.835551202297210693e+01 3.202239617565652452e+00
-1.174942106008529663e+01 8.832755792140960693e+01 3.214858636120339952e+00
-1.254776090383529663e+01 8.787931573390960693e+01 3.210326775768777452e+00
-1.340945523977279663e+01 8.789127862453460693e+01 3.224502190807839952e+00
-1.354568570852279663e+01 8.341496026515960693e+01 3.054381951550027452e+00
-1.459243863821029663e+01 8.473100030422210693e+01 3.123733147839089952e+00
-3.295563638210296631e+00 1.938541924953460693e+01 -9.917911441530975480e-01
-3.527131021022796631e+00 1.974955499172210693e+01 -1.008453741809347548e+00
-3.614045083522796631e+00 1.932853448390960693e+01 -9.883731754030975480e-01
-3.662629067897796631e+00 1.875712335109710693e+01 -9.611820132937225480e-01
-3.714264810085296631e+00 1.825431573390960693e+01 -9.372409732546600480e-01
-3.765656411647796631e+00 1.779386651515960693e+01 -9.153140933718475480e-01
-3.816193521022796631e+00 1.736601006984710693e+01 -8.949436099734100480e-01
-3.863800942897796631e+00 1.696232354640960693e+01 -8.760684879030975480e-01
-3.516022622585296631e+00 2.065653741359710693e+01 -9.711765201296600480e-01
-3.571686685085296631e+00 1.999564874172210693e+01 -9.426425845827850480e-01
-3.623566567897796631e+00 1.938139092922210693e+01 -9.157260806765350480e-01
-3.671906411647796631e+00 1.880631768703460693e+01 -8.909152896609100480e-01
-3.721711099147796631e+00 1.829252374172210693e+01 -8.687290103640350480e-01
-3.878205239772796631e+00 1.829569756984710693e+01 -8.685459048952850480e-01
-5.851715981960296631e+00 2.597855889797210693e+01 -1.195557013293722548e+00
-5.908112466335296631e+00 2.524345147609710693e+01 -1.163818732043722548e+00
-3.525910317897796631e+00 2.071830499172210693e+01 -8.927310855593475480e-01
-3.581452310085296631e+00 2.005289971828460693e+01 -8.669589908327850480e-01
-3.752839028835296631e+00 2.005009210109710693e+01 -8.663486392702850480e-01
-5.729157388210296631e+00 2.884525811672210693e+01 -1.199264899035910048e+00
-6.532624185085296631e+00 3.134599053859710693e+01 -1.293213263293722548e+00
-5.947174966335296631e+00 2.746012628078460693e+01 -1.145294562121847548e+00
-6.066681802272796631e+00 2.689310967922210693e+01 -1.123123541614035048e+00
-6.012238442897796631e+00 2.566972100734710693e+01 -1.076172247668722548e+00
-5.004548013210296631e+00 2.922269952297210693e+01 -1.095672980090597548e+00
-5.357697427272796631e+00 2.969926202297210693e+01 -1.109878912707785048e+00
-6.029450356960296631e+00 3.175614678859710693e+01 -1.177215948840597548e+00
-6.396759927272796631e+00 3.210941827297210693e+01 -1.187805548449972548e+00
-6.845368325710296631e+00 3.280497491359710693e+01 -1.209717169543722548e+00
-7.340607583522796631e+00 3.363676202297210693e+01 -1.236099615832785048e+00
-7.738312661647796631e+00 3.397208917140960693e+01 -1.245956793567160048e+00
-6.328278481960296631e+00 2.695475518703460693e+01 -1.013458624621847548e+00
-5.575348794460296631e+00 3.251249444484710693e+01 -1.069153204699972548e+00
-5.954132974147796631e+00 3.294413506984710693e+01 -1.080078497668722548e+00
-6.340851724147796631e+00 3.336442315578460693e+01 -1.090622320910910048e+00
-6.917145669460296631e+00 3.465604913234710693e+01 -1.125976935168722548e+00
-7.293244302272796631e+00 3.489188897609710693e+01 -1.131134405871847548e+00
-7.654572427272796631e+00 3.503458917140960693e+01 -1.133621588489035048e+00
-8.206086099147796631e+00 3.595866143703460693e+01 -1.158234015246847548e+00
-8.605256021022796631e+00 3.618522393703460693e+01 -1.163010016223410048e+00
-5.790314614772796631e+00 3.375736749172210693e+01 -9.635623843874725480e-01
-6.262482583522796631e+00 3.462711846828460693e+01 -9.818271548952850480e-01
-6.764557778835296631e+00 3.555155694484710693e+01 -1.002060309192160048e+00
-7.257111489772796631e+00 3.632401788234710693e+01 -1.018539801379660048e+00
-7.710236489772796631e+00 3.683659112453460693e+01 -1.028747931262472548e+00
-8.179474771022796631e+00 3.736771905422210693e+01 -1.039337530871847548e+00
-8.664338052272796631e+00 3.790568292140960693e+01 -1.050003424426535048e+00
-9.106476724147796631e+00 3.822392022609710693e+01 -1.056305304309347548e+00
-6.510651528835296631e+00 3.791032159328460693e+01 -9.018558414187225480e-01
-6.944001138210296631e+00 3.833793389797210693e+01 -9.077304752077850480e-01
-7.383454263210296631e+00 3.874393975734710693e+01 -9.131168277468475480e-01
-7.365265786647796631e+00 3.685990655422210693e+01 -8.746189029421600480e-01
-7.737214028835296631e+00 3.697050225734710693e+01 -8.744052798952850480e-01
-8.190705239772796631e+00 3.742497003078460693e+01 -8.806919009890350480e-01
-8.679963052272796631e+00 3.797941339015960693e+01 -8.887943179812225480e-01
-9.168854653835296631e+00 3.848392999172210693e+01 -8.958743961062225480e-01
-7.026398599147796631e+00 4.088883721828460693e+01 -7.850192935671600480e-01
-7.442048013210296631e+00 4.105351006984710693e+01 -7.845004947390350480e-01
-7.973298013210296631e+00 4.178812921047210693e+01 -7.912601382937225480e-01
-8.405304849147796631e+00 4.194840753078460693e+01 -7.905277164187225480e-01
-8.896393716335296631e+00 4.236613214015960693e+01 -7.934726627077850480e-01
-9.395905435085296631e+00 4.277567803859710693e+01 -7.962192447390350480e-01
-9.845368325710296631e+00 4.292277276515960693e+01 -7.961429507937225480e-01
-5.409211099147796631e+00 2.324845635890960693e+01 -5.148319156374725480e-01
-8.140290200710296631e+00 4.731193292140960693e+01 -6.739963443484100480e-01
-8.644074380397796631e+00 4.759733331203460693e+01 -6.729587466921600480e-01
-1.479690641164779663e+01 7.691764581203460693e+01 -9.575961978640350480e-01
-1.545730680227279663e+01 7.641019952297210693e+01 -9.461063296999725480e-01
-1.614883512258529663e+01 7.609391534328460693e+01 -9.365390689577850480e-01
-1.717984098196029663e+01 7.729765069484710693e+01 -9.415744693484100480e-01
-1.124575895071029663e+01 4.886405694484710693e+01 -6.652683170046600480e-01
-1.177945035696029663e+01 4.908573663234710693e+01 -6.632541568484100480e-01
-8.137848794460296631e+00 4.731059014797210693e+01 -4.696964175905975480e-01
-8.641510903835296631e+00 4.759599053859710693e+01 -4.669040591921600480e-01
-1.478421109914779663e+01 7.687162530422210693e+01 -6.139530093874725480e-01
-1.625698941946029663e+01 8.033585870265960693e+01 -6.242679507937225480e-01
-1.612674039602279663e+01 7.600834405422210693e+01 -5.951389224734100480e-01
-1.688955777883529663e+01 7.602714288234710693e+01 -5.880283267702850480e-01
-1.124307340383529663e+01 4.886295831203460693e+01 -4.510806949343475480e-01
-1.177676481008529663e+01 4.908463799953460693e+01 -4.475711734499725480e-01
-8.135407388210296631e+00 4.730912530422210693e+01 -2.643131168093475480e-01
-8.639069497585296631e+00 4.759452569484710693e+01 -2.597659976687225480e-01
-1.470974820852279663e+01 7.650700128078460693e+01 -2.687839420046600480e-01
-1.716665738821029663e+01 8.480155694484710693e+01 -2.638858707155975480e-01
-1.619485563039779663e+01 7.634245049953460693e+01 -2.528537662234100480e-01
-1.688394254446029663e+01 7.601933038234710693e+01 -2.448429019655975480e-01
-1.124050992727279663e+01 4.886185967922210693e+01 -2.357791812624725480e-01
-1.177407926321029663e+01 4.908353936672210693e+01 -2.307590396609100480e-01
-8.133454263210296631e+00 4.731059014797210693e+01 -6.004370762966004804e-02
-8.638215005397796631e+00 4.760197198390960693e+01 -5.372656895778504804e-02
-1.512088102102279663e+01 7.864396417140960693e+01 8.163414881565245196e-02
-1.518655484914779663e+01 7.514127862453460693e+01 7.543908045627745196e-02
-1.617044156789779663e+01 7.624674737453460693e+01 8.883629725315245196e-02
-1.699710172414779663e+01 7.653812921047210693e+01 9.881554530002745196e-02
-1.778726285696029663e+01 7.662406671047210693e+01 1.079860775265899520e-01
-1.854751676321029663e+01 7.657914483547210693e+01 1.165615169797149520e-01
-1.501455777883529663e+01 8.698197686672210693e+01 4.877925960812774520e-01
-8.712799966335296631e+00 4.802030694484710693e+01 1.570888607297149520e-01
-1.473269742727279663e+01 7.666373956203460693e+01 4.154964535031524520e-01
-1.543716520071029663e+01 7.638493096828460693e+01 4.223781673703399520e-01
-1.663650602102279663e+01 7.843290460109710693e+01 4.504085628781524520e-01
-1.684475797414779663e+01 7.587894952297210693e+01 4.364467708859649520e-01
-1.769412320852279663e+01 7.624552667140960693e+01 4.511257259640899520e-01
-1.849905484914779663e+01 7.639799249172210693e+01 4.620510189328399520e-01
-1.438882535696029663e+01 8.339835870265960693e+01 8.289028255734649520e-01
-8.710846841335296631e+00 4.802213799953460693e+01 3.650966732297149520e-01
-1.518679898977279663e+01 7.902323663234710693e+01 7.914577572140899520e-01
-1.518557828664779663e+01 7.517216241359710693e+01 7.491603939328399520e-01
-1.622622770071029663e+01 7.654142510890960693e+01 7.779995052609649520e-01
-1.676052945852279663e+01 7.552164971828460693e+01 7.738948910031524520e-01
-1.810159391164779663e+01 7.798954522609710693e+01 8.188015072140899520e-01
-1.857034391164779663e+01 7.670292413234710693e+01 8.108974544797149520e-01
-1.439492887258529663e+01 8.345670831203460693e+01 1.203963860729714952e+00
-8.705964028835296631e+00 4.800736749172210693e+01 5.728145687375274520e-01
-1.514822477102279663e+01 7.884391534328460693e+01 1.141341790417214952e+00
-1.554348844289779663e+01 7.694144952297210693e+01 1.117538079479714952e+00
-1.755471891164779663e+01 8.274381768703460693e+01 1.235869988659402452e+00
-1.684573453664779663e+01 7.591630303859710693e+01 1.120193108776589952e+00
-1.857534879446029663e+01 8.001566827297210693e+01 1.208190545300027452e+00
-1.921951383352279663e+01 7.935465753078460693e+01 1.209029778698464952e+00
-1.439907926321029663e+01 8.350394952297210693e+01 1.577315911510964952e+00
-8.703766763210296631e+00 4.800822198390960693e+01 7.818447201047149520e-01
-1.470193570852279663e+01 7.656278741359710693e+01 1.443252190807839952e+00
-1.558889859914779663e+01 7.718217217922210693e+01 1.469070061901589952e+00
-1.654190152883529663e+01 7.804679620265960693e+01 1.500793084362527452e+00
-1.676101773977279663e+01 7.555692803859710693e+01 1.454375848034402452e+00
-1.839236539602279663e+01 7.925663506984710693e+01 1.553023919323464952e+00
-1.960745328664779663e+01 8.094645440578460693e+01 1.605193719128152452e+00
-1.440347379446029663e+01 8.355277764797210693e+01 1.953124627331277452e+00
-8.701691567897796631e+00 4.800907647609710693e+01 9.897762386594024520e-01
-1.479373258352279663e+01 7.705534112453460693e+01 1.798461541393777452e+00
-1.545242398977279663e+01 7.653251397609710693e+01 1.796279534557839952e+00
-1.651394742727279663e+01 7.793400323390960693e+01 1.847671136120339952e+00
-1.674002164602279663e+01 7.548026788234710693e+01 1.791274651745339952e+00
-1.904226773977279663e+01 8.203117120265960693e+01 1.988616570690652452e+00
-1.959219449758529663e+01 8.090092217922210693e+01 1.971770867565652452e+00
-1.442715543508529663e+01 8.371256768703460693e+01 2.330932244518777452e+00
-1.534793180227279663e+01 8.423515069484710693e+01 2.361770257214089952e+00
-1.482205289602279663e+01 7.722123467922210693e+01 2.149581536510964952e+00
-1.540078824758529663e+01 7.629850518703460693e+01 2.132705315807839952e+00
-1.596914762258529663e+01 7.541410577297210693e+01 2.116775140026589952e+00
-1.667837613821029663e+01 7.522306573390960693e+01 2.123336419323464952e+00
-1.888247770071029663e+01 8.137028253078460693e+01 2.339019402721902452e+00
-1.995413297414779663e+01 8.238822686672210693e+01 2.386779412487527452e+00
-1.431655973196029663e+01 8.309733331203460693e+01 2.683837517956277452e+00
-1.538382047414779663e+01 8.445267999172210693e+01 2.748412713268777452e+00
-1.505642789602279663e+01 7.844987237453460693e+01 2.539657220104714952e+00
-1.521450895071029663e+01 7.540397393703460693e+01 2.440566643932839952e+00
-1.592727750539779663e+01 7.523624932765960693e+01 2.447784051159402452e+00
-1.810916227102279663e+01 8.159818780422210693e+01 2.699920281628152452e+00
-1.894326871633529663e+01 8.164603936672210693e+01 2.718490227917214952e+00
-1.981912320852279663e+01 8.185661065578460693e+01 2.741302117565652452e+00
-1.429922574758529663e+01 8.302030694484710693e+01 3.053176507214089952e+00
-1.538919156789779663e+01 8.450443780422210693e+01 3.128188714245339952e+00
-1.507583707571029663e+01 7.856974542140960693e+01 2.896911248425027452e+00
-1.549978727102279663e+01 7.682011163234710693e+01 2.838500603893777452e+00
-1.599588102102279663e+01 7.557340753078460693e+01 2.800567254284402452e+00
-1.917031949758529663e+01 8.633329522609710693e+01 3.269240960339089952e+00
-1.904873746633529663e+01 8.211100518703460693e+01 3.106612786510964952e+00
-1.995315641164779663e+01 8.241825616359710693e+01 3.137389764050027452e+00
-8.093537271022796631e+00 2.971366631984710693e+01 8.099971859250274520e-01
-8.011139810085296631e+00 2.840910089015960693e+01 7.582241146359649520e-01
-8.545075356960296631e+00 1.649332940578460693e+01 4.850917904172149520e-01
-8.696442544460296631e+00 1.630155694484710693e+01 4.906307308469024520e-01
-8.515412271022796631e+00 1.652128350734710693e+01 5.211330501828399520e-01
-8.759430825710296631e+00 1.651701104640960693e+01 5.344387142453399520e-01
-8.823761880397796631e+00 1.612077081203460693e+01 5.322414486203399520e-01
-8.891388833522796631e+00 1.574870049953460693e+01 5.311122982297149520e-01
-8.949616372585296631e+00 1.594535577297210693e+01 5.726467220578399520e-01
-9.019684731960296631e+00 1.556803643703460693e+01 5.715023128781524520e-01
