-3.959521342068910599e+00 -2.024891358613967896e+01 -8.785686887800636669e-01
-3.870654154568910599e+00 -2.110645753145217896e+01 -8.973522581160011669e-01
-3.719042826443910599e+00 -2.168702393770217896e+01 -9.081249631941261669e-01
-3.526293803006410599e+00 -2.206519776582717896e+01 -9.131451047956886669e-01
-4.473315287381410599e+00 -1.825965577363967896e+01 -7.422314085066261669e-01
-4.398974467068910599e+00 -1.893934327363967896e+01 -7.540264524519386669e-01
-4.282763529568910599e+00 -1.947962647676467896e+01 -7.622509397566261669e-01
-4.204028178006410599e+00 -2.027064210176467896e+01 -7.761516965925636669e-01
-4.110034037381410599e+00 -2.105799561738967896e+01 -7.896557249128761669e-01
-3.964770365506410599e+00 -2.163770753145217896e+01 -7.980633176863136669e-01
-3.833178568631410599e+00 -2.237452393770217896e+01 -8.098278440535011669e-01
-3.653124857693910599e+00 -2.288062745332717896e+01 -8.160686887800636669e-01
-4.662402201443910599e+00 -1.909132081270217896e+01 -6.586437620222511669e-01
-4.545092631131410599e+00 -1.961121827363967896e+01 -6.641827024519386669e-01
-4.450610209256410599e+00 -2.029176026582717896e+01 -6.725902952253761669e-01
-4.343188334256410599e+00 -2.097779542207717896e+01 -6.808300413191261669e-01
-4.198046732693910599e+00 -2.152589112520217896e+01 -6.862469114363136669e-01
-4.065112162381410599e+00 -2.220435792207717896e+01 -6.938763059675636669e-01
-3.929614115506410599e+00 -2.295264893770217896e+01 -7.025127805769386669e-01
-3.773852396756410599e+00 -2.365552979707717896e+01 -7.100658811628761669e-01
-4.801562357693910599e+00 -1.970081788301467896e+01 -5.645122922956886669e-01
-4.696826029568910599e+00 -2.030848389863967896e+01 -5.689678587019386669e-01
-4.575610209256410599e+00 -2.089332276582717896e+01 -5.728741087019386669e-01
-4.437426615506410599e+00 -2.145325928926467896e+01 -5.762157835066261669e-01
-4.293017435818910599e+00 -2.203223878145217896e+01 -5.796337522566261669e-01
-4.166308451443910599e+00 -2.277576905488967896e+01 -5.851269163191261669e-01
-4.002368021756410599e+00 -2.338477784395217896e+01 -5.884991087019386669e-01
-3.850634623318910599e+00 -2.414210206270217896e+01 -5.936565794050636669e-01
-4.895190287381410599e+00 -2.010816651582717896e+01 -4.620495237410011669e-01
-4.801440287381410599e+00 -2.078663331270217896e+01 -4.644756712019386669e-01
-4.676806498318910599e+00 -2.137904053926467896e+01 -4.664287962019386669e-01
-4.526049662381410599e+00 -2.189967042207717896e+01 -4.669018186628761669e-01
-4.400073099881410599e+00 -2.260316163301467896e+01 -4.689159788191261669e-01
-4.240405131131410599e+00 -2.319093018770217896e+01 -4.696331419050636669e-01
-4.073901224881410599e+00 -2.380994874238967896e+01 -4.697552122175636669e-01
-3.922411967068910599e+00 -2.459620362520217896e+01 -4.717998899519386669e-01
-4.968188334256410599e+00 -2.042384034395217896e+01 -3.558636106550636669e-01
-4.880175638943910599e+00 -2.114405518770217896e+01 -3.554668821394386669e-01
-4.770312357693910599e+00 -2.182593995332717896e+01 -3.546581663191261669e-01
-4.632250834256410599e+00 -2.243543702363967896e+01 -3.532390989363136669e-01
-4.474535990506410599e+00 -2.299635010957717896e+01 -3.514233030378761669e-01
-4.306445170193910599e+00 -2.355897217988967896e+01 -3.494396604597511669e-01
-4.154101420193910599e+00 -2.428712159395217896e+01 -3.479595579206886669e-01
-3.993701029568910599e+00 -2.504688721895217896e+01 -3.464031614363136669e-01
-5.046679545193910599e+00 -2.076392823457717896e+01 -2.461529172956886669e-01
-4.955737162381410599e+00 -2.148682862520217896e+01 -2.431316770613136669e-01
-4.846850443631410599e+00 -2.219019776582717896e+01 -2.392864622175636669e-01
-4.705493021756410599e+00 -2.280189210176467896e+01 -2.351818479597511669e-01
-4.545580912381410599e+00 -2.337122803926467896e+01 -2.309246458113136669e-01
-4.375903178006410599e+00 -2.394581300020217896e+01 -2.264843381941261669e-01
-4.228564310818910599e+00 -2.472852784395217896e+01 -2.217693723738136669e-01
-4.050952006131410599e+00 -2.540577393770217896e+01 -2.161999143660011669e-01
-5.129199076443910599e+00 -2.112147217988967896e+01 -1.337871946394386669e-01
-5.030444193631410599e+00 -2.182471925020217896e+01 -1.270122922956886669e-01
-4.909106303006410599e+00 -2.248475342988967896e+01 -1.202068723738136669e-01
-4.781054545193910599e+00 -2.317994385957717896e+01 -1.130352415144386669e-01
-4.615283060818910599e+00 -2.373817139863967896e+01 -1.063213743269386669e-01
-4.459765482693910599e+00 -2.441614991426467896e+01 -9.885982647537616685e-02
-4.291552592068910599e+00 -2.510010987520217896e+01 -9.116939678787616685e-02
-4.110156107693910599e+00 -2.577589112520217896e+01 -8.332637920975116685e-02
-5.209399271756410599e+00 -2.146839600801467896e+01 -1.756099835037616685e-02
-5.100024271756410599e+00 -2.213917237520217896e+01 -8.543054014438666854e-03
-4.973193217068910599e+00 -2.278785401582717896e+01 1.069983094936333146e-03
-4.843676615506410599e+00 -2.349158936738967896e+01 1.138492450118633315e-02
-4.686450053006410599e+00 -2.411341553926467896e+01 2.110477313399883315e-02
-4.528002787381410599e+00 -2.479517823457717896e+01 3.157230243087383315e-02
-4.351244974881410599e+00 -2.545045167207717896e+01 4.197879657149883315e-02
-4.173876810818910599e+00 -2.617579346895217896e+01 5.397220477462383315e-02
-5.286547709256410599e+00 -2.180164796113967896e+01 1.011066041886863331e-01
-5.163378763943910599e+00 -2.242420655488967896e+01 1.130694948136863331e-01
-5.039233256131410599e+00 -2.309998780488967896e+01 1.259173952043113331e-01
-4.906054545193910599e+00 -2.380128175020217896e+01 1.393146120011863331e-01
-4.759814310818910599e+00 -2.449976807832717896e+01 1.528491578996238331e-01
-4.590868998318910599e+00 -2.514393311738967896e+01 1.657886110246238331e-01
-4.411913920193910599e+00 -2.580750733613967896e+01 1.791705690324363331e-01
-4.234301615506410599e+00 -2.655408936738967896e+01 1.939105592668113331e-01
-5.352343607693910599e+00 -2.208448487520217896e+01 2.226123414933738331e-01
-5.226977396756410599e+00 -2.271009522676467896e+01 2.373675905168113331e-01
-5.104907084256410599e+00 -2.341029053926467896e+01 2.530078493058738331e-01
-4.969286967068910599e+00 -2.411549073457717896e+01 2.695483766496238331e-01
-4.821215678006410599e+00 -2.482081300020217896e+01 2.862720094621238331e-01
-4.654345560818910599e+00 -2.549512940645217896e+01 3.025683961808738331e-01
-4.477953959256410599e+00 -2.619605714082717896e+01 3.202685914933738331e-01
-4.292529154568910599e+00 -2.691761475801467896e+01 3.378009401261863331e-01
-5.418871928006410599e+00 -2.237073975801467896e+01 3.468341432511863331e-01
-5.295214701443910599e+00 -2.301783448457717896e+01 3.641986452043113331e-01
-5.170214701443910599e+00 -2.371851807832717896e+01 3.835773073136863331e-01
-5.028735209256410599e+00 -2.440968018770217896e+01 4.029101930558738331e-01
-4.881762553006410599e+00 -2.513697510957717896e+01 4.232349000871238331e-01
-4.719042826443910599e+00 -2.585389405488967896e+01 4.434833131730613331e-01
-4.541552592068910599e+00 -2.656995850801467896e+01 4.638843141496238331e-01
-4.347827006131410599e+00 -2.726148682832717896e+01 4.845904909074363331e-01
-1.158740092068910599e+00 -6.630749523639678955e+00 -8.447399534285011669e-01
-1.068163920193910599e+00 -6.673718273639678955e+00 -8.448467649519386669e-01
-9.763670451939105988e-01 -6.711682140827178955e+00 -8.448467649519386669e-01
-8.835936076939105988e-01 -6.749890148639678955e+00 -8.448467649519386669e-01
-7.906980998814105988e-01 -6.788220226764678955e+00 -8.448620237410011669e-01
-6.984129436314105988e-01 -6.836804211139678955e+00 -8.455028928816261669e-01
-6.050291545689105988e-01 -6.887097179889678955e+00 -8.462047971785011669e-01
-5.109129436314105988e-01 -6.933728039264678955e+00 -8.469219602644386669e-01
-1.274828959256410599e+00 -7.387707531452178955e+00 -8.457775510847511669e-01
-1.177538920193910599e+00 -7.436901867389678955e+00 -8.461590208113136669e-01
-1.080126810818910599e+00 -7.491345226764678955e+00 -8.465710081160011669e-01
-9.808836467564105988e-01 -7.541394054889678955e+00 -8.469524778425636669e-01
-8.813963420689105988e-01 -7.591687023639678955e+00 -8.473492063581886669e-01
-7.810545451939105988e-01 -7.642590343952178955e+00 -8.477459348738136669e-01
-6.805906780064105988e-01 -7.703625500202178955e+00 -8.489666379988136669e-01
-5.800047405064105988e-01 -7.770275890827178955e+00 -8.502483762800636669e-01
-1.413500834256410599e+00 -8.291882336139678955e+00 -8.478985227644386669e-01
-1.310473490506410599e+00 -8.365979015827178955e+00 -8.492412962019386669e-01
-1.206347513943910599e+00 -8.440808117389678955e+00 -8.506145872175636669e-01
-1.100756693631410599e+00 -8.516735851764678955e+00 -8.520031370222511669e-01
-9.924803264439105988e-01 -8.577648937702178955e+00 -8.525524534285011669e-01
-8.823729045689105988e-01 -8.628796398639678955e+00 -8.525524534285011669e-01
-7.712889201939105988e-01 -8.682141125202178955e+00 -8.526440061628761669e-01
-6.609373576939105988e-01 -8.749646008014678955e+00 -8.534832395613136669e-01
-1.588305521756410599e+00 -9.431896984577178955e+00 -8.538189329206886669e-01
-1.473925638943910599e+00 -9.507702648639678955e+00 -8.543987669050636669e-01
-1.357470560818910599e+00 -9.577038586139678955e+00 -8.549328245222511669e-01
-1.239672709256410599e+00 -9.647106945514678955e+00 -8.554668821394386669e-01
-1.121142435818910599e+00 -9.717663586139678955e+00 -8.560009397566261669e-01
-1.001513529568910599e+00 -9.788830578327178955e+00 -8.565502561628761669e-01
-8.804197795689105988e-01 -9.860852062702178955e+00 -8.570995725691261669e-01
-7.583494670689105988e-01 -9.930065929889678955e+00 -8.578014768660011669e-01
-1.776049662381410599e+00 -1.065589600801467896e+01 -8.526897825300636669e-01
-1.651293803006410599e+00 -1.074561768770217896e+01 -8.536358274519386669e-01
-1.525195170193910599e+00 -1.083643800020217896e+01 -8.546123899519386669e-01
-1.397143412381410599e+00 -1.092847901582717896e+01 -8.555889524519386669e-01
-1.268237162381410599e+00 -1.102125245332717896e+01 -8.565807737410011669e-01
-1.137743998318910599e+00 -1.111500245332717896e+01 -8.575725950300636669e-01
-1.005419779568910599e+00 -1.121021729707717896e+01 -8.585796751081886669e-01
-8.726072795689105988e-01 -1.131300050020217896e+01 -8.599071897566261669e-01
-2.016161967068910599e+00 -1.222071534395217896e+01 -8.545971311628761669e-01
-1.891161967068910599e+00 -1.242042237520217896e+01 -8.589916624128761669e-01
-1.760302592068910599e+00 -1.260474854707717896e+01 -8.630505003035011669e-01
-1.620165873318910599e+00 -1.274378663301467896e+01 -8.651867307722511669e-01
-1.478198099881410599e+00 -1.288465577363967896e+01 -8.673534788191261669e-01
-1.330126810818910599e+00 -1.298914796113967896e+01 -8.679943479597511669e-01
-1.178393412381410599e+00 -1.307874757051467896e+01 -8.679943479597511669e-01
-1.025073099881410599e+00 -1.315882569551467896e+01 -8.679943479597511669e-01
-2.306689310818910599e+00 -1.411451417207717896e+01 -8.536358274519386669e-01
-2.153735209256410599e+00 -1.425306397676467896e+01 -8.549175657331886669e-01
-2.006396342068910599e+00 -1.445289307832717896e+01 -8.583660520613136669e-01
-1.856860209256410599e+00 -1.466895753145217896e+01 -8.623028196394386669e-01
-1.702197123318910599e+00 -1.486854249238967896e+01 -8.655682004988136669e-01
-1.542162943631410599e+00 -1.505213624238967896e+01 -8.681927122175636669e-01
-1.378588724881410599e+00 -1.523975831270217896e+01 -8.708782590925636669e-01
-1.217333842068910599e+00 -1.548768311738967896e+01 -8.756237424910011669e-01
-3.420458842068910599e+00 -2.139100342988967896e+01 -1.007780114561313667e+00
-3.218310404568910599e+00 -2.170399171113967896e+01 -1.012479821592563667e+00
-3.011767435818910599e+00 -2.202711182832717896e+01 -1.016767541319126167e+00
-2.812304545193910599e+00 -2.246351319551467896e+01 -1.025053063780063667e+00
-2.617236185818910599e+00 -2.300538331270217896e+01 -1.036481896787876167e+00
-2.409594584256410599e+00 -2.352540284395217896e+01 -1.047010461241001167e+00
-1.728686381131410599e+00 -1.902357178926467896e+01 -9.037151731550636669e-01
-2.056078959256410599e+00 -2.568714600801467896e+01 -1.102293054014438667e+00
-3.525927592068910599e+00 -2.206812745332717896e+01 -9.132061399519386669e-01
-3.326342631131410599e+00 -2.244715577363967896e+01 -9.182415403425636669e-01
-3.141650248318910599e+00 -2.299146729707717896e+01 -9.275646604597511669e-01
-2.997485209256410599e+00 -2.395948487520217896e+01 -9.479809202253761669e-01
-2.809130717068910599e+00 -2.469385987520217896e+01 -9.618206419050636669e-01
-2.605517435818910599e+00 -2.541846925020217896e+01 -9.751110471785011669e-01
-2.365893412381410599e+00 -2.591431885957717896e+01 -9.821300901472511669e-01
-2.107104349881410599e+00 -2.627760010957717896e+01 -9.855480588972511669e-01
-3.652636576443910599e+00 -2.288331300020217896e+01 -8.161144651472511669e-01
-3.489306498318910599e+00 -2.357301026582717896e+01 -8.263378538191261669e-01
-3.291430521756410599e+00 -2.410364991426467896e+01 -8.327618040144386669e-01
-3.080126810818910599e+00 -2.461500245332717896e+01 -8.385143674910011669e-01
-2.903124857693910599e+00 -2.550989991426467896e+01 -8.524914182722511669e-01
-2.680590678006410599e+00 -2.612904053926467896e+01 -8.601513303816261669e-01
-2.445971537381410599e+00 -2.675562745332717896e+01 -8.677044309675636669e-01
-2.198901224881410599e+00 -2.736427003145217896e+01 -8.746471799910011669e-01
-3.773608256131410599e+00 -2.365943604707717896e+01 -7.101116575300636669e-01
-3.579272318631410599e+00 -2.418800050020217896e+01 -7.142467893660011669e-01
-3.369677592068910599e+00 -2.467628175020217896e+01 -7.174663938581886669e-01
-3.185717631131410599e+00 -2.545802003145217896e+01 -7.255993284285011669e-01
-2.976977396756410599e+00 -2.614503175020217896e+01 -7.318249143660011669e-01
-2.758349467068910599e+00 -2.686451417207717896e+01 -7.383556760847511669e-01
-2.515429545193910599e+00 -2.748035889863967896e+01 -7.428417600691261669e-01
-2.304614115506410599e+00 -2.861597901582717896e+01 -7.557659544050636669e-01
-3.850634623318910599e+00 -2.414893800020217896e+01 -5.937328733503761669e-01
-3.661913920193910599e+00 -2.475013428926467896e+01 -5.964184202253761669e-01
-3.468066263943910599e+00 -2.540052491426467896e+01 -5.995312131941261669e-01
-3.257739115506410599e+00 -2.602637940645217896e+01 -6.020641721785011669e-01
-3.030566263943910599e+00 -2.659949952363967896e+01 -6.037273801863136669e-01
-2.828417826443910599e+00 -2.752344971895217896e+01 -6.095562376081886669e-01
-2.605883646756410599e+00 -2.843116456270217896e+01 -6.148205198347511669e-01
-2.365160990506410599e+00 -2.931885987520217896e+01 -6.195202268660011669e-01
-3.922289896756410599e+00 -2.460218507051467896e+01 -4.718304075300636669e-01
-3.748950053006410599e+00 -2.534290772676467896e+01 -4.729748167097511669e-01
-3.537646342068910599e+00 -2.590638428926467896e+01 -4.730968870222511669e-01
-3.314868021756410599e+00 -2.647156983613967896e+01 -4.723034299910011669e-01
-3.102099467068910599e+00 -2.721253663301467896e+01 -4.727459348738136669e-01
-2.897753763943910599e+00 -2.817481690645217896e+01 -4.746532835066261669e-01
-2.667651224881410599e+00 -2.906983643770217896e+01 -4.748974241316261669e-01
-2.416552592068910599e+00 -2.990906983613967896e+01 -4.751873411238136669e-01
-3.993578959256410599e+00 -2.505250245332717896e+01 -3.464031614363136669e-01
-3.811572123318910599e+00 -2.576405030488967896e+01 -3.440838254988136669e-01
-3.601000834256410599e+00 -2.636512452363967896e+01 -3.410931028425636669e-01
-3.371142435818910599e+00 -2.691041260957717896e+01 -3.376903928816261669e-01
-3.177050638943910599e+00 -2.785474854707717896e+01 -3.354626096785011669e-01
-2.948290873318910599e+00 -2.864051514863967896e+01 -3.323955930769386669e-01
-2.725878763943910599e+00 -2.966968995332717896e+01 -3.297710813581886669e-01
-2.485400248318910599e+00 -3.070777589082717896e+01 -3.268261350691261669e-01
-4.050707865506410599e+00 -2.541029053926467896e+01 -2.161846555769386669e-01
-3.870776224881410599e+00 -2.616126710176467896e+01 -2.113171018660011669e-01
-3.659716654568910599e+00 -2.678834229707717896e+01 -2.056255735456886669e-01
-3.450732279568910599e+00 -2.753712159395217896e+01 -1.995678342878761669e-01
-3.227099467068910599e+00 -2.827564698457717896e+01 -1.932812131941261669e-01
-3.008349467068910599e+00 -2.919959717988967896e+01 -1.865063108503761669e-01
-2.784228373318910599e+00 -3.027027589082717896e+01 -1.791515745222511669e-01
-2.535082865506410599e+00 -3.127467042207717896e+01 -1.707287229597511669e-01
-4.109911967068910599e+00 -2.578150635957717896e+01 -8.328060284256366685e-02
-3.927783060818910599e+00 -2.654237061738967896e+01 -7.426265850662616685e-02
-3.720507670193910599e+00 -2.722633057832717896e+01 -6.542781963943866685e-02
-3.506152201443910599e+00 -2.796766358613967896e+01 -5.602840557693866685e-02
-3.276782084256410599e+00 -2.869312745332717896e+01 -4.649166241287616685e-02
-3.066699076443910599e+00 -2.974085694551467896e+01 -3.478817120193866685e-02
-2.835742045193910599e+00 -3.079444581270217896e+01 -2.267269268631366685e-02
-2.586230326443910599e+00 -3.185792237520217896e+01 -1.017574444412616685e-02
-4.173754740506410599e+00 -2.618177491426467896e+01 5.404849871993633315e-02
-3.983813334256410599e+00 -2.691712647676467896e+01 6.550784930587383315e-02
-3.780810404568910599e+00 -2.766053467988967896e+01 7.800479754806133315e-02
-3.558886576443910599e+00 -2.837476807832717896e+01 9.045596942306133315e-02
-3.339037943631410599e+00 -2.922047120332717896e+01 1.044940553605613331e-01
-3.119677592068910599e+00 -3.022913819551467896e+01 1.205310426652488331e-01
-2.888232279568910599e+00 -3.132960206270217896e+01 1.379108034074363331e-01
-2.645312357693910599e+00 -3.253431397676467896e+01 1.576251588761863331e-01
-4.234057474881410599e+00 -2.655958253145217896e+01 1.940173707902488331e-01
-4.038134623318910599e+00 -2.727821046113967896e+01 2.092761598527488331e-01
-3.834033060818910599e+00 -2.804053956270217896e+01 2.254046998918113331e-01
-3.613207865506410599e+00 -2.879530030488967896e+01 2.416705690324363331e-01
-3.401293803006410599e+00 -2.974708253145217896e+01 2.611255250871238331e-01
-3.171313334256410599e+00 -3.070264893770217896e+01 2.809314332902488331e-01
-2.942797709256410599e+00 -3.188502198457717896e+01 3.045520387589988331e-01
-2.697924662381410599e+00 -3.313306885957717896e+01 3.295306764543113331e-01
-4.292285013943910599e+00 -2.692286378145217896e+01 3.379230104386863331e-01
-4.089526224881410599e+00 -2.761951905488967896e+01 3.560046754777488331e-01
-3.887866068631410599e+00 -2.842518311738967896e+01 3.756274782121238331e-01
-3.670825053006410599e+00 -2.924146729707717896e+01 3.964709840714988331e-01
-3.453539896756410599e+00 -3.018507081270217896e+01 4.200458131730613331e-01
-3.229052592068910599e+00 -3.123548585176467896e+01 4.460162721574363331e-01
-2.996630717068910599e+00 -3.243165284395217896e+01 4.761218629777488331e-01
-2.751757670193910599e+00 -3.374354249238967896e+01 5.080585084855613331e-01
-4.347704935818910599e+00 -2.726697999238967896e+01 4.847430787980613331e-01
-4.145800638943910599e+00 -2.799415284395217896e+01 5.059070192277488331e-01
-3.943408060818910599e+00 -2.882191163301467896e+01 5.304431520402488331e-01
-3.730517435818910599e+00 -2.970374757051467896e+01 5.565509401261863331e-01
-3.509448099881410599e+00 -3.065394288301467896e+01 5.845508180558738331e-01
-3.288989115506410599e+00 -3.178846436738967896e+01 6.173419557511863331e-01
-3.053393412381410599e+00 -3.300989991426467896e+01 6.526202760636863331e-01
-2.806445170193910599e+00 -3.436439210176467896e+01 6.924457155168113331e-01
-5.106688030064105988e-01 -6.933850109577178955e+00 -8.469219602644386669e-01
-4.160643108189105988e-01 -6.983776867389678955e+00 -8.476543821394386669e-01
-3.202391155064105988e-01 -7.030285656452178955e+00 -8.483868040144386669e-01
-2.234373576939105988e-01 -7.077404797077178955e+00 -8.491192258894386669e-01
-1.260252483189105988e-01 -7.124646008014678955e+00 -8.498669065535011669e-01
-2.775864675641059875e-02 -7.172375500202178955e+00 -8.506145872175636669e-01
7.160658761858940125e-02 -7.220715343952178955e+00 -8.513775266706886669e-01
1.715821735560894012e-01 -7.265271008014678955e+00 -8.521404661238136669e-01
-5.796385295689105988e-01 -7.770642101764678955e+00 -8.502636350691261669e-01
-4.775877483189105988e-01 -7.832287609577178955e+00 -8.515148557722511669e-01
-3.743162639439105988e-01 -7.894787609577178955e+00 -8.525219358503761669e-01
-2.684813030064105988e-01 -7.935803234577178955e+00 -8.525219358503761669e-01
-1.622801311314105988e-01 -7.976818859577178955e+00 -8.525219358503761669e-01
-5.534653738141059875e-02 -8.018078625202178955e+00 -8.525371946394386669e-01
5.280775949358940125e-02 -8.055065929889678955e+00 -8.525371946394386669e-01
1.610841266810894012e-01 -8.096936047077178955e+00 -8.525371946394386669e-01
-6.605711467564105988e-01 -8.750134289264678955e+00 -8.534984983503761669e-01
-5.487547405064105988e-01 -8.813122570514678955e+00 -8.543529905378761669e-01
-4.357176311314105988e-01 -8.876843273639678955e+00 -8.552074827253761669e-01
-3.212156780064105988e-01 -8.941418468952178955e+00 -8.560924924910011669e-01
-2.059813030064105988e-01 -9.006359875202178955e+00 -8.569622434675636669e-01
-8.964829519391059875e-02 -9.072033703327178955e+00 -8.578625120222511669e-01
2.839369699358940125e-02 -9.138562023639678955e+00 -8.587627805769386669e-01
1.471681110560894012e-01 -9.205578625202178955e+00 -8.596630491316261669e-01
-7.579832561314105988e-01 -9.930920422077178955e+00 -8.578319944441261669e-01
-6.367674358189105988e-01 -1.002772217988967896e+01 -8.595104612410011669e-01
-5.133543498814105988e-01 -1.011829835176467896e+01 -8.611431516706886669e-01
-3.878660686314105988e-01 -1.021021729707717896e+01 -8.628063596785011669e-01
-2.609129436314105988e-01 -1.029810792207717896e+01 -8.642406858503761669e-01
-1.320066936314105988e-01 -1.037720948457717896e+01 -8.652172483503761669e-01
-1.269388943910598755e-03 -1.045753175020217896e+01 -8.662243284285011669e-01
1.356935016810894012e-01 -1.009718018770217896e+01 -8.466167844831886669e-01
-8.722410686314105988e-01 -1.131385499238967896e+01 -8.599377073347511669e-01
-7.380857951939105988e-01 -1.142420655488967896e+01 -8.617992796003761669e-01
-6.019773967564105988e-01 -1.153614503145217896e+01 -8.636913694441261669e-01
-4.634275920689105988e-01 -1.165015870332717896e+01 -8.656292356550636669e-01
-3.232908733189105988e-01 -1.176551514863967896e+01 -8.675823606550636669e-01
-1.809568889439105988e-01 -1.188258057832717896e+01 -8.695507444441261669e-01
6.787251681089401245e-03 -1.003016358613967896e+01 -7.866802610456886669e-01
1.354493610560894012e-01 -1.001612550020217896e+01 -7.833538450300636669e-01
-1.024462748318910599e+00 -1.315931397676467896e+01 -8.680096067488136669e-01
-8.708982951939105988e-01 -1.325440675020217896e+01 -8.680096067488136669e-01
-7.156248576939105988e-01 -1.335328370332717896e+01 -8.685131467878761669e-01
-5.591307170689105988e-01 -1.347095948457717896e+01 -8.697185911238136669e-01
-4.009275920689105988e-01 -1.358985596895217896e+01 -8.709240354597511669e-01
-2.405272014439105988e-01 -1.371046143770217896e+01 -8.721447385847511669e-01
6.787251681089401245e-03 -9.981701672077178955e+00 -7.253246702253761669e-01
1.347169391810894012e-01 -9.975964367389678955e+00 -7.227459348738136669e-01
-1.216845560818910599e+00 -1.548927003145217896e+01 -8.756695188581886669e-01
-1.051562357693910599e+00 -1.574769288301467896e+01 -8.808727659285011669e-01
-8.817625530064105988e-01 -1.601307374238967896e+01 -8.862286008894386669e-01
-7.064695842564105988e-01 -1.628419190645217896e+01 -8.916607297956886669e-01
-5.271482951939105988e-01 -1.656751710176467896e+01 -8.974132932722511669e-01
-3.424559123814105988e-01 -1.685609132051467896e+01 -9.032268919050636669e-01
6.176900118589401245e-03 -9.953381359577178955e+00 -6.654339231550636669e-01
1.338624469935894012e-01 -9.950207531452178955e+00 -6.626873411238136669e-01
-2.055224467068910599e+00 -2.568934327363967896e+01 -1.102338830381626167e+00
-1.794970560818910599e+00 -2.604603272676467896e+01 -1.107297936826938667e+00
-1.512377787381410599e+00 -2.615284425020217896e+01 -1.103864709287876167e+00
-1.005541849881410599e+00 -2.200220948457717896e+01 -9.739666379988136669e-01
-7.511473186314105988e-01 -2.185755616426467896e+01 -9.645977415144386669e-01
-5.171385295689105988e-01 -2.225281983613967896e+01 -9.711895383894386669e-01
5.322407931089401245e-03 -9.939221203327178955e+00 -6.062298215925636669e-01
1.328858844935894012e-01 -9.935803234577178955e+00 -6.035137571394386669e-01
-2.106249857693910599e+00 -2.627979737520217896e+01 -9.855785764753761669e-01
-1.884814310818910599e+00 -2.725684815645217896e+01 -1.004758874326938667e+00
-1.672900248318910599e+00 -2.869581300020217896e+01 -1.035306970030063667e+00
-1.406176615506410599e+00 -2.965406495332717896e+01 -1.053098718076938667e+00
-1.109789896756410599e+00 -3.032716065645217896e+01 -1.063398400694126167e+00
-8.380613811314105988e-01 -3.217542725801467896e+01 -1.102644006162876167e+00
1.960463449358940125e-02 -9.244274914264678955e+00 -5.300579465925636669e-01
1.406983844935894012e-01 -9.200085461139678955e+00 -5.265331663191261669e-01
-2.198168803006410599e+00 -2.736817628145217896e+01 -8.747082151472511669e-01
-1.999316263943910599e+00 -2.880640870332717896e+01 -8.989696897566261669e-01
-1.756030131131410599e+00 -2.998914796113967896e+01 -9.173107542097511669e-01
-1.462084818631410599e+00 -3.067030030488967896e+01 -9.247875608503761669e-01
-1.188036967068910599e+00 -3.211280518770217896e+01 -9.476147092878761669e-01
-8.840818889439105988e-01 -3.350684815645217896e+01 -9.688854612410011669e-01
1.911635324358940125e-02 -9.218762218952178955e+00 -4.740124143660011669e-01
1.398438923060894012e-01 -9.178723156452178955e+00 -4.708080686628761669e-01
-2.304369974881410599e+00 -2.862659913301467896e+01 -7.559185422956886669e-01
-2.056445170193910599e+00 -2.955946046113967896e+01 -7.650280393660011669e-01
-1.817431498318910599e+00 -3.093006592988967896e+01 -7.808819212019386669e-01
-1.535082865506410599e+00 -3.201038819551467896e+01 -7.915172971785011669e-01
-1.234423685818910599e+00 -3.313587647676467896e+01 -8.024578489363136669e-01
-9.229002483189105988e-01 -3.460731202363967896e+01 -8.183880247175636669e-01
1.875014230608940125e-02 -9.186779797077178955e+00 -4.178295530378761669e-01
1.391114704310894012e-01 -9.148693859577178955e+00 -4.148693479597511669e-01
-2.364428568631410599e+00 -2.932423096895217896e+01 -6.195660032331886669e-01
-2.121264506131410599e+00 -3.041700440645217896e+01 -6.262035764753761669e-01
-1.869189310818910599e+00 -3.171265870332717896e+01 -6.347942747175636669e-01
-1.583788920193910599e+00 -3.288294678926467896e+01 -6.414165891706886669e-01
-1.281786967068910599e+00 -3.417847901582717896e+01 -6.490307249128761669e-01
-9.644041545689105988e-01 -3.578736573457717896e+01 -6.596050657331886669e-01
1.801772043108940125e-02 -9.169079601764678955e+00 -3.623943723738136669e-01
1.382569782435894012e-01 -9.131481945514678955e+00 -3.596325315535011669e-01
-2.415942240506410599e+00 -2.991468507051467896e+01 -4.752025999128761669e-01
-2.178149271756410599e+00 -3.116285401582717896e+01 -4.778881467878761669e-01
-1.921679545193910599e+00 -3.250562745332717896e+01 -4.816265501081886669e-01
-1.635668803006410599e+00 -3.381312257051467896e+01 -4.837475217878761669e-01
-1.319384623318910599e+00 -3.498695069551467896e+01 -4.844952024519386669e-01
-9.951658733189105988e-01 -3.663001710176467896e+01 -4.878368772566261669e-01
1.350111886858940125e-02 -9.320446789264678955e+00 -3.078899778425636669e-01
1.352052204310894012e-01 -9.285900890827178955e+00 -3.053265012800636669e-01
-2.484789896756410599e+00 -3.071473389863967896e+01 -3.268261350691261669e-01
-2.223071146756410599e+00 -3.174146729707717896e+01 -3.231029905378761669e-01
-1.970873881131410599e+00 -3.324219971895217896e+01 -3.201580442488136669e-01
-1.678393412381410599e+00 -3.456519776582717896e+01 -3.162212766706886669e-01
-1.365649271756410599e+00 -3.599561768770217896e+01 -3.120251096785011669e-01
-1.026293803006410599e+00 -3.747498780488967896e+01 -3.073864378035011669e-01
1.228041574358940125e-02 -9.326428234577178955e+00 -2.520580686628761669e-01
1.342286579310894012e-01 -9.281628429889678955e+00 -2.496624387800636669e-01
-2.534472513943910599e+00 -3.128199464082717896e+01 -1.706982053816261669e-01
-2.283618021756410599e+00 -3.253370362520217896e+01 -1.626263059675636669e-01
-2.014575053006410599e+00 -3.388966065645217896e+01 -1.530285276472511669e-01
-1.724047709256410599e+00 -3.537086182832717896e+01 -1.426067747175636669e-01
-1.398730326443910599e+00 -3.669385987520217896e+01 -1.320476926863136669e-01
-1.054247904568910599e+00 -3.822352296113967896e+01 -1.204510129988136669e-01
1.130385324358940125e-02 -9.320080578327178955e+00 -1.962261594831886669e-01
1.330079548060894012e-01 -9.286022961139678955e+00 -1.937237180769386669e-01
-2.585619974881410599e+00 -3.186463624238967896e+01 -1.009945049881366685e-02
-2.334521342068910599e+00 -3.319178467988967896e+01 5.113562196498833146e-03
-2.061450053006410599e+00 -3.458668214082717896e+01 2.127261981368633315e-02
-1.765063334256410599e+00 -3.608619385957717896e+01 3.871341571212383315e-02
-1.435839701443910599e+00 -3.747950440645217896e+01 5.591007098556133315e-02
-1.080981303006410599e+00 -3.892652589082717896e+01 7.402225360274883315e-02
8.374165743589401245e-03 -9.404431164264678955e+00 -1.394634641706886669e-01
1.319093219935894012e-01 -9.291027843952178955e+00 -1.380596555769386669e-01
-2.644702006131410599e+00 -3.254176026582717896e+01 1.577319703996238331e-01
-2.381762553006410599e+00 -3.379896241426467896e+01 1.774310670793113331e-01
-2.106860209256410599e+00 -3.525831300020217896e+01 2.007617555558738331e-01
-1.804492045193910599e+00 -3.676783448457717896e+01 2.252368532121238331e-01
-1.468432474881410599e+00 -3.815955811738967896e+01 2.488421998918113331e-01
-1.108569193631410599e+00 -3.965369874238967896e+01 2.741870485246238331e-01
7.153462618589401245e-03 -9.406018078327178955e+00 -8.325008526443866685e-02
1.306886188685894012e-01 -9.297619640827178955e+00 -8.202938213943866685e-02
-2.697314310818910599e+00 -3.314149171113967896e+01 3.296832643449363331e-01
-2.434741068631410599e+00 -3.448255616426467896e+01 3.574237428605613331e-01
-2.151782084256410599e+00 -3.591859132051467896e+01 3.871631227433738331e-01
-1.843554545193910599e+00 -3.744251710176467896e+01 4.188556276261863331e-01
-1.501757670193910599e+00 -3.884974366426467896e+01 4.491748414933738331e-01
-1.139819193631410599e+00 -4.048853760957717896e+01 4.838122926652488331e-01
7.641743868589401245e-03 -9.339855968952178955e+00 -2.786068096756366685e-02
1.294679157435894012e-01 -9.307873547077178955e+00 -2.618221417068866685e-02
-2.751147318631410599e+00 -3.375184327363967896e+01 5.082416139543113331e-01
-2.484789896756410599e+00 -3.512330323457717896e+01 5.428180299699363331e-01
-2.197680521756410599e+00 -3.659595948457717896e+01 5.789966188371238331e-01
-1.881274271756410599e+00 -3.808790284395217896e+01 6.170520387589988331e-01
-1.536425638943910599e+00 -3.957130128145217896e+01 6.554431520402488331e-01
-1.174243021756410599e+00 -4.141480714082717896e+01 7.019519411027488331e-01
5.444478243589401245e-03 -9.385144054889678955e+00 2.928348407149883315e-02
1.281251423060894012e-01 -9.331433117389678955e+00 3.033634051681133315e-02
-2.805834818631410599e+00 -3.437269288301467896e+01 6.926745973527488331e-01
-2.534716654568910599e+00 -3.576197510957717896e+01 7.330951295793113331e-01
-2.244189310818910599e+00 -3.727845460176467896e+01 7.781390748918113331e-01
-1.921069193631410599e+00 -3.877027589082717896e+01 8.231067262589988331e-01
-1.576464701443910599e+00 -4.041578370332717896e+01 8.724841676652488331e-01
-1.226489115506410599e+00 -4.287366944551467896e+01 9.433154664933738331e-01
-8.317137248814105988e-01 -4.556873780488967896e+01 1.021181067079311333e+00
-3.783445842564105988e-01 -4.773841553926467896e+01 1.087526281923061333e+00
1.719483844935894012e-01 -7.265515148639678955e+00 -8.521557249128761669e-01
2.727784626185894012e-01 -7.312023937702178955e+00 -8.528271116316261669e-01
3.744630329310894012e-01 -7.348156750202178955e+00 -8.531017698347511669e-01
4.773683063685894012e-01 -7.384655773639678955e+00 -8.533916868269386669e-01
5.806397907435894012e-01 -7.421398937702178955e+00 -8.536663450300636669e-01
6.846436969935894012e-01 -7.458386242389678955e+00 -8.539562620222511669e-01
7.898683063685894012e-01 -7.495739758014678955e+00 -8.542309202253761669e-01
8.953370563685894012e-01 -7.528332531452178955e+00 -8.544903196394386669e-01
1.614503376185894012e-01 -8.097180187702178955e+00 -8.525371946394386669e-01
2.705811969935894012e-01 -8.141125500202178955e+00 -8.529339231550636669e-01
3.806886188685894012e-01 -8.198010265827178955e+00 -8.537731565535011669e-01
4.923829548060894012e-01 -8.250866711139678955e+00 -8.546276487410011669e-01
6.048097126185894012e-01 -8.309460461139678955e+00 -8.557873167097511669e-01
7.187013141810894012e-01 -8.371838390827178955e+00 -8.571453489363136669e-01
8.340577594935894012e-01 -8.429333508014678955e+00 -8.584576047956886669e-01
9.506349079310894012e-01 -8.493054211139678955e+00 -8.598461546003761669e-01
1.475343219935894012e-01 -9.206921398639678955e+00 -8.597240842878761669e-01
2.677735798060894012e-01 -9.267590343952178955e+00 -8.605785764753761669e-01
3.891114704310894012e-01 -9.330822765827178955e+00 -8.615246213972511669e-01
5.122804157435894012e-01 -9.394543468952178955e+00 -8.624706663191261669e-01
6.363038532435894012e-01 -9.458752453327178955e+00 -8.634167112410011669e-01
7.617921344935894012e-01 -9.523693859577178955e+00 -8.643780149519386669e-01
8.891114704310894012e-01 -9.589489758014678955e+00 -8.653545774519386669e-01
1.017285298556089401e+00 -9.655773937702178955e+00 -8.663311399519386669e-01
1.360597126185894012e-01 -1.009693604707717896e+01 -8.465862669050636669e-01
2.643556110560894012e-01 -1.060755616426467896e+01 -8.679027952253761669e-01
3.989991657435894012e-01 -1.066260987520217896e+01 -8.679027952253761669e-01
5.353517048060894012e-01 -1.071827393770217896e+01 -8.679180540144386669e-01
6.723145954310894012e-01 -1.077418214082717896e+01 -8.679180540144386669e-01
8.117188923060894012e-01 -1.086048585176467896e+01 -8.693066038191261669e-01
9.538087360560894012e-01 -1.095716553926467896e+01 -8.711223997175636669e-01
1.096997212618589401e+00 -1.104578858613967896e+01 -8.728924192488136669e-01
1.358155719935894012e-01 -1.001734620332717896e+01 -7.833996213972511669e-01
2.600831501185894012e-01 -1.223841553926467896e+01 -8.756542600691261669e-01
4.114503376185894012e-01 -1.234058839082717896e+01 -8.770885862410011669e-01
5.652589313685894012e-01 -1.243800050020217896e+01 -8.782635129988136669e-01
7.206544391810894012e-01 -1.253651124238967896e+01 -8.794536985456886669e-01
8.782472126185894012e-01 -1.264136964082717896e+01 -8.808727659285011669e-01
1.041333150118589401e+00 -1.280299073457717896e+01 -8.845959104597511669e-01
1.207348775118589401e+00 -1.296741944551467896e+01 -8.883800901472511669e-01
1.352052204310894012e-01 -9.977063000202178955e+00 -7.227764524519386669e-01
2.548341266810894012e-01 -1.427882081270217896e+01 -8.836346067488136669e-01
4.268311969935894012e-01 -1.443238526582717896e+01 -8.861217893660011669e-01
5.678224079310894012e-01 -1.265943604707717896e+01 -8.159923948347511669e-01
7.812013141810894012e-01 -1.474866944551467896e+01 -8.912487424910011669e-01
9.630860798060894012e-01 -1.491102296113967896e+01 -8.938732542097511669e-01
1.148999165743589401e+00 -1.507703858613967896e+01 -8.965588010847511669e-01
1.338818501681089401e+00 -1.526209717988967896e+01 -9.003429807722511669e-01
1.343507282435894012e-01 -9.951184093952178955e+00 -6.627178587019386669e-01
2.466554157435894012e-01 -1.763001710176467896e+01 -9.171276487410011669e-01
3.911866657435894012e-01 -1.015736085176467896e+01 -6.645794309675636669e-01
5.210694782435894012e-01 -1.013599854707717896e+01 -6.613140501081886669e-01
6.500977985560894012e-01 -1.011488038301467896e+01 -6.580944456160011669e-01
7.787599079310894012e-01 -1.009388428926467896e+01 -6.548748411238136669e-01
9.074220173060894012e-01 -1.007264405488967896e+01 -6.516399778425636669e-01
1.035351704806089401e+00 -1.005164796113967896e+01 -6.484356321394386669e-01
1.333741657435894012e-01 -9.936657726764678955e+00 -6.035290159285011669e-01
2.603272907435894012e-01 -1.013172608613967896e+01 -6.066570676863136669e-01
3.897218219935894012e-01 -1.011939698457717896e+01 -6.034374631941261669e-01
5.192384235560894012e-01 -1.009974366426467896e+01 -6.003246702253761669e-01
6.537599079310894012e-01 -1.029102784395217896e+01 -6.031933225691261669e-01
7.838868610560894012e-01 -1.026246339082717896e+01 -5.998058713972511669e-01
9.142579548060894012e-01 -1.024024659395217896e+01 -5.969219602644386669e-01
1.044140767306089401e+00 -1.022364503145217896e+01 -5.938854612410011669e-01
1.410645954310894012e-01 -9.199841320514678955e+00 -5.265179075300636669e-01
2.613038532435894012e-01 -9.168957531452178955e+00 -5.233898557722511669e-01
3.809327594935894012e-01 -9.141003429889678955e+00 -5.203533567488136669e-01
5.004395954310894012e-01 -9.114758312702178955e+00 -5.173473753035011669e-01
6.192140094935894012e-01 -9.090710461139678955e+00 -5.144176878035011669e-01
7.377442829310894012e-01 -9.071301281452178955e+00 -5.116100706160011669e-01
8.562745563685894012e-01 -9.052746593952178955e+00 -5.088177122175636669e-01
9.743165485560894012e-01 -9.037487804889678955e+00 -5.061016477644386669e-01
1.403321735560894012e-01 -9.178479015827178955e+00 -4.707928098738136669e-01
2.602052204310894012e-01 -9.149182140827178955e+00 -4.678326047956886669e-01
3.797120563685894012e-01 -9.122570812702178955e+00 -4.649334348738136669e-01
4.989747516810894012e-01 -9.094738781452178955e+00 -4.620190061628761669e-01
6.181153766810894012e-01 -9.091687023639678955e+00 -4.595928587019386669e-01
7.366456501185894012e-01 -9.072155773639678955e+00 -4.568615354597511669e-01
8.539552204310894012e-01 -9.026135265827178955e+00 -4.536114133894386669e-01
9.715089313685894012e-01 -9.008313000202178955e+00 -4.509258665144386669e-01
1.395997516810894012e-01 -9.148449718952178955e+00 -4.148540891706886669e-01
2.592286579310894012e-01 -9.119274914264678955e+00 -4.120312131941261669e-01
3.783692829310894012e-01 -9.092785656452178955e+00 -4.092388547956886669e-01
4.973878376185894012e-01 -9.067761242389678955e+00 -4.064922727644386669e-01
6.156739704310894012e-01 -9.045666515827178955e+00 -4.037914671003761669e-01
7.337159626185894012e-01 -9.024548351764678955e+00 -4.011211790144386669e-01
8.517579548060894012e-01 -9.004650890827178955e+00 -3.984661497175636669e-01
9.693116657435894012e-01 -8.988293468952178955e+00 -3.958721555769386669e-01
1.387452594935894012e-01 -9.131359875202178955e+00 -3.596325315535011669e-01
2.581300251185894012e-01 -9.102795422077178955e+00 -3.569317258894386669e-01
3.771485798060894012e-01 -9.076794445514678955e+00 -3.542766965925636669e-01
4.960450641810894012e-01 -9.053112804889678955e+00 -3.516369260847511669e-01
6.142091266810894012e-01 -9.031872570514678955e+00 -3.490429319441261669e-01
7.321290485560894012e-01 -9.012585461139678955e+00 -3.464641965925636669e-01
8.501710407435894012e-01 -8.995129406452178955e+00 -3.439159788191261669e-01
9.676026813685894012e-01 -8.979748547077178955e+00 -3.413982786238136669e-01
1.356935016810894012e-01 -9.285778820514678955e+00 -3.053112424910011669e-01
2.566651813685894012e-01 -9.256848156452178955e+00 -3.027019895613136669e-01
3.771485798060894012e-01 -9.230480968952178955e+00 -3.004131712019386669e-01
4.976319782435894012e-01 -9.206433117389678955e+00 -2.978496946394386669e-01
6.172608844935894012e-01 -9.184216320514678955e+00 -2.953014768660011669e-01
7.366456501185894012e-01 -9.163708508014678955e+00 -2.927685178816261669e-01
8.561524860560894012e-01 -9.145275890827178955e+00 -2.899609006941261669e-01
9.750489704310894012e-01 -9.128430187702178955e+00 -2.874584592878761669e-01
1.345948688685894012e-01 -9.281506359577178955e+00 -2.496624387800636669e-01
2.555665485560894012e-01 -9.253063976764678955e+00 -2.471752561628761669e-01
3.760499469935894012e-01 -9.227185070514678955e+00 -2.446880735456886669e-01
4.964112751185894012e-01 -9.203747570514678955e+00 -2.422161497175636669e-01
6.160401813685894012e-01 -9.182141125202178955e+00 -2.397594846785011669e-01
7.354249469935894012e-01 -9.162243664264678955e+00 -2.373180784285011669e-01
8.549317829310894012e-01 -9.144299328327178955e+00 -2.348766721785011669e-01
9.738282673060894012e-01 -9.127819836139678955e+00 -2.324352659285011669e-01
1.334962360560894012e-01 -9.285778820514678955e+00 -1.937237180769386669e-01
2.544679157435894012e-01 -9.257458508014678955e+00 -1.916485227644386669e-01
3.749513141810894012e-01 -9.231579601764678955e+00 -1.892834104597511669e-01
4.954347126185894012e-01 -9.208020031452178955e+00 -1.869030393660011669e-01
6.150636188685894012e-01 -9.186413586139678955e+00 -1.845379270613136669e-01
7.344483844935894012e-01 -9.166516125202178955e+00 -1.821575559675636669e-01
8.539552204310894012e-01 -9.148571789264678955e+00 -1.797924436628761669e-01
9.728517048060894012e-01 -9.132214367389678955e+00 -1.771221555769386669e-01
1.322755329310894012e-01 -9.290905773639678955e+00 -1.380443967878761669e-01
2.533692829310894012e-01 -9.262463390827178955e+00 -1.357860960066261669e-01
3.738526813685894012e-01 -9.236584484577178955e+00 -1.335277952253761669e-01
4.943360798060894012e-01 -9.213146984577178955e+00 -1.312389768660011669e-01
6.140870563685894012e-01 -9.191540539264678955e+00 -1.289654172956886669e-01
7.334718219935894012e-01 -9.171643078327178955e+00 -1.266765989363136669e-01
8.531007282435894012e-01 -9.153698742389678955e+00 -1.243725217878761669e-01
9.719972126185894012e-01 -9.137219250202178955e+00 -1.220531858503761669e-01
1.311769001185894012e-01 -9.297497570514678955e+00 -8.201412335037616685e-02
2.521485798060894012e-01 -9.269055187702178955e+00 -8.018306866287616685e-02
3.727540485560894012e-01 -9.243176281452178955e+00 -7.801632061600116685e-02
4.933595173060894012e-01 -9.219616711139678955e+00 -7.583431378006366685e-02
6.131104938685894012e-01 -9.198010265827178955e+00 -7.363704815506366685e-02
7.326173298060894012e-01 -9.178112804889678955e+00 -7.142452374100116685e-02
8.522462360560894012e-01 -9.160046398639678955e+00 -6.918148174881366685e-02
9.712647907435894012e-01 -9.143688976764678955e+00 -6.664852276443866685e-02
1.298341266810894012e-01 -9.307629406452178955e+00 -2.618221417068866685e-02
2.510499469935894012e-01 -9.276989758014678955e+00 -2.419857159256366685e-02
3.716554157435894012e-01 -9.250500500202178955e+00 -2.215389385818866685e-02
4.923829548060894012e-01 -9.227063000202178955e+00 -2.004818096756366685e-02
6.122560016810894012e-01 -9.205578625202178955e+00 -1.794246807693866685e-02
7.317628376185894012e-01 -9.185803234577178955e+00 -1.580623760818866685e-02
8.515138141810894012e-01 -9.167980968952178955e+00 -1.363948956131366685e-02
9.705323688685894012e-01 -9.151623547077178955e+00 -1.144222393631366685e-02
1.284913532435894012e-01 -9.331188976764678955e+00 3.033634051681133315e-02
2.498292438685894012e-01 -9.302258312702178955e+00 3.222843036056133315e-02
3.708009235560894012e-01 -9.275769054889678955e+00 3.387637957931133315e-02
4.916505329310894012e-01 -9.252575695514678955e+00 3.589053973556133315e-02
6.117677204310894012e-01 -9.231701672077178955e+00 3.793521746993633315e-02
7.316407673060894012e-01 -9.212780773639678955e+00 4.001041278243633315e-02
8.516358844935894012e-01 -9.196789562702178955e+00 4.245181903243633315e-02
9.711427204310894012e-01 -9.182141125202178955e+00 4.461856707931133315e-02
-3.770018108189105988e-01 -4.776026612520217896e+01 1.088121374696498833e+00
7.172865793108940125e-02 -6.502784425020217896e+01 1.550661047548061333e+00
7.296876423060894012e-01 -6.243934327363967896e+01 1.496309240907436333e+00
5.229005329310894012e-01 -1.118311768770217896e+01 1.431445680558738331e-01
6.621827594935894012e-01 -1.116016846895217896e+01 1.454486452043113331e-01
8.012208454310894012e-01 -1.114271241426467896e+01 1.479053102433738331e-01
8.927735798060894012e-01 -1.010303956270217896e+01 1.224536500871238331e-01
3.124340962618589401e+00 -4.720655518770217896e+01 1.146730383485561333e+00
8.957032673060894012e-01 -7.528698742389678955e+00 -8.545055784285011669e-01
1.002148579806089401e+00 -7.565319836139678955e+00 -8.547802366316261669e-01
1.109082173556089401e+00 -7.597302258014678955e+00 -8.550243772566261669e-01
1.217358540743589401e+00 -7.629650890827178955e+00 -8.552685178816261669e-01
1.326123189181089401e+00 -7.662243664264678955e+00 -8.555279172956886669e-01
1.435742329806089401e+00 -7.694958508014678955e+00 -8.557720579206886669e-01
1.546582173556089401e+00 -7.728161633014678955e+00 -8.560314573347511669e-01
1.657299946993589401e+00 -7.756237804889678955e+00 -8.562450803816261669e-01
9.510011188685894012e-01 -8.493420422077178955e+00 -8.598461546003761669e-01
1.068554829806089401e+00 -8.551403820514678955e+00 -8.611889280378761669e-01
1.187939595431089401e+00 -8.616101086139678955e+00 -8.626079954206886669e-01
1.307568501681089401e+00 -8.661022961139678955e+00 -8.631725706160011669e-01
1.427441548556089401e+00 -8.701306164264678955e+00 -8.634930051863136669e-01
1.548413228243589401e+00 -8.741955578327178955e+00 -8.637981809675636669e-01
1.669995259493589401e+00 -8.776867687702178955e+00 -8.640575803816261669e-01
1.793042134493589401e+00 -8.818249523639678955e+00 -8.643780149519386669e-01
1.017773579806089401e+00 -9.656384289264678955e+00 -8.663463987410011669e-01
1.147168111056089401e+00 -9.717541515827178955e+00 -8.673382200300636669e-01
1.277295064181089401e+00 -9.770153820514678955e+00 -8.678875364363136669e-01
1.408276509493589401e+00 -9.812634289264678955e+00 -8.678875364363136669e-01
1.539868306368589401e+00 -9.855358898639678955e+00 -8.678875364363136669e-01
1.674389790743589401e+00 -9.913464367389678955e+00 -8.686352171003761669e-01
1.812817525118589401e+00 -9.990124523639678955e+00 -8.702831663191261669e-01
1.952832173556089401e+00 -1.006776124238967896e+01 -8.719463743269386669e-01
1.097485493868589401e+00 -1.104664307832717896e+01 -8.729229368269386669e-01
1.243481587618589401e+00 -1.114722901582717896e+01 -8.748150266706886669e-01
1.391064595431089401e+00 -1.124000245332717896e+01 -8.766460813581886669e-01
1.541455220431089401e+00 -1.133460694551467896e+01 -8.785229124128761669e-01
1.532666157931089401e+00 -9.794812023639678955e+00 -8.061657346785011669e-01
1.662548970431089401e+00 -9.816540539264678955e+00 -8.049602903425636669e-01
2.005566548556089401e+00 -1.162647706270217896e+01 -8.842907346785011669e-01
2.163647603243589401e+00 -1.171680909395217896e+01 -8.861828245222511669e-01
1.207959126681089401e+00 -1.296851807832717896e+01 -8.884258665144386669e-01
1.374585103243589401e+00 -1.309144288301467896e+01 -8.907146848738136669e-01
1.543896626681089401e+00 -1.321412354707717896e+01 -8.929577268660011669e-01
1.715771626681089401e+00 -1.332691651582717896e+01 -8.947277463972511669e-01
1.526074361056089401e+00 -9.740490734577178955e+00 -7.455730833113136669e-01
1.655102681368589401e+00 -9.759899914264678955e+00 -7.441234983503761669e-01
2.124218892306089401e+00 -1.264063721895217896e+01 -8.583507932722511669e-01
2.437817525118589401e+00 -1.386109620332717896e+01 -9.047222532331886669e-01
1.339550923556089401e+00 -1.526405030488967896e+01 -9.004040159285011669e-01
1.542065571993589401e+00 -1.557728272676467896e+01 -9.081859983503761669e-01
1.747754048556089401e+00 -1.584644776582717896e+01 -9.146862424910011669e-01
1.951367329806089401e+00 -1.601905518770217896e+01 -9.175701536238136669e-01
1.521679829806089401e+00 -9.708386242389678955e+00 -6.859875120222511669e-01
1.654736470431089401e+00 -9.767468273639678955e+00 -6.858349241316261669e-01
2.126782368868589401e+00 -1.267530518770217896e+01 -7.875957883894386669e-01
