4.083351306617259979e-01 -9.372267156839370728e+00 -1.730096291285008192e-01
4.765724353492259979e-01 -9.391065984964370728e+00 -1.693627785425633192e-01
5.452980212867259979e-01 -9.410108953714370728e+00 -1.657006691675633192e-01
6.141456775367259979e-01 -9.429273992776870728e+00 -1.620233010035008192e-01
6.832374744117259979e-01 -9.445265203714370728e+00 -1.583306740503758192e-01
1.757911853492259979e-01 -9.956495672464370728e+00 -1.868798683863133192e-01
2.483009509742259979e-01 -9.981031805276870728e+00 -1.832025002222508192e-01
3.210548572242259979e-01 -1.000581207871437073e+01 -1.794946144800633192e-01
3.944191150367259979e-01 -1.003486481308937073e+01 -1.758019875269383192e-01
4.681495837867259979e-01 -1.006001129746437073e+01 -1.720635842066258192e-01
5.424904040992259979e-01 -1.008100739121437073e+01 -1.682488869410008192e-01
6.168312244117259979e-01 -1.010627594590187073e+01 -1.644647072535008192e-01
6.916603259742259979e-01 -1.013178864121437073e+01 -1.606652687769383192e-01
1.378273181617259979e-01 -1.078974762558937073e+01 -1.951196144800633192e-01
2.171730212867259979e-01 -1.081526032090187073e+01 -1.908929299097508192e-01
2.968849353492259979e-01 -1.084077301621437073e+01 -1.866357277613133192e-01
3.772072009742259979e-01 -1.086652985215187073e+01 -1.823480080347508192e-01
4.577736072242259979e-01 -1.089228668808937073e+01 -1.780450295191258192e-01
5.389503650367259979e-01 -1.091840973496437073e+01 -1.737115334253758192e-01
6.203712634742259979e-01 -1.094441071152687073e+01 -1.693627785425633192e-01
7.020363025367259979e-01 -1.097065582871437073e+01 -1.649987648706883192e-01
9.827653691172599792e-02 -1.164753571152687073e+01 -1.972711037378758192e-01
1.843361072242259979e-01 -1.168256989121437073e+01 -1.926782082300633192e-01
2.711280994117259979e-01 -1.171272125840187073e+01 -1.880547951441258192e-01
3.587745837867259979e-01 -1.174323883652687073e+01 -1.833703469019383192e-01
4.464210681617259979e-01 -1.177375641465187073e+01 -1.786858986597508192e-01
5.349220447242259979e-01 -1.180451813340187073e+01 -1.739709328394383192e-01
6.236671619117259979e-01 -1.183540192246437073e+01 -1.692254494410008192e-01
7.052101306617259979e-01 -1.137519684433937073e+01 -1.401574562769383192e-01
5.091325566172599792e-02 -1.267768707871437073e+01 -1.998345803003758192e-01
1.453956775367259979e-01 -1.271357575058937073e+01 -1.947839211206883192e-01
2.406105212867259979e-01 -1.274983063340187073e+01 -1.897027443628758192e-01
3.365577869117259979e-01 -1.278925934433937073e+01 -1.847131203394383192e-01
4.328712634742259979e-01 -1.283308258652687073e+01 -1.799066017847508192e-01
5.301613025367259979e-01 -1.287739410996437073e+01 -1.750543068628758192e-01
6.278175525367259979e-01 -1.292182770371437073e+01 -1.701867531519383192e-01
7.008155994117259979e-01 -1.130683746933937073e+01 -8.987974631600081921e-02
-1.427229121327400208e-02 -1.410310211777687073e+01 -2.110040138941258192e-01
9.156266972422599792e-02 -1.415522614121437073e+01 -2.053430031519383192e-01
1.983741931617259979e-01 -1.420014801621437073e+01 -1.996362160425633192e-01
3.062843494117259979e-01 -1.424555817246437073e+01 -1.938836525660008192e-01
4.146827869117259979e-01 -1.428291168808937073e+01 -1.877496193628758192e-01
5.240577869117259979e-01 -1.431477203965187073e+01 -1.813256691675633192e-01
6.327003650367259979e-01 -1.423115387558937073e+01 -1.700952004175633192e-01
6.969093494117259979e-01 -1.126569977402687073e+01 -4.160093772225081921e-02
-8.702619746327400208e-02 -1.568183746933937073e+01 -2.149407814722508192e-01
3.174821659922599792e-02 -1.573774567246437073e+01 -2.086083840113133192e-01
1.513771228492259979e-01 -1.579402008652687073e+01 -2.022149513941258192e-01
2.723488025367259979e-01 -1.585090485215187073e+01 -1.957604836206883192e-01
3.938087634742259979e-01 -1.590803375840187073e+01 -1.892754982691258192e-01
5.166114978492259979e-01 -1.596577301621437073e+01 -1.827142189722508192e-01
6.276954822242259979e-01 -1.411518707871437073e+01 -1.058404396753758192e-01
6.931251697242259979e-01 -1.123811188340187073e+01 6.052260519936680794e-03
8.082048222422599792e-02 -1.174030914902687073e+01 -7.253403542563319206e-03
1.832374744117259979e-01 -1.133442535996437073e+01 1.326966774649918079e-02
2.561134509742259979e-01 -1.176386871933937073e+01 4.663710715249180794e-03
3.516945056617259979e-01 -1.139106598496437073e+01 2.361512673087418079e-02
4.367775134742259979e-01 -1.138935700058937073e+01 2.968812477774918079e-02
5.219825915992259979e-01 -1.142732086777687073e+01 3.449464333243668079e-02
6.075538806617259979e-01 -1.146162262558937073e+01 3.917909157462418079e-02
6.895851306617259979e-01 -1.122053375840187073e+01 5.288148415274918079e-02
1.275734119117259979e-01 -1.060249176621437073e+01 7.709718239493668079e-02
2.059425525367259979e-01 -1.060871735215187073e+01 8.246827614493668079e-02
2.843116931617259979e-01 -1.061518707871437073e+01 8.782411110587418079e-02
3.630470447242259979e-01 -1.062800446152687073e+01 9.304261696524918079e-02
4.415382556617259979e-01 -1.064570465683937073e+01 9.809327614493668079e-02
5.206398181617259979e-01 -1.066718903183937073e+01 1.030981589574366808e-01
5.997413806617259979e-01 -1.069636383652687073e+01 1.078741599339991808e-01
6.798195056617259979e-01 -1.075263825058937073e+01 1.119635154027491808e-01
1.259864978492259979e-01 -1.056867828965187073e+01 1.213781882543116808e-01
2.041114978492259979e-01 -1.057465973496437073e+01 1.267645407933741808e-01
2.822364978492259979e-01 -1.058100739121437073e+01 1.321356345433741808e-01
3.606056384742259979e-01 -1.059419098496437073e+01 1.373693991918116808e-01
4.388527087867259979e-01 -1.061152496933937073e+01 1.424963523168116808e-01
5.175880603492259979e-01 -1.063215485215187073e+01 1.475775290746241808e-01
5.965675525367259979e-01 -1.066279450058937073e+01 1.524298239964991808e-01
6.761573962867259979e-01 -1.071723785996437073e+01 1.567938376683741808e-01
1.233009509742259979e-01 -1.056037750840187073e+01 1.650183249730616808e-01
2.013038806617259979e-01 -1.056672516465187073e+01 1.704046775121241808e-01
2.794288806617259979e-01 -1.057221832871437073e+01 1.758215476293116808e-01
3.576759509742259979e-01 -1.059028473496437073e+01 1.809942771214991808e-01
4.358009509742259979e-01 -1.060590973496437073e+01 1.862280417699366808e-01
5.145363025367259979e-01 -1.062592926621437073e+01 1.914160300511866808e-01
5.933937244117259979e-01 -1.064802399277687073e+01 1.965582419652491808e-01
6.728614978492259979e-01 -1.070356598496437073e+01 2.011358786839991808e-01
1.211036853492259979e-01 -1.054328766465187073e+01 2.084906150121241808e-01
1.989845447242259979e-01 -1.055012360215187073e+01 2.138922263402491808e-01
2.768654040992259979e-01 -1.055708160996437073e+01 2.192785788793116808e-01
3.549904040992259979e-01 -1.057038727402687073e+01 2.246038962621241808e-01
4.329933337867259979e-01 -1.058650055527687073e+01 2.298834372777491808e-01
5.116066150367259979e-01 -1.060713043808937073e+01 2.351324607152491808e-01
5.902198962867259979e-01 -1.063447418808937073e+01 2.402899314183741808e-01
6.695655994117259979e-01 -1.068855133652687073e+01 2.451117087621241808e-01
1.180519275367259979e-01 -1.054377594590187073e+01 2.518103171605616808e-01
1.959327869117259979e-01 -1.055048981308937073e+01 2.572271872777491808e-01
2.738136462867259979e-01 -1.055744782090187073e+01 2.624304343480616808e-01
3.519386462867259979e-01 -1.057148590683937073e+01 2.677862693089991808e-01
4.299415759742259979e-01 -1.058869782090187073e+01 2.731268454808741808e-01
5.085548572242259979e-01 -1.060957184433937073e+01 2.784521628636866808e-01
5.871681384742259979e-01 -1.063642731308937073e+01 2.839758445043116808e-01
6.663917712867259979e-01 -1.068330231308937073e+01 2.891027976293116808e-01
1.147560290992259979e-01 -1.054963532090187073e+01 2.948553611058741808e-01
1.922706775367259979e-01 -1.056782379746437073e+01 3.002111960668116808e-01
2.703956775367259979e-01 -1.057111969590187073e+01 3.056891013402491808e-01
3.490089587867259979e-01 -1.056806793808937073e+01 3.112433005589991808e-01
4.268898181617259979e-01 -1.058479157090187073e+01 3.166449118871241808e-01
5.055030994117259979e-01 -1.060529938340187073e+01 3.220617820043116808e-01
5.839943103492259979e-01 -1.063093414902687073e+01 3.274633933324366808e-01
6.632179431617259979e-01 -1.067280426621437073e+01 3.328344870824366808e-01
1.115822009742259979e-01 -1.055329743027687073e+01 3.381750632543116808e-01
1.890968494117259979e-01 -1.056989899277687073e+01 3.433935691136866808e-01
2.677101306617259979e-01 -1.055756989121437073e+01 3.489172507543116808e-01
3.459572009742259979e-01 -1.056623688340187073e+01 3.544104148168116808e-01
4.239601306617259979e-01 -1.058308258652687073e+01 3.598883200902491808e-01
5.024513415992259979e-01 -1.060346832871437073e+01 3.653967429418116808e-01
5.809425525367259979e-01 -1.062910309433937073e+01 3.709051657933741808e-01
6.600441150367259979e-01 -1.067036285996437073e+01 3.766882468480616808e-01
1.084083728492259979e-01 -1.055695953965187073e+01 3.812964011449366808e-01
1.859230212867259979e-01 -1.057441559433937073e+01 3.868048239964991808e-01
2.647804431617259979e-01 -1.055720368027687073e+01 3.922674704808741808e-01
3.427833728492259979e-01 -1.057063141465187073e+01 3.978064109105616808e-01
4.207863025367259979e-01 -1.058759918808937073e+01 4.033606101293116808e-01
4.992775134742259979e-01 -1.060700836777687073e+01 4.089605857152491808e-01
5.778907947242259979e-01 -1.063227692246437073e+01 4.145758200902491808e-01
6.569923572242259979e-01 -1.067256012558937073e+01 4.202978659886866808e-01
1.051124744117259979e-01 -1.056428375840187073e+01 4.246923972386866808e-01
1.831154040992259979e-01 -1.057002106308937073e+01 4.299719382543116808e-01
2.612404040992259979e-01 -1.057209625840187073e+01 4.354803611058741808e-01
3.394874744117259979e-01 -1.058601227402687073e+01 4.410955954808741808e-01
4.174904040992259979e-01 -1.060346832871437073e+01 4.467260886449366808e-01
4.962257556617259979e-01 -1.062299957871437073e+01 4.524023581761866808e-01
5.748390369117259979e-01 -1.064741364121437073e+01 4.581396628636866808e-01
6.540626697242259979e-01 -1.068720856308937073e+01 4.642736960668116808e-01
9.925309941172599792e-02 -1.062470856308937073e+01 4.684393454808741808e-01
1.776222400367259979e-01 -1.063142243027687073e+01 4.740393210668116808e-01
2.561134509742259979e-01 -1.063960114121437073e+01 4.796392966527491808e-01
3.349708728492259979e-01 -1.065217438340187073e+01 4.853308249730616808e-01
4.135841540992259979e-01 -1.066828766465187073e+01 4.910528708714991808e-01
4.926857165992259979e-01 -1.068684235215187073e+01 4.968512107152491808e-01
5.719093494117259979e-01 -1.070039215683937073e+01 5.025732566136866808e-01
6.514991931617259979e-01 -1.073798981308937073e+01 5.086615134496241808e-01
9.595720097422599792e-02 -1.063056793808937073e+01 5.121862937230616808e-01
1.743263415992259979e-01 -1.063764801621437073e+01 5.178015280980616808e-01
2.529396228492259979e-01 -1.064655914902687073e+01 5.234625388402491808e-01
3.316749744117259979e-01 -1.065925446152687073e+01 5.289709616918116808e-01
4.104103259742259979e-01 -1.067585602402687073e+01 5.347693015355616808e-01
4.896339587867259979e-01 -1.069453278183937073e+01 5.408880759496241808e-01
5.688575915992259979e-01 -1.071784821152687073e+01 5.468542624730616808e-01
6.485695056617259979e-01 -1.075971832871437073e+01 5.531866599339991808e-01
9.229509159922599792e-02 -1.064240875840187073e+01 5.560705710668116808e-01
1.709083728492259979e-01 -1.064948883652687073e+01 5.615026999730616808e-01
2.495216540992259979e-01 -1.065876618027687073e+01 5.671942282933741808e-01
3.283790759742259979e-01 -1.067133942246437073e+01 5.730078269261866808e-01
4.071144275367259979e-01 -1.068806305527687073e+01 5.788824607152491808e-01
4.864601306617259979e-01 -1.070686188340187073e+01 5.848486472386866808e-01
5.658058337867259979e-01 -1.073017731308937073e+01 5.909216452855616808e-01
6.458839587867259979e-01 -1.079731598496437073e+01 5.982763816136866808e-01
6.834816150367259979e-01 -9.445265203714370728e+00 -1.583306740503758192e-01
7.528175525367259979e-01 -9.465040594339370728e+00 -1.546227883081883192e-01
8.225197009742259979e-01 -9.481520086526870728e+00 -1.508996437769383192e-01
8.927101306617259979e-01 -9.494337469339370728e+00 -1.469018410425633192e-01
9.626564197242259979e-01 -9.502760320901870728e+00 -1.426293801050633192e-01
1.032968919724225998e+00 -9.511305242776870728e+00 -1.383416603785008192e-01
1.103281419724225998e+00 -9.519728094339370728e+00 -1.340539406519383192e-01
1.173471849411725998e+00 -9.525099188089370728e+00 -1.297662209253758192e-01
6.919044665992259979e-01 -1.013191071152687073e+01 -1.606652687769383192e-01
7.670997790992259979e-01 -1.015424957871437073e+01 -1.568200539331883192e-01
8.426613025367259979e-01 -1.017671051621437073e+01 -1.529443215113133192e-01
9.188331775367259979e-01 -1.019502106308937073e+01 -1.485803078394383192e-01
9.946388415992259979e-01 -1.020649567246437073e+01 -1.440331886988133192e-01
1.070810716599225998e+00 -1.021381989121437073e+01 -1.394402931910008192e-01
1.147104661911725998e+00 -1.022553864121437073e+01 -1.348779152613133192e-01
1.223764818161725998e+00 -1.023713532090187073e+01 -1.302850197535008192e-01
7.024025134742259979e-01 -1.097102203965187073e+01 -1.650140236597508192e-01
7.845558337867259979e-01 -1.099433746933937073e+01 -1.606194924097508192e-01
8.670753650367259979e-01 -1.101679840683937073e+01 -1.561639260035008192e-01
9.499611072242259979e-01 -1.102900543808937073e+01 -1.510980080347508192e-01
1.032724779099225998e+00 -1.104121246933937073e+01 -1.460473488550633192e-01
1.116098802536725998e+00 -1.105341950058937073e+01 -1.409509133081883192e-01
1.199472825974225998e+00 -1.106574860215187073e+01 -1.358697365503758192e-01
1.283090990036725998e+00 -1.107807770371437073e+01 -1.307580422144383192e-01
7.054542712867259979e-01 -1.137519684433937073e+01 -1.401421974878758192e-01
7.904152087867259979e-01 -1.137434235215187073e+01 -1.339471291285008192e-01
8.928322009742259979e-01 -1.191828766465187073e+01 -1.546227883081883192e-01
9.832863025367259979e-01 -1.193318024277687073e+01 -1.490991066675633192e-01
1.073740404099225998e+00 -1.194795075058937073e+01 -1.435754250269383192e-01
1.164804857224225998e+00 -1.196284332871437073e+01 -1.380212258081883192e-01
1.255869310349225998e+00 -1.197785797715187073e+01 -1.324670265894383192e-01
1.346933763474225998e+00 -1.198750153183937073e+01 -1.268975685816258192e-01
7.010597400367259979e-01 -1.130683746933937073e+01 -8.986448752693831921e-02
7.855323962867259979e-01 -1.130964508652687073e+01 -8.411192405037581921e-02
8.706154040992259979e-01 -1.132990875840187073e+01 -7.913755881600081921e-02
1.024179857224225998e+00 -1.303913727402687073e+01 -1.478936623316258192e-01
1.124887865036725998e+00 -1.307417145371437073e+01 -1.425225685816258192e-01
1.226084154099225998e+00 -1.310383453965187073e+01 -1.368462990503758192e-01
1.327158372849225998e+00 -1.312617340683937073e+01 -1.308495949488133192e-01
1.428598802536725998e+00 -1.314851227402687073e+01 -1.248223732691258192e-01
6.971534900367259979e-01 -1.126569977402687073e+01 -4.158567893318831921e-02
7.812599353492259979e-01 -1.126899567246437073e+01 -3.560423362068831921e-02
8.656105212867259979e-01 -1.127888336777687073e+01 -3.012632834725081921e-02
1.079111497849225998e+00 -1.451423493027687073e+01 -1.506555031519383192e-01
1.191782396286725998e+00 -1.454511871933937073e+01 -1.440789650660008192e-01
1.304941575974225998e+00 -1.456880035996437073e+01 -1.371819924097508192e-01
1.418222825974225998e+00 -1.459248200058937073e+01 -1.302697609644383192e-01
1.531382005661725998e+00 -1.460835114121437073e+01 -1.233575295191258192e-01
6.934913806617259979e-01 -1.123811188340187073e+01 6.067519308999180794e-03
7.772316150367259979e-01 -1.124152985215187073e+01 1.180482399649918079e-02
8.612159900367259979e-01 -1.124616852402687073e+01 1.751161110587418079e-02
1.143442552536725998e+00 -1.625178375840187073e+01 -1.492669533472508192e-01
1.271738450974225998e+00 -1.630891266465187073e+01 -1.424157570581883192e-01
1.403574388474225998e+00 -1.640266266465187073e+01 -1.366784523706883192e-01
1.537607591599225998e+00 -1.651228180527687073e+01 -1.313836525660008192e-01
1.673593919724225998e+00 -1.662336578965187073e+01 -1.259973000269383192e-01
6.899513415992259979e-01 -1.122053375840187073e+01 5.289674294181168079e-02
7.689308337867259979e-01 -1.101631012558937073e+01 6.510377419181168079e-02
8.574318103492259979e-01 -1.122749176621437073e+01 6.466126930899918079e-02
1.237192552536725998e+00 -1.876606598496437073e+01 -1.547753761988133192e-01
1.389048021286725998e+00 -1.888239899277687073e+01 -1.479089211206883192e-01
1.543466966599225998e+00 -1.899799957871437073e+01 -1.408441017847508192e-01
1.698618333786725998e+00 -1.910053864121437073e+01 -1.337487648706883192e-01
1.856699388474225998e+00 -1.921882477402687073e+01 -1.265160988550633192e-01
6.800636462867259979e-01 -1.075337067246437073e+01 1.119635154027491808e-01
7.635597400367259979e-01 -1.092268219590187073e+01 1.130926657933741808e-01
8.537697009742259979e-01 -1.121894684433937073e+01 1.111242820043116808e-01
1.370859544724225998e+00 -2.235285797715187073e+01 -1.647851418238133192e-01
1.561289232224225998e+00 -2.265351715683937073e+01 -1.598260353785008192e-01
1.754892747849225998e+00 -2.291108551621437073e+01 -1.534173439722508192e-01
1.955576341599225998e+00 -2.321943512558937073e+01 -1.479394386988133192e-01
2.175424974411725998e+00 -2.372053375840187073e+01 -1.465203713160008192e-01
6.765236072242259979e-01 -1.071809235215187073e+01 1.567938376683741808e-01
7.601417712867259979e-01 -1.091377106308937073e+01 1.581060935277491808e-01
8.504738025367259979e-01 -1.121638336777687073e+01 1.573736716527491808e-01
1.585092943161725998e+00 -2.808418121933937073e+01 -1.864221047144383192e-01
1.853159349411725998e+00 -2.903291168808937073e+01 -1.897637795191258192e-01
2.161264818161725998e+00 -3.040180817246437073e+01 -2.001244972925633192e-01
2.516977708786725998e+00 -3.217439118027687073e+01 -2.166039894800633192e-01
2.936411302536725998e+00 -3.441963043808937073e+01 -2.396752785425633192e-01
6.732277087867259979e-01 -1.070442047715187073e+01 2.011358786839991808e-01
7.569679431617259979e-01 -1.091389313340187073e+01 2.031195212621241808e-01
8.447364978492259979e-01 -1.113532868027687073e+01 2.051489402074366808e-01
2.224741380661725998e+00 -4.504109039902687073e+01 -3.359124611597508192e-01
3.049814622849225998e+00 -5.494282379746437073e+01 -4.640557717066258192e-01
4.323252122849225998e+00 -6.997944489121437073e+01 -6.572167824488133192e-01
5.331064622849225998e+00 -7.687800446152687073e+01 -7.158563088160008192e-01
6.341684740036725998e+00 -8.220722809433937073e+01 -7.447259377222508192e-01
6.698097400367259979e-01 -1.068891754746437073e+01 2.451269675511866808e-01
7.533058337867259979e-01 -1.088715973496437073e+01 2.482245017308741808e-01
8.411964587867259979e-01 -1.112727203965187073e+01 2.510473777074366808e-01
6.666359119117259979e-01 -1.068391266465187073e+01 2.891180564183741808e-01
7.492775134742259979e-01 -1.085078278183937073e+01 2.933905173558741808e-01
8.379005603492259979e-01 -1.112373200058937073e+01 2.968237448949366808e-01
6.634620837867259979e-01 -1.067329254746437073e+01 3.328497458714991808e-01
7.454933337867259979e-01 -1.082234039902687073e+01 3.379461814183741808e-01
8.348488025367259979e-01 -1.113252106308937073e+01 3.427526999730616808e-01
6.602882556617259979e-01 -1.067072907090187073e+01 3.767035056371241808e-01
7.423195056617259979e-01 -1.081696930527687073e+01 3.822729636449366808e-01
8.319191150367259979e-01 -1.114411774277687073e+01 3.885290671605616808e-01
6.572364978492259979e-01 -1.067292633652687073e+01 4.203131247777491808e-01
7.391456775367259979e-01 -1.081574860215187073e+01 4.267828513402491808e-01
8.293556384742259979e-01 -1.117024078965187073e+01 4.347326804418116808e-01
6.543068103492259979e-01 -1.068757477402687073e+01 4.643042136449366808e-01
7.363380603492259979e-01 -1.083332672715187073e+01 4.712317038793116808e-01
8.271583728492259979e-01 -1.120991364121437073e+01 4.810736228246241808e-01
6.517433337867259979e-01 -1.073847809433937073e+01 5.086920310277491808e-01
7.340187244117259979e-01 -1.088117828965187073e+01 5.165197898168116808e-01
8.264259509742259979e-01 -1.130378571152687073e+01 5.288336325902491808e-01
6.489357165992259979e-01 -1.076032868027687073e+01 5.532171775121241808e-01
7.315773181617259979e-01 -1.091633453965187073e+01 5.620062400121241808e-01
6.461280994117259979e-01 -1.079756012558937073e+01 5.983068991918116808e-01
7.291359119117259979e-01 -1.095869293808937073e+01 6.077215720433741808e-01
1.173715990036725998e+00 -9.525099188089370728e+00 -1.297509621363133192e-01
1.244516771286725998e+00 -9.534010320901870728e+00 -1.254327248316258192e-01
1.315195482224225998e+00 -9.539747625589370728e+00 -1.211144875269383192e-01
1.386362474411725998e+00 -9.545607000589370728e+00 -1.167657326441258192e-01
1.457529466599225998e+00 -9.551344305276870728e+00 -1.124322365503758192e-01
1.529062669724225998e+00 -9.557203680276870728e+00 -1.080529640894383192e-01
1.600717943161725998e+00 -9.563063055276870728e+00 -1.036889504175633192e-01
1.672007005661725998e+00 -9.565626531839370728e+00 -9.934019553475081921e-02
1.224008958786725998e+00 -1.023701325058937073e+01 -1.302697609644383192e-01
1.300547044724225998e+00 -1.024543610215187073e+01 -1.256616066675633192e-01
1.377451341599225998e+00 -1.025373688340187073e+01 -1.210229347925633192e-01
1.455332200974225998e+00 -1.026655426621437073e+01 -1.163690041285008192e-01
1.532724779099225998e+00 -1.027497711777687073e+01 -1.117150734644383192e-01
1.610239427536725998e+00 -1.027912750840187073e+01 -1.070153664331883192e-01
1.688242357224225998e+00 -1.028755035996437073e+01 -1.023156594019383192e-01
1.766489427536725998e+00 -1.029609528183937073e+01 -9.760069358162581921e-02
1.283335130661725998e+00 -1.107783356308937073e+01 -1.307427834253758192e-01
1.366953294724225998e+00 -1.108723297715187073e+01 -1.256310890894383192e-01
1.450937669724225998e+00 -1.109651032090187073e+01 -1.205041359644383192e-01
1.535532396286725998e+00 -1.110590973496437073e+01 -1.153466652613133192e-01
1.620127122849225998e+00 -1.111530914902687073e+01 -1.101739357691258192e-01
1.705332200974225998e+00 -1.112483063340187073e+01 -1.049859474878758192e-01
1.790415208786725998e+00 -1.113423004746437073e+01 -9.978270041756331921e-02
1.876840990036725998e+00 -1.115083160996437073e+01 -9.489988791756331921e-02
1.347177904099225998e+00 -1.198737946152687073e+01 -1.268823097925633192e-01
1.439096849411725998e+00 -1.200459137558937073e+01 -1.212670754175633192e-01
1.530893724411725998e+00 -1.201655426621437073e+01 -1.156670998316258192e-01
1.623423021286725998e+00 -1.202863922715187073e+01 -1.100213478785008192e-01
1.715952318161725998e+00 -1.204060211777687073e+01 -1.043603371363133192e-01
1.809214036911725998e+00 -1.205280914902687073e+01 -9.866880881600081921e-02
1.906015794724225998e+00 -1.209309235215187073e+01 -9.418272483162581921e-02
2.007456224411725998e+00 -1.216169586777687073e+01 -9.108519065193831921e-02
1.428965013474225998e+00 -1.314839020371437073e+01 -1.247918556910008192e-01
1.530527513474225998e+00 -1.316706696152687073e+01 -1.187341164331883192e-01
1.632700365036725998e+00 -1.318574371933937073e+01 -1.126458595972508192e-01
1.735727708786725998e+00 -1.320466461777687073e+01 -1.064965676050633192e-01
1.838877122849225998e+00 -1.322346344590187073e+01 -1.003472756128758192e-01
1.951303880661725998e+00 -1.331635895371437073e+01 -9.699034201912581921e-02
2.067758958786725998e+00 -1.342964020371437073e+01 -9.432005393318831921e-02
2.186533372849225998e+00 -1.354511871933937073e+01 -9.157347190193831921e-02
1.531748216599225998e+00 -1.460822907090187073e+01 -1.233270119410008192e-01
1.646372240036725998e+00 -1.463691559433937073e+01 -1.163384865503758192e-01
1.760996263474225998e+00 -1.465766754746437073e+01 -1.093499611597508192e-01
1.877817552536725998e+00 -1.469209137558937073e+01 -1.027581642847508192e-01
2.004404466599225998e+00 -1.481526032090187073e+01 -9.921812522225081921e-02
2.136606615036725998e+00 -1.496272125840187073e+01 -9.631895530037581921e-02
2.271372240036725998e+00 -1.511323395371437073e+01 -9.335875022225081921e-02
2.407724779099225998e+00 -1.525520172715187073e+01 -9.029173362068831921e-02
1.674082200974225998e+00 -1.662385407090187073e+01 -1.259973000269383192e-01
1.812021654099225998e+00 -1.673237457871437073e+01 -1.205041359644383192e-01
1.954355638474225998e+00 -1.686921539902687073e+01 -1.157586525660008192e-01
2.101328294724225998e+00 -1.702155914902687073e+01 -1.112878273706883192e-01
2.250742357224225998e+00 -1.717671051621437073e+01 -1.067254494410008192e-01
2.407724779099225998e+00 -1.736823883652687073e+01 -1.030175636988133192e-01
2.576670091599225998e+00 -1.763215485215187073e+01 -1.011712502222508192e-01
2.751352708786725998e+00 -1.790534821152687073e+01 -9.926390158943831921e-02
1.857187669724225998e+00 -1.921919098496437073e+01 -1.265008400660008192e-01
2.027353685349225998e+00 -1.946101227402687073e+01 -1.225488136988133192e-01
2.213999193161725998e+00 -1.983955231308937073e+01 -1.214654396753758192e-01
2.413095872849225998e+00 -2.027290192246437073e+01 -1.217400978785008192e-01
2.621347825974225998e+00 -2.072627106308937073e+01 -1.220452736597508192e-01
2.840830247849225998e+00 -2.120344391465187073e+01 -1.223504494410008192e-01
3.090952318161725998e+00 -2.186787262558937073e+01 -1.271417092066258192e-01
3.365854661911725998e+00 -2.263447418808937073e+01 -1.330316017847508192e-01
2.176523607224225998e+00 -2.372590485215187073e+01 -1.466119240503758192e-01
2.426157396286725998e+00 -2.449091950058937073e+01 -1.505639504175633192e-01
2.693857591599225998e+00 -2.531013336777687073e+01 -1.547906349878758192e-01
2.996469896286725998e+00 -2.633845368027687073e+01 -1.624352883081883192e-01
3.415659349411725998e+00 -2.831001129746437073e+01 -1.883447121363133192e-01
3.820200365036725998e+00 -2.985383453965187073e+01 -2.032983254175633192e-01
4.404917161911725998e+00 -3.266084137558937073e+01 -2.410485695581883192e-01
5.424692552536725998e+00 -3.843025055527687073e+01 -3.313500832300633192e-01
2.938608568161725998e+00 -3.443659821152687073e+01 -2.399194191675633192e-01
3.567148607224225998e+00 -3.881745758652687073e+01 -2.983605812769383192e-01
4.930307786911725998e+00 -5.066865387558937073e+01 -4.802148293238133192e-01
7.682627122849225998e+00 -7.478974762558937073e+01 -8.519189308863133192e-01
8.754282396286725998e+00 -7.911591950058937073e+01 -8.778741310816258192e-01
7.244394700974225998e+00 -6.006452789902687073e+01 -5.375268410425633192e-01
7.722666185349225998e+00 -5.992988434433937073e+01 -5.006921242456883192e-01
6.604257982224225998e+00 -4.756843414902687073e+01 -2.896325539331883192e-01
6.346323411911725998e+00 -8.223908844590187073e+01 -7.450158547144383192e-01
7.521738450974225998e+00 -8.850532379746437073e+01 -7.798058937769383192e-01
7.281626146286725998e+00 -6.056867828965187073e+01 -2.702844094019383192e-01
7.706797044724225998e+00 -5.996296539902687073e+01 -2.287347267847508192e-01
8.245493333786725998e+00 -6.030207672715187073e+01 -1.969354103785008192e-01
7.231211107224225998e+00 -6.029914703965187073e+01 4.907851340249180794e-03
7.759043138474225998e+00 -6.055708160996437073e+01 3.888917458243668079e-02
8.213877122849225998e+00 -6.021247711777687073e+01 7.624269020743668079e-02
7.750742357224225998e+00 -6.065510407090187073e+01 3.138830710668116808e-01
8.287729661911725998e+00 -6.093891754746437073e+01 3.496954489964991808e-01
8.269174974411725998e+00 -6.095173493027687073e+01 6.253149558324366808e-01
1.672251146286725998e+00 -9.565748602151870728e+00 -9.932493674568831921e-02
1.744394700974225998e+00 -9.571974188089370728e+00 -9.493040549568831921e-02
1.816294115036725998e+00 -9.575025945901870728e+00 -9.053587424568831921e-02
1.889780443161725998e+00 -9.585279852151870728e+00 -8.650755393318831921e-02
1.965219896286725998e+00 -9.606398016214370728e+00 -8.305906760506331921e-02
2.042612474411725998e+00 -9.633497625589370728e+00 -7.986998069100081921e-02
2.121958177536725998e+00 -9.669386297464370728e+00 -7.712339865975081921e-02
2.201303880661725998e+00 -9.701490789651870728e+00 -7.433104026131331921e-02
1.766733568161725998e+00 -1.029621735215187073e+01 -9.758543479256331921e-02
1.844736497849225998e+00 -1.030134430527687073e+01 -9.287046897225081921e-02
1.927744310349225998e+00 -1.033662262558937073e+01 -8.963560569100081921e-02
2.013559740036725998e+00 -1.038435211777687073e+01 -8.672117698006331921e-02
2.099619310349225998e+00 -1.042780914902687073e+01 -8.377623069100081921e-02
2.186045091599225998e+00 -1.046699371933937073e+01 -8.077024924568831921e-02
2.274057786911725998e+00 -1.051142731308937073e+01 -7.774900901131331921e-02
2.363169115036725998e+00 -1.055634918808937073e+01 -7.469725119881331921e-02
1.877207200974225998e+00 -1.115131989121437073e+01 -9.489988791756331921e-02
1.968027513474225998e+00 -1.119575348496437073e+01 -9.143614280037581921e-02
2.059946458786725998e+00 -1.124079743027687073e+01 -8.792662131600081921e-02
2.153208177536725998e+00 -1.128657379746437073e+01 -8.437132346443831921e-02
2.247324388474225998e+00 -1.133271637558937073e+01 -8.078550803475081921e-02
2.342783372849225998e+00 -1.137946930527687073e+01 -7.713865744881331921e-02
2.439096849411725998e+00 -1.142671051621437073e+01 -7.347654807381331921e-02
2.536508958786725998e+00 -1.147444000840187073e+01 -6.975340354256331921e-02
2.007822435349225998e+00 -1.216230621933937073e+01 -9.108519065193831921e-02
2.111826341599225998e+00 -1.224043121933937073e+01 -8.791136252693831921e-02
2.216806810349225998e+00 -1.231367340683937073e+01 -8.470701682381331921e-02
2.323740404099225998e+00 -1.238838043808937073e+01 -8.144163596443831921e-02
2.432016771286725998e+00 -1.246406403183937073e+01 -7.814573752693831921e-02
2.542490404099225998e+00 -1.254133453965187073e+01 -7.477354514412581921e-02
2.654428880661725998e+00 -1.261945953965187073e+01 -7.135557639412581921e-02
2.766855638474225998e+00 -1.269233551621437073e+01 -6.792234885506331921e-02
2.186899583786725998e+00 -1.354560700058937073e+01 -9.157347190193831921e-02
2.307505052536725998e+00 -1.365888825058937073e+01 -8.875059592537581921e-02
2.430673997849225998e+00 -1.377448883652687073e+01 -8.588194358162581921e-02
2.553354661911725998e+00 -1.387019196152687073e+01 -8.212828147225081921e-02
2.677866380661725998e+00 -1.396772614121437073e+01 -7.832884299568831921e-02
2.805063646286725998e+00 -1.406733551621437073e+01 -7.445311057381331921e-02
2.939707200974225998e+00 -1.419917145371437073e+01 -7.155394065193831921e-02
3.082163255661725998e+00 -1.435774078965187073e+01 -6.938719260506331921e-02
2.408213060349225998e+00 -1.525617828965187073e+01 -9.029173362068831921e-02
2.550424974411725998e+00 -1.542109528183937073e+01 -8.720945823006331921e-02
2.694590013474225998e+00 -1.557758942246437073e+01 -8.402037131600081921e-02
2.842783372849225998e+00 -1.573872223496437073e+01 -8.072447287850081921e-02
3.015268724411725998e+00 -1.603034821152687073e+01 -8.124327170662581921e-02
3.198984544724225998e+00 -1.635359039902687073e+01 -8.231138694100081921e-02
3.390757005661725998e+00 -1.669087067246437073e+01 -8.342527854256331921e-02
3.588510911911725998e+00 -1.702741852402687073e+01 -8.449339377693831921e-02
2.752085130661725998e+00 -1.790766754746437073e+01 -9.929441916756331921e-02
2.939707200974225998e+00 -1.823774567246437073e+01 -9.876036155037581921e-02
3.147959154099225998e+00 -1.866596832871437073e+01 -1.004540871363133192e-01
3.401255052536725998e+00 -1.933003082871437073e+01 -1.078088234644383192e-01
3.651010911911725998e+00 -1.990510407090187073e+01 -1.121118019800633192e-01
3.919809740036725998e+00 -2.052802887558937073e+01 -1.169030617456883192e-01
4.206797044724225998e+00 -2.119270172715187073e+01 -1.219842385035008192e-01
4.656382005661725998e+00 -2.264607086777687073e+01 -1.452538918238133192e-01
3.367075365036725998e+00 -2.263886871933937073e+01 -1.330926369410008192e-01
3.722788255661725998e+00 -2.388813629746437073e+01 -1.492364357691258192e-01
4.082041185349225998e+00 -2.501667633652687073e+01 -1.606194924097508192e-01
4.536631029099225998e+00 -2.662251129746437073e+01 -1.815392922144383192e-01
5.010263841599225998e+00 -2.818049469590187073e+01 -1.995751808863133192e-01
5.621591966599225998e+00 -3.036994782090187073e+01 -2.286584328394383192e-01
6.659189622849225998e+00 -3.469563141465187073e+01 -2.986810158472508192e-01
9.215464036911725998e+00 -4.659358063340187073e+01 -5.097711037378758192e-01
5.428232591599225998e+00 -3.844953766465187073e+01 -3.316400002222508192e-01
7.014170091599225998e+00 -4.757966461777687073e+01 -4.766442726831883192e-01
7.309824388474225998e+00 -4.692365875840187073e+01 -4.377343605738133192e-01
7.703012865036725998e+00 -4.694917145371437073e+01 -4.110925148706883192e-01
8.056162279099225998e+00 -4.673017731308937073e+01 -3.804070900660008192e-01
8.546762865036725998e+00 -4.731294098496437073e+01 -3.625695656519383192e-01
9.065561693161725998e+00 -4.799751129746437073e+01 -3.456170510035008192e-01
9.263193529099225998e+00 -4.692793121933937073e+01 -3.019463967066258192e-01
6.605600755661725998e+00 -4.756855621933937073e+01 -2.895410011988133192e-01
7.009287279099225998e+00 -4.765803375840187073e+01 -2.632653664331883192e-01
7.340097825974225998e+00 -4.723530426621437073e+01 -2.301080178003758192e-01
7.707163255661725998e+00 -4.707624664902687073e+01 -2.005670021753758192e-01
7.993662279099225998e+00 -4.644563141465187073e+01 -1.656548928003758192e-01
8.524668138474225998e+00 -4.727717438340187073e+01 -1.478173683863133192e-01
8.817392747849225998e+00 -4.671943512558937073e+01 -1.141717385035008192e-01
9.246469896286725998e+00 -4.692317047715187073e+01 -8.878111350350081921e-02
8.246469896286725998e+00 -6.029731598496437073e+01 -1.967675636988133192e-01
6.983164232224225998e+00 -4.758369293808937073e+01 -4.666685569100081921e-02
7.381845872849225998e+00 -4.762702789902687073e+01 -1.915525901131331921e-02
7.628305833786725998e+00 -4.667121735215187073e+01 1.638246071524918079e-02
8.112680833786725998e+00 -4.726618805527687073e+01 3.954530251212418079e-02
8.498667161911725998e+00 -4.721906891465187073e+01 6.785035622306168079e-02
8.732553880661725998e+00 -4.633820953965187073e+01 1.010839988011866808e-01
9.071421068161725998e+00 -4.608442535996437073e+01 1.299383689183741808e-01
8.214853685349225998e+00 -6.020808258652687073e+01 7.639527809806168079e-02
7.024546068161725998e+00 -4.799799957871437073e+01 1.659033347386866808e-01
7.364023607224225998e+00 -4.761372223496437073e+01 1.957647849339991808e-01
7.769663255661725998e+00 -4.768256989121437073e+01 2.238867331761866808e-01
8.088388841599225998e+00 -4.721516266465187073e+01 2.534430075902491808e-01
8.485239427536725998e+00 -4.723335114121437073e+01 2.816565085668116808e-01
8.813486497849225998e+00 -4.687263336777687073e+01 3.103735495824366808e-01
9.051889818161725998e+00 -4.606403961777687073e+01 3.390600730199366808e-01
8.289560716599225998e+00 -6.094013825058937073e+01 3.498175193089991808e-01
7.025644700974225998e+00 -4.812190094590187073e+01 3.833563376683741808e-01
7.415171068161725998e+00 -4.807111969590187073e+01 4.109137107152491808e-01
7.757334154099225998e+00 -4.770564118027687073e+01 4.392950583714991808e-01
8.147959154099225998e+00 -4.767622223496437073e+01 4.678747702855616808e-01
8.402719896286725998e+00 -4.684589996933937073e+01 4.944708396214991808e-01
8.766123216599225998e+00 -4.669843903183937073e+01 5.233862448949366808e-01
9.004770677536725998e+00 -4.589777985215187073e+01 5.485022116918116808e-01
1.458301774784922600e+01 -9.727680817246437073e+01 8.976690818089991808e-01
7.740610521286725998e+00 -4.770124664902687073e+01 6.558477927464991808e-01
8.180185716599225998e+00 -4.797273102402687073e+01 6.866095114964991808e-01
8.389536302536725998e+00 -4.686103668808937073e+01 7.077276755589991808e-01
8.754648607224225998e+00 -4.672187653183937073e+01 7.351782370824366808e-01
9.249521654099225998e+00 -4.727778473496437073e+01 7.685034323949366808e-01
8.483164232224225998e+00 -4.750044098496437073e+01 9.274237204808741808e-01
8.852060716599225998e+00 -4.735151520371437073e+01 9.547827292699366808e-01
9.216928880661725998e+00 -4.719001618027687073e+01 9.830267478246241808e-01
8.092295091599225998e+00 -4.763020172715187073e+01 1.116068129660561681e+00
8.535532396286725998e+00 -4.790119782090187073e+01 1.150202040793374181e+00
8.897959154099225998e+00 -4.769709625840187073e+01 1.176462416769936681e+00
9.263803880661725998e+00 -4.752436676621437073e+01 1.203089003683999181e+00
8.877573411911725998e+00 -4.767341461777687073e+01 1.392053847433999181e+00
9.246469896286725998e+00 -4.751838532090187073e+01 1.419702773215249181e+00
1.545777360722422600e+01 -8.877754059433937073e+01 2.644357924582436681e+00
1.545167009159922600e+01 -8.455988922715187073e+01 2.589166884543374181e+00
1.600159684941172600e+01 -8.368720856308937073e+01 2.619684462668374181e+00
1.609852067753672600e+01 -8.834992828965187073e+01 3.096628432394936681e+00
1.596155778691172600e+01 -8.362727203965187073e+01 3.003305678488686681e+00
2.201670091599225998e+00 -9.701979070901870728e+00 -7.434629905037581921e-02
2.282968919724225998e+00 -9.739210516214370728e+00 -7.152342307381331921e-02
2.364267747849225998e+00 -9.772657781839370728e+00 -6.868528830818831921e-02
2.446909349411725998e+00 -9.806593328714370728e+00 -6.578611838631331921e-02
2.530161302536725998e+00 -9.840773016214370728e+00 -6.287168967537581921e-02
2.614633958786725998e+00 -9.875440984964370728e+00 -5.991148459725081921e-02
2.699839036911725998e+00 -9.910475164651870728e+00 -5.693602073006331921e-02
2.785044115036725998e+00 -9.941481024026870728e+00 -5.391478049568831921e-02
2.363535325974225998e+00 -1.055720368027687073e+01 -7.471250998787581921e-02
2.453012865036725998e+00 -1.059882965683937073e+01 -7.161497580818831921e-02
2.543711107224225998e+00 -1.064094391465187073e+01 -6.848692405037581921e-02
2.636850755661725998e+00 -1.068903961777687073e+01 -6.529783713631331921e-02
2.729868333786725998e+00 -1.073237457871437073e+01 -6.207823264412581921e-02
2.823130052536725998e+00 -1.077107086777687073e+01 -5.882811057381331921e-02
2.926035325974225998e+00 -1.084675446152687073e+01 -5.690550315193831921e-02
3.037607591599225998e+00 -1.094941559433937073e+01 -5.606626975350081921e-02
2.536997240036725998e+00 -1.147517243027687073e+01 -6.976866233162581921e-02
2.634897630661725998e+00 -1.151997223496437073e+01 -6.603025901131331921e-02
2.734140794724225998e+00 -1.156538239121437073e+01 -6.224607932381331921e-02
2.834970872849225998e+00 -1.161140289902687073e+01 -5.840086448006331921e-02
2.949106615036725998e+00 -1.171320953965187073e+01 -5.676817405037581921e-02
3.074350755661725998e+00 -1.185114899277687073e+01 -5.643248069100081921e-02
3.206186693161725998e+00 -1.200617828965187073e+01 -5.660032737068831921e-02
3.342417161911725998e+00 -1.216645660996437073e+01 -5.678343283943831921e-02
2.767343919724225998e+00 -1.269319000840187073e+01 -6.793760764412581921e-02
2.885874193161725998e+00 -1.278852692246437073e+01 -6.484007346443831921e-02
3.018320482224225998e+00 -1.294038239121437073e+01 -6.398558127693831921e-02
3.155161302536725998e+00 -1.309724274277687073e+01 -6.310057151131331921e-02
3.295664232224225998e+00 -1.325849762558937073e+01 -6.220030295662581921e-02
3.441172044724225998e+00 -1.342524567246437073e+01 -6.125425803475081921e-02
3.590708177536725998e+00 -1.359663239121437073e+01 -6.029295432381331921e-02
3.742319505661725998e+00 -1.376313629746437073e+01 -5.925535666756331921e-02
3.082773607224225998e+00 -1.435920563340187073e+01 -6.940245139412581921e-02
3.234629075974225998e+00 -1.454951325058937073e+01 -6.824278342537581921e-02
3.403574388474225998e+00 -1.480378571152687073e+01 -6.889891135506331921e-02
3.580454271286725998e+00 -1.507026520371437073e+01 -6.958555686287581921e-02
3.764292161911725998e+00 -1.534724274277687073e+01 -7.031797873787581921e-02
3.956919115036725998e+00 -1.563764801621437073e+01 -7.108091819100081921e-02
4.182382982224225998e+00 -1.604121246933937073e+01 -7.489561545662581921e-02
4.412485521286725998e+00 -1.643342438340187073e+01 -7.790159690193831921e-02
3.589609544724225998e+00 -1.703047028183937073e+01 -8.455442893318831921e-02
3.802622240036725998e+00 -1.741267243027687073e+01 -8.586668479256331921e-02
4.035898607224225998e+00 -1.785786285996437073e+01 -8.884214865975081921e-02
4.289438646286725998e+00 -1.835566559433937073e+01 -9.265684592537581921e-02
4.574961107224225998e+00 -1.895673981308937073e+01 -9.863829123787581921e-02
4.944956224411725998e+00 -1.986848297715187073e+01 -1.118676613550633192e-01
5.259287279099225998e+00 -2.048554840683937073e+01 -1.165978859644383192e-01
5.814585130661725998e+00 -2.201277008652687073e+01 -1.435601662378758192e-01
4.658579271286725998e+00 -2.265485993027687073e+01 -1.454064797144383192e-01
4.992441575974225998e+00 -2.340058746933937073e+01 -1.505029152613133192e-01
5.411753099411725998e+00 -2.449177399277687073e+01 -1.625726174097508192e-01
5.966318529099225998e+00 -2.611250153183937073e+01 -1.851098488550633192e-01
6.632822435349225998e+00 -2.810456696152687073e+01 -2.138268898706883192e-01
7.886606615036725998e+00 -3.244648590683937073e+01 -2.897851418238133192e-01
7.212778490036725998e+00 -2.854865875840187073e+01 -1.912438820581883192e-01
7.499521654099225998e+00 -2.873115387558937073e+01 -1.787011574488133192e-01
9.216562669724225998e+00 -4.659260407090187073e+01 -5.096490334253758192e-01
9.547617357224225998e+00 -4.629389801621437073e+01 -4.774072121363133192e-01
1.002967302128672600e+01 -4.674043121933937073e+01 -4.578454445581883192e-01
1.038538591191172600e+01 -4.655427399277687073e+01 -4.275720070581883192e-01
1.069031755253672600e+01 -4.615669098496437073e+01 -3.938958595972508192e-01
7.332163255661725998e+00 -3.012556305527687073e+01 -1.037652443628758192e-01
7.546640794724225998e+00 -2.996381989121437073e+01 -8.463072287850081921e-02
7.485727708786725998e+00 -2.871528473496437073e+01 -4.833006369881331921e-02
9.264292161911725998e+00 -4.692646637558937073e+01 -3.018243263941258192e-01
9.597910325974225998e+00 -4.662629547715187073e+01 -2.703759621363133192e-01
9.963144700974225998e+00 -4.649677887558937073e+01 -2.414910744410008192e-01
1.034937516972422600e+01 -4.646150055527687073e+01 -2.137963722925633192e-01
1.083143083378672600e+01 -4.685481110215187073e+01 -1.914269875269383192e-01
1.108021013066172600e+01 -4.620832672715187073e+01 -1.561791847925633192e-01
7.319467943161725998e+00 -2.906953278183937073e+01 6.171632301993668079e-02
7.478281419724225998e+00 -2.872541657090187073e+01 8.230042946524918079e-02
9.247446458786725998e+00 -4.692182770371437073e+01 -8.867430198006331921e-02
9.560068529099225998e+00 -4.651594391465187073e+01 -5.724119651131331921e-02
9.935068529099225998e+00 -4.643794098496437073e+01 -2.910398948006331921e-02
1.031592790409922600e+01 -4.638044586777687073e+01 -1.043076394125819206e-03
1.071583024784922600e+01 -4.641206207871437073e+01 2.628541481681168079e-02
7.235727708786725998e+00 -2.980024567246437073e+01 1.708776999730616808e-01
7.308847825974225998e+00 -2.906672516465187073e+01 1.931707907933741808e-01
7.600962083786725998e+00 -2.925373688340187073e+01 2.092993308324366808e-01
9.072153490036725998e+00 -4.608149567246437073e+01 1.300451804418116808e-01
9.586679857224225998e+00 -4.673029938340187073e+01 1.544134665746241808e-01
9.892343919724225998e+00 -4.630854645371437073e+01 1.841223288793116808e-01
1.035145036503672600e+01 -4.661933746933937073e+01 2.109167624730616808e-01
1.072144548222422600e+01 -4.650886383652687073e+01 2.393286277074366808e-01
1.132422868534922600e+01 -4.739338532090187073e+01 2.655127097386866808e-01
7.305551927536725998e+00 -2.909467926621437073e+01 3.252356101293116808e-01
7.586679857224225998e+00 -2.923725739121437073e+01 3.425390769261866808e-01
9.052256029099225998e+00 -4.605927887558937073e+01 3.391668845433741808e-01
9.488657396286725998e+00 -4.631562653183937073e+01 3.669531394261866808e-01
9.871225755661725998e+00 -4.628303375840187073e+01 3.950293113011866808e-01
1.034034196659922600e+01 -4.664216461777687073e+01 4.236853171605616808e-01
1.085120622441172600e+01 -4.715998688340187073e+01 4.530890036839991808e-01
1.128711931034922600e+01 -4.730476227402687073e+01 4.824469138402491808e-01
7.313120286911725998e+00 -2.916706696152687073e+01 4.569494773168116808e-01
7.512949388474225998e+00 -2.898249664902687073e+01 4.740240622777491808e-01
9.005136888474225998e+00 -4.589301910996437073e+01 5.485785056371241808e-01
9.599131029099225998e+00 -4.695466461777687073e+01 5.815222312230616808e-01
9.928354661911725998e+00 -4.663642731308937073e+01 6.075995017308741808e-01
1.049427263066172600e+01 -4.743330231308937073e+01 6.410925437230616808e-01
1.107325212284922600e+01 -4.822627106308937073e+01 6.755774070043116808e-01
1.138660661503672600e+01 -4.780341950058937073e+01 7.026770163793116808e-01
7.320688646286725998e+00 -2.924018707871437073e+01 5.900366355199366808e-01
7.588755052536725998e+00 -2.932612457871437073e+01 6.087896872777491808e-01
9.250742357224225998e+00 -4.727705231308937073e+01 7.685949851293116808e-01
9.614511888474225998e+00 -4.711384430527687073e+01 7.964422751683741808e-01
1.028394548222422600e+01 -4.844184723496437073e+01 8.388922263402491808e-01
1.065650407597422600e+01 -4.826606598496437073e+01 8.674566794652491808e-01
1.106141130253672600e+01 -4.824775543808937073e+01 8.975622702855616808e-01
1.131397477909922600e+01 -4.756208649277687073e+01 9.199926902074366808e-01
1.118714372441172600e+01 -4.534858551621437073e+01 9.225256491918116808e-01
7.591196458786725998e+00 -2.937605133652687073e+01 7.422277976293116808e-01
9.218027513474225998e+00 -4.718916168808937073e+01 9.831183005589991808e-01
9.634775560349225998e+00 -4.729780426621437073e+01 1.013162856223061681e+00
1.686963884159922600e+01 -8.057368317246437073e+01 1.526254897238686681e+00
1.063758317753672600e+01 -4.825507965683937073e+01 1.087610488058999181e+00
1.871363298222422600e+01 -8.266523590683937073e+01 1.662836318137124181e+00
1.137562028691172600e+01 -4.789948883652687073e+01 1.143366103293374181e+00
1.674622575566172600e+01 -6.854926910996437073e+01 1.527918105246499181e+00
1.145081559941172600e+01 -4.491425934433937073e+01 1.152826552512124181e+00
9.264902513474225998e+00 -4.752314606308937073e+01 1.203180556418374181e+00
1.680799333378672600e+01 -8.388276520371437073e+01 1.908151869894936681e+00
1.666553727909922600e+01 -7.652827301621437073e+01 1.870828871848061681e+00
1.827405778691172600e+01 -8.081953278183937073e+01 2.008676772238686681e+00
1.783106462284922600e+01 -7.589326325058937073e+01 1.957224135519936681e+00
1.859986345097422600e+01 -7.637556305527687073e+01 2.017465834738686681e+00
1.146460954472422600e+01 -4.503266754746437073e+01 1.361597304465249181e+00
9.247690599411725998e+00 -4.751789703965187073e+01 1.419809584738686681e+00
1.783655778691172600e+01 -8.927290192246437073e+01 2.418497328879311681e+00
1.763636247441172600e+01 -8.459052887558937073e+01 2.365198378683999181e+00
1.717554704472422600e+01 -7.600019684433937073e+01 2.260172133566811681e+00
1.779432145878672600e+01 -7.584907379746437073e+01 2.306650405051186681e+00
1.869910661503672600e+01 -7.690168610215187073e+01 2.384897475363686681e+00
1.134437028691172600e+01 -4.461189118027687073e+01 1.557840590598061681e+00
9.223398607224225998e+00 -4.747382965683937073e+01 1.634134535910561681e+00
1.642383806034922600e+01 -8.221601715683937073e+01 2.634119277121499181e+00
1.682056657597422600e+01 -8.074336090683937073e+01 2.646539931418374181e+00
1.652698747441172600e+01 -7.612702789902687073e+01 2.565439467551186681e+00
1.718116227909922600e+01 -7.614546051621437073e+01 2.616739516379311681e+00
1.752906266972422600e+01 -7.481330719590187073e+01 2.627115492941811681e+00
1.813062516972422600e+01 -7.463850250840187073e+01 2.671884780051186681e+00
