-3.819644995033740997e+00 -2.373170340061187744e+01 2.284065301995781283e-01
-3.665836401283740997e+00 -2.443141043186187744e+01 2.432075555902031283e-01
-3.501529760658740997e+00 -2.514491140842437744e+01 2.583442743402031283e-01
-3.332218237221240997e+00 -2.592408621311187744e+01 2.748237665277031283e-01
-3.160831518471240997e+00 -2.681593191623687744e+01 2.935615594964531283e-01
-2.978580541908740997e+00 -2.775550711154937744e+01 3.140541132073906283e-01
-6.087074950337409973e-01 -6.738539338111877441e+00 -8.412193242926093717e-01
-5.267983153462409973e-01 -6.773207306861877441e+00 -8.421043340582343717e-01
-4.439125731587409973e-01 -6.804701447486877441e+00 -8.429893438238593717e-01
-3.604164794087409973e-01 -6.836439728736877441e+00 -8.438590948004218717e-01
-2.765541747212409973e-01 -6.868300080299377441e+00 -8.447441045660468717e-01
-1.923256590962409973e-01 -6.900282502174377441e+00 -8.456443731207343717e-01
-1.072426512837409973e-01 -6.932509064674377441e+00 -8.465293828863593717e-01
-2.179343253374099731e-02 -6.961317658424377441e+00 -8.474143926519843717e-01
-6.836586669087409973e-01 -7.406508088111877441e+00 -8.444084112066718717e-01
-5.946694090962409973e-01 -7.438124299049377441e+00 -8.450950567144843717e-01
-5.055580809712409973e-01 -7.473402619361877441e+00 -8.457664434332343717e-01
-4.152260497212409973e-01 -7.505507111549377441e+00 -8.464683477301093717e-01
-3.247719481587409973e-01 -7.537611603736877441e+00 -8.471549932379218717e-01
-2.338295653462409973e-01 -7.569960236549377441e+00 -8.478416387457343717e-01
-1.419106200337409973e-01 -7.599012970924377441e+00 -8.485435430426093717e-01
-4.999167472124099731e-02 -7.631605744361877441e+00 -8.492454473394843717e-01
-7.631264403462409973e-01 -8.115248322486877441e+00 -8.438285772222968717e-01
-6.675453856587409973e-01 -8.151381134986877441e+00 -8.445609990972968717e-01
-5.713539794087409973e-01 -8.187636017799377441e+00 -8.452934209722968717e-01
-4.741860106587409973e-01 -8.224379181861877441e+00 -8.460411016363593717e-01
-3.768959715962409973e-01 -8.261122345924377441e+00 -8.467735235113593717e-01
-2.789955809712409973e-01 -8.298109650611877441e+00 -8.475212041754218717e-01
-1.801186278462409973e-01 -8.335463166236877441e+00 -8.482841436285468717e-01
-8.172995597124099731e-02 -8.387465119361877441e+00 -8.498863164801093717e-01
-8.555336669087409973e-01 -8.938246369361877441e+00 -8.431571905035468717e-01
-7.532387450337409973e-01 -8.990858674049377441e+00 -8.442710821051093717e-01
-6.513100340962409973e-01 -9.056166291236877441e+00 -8.463310186285468717e-01
-5.479164794087409973e-01 -9.122450470924377441e+00 -8.484062139410468717e-01
-4.436684325337409973e-01 -9.189100861549377441e+00 -8.505119268316718717e-01
-3.383217528462409973e-01 -9.256605744361877441e+00 -8.526328985113593717e-01
-2.315102294087409973e-01 -9.324965119361877441e+00 -8.547996465582343717e-01
-1.237221434712409973e-01 -9.387953400611877441e+00 -8.569206182379218717e-01
-9.800453856587409973e-01 -1.004847586154937744e+01 -8.489250127691718717e-01
-8.692055419087409973e-01 -1.012635672092437744e+01 -8.512138311285468717e-01
-7.570229247212409973e-01 -1.020533621311187744e+01 -8.535179082769843717e-01
-6.441078856587409973e-01 -1.029737722873687744e+01 -8.564628545660468717e-01
-5.304604247212409973e-01 -1.039576590061187744e+01 -8.596977178472968717e-01
-4.151039794087409973e-01 -1.049561941623687744e+01 -8.629936162847968717e-01
-2.965737059712409973e-01 -1.057826101779937744e+01 -8.653892461676093717e-01
-1.762123778462409973e-01 -1.064039480686187744e+01 -8.667930547613593717e-01
-1.164493627846240997e+00 -1.169312918186187744e+01 -8.688987676519843717e-01
-1.045597143471240997e+00 -1.185475027561187744e+01 -8.740867559332343717e-01
-9.177895262837409973e-01 -1.195265066623687744e+01 -8.766960088629218717e-01
-7.875405028462409973e-01 -1.204713308811187744e+01 -8.791374151129218717e-01
-6.560707762837409973e-01 -1.214247000217437744e+01 -8.815940801519843717e-01
-5.230141356587409973e-01 -1.223902761936187744e+01 -8.840965215582343717e-01
-3.866615965962409973e-01 -1.231544363498687744e+01 -8.856529180426093717e-01
-2.492104247212409973e-01 -1.238441336154937744e+01 -8.872398321051093717e-01
-1.387638159096240997e+00 -1.368348562717437744e+01 -8.873466436285468717e-01
-1.265323705971240997e+00 -1.400807058811187744e+01 -8.985160772222968717e-01
-1.135074682533740997e+00 -1.431544363498687744e+01 -9.089073125738593717e-01
-9.899330809712409973e-01 -1.451905691623687744e+01 -9.150413457769843717e-01
-8.329506590962409973e-01 -1.460243093967437744e+01 -9.163230840582343717e-01
-6.745033934712409973e-01 -1.468641531467437744e+01 -9.176048223394843717e-01
-5.141030028462409973e-01 -1.477149832248687744e+01 -9.189018194097968717e-01
-3.528481200337409973e-01 -1.485706961154937744e+01 -9.202140752691718717e-01
-2.188297338783740997e+00 -2.083216726779937744e+01 -1.073397058667609372e+00
-1.982364721596240997e+00 -2.104273855686187744e+01 -1.078142542066046872e+00
-1.759098120033740997e+00 -2.110719168186187744e+01 -1.077059168042609372e+00
-1.534000463783740997e+00 -2.116944754123687744e+01 -1.076433557691046872e+00
-1.058292455971240997e+00 -1.773670828342437744e+01 -9.518760625738593717e-01
-8.695717528462409973e-01 -1.783900320529937744e+01 -9.530815069097968717e-01
-6.854897215962409973e-01 -1.807691824436187744e+01 -9.595207158941718717e-01
-4.988442137837409973e-01 -1.834339773654937744e+01 -9.664482061285468717e-01
-2.244937963783740997e+00 -2.132960379123687744e+01 -9.842552129644843717e-01
-2.085392065346240997e+00 -2.204481375217437744e+01 -1.003816980542609372e+00
-1.928897924721240997e+00 -2.294483816623687744e+01 -1.028948206128546872e+00
-1.740055151283740997e+00 -2.367713797092437744e+01 -1.048662561597296872e+00
-1.548282690346240997e+00 -2.455616629123687744e+01 -1.072740930737921872e+00
-1.311588354408740997e+00 -2.498585379123687744e+01 -1.082796472730109372e+00
-1.086246557533740997e+00 -2.581239187717437744e+01 -1.104891199292609372e+00
-8.512612059712409973e-01 -2.677052175998687744e+01 -1.130831140698859372e+00
-2.344913549721240997e+00 -2.221485769748687744e+01 -9.014915410894843717e-01
-2.198673315346240997e+00 -2.314649832248687744e+01 -9.234794561285468717e-01
-2.049381323158740997e+00 -2.424476492404937744e+01 -9.496635381597968717e-01
-1.829898901283740997e+00 -2.476283133029937744e+01 -9.602989141363593717e-01
-1.600772924721240997e+00 -2.527113211154937744e+01 -9.705528203863593717e-01
-1.380436010658740997e+00 -2.608155691623687744e+01 -9.886039678472968717e-01
-1.166324682533740997e+00 -2.733546316623687744e+01 -1.018007654370734372e+00
-9.151039794087409973e-01 -2.826881277561187744e+01 -1.038820642651984372e+00
-2.434146948158740997e+00 -2.300233328342437744e+01 -8.077873174566718717e-01
-2.293644018471240997e+00 -2.406788504123687744e+01 -8.284019414801093717e-01
-2.106876440346240997e+00 -2.485877859592437744e+01 -8.427757207769843717e-01
-1.895816870033740997e+00 -2.555445730686187744e+01 -8.548911992926093717e-01
-1.680118627846240997e+00 -2.635987722873687744e+01 -8.692344610113593717e-01
-1.455509252846240997e+00 -2.727650320529937744e+01 -8.858055059332343717e-01
-1.220157690346240997e+00 -2.834901297092437744e+01 -9.054893438238593717e-01
-9.685707762837409973e-01 -2.951136648654937744e+01 -9.268669073004218717e-01
-2.534732885658740997e+00 -2.389063894748687744e+01 -7.092155401129218717e-01
-2.340763159096240997e+00 -2.451942312717437744e+01 -7.173179571051093717e-01
-2.166446752846240997e+00 -2.549464285373687744e+01 -7.312644903082343717e-01
-1.969303198158740997e+00 -2.643690359592437744e+01 -7.444328252691718717e-01
-1.742618627846240997e+00 -2.721241629123687744e+01 -7.545799199957343717e-01
-1.506412573158740997e+00 -2.807752859592437744e+01 -7.660697881597968717e-01
-1.266544409096240997e+00 -2.921827566623687744e+01 -7.819847051519843717e-01
-1.013248510658740997e+00 -3.054505789279937744e+01 -8.007987920660468717e-01
-2.587711401283740997e+00 -2.435365164279937744e+01 -5.963462774176093717e-01
-2.405094213783740997e+00 -2.513917410373687744e+01 -6.035789434332343717e-01
-2.225040502846240997e+00 -2.611830008029937744e+01 -6.137870733160468717e-01
-2.028629370033740997e+00 -2.714527761936187744e+01 -6.237052862066718717e-01
-1.791935034096240997e+00 -2.787928640842437744e+01 -6.297935430426093717e-01
-1.561222143471240997e+00 -2.893971121311187744e+01 -6.397422735113593717e-01
-1.308780737221240997e+00 -3.000257742404937744e+01 -6.487144414801093717e-01
-1.051578588783740997e+00 -3.142347586154937744e+01 -6.625846807379218717e-01
-2.638858862221240997e+00 -2.480006277561187744e+01 -4.797386114019843717e-01
-2.471378393471240997e+00 -2.577735769748687744e+01 -4.849571172613593717e-01
-2.270084448158740997e+00 -2.659474050998687744e+01 -4.886955205816718717e-01
-2.078922338783740997e+00 -2.774317800998687744e+01 -4.948905889410468717e-01
-1.850284643471240997e+00 -2.867188894748687744e+01 -4.991477910894843717e-01
-1.599674291908740997e+00 -2.953871023654937744e+01 -5.027336065191718717e-01
-1.356632299721240997e+00 -3.089515554904937744e+01 -5.098747198004218717e-01
-1.081974096596240997e+00 -3.210865652561187744e+01 -5.156730596441718717e-01
-2.709293432533740997e+00 -2.541895925998687744e+01 -3.589805547613593717e-01
-2.518131323158740997e+00 -2.622303640842437744e+01 -3.598045293707343717e-01
-2.327213354408740997e+00 -2.720155203342437744e+01 -3.603843633551093717e-01
-2.125919409096240997e+00 -2.830177175998687744e+01 -3.611778203863593717e-01
-1.894352026283740997e+00 -2.926624929904937744e+01 -3.613304082769843717e-01
-1.649356909096240997e+00 -3.031715261936187744e+01 -3.615592901129218717e-01
-1.388370580971240997e+00 -3.147865164279937744e+01 -3.619255010504218717e-01
-1.110782690346240997e+00 -3.275599539279937744e+01 -3.615592901129218717e-01
-2.763492651283740997e+00 -2.589149343967437744e+01 -2.333702031988593717e-01
-2.565250463783740997e+00 -2.667274343967437744e+01 -2.298606817144843717e-01
-2.381778784096240997e+00 -2.778077566623687744e+01 -2.258171026129218717e-01
-2.170353002846240997e+00 -2.882655203342437744e+01 -2.216514531988593717e-01
-1.939151830971240997e+00 -2.986805593967437744e+01 -2.172874395269843717e-01
-1.693058080971240997e+00 -3.099793875217437744e+01 -2.126182500738593717e-01
-1.424259252846240997e+00 -3.213783133029937744e+01 -2.077049199957343717e-01
-1.138248510658740997e+00 -3.336915457248687744e+01 -2.024253789801093717e-01
-2.813907690346240997e+00 -2.633094656467437744e+01 -1.029075567144843717e-01
-2.624942846596240997e+00 -2.724549734592437744e+01 -9.579696101135937170e-02
-2.428775854408740997e+00 -2.827662527561187744e+01 -8.716048640198437170e-02
-2.216129370033740997e+00 -2.936830008029937744e+01 -7.795943659729687170e-02
-1.987003393471240997e+00 -3.051209890842437744e+01 -6.827010554260937170e-02
-1.729679174721240997e+00 -3.156300222873687744e+01 -5.894698542542187170e-02
-1.459293432533740997e+00 -3.277955496311187744e+01 -4.838790339417187170e-02
-1.164981909096240997e+00 -3.396375906467437744e+01 -3.695907038635937170e-02
-2.865787573158740997e+00 -2.678199636936187744e+01 3.100357609801562830e-02
-2.681095190346240997e+00 -2.778248465061187744e+01 4.386673527770312830e-02
-2.474674291908740997e+00 -2.876161062717437744e+01 5.668411809020312830e-02
-2.262760229408740997e+00 -2.991944754123687744e+01 7.154617863707812830e-02
-2.030216284096240997e+00 -3.109071218967437744e+01 8.674393254332812830e-02
-1.768375463783740997e+00 -3.216236746311187744e+01 1.010871942620781283e-01
-1.489933080971240997e+00 -3.333570730686187744e+01 1.167121942620781283e-01
-1.191959448158740997e+00 -3.456629812717437744e+01 1.331459100823906283e-01
-2.923893041908740997e+00 -2.728895437717437744e+01 1.705909784417656283e-01
-2.730899877846240997e+00 -2.825746023654937744e+01 1.875434930902031283e-01
-2.525943823158740997e+00 -2.930323660373687744e+01 2.050605829339531283e-01
-2.306461401283740997e+00 -3.043385183811187744e+01 2.247749384027031283e-01
-2.070743627846240997e+00 -3.163184988498687744e+01 2.456794794183281283e-01
-1.806705541908740997e+00 -3.275355398654937744e+01 2.656379755120781283e-01
-1.521915502846240997e+00 -3.391871511936187744e+01 2.873207147698906283e-01
-1.220157690346240997e+00 -3.519288504123687744e+01 3.100257928948906283e-01
-2.978336401283740997e+00 -2.776307547092437744e+01 3.142067010980156283e-01
-2.780704565346240997e+00 -2.873170340061187744e+01 3.348213251214531283e-01
-2.576725073158740997e+00 -2.983827078342437744e+01 3.590370233636406283e-01
-2.352603979408740997e+00 -3.097730886936187744e+01 3.840614374261406283e-01
-2.111393041908740997e+00 -3.217469656467437744e+01 4.104286249261406283e-01
-1.842228002846240997e+00 -3.329847586154937744e+01 4.355140741448906283e-01
-1.555118627846240997e+00 -3.452137625217437744e+01 4.627662714105156283e-01
-1.254337377846240997e+00 -3.595789968967437744e+01 4.954048212152031283e-01
-2.154929190874099731e-02 -6.961439728736877441e+00 -8.473991338629218717e-01
6.438820809125900269e-02 -6.993055939674377441e+00 -8.482994024176093717e-01
1.508139893412590027e-01 -7.021376252174377441e+00 -8.491844121832343717e-01
2.382163330912590027e-01 -7.050062775611877441e+00 -8.500694219488593717e-01
3.258628174662590027e-01 -7.078749299049377441e+00 -8.509544317144843717e-01
4.141196534037590027e-01 -7.107557892799377441e+00 -8.518394414801093717e-01
5.032309815287590027e-01 -7.136732697486877441e+00 -8.527549688238593717e-01
5.924643799662590027e-01 -7.162245392799377441e+00 -8.536247198004218717e-01
-4.962546378374099731e-02 -7.631605744361877441e+00 -8.492454473394843717e-01
4.302590340375900269e-02 -7.660414338111877441e+00 -8.499626104254218717e-01
1.360434815287590027e-01 -7.693129181861877441e+00 -8.506645147222968717e-01
2.301596924662590027e-01 -7.722303986549377441e+00 -8.513816778082343717e-01
3.245200440287590027e-01 -7.751600861549377441e+00 -8.521140996832343717e-01
4.193686768412590027e-01 -7.782118439674377441e+00 -8.528922979254218717e-01
5.154380127787590027e-01 -7.825331330299377441e+00 -8.546928350347968717e-01
6.122397705912590027e-01 -7.873060822486877441e+00 -8.565238897222968717e-01
-8.136374503374099731e-02 -8.387587189674377441e+00 -8.499015752691718717e-01
1.824562996625900269e-02 -8.433119416236877441e+00 -8.513511602301093717e-01
1.189536377787590027e-01 -8.472059845924377441e+00 -8.524192754644843717e-01
2.206382080912590027e-01 -8.511366486549377441e+00 -8.535026494879218717e-01
3.228110596537590027e-01 -8.555555939674377441e+00 -8.548606817144843717e-01
4.259604737162590027e-01 -8.603773713111877441e+00 -8.564323369879218717e-01
5.303305909037590027e-01 -8.652601838111877441e+00 -8.580192510504218717e-01
6.353110596537590027e-01 -8.701674103736877441e+00 -8.596214239019843717e-01
-1.233559325337409973e-01 -9.388197541236877441e+00 -8.569206182379218717e-01
-1.434714347124099731e-02 -9.455214142799377441e+00 -8.589347783941718717e-01
9.624855965375900269e-02 -9.502333283424377441e+00 -8.601402227301093717e-01
2.081870362162590027e-01 -9.549818634986877441e+00 -8.613609258551093717e-01
3.207358643412590027e-01 -9.597670197486877441e+00 -8.625816289801093717e-01
4.341391846537590027e-01 -9.645887970924377441e+00 -8.638175908941718717e-01
5.490073487162590027e-01 -9.694594025611877441e+00 -8.650688115972968717e-01
6.642417237162590027e-01 -9.737318634986877441e+00 -8.662742559332343717e-01
-1.757240965962409973e-01 -1.064063894748687744e+01 -8.667930547613593717e-01
-5.414206534624099731e-02 -1.069813406467437744e+01 -8.681663457769843717e-01
6.829445809125900269e-02 -1.077528250217437744e+01 -8.704856817144843717e-01
1.925620362162590027e-01 -1.085719168186187744e+01 -8.730033819097968717e-01
3.180503174662590027e-01 -1.093995535373687744e+01 -8.755515996832343717e-01
4.452475830912590027e-01 -1.102369558811187744e+01 -8.781303350347968717e-01
5.743979737162590027e-01 -1.110890066623687744e+01 -8.807548467535468717e-01
6.661948487162590027e-01 -9.828627228736877441e+00 -8.176902715582343717e-01
-2.488442137837409973e-01 -1.238477957248687744e+01 -8.872550908941718717e-01
-1.105385497212409973e-01 -1.246790945529937744e+01 -8.889335576910468717e-01
2.923195809125900269e-02 -1.255592215061187744e+01 -8.911765996832343717e-01
1.710776612162590027e-01 -1.266114675998687744e+01 -8.941368047613593717e-01
3.145102784037590027e-01 -1.276759207248687744e+01 -8.971427862066718717e-01
4.600180909037590027e-01 -1.287562429904937744e+01 -9.001945440191718717e-01
6.082114502787590027e-01 -1.298560965061187744e+01 -9.032920781988593717e-01
6.637534424662590027e-01 -9.768202424049377441e+00 -7.619499151129218717e-01
-3.522377684712409973e-01 -1.485743582248687744e+01 -9.202293340582343717e-01
-1.892739012837409973e-01 -1.493604910373687744e+01 -9.214195196051093717e-01
-2.472312003374099731e-02 -1.501893484592437744e+01 -9.227775518316718717e-01
1.414145752787590027e-01 -1.515199148654937744e+01 -9.260734502691718717e-01
3.095053955912590027e-01 -1.528675711154937744e+01 -9.294151250738593717e-01
4.804038330912590027e-01 -1.542359793186187744e+01 -9.328178350347968717e-01
6.545981690287590027e-01 -1.556312429904937744e+01 -9.362663213629218717e-01
6.621665284037590027e-01 -9.734144806861877441e+00 -7.075218145269843717e-01
-4.982338622212409973e-01 -1.834498465061187744e+01 -9.664939824957343717e-01
-3.082924559712409973e-01 -1.867140066623687744e+01 -9.756187383551093717e-01
-1.178627684712409973e-01 -1.927503836154937744e+01 -9.938224737066718717e-01
9.112160652875900269e-02 -1.937782156467437744e+01 -9.949668828863593717e-01
3.015708252787590027e-01 -1.940821707248687744e+01 -9.935935918707343717e-01
5.126303955912590027e-01 -1.943861258029937744e+01 -9.922203008551093717e-01
7.246665284037590027e-01 -1.944984304904937744e+01 -9.906791631597968717e-01
6.609458252787590027e-01 -9.713270783424377441e+00 -6.541618291754218717e-01
-8.504067137837409973e-01 -2.677516043186187744e+01 -1.130968469800421872e+00
-5.927162840962409973e-01 -2.761366140842437744e+01 -1.153185266675421872e+00
-3.102455809712409973e-01 -2.808399832248687744e+01 -1.164049524487921872e+00
-2.899558097124099731e-02 -2.953199636936187744e+01 -1.204302210034796872e+00
2.793540284037590027e-01 -3.146412527561187744e+01 -1.258776086987921872e+00
6.146811768412590027e-01 -3.201588308811187744e+01 -1.271471399487921872e+00
9.694175049662590027e-01 -3.296290457248687744e+01 -1.295839685620734372e+00
6.600913330912590027e-01 -9.703871369361877441e+00 -6.010459844488593717e-01
-9.142494872212409973e-01 -2.827198660373687744e+01 -1.038896936597296872e+00
-6.300697997212409973e-01 -2.874464285373687744e+01 -1.047670740308234372e+00
-3.594399169087409973e-01 -3.027442800998687744e+01 -1.083483118237921872e+00
-5.804831534624099731e-02 -3.186158621311187744e+01 -1.120394128980109372e+00
2.753257080912590027e-01 -3.273573172092437744e+01 -1.138811487378546872e+00
6.251792237162590027e-01 -3.351551687717437744e+01 -1.154634851636359372e+00
5.339927002787590027e-01 -9.076796174049377441e+00 -5.340446416754218717e-01
6.393393799662590027e-01 -8.990980744361877441e+00 -5.306571905035468717e-01
-9.677162840962409973e-01 -2.951698172092437744e+01 -9.269889776129218717e-01
-6.846352294087409973e-01 -3.041432058811187744e+01 -9.424308721441718717e-01
-3.937416747212409973e-01 -3.177088797092437744e+01 -9.673637334722968717e-01
-7.330710440874099731e-02 -3.301136648654937744e+01 -9.895347539801093717e-01
2.714194580912590027e-01 -3.383595144748687744e+01 -1.002764124097296872e+00
6.367759034037590027e-01 -3.517921316623687744e+01 -1.026567835034796872e+00
5.327719971537590027e-01 -9.038710236549377441e+00 -4.833854619879218717e-01
6.382407471537590027e-01 -8.972548127174377441e+00 -4.808067266363593717e-01
-1.012394018471240997e+00 -3.055030691623687744e+01 -8.008750860113593717e-01
-7.250405028462409973e-01 -3.163477957248687744e+01 -8.152183477301093717e-01
-4.120522215962409973e-01 -3.253224050998687744e+01 -8.262199346441718717e-01
-8.734519034624099731e-02 -3.403895437717437744e+01 -8.469871465582343717e-01
2.672690674662590027e-01 -3.506007254123687744e+01 -8.595298711676093717e-01
6.439780518412590027e-01 -3.632789480686187744e+01 -8.758262578863593717e-01
5.314292237162590027e-01 -8.998549103736877441e+00 -4.333213750738593717e-01
6.368979737162590027e-01 -8.943617463111877441e+00 -4.312309209722968717e-01
-1.050846166908740997e+00 -3.143214285373687744e+01 -6.626762334722968717e-01
-7.499428465962409973e-01 -3.236427175998687744e+01 -6.700920049566718717e-01
-4.363442137837409973e-01 -3.355836355686187744e+01 -6.812766973394843717e-01
-9.869772940874099731e-02 -3.484413015842437744e+01 -6.924308721441718717e-01
2.637290284037590027e-01 -3.587037527561187744e+01 -7.002738897222968717e-01
6.505698487162590027e-01 -3.739588797092437744e+01 -7.136558477301093717e-01
5.304526612162590027e-01 -8.975233674049377441e+00 -3.835624639410468717e-01
6.357993409037590027e-01 -8.925551056861877441e+00 -3.817924444097968717e-01
-1.081241674721240997e+00 -3.211756765842437744e+01 -5.157340948004218717e-01
-7.739906981587409973e-01 -3.306422293186187744e+01 -5.189231817144843717e-01
-4.542885497212409973e-01 -3.429395925998687744e+01 -5.239585821051093717e-01
-1.102944090962409973e-01 -3.565003836154937744e+01 -5.296195928472968717e-01
2.595786377787590027e-01 -3.694300711154937744e+01 -5.345329229254218717e-01
6.570395752787590027e-01 -3.848341238498687744e+01 -5.408805791754218717e-01
5.299643799662590027e-01 -8.983900666236877441e+00 -3.345207158941718717e-01
6.353110596537590027e-01 -8.932142853736877441e+00 -3.329643194097968717e-01
-1.109928198158740997e+00 -3.276392996311187744e+01 -3.615745489019843717e-01
-8.012123778462409973e-01 -3.386170828342437744e+01 -3.616355840582343717e-01
-4.712563231587409973e-01 -3.498060476779937744e+01 -3.606590215582343717e-01
-1.217690184712409973e-01 -3.644654715061187744e+01 -3.603233281988593717e-01
2.557944580912590027e-01 -3.780116140842437744e+01 -3.593925420660468717e-01
6.639975830912590027e-01 -3.962721121311187744e+01 -3.592704717535468717e-01
5.317954346537590027e-01 -9.116224884986877441e+00 -2.856773321051093717e-01
6.387290284037590027e-01 -9.073256134986877441e+00 -2.841056768316718717e-01
-1.137394018471240997e+00 -3.337672293186187744e+01 -2.024101201910468717e-01
-8.229408934712409973e-01 -3.448365652561187744e+01 -1.964897100347968717e-01
-4.907875731587409973e-01 -3.578260672092437744e+01 -1.899589483160468717e-01
-1.336098387837409973e-01 -3.726209890842437744e+01 -1.827720586676093717e-01
2.513999268412590027e-01 -3.887623465061187744e+01 -1.749748174566718717e-01
6.703452393412590027e-01 -4.073267996311187744e+01 -1.662620489019843717e-01
5.313071534037590027e-01 -9.123549103736877441e+00 -2.356590215582343717e-01
6.384848877787590027e-01 -9.086928009986877441e+00 -2.345298711676093717e-01
-1.164127416908740997e+00 -3.397169363498687744e+01 -3.689803523010937170e-02
-8.452797606587409973e-01 -3.512330496311187744e+01 -2.644576472229687170e-02
-5.097084715962409973e-01 -3.655299246311187744e+01 -1.306380671448437170e-02
-1.463051512837409973e-01 -3.813966238498687744e+01 1.691442308953128304e-03
2.466391846537590027e-01 -4.008289968967437744e+01 1.917801457457812830e-02
6.757163330912590027e-01 -4.171339285373687744e+01 3.497086125426562830e-02
5.317954346537590027e-01 -9.185438752174377441e+00 -1.854728643316718717e-01
6.390952393412590027e-01 -9.131727814674377441e+00 -1.843742315191718717e-01
-1.191104955971240997e+00 -3.457423269748687744e+01 1.332374628167656283e-01
-8.711586669087409973e-01 -3.587391531467437744e+01 1.515480096917656283e-01
-5.302162840962409973e-01 -3.739088308811187744e+01 1.725593622308281283e-01
-1.620522215962409973e-01 -3.926515066623687744e+01 1.979194696527031283e-01
2.422446534037590027e-01 -4.108167898654937744e+01 2.230354364495781283e-01
6.727866455912590027e-01 -4.163343679904937744e+01 2.341133173089531283e-01
5.311850830912590027e-01 -9.184095978736877441e+00 -1.351951543707343717e-01
6.384848877787590027e-01 -9.130507111549377441e+00 -1.346000615972968717e-01
-1.219303198158740997e+00 -3.520167410373687744e+01 3.101631219964531283e-01
-8.983803465962409973e-01 -3.666309988498687744e+01 3.370338495355156283e-01
-5.551186278462409973e-01 -3.842469656467437744e+01 3.679634149652031283e-01
-1.793862059712409973e-01 -4.051551687717437744e+01 4.054237421136406283e-01
2.377280518412590027e-01 -4.208509695529937744e+01 4.350563104730156283e-01
6.699790284037590027e-01 -4.156190359592437744e+01 4.315620477777031283e-01
5.306968018412590027e-01 -9.190199494361877441e+00 -8.481063288635937170e-02
6.382407471537590027e-01 -9.143080353736877441e+00 -8.436812800354687170e-02
-1.253360815346240997e+00 -3.596632254123687744e+01 4.955879266839531283e-01
-9.292641356587409973e-01 -3.755970633029937744e+01 5.309577997308281283e-01
-5.847817137837409973e-01 -3.966309988498687744e+01 5.779396112542656283e-01
-1.934242919087409973e-01 -4.148133718967437744e+01 6.195961053948906283e-01
2.317466065287590027e-01 -4.365663015842437744e+01 6.689582880120781283e-01
6.805991455912590027e-01 -4.325684988498687744e+01 6.657539423089531283e-01
5.295981690287590027e-01 -9.161268830299377441e+00 -3.538741511292187170e-02
6.364096924662590027e-01 -9.098524689674377441e+00 -3.521956843323437170e-02
5.927085205912590027e-01 -7.162489533424377441e+00 -8.536399785894843717e-01
6.826743409037590027e-01 -7.191053986549377441e+00 -8.545402471441718717e-01
7.731284424662590027e-01 -7.216078400611877441e+00 -8.554252569097968717e-01
8.643149659037590027e-01 -7.239760041236877441e+00 -8.562187139410468717e-01
9.561118409037590027e-01 -7.265516877174377441e+00 -8.571342412847968717e-01
1.048396997153759003e+00 -7.292128205299377441e+00 -8.581108037847968717e-01
1.141780786216259003e+00 -7.317885041236877441e+00 -8.590263311285468717e-01
1.234920434653759003e+00 -7.339857697486877441e+00 -8.598960821051093717e-01
6.126059815287590027e-01 -7.873549103736877441e+00 -8.565544073004218717e-01
7.101401612162590027e-01 -7.916884064674377441e+00 -8.583702031988593717e-01
8.088950440287590027e-01 -7.965223908424377441e+00 -8.602470342535468717e-01
9.089927002787590027e-01 -8.009657502174377441e+00 -8.621238653082343717e-01
1.009212426841259003e+00 -8.048109650611877441e+00 -8.636039678472968717e-01
1.109798364341259003e+00 -8.078749299049377441e+00 -8.646110479254218717e-01
1.210994653403759003e+00 -8.105116486549377441e+00 -8.655723516363593717e-01
1.313045434653759003e+00 -8.136244416236877441e+00 -8.665946905035468717e-01
6.356772705912590027e-01 -8.702162384986877441e+00 -8.596519414801093717e-01
7.415122315287590027e-01 -8.747206330299377441e+00 -8.612693731207343717e-01
8.485678955912590027e-01 -8.792860627174377441e+00 -8.629020635504218717e-01
9.569663330912590027e-01 -8.839003205299377441e+00 -8.645500127691718717e-01
1.065120629966259003e+00 -8.871840119361877441e+00 -8.654350225347968717e-01
1.174007348716259003e+00 -8.903944611549377441e+00 -8.662742559332343717e-01
1.284358911216259003e+00 -8.940321564674377441e+00 -8.673423711676093717e-01
1.397273950278759003e+00 -8.995863556861877441e+00 -8.694938604254218717e-01
6.646079346537590027e-01 -9.737806916236877441e+00 -8.662895147222968717e-01
7.810630127787590027e-01 -9.788221955299377441e+00 -8.675712530035468717e-01
8.982505127787590027e-01 -9.832777619361877441e+00 -8.688072149176093717e-01
1.017513208091259003e+00 -9.886854767799377441e+00 -8.705314580816718717e-01
1.138484887778759003e+00 -9.953138947486877441e+00 -8.728813115972968717e-01
1.260921411216259003e+00 -1.002027761936187744e+01 -8.752616826910468717e-01
1.385433129966259003e+00 -1.008839285373687744e+01 -8.776878301519843717e-01
1.510433129966259003e+00 -1.015040457248687744e+01 -8.800682012457343717e-01
6.665610596537590027e-01 -9.828383088111877441e+00 -8.176750127691718717e-01
8.379477784037590027e-01 -1.128797781467437744e+01 -8.865989629644843717e-01
9.713706299662590027e-01 -1.135829031467437744e+01 -8.886894170660468717e-01
1.106258325278759003e+00 -1.141615164279937744e+01 -8.901695196051093717e-01
1.241878442466259003e+00 -1.147450125217437744e+01 -8.916496221441718717e-01
1.378963403403759003e+00 -1.153333914279937744e+01 -8.931449834722968717e-01
1.517879419028759003e+00 -1.159290945529937744e+01 -8.946556035894843717e-01
1.657771997153759003e+00 -1.165296804904937744e+01 -8.961814824957343717e-01
6.641196534037590027e-01 -9.767958283424377441e+00 -7.619346563238593717e-01
7.941245362162590027e-01 -1.016383230686187744e+01 -7.776664678472968717e-01
1.064144067466259003e+00 -1.329163992404937744e+01 -9.118522588629218717e-01
1.168147973716259003e+00 -1.249122488498687744e+01 -8.757652227301093717e-01
1.375789575278759003e+00 -1.344508230686187744e+01 -9.154075567144843717e-01
1.534114770591259003e+00 -1.352296316623687744e+01 -9.172080938238593717e-01
1.694759301841259003e+00 -1.360194265842437744e+01 -9.190391485113593717e-01
1.855647973716259003e+00 -1.367066824436187744e+01 -9.207939092535468717e-01
6.625327393412590027e-01 -9.734022736549377441e+00 -7.075065557379218717e-01
7.931479737162590027e-01 -1.015626394748687744e+01 -7.227043096441718717e-01
1.189266137778759003e+00 -1.590431082248687744e+01 -9.438804571051093717e-01
1.162166528403759003e+00 -1.240174734592437744e+01 -8.068717901129218717e-01
1.327938012778759003e+00 -1.275782644748687744e+01 -8.190940801519843717e-01
1.738460473716259003e+00 -1.614393484592437744e+01 -9.475425664801093717e-01
1.925716333091259003e+00 -1.622572195529937744e+01 -9.487937871832343717e-01
2.119319848716259003e+00 -1.635914480686187744e+01 -9.519981328863593717e-01
6.613120362162590027e-01 -9.713148713111877441e+00 -6.541465703863593717e-01
7.850913330912590027e-01 -9.963881134986877441e+00 -6.615013067144843717e-01
9.008139893412590027e-01 -9.940687775611877441e+00 -6.591667119879218717e-01
1.016536645591259003e+00 -9.917494416236877441e+00 -6.571220342535468717e-01
1.131648950278759003e+00 -9.894423127174377441e+00 -6.550926153082343717e-01
1.246395044028759003e+00 -9.871351838111877441e+00 -6.530631963629218717e-01
1.361263208091259003e+00 -9.848280549049377441e+00 -6.513236944097968717e-01
1.475398950278759003e+00 -9.825453400611877441e+00 -6.493095342535468717e-01
6.604575440287590027e-01 -9.703627228736877441e+00 -6.010459844488593717e-01
7.844809815287590027e-01 -9.964857697486877441e+00 -6.075157110113593717e-01
8.982505127787590027e-01 -9.902235627174377441e+00 -6.043876592535468717e-01
1.013851098716259003e+00 -9.881483674049377441e+00 -6.024955694097968717e-01
1.143123559653759003e+00 -1.007288992404937744e+01 -6.068138067144843717e-01
1.259090356528759003e+00 -1.004212820529937744e+01 -6.046012823004218717e-01
1.375179223716259003e+00 -1.001405203342437744e+01 -6.024955694097968717e-01
1.490901879966259003e+00 -9.990736603736877441e+00 -6.005119268316718717e-01
6.397055909037590027e-01 -8.990736603736877441e+00 -5.306571905035468717e-01
7.454184815287590027e-01 -8.957777619361877441e+00 -5.286125127691718717e-01
8.507651612162590027e-01 -8.927748322486877441e+00 -5.266593877691718717e-01
9.561118409037590027e-01 -8.900038361549377441e+00 -5.247672979254218717e-01
1.060726098716259003e+00 -8.874281525611877441e+00 -5.229362432379218717e-01
1.165340356528759003e+00 -8.851820588111877441e+00 -5.211814824957343717e-01
1.270076684653759003e+00 -8.830824494361877441e+00 -5.194572393316718717e-01
1.374202661216259003e+00 -8.809828400611877441e+00 -5.177482549566718717e-01
6.386069580912590027e-01 -8.972303986549377441e+00 -4.808067266363593717e-01
7.441977784037590027e-01 -8.941053986549377441e+00 -4.789298955816718717e-01
8.494223877787590027e-01 -8.912367463111877441e+00 -4.771140996832343717e-01
9.546469971537590027e-01 -8.885878205299377441e+00 -4.753440801519843717e-01
1.059139184653759003e+00 -8.860121369361877441e+00 -4.735893194097968717e-01
1.164730004966259003e+00 -8.852675080299377441e+00 -4.722160283941718717e-01
1.269466333091259003e+00 -8.831678986549377441e+00 -4.705680791754218717e-01
1.373592309653759003e+00 -8.810682892799377441e+00 -4.689201299566718717e-01
6.372641846537590027e-01 -8.943373322486877441e+00 -4.312309209722968717e-01
7.424887940287590027e-01 -8.912733674049377441e+00 -4.294761602301093717e-01
8.474692627787590027e-01 -8.884169220924377441e+00 -4.277671758551093717e-01
9.523276612162590027e-01 -8.857557892799377441e+00 -4.260887090582343717e-01
1.057552270591259003e+00 -8.845839142799377441e+00 -4.246543828863593717e-01
1.164241723716259003e+00 -8.853529572486877441e+00 -4.235099737066718717e-01
1.268123559653759003e+00 -8.823622345924377441e+00 -4.217857305426093717e-01
1.371150903403759003e+00 -8.792128205299377441e+00 -4.200614873785468717e-01
6.361655518412590027e-01 -8.925306916236877441e+00 -3.817924444097968717e-01
7.412680909037590027e-01 -8.895033478736877441e+00 -3.801597539801093717e-01
8.460044190287590027e-01 -8.866835236549377441e+00 -3.788169805426093717e-01
9.507407471537590027e-01 -8.840712189674377441e+00 -3.772300664801093717e-01
1.054988794028759003e+00 -8.816176056861877441e+00 -3.756889287847968717e-01
1.158870629966259003e+00 -8.793715119361877441e+00 -3.741630498785468717e-01
1.262996606528759003e+00 -8.772596955299377441e+00 -3.723930303472968717e-01
1.366634301841259003e+00 -8.752821564674377441e+00 -3.708976690191718717e-01
6.356772705912590027e-01 -8.931898713111877441e+00 -3.329643194097968717e-01
7.409018799662590027e-01 -8.903334259986877441e+00 -3.314384405035468717e-01
8.458823487162590027e-01 -8.876845002174377441e+00 -3.299583379644843717e-01
9.508628174662590027e-01 -8.852186799049377441e+00 -3.284782354254218717e-01
1.055232934653759003e+00 -8.829725861549377441e+00 -3.270133916754218717e-01
1.159358911216259003e+00 -8.808729767799377441e+00 -3.255638067144843717e-01
1.264461450278759003e+00 -8.796766877174377441e+00 -3.241752569097968717e-01
1.374568872153759003e+00 -8.840345978736877441e+00 -3.231071416754218717e-01
6.390952393412590027e-01 -9.073011994361877441e+00 -2.841056768316718717e-01
7.456626221537590027e-01 -9.042860627174377441e+00 -2.829307500738593717e-01
8.518637940287590027e-01 -9.014784455299377441e+00 -2.815116826910468717e-01
9.580649659037590027e-01 -8.988539338111877441e+00 -2.800926153082343717e-01
1.063655786216259003e+00 -8.963636994361877441e+00 -2.786888067144843717e-01
1.169002465903759003e+00 -8.940931916236877441e+00 -2.772849981207343717e-01
1.274593286216259003e+00 -8.919325470924377441e+00 -2.758811895269843717e-01
1.379695825278759003e+00 -8.899672150611877441e+00 -2.742332403082343717e-01
6.386069580912590027e-01 -9.077284455299377441e+00 -2.345603887457343717e-01
7.451743409037590027e-01 -9.045790314674377441e+00 -2.332328740972968717e-01
8.513755127787590027e-01 -9.017714142799377441e+00 -2.319053594488593717e-01
9.575766846537590027e-01 -8.991591095924377441e+00 -2.305778448004218717e-01
1.063289575278759003e+00 -8.967421174049377441e+00 -2.292503301519843717e-01
1.168636254966259003e+00 -8.944594025611877441e+00 -2.279228155035468717e-01
1.274227075278759003e+00 -8.923109650611877441e+00 -2.265953008551093717e-01
1.379329614341259003e+00 -8.903334259986877441e+00 -2.252677862066718717e-01
6.394614502787590027e-01 -9.130629181861877441e+00 -1.843742315191718717e-01
7.446860596537590027e-01 -9.049818634986877441e+00 -1.837791387457343717e-01
8.508872315287590027e-01 -9.021742463111877441e+00 -1.825431768316718717e-01
9.572104737162590027e-01 -8.995619416236877441e+00 -1.813072149176093717e-01
1.062923364341259003e+00 -8.971449494361877441e+00 -1.800559942144843717e-01
1.168392114341259003e+00 -8.948622345924377441e+00 -1.788047735113593717e-01
1.273982934653759003e+00 -8.927137970924377441e+00 -1.775535528082343717e-01
1.379085473716259003e+00 -8.907362580299377441e+00 -1.760124151129218717e-01
6.388510987162590027e-01 -9.129530549049377441e+00 -1.346153203863593717e-01
7.441977784037590027e-01 -9.054579377174377441e+00 -1.340202276129218717e-01
8.505210205912590027e-01 -9.026625275611877441e+00 -1.328910772222968717e-01
9.568442627787590027e-01 -9.000502228736877441e+00 -1.317314092535468717e-01
1.062557153403759003e+00 -8.976332306861877441e+00 -1.305717412847968717e-01
1.168025903403759003e+00 -8.953505158424377441e+00 -1.293968145269843717e-01
1.273738794028759003e+00 -8.931898713111877441e+00 -1.281913701910468717e-01
1.378841333091259003e+00 -8.912123322486877441e+00 -1.269859258551093717e-01
6.386069580912590027e-01 -9.142103791236877441e+00 -8.438338679260937170e-02
7.438315674662590027e-01 -9.060560822486877441e+00 -8.421554011292187170e-02
8.501548096537590027e-01 -9.032484650611877441e+00 -8.343734187073437170e-02
9.566001221537590027e-01 -9.006239533424377441e+00 -8.238448542542187170e-02
1.062313012778759003e+00 -8.982069611549377441e+00 -8.128585261292187170e-02
1.167903833091259003e+00 -8.959242463111877441e+00 -8.018721980042187170e-02
1.273494653403759003e+00 -8.937758088111877441e+00 -7.879866999573437170e-02
1.378719262778759003e+00 -8.917860627174377441e+00 -7.765426081604687170e-02
6.367759034037590027e-01 -9.098402619361877441e+00 -3.521956843323437170e-02
7.434653565287590027e-01 -9.067030549049377441e+00 -3.460921687073437170e-02
8.499106690287590027e-01 -9.038954377174377441e+00 -3.367843073792187170e-02
9.563559815287590027e-01 -9.013685822486877441e+00 -3.268660944885937170e-02
1.062190942466259003e+00 -8.990004181861877441e+00 -3.166427058167187170e-02
1.167781762778759003e+00 -8.965834259986877441e+00 -3.065719050354687170e-02
1.273494653403759003e+00 -8.944349884986877441e+00 -2.960433405823437170e-02
1.378719262778759003e+00 -8.924696564674377441e+00 -2.824630183167187170e-02
1.235286645591259003e+00 -7.340101838111877441e+00 -8.599113408941718717e-01
1.329524926841259003e+00 -7.365248322486877441e+00 -8.608268682379218717e-01
1.424007348716259003e+00 -7.386610627174377441e+00 -8.617118780035468717e-01
1.519466333091259003e+00 -7.408217072486877441e+00 -8.626121465582343717e-01
1.615413598716259003e+00 -7.429823517799377441e+00 -8.634971563238593717e-01
1.711971215903759003e+00 -7.451674103736877441e+00 -8.644126836676093717e-01
1.809627465903759003e+00 -7.473768830299377441e+00 -8.653282110113593717e-01
1.907039575278759003e+00 -7.491835236549377441e+00 -8.661979619879218717e-01
1.313411645591259003e+00 -8.136610627174377441e+00 -8.666252080816718717e-01
1.415706567466259003e+00 -8.162855744361877441e+00 -8.676017705816718717e-01
1.519466333091259003e+00 -8.193983674049377441e+00 -8.686241094488593717e-01
1.623836450278759003e+00 -8.220717072486877441e+00 -8.696311895269843717e-01
1.728328637778759003e+00 -8.245253205299377441e+00 -8.704856817144843717e-01
1.833553247153759003e+00 -8.268934845924377441e+00 -8.712943975347968717e-01
1.939998559653759003e+00 -8.293593049049377441e+00 -8.724082891363593717e-01
2.047908715903759003e+00 -8.324843049049377441e+00 -8.736595098394843717e-01
1.397640161216259003e+00 -8.996351838111877441e+00 -8.695243780035468717e-01
1.511287622153759003e+00 -9.046888947486877441e+00 -8.716453496832343717e-01
1.626277856528759003e+00 -9.098158478736877441e+00 -8.737815801519843717e-01
1.743099145591259003e+00 -9.150160431861877441e+00 -8.759635869879218717e-01
1.860896997153759003e+00 -9.202650666236877441e+00 -8.781608526129218717e-01
1.979915551841259003e+00 -9.253553986549377441e+00 -8.802513067144843717e-01
2.097957544028759003e+00 -9.287977814674377441e+00 -8.814262334722968717e-01
2.216731958091259003e+00 -9.322767853736877441e+00 -8.826011602301093717e-01
1.510921411216259003e+00 -1.015113699436187744e+01 -8.800987188238593717e-01
1.638362817466259003e+00 -1.022193777561187744e+01 -8.825859014410468717e-01
1.768245629966259003e+00 -1.029908621311187744e+01 -8.856834356207343717e-01
1.898982934653759003e+00 -1.036451590061187744e+01 -8.881706182379218717e-01
2.027889184653759003e+00 -1.040772879123687744e+01 -8.894828740972968717e-01
2.158016137778759003e+00 -1.045142996311187744e+01 -8.908103887457343717e-01
2.138729028403759003e+00 -9.548109650611877441e+00 -8.432945196051093717e-01
2.421321801841259003e+00 -1.053297293186187744e+01 -8.934349004644843717e-01
1.658260278403759003e+00 -1.165357840061187744e+01 -8.962120000738593717e-01
1.799007348716259003e+00 -1.170814383029937744e+01 -8.977073614019843717e-01
1.941341333091259003e+00 -1.176344168186187744e+01 -8.992179815191718717e-01
2.085750512778759003e+00 -1.181934988498687744e+01 -9.007438604254218717e-01
2.231136254966259003e+00 -1.187574636936187744e+01 -9.022849981207343717e-01
2.382625512778759003e+00 -1.196241629123687744e+01 -9.052299444097968717e-01
2.127864770591259003e+00 -9.484877228736877441e+00 -7.878440801519843717e-01
2.701473169028759003e+00 -1.218873465061187744e+01 -9.135612432379218717e-01
1.856258325278759003e+00 -1.367140066623687744e+01 -9.208244268316718717e-01
2.020564965903759003e+00 -1.375660574436187744e+01 -9.227317754644843717e-01
2.185970239341259003e+00 -1.383167898654937744e+01 -9.245628301519843717e-01
2.353938989341259003e+00 -1.390797293186187744e+01 -9.264396612066718717e-01
2.523372583091259003e+00 -1.398487722873687744e+01 -9.283164922613593717e-01
2.695003442466259003e+00 -1.406288015842437744e+01 -9.302238408941718717e-01
2.121150903403759003e+00 -9.448011994361877441e+00 -7.338432256597968717e-01
2.689144067466259003e+00 -1.212159597873687744e+01 -8.459037725347968717e-01
2.120052270591259003e+00 -1.636036550998687744e+01 -9.520439092535468717e-01
2.317562036216259003e+00 -1.650111258029937744e+01 -9.557060186285468717e-01
2.518611840903759003e+00 -1.664430105686187744e+01 -9.594291631597968717e-01
2.724056176841259003e+00 -1.679078543186187744e+01 -9.632286016363593717e-01
2.932796411216259003e+00 -1.693934500217437744e+01 -9.671043340582343717e-01
3.136287622153759003e+00 -1.702967703342437744e+01 -9.687370244879218717e-01
2.116756372153759003e+00 -9.425184845924377441e+00 -6.810020391363593717e-01
2.678523950278759003e+00 -1.206507742404937744e+01 -7.789482061285468717e-01
1.475765161216259003e+00 -9.825331330299377441e+00 -6.492942754644843717e-01
1.589656762778759003e+00 -9.802382111549377441e+00 -6.473716680426093717e-01
1.703426294028759003e+00 -9.779432892799377441e+00 -6.451744024176093717e-01
1.812923364341259003e+00 -9.720839142799377441e+00 -6.420616094488593717e-01
1.925472192466259003e+00 -9.694716095924377441e+00 -6.400474492926093717e-01
2.044246606528759003e+00 -9.710829377174377441e+00 -6.394218389410468717e-01
2.113948754966259003e+00 -9.412611603736877441e+00 -6.287101690191718717e-01
2.672542504966259003e+00 -1.203590261936187744e+01 -7.137779180426093717e-01
1.491390161216259003e+00 -9.990614533424377441e+00 -6.005119268316718717e-01
1.607356958091259003e+00 -9.972059845924377441e+00 -5.987266485113593717e-01
1.723567895591259003e+00 -9.955702424049377441e+00 -5.970176641363593717e-01
1.887630395591259003e+00 -1.030799734592437744e+01 -6.058372442144843717e-01
2.031917504966259003e+00 -1.046693289279937744e+01 -6.090873662847968717e-01
2.120662622153759003e+00 -1.022913992404937744e+01 -6.010307256597968717e-01
2.061824731528759003e+00 -9.089979767799377441e+00 -5.675071660894843717e-01
2.470271997153759003e+00 -1.084767019748687744e+01 -6.158775274176093717e-01
1.374568872153759003e+00 -8.809828400611877441e+00 -5.177482549566718717e-01
1.478694848716259003e+00 -8.791517853736877441e+00 -5.161155645269843717e-01
1.582942895591259003e+00 -8.774428009986877441e+00 -5.145286504644843717e-01
1.687801294028759003e+00 -8.759535431861877441e+00 -5.129875127691718717e-01
1.792415551841259003e+00 -8.746473908424377441e+00 -5.114768926519843717e-01
1.898494653403759003e+00 -8.742445588111877441e+00 -5.101951543707343717e-01
2.038631372153759003e+00 -8.948988556861877441e+00 -5.138877813238593717e-01
2.337093286216259003e+00 -1.006666433811187744e+01 -5.389732305426093717e-01
1.373958520591259003e+00 -8.810682892799377441e+00 -4.689201299566718717e-01
1.475398950278759003e+00 -8.767714142799377441e+00 -4.668296758551093717e-01
1.579158715903759003e+00 -8.748304963111877441e+00 -4.651969854254218717e-01
1.683406762778759003e+00 -8.731215119361877441e+00 -4.636253301519843717e-01
1.787776879966259003e+00 -8.717787384986877441e+00 -4.621147100347968717e-01
1.893489770591259003e+00 -8.714125275611877441e+00 -4.608024541754218717e-01
2.029354028403759003e+00 -8.895765900611877441e+00 -4.629844610113593717e-01
2.334407739341259003e+00 -1.005580008029937744e+01 -4.835838262457343717e-01
1.371395044028759003e+00 -8.792006134986877441e+00 -4.200462285894843717e-01
1.472835473716259003e+00 -8.750258088111877441e+00 -4.181083623785468717e-01
1.576717309653759003e+00 -8.733534455299377441e+00 -4.165519658941718717e-01
1.680965356528759003e+00 -8.718031525611877441e+00 -4.150260869879218717e-01
1.785091333091259003e+00 -8.703993439674377441e+00 -4.135002080816718717e-01
1.890560083091259003e+00 -8.698622345924377441e+00 -4.121116582769843717e-01
2.018611840903759003e+00 -8.832899689674377441e+00 -4.127220098394843717e-01
2.331233911216259003e+00 -1.004163992404937744e+01 -4.285606328863593717e-01
1.366878442466259003e+00 -8.752699494361877441e+00 -3.708824102301093717e-01
1.470516137778759003e+00 -8.734877228736877441e+00 -3.693412725347968717e-01
1.574275903403759003e+00 -8.718397736549377441e+00 -3.680595342535468717e-01
1.678523950278759003e+00 -8.704115509986877441e+00 -3.665336553472968717e-01
1.782649926841259003e+00 -8.691542267799377441e+00 -3.650382940191718717e-01
1.888118676841259003e+00 -8.687391877174377441e+00 -3.636192266363593717e-01
2.015438012778759003e+00 -8.817640900611877441e+00 -3.632377569097968717e-01
2.326961450278759003e+00 -1.002125418186187744e+01 -3.733238164801093717e-01
1.374935083091259003e+00 -8.840712189674377441e+00 -3.231071416754218717e-01
1.489437036216259003e+00 -8.916029572486877441e+00 -3.221000615972968717e-01
1.594783715903759003e+00 -8.897596955299377441e+00 -3.205284063238593717e-01
1.700374536216259003e+00 -8.880018830299377441e+00 -3.189720098394843717e-01
1.806087426841259003e+00 -8.865370392799377441e+00 -3.174308721441718717e-01
1.908504419028759003e+00 -8.829237580299377441e+00 -3.157829229254218717e-01
2.025936059653759003e+00 -8.888685822486877441e+00 -3.146232549566718717e-01
2.319881372153759003e+00 -9.984388947486877441e+00 -3.184989873785468717e-01
1.379939965903759003e+00 -8.899550080299377441e+00 -2.742332403082343717e-01
1.484920434653759003e+00 -8.880751252174377441e+00 -2.729515020269843717e-01
1.590022973716259003e+00 -8.863539338111877441e+00 -2.714256231207343717e-01
1.695613794028759003e+00 -8.848280549049377441e+00 -2.698844854254218717e-01
1.801082544028759003e+00 -8.834608674049377441e+00 -2.683586065191718717e-01
1.908016137778759003e+00 -8.831190705299377441e+00 -2.668327276129218717e-01
2.023372583091259003e+00 -8.876600861549377441e+00 -2.653068487066718717e-01
2.234798364341259003e+00 -9.486220002174377441e+00 -2.636436406988593717e-01
1.379695825278759003e+00 -8.903212189674377441e+00 -2.252677862066718717e-01
1.484676294028759003e+00 -8.884413361549377441e+00 -2.237571660894843717e-01
1.589778833091259003e+00 -8.867201447486877441e+00 -2.222312871832343717e-01
1.695369653403759003e+00 -8.851820588111877441e+00 -2.207054082769843717e-01
1.800838403403759003e+00 -8.838270783424377441e+00 -2.191642705816718717e-01
1.907405786216259003e+00 -8.832289338111877441e+00 -2.175926153082343717e-01
2.022884301841259003e+00 -8.878431916236877441e+00 -2.158073369879218717e-01
2.248958520591259003e+00 -9.574232697486877441e+00 -2.111228887457343717e-01
1.379451684653759003e+00 -8.907240509986877441e+00 -1.760124151129218717e-01
1.484432153403759003e+00 -8.888441681861877441e+00 -1.747764531988593717e-01
1.589534692466259003e+00 -8.871229767799377441e+00 -1.732810918707343717e-01
1.695125512778759003e+00 -8.855848908424377441e+00 -1.717552129644843717e-01
1.800716333091259003e+00 -8.842299103736877441e+00 -1.702140752691718717e-01
1.918636254966259003e+00 -8.912855744361877441e+00 -1.679405156988593717e-01
2.022518090903759003e+00 -8.881239533424377441e+00 -1.665519658941718717e-01
