5.268885567784309387e-02 -1.144922378659248352e+01 3.388728664722293615e-01
1.349642463028430939e-01 -1.147314956784248352e+01 3.444118069019168615e-01
-4.484097771346569061e-01 -1.140991714596748352e+01 3.513545559253543615e-01
-3.651578240096569061e-01 -1.141211441159248352e+01 3.569697903003543615e-01
-2.831265740096569061e-01 -1.142944839596748352e+01 3.623103664722293615e-01
-1.996304802596569061e-01 -1.143115738034248352e+01 3.679408596362918615e-01
-1.155240349471569061e-01 -1.141992691159248352e+01 3.735866115894168615e-01
-3.288243338465690613e-02 -1.143481948971748352e+01 3.792018459644168615e-01
4.939295724034309387e-02 -1.145435073971748352e+01 3.850459621753543615e-01
1.316683478653430939e-01 -1.147803238034248352e+01 3.906764553394168615e-01
-4.518277458846569061e-01 -1.141309097409248352e+01 3.972529934253543615e-01
-3.686978630721569061e-01 -1.141699722409248352e+01 4.028682278003543615e-01
-2.856900505721569061e-01 -1.142188003659248352e+01 4.084682033862918615e-01
-2.024380974471569061e-01 -1.142798355221748352e+01 4.141139553394168615e-01
-1.200406365096569061e-01 -1.144080093502998352e+01 4.197444485034793615e-01
-3.727696463465690613e-02 -1.145630386471748352e+01 4.254207180347293615e-01
4.524256661534309387e-02 -1.147546890377998352e+01 4.310969875659793615e-01
1.277620978653430939e-01 -1.149829605221748352e+01 4.368037746753543615e-01
-4.606168083846569061e-01 -1.147217300534248352e+01 4.437312649097293615e-01
-3.769986443221569061e-01 -1.147559097409248352e+01 4.491176174487918615e-01
-2.935025505721569061e-01 -1.148022964596748352e+01 4.547633694019168615e-01
-2.097623161971569061e-01 -1.148657730221748352e+01 4.604243801441043615e-01
-1.267545036971569061e-01 -1.149792984127998352e+01 4.661159084644168615e-01
-4.338048025965690613e-02 -1.151221206784248352e+01 4.718532131519168615e-01
3.950526192784309387e-02 -1.153015640377998352e+01 4.776210354175418615e-01
1.226351447403430939e-01 -1.155139663815498352e+01 4.836635158862918615e-01
-4.648892693221569061e-01 -1.148438003659248352e+01 4.900416897144168615e-01
-3.811490349471569061e-01 -1.148804214596748352e+01 4.956721828784793615e-01
-2.976529411971569061e-01 -1.149304702877998352e+01 5.013179348316043615e-01
-2.139127068221569061e-01 -1.149963882565498352e+01 5.069942043628543615e-01
-1.306607536971569061e-01 -1.151099136471748352e+01 5.127162502612918615e-01
-4.728673025965690613e-02 -1.152527359127998352e+01 5.184993313159793615e-01
3.584315255284309387e-02 -1.154309585690498352e+01 5.243281887378543615e-01
1.189730353653430939e-01 -1.156482437252998352e+01 5.302180813159793615e-01
-4.691617302596569061e-01 -1.149609878659248352e+01 5.366878078784793615e-01
-3.854214958846569061e-01 -1.149976089596748352e+01 5.420741604175418615e-01
-3.016812615096569061e-01 -1.150488784909248352e+01 5.477199123706668615e-01
-2.178189568221569061e-01 -1.151160171627998352e+01 5.534114406909793615e-01
-1.345670036971569061e-01 -1.152307632565498352e+01 5.591792629566043615e-01
-5.107090994715690613e-02 -1.153699234127998352e+01 5.649928615894168615e-01
3.205897286534309387e-02 -1.155591323971748352e+01 5.708980129566043615e-01
1.151888556778430939e-01 -1.157971695065498352e+01 5.771693752612918615e-01
-4.741666130721569061e-01 -1.151453140377998352e+01 5.833339260425418615e-01
-3.901822380721569061e-01 -1.151868179440498352e+01 5.889644192066043615e-01
-3.063199333846569061e-01 -1.152393081784248352e+01 5.946254299487918615e-01
-2.223355583846569061e-01 -1.153064468502998352e+01 6.003322170581668615e-01
-1.389615349471569061e-01 -1.154236343502998352e+01 6.061458156909793615e-01
-5.546544119715690613e-02 -1.155847671627998352e+01 6.120662258472293615e-01
2.803065255284309387e-02 -1.157458999752998352e+01 6.179713772144168615e-01
1.112826056778430939e-01 -1.159680679440498352e+01 6.240443752612918615e-01
-4.774625115096569061e-01 -1.151709488034248352e+01 6.299953029956668615e-01
-3.936002068221569061e-01 -1.152124527096748352e+01 6.356410549487918615e-01
-3.097379021346569061e-01 -1.152637222409248352e+01 6.412868069019168615e-01
-2.256314568221569061e-01 -1.153296402096748352e+01 6.467647121753543615e-01
-1.422574333846569061e-01 -1.154480484127998352e+01 6.525935695972293615e-01
-5.876133963465690613e-02 -1.156152847409248352e+01 6.588191555347293615e-01
2.351405099034309387e-02 -1.160193374752998352e+01 6.654414699878543615e-01
1.068880744278430939e-01 -1.162878921627998352e+01 6.717280910816043615e-01
-4.821011833846569061e-01 -1.153125503659248352e+01 6.770228908862918615e-01
-3.979947380721569061e-01 -1.153528335690498352e+01 6.824092434253543615e-01
-3.140103630721569061e-01 -1.154065445065498352e+01 6.880855129566043615e-01
-2.301480583846569061e-01 -1.155005386471748352e+01 6.938838528003543615e-01
-1.465298943221569061e-01 -1.156226089596748352e+01 6.997737453784793615e-01
-6.278965994715690613e-02 -1.157593277096748352e+01 7.057246731128543615e-01
2.046229317784309387e-02 -1.159924820065498352e+01 7.119655178394168615e-01
1.038363166153430939e-01 -1.162598159909248352e+01 7.186030910816043615e-01
1.438753791153430939e-01 -1.223108413815498352e+01 -2.051029636058956385e-01
2.327425666153430939e-01 -1.226184585690498352e+01 -2.003574802074581385e-01
3.222201056778430939e-01 -1.228625991940498352e+01 -1.955051852855831385e-01
4.126742072403430939e-01 -1.229077652096748352e+01 -1.895389987621456385e-01
5.027620978653430939e-01 -1.234009292721748352e+01 -1.859379245433956385e-01
5.937044806778430939e-01 -1.236646011471748352e+01 -1.810856296215206385e-01
6.847689338028430939e-01 -1.238489273190498352e+01 -1.758060886058956385e-01
7.758333869278430939e-01 -1.239417007565498352e+01 -1.703129245433956385e-01
1.050570197403430939e-01 -1.326282241940498352e+01 -2.072391940746456385e-01
2.024691291153430939e-01 -1.329370620846748352e+01 -2.020359470043331385e-01
3.208773322403430939e-01 -1.217810562252998352e+01 -1.404056979808956385e-01
4.102328009903430939e-01 -1.218140152096748352e+01 -1.341648532543331385e-01
4.980013556778430939e-01 -1.339331558346748352e+01 -1.862583591137081385e-01
5.977328009903430939e-01 -1.341882827877998352e+01 -1.809330417308956385e-01
6.977083869278430939e-01 -1.345044448971748352e+01 -1.755924655590206385e-01
7.981722541153430939e-01 -1.348218277096748352e+01 -1.702213718090206385e-01
5.793787911534309387e-02 -1.451135757565498352e+01 -2.098026706371456385e-01
1.654818244278430939e-01 -1.454895523190498352e+01 -2.040501071605831385e-01
3.183138556778430939e-01 -1.212793472409248352e+01 -8.863262669183313847e-02
4.074251838028430939e-01 -1.213037613034248352e+01 -8.263592259027063847e-02
4.921419806778430939e-01 -1.471875503659248352e+01 -1.890201999340206385e-01
6.032259650528430939e-01 -1.478223159909248352e+01 -1.841679050121456385e-01
7.145540900528430939e-01 -1.482947281002998352e+01 -1.785679294262081385e-01
8.268587775528430939e-01 -1.487708023190498352e+01 -1.729374362621456385e-01
-2.853136509656906128e-03 -1.612805679440498352e+01 -2.163639499340206385e-01
1.170199103653430939e-01 -1.620789077877998352e+01 -2.108860446605831385e-01
3.156283088028430939e-01 -1.209521988034248352e+01 -3.801922337152063847e-02
4.043734259903430939e-01 -1.209766128659248352e+01 -3.203777805902063847e-02
4.846956916153430939e-01 -1.644055679440498352e+01 -1.947117282543331385e-01
6.100619025528430939e-01 -1.649756363034248352e+01 -1.883335544262081385e-01
7.360384650528430939e-01 -1.657153823971748352e+01 -1.825657321605831385e-01
8.631136603653430939e-01 -1.663660171627998352e+01 -1.767521335277706385e-01
1.281283088028430939e-01 -1.229626968502998352e+01 -8.615536848083138466e-03
2.176058478653430939e-01 -1.232166031002998352e+01 -3.351254621520638466e-03
3.162386603653430939e-01 -1.188635757565498352e+01 1.825519069097936153e-02
4.013216681778430939e-01 -1.207629898190498352e+01 1.759906276129186153e-02
4.751742072403430939e-01 -1.866577652096748352e+01 -2.022190524730831385e-01
6.192171759903430939e-01 -1.877283218502998352e+01 -1.960087253246456385e-01
7.648470588028430939e-01 -1.890222671627998352e+01 -1.904545261058956385e-01
9.126742072403430939e-01 -1.903345230221748352e+01 -1.848240329418331385e-01
1.513216681778430939e-01 -1.155151870846748352e+01 6.500812037847936153e-02
2.339632697403430939e-01 -1.159875991940498352e+01 6.952472194097936153e-02
3.157503791153430939e-01 -1.173547866940498352e+01 7.109637721441686153e-02
3.993685431778430939e-01 -1.193921402096748352e+01 7.080646022222936153e-02
4.621126838028430939e-01 -2.172131851315498352e+01 -2.135410739574581385e-01
6.320345588028430939e-01 -2.191943863034248352e+01 -2.077579929027706385e-01
8.052523322403430939e-01 -2.215942886471748352e+01 -2.029819919262081385e-01
9.820101447403430939e-01 -2.238086441159248352e+01 -1.979313327465206385e-01
1.497347541153430939e-01 -1.150854995846748352e+01 1.128291653003543615e-01
2.320101447403430939e-01 -1.155603531002998352e+01 1.172847317066043615e-01
3.135531134903430939e-01 -1.168628433346748352e+01 1.196193264331668615e-01
3.961947150528430939e-01 -1.193677261471748352e+01 1.190242336597293615e-01
4.439242072403430939e-01 -2.591504409909248352e+01 -2.259006930980831385e-01
6.492464728653430939e-01 -2.621387222409248352e+01 -2.193088962230831385e-01
8.659212775528430939e-01 -2.704163101315498352e+01 -2.250919772777706385e-01
1.091263074427843094e+00 -2.763647964596748352e+01 -2.245121432933956385e-01
1.471712775528430939e-01 -1.149268081784248352e+01 1.593989895191043615e-01
2.294466681778430939e-01 -1.153650406002998352e+01 1.641292141284793615e-01
3.105013556778430939e-01 -1.167981460690498352e+01 1.669978664722293615e-01
3.931429572403430939e-01 -1.191748550534248352e+01 1.678370998706668615e-01
4.113314338028430939e-01 -3.384985855221748352e+01 -2.759037448558956385e-01
6.863558478653430939e-01 -3.488525894284248352e+01 -2.781162692699581385e-01
9.771273322403430939e-01 -3.589185073971748352e+01 -2.795048190746456385e-01
1.310745496302843094e+00 -3.810791519284248352e+01 -3.017216159496456385e-01
1.444857306778430939e-01 -1.147864273190498352e+01 2.060145901050418615e-01
2.266390509903430939e-01 -1.152344253659248352e+01 2.109279201831668615e-01
3.072054572403430939e-01 -1.168005874752998352e+01 2.139644192066043615e-01
3.899691291153430939e-01 -1.190320327877998352e+01 2.161159084644168615e-01
3.378451056778430939e-01 -5.226880386471748352e+01 -4.209080173168331385e-01
7.810824103653430939e-01 -5.651978042721748352e+01 -4.573307468090206385e-01
1.321243543177843094e+00 -6.289160659909248352e+01 -5.204258395824581385e-01
1.975784558802843094e+00 -6.968567398190498352e+01 -5.823460055980831385e-01
1.413119025528430939e-01 -1.147949722409248352e+01 2.520503567066043615e-01
2.235872931778430939e-01 -1.151819351315498352e+01 2.572383449878543615e-01
3.047640509903430939e-01 -1.164404800534248352e+01 2.613887356128543615e-01
3.869173713028430939e-01 -1.188574722409248352e+01 2.643184231128543615e-01
2.661898322403430939e-01 -6.709741714596748352e+01 -3.566532565746456385e-01
8.225863166153430939e-01 -6.940344741940498352e+01 -3.442631198558956385e-01
1.383822150528430939e-01 -1.147449234127998352e+01 2.983912990894168615e-01
2.206576056778430939e-01 -1.151038101315498352e+01 3.037776516284793615e-01
3.020785041153430939e-01 -1.161853531002998352e+01 3.086299465503543615e-01
3.837435431778430939e-01 -1.188232925534248352e+01 3.124904201831668615e-01
2.465365119278430939e-01 -6.685327652096748352e+01 -5.297283665277063847e-02
8.002474494278430939e-01 -6.918445327877998352e+01 -3.029827610589563847e-02
1.353304572403430939e-01 -1.147327163815498352e+01 3.444270656909793615e-01
2.176058478653430939e-01 -1.150879409909248352e+01 3.499812649097293615e-01
2.991488166153430939e-01 -1.161047866940498352e+01 3.553370998706668615e-01
3.803255744278430939e-01 -1.188538101315498352e+01 3.603572414722293615e-01
2.259066291153430939e-01 -6.691675308346748352e+01 2.461604641284793615e-01
7.787630744278430939e-01 -6.910620620846748352e+01 2.797450588550418615e-01
1.319124884903430939e-01 -1.147827652096748352e+01 3.906917141284793615e-01
2.143099494278430939e-01 -1.151379898190498352e+01 3.963985012378543615e-01
2.959749884903430939e-01 -1.160876968502998352e+01 4.019832180347293615e-01
3.770296759903430939e-01 -1.189685562252998352e+01 4.082698391284793615e-01
2.044222541153430939e-01 -6.714368179440498352e+01 5.462550686206668615e-01
1.281283088028430939e-01 -1.149841812252998352e+01 4.368190334644168615e-01
2.105257697403430939e-01 -1.153320816159248352e+01 4.426936672534793615e-01
2.923128791153430939e-01 -1.162976577877998352e+01 4.489802883472293615e-01
3.733675666153430939e-01 -1.191797378659248352e+01 4.566096828784793615e-01
1.228792853653430939e-01 -1.155151870846748352e+01 4.836940334644168615e-01
2.058870978653430939e-01 -1.158630874752998352e+01 4.895076320972293615e-01
2.880404181778430939e-01 -1.167798355221748352e+01 4.961909817066043615e-01
3.690951056778430939e-01 -1.199414566159248352e+01 5.054835842456668615e-01
1.192171759903430939e-01 -1.156506851315498352e+01 5.302333401050418615e-01
2.022249884903430939e-01 -1.160095718502998352e+01 5.364741848316043615e-01
2.843783088028430939e-01 -1.169861343502998352e+01 5.436915920581668615e-01
3.647005744278430939e-01 -1.207532241940498352e+01 5.553798244800418615e-01
1.154329963028430939e-01 -1.157983902096748352e+01 5.771846340503543615e-01
1.978304572403430939e-01 -1.163989761471748352e+01 5.838069485034793615e-01
2.805941291153430939e-01 -1.172729995846748352e+01 5.912837551441043615e-01
3.592074103653430939e-01 -1.222876480221748352e+01 6.072139309253543615e-01
1.116488166153430939e-01 -1.159705093502998352e+01 6.240596340503543615e-01
1.945345588028430939e-01 -1.164380386471748352e+01 6.309108303394168615e-01
2.765658088028430939e-01 -1.176038101315498352e+01 6.394862697925418615e-01
1.071322150528430939e-01 -1.162903335690498352e+01 6.717586086597293615e-01
1.897738166153430939e-01 -1.169238784909248352e+01 6.792964504566043615e-01
2.720492072403430939e-01 -1.181592300534248352e+01 6.886348293628543615e-01
3.234408088028430939e-01 -1.418237808346748352e+01 7.636622951831668615e-01
4.292757697403430939e-01 -1.415100601315498352e+01 7.699031399097293615e-01
1.040804572403430939e-01 -1.162610366940498352e+01 7.186183498706668615e-01
1.872103400528430939e-01 -1.167322281002998352e+01 7.256526516284793615e-01
2.615511603653430939e-01 -1.212561538815498352e+01 7.465114162769168615e-01
3.192904181778430939e-01 -1.418958023190498352e+01 8.225764797534793615e-01
7.761995978653430939e-01 -1.239429214596748352e+01 -1.702976657543331385e-01
8.676302619278430939e-01 -1.241052749752998352e+01 -1.648350192699581385e-01
9.593050666153430939e-01 -1.242090347409248352e+01 -1.593265964183956385e-01
1.051468152552843094e+00 -1.243127945065498352e+01 -1.537723971996456385e-01
1.143631238490343094e+00 -1.244153335690498352e+01 -1.482334567699581385e-01
1.236282605677843094e+00 -1.245203140377998352e+01 -1.426639987621456385e-01
1.328933972865343094e+00 -1.246240738034248352e+01 -1.370792819652706385e-01
1.421219129115343094e+00 -1.246667984127998352e+01 -1.314793063793331385e-01
7.984163947403430939e-01 -1.348242691159248352e+01 -1.702213718090206385e-01
8.993685431778430939e-01 -1.350952652096748352e+01 -1.648350192699581385e-01
1.000686902552843094e+00 -1.353687027096748352e+01 -1.594181491527706385e-01
1.103348035365343094e+00 -1.357068374752998352e+01 -1.539402438793331385e-01
1.205887097865343094e+00 -1.359839370846748352e+01 -1.484623386058956385e-01
1.309402722865343094e+00 -1.362671402096748352e+01 -1.432590915355831385e-01
1.414993543177843094e+00 -1.368054702877998352e+01 -1.388340427074581385e-01
1.521560925990343094e+00 -1.373486831784248352e+01 -1.343632175121456385e-01
8.272249884903430939e-01 -1.487732437252998352e+01 -1.729374362621456385e-01
9.400179572403430939e-01 -1.491895034909248352e+01 -1.672306491527706385e-01
1.053787488490343094e+00 -1.496082046627998352e+01 -1.614780856762081385e-01
1.168533582240343094e+00 -1.500317886471748352e+01 -1.556644870433956385e-01
1.283767957240343094e+00 -1.504468277096748352e+01 -1.497898532543331385e-01
1.401199597865343094e+00 -1.510095718502998352e+01 -1.444187595043331385e-01
1.519241590052843094e+00 -1.515759781002998352e+01 -1.390171481762081385e-01
1.640457410365343094e+00 -1.524072769284248352e+01 -1.345615817699581385e-01
8.634798713028430939e-01 -1.663696792721748352e+01 -1.767368747387081385e-01
9.921419806778430939e-01 -1.671655777096748352e+01 -1.708622409496456385e-01
1.121780652552843094e+00 -1.678699234127998352e+01 -1.649265720043331385e-01
1.253250379115343094e+00 -1.685840347409248352e+01 -1.589146091137081385e-01
1.385574597865343094e+00 -1.693030288815498352e+01 -1.528568698558956385e-01
1.519607800990343094e+00 -1.700305679440498352e+01 -1.467228366527706385e-01
1.658645886927843094e+00 -1.713135269284248352e+01 -1.424045993480831385e-01
1.806350965052843094e+00 -1.733752945065498352e+01 -1.409092380199581385e-01
9.131624884903430939e-01 -1.903455093502998352e+01 -1.848240329418331385e-01
1.063064832240343094e+00 -1.916150406002998352e+01 -1.791019870433956385e-01
1.215286511927843094e+00 -1.929028823971748352e+01 -1.733036471996456385e-01
1.371780652552843094e+00 -1.944971206784248352e+01 -1.682529880199581385e-01
1.531204480677843094e+00 -1.962390640377998352e+01 -1.635075046215206385e-01
1.702591199427843094e+00 -1.992639663815498352e+01 -1.623478366527706385e-01
1.882034558802843094e+00 -2.027783706784248352e+01 -1.623020602855831385e-01
2.062210340052843094e+00 -2.056311538815498352e+01 -1.599522067699581385e-01
9.826204963028430939e-01 -2.238269546627998352e+01 -1.979465915355831385e-01
1.164505261927843094e+00 -2.264893081784248352e+01 -1.930637790355831385e-01
1.350174207240343094e+00 -2.289685562252998352e+01 -1.878910495433956385e-01
1.541092175990343094e+00 -2.315161636471748352e+01 -1.825657321605831385e-01
1.751297254115343094e+00 -2.368628433346748352e+01 -1.841831638012081385e-01
1.976394910365343094e+00 -2.430005386471748352e+01 -1.871586276683956385e-01
2.228714246302843094e+00 -2.515698745846748352e+01 -1.954594089183956385e-01
2.495437879115343094e+00 -2.601453140377998352e+01 -2.034092380199581385e-01
1.092117566615343094e+00 -2.763904312252998352e+01 -2.245274020824581385e-01
1.328689832240343094e+00 -2.827710464596748352e+01 -2.244358493480831385e-01
1.581497449427843094e+00 -2.905396011471748352e+01 -2.267246677074581385e-01
1.871170300990343094e+00 -3.032275894284248352e+01 -2.387638522777706385e-01
2.187332410365343094e+00 -3.169946792721748352e+01 -2.517033054027706385e-01
2.536819715052843094e+00 -3.322278335690498352e+01 -2.660465671215206385e-01
3.058059949427843094e+00 -3.678918960690498352e+01 -3.196506930980831385e-01
3.635086316615343094e+00 -4.031042984127998352e+01 -3.683720065746456385e-01
1.312088269740343094e+00 -3.812268570065498352e+01 -3.019352389965206385e-01
1.687698621302843094e+00 -4.050378921627998352e+01 -3.248386813793331385e-01
2.223953504115343094e+00 -4.604041031002998352e+01 -3.998356296215206385e-01
2.957962293177843094e+00 -5.380920913815498352e+01 -5.076694919262081385e-01
4.004471082240343094e+00 -6.493213394284248352e+01 -6.623478366527706385e-01
4.951614636927843094e+00 -7.152661636471748352e+01 -7.319431735668331385e-01
5.877517957240343094e+00 -7.630994156002998352e+01 -7.681065036449581385e-01
6.872024793177843094e+00 -8.094995620846748352e+01 -7.949924899730831385e-01
1.978348035365343094e+00 -6.971790054440498352e+01 -5.826816989574581385e-01
2.798050183802843094e+00 -7.825793960690498352e+01 -6.609592868480831385e-01
1.421585340052843094e+00 -1.246680191159248352e+01 -1.314640475902706385e-01
1.514724988490343094e+00 -1.247803238034248352e+01 -1.258640720043331385e-01
1.610550183802843094e+00 -1.251160171627998352e+01 -1.215305759105831385e-01
1.711746472865343094e+00 -1.258655288815498352e+01 -1.190128757152706385e-01
1.814163465052843094e+00 -1.266235855221748352e+01 -1.164799167308956385e-01
1.918655652552843094e+00 -1.273962906002998352e+01 -1.138859225902706385e-01
2.024246472865343094e+00 -1.281787613034248352e+01 -1.112614108715206385e-01
2.130691785365343094e+00 -1.289014175534248352e+01 -1.085606052074581385e-01
1.521927136927843094e+00 -1.373523452877998352e+01 -1.343632175121456385e-01
1.631302136927843094e+00 -1.380872085690498352e+01 -1.308689548168331385e-01
1.744217175990343094e+00 -1.390320327877998352e+01 -1.281376315746456385e-01
1.860183972865343094e+00 -1.400806167721748352e+01 -1.254063083324581385e-01
1.977127332240343094e+00 -1.410583999752998352e+01 -1.225834323558956385e-01
2.095413465052843094e+00 -1.419690445065498352e+01 -1.196690036449581385e-01
2.216385144740343094e+00 -1.429810073971748352e+01 -1.167545749340206385e-01
2.337478894740343094e+00 -1.438745620846748352e+01 -1.132755710277706385e-01
1.640823621302843094e+00 -1.524146011471748352e+01 -1.345615817699581385e-01
1.769485730677843094e+00 -1.538965347409248352e+01 -1.326542331371456385e-01
1.901443738490343094e+00 -1.554456070065498352e+01 -1.308231784496456385e-01
2.037063855677843094e+00 -1.570386245846748352e+01 -1.289310886058956385e-01
2.175613660365343094e+00 -1.586633804440498352e+01 -1.270084811840206385e-01
2.318069715052843094e+00 -1.603357437252998352e+01 -1.250400973949581385e-01
2.463577527552843094e+00 -1.620447281002998352e+01 -1.230106784496456385e-01
2.617996472865343094e+00 -1.641650894284248352e+01 -1.222019626293331385e-01
1.806961316615343094e+00 -1.733899429440498352e+01 -1.409244968090206385e-01
1.963455457240343094e+00 -1.760400894284248352e+01 -1.405735446605831385e-01
2.123977918177843094e+00 -1.786279800534248352e+01 -1.401005221996456385e-01
2.290603894740343094e+00 -1.813123062252998352e+01 -1.396274997387081385e-01
2.462600965052843094e+00 -1.840820816159248352e+01 -1.391239596996456385e-01
2.647049207240343094e+00 -1.874353531002998352e+01 -1.400394870433956385e-01
2.848709363490343094e+00 -1.916785171627998352e+01 -1.432896091137081385e-01
3.057937879115343094e+00 -1.959387710690498352e+01 -1.465549899730831385e-01
2.062942761927843094e+00 -2.056482437252998352e+01 -1.599674655590206385e-01
2.252762097865343094e+00 -2.090308120846748352e+01 -1.590214206371456385e-01
2.460037488490343094e+00 -2.135889175534248352e+01 -1.609287692699581385e-01
2.687942761927843094e+00 -2.192847183346748352e+01 -1.653538180980831385e-01
2.940017957240343094e+00 -2.262976577877998352e+01 -1.726475192699581385e-01
3.211624402552843094e+00 -2.338489273190498352e+01 -1.805210544262081385e-01
3.502517957240343094e+00 -2.419324234127998352e+01 -1.889133884105831385e-01
3.882522840052843094e+00 -2.554004409909248352e+01 -2.097721530590206385e-01
2.496536511927843094e+00 -2.601953628659248352e+01 -2.034855319652706385e-01
2.790481824427843094e+00 -2.701807144284248352e+01 -2.128086520824581385e-01
3.138504285365343094e+00 -2.839673355221748352e+01 -2.303410007152706385e-01
3.516800183802843094e+00 -2.983264663815498352e+01 -2.475681735668331385e-01
3.998489636927843094e+00 -3.196753433346748352e+01 -2.784824802074581385e-01
4.638260144740343094e+00 -3.508850601315498352e+01 -3.279514743480831385e-01
5.763870496302843094e+00 -4.152246597409248352e+01 -4.426823093090206385e-01
6.603103894740343094e+00 -4.511926773190498352e+01 -4.940433932933956385e-01
3.637893933802843094e+00 -4.033167007565498352e+01 -3.687076999340206385e-01
5.082840222865343094e+00 -5.297388198971748352e+01 -5.862980319652706385e-01
7.165725965052843094e+00 -7.001062515377998352e+01 -8.704929782543331385e-01
8.103225965052843094e+00 -7.344275406002998352e+01 -8.933048679027706385e-01
9.123855847865343094e+00 -7.710779312252998352e+01 -9.163608981762081385e-01
7.408645886927843094e+00 -5.785046890377998352e+01 -5.526066257152706385e-01
7.856888074427843094e+00 -5.764771011471748352e+01 -5.177555514965206385e-01
6.582229871302843094e+00 -4.507092788815498352e+01 -2.904606296215206385e-01
6.877884168177843094e+00 -8.099512222409248352e+01 -7.955112888012081385e-01
7.991043347865343094e+00 -8.608862808346748352e+01 -8.240299655590206385e-01
9.299026746302843094e+00 -9.230676773190498352e+01 -8.600254489574581385e-01
6.909622449427843094e+00 -5.780261734127998352e+01 -3.224430514965206385e-01
7.388992566615343094e+00 -5.783801773190498352e+01 -2.910404636058956385e-01
7.832962293177843094e+00 -5.760217788815498352e+01 -2.579136325512081385e-01
6.579300183802843094e+00 -4.515076187252998352e+01 -8.983807102777063847e-02
6.927810925990343094e+00 -5.812183120846748352e+01 -6.545452610589563847e-02
7.409866590052843094e+00 -5.815845230221748352e+01 -3.348736301995813847e-02
7.842727918177843094e+00 -5.781677749752998352e+01 1.089052995666861534e-03
8.298538465052843094e+00 -5.767700698971748352e+01 3.404803737066686153e-02
7.960159558802843094e+00 -5.886157730221748352e+01 2.587794826831668615e-01
8.372879285365343094e+00 -5.834546402096748352e+01 2.925624416675418615e-01
7.890335340052843094e+00 -5.846484878659248352e+01 5.241145656909793615e-01
7.869461316615343094e+00 -5.844397476315498352e+01 7.869624660816043615e-01
2.131180066615343094e+00 -1.289136245846748352e+01 -1.085911227855831385e-01
2.240310925990343094e+00 -1.297290542721748352e+01 -1.058903171215206385e-01
2.350174207240343094e+00 -1.304858902096748352e+01 -1.031132175121456385e-01
2.462234754115343094e+00 -1.312573745846748352e+01 -1.002903415355831385e-01
2.576492566615343094e+00 -1.320789077877998352e+01 -9.758953587152063847e-02
2.706375379115343094e+00 -1.336462906002998352e+01 -9.780315891839563847e-02
2.839554090052843094e+00 -1.352527359127998352e+01 -9.801678196527063847e-02
2.975052136927843094e+00 -1.368164566159248352e+01 -9.818462864495813847e-02
2.337967175990343094e+00 -1.438806656002998352e+01 -1.132755710277706385e-01
2.460647840052843094e+00 -1.447571304440498352e+01 -1.098423434887081385e-01
2.593216199427843094e+00 -1.461438491940498352e+01 -1.082401706371456385e-01
2.740432996302843094e+00 -1.482324722409248352e+01 -1.087131930980831385e-01
2.890335340052843094e+00 -1.502759292721748352e+01 -1.091251804027706385e-01
3.043777722865343094e+00 -1.522803238034248352e+01 -1.094913913402706385e-01
3.204056043177843094e+00 -1.544629409909248352e+01 -1.099338962230831385e-01
3.369949597865343094e+00 -1.567224624752998352e+01 -1.104069186840206385e-01
2.618850965052843094e+00 -1.641931656002998352e+01 -1.222629977855831385e-01
2.791214246302843094e+00 -1.672583511471748352e+01 -1.246128513012081385e-01
2.971267957240343094e+00 -1.704602554440498352e+01 -1.270847751293331385e-01
3.160232800990343094e+00 -1.738184097409248352e+01 -1.296635104808956385e-01
3.357254285365343094e+00 -1.773169448971748352e+01 -1.323337985668331385e-01
3.564407605677843094e+00 -1.809949234127998352e+01 -1.351414157543331385e-01
3.781082410365343094e+00 -1.848413589596748352e+01 -1.380863620433956385e-01
4.008621472865343094e+00 -1.888855484127998352e+01 -1.411838962230831385e-01
3.059036511927843094e+00 -1.959778335690498352e+01 -1.466312839183956385e-01
3.283767957240343094e+00 -2.007678726315498352e+01 -1.503086520824581385e-01
3.538772840052843094e+00 -2.069434097409248352e+01 -1.578159763012081385e-01
3.840530652552843094e+00 -2.152454116940498352e+01 -1.705112888012081385e-01
4.132889050990343094e+00 -2.222046402096748352e+01 -1.786594821605831385e-01
4.441971082240343094e+00 -2.293640640377998352e+01 -1.865177585277706385e-01
4.829422254115343094e+00 -2.399878433346748352e+01 -2.026768161449581385e-01
5.214309949427843094e+00 -2.495422866940498352e+01 -2.155094577465206385e-01
3.884353894740343094e+00 -2.554810073971748352e+01 -2.099247409496456385e-01
4.228225965052843094e+00 -2.649255874752998352e+01 -2.197971774730831385e-01
4.641067761927843094e+00 -2.777234390377998352e+01 -2.365665866527706385e-01
5.184891004115343094e+00 -2.970483902096748352e+01 -2.669926120433956385e-01
5.868606824427843094e+00 -3.225464370846748352e+01 -3.093052341137081385e-01
7.049881238490343094e+00 -3.728601577877998352e+01 -4.035435153637081385e-01
8.938064832240343094e+00 -4.557190445065498352e+01 -5.624180270824581385e-01
9.022415418177843094e+00 -4.409277847409248352e+01 -5.070591403637081385e-01
6.604324597865343094e+00 -4.511938980221748352e+01 -4.939670993480831385e-01
6.940506238490343094e+00 -4.489685562252998352e+01 -4.645786716137081385e-01
7.224807996302843094e+00 -4.435889175534248352e+01 -4.304447604808956385e-01
7.629715222865343094e+00 -4.459497573971748352e+01 -4.110966159496456385e-01
8.024734754115343094e+00 -4.475171402096748352e+01 -3.900700046215206385e-01
8.624832410365343094e+00 -4.600879409909248352e+01 -3.878879977855831385e-01
8.648025769740343094e+00 -4.412500503659248352e+01 -3.313541843090206385e-01
8.904251355677843094e+00 -4.356897476315498352e+01 -2.995548679027706385e-01
6.583938855677843094e+00 -4.507385757565498352e+01 -2.904301120433956385e-01
6.913162488490343094e+00 -4.480615738034248352e+01 -2.622318698558956385e-01
7.194656629115343094e+00 -4.425452163815498352e+01 -2.301426364574581385e-01
7.593460340052843094e+00 -4.445959976315498352e+01 -2.090549899730831385e-01
7.990432996302843094e+00 -4.463440445065498352e+01 -1.873417331371456385e-01
8.514724988490343094e+00 -4.548230484127998352e+01 -1.738834811840206385e-01
8.615921277552843094e+00 -4.402966812252998352e+01 -1.313877536449581385e-01
8.958328504115343094e+00 -4.391028335690498352e+01 -1.059971286449581385e-01
6.580520886927843094e+00 -4.515063980221748352e+01 -8.974651829339563847e-02
6.951370496302843094e+00 -4.516016128659248352e+01 -6.534771458245813847e-02
7.175491590052843094e+00 -4.422070816159248352e+01 -3.046612278558313847e-02
7.567215222865343094e+00 -4.438489273190498352e+01 -7.791562238708138466e-03
8.011062879115343094e+00 -4.483545425534248352e+01 1.257892115972936153e-02
8.305618543177843094e+00 -4.440747573971748352e+01 4.074664576910436153e-02
8.600540418177843094e+00 -4.402161148190498352e+01 6.700702174566686153e-02
8.968338269740343094e+00 -4.403101089596748352e+01 9.122271998785436153e-02
8.299881238490343094e+00 -5.767493179440498352e+01 3.417010768316686153e-02
6.934768933802843094e+00 -4.514343765377998352e+01 1.380214260425418615e-01
7.315506238490343094e+00 -4.521094253659248352e+01 1.625117824878543615e-01
7.695389050990343094e+00 -4.525183609127998352e+01 1.873683498706668615e-01
7.988968152552843094e+00 -4.478906753659248352e+01 2.142848537769168615e-01
8.238724011927843094e+00 -4.411511734127998352e+01 2.415523098316043615e-01
8.486648816615343094e+00 -4.349377945065498352e+01 2.678889797534793615e-01
8.934402722865343094e+00 -4.392993667721748352e+01 2.911281154956668615e-01
8.374466199427843094e+00 -5.834607437252998352e+01 2.926692531909793615e-01
6.990921277552843094e+00 -4.562292984127998352e+01 3.395595119800418615e-01
7.353958386927843094e+00 -4.554968765377998352e+01 3.650111721362918615e-01
7.681106824427843094e+00 -4.525085952877998352e+01 3.905238674487918615e-01
8.060257215052843094e+00 -4.528528335690498352e+01 4.158687160816043615e-01
8.274978894740343094e+00 -4.439270523190498352e+01 4.403132961597293615e-01
8.635086316615343094e+00 -4.435083511471748352e+01 4.652156399097293615e-01
8.904007215052843094e+00 -4.384631851315498352e+01 4.890498684253543615e-01
6.978348035365343094e+00 -4.563403823971748352e+01 5.449733303394168615e-01
7.353958386927843094e+00 -4.564246109127998352e+01 5.707149074878543615e-01
7.717239636927843094e+00 -4.555920913815498352e+01 5.961818264331668615e-01
7.986038465052843094e+00 -4.493616226315498352e+01 6.186885403003543615e-01
8.247635144740343094e+00 -4.431873062252998352e+01 6.406611965503543615e-01
8.528641004115343094e+00 -4.386145523190498352e+01 6.629237697925418615e-01
9.078323621302843094e+00 -4.479993179440498352e+01 6.945399807300418615e-01
1.413630701974034309e+01 -9.479773452877998352e+01 1.149724917253479362e+00
7.646194715052843094e+00 -4.521094253659248352e+01 7.974757717456668615e-01
7.869827527552843094e+00 -4.434021499752998352e+01 8.147182033862918615e-01
8.402176160365343094e+00 -4.525476577877998352e+01 8.498439358081668615e-01
8.705887097865343094e+00 -4.487524917721748352e+01 8.716640041675418615e-01
9.050613660365343094e+00 -4.473096206784248352e+01 8.958644436206668615e-01
7.989578504115343094e+00 -4.512146499752998352e+01 1.025228457292541862e+00
8.330520886927843094e+00 -4.493555191159248352e+01 1.048681216081604362e+00
8.674148816615343094e+00 -4.478174331784248352e+01 1.073461489519104362e+00
9.089676160365343094e+00 -4.500183609127998352e+01 1.103185610612854362e+00
8.376541394740343094e+00 -4.527124527096748352e+01 1.258596377214416862e+00
8.695633191615343094e+00 -4.497156265377998352e+01 1.279088930925354362e+00
1.693171717599034309e+01 -8.499487808346748352e+01 2.147695498308166862e+00
1.489778162911534309e+01 -8.582666519284248352e+01 2.402868227800354362e+00
1.493147303536534309e+01 -8.197607925534248352e+01 2.360464052995666862e+00
1.562519862130284309e+01 -8.199854019284248352e+01 2.410451845964416862e+00
9.063553113490343094e+00 -4.501428726315498352e+01 1.510671572526916862e+00
1.567756678536534309e+01 -8.629956558346748352e+01 2.862630801042541862e+00
1.543562342599034309e+01 -8.112646988034248352e+01 2.761312441667541862e+00
1.609016444161534309e+01 -8.097595718502998352e+01 2.806280093034729362e+00
1.564314295724034309e+01 -8.626062515377998352e+01 3.255544619401916862e+00
1.624971034005284309e+01 -8.192542007565498352e+01 3.212087588151916862e+00
1.518159510567784309e+01 -7.658643081784248352e+01 3.374959902605041862e+00
1.504914881661534309e+01 -7.603296402096748352e+01 3.702291445573791862e+00
1.542842127755284309e+01 -7.810852554440498352e+01 4.153463320573791862e+00
2.975662488490343094e+00 -1.368237808346748352e+01 -9.818462864495813847e-02
3.117386121302843094e+00 -1.385413101315498352e+01 -9.841351048089563847e-02
3.261551160365343094e+00 -1.402161148190498352e+01 -9.859661594964563847e-02
3.410721082240343094e+00 -1.419482925534248352e+01 -9.877972141839563847e-02
3.564163465052843094e+00 -1.437292984127998352e+01 -9.896282688714563847e-02
3.732742566615343094e+00 -1.459741714596748352e+01 -1.006412936840206385e-01
3.907913465052843094e+00 -1.483154800534248352e+01 -1.024418307933956385e-01
4.086868543177843094e+00 -1.506287124752998352e+01 -1.042271091137081385e-01
3.370682019740343094e+00 -1.567371109127998352e+01 -1.104374362621456385e-01
3.540481824427843094e+00 -1.589807632565498352e+01 -1.108646823558956385e-01
3.725662488490343094e+00 -1.617297866940498352e+01 -1.127415134105831385e-01
3.939773816615343094e+00 -1.655042007565498352e+01 -1.173496677074581385e-01
4.176468152552843094e+00 -1.699573257565498352e+01 -1.241550876293331385e-01
4.414627332240343094e+00 -1.741101577877998352e+01 -1.298771335277706385e-01
4.642410535365343094e+00 -1.775598648190498352e+01 -1.325169040355831385e-01
4.881057996302843094e+00 -1.811731460690498352e+01 -1.352787448558956385e-01
4.009598035365343094e+00 -1.889087417721748352e+01 -1.412144138012081385e-01
4.359817761927843094e+00 -1.984705093502998352e+01 -1.606083346996456385e-01
4.646805066615343094e+00 -2.043347671627998352e+01 -1.681309177074581385e-01
4.907181043177843094e+00 -2.085193374752998352e+01 -1.701298190746456385e-01
5.179275769740343094e+00 -2.128918960690498352e+01 -1.722202731762081385e-01
5.514724988490343094e+00 -2.194946792721748352e+01 -1.799412204418331385e-01
5.921829480677843094e+00 -2.284766128659248352e+01 -1.934299899730831385e-01
6.366165418177843094e+00 -2.382556656002998352e+01 -2.080326511058956385e-01
5.216141004115343094e+00 -2.495972183346748352e+01 -2.156010104808956385e-01
5.716507215052843094e+00 -2.638757827877998352e+01 -2.383976413402706385e-01
6.139480847865343094e+00 -2.734106948971748352e+01 -2.485294772777706385e-01
7.112747449427843094e+00 -3.065161636471748352e+01 -3.142643405590206385e-01
9.738357800990343094e+00 -4.076379898190498352e+01 -5.364017917308956385e-01
1.028315760567784309e+01 -4.158264663815498352e+01 -5.339451266918331385e-01
1.136286951974034309e+01 -4.446667984127998352e+01 -5.769291354808956385e-01
7.091385144740343094e+00 -2.663428238034248352e+01 -1.637211276683956385e-01
9.023514050990343094e+00 -4.409192398190498352e+01 -5.069523288402706385e-01
9.322342175990343094e+00 -4.376013687252998352e+01 -4.771366550121456385e-01
9.743118543177843094e+00 -4.401086929440498352e+01 -4.591923190746456385e-01
1.011482264474034309e+01 -4.401306656002998352e+01 -4.359837009105831385e-01
1.048579432442784309e+01 -4.401147964596748352e+01 -4.127140475902706385e-01
6.915970105677843094e+00 -2.777454116940498352e+01 -9.258465305902063847e-02
7.107010144740343094e+00 -2.761340835690498352e+01 -7.523540989495813847e-02
6.937942761927843094e+00 -2.607788589596748352e+01 -3.440289036370813847e-02
8.904861707240343094e+00 -4.356580093502998352e+01 -2.994175388012081385e-01
9.278396863490343094e+00 -4.361560562252998352e+01 -2.760258151683956385e-01
9.745071668177843094e+00 -4.408508804440498352e+01 -2.599430514965206385e-01
1.009944178536534309e+01 -4.400757339596748352e+01 -2.351475192699581385e-01
1.041316248849034309e+01 -4.376123550534248352e+01 -2.080479098949581385e-01
6.902908582240343094e+00 -2.775684097409248352e+01 3.236957057379186153e-02
7.093826550990343094e+00 -2.759595230221748352e+01 4.918475612066686153e-02
7.289871472865343094e+00 -2.746204116940498352e+01 6.487079127691686153e-02
8.960525769740343094e+00 -4.391541031002998352e+01 -1.059666110668331385e-01
9.384598035365343094e+00 -4.419446304440498352e+01 -8.538250462152063847e-02
9.709671277552843094e+00 -4.398584488034248352e+01 -5.925945774652063847e-02
1.006587244942784309e+01 -4.392041519284248352e+01 -3.461651341058313847e-02
1.043367030099034309e+01 -4.390906265377998352e+01 -1.055340305902063847e-02
1.083284022286534309e+01 -4.401697281002998352e+01 1.260943873785436153e-02
7.283157605677843094e+00 -2.838513687252998352e+01 1.660823391284793615e-01
7.076858777552843094e+00 -2.667603042721748352e+01 1.946162746753543615e-01
8.969558972865343094e+00 -4.403064468502998352e+01 9.131427272222936153e-02
9.320999402552843094e+00 -4.395471695065498352e+01 1.159266994800418615e-01
9.750076550990343094e+00 -4.423877456784248352e+01 1.395015285816043615e-01
1.011225916817784309e+01 -4.418994644284248352e+01 1.642665432300418615e-01
1.045845057442784309e+01 -4.407605484127998352e+01 1.892756985034793615e-01
1.104219080880284309e+01 -4.494116714596748352e+01 2.103328274097293615e-01
7.083938855677843094e+00 -2.762598159909248352e+01 2.959193752612918615e-01
7.068069715052843094e+00 -2.667432144284248352e+01 3.139247463550418615e-01
8.935501355677843094e+00 -4.392932632565498352e+01 2.912196682300418615e-01
9.286697644740343094e+00 -4.385620620846748352e+01 3.157863186206668615e-01
9.734207410365343094e+00 -4.422974136471748352e+01 3.398341701831668615e-01
1.010005213692784309e+01 -4.419812515377998352e+01 3.647365139331668615e-01
1.059346034005284309e+01 -4.471643570065498352e+01 3.896083401050418615e-01
1.100874354317784309e+01 -4.486194351315498352e+01 4.150447414722293615e-01
6.995315808802843094e+00 -2.730713394284248352e+01 4.197444485034793615e-01
7.075393933802843094e+00 -2.673560073971748352e+01 4.339656399097293615e-01
8.904983777552843094e+00 -4.384534195065498352e+01 4.891414211597293615e-01
9.267166394740343094e+00 -4.382886245846748352e+01 5.138454006519168615e-01
9.922439832240343094e+00 -4.517065933346748352e+01 5.434169338550418615e-01
1.007026698067784309e+01 -4.412793472409248352e+01 5.649470852222293615e-01
1.057710291817784309e+01 -4.470752456784248352e+01 5.928859279956668615e-01
1.111433436349034309e+01 -4.535974624752998352e+01 6.220759914722293615e-01
1.060774256661534309e+01 -4.179016616940498352e+01 6.271571682300418615e-01
7.483474988490343094e+00 -2.834448745846748352e+01 5.639705227222293615e-01
9.079422254115343094e+00 -4.479919937252998352e+01 6.946162746753543615e-01
9.388138074427843094e+00 -4.448401382565498352e+01 7.179164455737918615e-01
1.513154627755284309e+01 -6.949902847409248352e+01 9.493464992847293615e-01
1.042732264474034309e+01 -4.578943374752998352e+01 7.808284328784793615e-01
1.070234705880284309e+01 -4.530908706784248352e+01 8.028926418628543615e-01
1.108174159005284309e+01 -4.528491714596748352e+01 8.291377590503543615e-01
1.059895350411534309e+01 -4.180884292721748352e+01 8.186549709644168615e-01
1.086799647286534309e+01 -4.147278335690498352e+01 8.393458889331668615e-01
9.051712293177843094e+00 -4.473022964596748352e+01 8.959559963550418615e-01
9.389602918177843094e+00 -4.455933120846748352e+01 9.198817776050418615e-01
1.510469080880284309e+01 -6.947791031002998352e+01 1.267476992448791862e+00
1.039570643380284309e+01 -4.571326187252998352e+01 9.877223537769168615e-01
1.078999354317784309e+01 -4.574939468502998352e+01 1.015172915300354362e+00
1.102278162911534309e+01 -4.509998062252998352e+01 1.032751040300354362e+00
1.863594080880284309e+01 -7.409436538815498352e+01 1.504430727800354362e+00
7.058182019740343094e+00 -2.676660659909248352e+01 7.937678860034793615e-01
9.090652722865343094e+00 -4.500061538815498352e+01 1.103261904558166862e+00
9.356521863490343094e+00 -4.446704605221748352e+01 1.120778994401916862e+00
1.686909510567784309e+01 -7.483850601315498352e+01 1.725286440690979362e+00
1.955476405099034309e+01 -8.367871597409248352e+01 1.936895327409729362e+00
1.796504237130284309e+01 -7.405725601315498352e+01 1.801000552019104362e+00
1.660176112130284309e+01 -6.602319839596748352e+01 1.686620669206604362e+00
1.106941248849034309e+01 -4.235779312252998352e+01 1.236913637956604362e+00
1.693281580880284309e+01 -8.498840835690498352e+01 2.147741274675354362e+00
1.642890955880284309e+01 -7.902197769284248352e+01 2.070211367448791862e+00
1.673603846505284309e+01 -7.732092788815498352e+01 2.080495791276916862e+00
1.595063807442784309e+01 -7.081885269284248352e+01 1.979009585222229362e+00
1.951191737130284309e+01 -8.361157730221748352e+01 2.323492007097229362e+00
1.783638026192784309e+01 -7.362170913815498352e+01 2.133901552995666862e+00
1.862202479317784309e+01 -7.423328140377998352e+01 2.194585757097229362e+00
1.100630213692784309e+01 -4.216565445065498352e+01 1.425298647722229362e+00
9.064773816615343094e+00 -4.501379898190498352e+01 1.510763125261291862e+00
1.774702479317784309e+01 -8.558362320065498352e+01 2.605138735612854362e+00
1.764326502755284309e+01 -8.168860366940498352e+01 2.553136782487854362e+00
1.592683436349034309e+01 -7.081421402096748352e+01 2.304006533464416862e+00
1.721406580880284309e+01 -7.377307632565498352e+01 2.431554751237854362e+00
1.746125819161534309e+01 -7.215588882565498352e+01 2.431112246355041862e+00
1.105744959786534309e+01 -4.241760757565498352e+01 1.626287417253479362e+00
1.609248377755284309e+01 -8.097559097409248352e+01 2.806447939714416862e+00
1.708247401192784309e+01 -8.246814468502998352e+01 2.903356509050354362e+00
1.708308436349034309e+01 -7.918396499752998352e+01 2.851140932878479362e+00
1.590132166817784309e+01 -7.080273941159248352e+01 2.630437807878479362e+00
1.702888514474034309e+01 -7.307385757565498352e+01 2.749898867448791862e+00
1.740534998849034309e+01 -7.202051284909248352e+01 2.760961489519104362e+00
1.972077967599034309e+01 -7.620313003659248352e+01 2.998601870378479362e+00
1.625276209786534309e+01 -8.192932632565498352e+01 3.212408022722229362e+00
1.610395838692784309e+01 -7.780383804440498352e+01 3.115117983659729362e+00
1.635273768380284309e+01 -7.587036636471748352e+01 3.094304995378479362e+00
1.666743494942784309e+01 -7.436572769284248352e+01 3.087209658464416862e+00
1.815815760567784309e+01 -7.808337906002998352e+01 3.274709658464416862e+00
1.669282557442784309e+01 -6.913611343502998352e+01 2.982442812761291862e+00
1.853694178536534309e+01 -7.418298843502998352e+01 3.223531679948791862e+00
1.120552088692784309e+01 -4.310144546627998352e+01 2.041448550065979362e+00
1.518440272286534309e+01 -7.658911636471748352e+01 3.375234560808166862e+00
1.624690272286534309e+01 -7.862854507565498352e+01 3.506719546159729362e+00
1.634114100411534309e+01 -7.593140152096748352e+01 3.446706728776916862e+00
1.661372401192784309e+01 -7.423181656002998352e+01 3.425100283464416862e+00
1.717659022286534309e+01 -7.392261245846748352e+01 3.460134463151916862e+00
1.667671229317784309e+01 -6.916296890377998352e+01 3.303655581315979362e+00
1.917231776192784309e+01 -7.684985855221748352e+01 3.684591250261291862e+00
1.909968592599034309e+01 -7.397327163815498352e+01 3.607442812761291862e+00
1.505305506661534309e+01 -7.604138687252998352e+01 3.702840761980041862e+00
1.597309901192784309e+01 -7.740698745846748352e+01 3.813817934831604362e+00
1.632649256661534309e+01 -7.597791031002998352e+01 3.799001650651916862e+00
1.555293299630284309e+01 -6.953528335690498352e+01 3.548284487565979362e+00
1.768965174630284309e+01 -7.626245620846748352e+01 3.910406069597229362e+00
1.700654627755284309e+01 -7.064185073971748352e+01 3.694433169206604362e+00
1.779695155099034309e+01 -7.138379409909248352e+01 3.777090029558166862e+00
1.904646326974034309e+01 -7.385999038815498352e+01 3.946081118425354362e+00
1.542854334786534309e+01 -7.809802749752998352e+01 4.153112368425354362e+00
1.423945643380284309e+01 -6.899402359127998352e+01 3.749929385026916862e+00
1.563056971505284309e+01 -7.280713394284248352e+01 3.987646059831604362e+00
1.614680506661534309e+01 -7.233142593502998352e+01 4.011800722917541862e+00
1.780061366036534309e+01 -7.685498550534248352e+01 4.294088320573791862e+00
1.724946619942784309e+01 -7.175928238034248352e+01 4.078420595964416862e+00
1.704292323067784309e+01 -6.842114761471748352e+01 3.949178652605041862e+00
1.892378260567784309e+01 -7.347473648190498352e+01 4.268972353776916862e+00
1.120076014474034309e+01 -4.248083999752998352e+01 2.420583681901916862e+00
1.148323084786534309e+01 -4.215894058346748352e+01 2.433629946550354362e+00
1.485823084786534309e+01 -7.102856948971748352e+01 3.855962710222229362e+00
1.563862635567784309e+01 -7.184290054440498352e+01 3.943426089128479362e+00
1.602705409005284309e+01 -7.082104995846748352e+01 3.940633730730041862e+00
1.735505701974034309e+01 -7.392249038815498352e+01 4.149190859636291862e+00
1.747859217599034309e+01 -7.177405288815498352e+01 4.088003115495666862e+00
1.721284510567784309e+01 -6.819324234127998352e+01 3.948369936784729362e+00
1.151802088692784309e+01 -4.376770523190498352e+01 2.686056094011291862e+00
1.138362147286534309e+01 -4.183765152096748352e+01 2.612554507097229362e+00
1.582331873849034309e+01 -6.905835464596748352e+01 3.817220644792541862e+00
1.704719569161534309e+01 -7.174402359127998352e+01 4.001760439714416862e+00
1.743122889474034309e+01 -7.073792007565498352e+01 4.000753359636291862e+00
1.895906092599034309e+01 -7.437097671627998352e+01 4.240072207292541862e+00
1.938093592599034309e+01 -7.346997573971748352e+01 4.245473818620666862e+00
1.162202479317784309e+01 -4.209790542721748352e+01 2.618307070573791862e+00
2.030940272286534309e+01 -7.213379409909248352e+01 4.279790835222229362e+00
1.109504725411534309e+01 -4.220911148190498352e+01 1.902318911394104362e+00
1.181159998849034309e+01 -4.351624038815498352e+01 1.979482607683166862e+00
1.212837244942784309e+01 -4.324817398190498352e+01 1.999822573503479362e+00
7.826248425990343094e+00 -2.645667007565498352e+01 1.390981631120666862e+00
8.106643933802843094e+00 -2.660168960690498352e+01 1.415899233659729362e+00
1.770295741036534309e+01 -7.644922378659248352e+01 3.338170962175354362e+00
1.666072108224034309e+01 -6.916162613034248352e+01 3.104452090105041862e+00
1.917622401192784309e+01 -7.699915054440498352e+01 3.466222719987854362e+00
1.137190272286534309e+01 -4.336523941159248352e+01 2.150548891862854362e+00
1.180317713692784309e+01 -4.354272964596748352e+01 2.188375429948791862e+00
1.174604823067784309e+01 -4.188916519284248352e+01 2.149541811784729362e+00
1.171662928536534309e+01 -4.043909195065498352e+01 2.117132143815979362e+00
1.202302576974034309e+01 -4.023975113034248352e+01 2.137243227800354362e+00
1.764241053536534309e+01 -7.629822281002998352e+01 3.692693667253479362e+00
1.844490076974034309e+01 -7.687720230221748352e+01 3.771764712175354362e+00
