2.005578242242336273e-01 -1.124601262807846069e+01 2.085546262096613646e-01
2.811242304742336273e-01 -1.140262883901596069e+01 2.115911252330988646e-01
3.638879023492336273e-01 -1.162577337026596069e+01 2.137426144909113646e-01
3.117638789117336273e-01 -5.199137395620346069e+01 -4.232813112903386354e-01
7.550011835992336273e-01 -5.624235051870346069e+01 -4.597040407825261354e-01
1.295162316411733627e+00 -6.261417669057846069e+01 -5.227991335559636354e-01
1.949703332036733627e+00 -6.940824407339096069e+01 -5.847192995715886354e-01
1.152306757867336273e-01 -1.120206731557846069e+01 2.496770627330988646e-01
1.975060664117336273e-01 -1.124076360464096069e+01 2.548650510143488646e-01
2.786828242242336273e-01 -1.136661809682846069e+01 2.590154416393488646e-01
3.608361445367336273e-01 -1.160831731557846069e+01 2.619451291393488646e-01
2.401086054742336273e-01 -6.681998723745346069e+01 -3.590265505481511354e-01
7.965050898492336273e-01 -6.912601751089096069e+01 -3.466364138294011354e-01
1.123009882867336273e-01 -1.119706243276596069e+01 2.960180051159113646e-01
1.945763789117336273e-01 -1.123295110464096069e+01 3.014043576549738646e-01
2.759972773492336273e-01 -1.134110540151596069e+01 3.062566525768488646e-01
3.576623164117336273e-01 -1.160489934682846069e+01 3.101171262096613646e-01
2.204552851617336273e-01 -6.657584661245346069e+01 -5.534613062627613544e-02
7.741662226617336273e-01 -6.890702337026596069e+01 -3.267157007940113544e-02
1.092492304742336273e-01 -1.119584172964096069e+01 3.420537717174738646e-01
1.915246210992336273e-01 -1.123136419057846069e+01 3.476079709362238646e-01
2.730675898492336273e-01 -1.133304876089096069e+01 3.529638058971613646e-01
3.542443476617336273e-01 -1.160795110464096069e+01 3.579839474987238646e-01
1.998254023492336273e-01 -6.663932317495346069e+01 2.437871701549738646e-01
7.526818476617336273e-01 -6.882877629995346069e+01 2.773717648815363646e-01
1.058312617242336273e-01 -1.120084661245346069e+01 3.883184201549738646e-01
1.882287226617336273e-01 -1.123636907339096069e+01 3.940252072643488646e-01
2.698937617242336273e-01 -1.133133977651596069e+01 3.996099240612238646e-01
3.509484492242336273e-01 -1.161942571401596069e+01 4.058965451549738646e-01
1.783410273492336273e-01 -6.686625188589096069e+01 5.438817746471613646e-01
1.020470820367336273e-01 -1.122098821401596069e+01 4.344457394909113646e-01
1.844445429742336273e-01 -1.125577825307846069e+01 4.403203732799738646e-01
2.662316523492336273e-01 -1.135233587026596069e+01 4.466069943737238646e-01
3.472863398492336273e-01 -1.164054387807846069e+01 4.542363889049738646e-01
9.679805859923362732e-02 -1.127408879995346069e+01 4.813207394909113646e-01
1.798058710992336273e-01 -1.130887883901596069e+01 4.871343381237238646e-01
2.619591914117336273e-01 -1.140055364370346069e+01 4.938176877330988646e-01
3.430138789117336273e-01 -1.171671575307846069e+01 5.031102902721613646e-01
9.313594922423362732e-02 -1.128763860464096069e+01 5.278600461315363646e-01
1.761437617242336273e-01 -1.132352727651596069e+01 5.341008908580988646e-01
2.582970820367336273e-01 -1.142118352651596069e+01 5.413182980846613646e-01
3.386193476617336273e-01 -1.179789251089096069e+01 5.530065305065363646e-01
8.935176953673362732e-02 -1.130240911245346069e+01 5.748113400768488646e-01
1.717492304742336273e-01 -1.136246770620346069e+01 5.814336545299738646e-01
2.545129023492336273e-01 -1.144987004995346069e+01 5.889104611705988646e-01
3.331261835992336273e-01 -1.195133489370346069e+01 6.048406369518488646e-01
8.556758984923362732e-02 -1.131962102651596069e+01 6.216863400768488646e-01
1.684533320367336273e-01 -1.136637395620346069e+01 6.285375363659113646e-01
2.504845820367336273e-01 -1.148295110464096069e+01 6.371129758190363646e-01
8.105098828673362732e-02 -1.135160344839096069e+01 6.693853146862238646e-01
1.636925898492336273e-01 -1.141495794057846069e+01 6.769231564830988646e-01
2.459679804742336273e-01 -1.153849309682846069e+01 6.862615353893488646e-01
2.973595820367336273e-01 -1.390494817495346069e+01 7.612890012096613646e-01
4.031945429742336273e-01 -1.387357610464096069e+01 7.675298459362238646e-01
7.799923047423362732e-02 -1.134867376089096069e+01 7.162450558971613646e-01
1.611291132867336273e-01 -1.139579290151596069e+01 7.232793576549738646e-01
2.354699335992336273e-01 -1.184818547964096069e+01 7.441381223034113646e-01
2.932091914117336273e-01 -1.391215032339096069e+01 8.202031857799738646e-01
7.501183710992336273e-01 -1.211686223745346069e+01 -1.726709597278386354e-01
8.415490351617336273e-01 -1.213309758901596069e+01 -1.672083132434636354e-01
9.332238398492336273e-01 -1.214347356557846069e+01 -1.616998903919011354e-01
1.025386925786733627e+00 -1.215384954214096069e+01 -1.561456911731511354e-01
1.117550011724233627e+00 -1.216410344839096069e+01 -1.506067507434636354e-01
1.210201378911733627e+00 -1.217460149526596069e+01 -1.450372927356511354e-01
1.302852746099233627e+00 -1.218497747182846069e+01 -1.394525759387761354e-01
1.395137902349233627e+00 -1.218924993276596069e+01 -1.338526003528386354e-01
7.723351679742336273e-01 -1.320499700307846069e+01 -1.725946657825261354e-01
8.732873164117336273e-01 -1.323209661245346069e+01 -1.672083132434636354e-01
9.746056757867336273e-01 -1.325944036245346069e+01 -1.617914431262761354e-01
1.077266808599233627e+00 -1.329325383901596069e+01 -1.563135378528386354e-01
1.179805871099233627e+00 -1.332096379995346069e+01 -1.508356325794011354e-01
1.283321496099233627e+00 -1.334928411245346069e+01 -1.456323855090886354e-01
1.388912316411733627e+00 -1.340311712026596069e+01 -1.412073366809636354e-01
1.495479699224233627e+00 -1.345743840932846069e+01 -1.367365114856511354e-01
8.011437617242336273e-01 -1.459989446401596069e+01 -1.753107302356511354e-01
9.139367304742336273e-01 -1.464152044057846069e+01 -1.696039431262761354e-01
1.027706261724233627e+00 -1.468339055776596069e+01 -1.638513796497136354e-01
1.142452355474233627e+00 -1.472574895620346069e+01 -1.580377810169011354e-01
1.257686730474233627e+00 -1.476725286245346069e+01 -1.521631472278386354e-01
1.375118371099233627e+00 -1.482352727651596069e+01 -1.467920534778386354e-01
1.493160363286733627e+00 -1.488016790151596069e+01 -1.413904421497136354e-01
1.614376183599233627e+00 -1.496329778432846069e+01 -1.369348757434636354e-01
8.373986445367336273e-01 -1.635953801870346069e+01 -1.791101687122136354e-01
9.660607539117336273e-01 -1.643912786245346069e+01 -1.732355349231511354e-01
1.095699425786733627e+00 -1.650956243276596069e+01 -1.672998659778386354e-01
1.227169152349233627e+00 -1.658097356557846069e+01 -1.612879030872136354e-01
1.359493371099233627e+00 -1.665287297964096069e+01 -1.552301638294011354e-01
1.493526574224233627e+00 -1.672562688589096069e+01 -1.490961306262761354e-01
1.632564660161733627e+00 -1.685392278432846069e+01 -1.447778933215886354e-01
1.780269738286733627e+00 -1.706009954214096069e+01 -1.432825319934636354e-01
8.870812617242336273e-01 -1.875712102651596069e+01 -1.871973269153386354e-01
1.036983605474233627e+00 -1.888407415151596069e+01 -1.814752810169011354e-01
1.189205285161733627e+00 -1.901285833120346069e+01 -1.756769411731511354e-01
1.345699425786733627e+00 -1.917228215932846069e+01 -1.706262819934636354e-01
1.505123253911733627e+00 -1.934647649526596069e+01 -1.658807985950261354e-01
1.676509972661733627e+00 -1.964896672964096069e+01 -1.647211306262761354e-01
1.855953332036733627e+00 -2.000040715932846069e+01 -1.646753542590886354e-01
2.036129113286733627e+00 -2.028568547964096069e+01 -1.623255007434636354e-01
9.565392695367336273e-01 -2.210526555776596069e+01 -2.003198855090886354e-01
1.138424035161733627e+00 -2.237150090932846069e+01 -1.954370730090886354e-01
1.324092980474233627e+00 -2.261942571401596069e+01 -1.902643435169011354e-01
1.515010949224233627e+00 -2.287418645620346069e+01 -1.849390261340886354e-01
1.725216027349233627e+00 -2.340885442495346069e+01 -1.865564577747136354e-01
1.950313683599233627e+00 -2.402262395620346069e+01 -1.895319216419011354e-01
2.202633019536733627e+00 -2.487955754995346069e+01 -1.978327028919011354e-01
2.469356652349233627e+00 -2.573710149526596069e+01 -2.057825319934636354e-01
1.066036339849233627e+00 -2.736161321401596069e+01 -2.269006960559636354e-01
1.302608605474233627e+00 -2.799967473745346069e+01 -2.268091433215886354e-01
1.555416222661733627e+00 -2.877653020620346069e+01 -2.290979616809636354e-01
1.845089074224233627e+00 -3.004532903432846069e+01 -2.411371462512761354e-01
2.161251183599233627e+00 -3.142203801870346069e+01 -2.540765993762761354e-01
2.510738488286733627e+00 -3.294535344839096069e+01 -2.684198610950261354e-01
3.031978722661733627e+00 -3.651175969839096069e+01 -3.220239870715886354e-01
3.609005089849233627e+00 -4.003299993276596069e+01 -3.707453005481511354e-01
1.286007042974233627e+00 -3.784525579214096069e+01 -3.043085329700261354e-01
1.661617394536733627e+00 -4.022635930776596069e+01 -3.272119753528386354e-01
2.197872277349233627e+00 -4.576298040151596069e+01 -4.022089235950261354e-01
2.931881066411733627e+00 -5.353177922964096069e+01 -5.100427858997136354e-01
3.978389855474233627e+00 -6.465470403432846069e+01 -6.647211306262761354e-01
4.925533410161733627e+00 -7.124918645620346069e+01 -7.343164675403386354e-01
5.851436730474233627e+00 -7.603251165151596069e+01 -7.704797976184636354e-01
6.845943566411733627e+00 -8.067252629995346069e+01 -7.973657839465886354e-01
1.952266808599233627e+00 -6.944047063589096069e+01 -5.850549929309636354e-01
2.771968957036733627e+00 -7.798050969839096069e+01 -6.633325808215886354e-01
1.395504113286733627e+00 -1.218937200307846069e+01 -1.338373415637761354e-01
1.488643761724233627e+00 -1.220060247182846069e+01 -1.282373659778386354e-01
1.584468957036733627e+00 -1.223417180776596069e+01 -1.239038698840886354e-01
1.685665246099233627e+00 -1.230912297964096069e+01 -1.213861696887761354e-01
1.788082238286733627e+00 -1.238492864370346069e+01 -1.188532107044011354e-01
1.892574425786733627e+00 -1.246219915151596069e+01 -1.162592165637761354e-01
1.998165246099233627e+00 -1.254044622182846069e+01 -1.136347048450261354e-01
2.104610558599233627e+00 -1.261271184682846069e+01 -1.109338991809636354e-01
1.495845910161733627e+00 -1.345780462026596069e+01 -1.367365114856511354e-01
1.605220910161733627e+00 -1.353129094839096069e+01 -1.332422487903386354e-01
1.718135949224233627e+00 -1.362577337026596069e+01 -1.305109255481511354e-01
1.834102746099233627e+00 -1.373063176870346069e+01 -1.277796023059636354e-01
1.951046105474233627e+00 -1.382841008901596069e+01 -1.249567263294011354e-01
2.069332238286733627e+00 -1.391947454214096069e+01 -1.220422976184636354e-01
2.190303917974233627e+00 -1.402067083120346069e+01 -1.191278689075261354e-01
2.311397667974233627e+00 -1.411002629995346069e+01 -1.156488650012761354e-01
1.614742394536733627e+00 -1.496403020620346069e+01 -1.369348757434636354e-01
1.743404503911733627e+00 -1.511222356557846069e+01 -1.350275271106511354e-01
1.875362511724233627e+00 -1.526713079214096069e+01 -1.331964724231511354e-01
2.010982628911733627e+00 -1.542643254995346069e+01 -1.313043825794011354e-01
2.149532433599233627e+00 -1.558890813589096069e+01 -1.293817751575261354e-01
2.291988488286733627e+00 -1.575614446401596069e+01 -1.274133913684636354e-01
2.437496300786733627e+00 -1.592704290151596069e+01 -1.253839724231511354e-01
2.591915246099233627e+00 -1.613907903432846069e+01 -1.245752566028386354e-01
1.780880089849233627e+00 -1.706156438589096069e+01 -1.432977907825261354e-01
1.937374230474233627e+00 -1.732657903432846069e+01 -1.429468386340886354e-01
2.097896691411733627e+00 -1.758536809682846069e+01 -1.424738161731511354e-01
2.264522667974233627e+00 -1.785380071401596069e+01 -1.420007937122136354e-01
2.436519738286733627e+00 -1.813077825307846069e+01 -1.414972536731511354e-01
2.620967980474233627e+00 -1.846610540151596069e+01 -1.424127810169011354e-01
2.822628136724233627e+00 -1.889042180776596069e+01 -1.456629030872136354e-01
3.031856652349233627e+00 -1.931644719839096069e+01 -1.489282839465886354e-01
2.036861535161733627e+00 -2.028739446401596069e+01 -1.623407595325261354e-01
2.226680871099233627e+00 -2.062565129995346069e+01 -1.613947146106511354e-01
2.433956261724233627e+00 -2.108146184682846069e+01 -1.633020632434636354e-01
2.661861535161733627e+00 -2.165104192495346069e+01 -1.677271120715886354e-01
2.913936730474233627e+00 -2.235233587026596069e+01 -1.750208132434636354e-01
3.185543175786733627e+00 -2.310746282339096069e+01 -1.828943483997136354e-01
3.476436730474233627e+00 -2.391581243276596069e+01 -1.912866823840886354e-01
3.856441613286733627e+00 -2.526261419057846069e+01 -2.121454470325261354e-01
2.470455285161733627e+00 -2.574210637807846069e+01 -2.058588259387761354e-01
2.764400597661733627e+00 -2.674064153432846069e+01 -2.151819460559636354e-01
3.112423058599233627e+00 -2.811930364370346069e+01 -2.327142946887761354e-01
3.490718957036733627e+00 -2.955521672964096069e+01 -2.499414675403386354e-01
3.972408410161733627e+00 -3.169010442495346069e+01 -2.808557741809636354e-01
4.612178917974233627e+00 -3.481107610464096069e+01 -3.303247683215886354e-01
5.737789269536733627e+00 -4.124503606557846069e+01 -4.450556032825261354e-01
6.577022667974233627e+00 -4.484183782339096069e+01 -4.964166872669011354e-01
3.611812707036733627e+00 -4.005424016714096069e+01 -3.710809939075261354e-01
5.056758996099233627e+00 -5.269645208120346069e+01 -5.886713259387761354e-01
7.139644738286733627e+00 -6.973319524526596069e+01 -8.728662722278386354e-01
8.077144738286733627e+00 -7.316532415151596069e+01 -8.956781618762761354e-01
9.097774621099233627e+00 -7.683036321401596069e+01 -9.187341921497136354e-01
7.382564660161733627e+00 -5.757303899526596069e+01 -5.549799196887761354e-01
7.830806847661733627e+00 -5.737028020620346069e+01 -5.201288454700261354e-01
6.556148644536733627e+00 -4.479349797964096069e+01 -2.928339235950261354e-01
6.851802941411733627e+00 -8.071769231557846069e+01 -7.978845827747136354e-01
7.964962121099233627e+00 -8.581119817495346069e+01 -8.264032595325261354e-01
9.272945519536733627e+00 -9.202933782339096069e+01 -8.623987429309636354e-01
6.883541222661733627e+00 -5.752518743276596069e+01 -3.248163454700261354e-01
7.362911339849233627e+00 -5.756058782339096069e+01 -2.934137575794011354e-01
7.806881066411733627e+00 -5.732474797964096069e+01 -2.602869265247136354e-01
6.553218957036733627e+00 -4.487333196401596069e+01 -9.221136500127613544e-02
6.901729699224233627e+00 -5.784440129995346069e+01 -6.782782007940113544e-02
7.383785363286733627e+00 -5.788102239370346069e+01 -3.586065699346363544e-02
7.816646691411733627e+00 -5.753934758901596069e+01 -1.284240977838635445e-03
8.272457238286733627e+00 -5.739957708120346069e+01 3.167474339716136456e-02
7.934078332036733627e+00 -5.858414739370346069e+01 2.564061887096613646e-01
8.346798058599233627e+00 -5.806803411245346069e+01 2.901891476940363646e-01
7.864254113286733627e+00 -5.818741887807846069e+01 5.217412717174738646e-01
7.843380089849233627e+00 -5.816654485464096069e+01 7.845891721080988646e-01
2.105098839849233627e+00 -1.261393254995346069e+01 -1.109644167590886354e-01
2.214229699224233627e+00 -1.269547551870346069e+01 -1.082636110950261354e-01
2.324092980474233627e+00 -1.277115911245346069e+01 -1.054865114856511354e-01
2.436153527349233627e+00 -1.284830754995346069e+01 -1.026636355090886354e-01
2.550411339849233627e+00 -1.293046087026596069e+01 -9.996282984502613544e-02
2.680294152349233627e+00 -1.308719915151596069e+01 -1.001764528919011354e-01
2.813472863286733627e+00 -1.324784368276596069e+01 -1.003900759387761354e-01
2.948970910161733627e+00 -1.340421575307846069e+01 -1.005579226184636354e-01
2.311885949224233627e+00 -1.411063665151596069e+01 -1.156488650012761354e-01
2.434566613286733627e+00 -1.419828313589096069e+01 -1.122156374622136354e-01
2.567134972661733627e+00 -1.433695501089096069e+01 -1.106134646106511354e-01
2.714351769536733627e+00 -1.454581731557846069e+01 -1.110864870715886354e-01
2.864254113286733627e+00 -1.475016301870346069e+01 -1.114984743762761354e-01
3.017696496099233627e+00 -1.495060247182846069e+01 -1.118646853137761354e-01
3.177974816411733627e+00 -1.516886419057846069e+01 -1.123071901965886354e-01
3.343868371099233627e+00 -1.539481633901596069e+01 -1.127802126575261354e-01
2.592769738286733627e+00 -1.614188665151596069e+01 -1.246362917590886354e-01
2.765133019536733627e+00 -1.644840520620346069e+01 -1.269861452747136354e-01
2.945186730474233627e+00 -1.676859563589096069e+01 -1.294580691028386354e-01
3.134151574224233627e+00 -1.710441106557846069e+01 -1.320368044544011354e-01
3.331173058599233627e+00 -1.745426458120346069e+01 -1.347070925403386354e-01
3.538326378911733627e+00 -1.782206243276596069e+01 -1.375147097278386354e-01
3.755001183599233627e+00 -1.820670598745346069e+01 -1.404596560169011354e-01
3.982540246099233627e+00 -1.861112493276596069e+01 -1.435571901965886354e-01
3.032955285161733627e+00 -1.932035344839096069e+01 -1.490045778919011354e-01
3.257686730474233627e+00 -1.979935735464096069e+01 -1.526819460559636354e-01
3.512691613286733627e+00 -2.041691106557846069e+01 -1.601892702747136354e-01
3.814449425786733627e+00 -2.124711126089096069e+01 -1.728845827747136354e-01
4.106807824224233627e+00 -2.194303411245346069e+01 -1.810327761340886354e-01
4.415889855474233627e+00 -2.265897649526596069e+01 -1.888910525012761354e-01
4.803341027349233627e+00 -2.372135442495346069e+01 -2.050501101184636354e-01
5.188228722661733627e+00 -2.467679876089096069e+01 -2.178827517200261354e-01
3.858272667974233627e+00 -2.527067083120346069e+01 -2.122980349231511354e-01
4.202144738286733627e+00 -2.621512883901596069e+01 -2.221704714465886354e-01
4.614986535161733627e+00 -2.749491399526596069e+01 -2.389398806262761354e-01
5.158809777349233627e+00 -2.942740911245346069e+01 -2.693659060169011354e-01
5.842525597661733627e+00 -3.197721379995346069e+01 -3.116785280872136354e-01
7.023800011724233627e+00 -3.700858587026596069e+01 -4.059168093372136354e-01
8.911983605474233627e+00 -4.529447454214096069e+01 -5.647913210559636354e-01
8.996334191411733627e+00 -4.381534856557846069e+01 -5.094324343372136354e-01
6.578243371099233627e+00 -4.484195989370346069e+01 -4.963403933215886354e-01
6.914425011724233627e+00 -4.461942571401596069e+01 -4.669519655872136354e-01
7.198726769536733627e+00 -4.408146184682846069e+01 -4.328180544544011354e-01
7.603633996099233627e+00 -4.431754583120346069e+01 -4.134699099231511354e-01
7.998653527349233627e+00 -4.447428411245346069e+01 -3.924432985950261354e-01
8.598751183599233627e+00 -4.573136419057846069e+01 -3.902612917590886354e-01
8.621944542974233627e+00 -4.384757512807846069e+01 -3.337274782825261354e-01
8.878170128911733627e+00 -4.329154485464096069e+01 -3.019281618762761354e-01
6.557857628911733627e+00 -4.479642766714096069e+01 -2.928034060169011354e-01
6.887081261724233627e+00 -4.452872747182846069e+01 -2.646051638294011354e-01
7.168575402349233627e+00 -4.397709172964096069e+01 -2.325159304309636354e-01
7.567379113286733627e+00 -4.418216985464096069e+01 -2.114282839465886354e-01
7.964351769536733627e+00 -4.435697454214096069e+01 -1.897150271106511354e-01
8.488643761724233627e+00 -4.520487493276596069e+01 -1.762567751575261354e-01
8.589840050786733627e+00 -4.375223821401596069e+01 -1.337610476184636354e-01
8.932247277349233627e+00 -4.363285344839096069e+01 -1.083704226184636354e-01
6.554439660161733627e+00 -4.487320989370346069e+01 -9.211981226690113544e-02
6.925289269536733627e+00 -4.488273137807846069e+01 -6.772100855596363544e-02
7.149410363286733627e+00 -4.394327825307846069e+01 -3.283941675908863544e-02
7.541133996099233627e+00 -4.410746282339096069e+01 -1.016485621221363544e-02
7.984981652349233627e+00 -4.455802434682846069e+01 1.020562718622386456e-02
8.279537316411733627e+00 -4.413004583120346069e+01 3.837335179559886456e-02
8.574459191411733627e+00 -4.374418157339096069e+01 6.463372777216136456e-02
8.942257042974233627e+00 -4.375358098745346069e+01 8.884942601434886456e-02
8.273800011724233627e+00 -5.739750188589096069e+01 3.179681370966136456e-02
6.908687707036733627e+00 -4.486600774526596069e+01 1.356481320690363646e-01
7.289425011724233627e+00 -4.493351262807846069e+01 1.601384885143488646e-01
7.669307824224233627e+00 -4.497440618276596069e+01 1.849950558971613646e-01
7.962886925786733627e+00 -4.451163762807846069e+01 2.119115598034113646e-01
8.212642785161733627e+00 -4.383768743276596069e+01 2.391790158580988646e-01
8.460567589849233627e+00 -4.321634954214096069e+01 2.655156857799738646e-01
8.908321496099233627e+00 -4.365250676870346069e+01 2.887548215221613646e-01
8.348384972661733627e+00 -5.806864446401596069e+01 2.902959592174738646e-01
6.964840050786733627e+00 -4.534549993276596069e+01 3.371862180065363646e-01
7.327877160161733627e+00 -4.527225774526596069e+01 3.626378781627863646e-01
7.655025597661733627e+00 -4.497342962026596069e+01 3.881505734752863646e-01
8.034175988286733627e+00 -4.500785344839096069e+01 4.134954221080988646e-01
8.248897667974233627e+00 -4.411527532339096069e+01 4.379400021862238646e-01
8.609005089849233627e+00 -4.407340520620346069e+01 4.628423459362238646e-01
8.877925988286733627e+00 -4.356888860464096069e+01 4.866765744518488646e-01
6.952266808599233627e+00 -4.535660833120346069e+01 5.426000363659113646e-01
7.327877160161733627e+00 -4.536503118276596069e+01 5.683416135143488646e-01
7.691158410161733627e+00 -4.528177922964096069e+01 5.938085324596613646e-01
7.959957238286733627e+00 -4.465873235464096069e+01 6.163152463268488646e-01
8.221553917974233627e+00 -4.404130071401596069e+01 6.382879025768488646e-01
8.502559777349233627e+00 -4.358402532339096069e+01 6.605504758190363646e-01
9.052242394536733627e+00 -4.452250188589096069e+01 6.921666867565363646e-01
1.411022579297423363e+01 -9.452030462026596069e+01 1.147351623279973865e+00
7.620113488286733627e+00 -4.493351262807846069e+01 7.951024777721613646e-01
7.843746300786733627e+00 -4.406278508901596069e+01 8.123449094127863646e-01
8.376094933599233627e+00 -4.497733587026596069e+01 8.474706418346613646e-01
8.679805871099233627e+00 -4.459781926870346069e+01 8.692907101940363646e-01
9.024532433599233627e+00 -4.445353215932846069e+01 8.934911496471613646e-01
7.963497277349233627e+00 -4.484403508901596069e+01 1.022855163319036365e+00
8.304439660161733627e+00 -4.465812200307846069e+01 1.046307922108098865e+00
8.648067589849233627e+00 -4.450431340932846069e+01 1.071088195545598865e+00
9.063594933599233627e+00 -4.472440618276596069e+01 1.100812316639348865e+00
8.350460167974233627e+00 -4.499381536245346069e+01 1.256223083240911365e+00
8.669551964849233627e+00 -4.469413274526596069e+01 1.276715636951848865e+00
1.690563594922423363e+01 -8.471744817495346069e+01 2.145322204334661365e+00
1.487170040234923363e+01 -8.554923528432846069e+01 2.400494933826848865e+00
1.490539180859923363e+01 -8.169864934682846069e+01 2.358090759022161365e+00
1.559911739453673363e+01 -8.172111028432846069e+01 2.408078551990911365e+00
9.037471886724233627e+00 -4.473685735464096069e+01 1.508298278553411365e+00
1.565148555859923363e+01 -8.602213567495346069e+01 2.860257507069036365e+00
1.540954219922423363e+01 -8.084903997182846069e+01 2.758939147694036365e+00
1.606408321484923363e+01 -8.069852727651596069e+01 2.803906799061223865e+00
1.561706173047423363e+01 -8.598319524526596069e+01 3.253171325428411365e+00
1.622362911328673363e+01 -8.164799016714096069e+01 3.209714294178411365e+00
1.515551387891173363e+01 -7.630900090932846069e+01 3.372586608631536365e+00
1.502306758984923363e+01 -7.575553411245346069e+01 3.699918151600286365e+00
1.540234005078673363e+01 -7.783109563589096069e+01 4.151090026600286365e+00
2.949581261724233627e+00 -1.340494817495346069e+01 -1.005579226184636354e-01
3.091304894536733627e+00 -1.357670110464096069e+01 -1.007868044544011354e-01
3.235469933599233627e+00 -1.374418157339096069e+01 -1.009699099231511354e-01
3.384639855474233627e+00 -1.391739934682846069e+01 -1.011530153919011354e-01
3.538082238286733627e+00 -1.409549993276596069e+01 -1.013361208606511354e-01
3.706661339849233627e+00 -1.431998723745346069e+01 -1.030145876575261354e-01
3.881832238286733627e+00 -1.455411809682846069e+01 -1.048151247669011354e-01
4.060787316411733627e+00 -1.478544133901596069e+01 -1.066004030872136354e-01
3.344600792974233627e+00 -1.539628118276596069e+01 -1.128107302356511354e-01
3.514400597661733627e+00 -1.562064641714096069e+01 -1.132379763294011354e-01
3.699581261724233627e+00 -1.589554876089096069e+01 -1.151148073840886354e-01
3.913692589849233627e+00 -1.627299016714096069e+01 -1.197229616809636354e-01
4.150386925786733627e+00 -1.671830266714096069e+01 -1.265283816028386354e-01
4.388546105474233627e+00 -1.713358587026596069e+01 -1.322504275012761354e-01
4.616329308599233627e+00 -1.747855657339096069e+01 -1.348901980090886354e-01
4.854976769536733627e+00 -1.783988469839096069e+01 -1.376520388294011354e-01
3.983516808599233627e+00 -1.861344426870346069e+01 -1.435877077747136354e-01
4.333736535161733627e+00 -1.956962102651596069e+01 -1.629816286731511354e-01
4.620723839849233627e+00 -2.015604680776596069e+01 -1.705042116809636354e-01
4.881099816411733627e+00 -2.057450383901596069e+01 -1.725031130481511354e-01
5.153194542974233627e+00 -2.101175969839096069e+01 -1.745935671497136354e-01
5.488643761724233627e+00 -2.167203801870346069e+01 -1.823145144153386354e-01
5.895748253911733627e+00 -2.257023137807846069e+01 -1.958032839465886354e-01
6.340084191411733627e+00 -2.354813665151596069e+01 -2.104059450794011354e-01
5.190059777349233627e+00 -2.468229192495346069e+01 -2.179743044544011354e-01
5.690425988286733627e+00 -2.611014837026596069e+01 -2.407709353137761354e-01
6.113399621099233627e+00 -2.706363958120346069e+01 -2.509027712512761354e-01
7.086666222661733627e+00 -3.037418645620346069e+01 -3.166376345325261354e-01
9.712276574224233627e+00 -4.048636907339096069e+01 -5.387750857044011354e-01
1.025707637891173363e+01 -4.130521672964096069e+01 -5.363184206653386354e-01
1.133678829297423363e+01 -4.418924993276596069e+01 -5.793024294544011354e-01
7.065303917974233627e+00 -2.635685247182846069e+01 -1.660944216419011354e-01
8.997432824224233627e+00 -4.381449407339096069e+01 -5.093256228137761354e-01
9.296260949224233627e+00 -4.348270696401596069e+01 -4.795099489856511354e-01
9.717037316411733627e+00 -4.373343938589096069e+01 -4.615656130481511354e-01
1.008874141797423363e+01 -4.373563665151596069e+01 -4.383569948840886354e-01
1.045971309766173363e+01 -4.373404973745346069e+01 -4.150873415637761354e-01
6.889888878911733627e+00 -2.749711126089096069e+01 -9.495794703252613544e-02
7.080928917974233627e+00 -2.733597844839096069e+01 -7.760870386846363544e-02
6.911861535161733627e+00 -2.580045598745346069e+01 -3.677618433721363544e-02
8.878780480474233627e+00 -4.328837102651596069e+01 -3.017908327747136354e-01
9.252315636724233627e+00 -4.333817571401596069e+01 -2.783991091419011354e-01
9.718990441411733627e+00 -4.380765813589096069e+01 -2.623163454700261354e-01
1.007336055859923363e+01 -4.373014348745346069e+01 -2.375208132434636354e-01
1.038708126172423363e+01 -4.348380559682846069e+01 -2.104212038684636354e-01
6.876827355474233627e+00 -2.747941106557846069e+01 2.999627660028636456e-02
7.067745324224233627e+00 -2.731852239370346069e+01 4.681146214716136456e-02
7.263790246099233627e+00 -2.718461126089096069e+01 6.249749730341136456e-02
8.934444542974233627e+00 -4.363798040151596069e+01 -1.083399050403386354e-01
9.358516808599233627e+00 -4.391703313589096069e+01 -8.775579859502613544e-02
9.683590050786733627e+00 -4.370841497182846069e+01 -6.163275172002613544e-02
1.003979122266173363e+01 -4.364298528432846069e+01 -3.698980738408863544e-02
1.040758907422423363e+01 -4.363163274526596069e+01 -1.292669703252613544e-02
1.080675899609923363e+01 -4.373954290151596069e+01 1.023614476434886456e-02
7.257076378911733627e+00 -2.810770696401596069e+01 1.637090451549738646e-01
7.050777550786733627e+00 -2.639860051870346069e+01 1.922429807018488646e-01
8.943477746099233627e+00 -4.375321477651596069e+01 8.894097874872386456e-02
9.294918175786733627e+00 -4.367728704214096069e+01 1.135534055065363646e-01
9.723995324224233627e+00 -4.396134465932846069e+01 1.371282346080988646e-01
1.008617794141173363e+01 -4.391251653432846069e+01 1.618932492565363646e-01
1.043236934766173363e+01 -4.379862493276596069e+01 1.869024045299738646e-01
1.101610958203673363e+01 -4.466373723745346069e+01 2.079595334362238646e-01
7.057857628911733627e+00 -2.734855169057846069e+01 2.935460812877863646e-01
7.041988488286733627e+00 -2.639689153432846069e+01 3.115514523815363646e-01
8.909420128911733627e+00 -4.365189641714096069e+01 2.888463742565363646e-01
9.260616417974233627e+00 -4.357877629995346069e+01 3.134130246471613646e-01
9.708126183599233627e+00 -4.395231145620346069e+01 3.374608762096613646e-01
1.007397091016173363e+01 -4.392069524526596069e+01 3.623632199596613646e-01
1.056737911328673363e+01 -4.443900579214096069e+01 3.872350461315363646e-01
1.098266231641173363e+01 -4.458451360464096069e+01 4.126714474987238646e-01
6.969234582036733627e+00 -2.702970403432846069e+01 4.173711545299738646e-01
7.049312707036733627e+00 -2.645817083120346069e+01 4.315923459362238646e-01
8.878902550786733627e+00 -4.356791204214096069e+01 4.867681271862238646e-01
9.241085167974233627e+00 -4.355143254995346069e+01 5.114721066784113646e-01
9.896358605474233627e+00 -4.489322942495346069e+01 5.410436398815363646e-01
1.004418575391173363e+01 -4.385050481557846069e+01 5.625737912487238646e-01
1.055102169141173363e+01 -4.443009465932846069e+01 5.905126340221613646e-01
1.108825313672423363e+01 -4.508231633901596069e+01 6.197026974987238646e-01
1.058166133984923363e+01 -4.151273626089096069e+01 6.247838742565363646e-01
7.457393761724233627e+00 -2.806705754995346069e+01 5.615972287487238646e-01
9.053341027349233627e+00 -4.452176946401596069e+01 6.922429807018488646e-01
9.362056847661733627e+00 -4.420658391714096069e+01 7.155431516002863646e-01
1.510546505078673363e+01 -6.922159856557846069e+01 9.469732053112238646e-01
1.040124141797423363e+01 -4.551200383901596069e+01 7.784551389049738646e-01
1.067626583203673363e+01 -4.503165715932846069e+01 8.005193478893488646e-01
1.105566036328673363e+01 -4.500748723745346069e+01 8.267644650768488646e-01
1.057287227734923363e+01 -4.153141301870346069e+01 8.162816769909113646e-01
1.084191524609923363e+01 -4.119535344839096069e+01 8.369725949596613646e-01
9.025631066411733627e+00 -4.445279973745346069e+01 8.935827023815363646e-01
9.363521691411733627e+00 -4.428190129995346069e+01 9.175084836315363646e-01
1.507860958203673363e+01 -6.920048040151596069e+01 1.265103698475286365e+00
1.036962520703673363e+01 -4.543583196401596069e+01 9.853490598034113646e-01
1.076391231641173363e+01 -4.547196477651596069e+01 1.012799621326848865e+00
1.099670040234923363e+01 -4.482255071401596069e+01 1.030377746326848865e+00
1.860985958203673363e+01 -7.381693547964096069e+01 1.502057433826848865e+00
7.032100792974233627e+00 -2.648917669057846069e+01 7.913945920299738646e-01
9.064571496099233627e+00 -4.472318547964096069e+01 1.100888610584661365e+00
9.330440636724233627e+00 -4.418961614370346069e+01 1.118405700428411365e+00
1.684301387891173363e+01 -7.456107610464096069e+01 1.722913146717473865e+00
1.952868282422423363e+01 -8.340128606557846069e+01 1.934522033436223865e+00
1.793896114453673363e+01 -7.377982610464096069e+01 1.798627258045598865e+00
1.657567989453673363e+01 -6.574576848745346069e+01 1.684247375233098865e+00
1.104333126172423363e+01 -4.208036321401596069e+01 1.234540343983098865e+00
1.690673458203673363e+01 -8.471097844839096069e+01 2.145367980701848865e+00
1.640282833203673363e+01 -7.874454778432846069e+01 2.067838073475286365e+00
1.670995723828673363e+01 -7.704349797964096069e+01 2.078122497303411365e+00
1.592455684766173363e+01 -7.054142278432846069e+01 1.976636291248723865e+00
1.948583614453673363e+01 -8.333414739370346069e+01 2.321118713123723865e+00
1.781029903516173363e+01 -7.334427922964096069e+01 2.131528259022161365e+00
1.859594356641173363e+01 -7.395585149526596069e+01 2.192212463123723865e+00
1.098022091016173363e+01 -4.188822454214096069e+01 1.422925353748723865e+00
9.038692589849233627e+00 -4.473636907339096069e+01 1.508389831287786365e+00
1.772094356641173363e+01 -8.530619329214096069e+01 2.602765441639348865e+00
1.761718380078673363e+01 -8.141117376089096069e+01 2.550763488514348865e+00
1.590075313672423363e+01 -7.053678411245346069e+01 2.301633239490911365e+00
1.718798458203673363e+01 -7.349564641714096069e+01 2.429181457264348865e+00
1.743517696484923363e+01 -7.187845891714096069e+01 2.428738952381536365e+00
1.103136837109923363e+01 -4.214017766714096069e+01 1.623914123279973865e+00
1.606640255078673363e+01 -8.069816106557846069e+01 2.804074645740911365e+00
1.705639278516173363e+01 -8.219071477651596069e+01 2.900983215076848865e+00
1.705700313672423363e+01 -7.890653508901596069e+01 2.848767638904973865e+00
1.587524044141173363e+01 -7.052530950307846069e+01 2.628064513904973865e+00
1.700280391797423363e+01 -7.279642766714096069e+01 2.747525573475286365e+00
1.737926876172423363e+01 -7.174308294057846069e+01 2.758588195545598865e+00
1.969469844922423363e+01 -7.592570012807846069e+01 2.996228576404973865e+00
1.622668087109923363e+01 -8.165189641714096069e+01 3.210034728748723865e+00
1.607787716016173363e+01 -7.752640813589096069e+01 3.112744689686223865e+00
1.632665645703673363e+01 -7.559293645620346069e+01 3.091931701404973865e+00
1.664135372266173363e+01 -7.408829778432846069e+01 3.084836364490911365e+00
1.813207637891173363e+01 -7.780594915151596069e+01 3.272336364490911365e+00
1.666674434766173363e+01 -6.885868352651596069e+01 2.980069518787786365e+00
1.851086055859923363e+01 -7.390555852651596069e+01 3.221158385975286365e+00
1.117943966016173363e+01 -4.282401555776596069e+01 2.039075256092473865e+00
1.515832149609923363e+01 -7.631168645620346069e+01 3.372861266834661365e+00
1.622082149609923363e+01 -7.835111516714096069e+01 3.504346252186223865e+00
1.631505977734923363e+01 -7.565397161245346069e+01 3.444333434803411365e+00
1.658764278516173363e+01 -7.395438665151596069e+01 3.422726989490911365e+00
1.715050899609923363e+01 -7.364518254995346069e+01 3.457761169178411365e+00
1.665063106641173363e+01 -6.888553899526596069e+01 3.301282287342473865e+00
1.914623653516173363e+01 -7.657242864370346069e+01 3.682217956287786365e+00
1.907360469922423363e+01 -7.369584172964096069e+01 3.605069518787786365e+00
1.502697383984923363e+01 -7.576395696401596069e+01 3.700467468006536365e+00
1.594701778516173363e+01 -7.712955754995346069e+01 3.811444640858098865e+00
1.630041133984923363e+01 -7.570048040151596069e+01 3.796628356678411365e+00
1.552685176953673363e+01 -6.925785344839096069e+01 3.545911193592473865e+00
1.766357051953673363e+01 -7.598502629995346069e+01 3.908032775623723865e+00
1.698046505078673363e+01 -7.036442083120346069e+01 3.692059875233098865e+00
1.777087032422423363e+01 -7.110636419057846069e+01 3.774716735584661365e+00
1.902038204297423363e+01 -7.358256047964096069e+01 3.943707824451848865e+00
1.540246212109923363e+01 -7.782059758901596069e+01 4.150739074451848865e+00
1.421337520703673363e+01 -6.871659368276596069e+01 3.747556091053411365e+00
1.560448848828673363e+01 -7.252970403432846069e+01 3.985272765858098865e+00
1.612072383984923363e+01 -7.205399602651596069e+01 4.009427428944036365e+00
1.777453243359923363e+01 -7.657755559682846069e+01 4.291715026600286365e+00
1.722338497266173363e+01 -7.148185247182846069e+01 4.076047301990911365e+00
1.701684200391173363e+01 -6.814371770620346069e+01 3.946805358631536365e+00
1.889770137891173363e+01 -7.319730657339096069e+01 4.266599059803411365e+00
1.117467891797423363e+01 -4.220341008901596069e+01 2.418210387928411365e+00
1.145714962109923363e+01 -4.188151067495346069e+01 2.431256652576848865e+00
1.483214962109923363e+01 -7.075113958120346069e+01 3.853589416248723865e+00
1.561254512891173363e+01 -7.156547063589096069e+01 3.941052795154973865e+00
1.600097286328673363e+01 -7.054362004995346069e+01 3.938260436756536365e+00
1.732897579297423363e+01 -7.364506047964096069e+01 4.146817565662786365e+00
1.745251094922423363e+01 -7.149662297964096069e+01 4.085629821522161365e+00
1.718676387891173363e+01 -6.791581243276596069e+01 3.945996642811223865e+00
1.149193966016173363e+01 -4.349027532339096069e+01 2.683682800037786365e+00
1.135754024609923363e+01 -4.156022161245346069e+01 2.610181213123723865e+00
1.579723751172423363e+01 -6.878092473745346069e+01 3.814847350819036365e+00
1.702111446484923363e+01 -7.146659368276596069e+01 3.999387145740911365e+00
1.740514766797423363e+01 -7.046049016714096069e+01 3.998380065662786365e+00
1.893297969922423363e+01 -7.409354680776596069e+01 4.237698913319036365e+00
1.935485469922423363e+01 -7.319254583120346069e+01 4.243100524647161365e+00
1.159594356641173363e+01 -4.182047551870346069e+01 2.615933776600286365e+00
2.028332149609923363e+01 -7.185636419057846069e+01 4.277417541248723865e+00
1.106896602734923363e+01 -4.193168157339096069e+01 1.899945617420598865e+00
1.178551876172423363e+01 -4.323881047964096069e+01 1.977109313709661365e+00
1.210229122266173363e+01 -4.297074407339096069e+01 1.997449279529973865e+00
7.800167199224233627e+00 -2.617924016714096069e+01 1.388608337147161365e+00
8.080562707036733627e+00 -2.632425969839096069e+01 1.413525939686223865e+00
1.767687618359923363e+01 -7.617179387807846069e+01 3.335797668201848865e+00
1.663463985547423363e+01 -6.888419622182846069e+01 3.102078796131536365e+00
1.915014278516173363e+01 -7.672172063589096069e+01 3.463849426014348865e+00
1.134582149609923363e+01 -4.308780950307846069e+01 2.148175597889348865e+00
1.177709591016173363e+01 -4.326529973745346069e+01 2.186002135975286365e+00
1.171996700391173363e+01 -4.161173528432846069e+01 2.147168517811223865e+00
1.169054805859923363e+01 -4.016166204214096069e+01 2.114758849842473865e+00
1.199694454297423363e+01 -3.996232122182846069e+01 2.134869933826848865e+00
1.761632930859923363e+01 -7.602079290151596069e+01 3.690320373279973865e+00
1.841881954297423363e+01 -7.659977239370346069e+01 3.769391418201848865e+00
1.916772091016173363e+01 -7.690458196401596069e+01 3.837231994373723865e+00
1.134411251172423363e+01 -4.314091008901596069e+01 2.356091857654973865e+00
1.919286739453673363e+01 -7.176261419057846069e+01 3.707730651600286365e+00
2.466479122266173363e+01 -8.967130559682846069e+01 4.600812316639348865e+00
1.163573848828673363e+01 -4.001603215932846069e+01 2.301801086170598865e+00
1.199193966016173363e+01 -3.999491399526596069e+01 2.329892516834661365e+00
1.594067012891173363e+01 -6.870109075307846069e+01 3.698880553944036365e+00
1.692040645703673363e+01 -7.031046575307846069e+01 3.824719787342473865e+00
1.763866817578673363e+01 -7.071683782339096069e+01 3.895306945545598865e+00
1.113158809766173363e+01 -4.235685247182846069e+01 2.523587585194036365e+00
1.140673458203673363e+01 -4.196085637807846069e+01 2.534253478748723865e+00
1.182201778516173363e+01 -4.210038274526596069e+01 2.572232604725286365e+00
1.246752559766173363e+01 -4.305741399526596069e+01 2.653226257069036365e+00
1.198424923047423363e+01 -4.001798528432846069e+01 2.524701476795598865e+00
8.115474816411733627e+00 -2.672318547964096069e+01 1.183072448475286365e+00
8.270259972661733627e+00 -2.639957708120346069e+01 1.192487121326848865e+00
8.539058800786733627e+00 -2.647208684682846069e+01 1.213788390858098865e+00
1.758825313672423363e+01 -7.189774602651596069e+01 2.612393737537786365e+00
1.997094356641173363e+01 -7.898954290151596069e+01 2.883984924061223865e+00
1.147082149609923363e+01 -4.284781926870346069e+01 1.775876403553411365e+00
1.145519649609923363e+01 -4.131193059682846069e+01 1.755856872303411365e+00
7.775264855474233627e+00 -2.642289251089096069e+01 1.285397887928411365e+00
8.091426964849233627e+00 -2.667277044057846069e+01 1.313229919178411365e+00
8.389156457036733627e+00 -2.684293645620346069e+01 1.338635802967473865e+00
8.693233605474233627e+00 -2.702079290151596069e+01 1.365353942615911365e+00
1.771032344922423363e+01 -7.252115911245346069e+01 2.976987243397161365e+00
1.944445430859923363e+01 -7.696049016714096069e+01 3.189069152576848865e+00
2.005541622266173363e+01 -7.666471379995346069e+01 3.232724548084661365e+00
1.159960567578673363e+01 -4.191788762807846069e+01 1.979947448475286365e+00
1.156786739453673363e+01 -4.039945501089096069e+01 1.952069640858098865e+00
8.183956261724233627e+00 -2.703751653432846069e+01 1.459790588123723865e+00
8.385128136724233627e+00 -2.686381047964096069e+01 1.472897887928411365e+00
8.593624230474233627e+00 -2.672135442495346069e+01 1.487103820545598865e+00
1.680175411328673363e+01 -6.878715032339096069e+01 3.173871398670598865e+00
1.113390743359923363e+01 -4.317521184682846069e+01 2.174283385975286365e+00
1.143359005078673363e+01 -4.282389348745346069e+01 2.191068053944036365e+00
1.189672481641173363e+01 -4.310624212026596069e+01 2.233319640858098865e+00
1.143005001172423363e+01 -3.994681829214096069e+01 2.128873229725286365e+00
1.180578243359923363e+01 -3.997928899526596069e+01 2.160947204334661365e+00
1.353100216016173363e+01 -4.329130071401596069e+01 2.370343566639348865e+00
1.721801387891173363e+01 -7.065433782339096069e+01 3.587338805897161365e+00
1.795190059766173363e+01 -7.108817571401596069e+01 3.656781554920598865e+00
1.122900020703673363e+01 -4.207841008901596069e+01 2.363309264881536365e+00
1.153649532422423363e+01 -4.179386419057846069e+01 2.381238342029973865e+00
1.147863399609923363e+01 -4.017948430776596069e+01 2.335172057850286365e+00
1.176745235547423363e+01 -3.989493840932846069e+01 2.351559997303411365e+00
1.274828731641173363e+01 -4.201871770620346069e+01 2.486310363514348865e+00
1.343810665234923363e+01 -4.303361028432846069e+01 2.569959045154973865e+00
8.200679894536733627e+00 -2.645011419057846069e+01 1.061185241444036365e+00
8.475826378911733627e+00 -2.652787297964096069e+01 1.082776427967473865e+00
8.725826378911733627e+00 -2.651615422964096069e+01 1.102109313709661365e+00
8.879024621099233627e+00 -2.619083684682846069e+01 1.112943053944036365e+00
1.102892696484923363e+01 -4.188578313589096069e+01 1.537488342029973865e+00
1.138720333203673363e+01 -4.179044622182846069e+01 1.563886047108098865e+00
7.641842003911733627e+00 -2.626883977651596069e+01 1.149808288319036365e+00
7.903804894536733627e+00 -2.631803411245346069e+01 1.170819640858098865e+00
8.166988488286733627e+00 -2.636735051870346069e+01 1.191922546131536365e+00
8.516475792974233627e+00 -2.670145696401596069e+01 1.222012878162786365e+00
8.714962121099233627e+00 -2.651481145620346069e+01 1.236234069569036365e+00
8.926998253911733627e+00 -2.637845891714096069e+01 1.252606750233098865e+00
1.105224239453673363e+01 -4.204215520620346069e+01 1.747083068592473865e+00
1.162597286328673363e+01 -4.278129094839096069e+01 1.801968932850286365e+00
1.175695430859923363e+01 -4.179740422964096069e+01 1.800519347889348865e+00
8.116573449224233627e+00 -2.712992376089096069e+01 1.331464172108098865e+00
8.276363488286733627e+00 -2.678959172964096069e+01 1.340131164295598865e+00
8.519161339849233627e+00 -2.674650090932846069e+01 1.359036803944036365e+00
8.678951378911733627e+00 -2.642972844839096069e+01 1.367978454334661365e+00
9.035274621099233627e+00 -2.676041692495346069e+01 1.400510192615911365e+00
1.988463985547423363e+01 -7.777006047964096069e+01 3.264478088123723865e+00
1.172155391797423363e+01 -4.321634954214096069e+01 2.028607726795598865e+00
1.168822872266173363e+01 -4.159745305776596069e+01 1.999066711170598865e+00
8.101070519536733627e+00 -2.711124700307846069e+01 1.466809631092473865e+00
8.252803917974233627e+00 -2.674283879995346069e+01 1.473050475819036365e+00
8.563961144536733627e+00 -2.693558782339096069e+01 1.502255798084661365e+00
1.368456661328673363e+01 -4.308732122182846069e+01 2.186017394764348865e+00
1.325463497266173363e+01 -4.039786809682846069e+01 2.106534362537786365e+00
1.128832637891173363e+01 -4.312394231557846069e+01 2.204617858631536365e+00
2.048412716016173363e+01 -7.749576848745346069e+01 3.683804870350286365e+00
1.209203731641173363e+01 -4.318058294057846069e+01 2.270993591053411365e+00
1.159435665234923363e+01 -3.990641301870346069e+01 2.161206603748723865e+00
8.307979699224233627e+00 -2.697465032339096069e+01 1.618573547108098865e+00
1.269591915234923363e+01 -4.113419622182846069e+01 2.277890563709661365e+00
1.424938594922423363e+01 -4.365922063589096069e+01 2.460263610584661365e+00
1.362365352734923363e+01 -4.083011907339096069e+01 1.609418273670598865e+00
9.367794152349233627e+00 -2.641361516714096069e+01 1.206097961170598865e+00
7.811885949224233627e+00 -2.738053411245346069e+01 1.228879333240911365e+00
7.774410363286733627e+00 -2.626603215932846069e+01 1.215527892811223865e+00
8.046138878911733627e+00 -2.633573430776596069e+01 1.237836242420598865e+00
8.313717003911733627e+00 -2.637870305776596069e+01 1.259564758045598865e+00
8.643306847661733627e+00 -2.662870305776596069e+01 1.288174987537786365e+00
1.319201290234923363e+01 -4.074369329214096069e+01 1.782208801014348865e+00
1.335924923047423363e+01 -4.003629583120346069e+01 1.788968444569036365e+00
1.395605098828673363e+01 -4.069694036245346069e+01 1.842694640858098865e+00
1.187438594922423363e+01 -4.312357610464096069e+01 1.915234924061223865e+00
1.182690059766173363e+01 -4.145023626089096069e+01 1.888394714100286365e+00
8.031490441411733627e+00 -2.632023137807846069e+01 1.372937560779973865e+00
8.432247277349233627e+00 -2.683036321401596069e+01 1.411664367420598865e+00
8.651607628911733627e+00 -2.669266790151596069e+01 1.427548766834661365e+00
1.314611446484923363e+01 -4.064518254995346069e+01 1.984204650623723865e+00
1.335583126172423363e+01 -4.007548040151596069e+01 1.993359924061223865e+00
1.366186153516173363e+01 -3.983182805776596069e+01 2.014813781483098865e+00
1.890465938672423363e+01 -7.039737981557846069e+01 3.205624938709661365e+00
1.226330196484923363e+01 -4.314200872182846069e+01 2.162320495350286365e+00
8.107174035161733627e+00 -2.663175481557846069e+01 1.520505309803411365e+00
1.211095821484923363e+01 -3.977323430776596069e+01 2.088635802967473865e+00
1.350719844922423363e+01 -4.324320501089096069e+01 2.266553283436223865e+00
1.304455196484923363e+01 -4.036185735464096069e+01 2.176160217029973865e+00
1.411095821484923363e+01 -4.254508489370346069e+01 2.303571105701848865e+00
1.366808712109923363e+01 -3.990006536245346069e+01 2.220181823475286365e+00
7.933590050786733627e+00 -2.632621282339096069e+01 1.140775085194036365e+00
8.213253136724233627e+00 -2.640348333120346069e+01 1.162991882069036365e+00
8.548580285161733627e+00 -2.666459172964096069e+01 1.190762878162786365e+00
8.757686730474233627e+00 -2.647758001089096069e+01 1.205701232654973865e+00
1.337963497266173363e+01 -4.071341985464096069e+01 1.660626769764348865e+00
2.317760860547423363e+01 -7.053715032339096069e+01 2.622617126209661365e+00
1.392626583203673363e+01 -3.995939153432846069e+01 1.697903991444036365e+00
1.490636837109923363e+01 -4.172538274526596069e+01 1.785886169178411365e+00
7.919063683599233627e+00 -2.631046575307846069e+01 1.278210998279973865e+00
8.316890832036733627e+00 -2.681229680776596069e+01 1.315213561756536365e+00
8.551632042974233627e+00 -2.671158879995346069e+01 1.332593322498723865e+00
8.879390832036733627e+00 -2.692289251089096069e+01 1.360059142811223865e+00
2.217260372266173363e+01 -6.951810735464096069e+01 2.884671569569036365e+00
1.350390255078673363e+01 -3.990323919057846069e+01 1.871014953358098865e+00
1.513830196484923363e+01 -4.374820989370346069e+01 2.042996764881536365e+00
1.418139278516173363e+01 -3.959867376089096069e+01 1.921033263904973865e+00
1.170812618359923363e+01 -4.040445989370346069e+01 1.940991759998723865e+00
8.296138878911733627e+00 -2.677518743276596069e+01 1.453626037342473865e+00
8.619381066411733627e+00 -2.698380559682846069e+01 1.482800842029973865e+00
8.773311730474233627e+00 -2.660087102651596069e+01 1.489179015858098865e+00
1.327721798047423363e+01 -4.048087590932846069e+01 2.066953063709661365e+00
1.439379512891173363e+01 -4.278116887807846069e+01 2.192395568592473865e+00
1.381127559766173363e+01 -3.970048040151596069e+01 2.097623229725286365e+00
