-3.422324310988187790e+00 -2.158779877424240112e+01 -4.320527519099357505e-01
-3.286948334425687790e+00 -2.221377533674240112e+01 -4.349824394099357505e-01
-3.134604584425687790e+00 -2.281216400861740112e+01 -4.376069511286857505e-01
-2.978598725050687790e+00 -2.346157807111740112e+01 -4.405213798396232505e-01
-2.802695404738187790e+00 -2.405288666486740112e+01 -4.429322685114982505e-01
-2.632773529738187790e+00 -2.480068939924240112e+01 -4.463654960505607505e-01
-2.457846771925687790e+00 -2.562820404767990112e+01 -4.502564872614982505e-01
-3.623129975050687790e+00 -2.139749115705490112e+01 -3.264619315974357505e-01
-3.493491303175687790e+00 -2.201162689924240112e+01 -3.272096122614982505e-01
-3.347495209425687790e+00 -2.259646576642990112e+01 -3.272401298396232505e-01
-3.189780365675687790e+00 -2.318460053205490112e+01 -3.271943534724357505e-01
-3.038291107863187790e+00 -2.389541596174240112e+01 -3.273927177302482505e-01
-2.857504975050687790e+00 -2.448233002424240112e+01 -3.272096122614982505e-01
-2.693320404738187790e+00 -2.531668061017990112e+01 -3.275300468318107505e-01
-2.503501068800687790e+00 -2.605191010236740112e+01 -3.268586601130607505e-01
-3.697470795363187790e+00 -2.181460541486740112e+01 -2.204438651911857505e-01
-3.557089935988187790e+00 -2.238906830549240112e+01 -2.179566825739982505e-01
-3.393759857863187790e+00 -2.288833588361740112e+01 -2.155457939021232505e-01
-3.246909271925687790e+00 -2.357070893049240112e+01 -2.127229179255607505e-01
-3.094443451613187790e+00 -2.430264252424240112e+01 -2.097169364802482505e-01
-2.924887787550687790e+00 -2.501138275861740112e+01 -2.066651786677482505e-01
-2.742148529738187790e+00 -2.573123139142990112e+01 -2.035218681208732505e-01
-2.559897553175687790e+00 -2.657717865705490112e+01 -2.000123466364982505e-01
-3.763510834425687790e+00 -2.218460053205490112e+01 -1.102754081599357505e-01
-3.605307709425687790e+00 -2.267471283674240112e+01 -1.063996757380607505e-01
-3.444541107863187790e+00 -2.320889252424240112e+01 -1.015778983943107505e-01
-3.303183685988187790e+00 -2.395071381330490112e+01 -9.533705366774825052e-02
-3.147544037550687790e+00 -2.468801850080490112e+01 -8.905043257399825052e-02
-2.976523529738187790e+00 -2.541470307111740112e+01 -8.276381148024825052e-02
-2.792197357863187790e+00 -2.615640228986740112e+01 -7.629408491774825052e-02
-2.619467865675687790e+00 -2.713235443830490112e+01 -6.744398726149825052e-02
-3.813925873488187790e+00 -2.246572846174240112e+01 1.739362347876749482e-03
-3.654990326613187790e+00 -2.296890228986740112e+01 8.499005902564249482e-03
-3.505820404738187790e+00 -2.359622162580490112e+01 1.669297562912674948e-02
-3.359458100050687790e+00 -2.433108490705490112e+01 2.616868363693924948e-02
-3.196372162550687790e+00 -2.504104584455490112e+01 3.543076859787674948e-02
-3.029990326613187790e+00 -2.583267182111740112e+01 4.568467484787674948e-02
-2.847251068800687790e+00 -2.662441986799240112e+01 5.599961625412674948e-02
-2.668784271925687790e+00 -2.758999603986740112e+01 6.838975297287674948e-02
-3.865683685988187790e+00 -2.275527924299240112e+01 1.170652900822517495e-01
-3.705771576613187790e+00 -2.327029389142990112e+01 1.262205635197517495e-01
-3.565878998488187790e+00 -2.397549408674240112e+01 1.378172432072517495e-01
-3.409628998488187790e+00 -2.466873139142990112e+01 1.498869453556892495e-01
-3.248374115675687790e+00 -2.541751068830490112e+01 1.628874336369392495e-01
-3.084067475050687790e+00 -2.625564545392990112e+01 1.773832832463142495e-01
-2.906699310988187790e+00 -2.712966889142990112e+01 1.932066475041267495e-01
-2.717612396925687790e+00 -2.804336518049240112e+01 2.090757881291267495e-01
-3.918784271925687790e+00 -2.305166596174240112e+01 2.352293525822517495e-01
-3.765463959425687790e+00 -2.362441986799240112e+01 2.472075019963142495e-01
-3.622153412550687790e+00 -2.433059662580490112e+01 2.625578437931892495e-01
-3.459677826613187790e+00 -2.500588959455490112e+01 2.773283516056892495e-01
-3.302207123488187790e+00 -2.580703705549240112e+01 2.947233711369392495e-01
-3.137045990675687790e+00 -2.666946381330490112e+01 3.134459053166267495e-01
-2.959067475050687790e+00 -2.757449311017990112e+01 3.331144844181892495e-01
-2.768393646925687790e+00 -2.851358002424240112e+01 3.542631660588142495e-01
-5.296241156756877899e-01 -7.402618110179901123e+00 -8.424836601130607505e-01
-4.453956000506877899e-01 -7.431670844554901123e+00 -8.431245292536857505e-01
-3.604346625506877899e-01 -7.457793891429901123e+00 -8.437806571833732505e-01
-2.748633734881877899e-01 -7.484039008617401123e+00 -8.444367851130607505e-01
-1.891700141131877899e-01 -7.510284125804901123e+00 -8.450929130427482505e-01
-1.029883734881877899e-01 -7.536651313304901123e+00 -8.457490409724357505e-01
-1.619638130068778992e-02 -7.563384711742401123e+00 -8.464051689021232505e-01
7.083975151181221008e-02 -7.586700141429901123e+00 -8.470765556208732505e-01
-5.966407172381877899e-01 -8.037017524242401123e+00 -8.419953788630607505e-01
-5.060645453631877899e-01 -8.066314399242401123e+00 -8.426972831599357505e-01
-4.156104438006877899e-01 -8.103057563304901123e+00 -8.435975517146232505e-01
-3.250342719256877899e-01 -8.149444282054901123e+00 -8.453370536677482505e-01
-2.339698188006877899e-01 -8.196197211742401123e+00 -8.470918144099357505e-01
-1.421729438006877899e-01 -8.243316352367401123e+00 -8.488465751521232505e-01
-4.891122505068778992e-02 -8.283843696117401123e+00 -8.504182304255607505e-01
4.496084526181221008e-02 -8.318633735179901123e+00 -8.513947929255607505e-01
-6.809913031756877899e-01 -8.836333930492401123e+00 -8.451692069880607505e-01
-5.846778266131877899e-01 -8.889678657054901123e+00 -8.470612968318107505e-01
-4.875098578631877899e-01 -8.943633735179901123e+00 -8.489533866755607505e-01
-3.889991156756877899e-01 -8.998199164867401123e+00 -8.508759940974357505e-01
-2.900000922381877899e-01 -9.053130805492401123e+00 -8.527986015193107505e-01
-1.900245063006877899e-01 -9.108672797679901123e+00 -8.547517265193107505e-01
-8.882821723818778992e-02 -9.164825141429901123e+00 -8.567201103083732505e-01
1.346670463681221008e-02 -9.208526313304901123e+00 -8.579865898005607505e-01
-7.869483344256877899e-01 -9.840240180492401123e+00 -8.520966972224357505e-01
-6.834327094256877899e-01 -9.923370063304901123e+00 -8.549500907771232505e-01
-5.778418891131877899e-01 -1.000051850080490112e+01 -8.577424491755607505e-01
-4.705420844256877899e-01 -1.007900971174240112e+01 -8.605805839411857505e-01
-3.608008734881877899e-01 -1.013528412580490112e+01 -8.622437919489982505e-01
-2.495948188006877899e-01 -1.018350189924240112e+01 -8.634492362849357505e-01
-1.372901313006877899e-01 -1.023208588361740112e+01 -8.646851981989982505e-01
-2.449716255068778992e-02 -1.028225678205490112e+01 -8.662721122614982505e-01
-9.392920844256877899e-01 -1.128445404767990112e+01 -8.708650077693107505e-01
-8.200293891131877899e-01 -1.135464447736740112e+01 -8.728486503474357505e-01
-6.995459906756877899e-01 -1.142544525861740112e+01 -8.748475517146232505e-01
-5.773536078631877899e-01 -1.149722260236740112e+01 -8.768769706599357505e-01
-4.544288031756877899e-01 -1.156936615705490112e+01 -8.789216483943107505e-01
-3.302832953631877899e-01 -1.164236420392990112e+01 -8.809815849177482505e-01
-2.045508734881877899e-01 -1.171633881330490112e+01 -8.830720390193107505e-01
-7.747567817568778992e-02 -1.177944916486740112e+01 -8.846284355036857505e-01
-1.122519623488187790e+00 -1.302053803205490112e+01 -8.894044364802482505e-01
-9.949561469256877899e-01 -1.318753021955490112e+01 -8.948060478083732505e-01
-8.565284125506877899e-01 -1.326358002424240112e+01 -8.965455497614982505e-01
-7.162696234881877899e-01 -1.334060639142990112e+01 -8.983155692927482505e-01
-5.752784125506877899e-01 -1.341812103986740112e+01 -9.000855888239982505e-01
-4.329444281756877899e-01 -1.349624603986740112e+01 -9.018861259333732505e-01
-2.887793891131877899e-01 -1.357534760236740112e+01 -9.036866630427482505e-01
-1.433936469256877899e-01 -1.364309662580490112e+01 -9.053651298396232505e-01
-1.458945404738187790e+00 -1.621072357892990112e+01 -9.487458671443107505e-01
-1.266928803175687790e+00 -1.603750580549240112e+01 -9.400941337458732505e-01
-1.078940521925687790e+00 -1.586795014142990112e+01 -9.316102470271232505e-01
-9.132911078631877899e-01 -1.595462006330490112e+01 -9.331666435114982505e-01
-7.473975531756877899e-01 -1.605349701642990112e+01 -9.351960624568107505e-01
-5.799170844256877899e-01 -1.615347260236740112e+01 -9.372407401911857505e-01
-4.128028266131877899e-01 -1.631155365705490112e+01 -9.415132011286857505e-01
-2.443457953631877899e-01 -1.650137299299240112e+01 -9.469758476130607505e-01
-1.963950287550687790e+00 -2.099856537580490112e+01 -1.034485002886498251e+00
-1.757407318800687790e+00 -2.117898529767990112e+01 -1.038421770464623251e+00
-1.665122162550687790e+00 -2.273806732892990112e+01 -1.089325090777123251e+00
-1.508872162550687790e+00 -2.387014740705490112e+01 -1.125763079058373251e+00
-1.283286225050687790e+00 -2.426638764142990112e+01 -1.136764665972435751e+00
-1.047446381300687790e+00 -2.461746186017990112e+01 -1.146148821245873251e+00
-7.768164984881877899e-01 -2.436148041486740112e+01 -1.135391374956810751e+00
-5.127784125506877899e-01 -2.411489838361740112e+01 -1.124389788042748251e+00
-2.122153412550687790e+00 -2.249319428205490112e+01 -9.763490165583732505e-01
-1.960776459425687790e+00 -2.330410736799240112e+01 -9.982758964411857505e-01
-1.772299896925687790e+00 -2.398477143049240112e+01 -1.016174456011498251e+00
-1.552085053175687790e+00 -2.443179291486740112e+01 -1.026962419878685751e+00
-1.326132904738187790e+00 -2.490896576642990112e+01 -1.038559099566185751e+00
-1.139365326613187790e+00 -2.626382416486740112e+01 -1.076034685503685751e+00
-9.004737250506877899e-01 -2.707754486799240112e+01 -1.097290178667748251e+00
-6.352149359881877899e-01 -2.756411713361740112e+01 -1.108764788042748251e+00
-2.224204193800687790e+00 -2.345376557111740112e+01 -8.914033378474357505e-01
-2.049399506300687790e+00 -2.422561615705490112e+01 -9.085999931208732505e-01
-1.834555756300687790e+00 -2.470388764142990112e+01 -9.182130302302482505e-01
-1.609213959425687790e+00 -2.517971771955490112e+01 -9.276887382380607505e-01
-1.427085053175687790e+00 -2.644326752424240112e+01 -9.568330253474357505e-01
-1.198447357863187790e+00 -2.731533783674240112e+01 -9.759522880427482505e-01
-9.523536078631877899e-01 -2.820144623517990112e+01 -9.952546562068107505e-01
-6.953956000506877899e-01 -2.923879975080490112e+01 -1.018158098589623251e+00
-2.277426850050687790e+00 -2.395108002424240112e+01 -7.873383964411857505e-01
-2.112143646925687790e+00 -2.487332123517990112e+01 -8.041078056208732505e-01
-1.899863373488187790e+00 -2.545889252424240112e+01 -8.137666190974357505e-01
-1.701132904738187790e+00 -2.638723725080490112e+01 -8.303376640193107505e-01
-1.471030365675687790e+00 -2.709976166486740112e+01 -8.423463310114982505e-01
-1.252890717238187790e+00 -2.827932709455490112e+01 -8.637391532771232505e-01
-1.007529389113187790e+00 -2.939517182111740112e+01 -8.836213554255607505e-01
-7.310401313006877899e-01 -3.021487396955490112e+01 -8.973237480036857505e-01
-2.340170990675687790e+00 -2.453799408674240112e+01 -6.807710136286857505e-01
-2.170737396925687790e+00 -2.547891205549240112e+01 -6.936341728083732505e-01
-1.974814545363187790e+00 -2.632522553205490112e+01 -7.048036064021232505e-01
-1.751670014113187790e+00 -2.704458588361740112e+01 -7.137910331599357505e-01
-1.533530365675687790e+00 -2.804153412580490112e+01 -7.270661796443107505e-01
-1.291587006300687790e+00 -2.895974701642990112e+01 -7.389222587458732505e-01
-1.052085053175687790e+00 -3.035281342267990112e+01 -7.580567802302482505e-01
-7.715674750506877899e-01 -3.132791107892990112e+01 -7.704316581599357505e-01
-2.404502045363187790e+00 -2.513992279767990112e+01 -5.683442558161857505e-01
-2.218833100050687790e+00 -2.597232025861740112e+01 -5.756379569880607505e-01
-2.032309662550687790e+00 -2.698709076642990112e+01 -5.855561698786857505e-01
-1.810141693800687790e+00 -2.780728119611740112e+01 -5.924073661677482505e-01
-1.577841889113187790e+00 -2.870181244611740112e+01 -5.999757255427482505e-01
-1.341757904738187790e+00 -2.984634369611740112e+01 -6.101838554255607505e-01
-1.088584076613187790e+00 -3.112869232892990112e+01 -6.209260429255607505e-01
-7.972022406756877899e-01 -3.201443451642990112e+01 -6.278687919489982505e-01
-2.457358490675687790e+00 -2.563235443830490112e+01 -4.502717460505607505e-01
-2.273886810988187790e+00 -2.653921478986740112e+01 -4.542848075739982505e-01
-2.086386810988187790e+00 -2.760842865705490112e+01 -4.592591728083732505e-01
-1.859213959425687790e+00 -2.844448822736740112e+01 -4.624635185114982505e-01
-1.616416107863187790e+00 -2.927627533674240112e+01 -4.655305351130607505e-01
-1.384970795363187790e+00 -3.060525482892990112e+01 -4.717103446833732505e-01
-1.119712006300687790e+00 -3.178872650861740112e+01 -4.767304862849357505e-01
-8.255225531756877899e-01 -3.277749603986740112e+01 -4.803163017146232505e-01
-2.503012787550687790e+00 -2.605618256330490112e+01 -3.268586601130607505e-01
-2.327719818800687790e+00 -2.709378021955490112e+01 -3.277131523005607505e-01
-2.130576264113187790e+00 -2.811465424299240112e+01 -3.277131523005607505e-01
-1.903281342238187790e+00 -2.901455658674240112e+01 -3.272706474177482505e-01
-1.673667084425687790e+00 -3.013345307111740112e+01 -3.271485771052482505e-01
-1.416587006300687790e+00 -3.115225189924240112e+01 -3.266602958552482505e-01
-1.148520600050687790e+00 -3.239553803205490112e+01 -3.264161552302482505e-01
-8.506690375506877899e-01 -3.345010346174240112e+01 -3.247987235896232505e-01
-2.559653412550687790e+00 -2.658364838361740112e+01 -1.999818290583732505e-01
-2.378378998488187790e+00 -2.761392182111740112e+01 -1.954347099177482505e-01
-2.175620209425687790e+00 -2.862844818830490112e+01 -1.907807792536857505e-01
-1.948569428175687790e+00 -2.959976166486740112e+01 -1.860658134333732505e-01
-1.711753021925687790e+00 -3.069827240705490112e+01 -1.808778251521232505e-01
-1.454428803175687790e+00 -3.181375092267990112e+01 -1.754914726130607505e-01
-1.176352631300687790e+00 -3.297781342267990112e+01 -1.697999442927482505e-01
-8.732520453631877899e-01 -3.404763764142990112e+01 -1.641847099177482505e-01
-2.619223725050687790e+00 -2.713882416486740112e+01 -6.739821089431075052e-02
-2.422446381300687790e+00 -2.806472748517990112e+01 -5.958571089431075052e-02
-2.220908295363187790e+00 -2.914614838361740112e+01 -4.985060347243575052e-02
-1.997275482863187790e+00 -3.023037689924240112e+01 -3.993239058181075052e-02
-1.747885834425687790e+00 -3.123110932111740112e+01 -3.045668257399825052e-02
-1.488730560988187790e+00 -3.240957611799240112e+01 -1.956190718337325052e-02
-1.203696381300687790e+00 -3.355032318830490112e+01 -8.758684527123250518e-03
-8.971778266131877899e-01 -3.468167084455490112e+01 3.005841840064249482e-03
-2.668418060988187790e+00 -2.759561127424240112e+01 6.846604691818924948e-02
-2.472128998488187790e+00 -2.857290619611740112e+01 8.178696976975174948e-02
-2.266684662550687790e+00 -2.966848725080490112e+01 9.663377152756424948e-02
-2.040610443800687790e+00 -3.078909271955490112e+01 1.119230781681892495e-01
-1.789145600050687790e+00 -3.184292572736740112e+01 1.265715156681892495e-01
-1.519614350050687790e+00 -3.294265717267990112e+01 1.419065986760017495e-01
-1.231650482863187790e+00 -3.413516205549240112e+01 1.585081611760017495e-01
-9.240332953631877899e-01 -3.539431732892990112e+01 1.760710273869392495e-01
-2.717246185988187790e+00 -2.804910248517990112e+01 2.091673408635017495e-01
-2.522910248488187790e+00 -2.909329193830490112e+01 2.280272041447517495e-01
-2.310263764113187790e+00 -3.016519135236740112e+01 2.467039619572517495e-01
-2.081503998488187790e+00 -3.131558197736740112e+01 2.675627266056892495e-01
-1.825766693800687790e+00 -3.238247650861740112e+01 2.872007881291267495e-01
-1.552329193800687790e+00 -3.350674408674240112e+01 3.079069648869392495e-01
-1.261069428175687790e+00 -3.474856537580490112e+01 3.316038643010017495e-01
-9.527198188006877899e-01 -3.615872162580490112e+01 3.573912178166267495e-01
-2.768027435988187790e+00 -2.852029389142990112e+01 3.544004951603767495e-01
-2.571005951613187790e+00 -2.958535736799240112e+01 3.777159248478767495e-01
-2.357016693800687790e+00 -3.069680756330490112e+01 4.028471504338142495e-01
-2.122641693800687790e+00 -3.184316986799240112e+01 4.288481269963142495e-01
-1.861899506300687790e+00 -3.291433686017990112e+01 4.534300361760017495e-01
-1.586142670363187790e+00 -3.409158295392990112e+01 4.803617988713142495e-01
-1.296225678175687790e+00 -3.548904389142990112e+01 5.121000801213142495e-01
-9.853125922381877899e-01 -3.703176850080490112e+01 5.480040107853767495e-01
7.120596244931221008e-02 -7.586822211742401123e+00 -8.470765556208732505e-01
1.581200249493122101e-01 -7.627471625804901123e+00 -8.487092460505607505e-01
2.460106499493122101e-01 -7.664825141429901123e+00 -8.503419364802482505e-01
3.349999077618122101e-01 -7.702666938304901123e+00 -8.519898856989982505e-01
4.243553765118122101e-01 -7.739288032054901123e+00 -8.535462821833732505e-01
5.144432671368122101e-01 -7.773101508617401123e+00 -8.549195731989982505e-01
6.055077202618122101e-01 -7.807403266429901123e+00 -8.563081230036857505e-01
6.968163140118122101e-01 -7.838287055492401123e+00 -8.577119315974357505e-01
4.520498588681221008e-02 -8.318755805492401123e+00 -8.514100517146232505e-01
1.398094780743122101e-01 -8.349029242992401123e+00 -8.523560966364982505e-01
2.349022515118122101e-01 -8.383697211742401123e+00 -8.533479179255607505e-01
3.310936577618122101e-01 -8.414458930492401123e+00 -8.543244804255607505e-01
4.275292046368122101e-01 -8.445220649242401123e+00 -8.552857841364982505e-01
5.245751030743122101e-01 -8.476226508617401123e+00 -8.562776054255607505e-01
6.224754936993122101e-01 -8.503081977367401123e+00 -8.572236503474357505e-01
7.207420952618122101e-01 -8.534454047679901123e+00 -8.582154716364982505e-01
1.383291557431221008e-02 -9.208770453929901123e+00 -8.579865898005607505e-01
1.171043999493122101e-01 -9.244781196117401123e+00 -8.590547050349357505e-01
2.211083061993122101e-01 -9.281158149242401123e+00 -8.601228202693107505e-01
3.262108452618122101e-01 -9.317901313304901123e+00 -8.612061942927482505e-01
4.316795952618122101e-01 -9.354644477367401123e+00 -8.623048271052482505e-01
5.377586968243122101e-01 -9.391753852367401123e+00 -8.633882011286857505e-01
6.451805718243122101e-01 -9.429229438304901123e+00 -8.645020927302482505e-01
7.528465874493122101e-01 -9.466827094554901123e+00 -8.656007255427482505e-01
-2.413095161318778992e-02 -1.028274506330490112e+01 -8.662873710505607505e-01
8.902822807431221008e-02 -1.035220307111740112e+01 -8.685456718318107505e-01
2.035301811993122101e-01 -1.041604584455490112e+01 -8.707887138239982505e-01
3.198631890118122101e-01 -1.048086518049240112e+01 -8.730470146052482505e-01
4.370506890118122101e-01 -1.054617279767990112e+01 -8.753358329646232505e-01
5.555809624493122101e-01 -1.061221283674240112e+01 -8.776551689021232505e-01
6.758202202618122101e-01 -1.067922943830490112e+01 -8.800050224177482505e-01
7.778710015118122101e-01 -1.019778412580490112e+01 -8.542634452693107505e-01
-7.698739692568778992e-02 -1.177981537580490112e+01 -8.846436942927482505e-01
5.082022026181221008e-02 -1.185928314924240112e+01 -8.872071708552482505e-01
1.803368218243122101e-01 -1.192813080549240112e+01 -8.892365898005607505e-01
3.116844780743122101e-01 -1.199807709455490112e+01 -8.913117851130607505e-01
4.440086968243122101e-01 -1.206838959455490112e+01 -8.934022392146232505e-01
5.776756890118122101e-01 -1.213955658674240112e+01 -8.955079521052482505e-01
7.134178765118122101e-01 -1.221170014142990112e+01 -8.976441825739982505e-01
7.742088921368122101e-01 -1.011111420392990112e+01 -7.973786796443107505e-01
-1.429053656756877899e-01 -1.364321869611740112e+01 -9.053651298396232505e-01
2.602446824312210083e-03 -1.375955170392990112e+01 -9.085999931208732505e-01
1.505516655743122101e-01 -1.386355561017990112e+01 -9.116670097224357505e-01
3.010643608868122101e-01 -1.396951264142990112e+01 -9.147798026911857505e-01
4.531639702618122101e-01 -1.407644623517990112e+01 -9.179231132380607505e-01
6.074608452618122101e-01 -1.418508881330490112e+01 -9.210969413630607505e-01
7.644432671368122101e-01 -1.429544037580490112e+01 -9.243470634333732505e-01
7.721336968243122101e-01 -1.006607025861740112e+01 -7.433473075739982505e-01
-2.437354438006877899e-01 -1.650247162580490112e+01 -9.470063651911857505e-01
-7.161630317568778992e-02 -1.668801850080490112e+01 -9.524690116755607505e-01
1.059960015118122101e-01 -1.676223725080490112e+01 -9.536286796443107505e-01
2.856835015118122101e-01 -1.683633393049240112e+01 -9.547730888239982505e-01
4.662254936993122101e-01 -1.691079682111740112e+01 -9.559022392146232505e-01
6.482323296368122101e-01 -1.698599213361740112e+01 -9.570466483943107505e-01
8.352440483868122101e-01 -1.717861908674240112e+01 -9.626466239802482505e-01
7.706688530743122101e-01 -1.003872650861740112e+01 -6.901399101130607505e-01
-5.118018500506877899e-01 -2.411343353986740112e+01 -1.124328752886498251e+00
-1.951514594256877899e-01 -2.157144135236740112e+01 -1.035751482378685751e+00
3.629385307431221008e-02 -2.129861420392990112e+01 -1.023819109331810751e+00
2.606590874493122101e-01 -2.150772064924240112e+01 -1.028732439409935751e+00
4.883202202618122101e-01 -2.171987885236740112e+01 -1.033722063433373251e+00
7.203758843243122101e-01 -2.193618744611740112e+01 -1.038787981402123251e+00
9.565819390118122101e-01 -2.211428803205490112e+01 -1.043121477495873251e+00
7.695702202618122101e-01 -1.002383393049240112e+01 -6.378938163630607505e-01
-6.343604438006877899e-01 -2.756741303205490112e+01 -1.108856340777123251e+00
-3.589698188006877899e-01 -2.803066986799240112e+01 -1.119705339800560751e+00
-1.005469672381877899e-01 -3.021755951642990112e+01 -1.180786272417748251e+00
2.081688530743122101e-01 -3.133938568830490112e+01 -1.210449358355248251e+00
5.347069390118122101e-01 -3.174136322736740112e+01 -1.219040056597435751e+00
8.856590874493122101e-01 -3.325637787580490112e+01 -1.259719988238060751e+00
1.260781157761812210e+00 -3.447549408674240112e+01 -1.291580339800560751e+00
7.688377983868122101e-01 -1.001821869611740112e+01 -5.857697929255607505e-01
-6.945411078631877899e-01 -2.924490326642990112e+01 -1.018295427691185751e+00
-4.118262641131877899e-01 -3.007925385236740112e+01 -1.036026140581810751e+00
-1.242286078631877899e-01 -3.168240326642990112e+01 -1.072525164019310751e+00
2.004784233868122101e-01 -3.254153412580490112e+01 -1.090454241167748251e+00
5.414208061993122101e-01 -3.347988861799240112e+01 -1.110183855425560751e+00
9.090965874493122101e-01 -3.495901459455490112e+01 -1.142883440386498251e+00
6.420067436993122101e-01 -9.443145453929901123e+00 -5.212708915583732505e-01
7.435692436993122101e-01 -9.301177680492401123e+00 -5.168305839411857505e-01
-7.301856391131877899e-01 -3.022048920392990112e+01 -8.974153007380607505e-01
-4.494239203631877899e-01 -3.151370209455490112e+01 -9.204255546443107505e-01
-1.415625922381877899e-01 -3.272109955549240112e+01 -9.414826835505607505e-01
1.926659233868122101e-01 -3.372524994611740112e+01 -9.582520927302482505e-01
5.459374077618122101e-01 -3.477908295392990112e+01 -9.758302177302482505e-01
9.277733452618122101e-01 -3.634805268049240112e+01 -1.003357073198998251e+00
6.394432671368122101e-01 -9.357940375804901123e+00 -4.703370536677482505e-01
7.421043999493122101e-01 -9.272491157054901123e+00 -4.676667655818107505e-01
-7.707129828631877899e-01 -3.133413666486740112e+01 -7.705232108943107505e-01
-4.679786078631877899e-01 -3.219705170392990112e+01 -7.808381523005607505e-01
-1.576758734881877899e-01 -3.367971771955490112e+01 -8.005219901911857505e-01
1.860741265118122101e-01 -3.466848725080490112e+01 -8.123628105036857505e-01
5.494774468243122101e-01 -3.589578217267990112e+01 -8.276521171443107505e-01
9.427879936993122101e-01 -3.749795502424240112e+01 -8.483888114802482505e-01
6.381004936993122101e-01 -9.324615180492401123e+00 -4.212495292536857505e-01
7.411278374493122101e-01 -9.258331000804901123e+00 -4.192658866755607505e-01
-7.962256781756877899e-01 -3.202017182111740112e+01 -6.279145683161857505e-01
-4.955664984881877899e-01 -3.323013275861740112e+01 -6.379701103083732505e-01
-1.702491156756877899e-01 -3.440042084455490112e+01 -6.482240165583732505e-01
1.803368218243122101e-01 -3.544937103986740112e+01 -6.561128105036857505e-01
5.524071343243122101e-01 -3.688626068830490112e+01 -6.679383720271232505e-01
9.563377983868122101e-01 -3.855374115705490112e+01 -6.819154228083732505e-01
6.371239311993122101e-01 -9.301177680492401123e+00 -3.723145927302482505e-01
7.400292046368122101e-01 -9.242583930492401123e+00 -3.707124198786857505e-01
-8.246680609881877899e-01 -3.278713959455490112e+01 -4.803773368708732505e-01
-5.131446234881877899e-01 -3.386697357892990112e+01 -4.839784110896232505e-01
-1.836768500506877899e-01 -3.517642182111740112e+01 -4.888154472224357505e-01
1.732567436993122101e-01 -3.645217865705490112e+01 -4.931794608943107505e-01
5.553368218243122101e-01 -3.791970795392990112e+01 -4.984742606989982505e-01
9.715965874493122101e-01 -3.972671478986740112e+01 -5.055085624568107505e-01
6.424950249493122101e-01 -9.543365180492401123e+00 -3.254090751521232505e-01
7.456444390118122101e-01 -9.420562446117401123e+00 -3.237000907771232505e-01
-8.498145453631877899e-01 -3.345767182111740112e+01 -3.247987235896232505e-01
-5.318213813006877899e-01 -3.454299896955490112e+01 -3.242646659724357505e-01
-1.971045844256877899e-01 -3.594473236799240112e+01 -3.231812919489982505e-01
1.671532280743122101e-01 -3.728384369611740112e+01 -3.217317069880607505e-01
5.585106499493122101e-01 -3.901687592267990112e+01 -3.206025565974357505e-01
9.781883843243122101e-01 -4.031436127424240112e+01 -3.185578788630607505e-01
6.398094780743122101e-01 -9.452300727367401123e+00 -2.758943046443107505e-01
7.443016655743122101e-01 -9.397002875804901123e+00 -2.745515312068107505e-01
-8.723975531756877899e-01 -3.405496186017990112e+01 -1.641541923396232505e-01
-5.529395453631877899e-01 -3.531204193830490112e+01 -1.572114433161857505e-01
-2.108985297381877899e-01 -3.673281830549240112e+01 -1.495515312068107505e-01
1.598290093243122101e-01 -3.830532807111740112e+01 -1.411439384333732505e-01
5.616844780743122101e-01 -4.011965912580490112e+01 -1.316834892146232505e-01
9.752586968243122101e-01 -4.024099701642990112e+01 -1.273957694880607505e-01
6.394432671368122101e-01 -9.457915961742401123e+00 -2.266236747614982505e-01
7.438133843243122101e-01 -9.394683539867401123e+00 -2.258302177302482505e-01
-8.963233344256877899e-01 -3.469094818830490112e+01 3.082135785376749482e-03
-5.734473578631877899e-01 -3.605642670392990112e+01 1.577744828537674948e-02
-2.256690375506877899e-01 -3.758023041486740112e+01 3.080735551193924948e-02
1.516502983868122101e-01 -3.946524018049240112e+01 4.888902055100174948e-02
5.640038140118122101e-01 -4.107119721174240112e+01 6.515488969162674948e-02
9.787987358868122101e-01 -4.061550873517990112e+01 6.556687699631424948e-02
6.399315483868122101e-01 -9.498321235179901123e+00 -1.773072685114982505e-01
7.458885796368122101e-01 -9.471221625804901123e+00 -1.762391532771232505e-01
-9.230567328631877899e-01 -3.540298432111740112e+01 1.761778389103767495e-01
-5.956641547381877899e-01 -3.686795014142990112e+01 1.972960029728767495e-01
-2.444678656756877899e-01 -3.867629975080490112e+01 2.228697334416267495e-01
1.443260796368122101e-01 -4.046438568830490112e+01 2.485502754338142495e-01
5.624168999493122101e-01 -4.114724701642990112e+01 2.609098945744392495e-01
9.897850640118122101e-01 -4.152017182111740112e+01 2.695463691838142495e-01
6.394432671368122101e-01 -9.497222602367401123e+00 -1.278840507380607505e-01
7.443016655743122101e-01 -9.438506782054901123e+00 -1.276093925349357505e-01
-9.517432563006877899e-01 -3.616921967267990112e+01 3.575743232853767495e-01
-6.226416938006877899e-01 -3.786099213361740112e+01 3.892820869572517495e-01
-2.657081000506877899e-01 -3.992398041486740112e+01 4.265440498478767495e-01
1.385887749493122101e-01 -4.114187592267990112e+01 4.509275947697517495e-01
5.603417046368122101e-01 -4.107424896955490112e+01 4.537657295353767495e-01
1.001015532761812210e+00 -4.243789643049240112e+01 4.809568916447517495e-01
6.389549858868122101e-01 -9.500152289867401123e+00 -7.839979780837325052e-02
7.452782280743122101e-01 -9.480621039867401123e+00 -7.772841108962325052e-02
-9.844581000506877899e-01 -3.704397553205490112e+01 5.482786689885017495e-01
-6.552344672381877899e-01 -3.906631439924240112e+01 5.939024482853767495e-01
-2.821875922381877899e-01 -4.086514252424240112e+01 6.360930000431892495e-01
1.279686577618122101e-01 -4.269461029767990112e+01 6.792753730900642495e-01
6.319969780743122101e-01 -5.840115326642990112e+01 1.021560529340064249e+00
1.000405181199312210e+00 -4.253762787580490112e+01 6.841429268010017495e-01
1.421791899949312210e+00 -4.187795990705490112e+01 6.739500557072517495e-01
7.425926811993122101e-01 -9.417022407054901123e+00 -2.978529585524825052e-02
6.970604546368122101e-01 -7.838531196117401123e+00 -8.577271903864982505e-01
7.892235405743122101e-01 -7.872344672679901123e+00 -8.591309989802482505e-01
8.819969780743122101e-01 -7.902862250804901123e+00 -8.605500663630607505e-01
9.753807671368122101e-01 -7.928497016429901123e+00 -8.616181815974357505e-01
1.068764556199312210e+00 -7.948516547679901123e+00 -8.623353446833732505e-01
1.162758696824312210e+00 -7.968536078929901123e+00 -8.630525077693107505e-01
1.257485259324312210e+00 -7.988921821117401123e+00 -8.637849296443107505e-01
1.352089751511812210e+00 -8.005645453929901123e+00 -8.645020927302482505e-01
7.209862358868122101e-01 -8.534698188304901123e+00 -8.582307304255607505e-01
8.201073296368122101e-01 -8.568511664867401123e+00 -8.596192802302482505e-01
9.203270561993122101e-01 -8.608428657054901123e+00 -8.611604179255607505e-01
1.020790923386812210e+00 -8.633331000804901123e+00 -8.619996513239982505e-01
1.122841704636812210e+00 -8.674590766429901123e+00 -8.638307060114982505e-01
1.225869048386812210e+00 -8.717071235179901123e+00 -8.657227958552482505e-01
1.329995024949312210e+00 -8.755279242992401123e+00 -8.676148856989982505e-01
1.435097564011812210e+00 -8.798492133617401123e+00 -8.695374931208732505e-01
7.532127983868122101e-01 -9.467071235179901123e+00 -8.656159843318107505e-01
8.614891655743122101e-01 -9.499664008617401123e+00 -8.666993583552482505e-01
9.709862358868122101e-01 -9.538970649242401123e+00 -8.681489433161857505e-01
1.082436431199312210e+00 -9.589873969554901123e+00 -8.702393974177482505e-01
1.194863189011812210e+00 -9.641143500804901123e+00 -8.723451103083732505e-01
1.308388579636812210e+00 -9.693023383617401123e+00 -8.744660819880607505e-01
1.423989165574312210e+00 -9.748809516429901123e+00 -8.768006767146232505e-01
1.541176665574312210e+00 -9.812164008617401123e+00 -8.795625175349357505e-01
7.782372124493122101e-01 -1.019753998517990112e+01 -8.542481864802482505e-01
9.198387749493122101e-01 -1.081155365705490112e+01 -8.848267997614982505e-01
1.042519439011812210e+00 -1.085317963361740112e+01 -8.860780204646232505e-01
1.166664946824312210e+00 -1.089529389142990112e+01 -8.873597587458732505e-01
1.291420806199312210e+00 -1.093753021955490112e+01 -8.886262382380607505e-01
1.417275298386812210e+00 -1.098025482892990112e+01 -8.899232353083732505e-01
1.544594634324312210e+00 -1.102346771955490112e+01 -8.912202323786857505e-01
1.671669829636812210e+00 -1.105972260236740112e+01 -8.924714530818107505e-01
7.746971733868122101e-01 -1.011087006330490112e+01 -7.973634208552482505e-01
9.004295952618122101e-01 -1.038992279767990112e+01 -8.096162284724357505e-01
1.127846587449312210e+00 -1.241763275861740112e+01 -9.039765800349357505e-01
1.269326079636812210e+00 -1.248525971174240112e+01 -9.060822929255607505e-01
1.411904204636812210e+00 -1.255349701642990112e+01 -9.082185233943107505e-01
1.556069243699312210e+00 -1.262246674299240112e+01 -9.103700126521232505e-01
1.702431548386812210e+00 -1.269253510236740112e+01 -9.125672782771232505e-01
1.849404204636812210e+00 -1.275686615705490112e+01 -9.144746269099357505e-01
7.724999077618122101e-01 -1.006582611799240112e+01 -7.433320487849357505e-01
9.004295952618122101e-01 -1.040383881330490112e+01 -7.565003837458732505e-01
1.241249907761812210e+00 -1.450003021955490112e+01 -9.290467704646232505e-01
1.286171782761812210e+00 -1.275662201642990112e+01 -8.540803398005607505e-01
1.442299712449312210e+00 -1.297012299299240112e+01 -8.619538749568107505e-01
1.737831939011812210e+00 -1.477236908674240112e+01 -9.367066825739982505e-01
1.906411040574312210e+00 -1.484756439924240112e+01 -9.385682548396232505e-01
2.074868071824312210e+00 -1.491140717267990112e+01 -9.403382743708732505e-01
7.710350640118122101e-01 -1.003860443830490112e+01 -6.901399101130607505e-01
9.014061577618122101e-01 -1.043875092267990112e+01 -7.043305839411857505e-01
1.407631743699312210e+00 -1.755252045392990112e+01 -9.719544853083732505e-01
1.281288970261812210e+00 -1.269265717267990112e+01 -7.872926200739982505e-01
1.444130767136812210e+00 -1.300381439924240112e+01 -7.978211845271232505e-01
1.996254790574312210e+00 -1.782852143049240112e+01 -9.775849784724357505e-01
2.195351470261812210e+00 -1.790115326642990112e+01 -9.786836112849357505e-01
2.395546782761812210e+00 -1.797415131330490112e+01 -9.798127616755607505e-01
7.700585015118122101e-01 -1.002371186017990112e+01 -6.378785575739982505e-01
8.937157280743122101e-01 -1.027944916486740112e+01 -6.454163993708732505e-01
1.007485259324312210e+00 -1.025625580549240112e+01 -6.433564628474357505e-01
1.121376860886812210e+00 -1.023294037580490112e+01 -6.415864433161857505e-01
1.234536040574312210e+00 -1.020974701642990112e+01 -6.398316825739982505e-01
1.347451079636812210e+00 -1.018679779767990112e+01 -6.380769218318107505e-01
1.460610259324312210e+00 -1.016604584455490112e+01 -6.366883720271232505e-01
1.568764556199312210e+00 -1.010415619611740112e+01 -6.336671317927482505e-01
7.693260796368122101e-01 -1.001809662580490112e+01 -5.857697929255607505e-01
8.932274468243122101e-01 -1.028042572736740112e+01 -5.922700370661857505e-01
1.004433501511812210e+00 -1.020950287580490112e+01 -5.892182792536857505e-01
1.168862212449312210e+00 -1.097549408674240112e+01 -6.099702323786857505e-01
1.174721587449312210e+00 -9.417632758617401123e+00 -5.646974052302482505e-01
1.260414946824312210e+00 -9.167144477367401123e+00 -5.566560233943107505e-01
1.363320220261812210e+00 -9.146148383617401123e+00 -5.551148856989982505e-01
1.465493071824312210e+00 -9.125152289867401123e+00 -5.535890067927482505e-01
7.439354546368122101e-01 -9.300933539867401123e+00 -5.168153251521232505e-01
8.475731499493122101e-01 -9.268096625804901123e+00 -5.150605644099357505e-01
9.508446343243122101e-01 -9.239043891429901123e+00 -5.133820976130607505e-01
1.054238189011812210e+00 -9.212066352367401123e+00 -5.117646659724357505e-01
1.157021392136812210e+00 -9.186309516429901123e+00 -5.101777519099357505e-01
1.259926665574312210e+00 -9.167998969554901123e+00 -5.087739433161857505e-01
1.362831939011812210e+00 -9.147002875804901123e+00 -5.072938407771232505e-01
1.465004790574312210e+00 -9.126006782054901123e+00 -5.058289970271232505e-01
7.423485405743122101e-01 -9.272247016429901123e+00 -4.676667655818107505e-01
8.457420952618122101e-01 -9.238433539867401123e+00 -4.660035575739982505e-01
9.487694390118122101e-01 -9.209502875804901123e+00 -4.644319023005607505e-01
1.051796782761812210e+00 -9.182647407054901123e+00 -4.629060233943107505e-01
1.154213774949312210e+00 -9.156890571117401123e+00 -4.614106620661857505e-01
1.259438384324312210e+00 -9.168853461742401123e+00 -4.606324638239982505e-01
1.362343657761812210e+00 -9.147857367992401123e+00 -4.592286552302482505e-01
1.464516509324312210e+00 -9.126861274242401123e+00 -4.578248466364982505e-01
7.413719780743122101e-01 -9.258086860179901123e+00 -4.192506278864982505e-01
8.446434624493122101e-01 -9.225249946117401123e+00 -4.177247489802482505e-01
9.474266655743122101e-01 -9.195586860179901123e+00 -4.162446464411857505e-01
1.050331939011812210e+00 -9.167754828929901123e+00 -4.147950614802482505e-01
1.152504790574312210e+00 -9.141265571117401123e+00 -4.133759940974357505e-01
1.254555571824312210e+00 -9.117461860179901123e+00 -4.120027030818107505e-01
1.356728423386812210e+00 -9.094756782054901123e+00 -4.106294120661857505e-01
1.458412993699312210e+00 -9.073516547679901123e+00 -4.093018974177482505e-01
7.403954155743122101e-01 -9.242339789867401123e+00 -3.707124198786857505e-01
8.435448296368122101e-01 -9.211333930492401123e+00 -3.693238700739982505e-01
9.463280327618122101e-01 -9.183135688304901123e+00 -3.682252372614982505e-01
1.049111235886812210e+00 -9.156768500804901123e+00 -3.668824638239982505e-01
1.151284087449312210e+00 -9.132232367992401123e+00 -3.655702079646232505e-01
1.253334868699312210e+00 -9.109527289867401123e+00 -3.642732108943107505e-01
1.355507720261812210e+00 -9.088164985179901123e+00 -3.627473319880607505e-01
1.457314360886812210e+00 -9.068389594554901123e+00 -3.614961112849357505e-01
7.460106499493122101e-01 -9.420440375804901123e+00 -3.236848319880607505e-01
8.509911186993122101e-01 -9.392364203929901123e+00 -3.224030937068107505e-01
9.556053765118122101e-01 -9.364898383617401123e+00 -3.211366142146232505e-01
1.058510649949312210e+00 -9.311431586742401123e+00 -3.197175468318107505e-01
1.162270415574312210e+00 -9.286529242992401123e+00 -3.184663261286857505e-01
1.265786040574312210e+00 -9.262969672679901123e+00 -3.172303642146232505e-01
1.369423735886812210e+00 -9.240386664867401123e+00 -3.159944023005607505e-01
1.472573149949312210e+00 -9.220000922679901123e+00 -3.147736991755607505e-01
7.446678765118122101e-01 -9.396758735179901123e+00 -2.745515312068107505e-01
8.490379936993122101e-01 -9.360259711742401123e+00 -2.736207450739982505e-01
9.532860405743122101e-01 -9.332061469554901123e+00 -2.724458183161857505e-01
1.057656157761812210e+00 -9.305572211742401123e+00 -2.712556327693107505e-01
1.161293853074312210e+00 -9.281036078929901123e+00 -2.700959648005607505e-01
1.264809478074312210e+00 -9.258086860179901123e+00 -2.689362968318107505e-01
1.368447173386812210e+00 -9.235992133617401123e+00 -2.677613700739982505e-01
1.471596587449312210e+00 -9.215972602367401123e+00 -2.663575614802482505e-01
7.441795952618122101e-01 -9.394439399242401123e+00 -2.258302177302482505e-01
8.487938530743122101e-01 -9.364043891429901123e+00 -2.247468437068107505e-01
9.530418999493122101e-01 -9.335845649242401123e+00 -2.236634696833732505e-01
1.057289946824312210e+00 -9.309356391429901123e+00 -2.225800956599357505e-01
1.161049712449312210e+00 -9.284820258617401123e+00 -2.214814628474357505e-01
1.264565337449312210e+00 -9.261748969554901123e+00 -2.203980888239982505e-01
1.368203032761812210e+00 -9.239654242992401123e+00 -2.192994560114982505e-01
1.471474517136812210e+00 -9.219634711742401123e+00 -2.182008231989982505e-01
7.462547905743122101e-01 -9.470000922679901123e+00 -1.762544120661857505e-01
8.484276421368122101e-01 -9.368194282054901123e+00 -1.761170829646232505e-01
9.526756890118122101e-01 -9.339996039867401123e+00 -1.751252616755607505e-01
1.057045806199312210e+00 -9.313506782054901123e+00 -1.741181815974357505e-01
1.160805571824312210e+00 -9.288970649242401123e+00 -1.731111015193107505e-01
1.264443267136812210e+00 -9.265899360179901123e+00 -1.720887626521232505e-01
1.368080962449312210e+00 -9.243804633617401123e+00 -1.710664237849357505e-01
1.471230376511812210e+00 -9.223785102367401123e+00 -1.697694267146232505e-01
7.446678765118122101e-01 -9.438384711742401123e+00 -1.276093925349357505e-01
8.481835015118122101e-01 -9.373321235179901123e+00 -1.271821464411857505e-01
9.524315483868122101e-01 -9.345000922679901123e+00 -1.262818778864982505e-01
1.056923735886812210e+00 -9.318511664867401123e+00 -1.253663505427482505e-01
1.160683501511812210e+00 -9.294097602367401123e+00 -1.244355644099357505e-01
1.264321196824312210e+00 -9.271026313304901123e+00 -1.234895194880607505e-01
1.367958892136812210e+00 -9.248931586742401123e+00 -1.225282157771232505e-01
1.471230376511812210e+00 -9.228789985179901123e+00 -1.215516532771232505e-01
7.455223686993122101e-01 -9.479400336742401123e+00 -7.774366987868575052e-02
8.479393608868122101e-01 -9.379180610179901123e+00 -7.818617476149825052e-02
9.523094780743122101e-01 -9.350860297679901123e+00 -7.765211714431075052e-02
1.056679595261812210e+00 -9.324371039867401123e+00 -7.682814253493575052e-02
1.160561431199312210e+00 -9.299834907054901123e+00 -7.597365034743575052e-02
1.264199126511812210e+00 -9.276763617992401123e+00 -7.510389937087325052e-02
1.367958892136812210e+00 -9.254668891429901123e+00 -7.394423140212325052e-02
1.471230376511812210e+00 -9.234649360179901123e+00 -7.302870405837325052e-02
7.429588921368122101e-01 -9.416778266429901123e+00 -2.978529585524825052e-02
8.476952202618122101e-01 -9.386504828929901123e+00 -2.938856733962325052e-02
9.521874077618122101e-01 -9.358306586742401123e+00 -2.868666304274825052e-02
1.056679595261812210e+00 -9.331817328929901123e+00 -2.793898237868575052e-02
1.160561431199312210e+00 -9.307281196117401123e+00 -2.716078413649825052e-02
1.264321196824312210e+00 -9.284331977367401123e+00 -2.636732710524825052e-02
1.368080962449312210e+00 -9.262237250804901123e+00 -2.554335249587325052e-02
1.471474517136812210e+00 -9.242339789867401123e+00 -2.441420210524825052e-02
1.352455962449312210e+00 -8.005767524242401123e+00 -8.645173515193107505e-01
1.448037017136812210e+00 -8.025420844554901123e+00 -8.652345146052482505e-01
1.543740142136812210e+00 -8.041534125804901123e+00 -8.659669364802482505e-01
1.641152251511812210e+00 -8.063262641429901123e+00 -8.670655692927482505e-01
1.740395415574312210e+00 -8.095367133617401123e+00 -8.688203300349357505e-01
1.840615142136812210e+00 -8.127715766429901123e+00 -8.706056083552482505e-01
1.941933501511812210e+00 -8.158965766429901123e+00 -8.722993339411857505e-01
2.040932524949312210e+00 -8.173858344554901123e+00 -8.731690849177482505e-01
1.435463774949312210e+00 -8.798980414867401123e+00 -8.695680106989982505e-01
1.541176665574312210e+00 -8.837188422679901123e+00 -8.714753593318107505e-01
1.648476470261812210e+00 -8.880889594554901123e+00 -8.734437431208732505e-01
1.756752837449312210e+00 -8.920196235179901123e+00 -8.753968681208732505e-01
1.865883696824312210e+00 -8.959747016429901123e+00 -8.773652519099357505e-01
1.975014556199312210e+00 -8.992950141429901123e+00 -8.789521659724357505e-01
2.083168853074312210e+00 -9.011871039867401123e+00 -8.799134696833732505e-01
2.192543853074312210e+00 -9.035796821117401123e+00 -8.809358085505607505e-01
1.541542876511812210e+00 -9.812530219554901123e+00 -8.795777763239982505e-01
1.659584868699312210e+00 -9.869903266429901123e+00 -8.822633231989982505e-01
1.778237212449312210e+00 -9.920318305492401123e+00 -8.845521415583732505e-01
1.895912993699312210e+00 -9.950103461742401123e+00 -8.856812919489982505e-01
2.013954985886812210e+00 -9.980010688304901123e+00 -8.868104423396232505e-01
2.133095610886812210e+00 -1.001016205549240112e+01 -8.879548515193107505e-01
2.236000884324312210e+00 -9.935210883617401123e+00 -8.832398856989982505e-01
2.348793853074312210e+00 -9.924834907054901123e+00 -8.821259940974357505e-01
1.672158110886812210e+00 -1.105996674299240112e+01 -8.924714530818107505e-01
1.801308501511812210e+00 -1.110476654767990112e+01 -8.938142265193107505e-01
1.930947173386812210e+00 -1.114285248517990112e+01 -8.950959648005607505e-01
2.062050689011812210e+00 -1.118142670392990112e+01 -8.963929618708732505e-01
2.194008696824312210e+00 -1.122024506330490112e+01 -8.976899589411857505e-01
2.327187407761812210e+00 -1.125930756330490112e+01 -8.990022148005607505e-01
2.218178618699312210e+00 -9.831695258617401123e+00 -8.256989921443107505e-01
2.329018462449312210e+00 -9.816314399242401123e+00 -8.245851005427482505e-01
1.849892485886812210e+00 -1.275686615705490112e+01 -9.144746269099357505e-01
1.996743071824312210e+00 -1.280740326642990112e+01 -9.159852470271232505e-01
2.145180571824312210e+00 -1.285842865705490112e+01 -9.175111259333732505e-01
2.295571196824312210e+00 -1.291006439924240112e+01 -9.190522636286857505e-01
2.447060454636812210e+00 -1.296218842267990112e+01 -9.206086601130607505e-01
2.600014556199312210e+00 -1.301467865705490112e+01 -9.221803153864982505e-01
2.209389556199312210e+00 -9.783111274242401123e+00 -7.719270194880607505e-01
2.320107329636812210e+00 -9.770171821117401123e+00 -7.706605399958732505e-01
2.075478423386812210e+00 -1.491177338361740112e+01 -9.403535331599357505e-01
2.247719634324312210e+00 -1.499331635236740112e+01 -9.422913993708732505e-01
2.420571196824312210e+00 -1.506362885236740112e+01 -9.441529716364982505e-01
2.596108306199312210e+00 -1.513503998517990112e+01 -9.460450614802482505e-01
2.772988189011812210e+00 -1.520706146955490112e+01 -9.479524101130607505e-01
2.951210845261812210e+00 -1.527529877424240112e+01 -9.496766532771232505e-01
2.203652251511812210e+00 -9.752471625804901123e+00 -7.191163505427482505e-01
2.314370024949312210e+00 -9.741363227367401123e+00 -7.181855644099357505e-01
2.396279204636812210e+00 -1.797476166486740112e+01 -9.798280204646232505e-01
2.597206939011812210e+00 -1.803860443830490112e+01 -9.808045829646232505e-01
2.800209868699312210e+00 -1.810293549299240112e+01 -9.817811454646232505e-01
1.909584868699312210e+00 -1.007058686017990112e+01 -6.822205985896232505e-01
2.021157134324312210e+00 -1.004763764142990112e+01 -6.805421317927482505e-01
2.126259673386812210e+00 -9.984039008617401123e+00 -6.773683036677482505e-01
2.199868071824312210e+00 -9.733916938304901123e+00 -6.672975028864982505e-01
2.310585845261812210e+00 -9.723785102367401123e+00 -6.661225761286857505e-01
1.569130767136812210e+00 -1.010403412580490112e+01 -6.336518730036857505e-01
1.680458892136812210e+00 -1.007803314924240112e+01 -6.319123710505607505e-01
1.792397368699312210e+00 -1.005825775861740112e+01 -6.300813163630607505e-01
1.910805571824312210e+00 -1.008425873517990112e+01 -6.300202812068107505e-01
2.022866118699312210e+00 -1.006375092267990112e+01 -6.284486259333732505e-01
2.134926665574312210e+00 -1.004336518049240112e+01 -6.268769706599357505e-01
2.197670806199312210e+00 -9.724517524242401123e+00 -6.159669364802482505e-01
2.308388579636812210e+00 -9.715606391429901123e+00 -6.148072685114982505e-01
1.465859282761812210e+00 -9.125030219554901123e+00 -5.535737480036857505e-01
1.570595610886812210e+00 -9.128081977367401123e+00 -5.527802909724357505e-01
1.673134673386812210e+00 -9.110015571117401123e+00 -5.513764823786857505e-01
1.776162017136812210e+00 -9.093414008617401123e+00 -5.500184501521232505e-01
1.878945220261812210e+00 -9.078887641429901123e+00 -5.487214530818107505e-01
1.982460845261812210e+00 -9.068511664867401123e+00 -5.475465263239982505e-01
2.103798735886812210e+00 -9.162749946117401123e+00 -5.492402519099357505e-01
2.307900298386812210e+00 -9.716582953929901123e+00 -5.635529960505607505e-01
1.465371001511812210e+00 -9.125884711742401123e+00 -5.058289970271232505e-01
1.567055571824312210e+00 -9.101714789867401123e+00 -5.043031181208732505e-01
1.669350493699312210e+00 -9.084502875804901123e+00 -5.029450858943107505e-01
1.772133696824312210e+00 -9.068755805492401123e+00 -5.016175712458732505e-01
1.874916899949312210e+00 -9.054961860179901123e+00 -5.003358329646232505e-01
1.978310454636812210e+00 -9.045562446117401123e+00 -4.991761649958732505e-01
2.094033110886812210e+00 -9.107818305492401123e+00 -4.996339286677482505e-01
2.308876860886812210e+00 -9.725860297679901123e+00 -5.127717460505607505e-01
1.464882720261812210e+00 -9.126739203929901123e+00 -4.578248466364982505e-01
1.563149321824312210e+00 -9.073150336742401123e+00 -4.557954276911857505e-01
1.665200103074312210e+00 -9.056182563304901123e+00 -4.544526542536857505e-01
1.767861235886812210e+00 -9.040801703929901123e+00 -4.531403983943107505e-01
1.870278228074312210e+00 -9.027129828929901123e+00 -4.518739189021232505e-01
1.973427642136812210e+00 -9.018218696117401123e+00 -4.506837333552482505e-01
