3.771204706281423569e-01 -1.243520370125770569e+01 -1.932410302106291056e-01
4.686732050031423569e-01 -1.248769393563270569e+01 -1.897315087262541056e-01
5.604700800031423569e-01 -1.251381698250770569e+01 -1.848181786481291056e-01
6.526331659406423569e-01 -1.253493514657020569e+01 -1.798895897809416056e-01
-3.535511530935764313e-02 -1.340627303719520569e+01 -2.166937889996916056e-01
6.303355656564235687e-02 -1.343691268563270569e+01 -2.114295067731291056e-01
1.942591425031423569e-01 -1.231008163094520569e+01 -1.491126122418791056e-01
2.848353143781423569e-01 -1.231105819344520569e+01 -1.427039208356291056e-01
3.750452753156423569e-01 -1.231716170907020569e+01 -1.368445458356291056e-01
4.619593378156423569e-01 -1.356118026375770569e+01 -1.901282372418791056e-01
5.626673456281423569e-01 -1.359255233407020569e+01 -1.847571434918791056e-01
6.639857050031423569e-01 -1.362416854500770569e+01 -1.793402733746916056e-01
-9.919788874685764313e-02 -1.474623885750770569e+01 -2.228583397809416056e-01
9.200548753142356873e-03 -1.480764022469520569e+01 -2.180975975934416056e-01
1.923060175031423569e-01 -1.225856795907020569e+01 -9.665289544500410557e-02
2.825159784406423569e-01 -1.226113143563270569e+01 -9.062567376531660557e-02
3.723597284406423569e-01 -1.226503768563270569e+01 -8.467474603094160557e-02
4.531702753156423569e-01 -1.503920760750770569e+01 -1.977728905621916056e-01
5.663294550031423569e-01 -1.508962264657020569e+01 -1.922339501325041056e-01
6.799769159406423569e-01 -1.512868514657020569e+01 -1.861609520856291056e-01
-1.801305059343576431e-01 -1.644838729500770569e+01 -2.319830956403166056e-01
-5.769398249685764313e-02 -1.650991073250770569e+01 -2.256354393903166056e-01
1.898646112531423569e-01 -1.222609725594520569e+01 -4.544439935125410557e-02
2.798304315656423569e-01 -1.222866073250770569e+01 -3.943243646062910557e-02
3.693079706281423569e-01 -1.223122420907020569e+01 -3.343573235906660557e-02
4.429163690656423569e-01 -1.670119491219520569e+01 -1.989020409528166056e-01
5.697474237531423569e-01 -1.676003280282020569e+01 -1.925086083356291056e-01
6.977991815656423569e-01 -1.683705917000770569e+01 -1.871222557965666056e-01
-3.494763746857643127e-03 -1.246327987313270569e+01 -1.681891107000410557e-02
8.903453312814235687e-02 -1.243837752938270569e+01 -9.693056577816605568e-03
1.871790643781423569e-01 -1.220497909188270569e+01 4.802793031558394432e-03
2.805628534406423569e-01 -1.202968612313270569e+01 1.700982428155839443e-02
3.662562128156423569e-01 -1.221010604500770569e+01 1.678094244562089443e-02
4.287562128156423569e-01 -1.906594100594520569e+01 -2.088965477887541056e-01
5.756067987531423569e-01 -1.920815292000770569e+01 -2.036933007184416056e-01
7.250208612531423569e-01 -1.937990584969520569e+01 -1.992987694684416056e-01
2.983043156564235687e-02 -1.166103377938270569e+01 5.949029303155839443e-02
1.136927362531423569e-01 -1.169130721688270569e+01 6.454095221124589443e-02
1.967005487531423569e-01 -1.176454940438270569e+01 6.806573248468339443e-02
2.790980096906423569e-01 -1.193959823250770569e+01 6.858453131280839443e-02
3.630823846906423569e-01 -1.219911971688270569e+01 6.678399420343339443e-02
4.093470331281423569e-01 -2.232802596688270569e+01 -2.229804100934416056e-01
5.831751581281423569e-01 -2.249477401375770569e+01 -2.160071434918791056e-01
7.602991815656423569e-01 -2.270546737313270569e+01 -2.106207909528166056e-01
2.848765812814235687e-02 -1.162026229500770569e+01 1.077691016253083944e-01
1.118616815656423569e-01 -1.165663924813270569e+01 1.125145850237458944e-01
1.947474237531423569e-01 -1.172219100594520569e+01 1.165429053362458944e-01
2.760462518781423569e-01 -1.193483749032020569e+01 1.168785986956208944e-01
3.597864862531423569e-01 -1.219631209969520569e+01 1.161919531878083944e-01
3.809046503156423569e-01 -2.711782088875770569e+01 -2.452735009137541056e-01
5.950159784406423569e-01 -2.746999374032020569e+01 -2.393378319684416056e-01
8.177942987531423569e-01 -2.806044784188270569e+01 -2.386206688825041056e-01
2.604625187814235687e-02 -1.160707870125770569e+01 1.547966895159333944e-01
1.092982050031423569e-01 -1.164089217782020569e+01 1.597557959612458944e-01
1.921839471906423569e-01 -1.170241561532020569e+01 1.644097266253083944e-01
2.727503534406423569e-01 -1.193264022469520569e+01 1.653252539690583944e-01
3.572230096906423569e-01 -1.214028182625770569e+01 1.669426856096833944e-01
3.326868768781423569e-01 -3.532582870125770569e+01 -2.914923729840666056e-01
6.188196893781423569e-01 -3.689882674813270569e+01 -3.040045800153166056e-01
9.258265253156423569e-01 -3.803859725594520569e+01 -3.057135643903166056e-01
2.348277531564235687e-02 -1.159474959969520569e+01 2.019158301409333944e-01
1.067347284406423569e-01 -1.162465682625770569e+01 2.071038184221833944e-01
1.893763300031423569e-01 -1.169008651375770569e+01 2.116967139299958944e-01
2.703089471906423569e-01 -1.189772811532020569e+01 2.140160498674958944e-01
3.541712518781423569e-01 -1.212123885750770569e+01 2.163048682268708944e-01
2.119593378156423569e-01 -5.648085799813270569e+01 -4.633978905621916056e-01
6.843714471906423569e-01 -6.181972518563270569e+01 -5.121344628278166056e-01
1.250411486253142357e+00 -6.763552108407020569e+01 -5.617560448590666056e-01
2.006480656564235687e-02 -1.159975448250770569e+01 2.484551367815583944e-01
1.034388300031423569e-01 -1.162819686532020569e+01 2.537804541643708944e-01
1.864466425031423569e-01 -1.168495956063270569e+01 2.587700781878083944e-01
2.676234003156423569e-01 -1.187258163094520569e+01 2.622948584612458944e-01
3.508753534406423569e-01 -1.212026229500770569e+01 2.653008399065583944e-01
1.339564081281423569e-01 -6.754140487313270569e+01 -3.319129052106291056e-01
6.835169550031423569e-01 -6.829579940438270569e+01 -3.027533593121916056e-01
1.590011095628142357e+00 -1.002603990137577057e+02 -5.775946679059416056e-01
1.725718937814235687e-02 -1.159218612313270569e+01 2.953911719378083944e-01
1.006312128156423569e-01 -1.161940780282020569e+01 3.008385596331208944e-01
1.836390253156423569e-01 -1.167116561532020569e+01 3.061333594378083944e-01
2.648157831281423569e-01 -1.185475936532020569e+01 3.105126318987458944e-01
3.474573846906423569e-01 -1.212941756844520569e+01 3.144646582659333944e-01
1.165003534406423569e-01 -6.702297225594520569e+01 -2.458563470281660557e-02
6.623987909406423569e-01 -6.811782088875770569e+01 5.748837953433394432e-03
1.408336125314235687e-02 -1.159328475594520569e+01 3.419609961565583944e-01
9.745738469064235687e-02 -1.162050643563270569e+01 3.475304541643708944e-01
1.805872675031423569e-01 -1.167018905282020569e+01 3.530541358049958944e-01
2.616419550031423569e-01 -1.185182967782020569e+01 3.582879004534333944e-01
3.439173456281423569e-01 -1.214504256844520569e+01 3.634301123674958944e-01
9.574840031564235687e-02 -6.709902206063270569e+01 2.753258643206208944e-01
1.066539250314235687e-02 -1.160097518563270569e+01 3.887902197893708944e-01
9.403941594064235687e-02 -1.162783065438270569e+01 3.944817481096833944e-01
1.771692987531423569e-01 -1.167739120125770569e+01 3.999901709612458944e-01
2.583460565656423569e-01 -1.185890975594520569e+01 4.060326514299958944e-01
3.402552362531423569e-01 -1.216896834969520569e+01 4.125634131487458944e-01
6.148790940642356873e-03 -1.162819686532020569e+01 4.355278906878083944e-01
8.988902531564235687e-02 -1.165309920907020569e+01 4.413414893206208944e-01
1.732630487531423569e-01 -1.170070663094520569e+01 4.473229346331208944e-01
2.545618768781423569e-01 -1.187892928719520569e+01 4.541893897112458944e-01
3.362269159406423569e-01 -1.221962752938270569e+01 4.623528418596833944e-01
7.776971906423568726e-04 -1.167617049813270569e+01 4.829674658831208944e-01
8.488414250314235687e-02 -1.170021834969520569e+01 4.886437354143708944e-01
1.685023065656423569e-01 -1.175063338875770569e+01 4.948845801409333944e-01
2.502894159406423569e-01 -1.192348495125770569e+01 5.025292334612458944e-01
3.314661737531423569e-01 -1.231154647469520569e+01 5.128289160784333944e-01
-3.006482496857643127e-03 -1.168910995125770569e+01 5.300866065081208944e-01
8.109996281564235687e-02 -1.171413436532020569e+01 5.361596045549958944e-01
1.648401971906423569e-01 -1.176528182625770569e+01 5.426293311174958944e-01
2.463831659406423569e-01 -1.195436874032020569e+01 5.513268408831208944e-01
-7.034802809357643127e-03 -1.170558944344520569e+01 5.776482520159333944e-01
7.694957219064235687e-02 -1.173781600594520569e+01 5.837212500628083944e-01
1.609339471906423569e-01 -1.178701034188270569e+01 5.904045996721833944e-01
2.423548456281423569e-01 -1.198732772469520569e+01 6.001854834612458944e-01
-1.179554499685764313e-02 -1.173781600594520569e+01 6.254692969378083944e-01
7.328746281564235687e-02 -1.175051131844520569e+01 6.314812598284333944e-01
1.561732050031423569e-01 -1.183498397469520569e+01 6.392479834612458944e-01
2.363734003156423569e-01 -1.209487167000770569e+01 6.514397559221833944e-01
-1.496937312185764313e-02 -1.173732772469520569e+01 6.729241309221833944e-01
6.962535344064235687e-02 -1.176137557625770569e+01 6.793175635393708944e-01
1.523890253156423569e-01 -1.185085311532020569e+01 6.876030860003083944e-01
2.288050409406423569e-01 -1.227016463875770569e+01 7.054100928362458944e-01
2.848353143781423569e-01 -1.430947127938270569e+01 7.721978125628083944e-01
3.922571893781423569e-01 -1.427382674813270569e+01 7.785759863909333944e-01
-1.838734187185764313e-02 -1.174355331063270569e+01 7.206078467424958944e-01
6.584117375314235687e-02 -1.177639022469520569e+01 7.271233496721833944e-01
1.457972284406423569e-01 -1.195229354500770569e+01 7.387047705706208944e-01
2.809290643781423569e-01 -1.430287948250770569e+01 8.312188086565583944e-01
6.529993768781423569e-01 -1.253517928719520569e+01 -1.798895897809416056e-01
7.456507440656423569e-01 -1.256240096688270569e+01 -1.749457421246916056e-01
8.387903925031423569e-01 -1.258437362313270569e+01 -1.699713768903166056e-01
9.325403925031423569e-01 -1.260659042000770569e+01 -1.649664940778166056e-01
1.026534533128142357e+00 -1.262880721688270569e+01 -1.599463524762541056e-01
1.121139025315642357e+00 -1.265114608407020569e+01 -1.548804345075041056e-01
1.215987658128142357e+00 -1.267360702157020569e+01 -1.498297753278166056e-01
1.310836290940642357e+00 -1.269069686532020569e+01 -1.447638573590666056e-01
6.643519159406423569e-01 -1.362441268563270569e+01 -1.793402733746916056e-01
7.665247675031423569e-01 -1.367580428719520569e+01 -1.750372948590666056e-01
8.696741815656423569e-01 -1.372792831063270569e+01 -1.707037987653166056e-01
9.744105096906423569e-01 -1.378603377938270569e+01 -1.662634911481291056e-01
1.079146837815642357e+00 -1.383046737313270569e+01 -1.614569725934416056e-01
1.184737658128142357e+00 -1.386879745125770569e+01 -1.566199364606291056e-01
1.291060900315642357e+00 -1.391384139657020569e+01 -1.517523827496916056e-01
1.398238634690642357e+00 -1.395937362313270569e+01 -1.468543114606291056e-01
6.804651971906423569e-01 -1.512905135750770569e+01 -1.861609520856291056e-01
7.947230096906423569e-01 -1.516286483407020569e+01 -1.800574364606291056e-01
9.097132440656423569e-01 -1.519692245125770569e+01 -1.739081444684416056e-01
1.025680040940642357e+00 -1.523122420907020569e+01 -1.677130761090666056e-01
1.143111681565642357e+00 -1.529140487313270569e+01 -1.625403466168791056e-01
1.262496447190642357e+00 -1.536049667000770569e+01 -1.575964989606291056e-01
1.382735705003142357e+00 -1.543007674813270569e+01 -1.526221337262541056e-01
1.504317736253142357e+00 -1.550038924813270569e+01 -1.476019921246916056e-01
6.982874628156423569e-01 -1.683766952157020569e+01 -1.871222557965666056e-01
8.280482050031423569e-01 -1.693727889657020569e+01 -1.819342675153166056e-01
9.592737909406423569e-01 -1.702541366219520569e+01 -1.766089501325041056e-01
1.092574572190642357e+00 -1.711501327157020569e+01 -1.711920800153166056e-01
1.226973986253142357e+00 -1.720522323250770569e+01 -1.657294335309416056e-01
1.363570665940642357e+00 -1.729689803719520569e+01 -1.601752343121916056e-01
1.501388048753142357e+00 -1.738942733407020569e+01 -1.545752587262541056e-01
1.649581408128142357e+00 -1.760659042000770569e+01 -1.534308495465666056e-01
7.255091425031423569e-01 -1.938124862313270569e+01 -1.993140282575041056e-01
8.778528925031423569e-01 -1.954763045907020569e+01 -1.947821679059416056e-01
1.033004259690642357e+00 -1.971718612313270569e+01 -1.901587548200041056e-01
1.190841173753142357e+00 -1.986428084969520569e+01 -1.846045556012541056e-01
1.350020861253142357e+00 -1.999880233407020569e+01 -1.785468163434416056e-01
1.512374376878142357e+00 -2.013588729500770569e+01 -1.723517479840666056e-01
1.684005236253142357e+00 -2.039345565438270569e+01 -1.695899071637541056e-01
1.866500353440642357e+00 -2.074355331063270569e+01 -1.692084374371916056e-01
7.609095331281423569e-01 -2.270729842782020569e+01 -2.106207909528166056e-01
9.435267206281423569e-01 -2.301577010750770569e+01 -2.068518700543791056e-01
1.131759142503142357e+00 -2.333547225594520569e+01 -2.035559716168791056e-01
1.326461290940642357e+00 -2.366555038094520569e+01 -2.001380028668791056e-01
1.526900744065642357e+00 -2.401381698250770569e+01 -1.968421044293791056e-01
1.751265978440642357e+00 -2.468349471688270569e+01 -2.012671532575041056e-01
1.994185900315642357e+00 -2.548232284188270569e+01 -2.081641259137541056e-01
2.248458361253142357e+00 -2.625026717782020569e+01 -2.140387597028166056e-01
8.186487909406423569e-01 -2.806594100594520569e+01 -2.386969628278166056e-01
1.054000353440642357e+00 -2.879384627938270569e+01 -2.406653466168791056e-01
1.299727892503142357e+00 -2.945424667000770569e+01 -2.403143944684416056e-01
1.570235705003142357e+00 -3.046193709969520569e+01 -2.467536034528166056e-01
1.872237658128142357e+00 -3.181374374032020569e+01 -2.594336571637541056e-01
2.227828478440642357e+00 -3.372512069344520569e+01 -2.821539940778166056e-01
2.660445665940642357e+00 -3.638149276375770569e+01 -3.178443016950041056e-01
3.179244494065642357e+00 -3.963491073250770569e+01 -3.622778954450041056e-01
9.270472284406423569e-01 -3.804702010750770569e+01 -3.058051171246916056e-01
1.279952501878142357e+00 -4.053505721688270569e+01 -3.312262597028166056e-01
1.737716173753142357e+00 -4.526601424813270569e+01 -3.927802147809416056e-01
2.300460314378142357e+00 -5.067934432625770569e+01 -4.617041649762541056e-01
3.093429064378142357e+00 -5.924208846688270569e+01 -5.772284569684416056e-01
4.076705431565642357e+00 -6.867165389657020569e+01 -6.970862450543791056e-01
4.939498400315642357e+00 -7.361379256844520569e+01 -7.384070458356291056e-01
5.856612658128142357e+00 -7.815236678719520569e+01 -7.664832177106291056e-01
1.252486681565642357e+00 -6.765615096688270569e+01 -5.619238915387541056e-01
1.969039415940642357e+00 -7.621340194344520569e+01 -6.430243554059416056e-01
1.592940783128142357e+00 -1.002740708887577057e+02 -5.775488915387541056e-01
1.311202501878142357e+00 -1.269081893563270569e+01 -1.447485985700041056e-01
1.406905626878142357e+00 -1.271425643563270569e+01 -1.396369042340666056e-01
1.502364611253142357e+00 -1.272817245125770569e+01 -1.343268456403166056e-01
1.603438830003142357e+00 -1.279164901375770569e+01 -1.312293114606291056e-01
1.706588244065642357e+00 -1.286806502938270569e+01 -1.286658348981291056e-01
1.811812853440642357e+00 -1.294582381844520569e+01 -1.260565819684416056e-01
1.918258165940642357e+00 -1.302468124032020569e+01 -1.234015526715666056e-01
2.025435900315642357e+00 -1.309731307625770569e+01 -1.207007470075041056e-01
1.398726915940642357e+00 -1.396010604500770569e+01 -1.468543114606291056e-01
1.506392931565642357e+00 -1.400087752938270569e+01 -1.419257225934416056e-01
1.617965197190642357e+00 -1.407509627938270569e+01 -1.383399071637541056e-01
1.732467150315642357e+00 -1.416201034188270569e+01 -1.348456444684416056e-01
1.847579455003142357e+00 -1.424269881844520569e+01 -1.313361229840666056e-01
1.963912462815642357e+00 -1.431764999032020569e+01 -1.277808251325041056e-01
2.087569689378142357e+00 -1.444289413094520569e+01 -1.258277001325041056e-01
2.214034533128142357e+00 -1.457314315438270569e+01 -1.239356102887541056e-01
1.504806017503142357e+00 -1.550148788094520569e+01 -1.476172509137541056e-01
1.633468126878142357e+00 -1.564406600594520569e+01 -1.454505028668791056e-01
1.765426134690642357e+00 -1.579506698250770569e+01 -1.434210839215666056e-01
1.898360705003142357e+00 -1.592360702157020569e+01 -1.403845848981291056e-01
2.033370470628142357e+00 -1.605422225594520569e+01 -1.373023095075041056e-01
2.173507189378142357e+00 -1.620497909188270569e+01 -1.347388329450041056e-01
2.323165392503142357e+00 -1.641384139657020569e+01 -1.340521874371916056e-01
2.477218126878142357e+00 -1.662905135750770569e+01 -1.333502831403166056e-01
1.650313830003142357e+00 -1.760939803719520569e+01 -1.534918847028166056e-01
1.806197619065642357e+00 -1.787563338875770569e+01 -1.531409325543791056e-01
1.966231798753142357e+00 -1.813539901375770569e+01 -1.526984276715666056e-01
2.132369494065642357e+00 -1.840517440438270569e+01 -1.522254052106291056e-01
2.303512072190642357e+00 -1.868337264657020569e+01 -1.517523827496916056e-01
2.481368517503142357e+00 -1.897219100594520569e+01 -1.512641014996916056e-01
2.676803087815642357e+00 -1.936855331063270569e+01 -1.537055077496916056e-01
2.882613634690642357e+00 -1.979116073250770569e+01 -1.569403710309416056e-01
1.867354845628142357e+00 -2.074758163094520569e+01 -1.692847313825041056e-01
2.062667345628142357e+00 -2.118215194344520569e+01 -1.711157860700041056e-01
2.267257189378142357e+00 -2.163723006844520569e+01 -1.730383934918791056e-01
2.482711290940642357e+00 -2.211684432625770569e+01 -1.750678124371916056e-01
2.724654650315642357e+00 -2.277748885750770569e+01 -1.814307274762541056e-01
2.987716173753142357e+00 -2.351894393563270569e+01 -1.891211571637541056e-01
3.321212267503142357e+00 -2.474184432625770569e+01 -2.083167138043791056e-01
3.632613634690642357e+00 -2.563246932625770569e+01 -2.178534569684416056e-01
2.249679064378142357e+00 -2.625807967782020569e+01 -2.141913475934416056e-01
2.526168322190642357e+00 -2.714394393563270569e+01 -2.210120263043791056e-01
2.847701525315642357e+00 -2.837209334969520569e+01 -2.353858056012541056e-01
3.231246447190642357e+00 -3.002297225594520569e+01 -2.578772606793791056e-01
3.657393908128142357e+00 -3.182192245125770569e+01 -2.818335595075041056e-01
4.246139025315642357e+00 -3.478847518563270569e+01 -3.288306298200041056e-01
5.151656603440642357e+00 -3.997158065438270569e+01 -4.189642968121916056e-01
7.570846056565642357e+00 -5.620180526375770569e+01 -7.298163475934416056e-01
3.181930040940642357e+00 -3.965663924813270569e+01 -3.626288475934416056e-01
4.010909533128142357e+00 -4.616359725594520569e+01 -4.658087792340666056e-01
5.800704455003142357e+00 -6.248281112313270569e+01 -7.435797753278166056e-01
7.144454455003142357e+00 -7.122316756844520569e+01 -8.670081200543791056e-01
8.116134142503142357e+00 -7.496779647469520569e+01 -8.938025536481291056e-01
6.740279650315642357e+00 -5.715712752938270569e+01 -5.526007714215666056e-01
7.260421251878142357e+00 -5.759255233407020569e+01 -5.289038720075041056e-01
7.658370470628142357e+00 -5.701686874032020569e+01 -4.887427391950041056e-01
5.860518908128142357e+00 -7.817800155282020569e+01 -7.667273583356291056e-01
6.898482775315642357e+00 -8.328212752938270569e+01 -7.983283104840666056e-01
8.091598009690642357e+00 -8.918715682625770569e+01 -8.332099022809416056e-01
6.759078478440642357e+00 -5.748329940438270569e+01 -2.986945214215666056e-01
7.164473986253142357e+00 -5.694094100594520569e+01 -2.625311913434416056e-01
7.701095080003142357e+00 -5.748610702157020569e+01 -2.376746239606291056e-01
6.747725939378142357e+00 -5.754042831063270569e+01 -4.111090325750410557e-02
7.219161486253142357e+00 -5.754482284188270569e+01 -9.708315366879105568e-03
7.675826525315642357e+00 -5.742751327157020569e+01 2.253350592218339443e-02
7.220870470628142357e+00 -5.770742049813270569e+01 2.483788428362458944e-01
7.616012072190642357e+00 -5.709743514657020569e+01 2.813225684221833944e-01
2.025802111253142357e+00 -1.309792342782020569e+01 -1.207007470075041056e-01
2.135665392503142357e+00 -1.318007674813270569e+01 -1.179694237653166056e-01
2.246261095628142357e+00 -1.325612655282020569e+01 -1.151770653668791056e-01
2.359054064378142357e+00 -1.333376327157020569e+01 -1.123389306012541056e-01
2.473189806565642357e+00 -1.341225448250770569e+01 -1.094550194684416056e-01
2.597701525315642357e+00 -1.353884139657020569e+01 -1.084174218121916056e-01
2.730391955003142357e+00 -1.369960799813270569e+01 -1.086463036481291056e-01
2.865279650315642357e+00 -1.385573592782020569e+01 -1.088141503278166056e-01
2.214522814378142357e+00 -1.457375350594520569e+01 -1.239356102887541056e-01
2.342818712815642357e+00 -1.469948592782020569e+01 -1.219519677106291056e-01
2.474044298753142357e+00 -1.482814803719520569e+01 -1.199378075543791056e-01
2.617110705003142357e+00 -1.501515975594520569e+01 -1.195868554059416056e-01
2.766158556565642357e+00 -1.521938338875770569e+01 -1.200141014996916056e-01
2.918746447190642357e+00 -1.541945663094520569e+01 -1.203955712262541056e-01
3.077804064378142357e+00 -1.563747420907020569e+01 -1.208533348981291056e-01
3.248336290940642357e+00 -1.589431014657020569e+01 -1.224402489606291056e-01
2.477706408128142357e+00 -1.662990584969520569e+01 -1.333655419293791056e-01
2.644820665940642357e+00 -1.691066756844520569e+01 -1.348761620465666056e-01
2.822432970628142357e+00 -1.722829452157020569e+01 -1.373023095075041056e-01
3.008590197190642357e+00 -1.756130233407020569e+01 -1.398505272809416056e-01
3.202559923753142357e+00 -1.790859237313270569e+01 -1.425055565778166056e-01
3.406539415940642357e+00 -1.827394881844520569e+01 -1.453131737653166056e-01
3.619552111253142357e+00 -1.865554061532020569e+01 -1.482428612653166056e-01
3.889571642503142357e+00 -1.930178084969520569e+01 -1.588324608746916056e-01
2.883346056565642357e+00 -1.979323592782020569e+01 -1.569708886090666056e-01
3.134078478440642357e+00 -2.048781600594520569e+01 -1.670111718121916056e-01
3.379317736253142357e+00 -2.106118026375770569e+01 -1.732672753278166056e-01
3.641158556565642357e+00 -2.167287459969520569e+01 -1.799353661481291056e-01
3.920089220628142357e+00 -2.232643905282020569e+01 -1.871069970075041056e-01
4.250045275315642357e+00 -2.320558944344520569e+01 -1.995886864606291056e-01
4.617965197190642357e+00 -2.421205917000770569e+01 -2.145117821637541056e-01
4.961471056565642357e+00 -2.499587264657020569e+01 -2.231329979840666056e-01
3.633712267503142357e+00 -2.563625350594520569e+01 -2.179144921246916056e-01
3.965011095628142357e+00 -2.655922713875770569e+01 -2.275427880231291056e-01
4.422408556565642357e+00 -2.823378768563270569e+01 -2.541388573590666056e-01
4.928145861253142357e+00 -3.002907577157020569e+01 -2.816809716168791056e-01
5.540816759690642357e+00 -3.229311385750770569e+01 -3.180121483746916056e-01
6.614791369065642357e+00 -3.700820174813270569e+01 -4.064978661481291056e-01
8.237594103440642357e+00 -4.432119002938270569e+01 -5.464362206403166056e-01
8.401778673753142357e+00 -4.324660506844520569e+01 -5.003241600934416056e-01
7.582076525315642357e+00 -5.627663436532020569e+01 -7.312506737653166056e-01
1.023686168156564236e+01 -7.222060409188270569e+01 -1.016422182554379106e+00
6.759688830003142357e+00 -4.430385604500770569e+01 -4.395178856793791056e-01
7.121383165940642357e+00 -4.428627792000770569e+01 -4.157904686871916056e-01
7.431441759690642357e+00 -4.395522323250770569e+01 -3.863867821637541056e-01
7.824386095628142357e+00 -4.412770858407020569e+01 -3.661078514996916056e-01
8.219405626878142357e+00 -4.429653182625770569e+01 -3.455847802106291056e-01
8.353316759690642357e+00 -4.306056991219520569e+01 -3.026160302106291056e-01
7.659713244065642357e+00 -5.701454940438270569e+01 -4.886054100934416056e-01
6.390304064378142357e+00 -4.435073104500770569e+01 -2.655066552106291056e-01
6.787887072190642357e+00 -4.459023299813270569e+01 -2.454871239606291056e-01
7.305709337815642357e+00 -4.556984725594520569e+01 -2.354926171246916056e-01
7.405684923753142357e+00 -4.387966170907020569e+01 -1.882361473981291056e-01
7.788619494065642357e+00 -4.399819198250770569e+01 -1.662329735700041056e-01
8.198653673753142357e+00 -4.425759139657020569e+01 -1.458777489606291056e-01
8.450850939378142357e+00 -4.364980331063270569e+01 -1.148413720075041056e-01
7.677901720628142357e+00 -5.729323592782020569e+01 -2.354315819684416056e-01
8.103072619065642357e+00 -5.696108260750770569e+01 -2.010077538434416056e-01
6.773116564378142357e+00 -4.458364120125770569e+01 -4.480353021062910557e-02
7.089889025315642357e+00 -4.425881209969520569e+01 -1.765814446844160557e-02
7.453780626878142357e+00 -4.426003280282020569e+01 6.191342836245894432e-03
7.758223986253142357e+00 -4.390016952157020569e+01 3.321465826593339443e-02
8.189620470628142357e+00 -4.428359237313270569e+01 5.295953131280839443e-02
8.373458361253142357e+00 -4.331032577157020569e+01 8.408746100030839443e-02
7.677657580003142357e+00 -5.742971053719520569e+01 2.262505865655839443e-02
8.120650744065642357e+00 -5.721840682625770569e+01 5.518731451593339443e-02
6.820479845628142357e+00 -4.500417342782020569e+01 1.524163184221833944e-01
7.133834337815642357e+00 -4.463369002938270569e+01 1.787682471331208944e-01
7.510055040940642357e+00 -4.469167342782020569e+01 2.028618750628083944e-01
7.743209337815642357e+00 -4.389186874032020569e+01 2.303429541643708944e-01
8.167159533128142357e+00 -4.423549667000770569e+01 2.533226904924958944e-01
8.466231798753142357e+00 -4.387685409188270569e+01 2.785454688128083944e-01
7.617721056565642357e+00 -5.709865584969520569e+01 2.814293799456208944e-01
8.196822619065642357e+00 -5.790724959969520569e+01 3.117791113909333944e-01
7.182052111253142357e+00 -4.503835311532020569e+01 3.786583838518708944e-01
7.496261095628142357e+00 -4.469142928719520569e+01 4.033623633440583944e-01
7.848311876878142357e+00 -4.458864608407020569e+01 4.280510840471833944e-01
8.084762072190642357e+00 -4.385073104500770569e+01 4.516411719378083944e-01
8.422164415940642357e+00 -4.371401229500770569e+01 4.757042822893708944e-01
8.141158556565642357e+00 -5.763014999032020569e+01 5.729485449846833944e-01
7.481734728440642357e+00 -4.468715682625770569e+01 6.049004492815583944e-01
7.859786486253142357e+00 -4.473769393563270569e+01 6.302147803362458944e-01
8.052047228440642357e+00 -4.374440780282020569e+01 6.491356787737458944e-01
8.383590197190642357e+00 -4.358083358407020569e+01 6.725731787737458944e-01
7.835982775315642357e+00 -4.467897811532020569e+01 8.305626807268708944e-01
8.174849962815642357e+00 -4.450930038094520569e+01 8.540001807268708944e-01
8.517501330003142357e+00 -4.437087264657020569e+01 8.776818213518708944e-01
7.812056994065642357e+00 -4.461940780282020569e+01 1.030330747133120894e+00
8.227340197190642357e+00 -4.488246932625770569e+01 1.060985654359683394e+00
8.486495470628142357e+00 -4.427870956063270569e+01 1.077007382875308394e+00
1.481254527531564236e+01 -8.613698592782020569e+01 2.042781919008120894e+00
1.534916636906564236e+01 -8.508913436532020569e+01 2.072216123109683394e+00
8.542769884690642357e+00 -4.465517440438270569e+01 1.284114926820620894e+00
1.462443492375314236e+01 -8.518202987313270569e+01 2.412578671937808394e+00
1.521720836125314236e+01 -8.067092147469520569e+01 2.401134580140933394e+00
1.549748179875314236e+01 -8.623122420907020569e+01 2.884929746156558394e+00
1.520182750187814236e+01 -8.072512069344520569e+01 2.771221250062808394e+00
2.865767931565642357e+00 -1.385659042000770569e+01 -1.088141503278166056e-01
3.006759142503142357e+00 -1.402822127938270569e+01 -1.090582909528166056e-01
3.150191759690642357e+00 -1.419533553719520569e+01 -1.092413964215666056e-01
3.298385119065642357e+00 -1.436830917000770569e+01 -1.094397606793791056e-01
3.450850939378142357e+00 -1.454604354500770569e+01 -1.096381249371916056e-01
3.613936876878142357e+00 -1.475283065438270569e+01 -1.106909813825041056e-01
3.786910509690642357e+00 -1.498500838875770569e+01 -1.124762597028166056e-01
3.963546251878142357e+00 -1.521425643563270569e+01 -1.142310204450041056e-01
3.248824572190642357e+00 -1.589455428719520569e+01 -1.224249901715666056e-01
3.433883165940642357e+00 -1.620034042000770569e+01 -1.256903710309416056e-01
3.636641955003142357e+00 -1.656410995125770569e+01 -1.306189598981291056e-01
3.849044298753142357e+00 -1.693947616219520569e+01 -1.351050438825041056e-01
4.054000353440642357e+00 -1.725160995125770569e+01 -1.375006737653166056e-01
4.264937853440642357e+00 -1.756276717782020569e+01 -1.398810448590666056e-01
4.539596056565642357e+00 -1.811428084969520569e+01 -1.492804589215666056e-01
4.882613634690642357e+00 -1.889785018563270569e+01 -1.654089989606291056e-01
3.890792345628142357e+00 -1.930532088875770569e+01 -1.589087548200041056e-01
4.179122423753142357e+00 -1.998513045907020569e+01 -1.701087059918791056e-01
4.421187853440642357e+00 -2.038149276375770569e+01 -1.721991600934416056e-01
4.667647814378142357e+00 -2.076174178719520569e+01 -1.733435692731291056e-01
5.012862658128142357e+00 -2.155251327157020569e+01 -1.857794823590666056e-01
5.351485705003142357e+00 -2.225038924813270569e+01 -1.947211327496916056e-01
5.751388048753142357e+00 -2.315163436532020569e+01 -2.084998192731291056e-01
6.153853869065642357e+00 -2.399709334969520569e+01 -2.197913231793791056e-01
4.963180040940642357e+00 -2.500124374032020569e+01 -2.232245507184416056e-01
5.427535509690642357e+00 -2.632497420907020569e+01 -2.438544335309416056e-01
5.883468126878142357e+00 -2.749355331063270569e+01 -2.597693505231291056e-01
6.757369494065642357e+00 -3.050380721688270569e+01 -3.190955223981291056e-01
7.425948595628142357e+00 -3.236257186532020569e+01 -3.478735985700041056e-01
1.034794566594064236e+01 -4.376320663094520569e+01 -5.962866845075041056e-01
1.085453746281564236e+01 -4.432827010750770569e+01 -5.865210595075041056e-01
1.107414195500314236e+01 -4.370058456063270569e+01 -5.506781639996916056e-01
8.400680040940642357e+00 -4.323403182625770569e+01 -4.999732079450041056e-01
9.142867540940642357e+00 -4.517409530282020569e+01 -5.178565087262541056e-01
9.221602892503142357e+00 -4.372695174813270569e+01 -4.652899804059416056e-01
9.392745470628142357e+00 -4.281435409188270569e+01 -4.246100487653166056e-01
9.934615587815642357e+00 -4.363161483407020569e+01 -4.179114403668791056e-01
1.023307750187814236e+01 -4.332827010750770569e+01 -3.894080223981291056e-01
1.052140758000314236e+01 -4.300405135750770569e+01 -3.608435692731291056e-01
1.093437144719064236e+01 -4.319667831063270569e+01 -3.415717186871916056e-01
8.352096056565642357e+00 -4.304811874032020569e+01 -3.023261132184416056e-01
8.739913439378142357e+00 -4.320241561532020569e+01 -2.812384667340666056e-01
9.098189806565642357e+00 -4.319423690438270569e+01 -2.584265770856291056e-01
9.535323595628142357e+00 -4.354225936532020569e+01 -2.407721581403166056e-01
9.886031603440642357e+00 -4.347536483407020569e+01 -2.167853417340666056e-01
1.022892711125314236e+01 -4.336891952157020569e+01 -1.921423973981291056e-01
1.054350230656564236e+01 -4.315248885750770569e+01 -1.661719384137541056e-01
1.102360484562814236e+01 -4.360927596688270569e+01 -1.499671044293791056e-01
8.452681994065642357e+00 -4.365346542000770569e+01 -1.148108544293791056e-01
8.874923205003142357e+00 -4.395632186532020569e+01 -9.503546380437910557e-02
9.144454455003142357e+00 -4.348476424813270569e+01 -6.650152825750410557e-02
9.501632189378142357e+00 -4.344863143563270569e+01 -4.277411126531660557e-02
9.847579455003142357e+00 -4.336403670907020569e+01 -1.861944817937910557e-02
1.019535777531564236e+01 -4.328298202157020569e+01 5.580991273745894432e-03
1.069779918156564236e+01 -4.385121932625770569e+01 2.412041998468339443e-02
1.119486949406564236e+01 -4.435256209969520569e+01 4.392632818780839443e-02
8.375289415940642357e+00 -4.331386581063270569e+01 8.414849615655839443e-02
8.699141955003142357e+00 -4.313173690438270569e+01 1.087304053362458944e-01
9.116988634690642357e+00 -4.341750350594520569e+01 1.313591895159333944e-01
9.516036486253142357e+00 -4.357961288094520569e+01 1.541405615862458944e-01
9.896285509690642357e+00 -4.364443221688270569e+01 1.775780615862458944e-01
1.024540660344064236e+01 -4.355898299813270569e+01 2.019310889299958944e-01
1.069462535344064236e+01 -4.389589706063270569e+01 2.235070166643708944e-01
1.147575328312814236e+01 -4.553798690438270569e+01 2.422905860003083944e-01
8.467452501878142357e+00 -4.387673202157020569e+01 2.786217627581208944e-01
8.668990587815642357e+00 -4.304702010750770569e+01 3.043175635393708944e-01
9.178267931565642357e+00 -4.378237167000770569e+01 3.269158301409333944e-01
9.526290392503142357e+00 -4.369155135750770569e+01 3.512230811174958944e-01
1.004569957219064236e+01 -4.437892928719520569e+01 3.752098975237458944e-01
1.020695445500314236e+01 -4.345143905282020569e+01 3.997002539690583944e-01
1.090824840031564236e+01 -4.484499374032020569e+01 4.251213965471833944e-01
1.143351695500314236e+01 -4.542629256844520569e+01 4.510765967424958944e-01
8.422530626878142357e+00 -4.370973983407020569e+01 4.757805762346833944e-01
8.712813830003142357e+00 -4.333864608407020569e+01 4.990807471331208944e-01
9.066573595628142357e+00 -4.330336776375770569e+01 5.231285986956208944e-01
9.498824572190642357e+00 -4.362697616219520569e+01 5.486718115862458944e-01
1.001151988469064236e+01 -4.428749862313270569e+01 5.760918555315583944e-01
1.028007457219064236e+01 -4.382827010750770569e+01 5.988579688128083944e-01
1.073759410344064236e+01 -4.419130721688270569e+01 6.256829199846833944e-01
1.109062144719064236e+01 -4.410231795907020569e+01 6.502495703753083944e-01
8.383590197190642357e+00 -4.357424178719520569e+01 6.726189551409333944e-01
8.887862658128142357e+00 -4.430287948250770569e+01 7.025261817034333944e-01
9.226119494065642357e+00 -4.415090194344520569e+01 7.264061865862458944e-01
9.563399767503142357e+00 -4.399489608407020569e+01 7.502404151018708944e-01
1.024931285344064236e+01 -4.542397323250770569e+01 7.883263526018708944e-01
1.052568004094064236e+01 -4.495485702157020569e+01 8.098870215471833944e-01
1.078825328312814236e+01 -4.446193709969520569e+01 8.306542334612458944e-01
1.121452281437814236e+01 -4.465895858407020569e+01 8.584252295549958944e-01
8.518599962815642357e+00 -4.437014022469520569e+01 8.777581152971833944e-01
8.916427111253142357e+00 -4.452028670907020569e+01 9.049340186174958944e-01
9.195601915940642357e+00 -4.406911483407020569e+01 9.248314795549958944e-01
9.538009142503142357e+00 -4.394020858407020569e+01 9.486046729143708944e-01
1.027323863469064236e+01 -4.559633651375770569e+01 9.968377051409333944e-01
1.059513804875314236e+01 -4.531826034188270569e+01 1.019420712953433394e+00
1.090678355656564236e+01 -4.501747909188270569e+01 1.041332334047183394e+00
1.634086558781564236e+01 -6.543141952157020569e+01 1.385967343812808394e+00
8.487594103440642357e+00 -4.427797713875770569e+01 1.077083676820620894e+00
8.905074572190642357e+00 -4.453310409188270569e+01 1.107021420961245894e+00
9.171187853440642357e+00 -4.401699081063270569e+01 1.122982114320620894e+00
1.662358043156564236e+01 -7.738991561532020569e+01 1.744915097719058394e+00
1.571037242375314236e+01 -7.027382674813270569e+01 1.659526914125308394e+00
1.693022105656564236e+01 -7.296743026375770569e+01 1.752925961976870894e+00
1.088407847844064236e+01 -4.498207870125770569e+01 1.246685117250308394e+00
1.634562633000314236e+01 -6.553591170907020569e+01 1.691158383851870894e+00
8.543990587815642357e+00 -4.465468612313270569e+01 1.284191220765933394e+00
8.893111681565642357e+00 -4.454311385750770569e+01 1.308086484437808394e+00
9.236251330003142357e+00 -4.440456405282020569e+01 1.331356137758120894e+00
1.663261363469064236e+01 -7.754921737313270569e+01 2.105571836000308394e+00
1.634135386906564236e+01 -7.323610702157020569e+01 2.052379697328433394e+00
1.800114390812814236e+01 -7.773964706063270569e+01 2.203975766664370894e+00
1.753678843937814236e+01 -7.298879256844520569e+01 2.135219663148745894e+00
1.837358043156564236e+01 -7.383766952157020569e+01 2.200924008851870894e+00
1.522001597844064236e+01 -8.067372909188270569e+01 2.401363461976870894e+00
1.623832652531564236e+01 -8.241518417000770569e+01 2.493480771547183394e+00
1.634440562687814236e+01 -7.950209823250770569e+01 2.466030210023745894e+00
1.686930797062814236e+01 -7.878408065438270569e+01 2.495098203187808394e+00
1.754228160344064236e+01 -7.879421249032020569e+01 2.543560117250308394e+00
1.689286754094064236e+01 -7.300820174813270569e+01 2.427257627015933394e+00
1.745182750187814236e+01 -7.272963729500770569e+01 2.464061826234683394e+00
1.520353648625314236e+01 -8.072194686532020569e+01 2.771282285219058394e+00
1.593632457219064236e+01 -8.099318709969520569e+01 2.829128354554995894e+00
1.641789195500314236e+01 -7.999001327157020569e+01 2.847591489320620894e+00
1.752494761906564236e+01 -8.200673690438270569e+01 2.961574643617495894e+00
1.639042613469064236e+01 -7.367177596688270569e+01 2.741008847719058394e+00
1.622514293156564236e+01 -7.019045272469520569e+01 2.671337216859683394e+00
1.717167613469064236e+01 -7.164809432625770569e+01 2.764400571351870894e+00
1.814213511906564236e+01 -7.309023299813270569e+01 2.858928769594058394e+00
1.492948863469064236e+01 -7.592690292000770569e+01 3.020702451234683394e+00
1.639714000187814236e+01 -8.001296249032020569e+01 3.214992612367495894e+00
1.574809215031564236e+01 -7.370656600594520569e+01 3.034374326234683394e+00
1.681108043156564236e+01 -7.569411483407020569e+01 3.154659360414370894e+00
1.577787730656564236e+01 -6.832961288094520569e+01 2.923427670961245894e+00
1.729106090031564236e+01 -7.224806991219520569e+01 3.117549985414370894e+00
1.891813609562814236e+01 -7.634279647469520569e+01 3.325679868226870894e+00
1.524955699406564236e+01 -7.770656600594520569e+01 3.440746396547183394e+00
1.588676402531564236e+01 -7.761135116219520569e+01 3.485958188539370894e+00
1.548014781437814236e+01 -7.254592147469520569e+01 3.326091855531558394e+00
1.718388316594064236e+01 -7.750441756844520569e+01 3.580226987367495894e+00
1.767106578312814236e+01 -7.672853866219520569e+01 3.596813291078433394e+00
1.643424937687814236e+01 -6.872707381844520569e+01 3.299831479554995894e+00
1.890861461125314236e+01 -7.640346542000770569e+01 3.681041806703433394e+00
1.483976695500314236e+01 -7.571169295907020569e+01 3.708705991273745894e+00
1.575578258000314236e+01 -7.708437362313270569e+01 3.819393247133120894e+00
1.506803843937814236e+01 -7.069570174813270569e+01 3.573406308656558394e+00
1.592192027531564236e+01 -7.185341659188270569e+01 3.672878354554995894e+00
1.751945445500314236e+01 -7.617079940438270569e+01 3.925533383851870894e+00
1.770365855656564236e+01 -7.418984237313270569e+01 3.879909604554995894e+00
1.742423961125314236e+01 -7.044997420907020569e+01 3.746273129945620894e+00
1.483744761906564236e+01 -7.582302108407020569e+01 4.060115903383120894e+00
1.507060191594064236e+01 -7.380178084969520569e+01 4.008144467836245894e+00
1.504008433781564236e+01 -7.066982284188270569e+01 3.897548764711245894e+00
1.592985484562814236e+01 -7.199501815438270569e+01 4.011638730531558394e+00
1.574797008000314236e+01 -6.848622909188270569e+01 3.876400083070620894e+00
1.697807261906564236e+01 -7.121694198250770569e+01 4.065181821351870894e+00
1.731413218937814236e+01 -7.009291854500770569e+01 4.053859799867495894e+00
1.550248668156564236e+01 -6.898342147469520569e+01 3.543636411195620894e+00
1.763920543156564236e+01 -7.571059432625770569e+01 3.905757993226870894e+00
1.695609996281564236e+01 -7.008998885750770569e+01 3.689785092836245894e+00
1.774650523625314236e+01 -7.083193221688270569e+01 3.772441953187808394e+00
1.899601695500314236e+01 -7.330812850594520569e+01 3.941433042054995894e+00
1.537809703312814236e+01 -7.754616561532020569e+01 4.148464292054995894e+00
1.418901011906564236e+01 -6.844216170907020569e+01 3.745281308656558394e+00
1.558012340031564236e+01 -7.225527206063270569e+01 3.982997983461245894e+00
1.609635875187814236e+01 -7.177956405282020569e+01 4.007152646547183394e+00
1.775016734562814236e+01 -7.630312362313270569e+01 4.289440244203433394e+00
1.719901988469064236e+01 -7.120742049813270569e+01 4.073772519594058394e+00
1.699247691594064236e+01 -6.786928573250770569e+01 3.944530576234683394e+00
1.887333629094064236e+01 -7.292287459969520569e+01 4.264324277406558394e+00
1.115031383000314236e+01 -4.192897811532020569e+01 2.415935605531558394e+00
1.143278453312814236e+01 -4.160707870125770569e+01 2.428981870179995894e+00
1.480778453312814236e+01 -7.047670760750770569e+01 3.851314633851870894e+00
1.558818004094064236e+01 -7.129103866219520569e+01 3.938778012758120894e+00
1.597660777531564236e+01 -7.026918807625770569e+01 3.935985654359683394e+00
1.730461070500314236e+01 -7.337062850594520569e+01 4.144542783265933394e+00
1.742814586125314236e+01 -7.122219100594520569e+01 4.083355039125308394e+00
1.716239879094064236e+01 -6.764138045907020569e+01 3.943721860414370894e+00
1.146757457219064236e+01 -4.321584334969520569e+01 2.681408017640933394e+00
1.133317515812814236e+01 -4.128578963875770569e+01 2.607906430726870894e+00
1.577287242375314236e+01 -6.850649276375770569e+01 3.812572568422183394e+00
1.699674937687814236e+01 -7.119216170907020569e+01 3.997112363344058394e+00
1.738078258000314236e+01 -7.018605819344520569e+01 3.996105283265933394e+00
1.890861461125314236e+01 -7.381911483407020569e+01 4.235424130922183394e+00
1.933048961125314236e+01 -7.291811385750770569e+01 4.240825742250308394e+00
1.157157847844064236e+01 -4.154604354500770569e+01 2.613658994203433394e+00
2.025895640812814236e+01 -7.158193221688270569e+01 4.275142758851870894e+00
1.104460093937814236e+01 -4.165724959969520569e+01 1.897670835023745894e+00
1.176115367375314236e+01 -4.296437850594520569e+01 1.974834531312808394e+00
1.207792613469064236e+01 -4.269631209969520569e+01 1.995174497133120894e+00
7.775802111253142357e+00 -2.590480819344520569e+01 1.386333554750308394e+00
8.056197619065642357e+00 -2.604982772469520569e+01 1.411251157289370894e+00
1.765251109562814236e+01 -7.589736190438270569e+01 3.333522885804995894e+00
1.661027476750314236e+01 -6.860976424813270569e+01 3.099804013734683394e+00
1.912577769719064236e+01 -7.644728866219520569e+01 3.461574643617495894e+00
1.132145640812814236e+01 -4.281337752938270569e+01 2.145900815492495894e+00
1.175273082219064236e+01 -4.299086776375770569e+01 2.183727353578433394e+00
1.169560191594064236e+01 -4.133730331063270569e+01 2.144893735414370894e+00
1.166618297062814236e+01 -3.988723006844520569e+01 2.112484067445620894e+00
1.197257945500314236e+01 -3.968788924813270569e+01 2.132595151429995894e+00
1.759196422062814236e+01 -7.574636092782020569e+01 3.688045590883120894e+00
1.839445445500314236e+01 -7.632534042000770569e+01 3.767116635804995894e+00
1.914335582219064236e+01 -7.663014999032020569e+01 3.834957211976870894e+00
1.131974742375314236e+01 -4.286647811532020569e+01 2.353817075258120894e+00
1.916850230656564236e+01 -7.148818221688270569e+01 3.705455869203433394e+00
2.464042613469064236e+01 -8.939687362313270569e+01 4.598537534242495894e+00
1.161137340031564236e+01 -3.974160018563270569e+01 2.299526303773745894e+00
1.196757457219064236e+01 -3.972048202157020569e+01 2.327617734437808394e+00
1.591630504094064236e+01 -6.842665877938270569e+01 3.696605771547183394e+00
1.689604136906564236e+01 -7.003603377938270569e+01 3.822445004945620894e+00
1.761430308781564236e+01 -7.044240584969520569e+01 3.893032163148745894e+00
1.110722300969064236e+01 -4.208242049813270569e+01 2.521312802797183394e+00
1.138236949406564236e+01 -4.168642440438270569e+01 2.531978696351870894e+00
1.179765269719064236e+01 -4.182595077157020569e+01 2.569957822328433394e+00
1.244316050969064236e+01 -4.278298202157020569e+01 2.650951474672183394e+00
1.195988414250314236e+01 -3.974355331063270569e+01 2.522426694398745894e+00
8.091109728440642357e+00 -2.644875350594520569e+01 1.180797666078433394e+00
8.245894884690642357e+00 -2.612514510750770569e+01 1.190212338929995894e+00
8.514693712815642357e+00 -2.619765487313270569e+01 1.211513608461245894e+00
1.756388804875314236e+01 -7.162331405282020569e+01 2.610118955140933394e+00
1.994657847844064236e+01 -7.871511092782020569e+01 2.881710141664370894e+00
1.144645640812814236e+01 -4.257338729500770569e+01 1.773601621156558394e+00
1.143083140812814236e+01 -4.103749862313270569e+01 1.753582089906558394e+00
7.750899767503142357e+00 -2.614846053719520569e+01 1.283123105531558394e+00
8.067061876878142357e+00 -2.639833846688270569e+01 1.310955136781558394e+00
8.364791369065642357e+00 -2.656850448250770569e+01 1.336361020570620894e+00
8.668868517503142357e+00 -2.674636092782020569e+01 1.363079160219058394e+00
1.768595836125314236e+01 -7.224672713875770569e+01 2.974712461000308394e+00
1.942008922062814236e+01 -7.668605819344520569e+01 3.186794370179995894e+00
2.003105113469064236e+01 -7.639028182625770569e+01 3.230449765687808394e+00
1.157524058781564236e+01 -4.164345565438270569e+01 1.977672666078433394e+00
1.154350230656564236e+01 -4.012502303719520569e+01 1.949794858461245894e+00
8.159591173753142357e+00 -2.676308456063270569e+01 1.457515805726870894e+00
8.360763048753142357e+00 -2.658937850594520569e+01 1.470623105531558394e+00
8.569259142503142357e+00 -2.644692245125770569e+01 1.484829038148745894e+00
1.677738902531564236e+01 -6.851271834969520569e+01 3.171596616273745894e+00
1.110954234562814236e+01 -4.290077987313270569e+01 2.172008603578433394e+00
1.140922496281564236e+01 -4.254946151375770569e+01 2.188793271547183394e+00
1.187235972844064236e+01 -4.283181014657020569e+01 2.231044858461245894e+00
1.140568492375314236e+01 -3.967238631844520569e+01 2.126598447328433394e+00
1.178141734562814236e+01 -3.970485702157020569e+01 2.158672421937808394e+00
1.350663707219064236e+01 -4.301686874032020569e+01 2.368068784242495894e+00
1.719364879094064236e+01 -7.037990584969520569e+01 3.585064023500308394e+00
1.792753550969064236e+01 -7.081374374032020569e+01 3.654506772523745894e+00
1.120463511906564236e+01 -4.180397811532020569e+01 2.361034482484683394e+00
1.151213023625314236e+01 -4.151943221688270569e+01 2.378963559633120894e+00
1.145426890812814236e+01 -3.990505233407020569e+01 2.332897275453433394e+00
1.174308726750314236e+01 -3.962050643563270569e+01 2.349285214906558394e+00
1.272392222844064236e+01 -4.174428573250770569e+01 2.484035581117495894e+00
1.341374156437814236e+01 -4.275917831063270569e+01 2.567684262758120894e+00
8.176314806565642357e+00 -2.617568221688270569e+01 1.058910459047183394e+00
8.451461290940642357e+00 -2.625344100594520569e+01 1.080501645570620894e+00
8.701461290940642357e+00 -2.624172225594520569e+01 1.099834531312808394e+00
8.854659533128142357e+00 -2.591640487313270569e+01 1.110668271547183394e+00
1.100456187687814236e+01 -4.161135116219520569e+01 1.535213559633120894e+00
1.136283824406564236e+01 -4.151601424813270569e+01 1.561611264711245894e+00
7.617476915940642357e+00 -2.599440780282020569e+01 1.147533505922183394e+00
7.879439806565642357e+00 -2.604360213875770569e+01 1.168544858461245894e+00
8.142623400315642357e+00 -2.609291854500770569e+01 1.189647763734683394e+00
8.492110705003142357e+00 -2.642702499032020569e+01 1.219738095765933394e+00
8.690597033128142357e+00 -2.624037948250770569e+01 1.233959287172183394e+00
8.902633165940642357e+00 -2.610402694344520569e+01 1.250331967836245894e+00
1.102787730656564236e+01 -4.176772323250770569e+01 1.744808286195620894e+00
1.160160777531564236e+01 -4.250685897469520569e+01 1.799694150453433394e+00
1.173258922062814236e+01 -4.152297225594520569e+01 1.798244565492495894e+00
8.092208361253142357e+00 -2.685549178719520569e+01 1.329189389711245894e+00
8.251998400315642357e+00 -2.651515975594520569e+01 1.337856381898745894e+00
8.494796251878142357e+00 -2.647206893563270569e+01 1.356762021547183394e+00
8.654586290940642357e+00 -2.615529647469520569e+01 1.365703671937808394e+00
9.010909533128142357e+00 -2.648598495125770569e+01 1.398235410219058394e+00
1.986027476750314236e+01 -7.749562850594520569e+01 3.262203305726870894e+00
1.169718883000314236e+01 -4.294191756844520569e+01 2.026332944398745894e+00
