-1.166803684085607529e+00 -7.347535640001296997e+00 -8.351180519908609767e-01
-1.078424777835607529e+00 -7.376466304063796997e+00 -8.353316750377359767e-01
-9.899238012731075287e-01 -7.409303218126296997e+00 -8.360030617564859767e-01
-9.013007543981075287e-01 -7.442140132188796997e+00 -8.366897072642984767e-01
-8.123114965856075287e-01 -7.475099116563796997e+00 -8.373610939830484767e-01
-7.222236059606075287e-01 -7.504640132188796997e+00 -8.380477394908609767e-01
-6.325019262731075287e-01 -7.537843257188796997e+00 -8.387343849986734767e-01
-1.382013645023107529e+00 -8.037232905626296997e+00 -8.345077004283609767e-01
-1.287165012210607529e+00 -8.069703608751296997e+00 -8.349959816783609767e-01
-1.191095676273107529e+00 -8.096925288438796997e+00 -8.351485695689859767e-01
-1.094171848148107529e+00 -8.123048335313796997e+00 -8.352401223033609767e-01
-9.996894262731075287e-01 -8.165528804063796997e+00 -8.362777199596109767e-01
-9.063056372106075287e-01 -8.222169429063796997e+00 -8.381392922252359767e-01
-8.119452856481075287e-01 -8.279542475938796997e+00 -8.400161232799234767e-01
-7.169745825231075287e-01 -8.337159663438796997e+00 -8.419082131236734767e-01
-1.539362277835607529e+00 -8.927613765001296997e+00 -8.371932473033609767e-01
-1.439020480960607529e+00 -8.981935054063796997e+00 -8.383834328502359767e-01
-1.337091770023107529e+00 -9.031129390001296997e+00 -8.395278420299234767e-01
-1.234186496585607529e+00 -9.080812007188796997e+00 -8.407027687877359767e-01
-1.130915012210607529e+00 -9.130616694688796997e+00 -8.418624367564859767e-01
-1.028498020023107529e+00 -9.193360835313796997e+00 -8.437240090221109767e-01
-9.260810278356075287e-01 -9.266725093126296997e+00 -8.461196389049234767e-01
-8.229316137731075287e-01 -9.340943843126296997e+00 -8.488204445689859767e-01
-1.754938449710607529e+00 -1.014685204625129700e+01 -8.475844826549234767e-01
-1.645929660648107529e+00 -1.022461083531379700e+01 -8.498427834361734767e-01
-1.535944309085607529e+00 -1.030322411656379700e+01 -8.521163430064859767e-01
-1.424372043460607529e+00 -1.038293603062629700e+01 -8.544356789439859767e-01
-1.312677707523107529e+00 -1.046862939000129700e+01 -8.570296730846109767e-01
-1.204279270023107529e+00 -1.059057763218879700e+01 -8.613784279674234767e-01
-1.092829074710607529e+00 -1.070935204625129700e+01 -8.655288185924234767e-01
-9.753974340856075287e-01 -1.078515771031379700e+01 -8.675887551158609767e-01
-2.003839816898107529e+00 -1.155517724156379700e+01 -8.553664650767984767e-01
-1.888483371585607529e+00 -1.168090966343879700e+01 -8.589675392955484767e-01
-1.769953098148107529e+00 -1.180029442906379700e+01 -8.625991310924234767e-01
-1.649103488773107529e+00 -1.192199853062629700e+01 -8.662917580455484767e-01
-1.526911105960607529e+00 -1.204504540562629700e+01 -8.700301613658609767e-01
-1.402887668460607529e+00 -1.217004540562629700e+01 -8.738295998424234767e-01
-1.278253879398107529e+00 -1.231286767125129700e+01 -8.783767189830484767e-01
-1.158380832523107529e+00 -1.251989892125129700e+01 -8.860671486705484767e-01
-2.940119113773107529e+00 -1.685510399937629700e+01 -1.005970713123673477e+00
-2.793756809085607529e+00 -1.712133935093879700e+01 -1.014393564686173477e+00
-2.646173801273107529e+00 -1.741150048375129700e+01 -1.023716684803360977e+00
-2.646173801273107529e+00 -1.875415185093879700e+01 -1.074879404529923477e+00
-2.500910129398107529e+00 -1.921862939000129700e+01 -1.090855356678360977e+00
-2.328058566898107529e+00 -1.953418114781379700e+01 -1.100865122303360977e+00
-2.139826145023107529e+00 -1.977307274937629700e+01 -1.107762094959610977e+00
-1.495294895023107529e+00 -1.571252587437629700e+01 -9.455153908580484767e-01
-3.142755832523107529e+00 -1.799987939000129700e+01 -9.600112404674234767e-01
-3.023371066898107529e+00 -1.849853661656379700e+01 -9.754073586314859767e-01
-2.887995090335607529e+00 -1.895642235875129700e+01 -9.887740578502359767e-01
-2.736505832523107529e+00 -1.936938622593879700e+01 -1.000935312733048477e+00
-2.566706027835607529e+00 -1.969860985875129700e+01 -1.010090586170548477e+00
-2.379816379398107529e+00 -1.994079735875129700e+01 -1.016148325428360977e+00
-2.188288059085607529e+00 -2.018603661656379700e+01 -1.022785898670548477e+00
-2.000177707523107529e+00 -2.049853661656379700e+01 -1.031193491443985977e+00
-3.239801730960607529e+00 -1.854602196812629700e+01 -8.844344582408609767e-01
-3.129938449710607529e+00 -1.913562157750129700e+01 -9.003798928111734767e-01
-2.975275363773107529e+00 -1.951172021031379700e+01 -9.096572365611734767e-01
-2.806818332523107529e+00 -1.984680321812629700e+01 -9.176223244517984767e-01
-2.623224582523107529e+00 -2.011010888218879700e+01 -9.233291115611734767e-01
-2.456476535648107529e+00 -2.054589989781379700e+01 -9.342238869517984767e-01
-2.297785129398107529e+00 -2.112878564000129700e+01 -9.494674172252359767e-01
-2.157648410648107529e+00 -2.198559716343879700e+01 -9.728286232799234767e-01
-3.337702121585607529e+00 -1.909777978062629700e+01 -8.044326271861734767e-01
-3.204279270023107529e+00 -1.957934716343879700e+01 -8.148848976939859767e-01
-3.051569309085607529e+00 -1.999633935093879700e+01 -8.235824074596109767e-01
-2.880304660648107529e+00 -2.034558251500129700e+01 -8.304488625377359767e-01
-2.718195285648107529e+00 -2.080456689000129700e+01 -8.400771584361734767e-01
-2.541315402835607529e+00 -2.121557763218879700e+01 -8.483931984752359767e-01
-2.382379855960607529e+00 -2.185461571812629700e+01 -8.624465432017984767e-01
-2.259943332523107529e+00 -2.294836571812629700e+01 -8.879897560924234767e-01
-3.418878879398107529e+00 -1.955395653843879700e+01 -7.167251076549234767e-01
-3.276911105960607529e+00 -2.001196435093879700e+01 -7.245223488658609767e-01
-3.125665988773107529e+00 -2.046679833531379700e+01 -7.321822609752359767e-01
-2.960748996585607529e+00 -2.089270165562629700e+01 -7.391402687877359767e-01
-2.787165012210607529e+00 -2.130737450718879700e+01 -7.457931008189859767e-01
-2.607599582523107529e+00 -2.173657372593879700e+01 -7.526748146861734767e-01
-2.498712863773107529e+00 -2.285485985875129700e+01 -7.738997902721109767e-01
-2.313532199710607529e+00 -2.344848778843879700e+01 -7.840011086314859767e-01
-3.489923801273107529e+00 -1.995300439000129700e+01 -6.243483986705484767e-01
-3.331476535648107529e+00 -2.033618310093879700e+01 -6.288650002330484767e-01
-3.188776340335607529e+00 -2.086706689000129700e+01 -6.357924904674234767e-01
-3.035089816898107529e+00 -2.139746239781379700e+01 -6.426131691783609767e-01
-2.858942355960607529e+00 -2.183044579625129700e+01 -6.477553810924234767e-01
-2.728082980960607529e+00 -2.268969872593879700e+01 -6.598250832408609767e-01
-2.550104465335607529e+00 -2.329260399937629700e+01 -6.675460305064859767e-01
-2.376032199710607529e+00 -2.403271630406379700e+01 -6.774184670299234767e-01
-3.546686496585607529e+00 -2.027063134312629700e+01 -5.267379250377359767e-01
-3.389337863773107529e+00 -2.068029931187629700e+01 -5.299117531627359767e-01
-3.254328098148107529e+00 -2.128186181187629700e+01 -5.358931984752359767e-01
-3.112116184085607529e+00 -2.191992333531379700e+01 -5.416610207408609767e-01
-2.954523410648107529e+00 -2.252868798375129700e+01 -5.469863381236734767e-01
-2.783747043460607529e+00 -2.312658837437629700e+01 -5.520980324596109767e-01
-2.599787082523107529e+00 -2.371496728062629700e+01 -5.563704933971109767e-01
-2.440363254398107529e+00 -2.463501122593879700e+01 -5.650222267955484767e-01
-3.598932590335607529e+00 -2.056335595250129700e+01 -4.265334572642984767e-01
-3.457941379398107529e+00 -2.108886864781379700e+01 -4.287917580455484767e-01
-3.322565402835607529e+00 -2.171484521031379700e+01 -4.317214455455484767e-01
-3.170221652835607529e+00 -2.231323388218879700e+01 -4.343459572642984767e-01
-3.014215793460607529e+00 -2.296264794468879700e+01 -4.372603859752359767e-01
-2.838312473148107529e+00 -2.355395653843879700e+01 -4.396712746471109767e-01
-2.668390598148107529e+00 -2.430175927281379700e+01 -4.431045021861734767e-01
-2.493463840335607529e+00 -2.512927392125129700e+01 -4.469954933971109767e-01
-3.658747043460607529e+00 -2.089856103062629700e+01 -3.232009377330484767e-01
-3.529108371585607529e+00 -2.151269677281379700e+01 -3.239486183971109767e-01
-3.383112277835607529e+00 -2.209753564000129700e+01 -3.239791359752359767e-01
-3.225397434085607529e+00 -2.268567040562629700e+01 -3.239333596080484767e-01
-3.073908176273107529e+00 -2.339648583531379700e+01 -3.241317238658609767e-01
-2.893122043460607529e+00 -2.398339989781379700e+01 -3.239486183971109767e-01
-2.728937473148107529e+00 -2.481775048375129700e+01 -3.242690529674234767e-01
-2.539118137210607529e+00 -2.555297997593879700e+01 -3.235976662486734767e-01
-3.733087863773107529e+00 -2.131567528843879700e+01 -2.171828713267984767e-01
-3.592707004398107529e+00 -2.189013817906379700e+01 -2.146956887096109767e-01
-3.429376926273107529e+00 -2.238940575718879700e+01 -2.122848000377359767e-01
-3.282526340335607529e+00 -2.307177880406379700e+01 -2.094619240611734767e-01
-3.130060520023107529e+00 -2.380371239781379700e+01 -2.064559426158609767e-01
-2.960504855960607529e+00 -2.451245263218879700e+01 -2.034041848033609767e-01
-2.777765598148107529e+00 -2.523230126500129700e+01 -2.002608742564859767e-01
-2.595514621585607529e+00 -2.607824853062629700e+01 -1.967513527721109767e-01
-3.799127902835607529e+00 -2.168567040562629700e+01 -1.070144142955484767e-01
-3.640924777835607529e+00 -2.217578271031379700e+01 -1.031386818736734767e-01
-3.480158176273107529e+00 -2.270996239781379700e+01 -9.831690452992347673e-02
-3.338800754398107529e+00 -2.345178368687629700e+01 -9.207605980336097673e-02
-3.183161105960607529e+00 -2.418908837437629700e+01 -8.578943870961097673e-02
-3.012140598148107529e+00 -2.491577294468879700e+01 -7.950281761586097673e-02
-2.827814426273107529e+00 -2.565747216343879700e+01 -7.303309105336097673e-02
-2.655084934085607529e+00 -2.663342431187629700e+01 -6.418299339711097673e-02
-3.849542941898107529e+00 -2.196679833531379700e+01 5.000356212264023270e-03
-3.690607395023107529e+00 -2.246997216343879700e+01 1.175999976695152327e-02
-3.541437473148107529e+00 -2.309729149937629700e+01 1.995396949351402327e-02
-3.395075168460607529e+00 -2.383215478062629700e+01 2.942967750132652327e-02
-3.231989230960607529e+00 -2.454211571812629700e+01 3.869176246226402327e-02
-3.065607395023107529e+00 -2.533374169468879700e+01 4.894566871226402327e-02
-2.882868137210607529e+00 -2.612548974156379700e+01 5.926061011851402327e-02
-2.704401340335607529e+00 -2.709106591343879700e+01 7.165074683726402327e-02
-3.901300754398107529e+00 -2.225634911656379700e+01 1.203262839466390233e-01
-3.741388645023107529e+00 -2.277136376500129700e+01 1.294815573841390233e-01
-3.601496066898107529e+00 -2.347656396031379700e+01 1.410782370716390233e-01
-3.445246066898107529e+00 -2.416980126500129700e+01 1.531479392200765233e-01
-3.283991184085607529e+00 -2.491858056187629700e+01 1.661484275013265233e-01
-3.119684543460607529e+00 -2.575671532750129700e+01 1.806442771107015233e-01
-2.942316379398107529e+00 -2.663073876500129700e+01 1.964676413685140233e-01
-2.753229465335607529e+00 -2.754443505406379700e+01 2.123367819935140233e-01
-3.954401340335607529e+00 -2.255273583531379700e+01 2.384903464466390233e-01
-3.801081027835607529e+00 -2.312548974156379700e+01 2.504684958607015233e-01
-3.657770480960607529e+00 -2.383166649937629700e+01 2.658188376575765233e-01
-3.495294895023107529e+00 -2.450695946812629700e+01 2.805893454700765233e-01
-3.337824191898107529e+00 -2.530810692906379700e+01 2.979843650013265233e-01
-3.172663059085607529e+00 -2.617053368687629700e+01 3.167068991810140233e-01
-2.994684543460607529e+00 -2.707556298375129700e+01 3.363754782825765233e-01
-2.804010715335607529e+00 -2.801464989781379700e+01 3.575241599232015233e-01
-5.652411840856075287e-01 -6.903687983751296997e+00 -8.392226662486734767e-01
-4.810126684606075287e-01 -6.932740718126296997e+00 -8.398635353892984767e-01
-3.960517309606075287e-01 -6.958863765001296997e+00 -8.405196633189859767e-01
-3.104804418981075287e-01 -6.985108882188796997e+00 -8.411757912486734767e-01
-2.247870825231075287e-01 -7.011353999376296997e+00 -8.418319191783609767e-01
-1.386054418981075287e-01 -7.037721186876296997e+00 -8.424880471080484767e-01
-5.181344971060752869e-02 -7.064454585313796997e+00 -8.431441750377359767e-01
3.522268310189247131e-02 -7.087770015001296997e+00 -8.438155617564859767e-01
-6.322577856481075287e-01 -7.538087397813796997e+00 -8.387343849986734767e-01
-5.416816137731075287e-01 -7.567384272813796997e+00 -8.394362892955484767e-01
-4.512275122106075287e-01 -7.604127436876296997e+00 -8.403365578502359767e-01
-3.606513403356075287e-01 -7.650514155626296997e+00 -8.420760598033609767e-01
-2.695868872106075287e-01 -7.697267085313796997e+00 -8.438308205455484767e-01
-1.777900122106075287e-01 -7.744386225938796997e+00 -8.455855812877359767e-01
-8.452829346060752869e-02 -7.784913569688796997e+00 -8.471572365611734767e-01
9.343776851892471313e-03 -7.819703608751296997e+00 -8.481337990611734767e-01
-7.166083715856075287e-01 -8.337403804063796997e+00 -8.419082131236734767e-01
-6.202948950231075287e-01 -8.390748530626296997e+00 -8.438003029674234767e-01
-5.231269262731075287e-01 -8.444703608751296997e+00 -8.456923928111734767e-01
-4.246161840856075287e-01 -8.499269038438796997e+00 -8.476150002330484767e-01
-3.256171606481075287e-01 -8.554200679063796997e+00 -8.495376076549234767e-01
-2.256415747106075287e-01 -8.609742671251296997e+00 -8.514907326549234767e-01
-1.244452856481075287e-01 -8.665895015001296997e+00 -8.534591164439859767e-01
-2.215036377310752869e-02 -8.709596186876296997e+00 -8.547255959361734767e-01
-8.225654028356075287e-01 -9.341310054063796997e+00 -8.488357033580484767e-01
-7.190497778356075287e-01 -9.424439936876296997e+00 -8.516890969127359767e-01
-6.134589575231075287e-01 -9.501588374376296997e+00 -8.544814553111734767e-01
-5.061591528356075287e-01 -9.580079585313796997e+00 -8.573195900767984767e-01
-3.964179418981075287e-01 -9.636353999376296997e+00 -8.589827980846109767e-01
-2.852118872106075287e-01 -9.684571772813796997e+00 -8.601882424205484767e-01
-1.729071997106075287e-01 -9.733155757188796997e+00 -8.614242043346109767e-01
-6.011423096060752869e-02 -9.783326655626296997e+00 -8.630111183971109767e-01
-9.749091528356075287e-01 -1.078552392125129700e+01 -8.676040139049234767e-01
-8.556464575231075287e-01 -1.085571435093879700e+01 -8.695876564830484767e-01
-7.351630590856075287e-01 -1.092651513218879700e+01 -8.715865578502359767e-01
-6.129706762731075287e-01 -1.099829247593879700e+01 -8.736159767955484767e-01
-4.900458715856075287e-01 -1.107043603062629700e+01 -8.756606545299234767e-01
-3.659003637731075287e-01 -1.114343407750129700e+01 -8.777205910533609767e-01
-2.401679418981075287e-01 -1.121740868687629700e+01 -8.798110451549234767e-01
-1.130927465856075287e-01 -1.128051903843879700e+01 -8.813674416392984767e-01
-1.158136691898107529e+00 -1.252160790562629700e+01 -8.861434426158609767e-01
-1.030573215335607529e+00 -1.268860009312629700e+01 -8.915450539439859767e-01
-8.921454809606075287e-01 -1.276464989781379700e+01 -8.932845558971109767e-01
-7.518866918981075287e-01 -1.284167626500129700e+01 -8.950545754283609767e-01
-6.108954809606075287e-01 -1.291919091343879700e+01 -8.968245949596109767e-01
-4.685614965856075287e-01 -1.299731591343879700e+01 -8.986251320689859767e-01
-3.243964575231075287e-01 -1.307641747593879700e+01 -9.004256691783609767e-01
-1.790107153356075287e-01 -1.314416649937629700e+01 -9.021041359752359767e-01
-1.494562473148107529e+00 -1.571179345250129700e+01 -9.454848732799234767e-01
-1.302545871585607529e+00 -1.553857567906379700e+01 -9.368331398814859767e-01
-1.114557590335607529e+00 -1.536902001500129700e+01 -9.283492531627359767e-01
-9.489081762731075287e-01 -1.545568993687629700e+01 -9.299056496471109767e-01
-7.830146215856075287e-01 -1.555456689000129700e+01 -9.319350685924234767e-01
-6.155341528356075287e-01 -1.565454247593879700e+01 -9.339797463267984767e-01
-4.484198950231075287e-01 -1.581262353062629700e+01 -9.382522072642984767e-01
-2.799628637731075287e-01 -1.600244286656379700e+01 -9.437148537486734767e-01
-1.999567355960607529e+00 -2.049963524937629700e+01 -1.031224009022110977e+00
-1.793024387210607529e+00 -2.068005517125129700e+01 -1.035160776600235977e+00
-1.700739230960607529e+00 -2.223913720250129700e+01 -1.086064096912735977e+00
-1.544489230960607529e+00 -2.337121728062629700e+01 -1.122502085193985977e+00
-1.318903293460607529e+00 -2.376745751500129700e+01 -1.133503672108048477e+00
-1.083063449710607529e+00 -2.411853173375129700e+01 -1.142887827381485977e+00
-8.124335668981075287e-01 -2.386255028843879700e+01 -1.132130381092423477e+00
-5.483954809606075287e-01 -2.361596825718879700e+01 -1.121128794178360977e+00
-2.157770480960607529e+00 -2.199426415562629700e+01 -9.730880226939859767e-01
-1.996393527835607529e+00 -2.280517724156379700e+01 -9.950149025767984767e-01
-1.807916965335607529e+00 -2.348584130406379700e+01 -1.012913462147110977e+00
-1.587702121585607529e+00 -2.393286278843879700e+01 -1.023701426014298477e+00
-1.361749973148107529e+00 -2.441003564000129700e+01 -1.035298105701798477e+00
-1.174982395023107529e+00 -2.576489403843879700e+01 -1.072773691639298477e+00
-9.360907934606075287e-01 -2.657861474156379700e+01 -1.094029184803360977e+00
-6.708320043981075287e-01 -2.706518700718879700e+01 -1.105503794178360977e+00
-2.259821262210607529e+00 -2.295483544468879700e+01 -8.881423439830484767e-01
-2.085016574710607529e+00 -2.372668603062629700e+01 -9.053389992564859767e-01
-1.870172824710607529e+00 -2.420495751500129700e+01 -9.149520363658609767e-01
-1.644831027835607529e+00 -2.468078759312629700e+01 -9.244277443736734767e-01
-1.462702121585607529e+00 -2.594433739781379700e+01 -9.535720314830484767e-01
-1.234064426273107529e+00 -2.681640771031379700e+01 -9.726912941783609767e-01
-9.879706762731075287e-01 -2.770251610875129700e+01 -9.919936623424234767e-01
-7.310126684606075287e-01 -2.873986962437629700e+01 -1.014897104725235977e+00
-2.313043918460607529e+00 -2.345214989781379700e+01 -7.840774025767984767e-01
-2.147760715335607529e+00 -2.437439110875129700e+01 -8.008468117564859767e-01
-1.935480441898107529e+00 -2.495996239781379700e+01 -8.105056252330484767e-01
-1.736749973148107529e+00 -2.588830712437629700e+01 -8.270766701549234767e-01
-1.506647434085607529e+00 -2.660083153843879700e+01 -8.390853371471109767e-01
-1.288507785648107529e+00 -2.778039696812629700e+01 -8.604781594127359767e-01
-1.043146457523107529e+00 -2.889624169468879700e+01 -8.803603615611734767e-01
-7.666571997106075287e-01 -2.971594384312629700e+01 -8.940627541392984767e-01
-2.375788059085607529e+00 -2.403906396031379700e+01 -6.775100197642984767e-01
-2.206354465335607529e+00 -2.497998192906379700e+01 -6.903731789439859767e-01
-2.010431613773107529e+00 -2.582629540562629700e+01 -7.015426125377359767e-01
-1.787287082523107529e+00 -2.654565575718879700e+01 -7.105300392955484767e-01
-1.569147434085607529e+00 -2.754260399937629700e+01 -7.238051857799234767e-01
-1.327204074710607529e+00 -2.846081689000129700e+01 -7.356612648814859767e-01
-1.087702121585607529e+00 -2.985388329625129700e+01 -7.547957863658609767e-01
-8.071845434606075287e-01 -3.082898095250129700e+01 -7.671706642955484767e-01
-2.440119113773107529e+00 -2.464099267125129700e+01 -5.650832619517984767e-01
-2.254450168460607529e+00 -2.547339013218879700e+01 -5.723769631236734767e-01
-2.067926730960607529e+00 -2.648816064000129700e+01 -5.822951760142984767e-01
-1.845758762210607529e+00 -2.730835106968879700e+01 -5.891463723033609767e-01
-1.613458957523107529e+00 -2.820288231968879700e+01 -5.967147316783609767e-01
-1.377374973148107529e+00 -2.934741356968879700e+01 -6.069228615611734767e-01
-1.124201145023107529e+00 -3.062976220250129700e+01 -6.176650490611734767e-01
-8.328193090856075287e-01 -3.151550439000129700e+01 -6.246077980846109767e-01
-2.492975559085607529e+00 -2.513342431187629700e+01 -4.470107521861734767e-01
-2.309503879398107529e+00 -2.604028466343879700e+01 -4.510238137096109767e-01
-2.122003879398107529e+00 -2.710949853062629700e+01 -4.559981789439859767e-01
-1.894831027835607529e+00 -2.794555810093879700e+01 -4.592025246471109767e-01
-1.652033176273107529e+00 -2.877734521031379700e+01 -4.622695412486734767e-01
-1.420587863773107529e+00 -3.010632470250129700e+01 -4.684493508189859767e-01
-1.155329074710607529e+00 -3.128979638218879700e+01 -4.734694924205484767e-01
-8.611396215856075287e-01 -3.227856591343879700e+01 -4.770553078502359767e-01
-2.538629855960607529e+00 -2.555725243687629700e+01 -3.235976662486734767e-01
-2.363336887210607529e+00 -2.659485009312629700e+01 -3.244521584361734767e-01
-2.166193332523107529e+00 -2.761572411656379700e+01 -3.244521584361734767e-01
-1.938898410648107529e+00 -2.851562646031379700e+01 -3.240096535533609767e-01
-1.709284152835607529e+00 -2.963452294468879700e+01 -3.238875832408609767e-01
-1.452204074710607529e+00 -3.065332177281379700e+01 -3.233993019908609767e-01
-1.184137668460607529e+00 -3.189660790562629700e+01 -3.231551613658609767e-01
-8.862861059606075287e-01 -3.295117333531379700e+01 -3.215377297252359767e-01
-2.595270480960607529e+00 -2.608471825718879700e+01 -1.967208351939859767e-01
-2.413996066898107529e+00 -2.711499169468879700e+01 -1.921737160533609767e-01
-2.211237277835607529e+00 -2.812951806187629700e+01 -1.875197853892984767e-01
-1.984186496585607529e+00 -2.910083153843879700e+01 -1.828048195689859767e-01
-1.747370090335607529e+00 -3.019934228062629700e+01 -1.776168312877359767e-01
-1.490045871585607529e+00 -3.131482079625129700e+01 -1.722304787486734767e-01
-1.211969699710607529e+00 -3.247888329625129700e+01 -1.665389504283609767e-01
-9.088691137731075287e-01 -3.354870751500129700e+01 -1.609237160533609767e-01
-2.654840793460607529e+00 -2.663989403843879700e+01 -6.413721702992347673e-02
-2.458063449710607529e+00 -2.756579735875129700e+01 -5.632471702992347673e-02
-2.256525363773107529e+00 -2.864721825718879700e+01 -4.658960960804847673e-02
-2.032892551273107529e+00 -2.973144677281379700e+01 -3.667139671742347673e-02
-1.783502902835607529e+00 -3.073217919468879700e+01 -2.719568870961097673e-02
-1.524347629398107529e+00 -3.191064599156379700e+01 -1.630091331898597673e-02
-1.239313449710607529e+00 -3.305139306187629700e+01 -5.497690662735976730e-03
-9.327948950231075287e-01 -3.418274071812629700e+01 6.266835704451523270e-03
-2.704035129398107529e+00 -2.709668114781379700e+01 7.172704078257652327e-02
-2.507746066898107529e+00 -2.807397606968879700e+01 8.504796363413902327e-02
-2.302301730960607529e+00 -2.916955712437629700e+01 9.989476539195152327e-02
-2.076227512210607529e+00 -3.029016259312629700e+01 1.151840720325765233e-01
-1.824762668460607529e+00 -3.134399560093879700e+01 1.298325095325765233e-01
-1.555231418460607529e+00 -3.244372704625129700e+01 1.451675925403890233e-01
-1.267267551273107529e+00 -3.363623192906379700e+01 1.617691550403890233e-01
-9.596503637731075287e-01 -3.489538720250129700e+01 1.793320212513265233e-01
-2.752863254398107529e+00 -2.755017235875129700e+01 2.124283347278890233e-01
-2.558527316898107529e+00 -2.859436181187629700e+01 2.312881980091390233e-01
-2.345880832523107529e+00 -2.966626122593879700e+01 2.499649558216390233e-01
-2.117121066898107529e+00 -3.081665185093879700e+01 2.708237204700765233e-01
-1.861383762210607529e+00 -3.188354638218879700e+01 2.904617819935140233e-01
-1.587946262210607529e+00 -3.300781396031379700e+01 3.111679587513265233e-01
-1.296686496585607529e+00 -3.424963524937629700e+01 3.348648581653890233e-01
-9.883368872106075287e-01 -3.565979149937629700e+01 3.606522116810140233e-01
-2.803644504398107529e+00 -2.802136376500129700e+01 3.576614890247640233e-01
-2.606623020023107529e+00 -2.908642724156379700e+01 3.809769187122640233e-01
-2.392633762210607529e+00 -3.019787743687629700e+01 4.061081442982015233e-01
-2.158258762210607529e+00 -3.134423974156379700e+01 4.321091208607015233e-01
-1.897516574710607529e+00 -3.241540673375129700e+01 4.566910300403890233e-01
-1.621759738773107529e+00 -3.359265282750129700e+01 4.836227927357015233e-01
-1.331842746585607529e+00 -3.499011376500129700e+01 5.153610739857015233e-01
-1.020929660648107529e+00 -3.653283837437629700e+01 5.512650046497640233e-01
3.558889403939247131e-02 -7.087892085313796997e+00 -8.438155617564859767e-01
1.225029565393924713e-01 -7.128541499376296997e+00 -8.454482521861734767e-01
2.103935815393924713e-01 -7.165895015001296997e+00 -8.470809426158609767e-01
2.993828393518924713e-01 -7.203736811876296997e+00 -8.487288918346109767e-01
3.887383081018924713e-01 -7.240357905626296997e+00 -8.502852883189859767e-01
4.788261987268924713e-01 -7.274171382188796997e+00 -8.516585793346109767e-01
5.698906518518924713e-01 -7.308473140001296997e+00 -8.530471291392984767e-01
6.611992456018924713e-01 -7.339356929063796997e+00 -8.544509377330484767e-01
9.587917476892471313e-03 -7.819825679063796997e+00 -8.481490578502359767e-01
1.041924096643924713e-01 -7.850099116563796997e+00 -8.490951027721109767e-01
1.992851831018924713e-01 -7.884767085313796997e+00 -8.500869240611734767e-01
2.954765893518924713e-01 -7.915528804063796997e+00 -8.510634865611734767e-01
3.919121362268924713e-01 -7.946290522813796997e+00 -8.520247902721109767e-01
4.889580346643924713e-01 -7.977296382188796997e+00 -8.530166115611734767e-01
5.868584252893924713e-01 -8.004151850938796997e+00 -8.539626564830484767e-01
6.851250268518924713e-01 -8.035523921251296997e+00 -8.549544777721109767e-01
-2.178415283560752869e-02 -8.709840327501296997e+00 -8.547255959361734767e-01
8.148733153939247131e-02 -8.745851069688796997e+00 -8.557937111705484767e-01
1.854912377893924713e-01 -8.782228022813796997e+00 -8.568618264049234767e-01
2.905937768518924713e-01 -8.818971186876296997e+00 -8.579452004283609767e-01
3.960625268518924713e-01 -8.855714350938796997e+00 -8.590438332408609767e-01
5.021416284143924713e-01 -8.892823725938796997e+00 -8.601272072642984767e-01
6.095635034143924713e-01 -8.930299311876296997e+00 -8.612410988658609767e-01
7.172295190393924713e-01 -8.967896968126296997e+00 -8.623397316783609767e-01
-5.974802002310752869e-02 -9.783814936876296997e+00 -8.630263771861734767e-01
5.341115966439247131e-02 -9.853272944688796997e+00 -8.652846779674234767e-01
1.679131127893924713e-01 -9.917115718126296997e+00 -8.675277199596109767e-01
2.842461206018924713e-01 -9.981935054063796997e+00 -8.697860207408609767e-01
4.014336206018924713e-01 -1.004724267125129700e+01 -8.720748391002359767e-01
5.199638940393924713e-01 -1.011328271031379700e+01 -8.743941750377359767e-01
6.402031518518924713e-01 -1.018029931187629700e+01 -8.767440285533609767e-01
7.422539331018924713e-01 -9.698853999376296997e+00 -8.510024514049234767e-01
-1.126044653356075287e-01 -1.128088524937629700e+01 -8.813827004283609767e-01
1.520315185189247131e-02 -1.136035302281379700e+01 -8.839461769908609767e-01
1.447197534143924713e-01 -1.142920067906379700e+01 -8.859755959361734767e-01
2.760674096643924713e-01 -1.149914696812629700e+01 -8.880507912486734767e-01
4.083916284143924713e-01 -1.156945946812629700e+01 -8.901412453502359767e-01
5.420586206018924713e-01 -1.164062646031379700e+01 -8.922469582408609767e-01
6.778008081018924713e-01 -1.171277001500129700e+01 -8.943831887096109767e-01
7.385918237268924713e-01 -9.612184077501296997e+00 -7.941176857799234767e-01
-1.785224340856075287e-01 -1.314428856968879700e+01 -9.021041359752359767e-01
-3.301462158560752869e-02 -1.326062157750129700e+01 -9.053389992564859767e-01
1.149345971643924713e-01 -1.336462548375129700e+01 -9.084060158580484767e-01
2.654472924768924713e-01 -1.347058251500129700e+01 -9.115188088267984767e-01
4.175469018518924713e-01 -1.357751610875129700e+01 -9.146621193736734767e-01
5.718437768518924713e-01 -1.368615868687629700e+01 -9.178359474986734767e-01
7.288261987268924713e-01 -1.379651024937629700e+01 -9.210860695689859767e-01
7.365166284143924713e-01 -9.567140132188796997e+00 -7.400863137096109767e-01
-2.793525122106075287e-01 -1.600354149937629700e+01 -9.437453713267984767e-01
-1.072333715856075287e-01 -1.618908837437629700e+01 -9.492080178111734767e-01
7.037893310189247131e-02 -1.626330712437629700e+01 -9.503676857799234767e-01
2.500664331018924713e-01 -1.633740380406379700e+01 -9.515120949596109767e-01
4.306084252893924713e-01 -1.641186669468879700e+01 -9.526412453502359767e-01
6.126152612268924713e-01 -1.648706200718879700e+01 -9.537856545299234767e-01
7.996269799768924713e-01 -1.667968896031379700e+01 -9.593856301158609767e-01
7.350517846643924713e-01 -9.539796382188796997e+00 -6.868789162486734767e-01
-5.474189184606075287e-01 -2.361450341343879700e+01 -1.121067759022110977e+00
-2.307685278356075287e-01 -2.107251122593879700e+01 -1.032490488514298477e+00
6.767846643924713135e-04 -2.079968407750129700e+01 -1.020558115467423477e+00
2.250420190393924713e-01 -2.100879052281379700e+01 -1.025471445545548477e+00
4.527031518518924713e-01 -2.122094872593879700e+01 -1.030461069568985977e+00
6.847588159143924713e-01 -2.143725731968879700e+01 -1.035526987537735977e+00
9.209648706018924713e-01 -2.161535790562629700e+01 -1.039860483631485977e+00
7.339531518518924713e-01 -9.524903804063796997e+00 -6.346328224986734767e-01
-6.699775122106075287e-01 -2.706848290562629700e+01 -1.105595346912735977e+00
-3.945868872106075287e-01 -2.753173974156379700e+01 -1.116444345936173477e+00
-1.361640356481075287e-01 -2.971862939000129700e+01 -1.177525278553360977e+00
1.725517846643924713e-01 -3.084045556187629700e+01 -1.207188364490860977e+00
4.990898706018924713e-01 -3.124243310093879700e+01 -1.215779062733048477e+00
8.500420190393924713e-01 -3.275744774937629700e+01 -1.256458994373673477e+00
1.225164089351892471e+00 -3.397656396031379700e+01 -1.288319345936173477e+00
7.332207299768924713e-01 -9.519288569688796997e+00 -5.825087990611734767e-01
-7.301581762731075287e-01 -2.874597314000129700e+01 -1.015034433826798477e+00
-4.474433325231075287e-01 -2.958032372593879700e+01 -1.032765146717423477e+00
-1.598456762731075287e-01 -3.118347314000129700e+01 -1.069264170154923477e+00
1.648613549768924713e-01 -3.204260399937629700e+01 -1.087193247303360977e+00
5.058037377893924713e-01 -3.298095849156379700e+01 -1.106922861561173477e+00
8.734795190393924713e-01 -3.446008446812629700e+01 -1.139622446522110977e+00
6.063896752893924713e-01 -8.944215327501296997e+00 -5.180098976939859767e-01
7.079521752893924713e-01 -8.802247554063796997e+00 -5.135695900767984767e-01
-7.658027075231075287e-01 -2.972155907750129700e+01 -8.941543068736734767e-01
-4.850409887731075287e-01 -3.101477196812629700e+01 -9.171645607799234767e-01
-1.771796606481075287e-01 -3.222216942906379700e+01 -9.382216896861734767e-01
1.570488549768924713e-01 -3.322631981968879700e+01 -9.549910988658609767e-01
5.103203393518924713e-01 -3.428015282750129700e+01 -9.725692238658609767e-01
8.921562768518924713e-01 -3.584912255406379700e+01 -1.000096079334610977e+00
6.038261987268924713e-01 -8.859010249376296997e+00 -4.670760598033609767e-01
7.064873315393924713e-01 -8.773561030626296997e+00 -4.644057717174234767e-01
-8.063300512731075287e-01 -3.083520653843879700e+01 -7.672622170299234767e-01
-5.035956762731075287e-01 -3.169812157750129700e+01 -7.775771584361734767e-01
-1.932929418981075287e-01 -3.318078759312629700e+01 -7.972609963267984767e-01
1.504570581018924713e-01 -3.416955712437629700e+01 -8.091018166392984767e-01
5.138603784143924713e-01 -3.539685204625129700e+01 -8.243911232799234767e-01
9.071709252893924713e-01 -3.699902489781379700e+01 -8.451278176158609767e-01
6.024834252893924713e-01 -8.825685054063796997e+00 -4.179885353892984767e-01
7.055107690393924713e-01 -8.759400874376296997e+00 -4.160048928111734767e-01
-8.318427465856075287e-01 -3.152124169468879700e+01 -6.246535744517984767e-01
-5.311835668981075287e-01 -3.273120263218879700e+01 -6.347091164439859767e-01
-2.058661840856075287e-01 -3.390149071812629700e+01 -6.449630226939859767e-01
1.447197534143924713e-01 -3.495044091343879700e+01 -6.528518166392984767e-01
5.167900659143924713e-01 -3.638733056187629700e+01 -6.646773781627359767e-01
9.207207299768924713e-01 -3.805481103062629700e+01 -6.786544289439859767e-01
6.015068627893924713e-01 -8.802247554063796997e+00 -3.690535988658609767e-01
7.044121362268924713e-01 -8.743653804063796997e+00 -3.674514260142984767e-01
-8.602851293981075287e-01 -3.228820946812629700e+01 -4.771163430064859767e-01
-5.487616918981075287e-01 -3.336804345250129700e+01 -4.807174172252359767e-01
-2.192939184606075287e-01 -3.467749169468879700e+01 -4.855544533580484767e-01
1.376396752893924713e-01 -3.595324853062629700e+01 -4.899184670299234767e-01
5.197197534143924713e-01 -3.742077782750129700e+01 -4.952132668346109767e-01
9.359795190393924713e-01 -3.922778466343879700e+01 -5.022475685924234767e-01
6.068779565393924713e-01 -9.044435054063796997e+00 -3.221480812877359767e-01
7.100273706018924713e-01 -8.921632319688796997e+00 -3.204390969127359767e-01
-8.854316137731075287e-01 -3.295874169468879700e+01 -3.215377297252359767e-01
-5.674384497106075287e-01 -3.404406884312629700e+01 -3.210036721080484767e-01
-2.327216528356075287e-01 -3.544580224156379700e+01 -3.199202980846109767e-01
1.315361596643924713e-01 -3.678491356968879700e+01 -3.184707131236734767e-01
5.228935815393924713e-01 -3.851794579625129700e+01 -3.173415627330484767e-01
9.425713159143924713e-01 -3.981543114781379700e+01 -3.152968849986734767e-01
6.041924096643924713e-01 -8.953370600938796997e+00 -2.726333107799234767e-01
7.086845971643924713e-01 -8.898072749376296997e+00 -2.712905373424234767e-01
-9.080146215856075287e-01 -3.355603173375129700e+01 -1.608931984752359767e-01
-5.885566137731075287e-01 -3.481311181187629700e+01 -1.539504494517984767e-01
-2.465155981481075287e-01 -3.623388817906379700e+01 -1.462905373424234767e-01
1.242119409143924713e-01 -3.780639794468879700e+01 -1.378829445689859767e-01
5.260674096643924713e-01 -3.962072899937629700e+01 -1.284224953502359767e-01
9.396416284143924713e-01 -3.974206689000129700e+01 -1.241347756236734767e-01
6.038261987268924713e-01 -8.958985835313796997e+00 -2.233626808971109767e-01
7.081963159143924713e-01 -8.895753413438796997e+00 -2.225692238658609767e-01
-9.319404028356075287e-01 -3.419201806187629700e+01 6.343129649764023270e-03
-6.090644262731075287e-01 -3.555749657750129700e+01 1.903844214976402327e-02
-2.612861059606075287e-01 -3.708130028843879700e+01 3.406834937632652327e-02
1.160332299768924713e-01 -3.896631005406379700e+01 5.215001441538902327e-02
5.283867456018924713e-01 -4.057226708531379700e+01 6.841588355601402327e-02
9.431816674768924713e-01 -4.011657860875129700e+01 6.882787086070152327e-02
6.043144799768924713e-01 -8.999391108751296997e+00 -1.740462746471109767e-01
7.102715112268924713e-01 -8.972291499376296997e+00 -1.729781594127359767e-01
-9.586738012731075287e-01 -3.490405419468879700e+01 1.794388327747640233e-01
-6.312812231481075287e-01 -3.636902001500129700e+01 2.005569968372640233e-01
-2.800849340856075287e-01 -3.817736962437629700e+01 2.261307273060140233e-01
1.087090112268924713e-01 -3.996545556187629700e+01 2.518112692982015233e-01
5.267998315393924713e-01 -4.064831689000129700e+01 2.641708884388265233e-01
9.541679956018924713e-01 -4.102124169468879700e+01 2.728073630482015233e-01
6.038261987268924713e-01 -8.998292475938796997e+00 -1.246230568736734767e-01
7.086845971643924713e-01 -8.939576655626296997e+00 -1.243483986705484767e-01
-9.873603247106075287e-01 -3.567028954625129700e+01 3.608353171497640233e-01
-6.582587622106075287e-01 -3.736206200718879700e+01 3.925430808216390233e-01
-3.013251684606075287e-01 -3.942505028843879700e+01 4.298050437122640233e-01
1.029717065393924713e-01 -4.064294579625129700e+01 4.541885886341390233e-01
5.247246362268924713e-01 -4.057531884312629700e+01 4.570267233997640233e-01
9.653984643518924713e-01 -4.193896630406379700e+01 4.842178855091390233e-01
6.033379174768924713e-01 -9.001222163438796997e+00 -7.513880394398597673e-02
7.096611596643924713e-01 -8.981690913438796997e+00 -7.446741722523597673e-02
-1.020075168460607529e+00 -3.654504540562629700e+01 5.515396628528890233e-01
-6.908515356481075287e-01 -3.856738427281379700e+01 5.971634421497640233e-01
-3.178046606481075287e-01 -4.036621239781379700e+01 6.393539939075765233e-01
9.235158935189247131e-02 -4.219568017125129700e+01 6.825363669544515233e-01
5.963799096643924713e-01 -5.790222314000129700e+01 1.024821523204451523e+00
9.647881127893924713e-01 -4.203869774937629700e+01 6.874039206653890233e-01
1.386174831539392471e+00 -4.137902978062629700e+01 6.772110495716390233e-01
7.069756127893924713e-01 -8.918092280626296997e+00 -2.652430199086097673e-02
6.614433862268924713e-01 -7.339601069688796997e+00 -8.544661965221109767e-01
7.536064721643924713e-01 -7.373414546251296997e+00 -8.558700051158609767e-01
8.463799096643924713e-01 -7.403932124376296997e+00 -8.572890724986734767e-01
9.397636987268924713e-01 -7.429566890001296997e+00 -8.583571877330484767e-01
1.033147487789392471e+00 -7.449586421251296997e+00 -8.590743508189859767e-01
1.127141628414392471e+00 -7.469605952501296997e+00 -8.597915139049234767e-01
1.221868190914392471e+00 -7.489991694688796997e+00 -8.605239357799234767e-01
1.316472683101892471e+00 -7.506715327501296997e+00 -8.612410988658609767e-01
6.853691674768924713e-01 -8.035768061876296997e+00 -8.549697365611734767e-01
7.844902612268924713e-01 -8.069581538438796997e+00 -8.563582863658609767e-01
8.847099877893924713e-01 -8.109498530626296997e+00 -8.578994240611734767e-01
9.851738549768924713e-01 -8.134400874376296997e+00 -8.587386574596109767e-01
1.087224636226892471e+00 -8.175660640001296997e+00 -8.605697121471109767e-01
1.190251979976892471e+00 -8.218141108751296997e+00 -8.624618019908609767e-01
1.294377956539392471e+00 -8.256349116563796997e+00 -8.643538918346109767e-01
1.399480495601892471e+00 -8.299562007188796997e+00 -8.662764992564859767e-01
7.175957299768924713e-01 -8.968141108751296997e+00 -8.623549904674234767e-01
8.258720971643924713e-01 -9.000733882188796997e+00 -8.634383644908609767e-01
9.353691674768924713e-01 -9.040040522813796997e+00 -8.648879494517984767e-01
1.046819362789392471e+00 -9.090943843126296997e+00 -8.669784035533609767e-01
1.159246120601892471e+00 -9.142213374376296997e+00 -8.690841164439859767e-01
1.272771511226892471e+00 -9.194093257188796997e+00 -8.712050881236734767e-01
1.388372097164392471e+00 -9.249879390001296997e+00 -8.735396828502359767e-01
1.505559597164392471e+00 -9.313233882188796997e+00 -8.763015236705484767e-01
7.426201440393924713e-01 -9.698609858751296997e+00 -8.509871926158609767e-01
8.842217065393924713e-01 -1.031262353062629700e+01 -8.815658058971109767e-01
1.006902370601892471e+00 -1.035424950718879700e+01 -8.828170266002359767e-01
1.131047878414392471e+00 -1.039636376500129700e+01 -8.840987648814859767e-01
1.255803737789392471e+00 -1.043860009312629700e+01 -8.853652443736734767e-01
1.381658229976892471e+00 -1.048132470250129700e+01 -8.866622414439859767e-01
1.508977565914392471e+00 -1.052453759312629700e+01 -8.879592385142984767e-01
1.636052761226892471e+00 -1.056079247593879700e+01 -8.892104592174234767e-01
7.390801049768924713e-01 -9.611939936876296997e+00 -7.941024269908609767e-01
8.648125268518924713e-01 -9.890992671251296997e+00 -8.063552346080484767e-01
1.092229519039392471e+00 -1.191870263218879700e+01 -9.007155861705484767e-01
1.233709011226892471e+00 -1.198632958531379700e+01 -9.028212990611734767e-01
1.376287136226892471e+00 -1.205456689000129700e+01 -9.049575295299234767e-01
1.520452175289392471e+00 -1.212353661656379700e+01 -9.071090187877359767e-01
1.666814479976892471e+00 -1.219360497593879700e+01 -9.093062844127359767e-01
1.813787136226892471e+00 -1.225793603062629700e+01 -9.112136330455484767e-01
7.368828393518924713e-01 -9.566895991563796997e+00 -7.400710549205484767e-01
8.648125268518924713e-01 -9.904908686876296997e+00 -7.532393898814859767e-01
1.205632839351892471e+00 -1.400110009312629700e+01 -9.257857766002359767e-01
1.250554714351892471e+00 -1.225769189000129700e+01 -8.508193459361734767e-01
1.406682644039392471e+00 -1.247119286656379700e+01 -8.586928810924234767e-01
1.702214870601892471e+00 -1.427343896031379700e+01 -9.334456887096109767e-01
1.870793972164392471e+00 -1.434863427281379700e+01 -9.353072609752359767e-01
2.039251003414392471e+00 -1.441247704625129700e+01 -9.370772805064859767e-01
7.354179956018924713e-01 -9.539674311876296997e+00 -6.868789162486734767e-01
8.657890893518924713e-01 -9.939820796251296997e+00 -7.010695900767984767e-01
1.372014675289392471e+00 -1.705359032750129700e+01 -9.686934914439859767e-01
1.245671901851892471e+00 -1.219372704625129700e+01 -7.840316262096109767e-01
1.408513698726892471e+00 -1.250488427281379700e+01 -7.945601906627359767e-01
1.960637722164392471e+00 -1.732959130406379700e+01 -9.743239846080484767e-01
2.159734401851892471e+00 -1.740222314000129700e+01 -9.754226174205484767e-01
2.359929714351892471e+00 -1.747522118687629700e+01 -9.765517678111734767e-01
7.344414331018924713e-01 -9.524781733751296997e+00 -6.346175637096109767e-01
8.580986596643924713e-01 -9.780519038438796997e+00 -6.421554055064859767e-01
9.718681909143924713e-01 -9.757325679063796997e+00 -6.400954689830484767e-01
1.085759792476892471e+00 -9.734010249376296997e+00 -6.383254494517984767e-01
1.198918972164392471e+00 -9.710816890001296997e+00 -6.365706887096109767e-01
1.311834011226892471e+00 -9.687867671251296997e+00 -6.348159279674234767e-01
1.424993190914392471e+00 -9.667115718126296997e+00 -6.334273781627359767e-01
1.533147487789392471e+00 -9.605226069688796997e+00 -6.304061379283609767e-01
7.337090112268924713e-01 -9.519166499376296997e+00 -5.825087990611734767e-01
8.576103784143924713e-01 -9.781495600938796997e+00 -5.890090432017984767e-01
9.688164331018924713e-01 -9.710572749376296997e+00 -5.859572853892984767e-01
1.133245144039392471e+00 -1.047656396031379700e+01 -6.067092385142984767e-01
1.139104519039392471e+00 -8.918702632188796997e+00 -5.614364113658609767e-01
1.224797878414392471e+00 -8.668214350938796997e+00 -5.533950295299234767e-01
1.327703151851892471e+00 -8.647218257188796997e+00 -5.518538918346109767e-01
1.429876003414392471e+00 -8.626222163438796997e+00 -5.503280129283609767e-01
7.083183862268924713e-01 -8.802003413438796997e+00 -5.135543312877359767e-01
8.119560815393924713e-01 -8.769166499376296997e+00 -5.117995705455484767e-01
9.152275659143924713e-01 -8.740113765001296997e+00 -5.101211037486734767e-01
1.018621120601892471e+00 -8.713136225938796997e+00 -5.085036721080484767e-01
1.121404323726892471e+00 -8.687379390001296997e+00 -5.069167580455484767e-01
1.224309597164392471e+00 -8.669068843126296997e+00 -5.055129494517984767e-01
1.327214870601892471e+00 -8.648072749376296997e+00 -5.040328469127359767e-01
1.429387722164392471e+00 -8.627076655626296997e+00 -5.025680031627359767e-01
7.067314721643924713e-01 -8.773316890001296997e+00 -4.644057717174234767e-01
8.101250268518924713e-01 -8.739503413438796997e+00 -4.627425637096109767e-01
9.131523706018924713e-01 -8.710572749376296997e+00 -4.611709084361734767e-01
1.016179714351892471e+00 -8.683717280626296997e+00 -4.596450295299234767e-01
1.118596706539392471e+00 -8.657960444688796997e+00 -4.581496682017984767e-01
1.223821315914392471e+00 -8.669923335313796997e+00 -4.573714699596109767e-01
1.326726589351892471e+00 -8.648927241563796997e+00 -4.559676613658609767e-01
1.428899440914392471e+00 -8.627931147813796997e+00 -4.545638527721109767e-01
7.057549096643924713e-01 -8.759156733751296997e+00 -4.159896340221109767e-01
8.090263940393924713e-01 -8.726319819688796997e+00 -4.144637551158609767e-01
9.118095971643924713e-01 -8.696656733751296997e+00 -4.129836525767984767e-01
1.014714870601892471e+00 -8.668824702501296997e+00 -4.115340676158609767e-01
1.116887722164392471e+00 -8.642335444688796997e+00 -4.101150002330484767e-01
1.218938503414392471e+00 -8.618531733751296997e+00 -4.087417092174234767e-01
1.321111354976892471e+00 -8.595826655626296997e+00 -4.073684182017984767e-01
1.422795925289392471e+00 -8.574586421251296997e+00 -4.060409035533609767e-01
7.047783471643924713e-01 -8.743409663438796997e+00 -3.674514260142984767e-01
8.079277612268924713e-01 -8.712403804063796997e+00 -3.660628762096109767e-01
9.107109643518924713e-01 -8.684205561876296997e+00 -3.649642433971109767e-01
1.013494167476892471e+00 -8.657838374376296997e+00 -3.636214699596109767e-01
1.115667019039392471e+00 -8.633302241563796997e+00 -3.623092141002359767e-01
1.217717800289392471e+00 -8.610597163438796997e+00 -3.610122170299234767e-01
1.319890651851892471e+00 -8.589234858751296997e+00 -3.594863381236734767e-01
1.421697292476892471e+00 -8.569459468126296997e+00 -3.582351174205484767e-01
7.103935815393924713e-01 -8.921510249376296997e+00 -3.204238381236734767e-01
8.153740502893924713e-01 -8.893434077501296997e+00 -3.191420998424234767e-01
9.199883081018924713e-01 -8.865968257188796997e+00 -3.178756203502359767e-01
1.022893581539392471e+00 -8.812501460313796997e+00 -3.164565529674234767e-01
1.126653347164392471e+00 -8.787599116563796997e+00 -3.152053322642984767e-01
1.230168972164392471e+00 -8.764039546251296997e+00 -3.139693703502359767e-01
1.333806667476892471e+00 -8.741456538438796997e+00 -3.127334084361734767e-01
1.436956081539392471e+00 -8.721070796251296997e+00 -3.115127053111734767e-01
7.090508081018924713e-01 -8.897828608751296997e+00 -2.712905373424234767e-01
8.134209252893924713e-01 -8.861329585313796997e+00 -2.703597512096109767e-01
9.176689721643924713e-01 -8.833131343126296997e+00 -2.691848244517984767e-01
1.022039089351892471e+00 -8.806642085313796997e+00 -2.679946389049234767e-01
1.125676784664392471e+00 -8.782105952501296997e+00 -2.668349709361734767e-01
1.229192409664392471e+00 -8.759156733751296997e+00 -2.656753029674234767e-01
1.332830104976892471e+00 -8.737062007188796997e+00 -2.645003762096109767e-01
1.435979519039392471e+00 -8.717042475938796997e+00 -2.630965676158609767e-01
7.085625268518924713e-01 -8.895509272813796997e+00 -2.225692238658609767e-01
8.131767846643924713e-01 -8.865113765001296997e+00 -2.214858498424234767e-01
9.174248315393924713e-01 -8.836915522813796997e+00 -2.204024758189859767e-01
1.021672878414392471e+00 -8.810426265001296997e+00 -2.193191017955484767e-01
1.125432644039392471e+00 -8.785890132188796997e+00 -2.182204689830484767e-01
1.228948269039392471e+00 -8.762818843126296997e+00 -2.171370949596109767e-01
1.332585964351892471e+00 -8.740724116563796997e+00 -2.160384621471109767e-01
1.435857448726892471e+00 -8.720704585313796997e+00 -2.149398293346109767e-01
7.106377221643924713e-01 -8.971070796251296997e+00 -1.729934182017984767e-01
8.128105737268924713e-01 -8.869264155626296997e+00 -1.728560891002359767e-01
9.170586206018924713e-01 -8.841065913438796997e+00 -1.718642678111734767e-01
1.021428737789392471e+00 -8.814576655626296997e+00 -1.708571877330484767e-01
1.125188503414392471e+00 -8.790040522813796997e+00 -1.698501076549234767e-01
1.228826198726892471e+00 -8.766969233751296997e+00 -1.688277687877359767e-01
1.332463894039392471e+00 -8.744874507188796997e+00 -1.678054299205484767e-01
1.435613308101892471e+00 -8.724854975938796997e+00 -1.665084328502359767e-01
7.090508081018924713e-01 -8.939454585313796997e+00 -1.243483986705484767e-01
8.125664331018924713e-01 -8.874391108751296997e+00 -1.239211525767984767e-01
9.168144799768924713e-01 -8.846070796251296997e+00 -1.230208840221109767e-01
1.021306667476892471e+00 -8.819581538438796997e+00 -1.221053566783609767e-01
1.125066433101892471e+00 -8.795167475938796997e+00 -1.211745705455484767e-01
1.228704128414392471e+00 -8.772096186876296997e+00 -1.202285256236734767e-01
1.332341823726892471e+00 -8.750001460313796997e+00 -1.192672219127359767e-01
1.435613308101892471e+00 -8.729859858751296997e+00 -1.182906594127359767e-01
7.099053002893924713e-01 -8.980470210313796997e+00 -7.448267601429847673e-02
8.123222924768924713e-01 -8.880250483751296997e+00 -7.492518089711097673e-02
9.166924096643924713e-01 -8.851930171251296997e+00 -7.439112327992347673e-02
1.021062526851892471e+00 -8.825440913438796997e+00 -7.356714867054847673e-02
