-2.658980216830968857e+00 -2.064284223318099976e+01 -8.264650859869959731e-01
-2.488203849643468857e+00 -2.103932660818099976e+01 -8.345980205573084731e-01
-2.384810294955968857e+00 -2.206581586599349976e+01 -8.587832012213709731e-01
-2.232710685580968857e+00 -2.283595746755599976e+01 -8.762392559088709731e-01
-2.056685294955968857e+00 -2.350710004568099976e+01 -8.910555400885584731e-01
-3.201948966830968857e+00 -1.989027875661849976e+01 -7.142977275885584731e-01
-3.057783927768468857e+00 -2.034010785818099976e+01 -7.220186748541834731e-01
-2.895430412143468857e+00 -2.072707074880599976e+01 -7.283205547369959731e-01
-2.727217521518468857e+00 -2.112843793630599976e+01 -7.348665752448084731e-01
-2.610396232455968857e+00 -2.198122113943099976e+01 -7.508425273932459731e-01
-2.459151115268468857e+00 -2.268483442068099976e+01 -7.635530986823084731e-01
-2.292403068393468857e+00 -2.337770551443099976e+01 -7.759127178229334731e-01
-2.127852287143468857e+00 -2.422023481130599976e+01 -7.912783184088709731e-01
-3.265181388705968857e+00 -2.025917524099349976e+01 -6.222567119635584731e-01
-3.133467521518468857e+00 -2.081105512380599976e+01 -6.296877422369959731e-01
-2.968916740268468857e+00 -2.121449750661849976e+01 -6.345705547369959731e-01
-2.834273185580968857e+00 -2.189284223318099976e+01 -6.439241924323084731e-01
-2.681563224643468857e+00 -2.252785199880599976e+01 -6.524538555182459731e-01
-2.507246818393468857e+00 -2.308278363943099976e+01 -6.595949687994959731e-01
-2.354048576205968857e+00 -2.393739789724349976e+01 -6.714968242682459731e-01
-2.185835685580968857e+00 -2.479848188161849976e+01 -6.833986797369959731e-01
-3.330855216830968857e+00 -2.064308637380599976e+01 -5.264467754401209731e-01
-3.200484123080968857e+00 -2.122768110036849976e+01 -5.318026104010584731e-01
-3.057295646518468857e+00 -2.180177778005599976e+01 -5.375093975104334731e-01
-2.901655998080968857e+00 -2.237270063161849976e+01 -5.425447979010584731e-01
-2.734785880893468857e+00 -2.293410199880599976e+01 -5.473818340338709731e-01
-2.572066154330968857e+00 -2.362172406911849976e+01 -5.536226787604334731e-01
-2.416426505893468857e+00 -2.450282758474349976e+01 -5.613894023932459731e-01
-2.238814201205968857e+00 -2.532643598318099976e+01 -5.689730205573084731e-01
-3.398726310580968857e+00 -2.103883832693099976e+01 -4.277071514166834731e-01
-3.266890373080968857e+00 -2.163979047536849976e+01 -4.305758037604334731e-01
-3.120283927768468857e+00 -2.221925824880599976e+01 -4.332155742682459731e-01
-2.960371818393468857e+00 -2.278896039724349976e+01 -4.356874980963709731e-01
-2.787520255893468857e+00 -2.333730024099349976e+01 -4.379457988776209731e-01
-2.640059318393468857e+00 -2.418690961599349976e+01 -4.422640361823084731e-01
-2.460127677768468857e+00 -2.489735883474349976e+01 -4.454988994635584731e-01
-2.292647209018468857e+00 -2.586220258474349976e+01 -4.503969707526209731e-01
-3.468062248080968857e+00 -2.144411176443099976e+01 -3.247713604010584731e-01
-3.311201896518468857e+00 -2.191347211599349976e+01 -3.251680889166834731e-01
-3.177901115268468857e+00 -2.260023969411849976e+01 -3.255342998541834731e-01
-3.016280021518468857e+00 -2.318556684255599976e+01 -3.255342998541834731e-01
-2.857344474643468857e+00 -2.387294477224349976e+01 -3.257479229010584731e-01
-2.689375724643468857e+00 -2.459474653005599976e+01 -3.259462871588709731e-01
-2.512007560580968857e+00 -2.536671918630599976e+01 -3.261751689948084731e-01
-2.344649162143468857e+00 -2.637978070974349976e+01 -3.262056865729334731e-01
-3.514448966830968857e+00 -2.171339887380599976e+01 -2.189058818854334731e-01
-3.367964591830968857e+00 -2.226479047536849976e+01 -2.165255107916834731e-01
-3.231978263705968857e+00 -2.295790570974349976e+01 -2.137941875494959731e-01
-3.074385490268468857e+00 -2.359767621755599976e+01 -2.110933818854334731e-01
-2.913618888705968857e+00 -2.430287641286849976e+01 -2.081942119635584731e-01
-2.737837638705968857e+00 -2.499464887380599976e+01 -2.052492656744959731e-01
-2.571333732455968857e+00 -2.590346235036849976e+01 -2.017397441901209731e-01
-2.390913810580968857e+00 -2.683864301443099976e+01 -1.980776348151209731e-01
-3.562056388705968857e+00 -2.199062055349349976e+01 -1.099428691901209731e-01
-3.426314201205968857e+00 -2.262624067068099976e+01 -1.051516094244959731e-01
-3.285811271518468857e+00 -2.331300824880599976e+01 -9.938378715887097314e-02
-3.133101310580968857e+00 -2.401466840505599976e+01 -9.343285942449597314e-02
-2.964644279330968857e+00 -2.469203656911849976e+01 -8.760400200262097314e-02
-2.787642326205968857e+00 -2.540651410818099976e+01 -8.143945122137097314e-02
-2.625777091830968857e+00 -2.639467328786849976e+01 -7.335229301824597314e-02
-2.437178459018468857e+00 -2.729701703786849976e+01 -6.505151176824597314e-02
-3.613447990268468857e+00 -2.228957074880599976e+01 1.263185497379026856e-03
-3.483931388705968857e+00 -2.298317426443099976e+01 1.011328315362902686e-02
-3.338545646518468857e+00 -2.366103070974349976e+01 1.884131049737902686e-02
-3.184248771518468857e+00 -2.437648481130599976e+01 2.805761909112902686e-02
-3.017622794955968857e+00 -2.509547895193099976e+01 3.738073920831652686e-02
-2.852217521518468857e+00 -2.594167035818099976e+01 4.821447944269152686e-02
-2.673384513705968857e+00 -2.682423871755599976e+01 5.953650092706652686e-02
-2.486494865268468857e+00 -2.778700727224349976e+01 7.185034370050402686e-02
-3.676070060580968857e+00 -2.265431684255599976e+01 1.168485126458165269e-01
-3.541792716830968857e+00 -2.334132856130599976e+01 1.286893329583165269e-01
-3.386275138705968857e+00 -2.397597211599349976e+01 1.391263446770665269e-01
-3.235640373080968857e+00 -2.474001020193099976e+01 1.522946796380040269e-01
-3.071822013705968857e+00 -2.550929731130599976e+01 1.655850849114415269e-01
-2.904829826205968857e+00 -2.637697309255599976e+01 1.805081806145665269e-01
-2.721602287143468857e+00 -2.725758832693099976e+01 1.964230976067540269e-01
-2.536543693393468857e+00 -2.828285688161849976e+01 2.140317401848790269e-01
-3.737227287143468857e+00 -2.301039594411849976e+01 2.356381854973790269e-01
-3.590498771518468857e+00 -2.364259809255599976e+01 2.488065204583165269e-01
-3.439741935580968857e+00 -2.432875531911849976e+01 2.637143573723790269e-01
-3.288863029330968857e+00 -2.511598676443099976e+01 2.807584247551915269e-01
-3.129072990268468857e+00 -2.594606488943099976e+01 2.987332782708165269e-01
-2.956953849643468857e+00 -2.680678266286849976e+01 3.173795185051915269e-01
-2.774824943393468857e+00 -2.773817914724349976e+01 3.375516376458165269e-01
-2.583418693393468857e+00 -2.874684613943099976e+01 3.601193866692540269e-01
-4.609821699559688568e-01 -7.374897897243499756e+00 -8.394808330573084731e-01
-3.780964277684688568e-01 -7.417012155055999756e+00 -8.410677471198084731e-01
-2.942341230809688568e-01 -7.455830514430999756e+00 -8.426394023932459731e-01
-2.095173262059688568e-01 -7.495259225368499756e+00 -8.442415752448084731e-01
-1.241901777684688568e-01 -7.532368600368499756e+00 -8.456759014166834731e-01
-3.788646683096885681e-02 -7.561177194118499756e+00 -8.465609111823084731e-01
4.927173629403114319e-02 -7.590229928493499756e+00 -8.474459209479334731e-01
1.366740800440311432e-01 -7.615620553493499756e+00 -8.483004131354334731e-01
-5.311725996434688568e-01 -8.085347115993499756e+00 -8.438601055182459731e-01
-4.414509199559688568e-01 -8.130024850368499756e+00 -8.455690898932459731e-01
-3.512409590184688568e-01 -8.179341256618499756e+00 -8.473238506354334731e-01
-2.595661543309688568e-01 -8.224995553493499756e+00 -8.490633525885584731e-01
-1.675251387059688568e-01 -8.271016061305999756e+00 -8.508181133307459731e-01
-7.426341995596885681e-02 -8.307759225368499756e+00 -8.520082988776209731e-01
2.034107223153114319e-02 -8.337178170680999756e+00 -8.529543437994959731e-01
1.149455644190311432e-01 -8.370869576930999756e+00 -8.539309062994959731e-01
-6.172321699559688568e-01 -8.955342233180999756e+00 -8.508638896979334731e-01
-5.201862715184688568e-01 -9.017231881618499756e+00 -8.532900371588709731e-01
-4.214313887059688568e-01 -9.070698678493499756e+00 -8.552126445807459731e-01
-3.203571699559688568e-01 -9.109517037868499756e+00 -8.562807598151209731e-01
-2.190388105809688568e-01 -9.148457467555999756e+00 -8.573488750494959731e-01
-1.172321699559688568e-01 -9.191426217555999756e+00 -8.586458721198084731e-01
-1.481517776846885681e-02 -9.246601998805999756e+00 -8.606295146979334731e-01
8.821216598153114319e-02 -9.302143990993499756e+00 -8.626284160651209731e-01
-7.272175215184688568e-01 -1.006923383474349976e+01 -8.630404033698084731e-01
-6.190632246434688568e-01 -1.013136762380599976e+01 -8.648104229010584731e-01
-5.093220137059688568e-01 -1.018654340505599976e+01 -8.665041484869959731e-01
-3.982380293309688568e-01 -1.024257367849349976e+01 -8.681978740729334731e-01
-2.865436933934688568e-01 -1.029872602224349976e+01 -8.699068584479334731e-01
-1.739948652684688568e-01 -1.035548871755599976e+01 -8.716463604010584731e-01
-6.059154495596885681e-02 -1.042946332693099976e+01 -8.742556133307459731e-01
5.366626754403114319e-02 -1.050282758474349976e+01 -8.771242656744959731e-01
-8.639362715184688568e-01 -1.145253461599349976e+01 -8.777193584479334731e-01
-7.413776777684688568e-01 -1.150868695974349976e+01 -8.790926494635584731e-01
-6.178425215184688568e-01 -1.156520551443099976e+01 -8.804659404791834731e-01
-4.929645918309688568e-01 -1.162245649099349976e+01 -8.818544902838709731e-01
-3.675983808934688568e-01 -1.167982953786849976e+01 -8.832582988776209731e-01
-2.412556074559688568e-01 -1.173769086599349976e+01 -8.846621074713709731e-01
-1.141804121434688568e-01 -1.181544965505599976e+01 -8.870119609869959731e-01
1.301685348153114319e-02 -1.191762250661849976e+01 -8.905062236823084731e-01
-1.077315177768468857e+00 -1.361342328786849976e+01 -9.140810527838709731e-01
-9.340046308934688568e-01 -1.368019574880599976e+01 -9.151033916510584731e-01
-7.886188887059688568e-01 -1.373451703786849976e+01 -9.159273662604334731e-01
-6.417683027684688568e-01 -1.378944867849349976e+01 -9.167665996588709731e-01
-4.945515058934688568e-01 -1.384438031911849976e+01 -9.176058330573084731e-01
-3.464802168309688568e-01 -1.389967817068099976e+01 -9.184450664557459731e-01
-1.969440840184688568e-01 -1.395558637380599976e+01 -9.192995586432459731e-01
-4.740795120596885681e-02 -1.402406781911849976e+01 -9.210695781744959731e-01
-1.667525138705968857e+00 -1.959328168630599976e+01 -1.080066160205745973e+00
-1.133467521518468857e+00 -1.592592328786849976e+01 -9.343294658698084731e-01
-9.748981855809688568e-01 -1.610011762380599976e+01 -9.394106426276209731e-01
-8.126667402684688568e-01 -1.627834028005599976e+01 -9.445986309088709731e-01
-6.479938887059688568e-01 -1.645937055349349976e+01 -9.498781719244959731e-01
-4.800251387059688568e-01 -1.664394086599349976e+01 -9.552645244635584731e-01
-3.081501387059688568e-01 -1.683278363943099976e+01 -9.607729473151209731e-01
-1.370075605809688568e-01 -1.714918988943099976e+01 -9.711794414557459731e-01
-1.869063224643468857e+00 -2.162978070974349976e+01 -1.054629758838558473e+00
-1.690474357455968857e+00 -2.220753949880599976e+01 -1.072360471729183473e+00
-1.525801505893468857e+00 -2.310512250661849976e+01 -1.100421384815120973e+00
-1.307295646518468857e+00 -2.348830121755599976e+01 -1.111194089893245973e+00
-1.089766349643468857e+00 -2.399977582693099976e+01 -1.126315549854183473e+00
-8.695515058934688568e-01 -2.466151899099349976e+01 -1.146457151416683473e+00
-6.571491621434688568e-01 -2.588246625661849976e+01 -1.186175779346370973e+00
-3.977497480809688568e-01 -2.626772016286849976e+01 -1.196643308643245973e+00
-1.989546623080968857e+00 -2.284328168630599976e+01 -9.851259746588709731e-01
-1.784102287143468857e+00 -2.325514692068099976e+01 -9.951662578619959731e-01
-1.573897209018468857e+00 -2.370692914724349976e+01 -1.006335691455745973e+00
-1.372237052768468857e+00 -2.442299360036849976e+01 -1.025271848682308473e+00
-1.192915763705968857e+00 -2.574574750661849976e+01 -1.062076047901058473e+00
-9.512165449559688568e-01 -2.632399457693099976e+01 -1.076617673877620973e+00
-6.931599043309688568e-01 -2.679115766286849976e+01 -1.087787107471370973e+00
-4.381550215184688568e-01 -2.764552778005599976e+01 -1.110232786182308473e+00
-2.056197013705968857e+00 -2.351064008474349976e+01 -8.911318340338709731e-01
-1.847578849643468857e+00 -2.396193403005599976e+01 -9.003023662604334731e-01
-1.649947013705968857e+00 -2.466322797536849976e+01 -9.156832256354334731e-01
-1.459883537143468857e+00 -2.568874067068099976e+01 -9.390902080573084731e-01
-1.245772209018468857e+00 -2.663210004568099976e+01 -9.602694072760584731e-01
-1.003828849643468857e+00 -2.738564008474349976e+01 -9.765352764166834731e-01
-7.567585371434688568e-01 -2.841335004568099976e+01 -9.994844951666834731e-01
-4.878376387059688568e-01 -2.934462445974349976e+01 -1.019854978565120973e+00
-2.127364005893468857e+00 -2.422401899099349976e+01 -7.913546123541834731e-01
-1.932173576205968857e+00 -2.490639203786849976e+01 -8.032106914557459731e-01
-1.727095451205968857e+00 -2.563295453786849976e+01 -8.158754863776209731e-01
-1.509566154330968857e+00 -2.639821332693099976e+01 -8.291964092291834731e-01
-1.299361076205968857e+00 -2.752931684255599976e+01 -8.498568096198084731e-01
-1.062056388705968857e+00 -2.856215375661849976e+01 -8.683352031744959731e-01
-7.935017012059688568e-01 -2.933363813161849976e+01 -8.813356914557459731e-01
-5.242145918309688568e-01 -3.057082074880599976e+01 -9.035830059088709731e-01
-2.185713615268468857e+00 -2.480702680349349976e+01 -6.835207500494959731e-01
-1.992476310580968857e+00 -2.557631391286849976e+01 -6.936678447760584731e-01
-1.775923576205968857e+00 -2.624208539724349976e+01 -7.020296611823084731e-01
-1.572432365268468857e+00 -2.730141156911849976e+01 -7.165407695807459731e-01
-1.339033927768468857e+00 -2.818861860036849976e+01 -7.281679668463709731e-01
-1.107100334018468857e+00 -2.946461957693099976e+01 -7.457460918463709731e-01
-8.357380293309688568e-01 -3.039931195974349976e+01 -7.577700176276209731e-01
-5.443561933934688568e-01 -3.123366254568099976e+01 -7.680849590338709731e-01
-2.238692130893468857e+00 -2.533485883474349976e+01 -5.690645732916834731e-01
-2.048018302768468857e+00 -2.619289106130599976e+01 -5.766939678229334731e-01
-1.841963615268468857e+00 -2.706911176443099976e+01 -5.851015605963709731e-01
-1.611494865268468857e+00 -2.785536664724349976e+01 -5.916628398932459731e-01
-1.388960685580968857e+00 -2.902223676443099976e+01 -6.023897686041834731e-01
-1.145186271518468857e+00 -3.022523969411849976e+01 -6.133303203619959731e-01
-8.623493574559688568e-01 -3.105470746755599976e+01 -6.191286602057459731e-01
-5.740192793309688568e-01 -3.222047895193099976e+01 -6.292604961432459731e-01
-2.292403068393468857e+00 -2.586989301443099976e+01 -4.504427471198084731e-01
-2.105879630893468857e+00 -2.683449262380599976e+01 -4.549135723151209731e-01
-1.885420646518468857e+00 -2.760829633474349976e+01 -4.579195537604334731e-01
-1.655928459018468857e+00 -2.848842328786849976e+01 -4.615206279791834731e-01
-1.430586662143468857e+00 -2.971364301443099976e+01 -4.672731914557459731e-01
-1.177046623080968857e+00 -3.085414594411849976e+01 -4.722933330573084731e-01
-8.923786543309688568e-01 -3.179945844411849976e+01 -4.758486309088709731e-01
-5.930622480809688568e-01 -3.283876508474349976e+01 -4.798769512213709731e-01
-2.344527091830968857e+00 -2.638808149099349976e+01 -3.262209453619959731e-01
-2.152876701205968857e+00 -2.735304731130599976e+01 -3.269686260260584731e-01
-1.929243888705968857e+00 -2.815297406911849976e+01 -3.265261211432459731e-01
-1.710493888705968857e+00 -2.926625531911849976e+01 -3.266176738776209731e-01
-1.463545646518468857e+00 -3.025575727224349976e+01 -3.262972393073084731e-01
-1.206587638705968857e+00 -3.143678754568099976e+01 -3.262056865729334731e-01
-9.185017012059688568e-01 -3.244362348318099976e+01 -3.255953350104334731e-01
-6.127155683934688568e-01 -3.347499555349349976e+01 -3.240389385260584731e-01
-2.390669669955968857e+00 -2.684572309255599976e+01 -1.980471172369959731e-01
-2.197554435580968857e+00 -2.784535688161849976e+01 -1.936220684088709731e-01
-1.980147209018468857e+00 -2.878615278005599976e+01 -1.891817607916834731e-01
-1.748335685580968857e+00 -2.980055707693099976e+01 -1.844210186041834731e-01
-1.501509513705968857e+00 -3.088234418630599976e+01 -1.793551006354334731e-01
-1.235030021518468857e+00 -3.199623578786849976e+01 -1.740297832526209731e-01
-9.423054121434688568e-01 -3.302248090505599976e+01 -1.687960186041834731e-01
-6.354206465184688568e-01 -3.421645063161849976e+01 -1.629366436041834731e-01
-2.436934318393468857e+00 -2.730495160818099976e+01 -6.497521782293347314e-02
-2.242476310580968857e+00 -2.834059613943099976e+01 -5.646081352605847314e-02
-2.025679435580968857e+00 -2.935023969411849976e+01 -4.727502251043347314e-02
-1.784346427768468857e+00 -3.030873578786849976e+01 -3.828759575262097314e-02
-1.536177482455968857e+00 -3.145253461599349976e+01 -2.786584282293347314e-02
-1.263106193393468857e+00 -3.254652875661849976e+01 -1.764245415105847314e-02
-9.664753340184688568e-01 -3.361293500661849976e+01 -7.464841846370973144e-03
-6.571491621434688568e-01 -3.492226117849349976e+01 5.535646434879026856e-03
-2.486250724643468857e+00 -2.779457563161849976e+01 7.194189643487902686e-02
-2.287154044955968857e+00 -2.883131879568099976e+01 8.591894721612902686e-02
-2.068526115268468857e+00 -2.988063520193099976e+01 1.001706562005040269e-01
-1.826826896518468857e+00 -3.091066449880599976e+01 1.143613300286290269e-01
-1.567549552768468857e+00 -3.196559613943099976e+01 1.289639911614415269e-01
-1.291914787143468857e+00 -3.310890668630599976e+01 1.447568378411290269e-01
-9.950397871434688568e-01 -3.431349653005599976e+01 1.614346942864415269e-01
-6.810749433934688568e-01 -3.570326703786849976e+01 1.804929218255040269e-01
-2.536299552768468857e+00 -2.829103559255599976e+01 2.141690692864415269e-01
-2.331831779330968857e+00 -2.932265180349349976e+01 2.328000507317540269e-01
-2.109907951205968857e+00 -3.039174360036849976e+01 2.514005145989415269e-01
-1.863570060580968857e+00 -3.142677778005599976e+01 2.703366718255040269e-01
-1.600630607455968857e+00 -3.250856488943099976e+01 2.901578388176915269e-01
-1.321455802768468857e+00 -3.368837445974349976e+01 3.117185077630040269e-01
-1.024214591830968857e+00 -3.503102582693099976e+01 3.370328388176915269e-01
-7.081745527684688568e-01 -3.659120649099349976e+01 3.652463397942540269e-01
-2.583174552768468857e+00 -2.875502485036849976e+01 3.603024921380040269e-01
-2.377608146518468857e+00 -2.982668012380599976e+01 3.837094745598790269e-01
-2.151778068393468857e+00 -3.090822309255599976e+01 4.081845722161290269e-01
-1.899947013705968857e+00 -3.193861860036849976e+01 4.317441425286290269e-01
-1.635054435580968857e+00 -3.307094281911849976e+01 4.575467548333165269e-01
-1.357588615268468857e+00 -3.440041059255599976e+01 4.876370868645665269e-01
-1.056929435580968857e+00 -3.583754438161849976e+01 5.201688251458165269e-01
-7.433308027684688568e-01 -3.775441449880599976e+01 5.639768085442540269e-01
1.369182206690311432e-01 -7.615620553493499756e+00 -8.483004131354334731e-01
2.246867753565311432e-01 -7.644062936305999756e+00 -8.492006816901209731e-01
3.130656816065311432e-01 -7.668843209743499756e+00 -8.500551738776209731e-01
4.022990800440311432e-01 -7.693867623805999756e+00 -8.509249248541834731e-01
4.916545487940311432e-01 -7.718892037868499756e+00 -8.518099346198084731e-01
5.814982987940311432e-01 -7.744160592555999756e+00 -8.526796855963709731e-01
6.723186112940311432e-01 -7.769551217555999756e+00 -8.535646953619959731e-01
7.630168534815311432e-01 -7.791157662868499756e+00 -8.544344463385584731e-01
1.151897050440311432e-01 -8.370869576930999756e+00 -8.539309062994959731e-01
2.105266191065311432e-01 -8.399922311305999756e+00 -8.548769512213709731e-01
3.063518144190311432e-01 -8.433613717555999756e+00 -8.558687725104334731e-01
4.031535722315311432e-01 -8.463032662868499756e+00 -8.568300762213709731e-01
5.003215409815311432e-01 -8.492695748805999756e+00 -8.578066387213709731e-01
5.979777909815311432e-01 -8.522480905055999756e+00 -8.587679424323084731e-01
6.964885331690311432e-01 -8.548115670680999756e+00 -8.597139873541834731e-01
7.953654862940311432e-01 -8.578267037868499756e+00 -8.607058086432459731e-01
8.845630660653114319e-02 -9.302266061305999756e+00 -8.626284160651209731e-01
1.927043534815311432e-01 -9.353291451930999756e+00 -8.646120586432459731e-01
2.978068925440311432e-01 -9.404805123805999756e+00 -8.666109600104334731e-01
4.043742753565311432e-01 -9.456929147243499756e+00 -8.686251201666834731e-01
5.116740800440311432e-01 -9.509541451930999756e+00 -8.706697979010584731e-01
6.200725175440311432e-01 -9.562642037868499756e+00 -8.727297344244959731e-01
7.298137284815311432e-01 -9.617329537868499756e+00 -8.748659648932459731e-01
8.399211503565311432e-01 -9.660908639430999756e+00 -8.763765850104334731e-01
5.403247848153114319e-02 -1.050307172536849976e+01 -8.771242656744959731e-01
1.701213456690311432e-01 -1.055946820974349976e+01 -8.787569561041834731e-01
2.873088456690311432e-01 -1.060280317068099976e+01 -8.799776592291834731e-01
4.058391191065311432e-01 -1.064662641286849976e+01 -8.812288799323084731e-01
5.248576737940311432e-01 -1.069057172536849976e+01 -8.824648418463709731e-01
6.448527909815311432e-01 -1.073488324880599976e+01 -8.837160625494959731e-01
7.663127519190311432e-01 -1.078786176443099976e+01 -8.854097881354334731e-01
8.529826737940311432e-01 -9.987202584743499756e+00 -8.432039775885584731e-01
1.350513473153114319e-02 -1.191786664724349976e+01 -8.905062236823084731e-01
1.427775956690311432e-01 -1.201454633474349976e+01 -8.939699687994959731e-01
2.741252519190311432e-01 -1.211269086599349976e+01 -8.974794902838709731e-01
4.077922441065311432e-01 -1.221266645193099976e+01 -9.010500469244959731e-01
5.431682206690311432e-01 -1.231374067068099976e+01 -9.046511211432459731e-01
6.804973222315311432e-01 -1.241640180349349976e+01 -9.083132305182459731e-01
8.203899003565311432e-01 -1.252089399099349976e+01 -9.120516338385584731e-01
8.496867753565311432e-01 -9.919453561305999756e+00 -7.881655254401209731e-01
-4.691966995596885681e-02 -1.402418988943099976e+01 -9.210695781744959731e-01
1.033488847315311432e-01 -1.412758344411849976e+01 -9.238009014166834731e-01
2.556926347315311432e-01 -1.421864789724349976e+01 -9.263643779791834731e-01
4.104777909815311432e-01 -1.431105512380599976e+01 -9.289583721198084731e-01
5.666057206690311432e-01 -1.440419477224349976e+01 -9.315676250494959731e-01
7.245647050440311432e-01 -1.449855512380599976e+01 -9.342226543463709731e-01
8.848430253565311432e-01 -1.458681195974349976e+01 -9.365877666510584731e-01
8.476115800440311432e-01 -9.880635201930999756e+00 -7.352785625494959731e-01
-1.363972090184688568e-01 -1.714894574880599976e+01 -9.711641826666834731e-01
4.658618941903114319e-02 -1.716383832693099976e+01 -9.701113262213709731e-01
2.298137284815311432e-01 -1.717885297536849976e+01 -9.690584697760584731e-01
4.141399003565311432e-01 -1.724818891286849976e+01 -9.700655498541834731e-01
5.995647050440311432e-01 -1.734816449880599976e+01 -9.722475566901209731e-01
7.870647050440311432e-01 -1.744911664724349976e+01 -9.744600811041834731e-01
9.762736894190311432e-01 -1.752174848318099976e+01 -9.755587139166834731e-01
8.461467362940311432e-01 -9.857319772243499756e+00 -6.830629863776209731e-01
-3.968952558934688568e-01 -2.626979535818099976e+01 -1.196704343799495973e+00
-3.727611526846885681e-02 -2.165492719411849976e+01 -1.037860349658870973e+00
1.508342362940311432e-01 -2.632472699880599976e+01 -1.192996458057308473e+00
4.220744706690311432e-01 -2.323659223318099976e+01 -1.086505369190120973e+00
6.638957597315311432e-01 -2.305287641286849976e+01 -1.078158811572933473e+00
9.029094316065311432e-01 -2.290834516286849976e+01 -1.071155027393245973e+00
1.143998298794031143e+00 -2.289296430349349976e+01 -1.069079832080745973e+00
8.450481034815311432e-01 -9.844624459743499756e+00 -6.317019023932459731e-01
-4.376667402684688568e-01 -2.765919965505599976e+01 -1.110629514697933473e+00
-1.841267012059688568e-01 -2.951247113943099976e+01 -1.162311033252620973e+00
1.140910722315311432e-01 -3.046095746755599976e+01 -1.187259153369808473e+00
4.319621659815311432e-01 -3.103468793630599976e+01 -1.201114133838558473e+00
7.675334550440311432e-01 -3.226479047536849976e+01 -1.233920530322933473e+00
1.128251228481531143e+00 -3.351759809255599976e+01 -1.267169431690120973e+00
1.504716072231531143e+00 -3.443581098318099976e+01 -1.290530637744808473e+00
8.444377519190311432e-01 -9.840718209743499756e+00 -5.804476299323084731e-01
-4.872272871434688568e-01 -2.935817426443099976e+01 -1.020175413135433473e+00
-2.082966230809688568e-01 -3.074525922536849976e+01 -1.051684812549495973e+00
1.029826737940311432e-01 -3.160780805349349976e+01 -1.070056394580745973e+00
4.325725175440311432e-01 -3.247951215505599976e+01 -1.088473752979183473e+00
7.838908769190311432e-01 -3.383473676443099976e+01 -1.118548826221370973e+00
1.156083259731531143e+00 -3.489516156911849976e+01 -1.141223386768245973e+00
1.564774665981531143e+00 -3.640858930349349976e+01 -1.174670652393245973e+00
8.142863847315311432e-01 -9.123677194118499756e+00 -5.123018779791834731e-01
-5.232380293309688568e-01 -3.057545942068099976e+01 -9.036745586432459731e-01
-2.280720137059688568e-01 -3.174159711599349976e+01 -9.242281475104334731e-01
9.211841598153114319e-02 -3.270412153005599976e+01 -9.405245342291834731e-01
4.328166581690311432e-01 -3.373647016286849976e+01 -9.580111064948084731e-01
7.975627519190311432e-01 -3.517689985036849976e+01 -9.834017314948084731e-01
1.186600837856531143e+00 -3.640529340505599976e+01 -1.004367307666683473e+00
7.145549394190311432e-01 -9.250752389430999756e+00 -4.679293193854334731e-01
8.126994706690311432e-01 -9.094380319118499756e+00 -4.639315166510584731e-01
-5.436237715184688568e-01 -3.124208539724349976e+01 -7.681917705573084731e-01
-2.465046308934688568e-01 -3.265761274099349976e+01 -7.872042217291834731e-01
8.271900191903114319e-02 -3.362697309255599976e+01 -7.990908184088709731e-01
4.325725175440311432e-01 -3.474123090505599976e+01 -8.130068340338709731e-01
8.084270097315311432e-01 -3.628395551443099976e+01 -8.332705059088709731e-01
1.206742439419031143e+00 -3.743251508474349976e+01 -8.472628154791834731e-01
7.112590409815311432e-01 -9.159565865993499756e+00 -4.184450664557459731e-01
8.114787675440311432e-01 -9.076802194118499756e+00 -4.162783184088709731e-01
-5.731647871434688568e-01 -3.222853559255599976e+01 -6.293367900885584731e-01
-2.606647871434688568e-01 -3.334499067068099976e+01 -6.384768047369959731e-01
7.466236129403114319e-02 -3.438246625661849976e+01 -6.474337139166834731e-01
4.323283769190311432e-01 -3.574232953786849976e+01 -6.588015117682459731e-01
8.185588456690311432e-01 -3.733388227224349976e+01 -6.723970928229334731e-01
1.234696540981531143e+00 -3.883778852224349976e+01 -6.847719707526209731e-01
7.102824784815311432e-01 -9.143574655055999756e+00 -3.703493633307459731e-01
8.106242753565311432e-01 -9.068623483180999756e+00 -3.686403789557459731e-01
-5.920856855809688568e-01 -3.284450238943099976e+01 -4.799074687994959731e-01
-2.760456465184688568e-01 -3.408998578786849976e+01 -4.846682109869959731e-01
6.489673629403114319e-02 -3.532680219411849976e+01 -4.891542949713709731e-01
4.319621659815311432e-01 -3.668129438161849976e+01 -4.941286602057459731e-01
8.291789628565311432e-01 -3.843214887380599976e+01 -5.012545146979334731e-01
1.249833259731531143e+00 -3.963515180349349976e+01 -5.048098125494959731e-01
7.154094316065311432e-01 -9.321797311305999756e+00 -3.237947979010584731e-01
8.164836503565311432e-01 -9.221211373805999756e+00 -3.222536602057459731e-01
-6.117390058934688568e-01 -3.348305219411849976e+01 -3.240389385260584731e-01
-2.911823652684688568e-01 -3.482204145193099976e+01 -3.240389385260584731e-01
5.635181441903114319e-02 -3.611903852224349976e+01 -3.228792705573084731e-01
4.315959550440311432e-01 -3.771571820974349976e+01 -3.219332256354334731e-01
8.371135331690311432e-01 -3.929152387380599976e+01 -3.206820049323084731e-01
1.245927009731531143e+00 -3.953554242849349976e+01 -3.173403301276209731e-01
7.145549394190311432e-01 -9.309712350368499756e+00 -2.753786602057459731e-01
8.159953691065311432e-01 -9.223042428493499756e+00 -2.740511455573084731e-01
-6.344440840184688568e-01 -3.422389692068099976e+01 -1.629061260260584731e-01
-3.069294355809688568e-01 -3.558388227224349976e+01 -1.557497539557459731e-01
4.658618941903114319e-02 -3.705360883474349976e+01 -1.480288066901209731e-01
4.312297441065311432e-01 -3.885390180349349976e+01 -1.390108623541834731e-01
8.407756425440311432e-01 -3.978236860036849976e+01 -1.324190654791834731e-01
1.254471931606531143e+00 -4.002199262380599976e+01 -1.279024639166834731e-01
7.141887284815311432e-01 -9.316304147243499756e+00 -2.267488994635584731e-01
8.156291581690311432e-01 -9.225483834743499756e+00 -2.261080303229334731e-01
-6.561725996434688568e-01 -3.493092817068099976e+01 5.627199169254026856e-03
-3.236530683934688568e-01 -3.638844770193099976e+01 1.891760444269152686e-02
3.547779098153114319e-02 -3.813075727224349976e+01 3.551916694269152686e-02
4.304973222315311432e-01 -3.976259320974349976e+01 5.161718940362902686e-02
8.473674394190311432e-01 -4.053090375661849976e+01 6.130652045831652686e-02
1.273636970669031143e+00 -4.102345746755599976e+01 6.896643256769152686e-02
7.139445878565311432e-01 -9.320454537868499756e+00 -1.783632793463709731e-01
8.186809159815311432e-01 -9.311299264430999756e+00 -1.772188701666834731e-01
-6.800983808934688568e-01 -3.571120160818099976e+01 1.805997333489415269e-01
-3.445270918309688568e-01 -3.741225141286849976e+01 2.045102558098790269e-01
2.436939254403114319e-02 -3.918837445974349976e+01 2.296567401848790269e-01
4.292766191065311432e-01 -4.017873090505599976e+01 2.454953632317540269e-01
8.789836503565311432e-01 -4.357668012380599976e+01 2.912412128411290269e-01
1.262894783169031143e+00 -4.059975141286849976e+01 2.583127460442540269e-01
1.675370369106531143e+00 -4.041689008474349976e+01 2.598691425286290269e-01
8.148967362940311432e-01 -9.230610787868499756e+00 -1.299013652838709731e-01
-7.073200605809688568e-01 -3.660231488943099976e+01 3.654447040520665269e-01
-3.675983808934688568e-01 -3.855226606130599976e+01 4.014249286614415269e-01
1.448169723153114319e-02 -4.010487836599349976e+01 4.300961933098790269e-01
4.295207597315311432e-01 -4.224647992849349976e+01 4.699521503411290269e-01
8.408977128565311432e-01 -4.026491254568099976e+01 4.404111347161290269e-01
1.635819587856531143e+00 -5.852919477224349976e+01 7.550321063958165269e-01
1.682084236294031143e+00 -4.069167035818099976e+01 4.563718280755040269e-01
8.178264237940311432e-01 -9.313252389430999756e+00 -8.026452446355847314e-02
-7.423542402684688568e-01 -3.776576703786849976e+01 5.642209491692540269e-01
-3.888386152684688568e-01 -3.958742231130599976e+01 6.055722675286290269e-01
3.129158169031143188e-03 -4.117946332693099976e+01 6.433225116692540269e-01
4.419719316065311432e-01 -5.735976117849349976e+01 9.940762958489415269e-01
1.036698494106531143e+00 -5.839674848318099976e+01 1.021786256786441527e+00
1.264359626919031143e+00 -4.084376996755599976e+01 6.477933368645665269e-01
2.223344001919031143e+00 -5.830128949880599976e+01 1.030727907177066527e+00
8.144084550440311432e-01 -9.241475045680999756e+00 -3.326745415105847314e-02
7.633830644190311432e-01 -7.791279733180999756e+00 -8.544344463385584731e-01
8.548137284815311432e-01 -7.816060006618499756e+00 -8.553194561041834731e-01
9.474650956690311432e-01 -7.848896920680999756e+00 -8.569674053229334731e-01
1.041215095669031143e+00 -7.882588326930999756e+00 -8.586458721198084731e-01
1.135453376919031143e+00 -7.916523873805999756e+00 -8.603548564948084731e-01
1.230546150356531143e+00 -7.950825631618499756e+00 -8.620638408698084731e-01
1.326859626919031143e+00 -7.985493600368499756e+00 -8.638033428229334731e-01
1.423295173794031143e+00 -8.016255319118499756e+00 -8.654970684088709731e-01
7.957316972315311432e-01 -8.578511178493499756e+00 -8.607210674323084731e-01
8.953410722315311432e-01 -8.609150826930999756e+00 -8.620028057135584731e-01
9.966594316065311432e-01 -8.653950631618499756e+00 -8.638796367682459731e-01
1.098954353481531143e+00 -8.694600045680999756e+00 -8.657564678229334731e-01
1.201981697231531143e+00 -8.735493600368499756e+00 -8.676485576666834731e-01
1.306473884731531143e+00 -8.783345162868499756e+00 -8.699373760260584731e-01
1.412186775356531143e+00 -8.826802194118499756e+00 -8.722109355963709731e-01
1.519120369106531143e+00 -8.876362740993499756e+00 -8.746065654791834731e-01
8.404094316065311432e-01 -9.661152780055999756e+00 -8.763918437994959731e-01
9.514934159815311432e-01 -9.705220162868499756e+00 -8.781771221198084731e-01
1.062821540981531143e+00 -9.736958444118499756e+00 -8.792757549323084731e-01
1.175492439419031143e+00 -9.769185006618499756e+00 -8.803743877448084731e-01
1.288529548794031143e+00 -9.801533639430999756e+00 -8.814882793463709731e-01
1.402421150356531143e+00 -9.834004342555999756e+00 -8.826021709479334731e-01
1.517533455044031143e+00 -9.866963326930999756e+00 -8.837313213385584731e-01
1.633134040981531143e+00 -9.899922311305999756e+00 -8.848757305182459731e-01
8.534709550440311432e-01 -9.987080514430999756e+00 -8.431887187994959731e-01
9.724895097315311432e-01 -1.012257856130599976e+01 -8.491701641119959731e-01
1.136307869106531143e+00 -1.093959516286849976e+01 -8.905672588385584731e-01
1.262284431606531143e+00 -1.098866742849349976e+01 -8.922762432135584731e-01
1.388871345669031143e+00 -1.103822797536849976e+01 -8.940004863776209731e-01
1.516801033169031143e+00 -1.108815473318099976e+01 -8.957399883307459731e-01
1.646317634731531143e+00 -1.113869184255599976e+01 -8.975100078619959731e-01
1.775712165981531143e+00 -1.118092817068099976e+01 -8.991426982916834731e-01
8.500529862940311432e-01 -9.919209420680999756e+00 -7.881502666510584731e-01
9.720012284815311432e-01 -1.012355512380599976e+01 -7.969851055182459731e-01
1.240311775356531143e+00 -1.263869184255599976e+01 -9.144320049323084731e-01
1.381913337856531143e+00 -1.266994184255599976e+01 -9.149050273932459731e-01
1.523881111294031143e+00 -1.270106977224349976e+01 -9.153780498541834731e-01
1.666825447231531143e+00 -1.273256391286849976e+01 -9.158663311041834731e-01
1.810624275356531143e+00 -1.275990766286849976e+01 -9.161562480963709731e-01
1.958329353481531143e+00 -1.282021039724349976e+01 -9.179720439948084731e-01
8.479777909815311432e-01 -9.880513131618499756e+00 -7.352633037604334731e-01
9.752971269190311432e-01 -1.019789594411849976e+01 -7.476534404791834731e-01
1.367875251919031143e+00 -1.472523969411849976e+01 -9.387087383307459731e-01
1.373368415981531143e+00 -1.256044477224349976e+01 -8.459200420416834731e-01
1.523270759731531143e+00 -1.270131391286849976e+01 -8.508486309088709731e-01
1.860795173794031143e+00 -1.485854047536849976e+01 -9.407686748541834731e-01
2.032792244106531143e+00 -1.495241254568099976e+01 -9.435152568854334731e-01
2.204667244106531143e+00 -1.503163617849349976e+01 -9.460329570807459731e-01
8.465129472315311432e-01 -9.857075631618499756e+00 -6.830477275885584731e-01
9.772502519190311432e-01 -1.024721235036849976e+01 -6.969637432135584731e-01
1.561234626919031143e+00 -1.788771528005599976e+01 -9.848055400885584731e-01
1.368851814419031143e+00 -1.250636762380599976e+01 -7.803835430182459731e-01
1.530106697231531143e+00 -1.279420942068099976e+01 -7.901339092291834731e-01
1.415970955044031143e+00 -1.000771039724349976e+01 -6.843905010260584731e-01
1.527177009731531143e+00 -9.984517037868499756e+00 -6.826509990729334731e-01
1.637650642544031143e+00 -9.961567819118499756e+00 -6.809114971198084731e-01
8.454143144190311432e-01 -9.844502389430999756e+00 -6.317019023932459731e-01
9.693156816065311432e-01 -1.010158246755599976e+01 -6.393618145026209731e-01
1.078202400356531143e+00 -1.003065961599349976e+01 -6.358065166510584731e-01
1.193558845669031143e+00 -1.006093305349349976e+01 -6.358828105963709731e-01
1.305131111294031143e+00 -1.003993695974349976e+01 -6.342806377448084731e-01
1.412186775356531143e+00 -9.972554147243499756e+00 -6.311373271979334731e-01
1.522660408169031143e+00 -9.946675240993499756e+00 -6.296419658698084731e-01
1.632889900356531143e+00 -9.924824655055999756e+00 -6.280245342291834731e-01
8.448039628565311432e-01 -9.840596139430999756e+00 -5.804476299323084731e-01
9.688274003565311432e-01 -1.010255903005599976e+01 -5.870241680182459731e-01
1.019852790981531143e+00 -9.087666451930999756e+00 -5.570711650885584731e-01
1.121537361294031143e+00 -9.059468209743499756e+00 -5.553774395026209731e-01
1.222611580044031143e+00 -9.032978951930999756e+00 -5.537600078619959731e-01
1.321854744106531143e+00 -8.990010201930999756e+00 -5.516695537604334731e-01
1.422928962856531143e+00 -8.969014108180999756e+00 -5.502047100104334731e-01
1.523392830044031143e+00 -8.948018014430999756e+00 -5.487398662604334731e-01
8.146525956690311432e-01 -9.123433053493499756e+00 -5.122866191901209731e-01
9.163371659815311432e-01 -9.089619576930999756e+00 -5.105623760260584731e-01
1.017777595669031143e+00 -9.060566842555999756e+00 -5.089602031744959731e-01
1.119218025356531143e+00 -9.033223092555999756e+00 -5.074038066901209731e-01
1.220048103481531143e+00 -9.007588326930999756e+00 -5.058779277838709731e-01
1.321366462856531143e+00 -8.990864694118499756e+00 -5.045809307135584731e-01
1.422440681606531143e+00 -8.969868600368499756e+00 -5.031618633307459731e-01
1.522904548794031143e+00 -8.948872506618499756e+00 -5.017733135260584731e-01
8.129436112940311432e-01 -9.094136178493499756e+00 -4.639315166510584731e-01
9.143840409815311432e-01 -9.060688912868499756e+00 -4.623293437994959731e-01
1.015458259731531143e+00 -9.031636178493499756e+00 -4.608339824713709731e-01
1.116654548794031143e+00 -9.004536569118499756e+00 -4.593538799323084731e-01
1.217240486294031143e+00 -8.978901803493499756e+00 -4.579195537604334731e-01
1.321000251919031143e+00 -8.991841256618499756e+00 -4.572329082526209731e-01
1.421952400356531143e+00 -8.970723092555999756e+00 -4.558901348151209731e-01
1.522416267544031143e+00 -8.949726998805999756e+00 -4.545473613776209731e-01
8.118449784815311432e-01 -9.076435983180999756e+00 -4.162630596198084731e-01
9.129191972315311432e-01 -9.042622506618499756e+00 -4.147829570807459731e-01
1.013871345669031143e+00 -9.013081490993499756e+00 -4.133791484869959731e-01
1.114823494106531143e+00 -8.985127389430999756e+00 -4.119905986823084731e-01
1.215165290981531143e+00 -8.959004342555999756e+00 -4.106325664557459731e-01
1.315385017544031143e+00 -8.935688912868499756e+00 -4.093203105963709731e-01
1.415726814419031143e+00 -8.913716256618499756e+00 -4.080233135260584731e-01
1.515702400356531143e+00 -8.893574655055999756e+00 -4.067720928229334731e-01
8.109904862940311432e-01 -9.068379342555999756e+00 -3.686251201666834731e-01
9.121867753565311432e-01 -9.035908639430999756e+00 -3.672823467291834731e-01
1.013016853481531143e+00 -9.007466256618499756e+00 -3.662294902838709731e-01
1.113969001919031143e+00 -8.980732858180999756e+00 -3.649477520026209731e-01
1.214310798794031143e+00 -8.956074655055999756e+00 -3.636965312994959731e-01
1.314530525356531143e+00 -8.932881295680999756e+00 -3.624605693854334731e-01
1.414872322231531143e+00 -8.910908639430999756e+00 -3.609804668463709731e-01
1.514847908169031143e+00 -8.891133248805999756e+00 -3.597902812994959731e-01
8.168498612940311432e-01 -9.220967233180999756e+00 -3.222536602057459731e-01
9.195109941065311432e-01 -9.189473092555999756e+00 -3.210176982916834731e-01
1.021927986294031143e+00 -9.160664498805999756e+00 -3.197817363776209731e-01
1.124344978481531143e+00 -9.133564889430999756e+00 -3.185762920416834731e-01
1.226273689419031143e+00 -9.108540475368499756e+00 -3.173861064948084731e-01
1.327836189419031143e+00 -9.084858834743499756e+00 -3.161959209479334731e-01
1.429642830044031143e+00 -9.062153756618499756e+00 -3.150209941901209731e-01
1.531083259731531143e+00 -9.041401803493499756e+00 -3.138613262213709731e-01
8.163615800440311432e-01 -9.222920358180999756e+00 -2.740511455573084731e-01
9.187785722315311432e-01 -9.184590280055999756e+00 -2.731661357916834731e-01
1.021073494106531143e+00 -9.156147897243499756e+00 -2.720369854010584731e-01
1.123490486294031143e+00 -9.129292428493499756e+00 -2.709230937994959731e-01
1.225419197231531143e+00 -9.104512155055999756e+00 -2.698092021979334731e-01
1.327103767544031143e+00 -9.081318795680999756e+00 -2.686953105963709731e-01
1.428788337856531143e+00 -9.059101998805999756e+00 -2.675814189948084731e-01
1.530228767544031143e+00 -9.038594186305999756e+00 -2.662233867682459731e-01
8.159953691065311432e-01 -9.225239694118499756e+00 -2.261080303229334731e-01
9.185344316065311432e-01 -9.188374459743499756e+00 -2.251009502448084731e-01
1.020829353481531143e+00 -9.159810006618499756e+00 -2.240633525885584731e-01
1.123246345669031143e+00 -9.132954537868499756e+00 -2.230257549323084731e-01
1.225175056606531143e+00 -9.108174264430999756e+00 -2.219881572760584731e-01
1.326859626919031143e+00 -9.084980905055999756e+00 -2.209505596198084731e-01
1.428666267544031143e+00 -9.062764108180999756e+00 -2.199129619635584731e-01
1.529984626919031143e+00 -9.042134225368499756e+00 -2.188601055182459731e-01
8.190471269190311432e-01 -9.311177194118499756e+00 -1.772036113776209731e-01
9.181682206690311432e-01 -9.192524850368499756e+00 -1.772493877448084731e-01
1.020585212856531143e+00 -9.163960397243499756e+00 -1.763186016119959731e-01
1.123124275356531143e+00 -9.137104928493499756e+00 -1.753572979010584731e-01
1.225052986294031143e+00 -9.112324655055999756e+00 -1.744112529791834731e-01
1.326737556606531143e+00 -9.089131295680999756e+00 -1.734346904791834731e-01
1.428544197231531143e+00 -9.066792428493499756e+00 -1.724581279791834731e-01
1.529984626919031143e+00 -9.046284615993499756e+00 -1.712221660651209731e-01
8.152629472315311432e-01 -9.230366647243499756e+00 -1.299013652838709731e-01
9.179240800440311432e-01 -9.197529733180999756e+00 -1.291079082526209731e-01
1.020463142544031143e+00 -9.169087350368499756e+00 -1.282686748541834731e-01
1.123002205044031143e+00 -9.142231881618499756e+00 -1.273989238776209731e-01
1.224930915981531143e+00 -9.117329537868499756e+00 -1.265291729010584731e-01
1.326615486294031143e+00 -9.094258248805999756e+00 -1.256289043463709731e-01
1.428544197231531143e+00 -9.071919381618499756e+00 -1.247133770026209731e-01
1.529984626919031143e+00 -9.051289498805999756e+00 -1.237825908698084731e-01
8.181926347315311432e-01 -9.313130319118499756e+00 -8.026452446355847314e-02
9.178020097315311432e-01 -9.203267037868499756e+00 -8.092065239324597314e-02
1.020341072231531143e+00 -9.174824655055999756e+00 -8.043237114324597314e-02
1.122880134731531143e+00 -9.147969186305999756e+00 -7.965417290105847314e-02
1.224808845669031143e+00 -9.123066842555999756e+00 -7.884545708074597314e-02
1.326615486294031143e+00 -9.099873483180999756e+00 -7.802148247137097314e-02
1.428544197231531143e+00 -9.077656686305999756e+00 -7.692284965887097314e-02
1.530106697231531143e+00 -9.057026803493499756e+00 -7.605309868230847314e-02
8.147746659815311432e-01 -9.241230905055999756e+00 -3.326745415105847314e-02
9.176799394190311432e-01 -9.210713326930999756e+00 -3.290124321355847314e-02
1.020219001919031143e+00 -9.182148873805999756e+00 -3.224511528387097314e-02
1.122880134731531143e+00 -9.155293405055999756e+00 -3.155846977605847314e-02
1.224930915981531143e+00 -9.130513131618499756e+00 -3.084130669012097314e-02
1.326737556606531143e+00 -9.107319772243499756e+00 -3.007836723699597314e-02
1.428788337856531143e+00 -9.085102975368499756e+00 -2.930016899480847314e-02
1.530350837856531143e+00 -9.064595162868499756e+00 -2.823205376043347314e-02
1.423661384731531143e+00 -8.016743600368499756e+00 -8.655275859869959731e-01
1.521317634731531143e+00 -8.050923287868499756e+00 -8.672823467291834731e-01
1.619462165981531143e+00 -8.081196725368499756e+00 -8.690065898932459731e-01
1.718827400356531143e+00 -8.111958444118499756e+00 -8.707613506354334731e-01
1.818802986294031143e+00 -8.142964303493499756e+00 -8.725313701666834731e-01
1.918412361294031143e+00 -8.165791451930999756e+00 -8.737673320807459731e-01
2.018265876919031143e+00 -8.183491647243499756e+00 -8.746676006354334731e-01
2.117631111294031143e+00 -8.197163522243499756e+00 -8.755220928229334731e-01
1.519486580044031143e+00 -8.876973092555999756e+00 -8.746370830573084731e-01
1.627030525356531143e+00 -8.920674264430999756e+00 -8.769564189948084731e-01
1.734452400356531143e+00 -8.954609811305999756e+00 -8.784060039557459731e-01
1.841508064419031143e+00 -8.976582467555999756e+00 -8.793978252448084731e-01
1.948929939419031143e+00 -8.998677194118499756e+00 -8.803743877448084731e-01
2.057084236294031143e+00 -9.020893990993499756e+00 -8.813814678229334731e-01
2.165604744106531143e+00 -9.038350045680999756e+00 -8.823427715338709731e-01
2.275468025356531143e+00 -9.060933053493499756e+00 -8.833498516119959731e-01
1.633500251919031143e+00 -9.900410592555999756e+00 -8.848909893073084731e-01
1.749344978481531143e+00 -9.927998483180999756e+00 -8.859743633307459731e-01
1.866166267544031143e+00 -9.955708444118499756e+00 -8.870882549323084731e-01
1.984208259731531143e+00 -9.983906686305999756e+00 -8.882021465338709731e-01
2.102860603481531143e+00 -1.001210492849349976e+01 -8.893160381354334731e-01
2.222489509731531143e+00 -1.004066938161849976e+01 -8.904451885260584731e-01
2.343461189419031143e+00 -1.006947797536849976e+01 -8.915895977057459731e-01
2.392899665981531143e+00 -9.705220162868499756e+00 -8.708681621588709731e-01
1.776200447231531143e+00 -1.118129438161849976e+01 -8.991579570807459731e-01
1.908036384731531143e+00 -1.123402875661849976e+01 -9.009584941901209731e-01
2.040238533169031143e+00 -1.127858442068099976e+01 -9.026522197760584731e-01
2.174271736294031143e+00 -1.132362836599349976e+01 -9.043612041510584731e-01
2.309159431606531143e+00 -1.136903852224349976e+01 -9.060854473151209731e-01
2.445389900356531143e+00 -1.141481488943099976e+01 -9.078249492682459731e-01
2.583695564419031143e+00 -1.146217817068099976e+01 -9.096407451666834731e-01
2.376542244106531143e+00 -9.619282662868499756e+00 -8.154177227057459731e-01
1.958939705044031143e+00 -1.282094281911849976e+01 -9.179873027838709731e-01
2.108231697231531143e+00 -1.288136762380599976e+01 -9.200624980963709731e-01
2.259354744106531143e+00 -1.294252485036849976e+01 -9.221529521979334731e-01
2.412675056606531143e+00 -1.300465863943099976e+01 -9.242586650885584731e-01
2.567216072231531143e+00 -1.306728070974349976e+01 -9.264101543463709731e-01
2.723710212856531143e+00 -1.313063520193099976e+01 -9.285616436041834731e-01
2.882523689419031143e+00 -1.319496625661849976e+01 -9.307589092291834731e-01
2.367875251919031143e+00 -9.575947701930999756e+00 -7.624849834479334731e-01
2.205399665981531143e+00 -1.503273481130599976e+01 -9.460634746588709731e-01
2.382157478481531143e+00 -1.513515180349349976e+01 -9.489779033698084731e-01
2.559525642544031143e+00 -1.522340863943099976e+01 -9.516787090338709731e-01
2.740067634731531143e+00 -1.531300824880599976e+01 -9.544405498541834731e-01
2.919633064419031143e+00 -1.538539594411849976e+01 -9.564394512213709731e-01
3.095658455044031143e+00 -1.542384809255599976e+01 -9.570345439948084731e-01
2.260087165981531143e+00 -9.599141061305999756e+00 -7.134127178229334731e-01
2.362137947231531143e+00 -9.548115670680999756e+00 -7.108950176276209731e-01
1.638016853481531143e+00 -9.961445748805999756e+00 -6.808962383307459731e-01
1.748246345669031143e+00 -9.938374459743499756e+00 -6.792788066901209731e-01
1.858353767544031143e+00 -9.915303170680999756e+00 -6.776766338385584731e-01
1.968705330044031143e+00 -9.892231881618499756e+00 -6.760592021979334731e-01
2.078568611294031143e+00 -9.869282662868499756e+00 -6.744570293463709731e-01
2.188309822231531143e+00 -9.846211373805999756e+00 -6.728395977057459731e-01
2.255936775356531143e+00 -9.578511178493499756e+00 -6.621737041510584731e-01
