-2.622267365455627441e+00 -2.824997645616531372e+01 3.637874898035136084e-01
-4.998308420181274414e-01 -6.878028213977813721e+00 -8.358127299230488916e-01
-4.169450998306274414e-01 -6.920142471790313721e+00 -8.373996439855488916e-01
-3.330827951431274414e-01 -6.958960831165313721e+00 -8.389712992589863916e-01
-2.483659982681274414e-01 -6.998389542102813721e+00 -8.405734721105488916e-01
-1.630388498306274414e-01 -7.035498917102813721e+00 -8.420077982824238916e-01
-7.673513889312744141e-02 -7.064307510852813721e+00 -8.428928080480488916e-01
1.042306423187255859e-02 -7.093360245227813721e+00 -8.437778178136738916e-01
9.782540798187255859e-02 -7.118750870227813721e+00 -8.446323100011738916e-01
-5.700212717056274414e-01 -7.588477432727813721e+00 -8.401920023839863916e-01
-4.802995920181274414e-01 -7.633155167102813721e+00 -8.419009867589863916e-01
-3.900896310806274414e-01 -7.682471573352813721e+00 -8.436557475011738916e-01
-2.984148263931274414e-01 -7.728125870227813721e+00 -8.453952494542988916e-01
-2.063738107681274414e-01 -7.774146378040313721e+00 -8.471500101964863916e-01
-1.131120920181274414e-01 -7.810889542102813721e+00 -8.483401957433613916e-01
-1.850759983062744141e-02 -7.840308487415313721e+00 -8.492862406652363916e-01
7.609689235687255859e-02 -7.873999893665313721e+00 -8.502628031652363916e-01
-6.560808420181274414e-01 -8.458472549915313721e+00 -8.471957865636738916e-01
-5.590349435806274414e-01 -8.520362198352813721e+00 -8.496219340246113916e-01
-4.602800607681274414e-01 -8.573828995227813721e+00 -8.515445414464863916e-01
-3.592058420181274414e-01 -8.612647354602813721e+00 -8.526126566808613916e-01
-2.578874826431274414e-01 -8.651587784290313721e+00 -8.536807719152363916e-01
-1.560808420181274414e-01 -8.694556534290313721e+00 -8.549777689855488916e-01
-5.366384983062744141e-02 -8.749732315540313721e+00 -8.569614115636738916e-01
4.936349391937255859e-02 -8.805274307727813721e+00 -8.589603129308613916e-01
-7.660661935806274414e-01 -9.572364151477813721e+00 -8.593723002355488916e-01
-6.579118967056274414e-01 -9.634497940540313721e+00 -8.611423197667988916e-01
-5.481706857681274414e-01 -9.689673721790313721e+00 -8.628360453527363916e-01
-4.370867013931274414e-01 -9.745703995227813721e+00 -8.645297709386738916e-01
-3.253923654556274414e-01 -9.801856338977813721e+00 -8.662387553136738916e-01
-2.128435373306274414e-01 -9.858619034290313721e+00 -8.679782572667988916e-01
-9.944021701812744141e-02 -9.932593643665313721e+00 -8.705875101964863916e-01
1.481759548187255859e-02 -1.000595790147781372e+01 -8.734561625402363916e-01
-9.027849435806274414e-01 -1.095566493272781372e+01 -8.740512553136738916e-01
-7.802263498306274414e-01 -1.101181727647781372e+01 -8.754245463292988916e-01
-6.566911935806274414e-01 -1.106833583116531372e+01 -8.767978373449238916e-01
-5.318132638931274414e-01 -1.112558680772781372e+01 -8.781863871496113916e-01
-4.064470529556274414e-01 -1.118295985460281372e+01 -8.795901957433613916e-01
-2.801042795181274414e-01 -1.124082118272781372e+01 -8.809940043371113916e-01
-1.530290842056274414e-01 -1.131857997179031372e+01 -8.833438578527363916e-01
-2.583181858062744141e-02 -1.142075282335281372e+01 -8.868381205480488916e-01
-1.116163849830627441e+00 -1.311655360460281372e+01 -9.104129496496113916e-01
-9.728533029556274414e-01 -1.318332606554031372e+01 -9.114352885167988916e-01
-8.274675607681274414e-01 -1.323764735460281372e+01 -9.122592631261738916e-01
-6.806169748306274414e-01 -1.329257899522781372e+01 -9.130984965246113916e-01
-5.334001779556274414e-01 -1.334751063585281372e+01 -9.139377299230488916e-01
-3.853288888931274414e-01 -1.340280848741531372e+01 -9.147769633214863916e-01
-2.357927560806274414e-01 -1.345871669054031372e+01 -9.156314555089863916e-01
-8.625662326812744141e-02 -1.352719813585281372e+01 -9.174014750402363916e-01
-1.706373810768127441e+00 -1.909641200304031372e+01 -1.076398057071486392e+00
-1.172316193580627441e+00 -1.542905360460281372e+01 -9.306613627355488916e-01
-1.013746857643127441e+00 -1.560324794054031372e+01 -9.357425394933613916e-01
-8.515154123306274414e-01 -1.578147059679031372e+01 -9.409305277746113916e-01
-6.868425607681274414e-01 -1.596250087022781372e+01 -9.462100687902363916e-01
-5.188738107681274414e-01 -1.614707118272781372e+01 -9.515964213292988916e-01
-3.469988107681274414e-01 -1.633591395616531372e+01 -9.571048441808613916e-01
-1.758562326431274414e-01 -1.665232020616531372e+01 -9.675113383214863916e-01
-1.907911896705627441e+00 -2.113291102647781372e+01 -1.050961655704298892e+00
-1.729323029518127441e+00 -2.171066981554031372e+01 -1.068692368594923892e+00
-1.564650177955627441e+00 -2.260825282335281372e+01 -1.096753281680861392e+00
-1.346144318580627441e+00 -2.299143153429031372e+01 -1.107525986758986392e+00
-1.128615021705627441e+00 -2.350290614366531372e+01 -1.122647446719923892e+00
-9.084001779556274414e-01 -2.416464930772781372e+01 -1.142789048282423892e+00
-6.959978342056274414e-01 -2.538559657335281372e+01 -1.182507676212111392e+00
-4.365984201431274414e-01 -2.577085047960281372e+01 -1.192975205508986392e+00
-2.028395295143127441e+00 -2.234641200304031372e+01 -9.814578715246113916e-01
-1.822950959205627441e+00 -2.275827723741531372e+01 -9.914981547277363916e-01
-1.612745881080627441e+00 -2.321005946397781372e+01 -1.002667588321486392e+00
-1.411085724830627441e+00 -2.392612391710281372e+01 -1.021603745548048892e+00
-1.231764435768127441e+00 -2.524887782335281372e+01 -1.058407944766798892e+00
-9.900652170181274414e-01 -2.582712489366531372e+01 -1.072949570743361392e+00
-7.320085763931274414e-01 -2.629428797960281372e+01 -1.084119004337111392e+00
-4.770036935806274414e-01 -2.714865809679031372e+01 -1.106564683048048892e+00
-2.095045685768127441e+00 -2.301377040147781372e+01 -8.874637308996113916e-01
-1.886427521705627441e+00 -2.346506434679031372e+01 -8.966342631261738916e-01
-1.688795685768127441e+00 -2.416635829210281372e+01 -9.120151225011738916e-01
-1.498732209205627441e+00 -2.519187098741531372e+01 -9.354221049230488916e-01
-1.284620881080627441e+00 -2.613523036241531372e+01 -9.566013041417988916e-01
-1.042677521705627441e+00 -2.688877040147781372e+01 -9.728671732824238916e-01
-7.956072092056274414e-01 -2.791648036241531372e+01 -9.958163920324238916e-01
-5.266863107681274414e-01 -2.884775477647781372e+01 -1.016186875430861392e+00
-2.166212677955627441e+00 -2.372714930772781372e+01 -7.876865092199238916e-01
-1.971022248268127441e+00 -2.440952235460281372e+01 -7.995425883214863916e-01
-1.765944123268127441e+00 -2.513608485460281372e+01 -8.122073832433613916e-01
-1.548414826393127441e+00 -2.590134364366531372e+01 -8.255283060949238916e-01
-1.338209748268127441e+00 -2.703244715929031372e+01 -8.461887064855488916e-01
-1.100905060768127441e+00 -2.806528407335281372e+01 -8.646671000402363916e-01
-8.323503732681274414e-01 -2.883676844835281372e+01 -8.776675883214863916e-01
-5.630632638931274414e-01 -3.007395106554031372e+01 -8.999149027746113916e-01
-2.224562287330627441e+00 -2.431015712022781372e+01 -6.798526469152363916e-01
-2.031324982643127441e+00 -2.507944422960281372e+01 -6.899997416417988916e-01
-1.814772248268127441e+00 -2.574521571397781372e+01 -6.983615580480488916e-01
-1.611281037330627441e+00 -2.680454188585281372e+01 -7.128726664464863916e-01
-1.377882599830627441e+00 -2.769174891710281372e+01 -7.244998637121113916e-01
-1.145949006080627441e+00 -2.896774989366531372e+01 -7.420779887121113916e-01
-8.745867013931274414e-01 -2.990244227647781372e+01 -7.541019144933613916e-01
-5.832048654556274414e-01 -3.073679286241531372e+01 -7.644168558996113916e-01
-2.277540802955627441e+00 -2.483798915147781372e+01 -5.653964701574238916e-01
-2.086866974830627441e+00 -2.569602137804031372e+01 -5.730258646886738916e-01
-1.880812287330627441e+00 -2.657224208116531372e+01 -5.814334574621113916e-01
-1.650343537330627441e+00 -2.735849696397781372e+01 -5.879947367589863916e-01
-1.427809357643127441e+00 -2.852536708116531372e+01 -5.987216654699238916e-01
-1.184034943580627441e+00 -2.972837001085281372e+01 -6.096622172277363916e-01
-9.011980295181274414e-01 -3.055783778429031372e+01 -6.154605570714863916e-01
-6.128679513931274414e-01 -3.172360926866531372e+01 -6.255923930089863916e-01
-2.331251740455627441e+00 -2.537302333116531372e+01 -4.467746439855488916e-01
-2.144728302955627441e+00 -2.633762294054031372e+01 -4.512454691808613916e-01
-1.924269318580627441e+00 -2.711142665147781372e+01 -4.542514506261738916e-01
-1.694777131080627441e+00 -2.799155360460281372e+01 -4.578525248449238916e-01
-1.469435334205627441e+00 -2.921677333116531372e+01 -4.636050883214863916e-01
-1.215895295143127441e+00 -3.035727626085281372e+01 -4.686252299230488916e-01
-9.312273263931274414e-01 -3.130258876085281372e+01 -4.721805277746113916e-01
-6.319109201431274414e-01 -3.234189540147781372e+01 -4.762088480871113916e-01
-2.383375763893127441e+00 -2.589121180772781372e+01 -3.225528422277363916e-01
-2.191725373268127441e+00 -2.685617762804031372e+01 -3.233005228917988916e-01
-1.968092560768127441e+00 -2.765610438585281372e+01 -3.228580180089863916e-01
-1.749342560768127441e+00 -2.876938563585281372e+01 -3.229495707433613916e-01
-1.502394318580627441e+00 -2.975888758897781372e+01 -3.226291361730488916e-01
-1.245436310768127441e+00 -3.093991786241531372e+01 -3.225375834386738916e-01
-9.573503732681274414e-01 -3.194675379991531372e+01 -3.219272318761738916e-01
-6.515642404556274414e-01 -3.297812587022781372e+01 -3.203708353917988916e-01
-2.429518342018127441e+00 -2.634885340929031372e+01 -1.943790141027363916e-01
-2.236403107643127441e+00 -2.734848719835281372e+01 -1.899539652746113916e-01
-2.018995881080627441e+00 -2.828928309679031372e+01 -1.855136576574238916e-01
-1.787184357643127441e+00 -2.930368739366531372e+01 -1.807529154699238916e-01
-1.540358185768127441e+00 -3.038547450304031372e+01 -1.756869975011738916e-01
-1.273878693580627441e+00 -3.149936610460281372e+01 -1.703616801183613916e-01
-9.811540842056274414e-01 -3.252561122179031372e+01 -1.651279154699238916e-01
-6.742693185806274414e-01 -3.371958094835281372e+01 -1.592685404699238916e-01
-2.475782990455627441e+00 -2.680808192491531372e+01 -6.130711468867389158e-02
-2.281324982643127441e+00 -2.784372645616531372e+01 -5.279271039179889158e-02
-2.064528107643127441e+00 -2.885337001085281372e+01 -4.360691937617389158e-02
-1.823195099830627441e+00 -2.981186610460281372e+01 -3.461949261836139158e-02
-1.575026154518127441e+00 -3.095566493272781372e+01 -2.419773968867389158e-02
-1.301954865455627441e+00 -3.204965907335281372e+01 -1.397435101679889158e-02
-1.005324006080627441e+00 -3.311606532335281372e+01 -3.796738712111391578e-03
-6.959978342056274414e-01 -3.442539149522781372e+01 9.203749569138608422e-03
-2.525099396705627441e+00 -2.729770594835281372e+01 7.560999956913860842e-02
-2.326002717018127441e+00 -2.833444911241531372e+01 8.958705035038860842e-02
-2.107374787330627441e+00 -2.938376551866531372e+01 1.038387593347636084e-01
-1.865675568580627441e+00 -3.041379481554031372e+01 1.180294331628886084e-01
-1.606398224830627441e+00 -3.146872645616531372e+01 1.326320942957011084e-01
-1.330763459205627441e+00 -3.261203700304031372e+01 1.484249409753886084e-01
-1.033888459205627441e+00 -3.381662684679031372e+01 1.651027974207011084e-01
-7.199236154556274414e-01 -3.520639735460281372e+01 1.841610249597636084e-01
-2.575148224830627441e+00 -2.779416590929031372e+01 2.178371724207011084e-01
-2.370680451393127441e+00 -2.882578212022781372e+01 2.364681538660136084e-01
-2.148756623268127441e+00 -2.989487391710281372e+01 2.550686177332011084e-01
-1.902418732643127441e+00 -3.092990809679031372e+01 2.740047749597636084e-01
-1.639479279518127441e+00 -3.201169520616531372e+01 2.938259419519511084e-01
-1.360304474830627441e+00 -3.319150477647781372e+01 3.153866108972636084e-01
-1.063063263893127441e+00 -3.453415614366531372e+01 3.407009419519511084e-01
-7.470232248306274414e-01 -3.609433680772781372e+01 3.689144429285136084e-01
-2.622023224830627441e+00 -2.825815516710281372e+01 3.639705952722636084e-01
-2.416456818580627441e+00 -2.932981044054031372e+01 3.873775776941386084e-01
-2.190626740455627441e+00 -3.041135340929031372e+01 4.118526753503886084e-01
-1.938795685768127441e+00 -3.144174891710281372e+01 4.354122456628886084e-01
-1.673903107643127441e+00 -3.257407313585281372e+01 4.612148579675761084e-01
-1.396437287330627441e+00 -3.390354090929031372e+01 4.913051899988261084e-01
-1.095778107643127441e+00 -3.534067469835281372e+01 5.238369282800761084e-01
-7.821794748306274414e-01 -3.725754481554031372e+01 5.676449116785136084e-01
9.806954860687255859e-02 -7.118750870227813721e+00 -8.446323100011738916e-01
1.858381032943725586e-01 -7.147193253040313721e+00 -8.455325785558613916e-01
2.742170095443725586e-01 -7.171973526477813721e+00 -8.463870707433613916e-01
3.634504079818725586e-01 -7.196997940540313721e+00 -8.472568217199238916e-01
4.528058767318725586e-01 -7.222022354602813721e+00 -8.481418314855488916e-01
5.426496267318725586e-01 -7.247290909290313721e+00 -8.490115824621113916e-01
6.334699392318725586e-01 -7.272681534290313721e+00 -8.498965922277363916e-01
7.241681814193725586e-01 -7.294287979602813721e+00 -8.507663432042988916e-01
7.634103298187255859e-02 -7.873999893665313721e+00 -8.502628031652363916e-01
1.716779470443725586e-01 -7.903052628040313721e+00 -8.512088480871113916e-01
2.675031423568725586e-01 -7.936744034290313721e+00 -8.522006693761738916e-01
3.643049001693725586e-01 -7.966162979602813721e+00 -8.531619730871113916e-01
4.614728689193725586e-01 -7.995826065540313721e+00 -8.541385355871113916e-01
5.591291189193725586e-01 -8.025611221790313721e+00 -8.550998392980488916e-01
6.576398611068725586e-01 -8.051245987415313721e+00 -8.560458842199238916e-01
7.565168142318725586e-01 -8.081397354602813721e+00 -8.570377055089863916e-01
4.960763454437255859e-02 -8.805396378040313721e+00 -8.589603129308613916e-01
1.538556814193725586e-01 -8.856421768665313721e+00 -8.609439555089863916e-01
2.589582204818725586e-01 -8.907935440540313721e+00 -8.629428568761738916e-01
3.655256032943725586e-01 -8.960059463977813721e+00 -8.649570170324238916e-01
4.728254079818725586e-01 -9.012671768665313721e+00 -8.670016947667988916e-01
5.812238454818725586e-01 -9.065772354602813721e+00 -8.690616312902363916e-01
6.909650564193725586e-01 -9.120459854602813721e+00 -8.711978617589863916e-01
8.010724782943725586e-01 -9.164038956165313721e+00 -8.727084818761738916e-01
1.518380641937255859e-02 -1.000620204210281372e+01 -8.734561625402363916e-01
1.312726736068725586e-01 -1.006259852647781372e+01 -8.750888529699238916e-01
2.484601736068725586e-01 -1.010593348741531372e+01 -8.763095560949238916e-01
3.669904470443725586e-01 -1.014975672960281372e+01 -8.775607767980488916e-01
4.860090017318725586e-01 -1.019370204210281372e+01 -8.787967387121113916e-01
6.060041189193725586e-01 -1.023801356554031372e+01 -8.800479594152363916e-01
7.274640798568725586e-01 -1.029099208116531372e+01 -8.817416850011738916e-01
8.141340017318725586e-01 -9.490332901477813721e+00 -8.395358744542988916e-01
-2.534353733062744141e-02 -1.142099696397781372e+01 -8.868381205480488916e-01
1.039289236068725586e-01 -1.151767665147781372e+01 -8.903018656652363916e-01
2.352765798568725586e-01 -1.161582118272781372e+01 -8.938113871496113916e-01
3.689435720443725586e-01 -1.171579676866531372e+01 -8.973819437902363916e-01
5.043195486068725586e-01 -1.181687098741531372e+01 -9.009830180089863916e-01
6.416486501693725586e-01 -1.191953212022781372e+01 -9.046451273839863916e-01
7.815412282943725586e-01 -1.202402430772781372e+01 -9.083835307042988916e-01
8.108381032943725586e-01 -9.422583878040313721e+00 -7.844974223058613916e-01
-8.576834201812744141e-02 -1.352732020616531372e+01 -9.174014750402363916e-01
6.450021266937255859e-02 -1.363071376085281372e+01 -9.201327982824238916e-01
2.168439626693725586e-01 -1.372177821397781372e+01 -9.226962748449238916e-01
3.716291189193725586e-01 -1.381418544054031372e+01 -9.252902689855488916e-01
5.277570486068725586e-01 -1.390732508897781372e+01 -9.278995219152363916e-01
6.857160329818725586e-01 -1.400168544054031372e+01 -9.305545512121113916e-01
8.459943532943725586e-01 -1.408994227647781372e+01 -9.329196635167988916e-01
8.087629079818725586e-01 -9.383765518665313721e+00 -7.316104594152363916e-01
-1.752458810806274414e-01 -1.665207606554031372e+01 -9.674960795324238916e-01
7.737517356872558594e-03 -1.666696864366531372e+01 -9.664432230871113916e-01
1.909650564193725586e-01 -1.668198329210281372e+01 -9.653903666417988916e-01
3.752912282943725586e-01 -1.675131922960281372e+01 -9.663974467199238916e-01
5.607160329818725586e-01 -1.685129481554031372e+01 -9.685794535558613916e-01
7.482160329818725586e-01 -1.695224696397781372e+01 -9.707919779699238916e-01
9.374250173568725586e-01 -1.702487879991531372e+01 -9.718906107824238916e-01
8.072980642318725586e-01 -9.360450088977813721e+00 -6.793948832433613916e-01
-4.357439279556274414e-01 -2.577292567491531372e+01 -1.193036240665236392e+00
-7.612478733062744141e-02 -2.115805751085281372e+01 -1.034192246524611392e+00
1.119855642318725586e-01 -2.582785731554031372e+01 -1.189328354923048892e+00
3.832257986068725586e-01 -2.273972254991531372e+01 -1.082837266055861392e+00
6.250470876693725586e-01 -2.255600672960281372e+01 -1.074490708438673892e+00
8.640607595443725586e-01 -2.241147547960281372e+01 -1.067486924258986392e+00
1.105149626731872559e+00 -2.239609462022781372e+01 -1.065411728946486392e+00
8.061994314193725586e-01 -9.347754776477813721e+00 -6.280337992589863916e-01
-4.765154123306274414e-01 -2.716232997179031372e+01 -1.106961411563673892e+00
-2.229753732681274414e-01 -2.901560145616531372e+01 -1.158642930118361392e+00
7.524240016937255859e-02 -2.996408778429031372e+01 -1.183591050235548892e+00
3.931134939193725586e-01 -3.053781825304031372e+01 -1.197446030704298892e+00
7.286847829818725586e-01 -3.176792079210281372e+01 -1.230252427188673892e+00
1.089402556419372559e+00 -3.302072840929031372e+01 -1.263501328555861392e+00
1.465867400169372559e+00 -3.393894129991531372e+01 -1.286862534610548892e+00
8.055890798568725586e-01 -9.343848526477813721e+00 -5.767795267980488916e-01
-5.260759592056274414e-01 -2.886130458116531372e+01 -1.016507310001173892e+00
-2.471452951431274414e-01 -3.024838954210281372e+01 -1.048016709415236392e+00
6.413400173187255859e-02 -3.111093837022781372e+01 -1.066388291446486392e+00
3.937238454818725586e-01 -3.198264247179031372e+01 -1.084805649844923892e+00
7.450422048568725586e-01 -3.333786708116531372e+01 -1.114880723087111392e+00
1.117234587669372559e+00 -3.439829188585281372e+01 -1.137555283633986392e+00
1.525925993919372559e+00 -3.591171962022781372e+01 -1.171002549258986392e+00
7.754377126693725586e-01 -8.626807510852813721e+00 -5.086337748449238916e-01
-5.620867013931274414e-01 -3.007858973741531372e+01 -9.000064555089863916e-01
-2.669206857681274414e-01 -3.124472743272781372e+01 -9.205600443761738916e-01
5.326974391937255859e-02 -3.220725184679031372e+01 -9.368564310949238916e-01
3.939679861068725586e-01 -3.323960047960281372e+01 -9.543430033605488916e-01
7.587140798568725586e-01 -3.468003016710281372e+01 -9.797336283605488916e-01
1.147752165794372559e+00 -3.590842372179031372e+01 -1.000699204532423892e+00
6.757062673568725586e-01 -8.753882706165313721e+00 -4.642612162511738916e-01
7.738507986068725586e-01 -8.597510635852813721e+00 -4.602634135167988916e-01
-5.824724435806274414e-01 -3.074521571397781372e+01 -7.645236674230488916e-01
-2.853533029556274414e-01 -3.216074305772781372e+01 -7.835361185949238916e-01
4.387032985687255859e-02 -3.313010340929031372e+01 -7.954227152746113916e-01
3.937238454818725586e-01 -3.424436122179031372e+01 -8.093387308996113916e-01
7.695783376693725586e-01 -3.578708583116531372e+01 -8.296024027746113916e-01
1.167893767356872559e+00 -3.693564540147781372e+01 -8.435947123449238916e-01
6.724103689193725586e-01 -8.662696182727813721e+00 -4.147769633214863916e-01
7.726300954818725586e-01 -8.579932510852813721e+00 -4.126102152746113916e-01
-6.120134592056274414e-01 -3.173166590929031372e+01 -6.256686869542988916e-01
-2.995134592056274414e-01 -3.284812098741531372e+01 -6.348087016027363916e-01
3.581368923187255859e-02 -3.388559657335281372e+01 -6.437656107824238916e-01
3.934797048568725586e-01 -3.524545985460281372e+01 -6.551334086339863916e-01
7.797101736068725586e-01 -3.683701258897781372e+01 -6.687289896886738916e-01
1.195847868919372559e+00 -3.834091883897781372e+01 -6.811038676183613916e-01
6.714338064193725586e-01 -8.646704971790313721e+00 -3.666812601964863916e-01
7.717756032943725586e-01 -8.571753799915313721e+00 -3.649722758214863916e-01
-6.309343576431274414e-01 -3.234763270616531372e+01 -4.762393656652363916e-01
-3.148943185806274414e-01 -3.359311610460281372e+01 -4.810001078527363916e-01
2.604806423187255859e-02 -3.482993251085281372e+01 -4.854861918371113916e-01
3.931134939193725586e-01 -3.618442469835281372e+01 -4.904605570714863916e-01
7.903302907943725586e-01 -3.793527919054031372e+01 -4.975864115636738916e-01
1.210984587669372559e+00 -3.913828212022781372e+01 -5.011417094152363916e-01
6.765607595443725586e-01 -8.824927628040313721e+00 -3.201266947667988916e-01
7.776349782943725586e-01 -8.724341690540313721e+00 -3.185855570714863916e-01
-6.505876779556274414e-01 -3.298618251085281372e+01 -3.203708353917988916e-01
-3.300310373306274414e-01 -3.432517176866531372e+01 -3.203708353917988916e-01
1.750314235687255859e-02 -3.562216883897781372e+01 -3.192111674230488916e-01
3.927472829818725586e-01 -3.721884852647781372e+01 -3.182651225011738916e-01
7.982648611068725586e-01 -3.879465419054031372e+01 -3.170139017980488916e-01
1.207078337669372559e+00 -3.903867274522781372e+01 -3.136722269933613916e-01
6.757062673568725586e-01 -8.812842667102813721e+00 -2.717105570714863916e-01
7.771466970443725586e-01 -8.726172745227813721e+00 -2.703830424230488916e-01
-6.732927560806274414e-01 -3.372702723741531372e+01 -1.592380228917988916e-01
-3.457781076431274414e-01 -3.508701258897781372e+01 -1.520816508214863916e-01
7.737517356872558594e-03 -3.655673915147781372e+01 -1.443607035558613916e-01
3.923810720443725586e-01 -3.835703212022781372e+01 -1.353427592199238916e-01
8.019269704818725586e-01 -3.928549891710281372e+01 -1.287509623449238916e-01
1.215623259544372559e+00 -3.952512294054031372e+01 -1.242343607824238916e-01
6.753400564193725586e-01 -8.819434463977813721e+00 -2.230807963292988916e-01
7.767804861068725586e-01 -8.728614151477813721e+00 -2.224399271886738916e-01
-6.950212717056274414e-01 -3.443405848741531372e+01 9.295302303513608422e-03
-3.625017404556274414e-01 -3.589157801866531372e+01 2.258570757695110842e-02
-3.370881080627441406e-03 -3.763388758897781372e+01 3.918727007695110842e-02
3.916486501693725586e-01 -3.926572352647781372e+01 5.528529253788860842e-02
8.085187673568725586e-01 -4.003403407335281372e+01 6.497462359257610842e-02
1.234788298606872559e+00 -4.052658778429031372e+01 7.263453570195110842e-02
6.750959157943725586e-01 -8.823584854602813721e+00 -1.746951762121113916e-01
7.798322439193725586e-01 -8.814429581165313721e+00 -1.735507670324238916e-01
-7.189470529556274414e-01 -3.521433192491531372e+01 1.842678364832011084e-01
-3.833757638931274414e-01 -3.691538172960281372e+01 2.081783589441386084e-01
-1.447927951812744141e-02 -3.869150477647781372e+01 2.333248433191386084e-01
3.904279470443725586e-01 -3.968186122179031372e+01 2.491634663660136084e-01
8.401349782943725586e-01 -4.307981044054031372e+01 2.949093159753886084e-01
1.224046111106872559e+00 -4.010288172960281372e+01 2.619808491785136084e-01
1.636521697044372559e+00 -3.992002040147781372e+01 2.635372456628886084e-01
7.760480642318725586e-01 -8.733741104602813721e+00 -1.262332621496113916e-01
-7.461687326431274414e-01 -3.610544520616531372e+01 3.691128071863261084e-01
-4.064470529556274414e-01 -3.805539637804031372e+01 4.050930317957011084e-01
-2.436697483062744141e-02 -3.960800868272781372e+01 4.337642964441386084e-01
3.906720876693725586e-01 -4.174961024522781372e+01 4.736202534753886084e-01
8.020490407943725586e-01 -3.976804286241531372e+01 4.440792378503886084e-01
1.596970915794372559e+00 -5.803232508897781372e+01 7.587002095300761084e-01
1.643235564231872559e+00 -4.019480067491531372e+01 4.600399312097636084e-01
7.789777517318725586e-01 -8.816382706165313721e+00 -7.659642132929889158e-02
-7.812029123306274414e-01 -3.726889735460281372e+01 5.678890523035136084e-01
-4.276872873306274414e-01 -3.909055262804031372e+01 6.092403706628886084e-01
-3.571951389312744141e-02 -4.068259364366531372e+01 6.469906148035136084e-01
4.031232595443725586e-01 -5.686289149522781372e+01 9.977443989832011084e-01
9.978498220443725586e-01 -5.789987879991531372e+01 1.025454359920701108e+00
1.225510954856872559e+00 -4.034690028429031372e+01 6.514614399988261084e-01
2.184495329856872559e+00 -5.780441981554031372e+01 1.034396010311326108e+00
7.755597829818725586e-01 -8.744605362415313721e+00 -2.959935101679889158e-02
7.245343923568725586e-01 -7.294410049915313721e+00 -8.507663432042988916e-01
8.159650564193725586e-01 -7.319190323352813721e+00 -8.516513529699238916e-01
9.086164236068725586e-01 -7.352027237415313721e+00 -8.532993021886738916e-01
1.002366423606872559e+00 -7.385718643665313721e+00 -8.549777689855488916e-01
1.096604704856872559e+00 -7.419654190540313721e+00 -8.566867533605488916e-01
1.191697478294372559e+00 -7.453955948352813721e+00 -8.583957377355488916e-01
1.288010954856872559e+00 -7.488623917102813721e+00 -8.601352396886738916e-01
1.384446501731872559e+00 -7.519385635852813721e+00 -8.618289652746113916e-01
7.568830251693725586e-01 -8.081641495227813721e+00 -8.570529642980488916e-01
8.564924001693725586e-01 -8.112281143665313721e+00 -8.583347025792988916e-01
9.578107595443725586e-01 -8.157080948352813721e+00 -8.602115336339863916e-01
1.060105681419372559e+00 -8.197730362415313721e+00 -8.620883646886738916e-01
1.163133025169372559e+00 -8.238623917102813721e+00 -8.639804545324238916e-01
1.267625212669372559e+00 -8.286475479602813721e+00 -8.662692728917988916e-01
1.373338103294372559e+00 -8.329932510852813721e+00 -8.685428324621113916e-01
1.480271697044372559e+00 -8.379493057727813721e+00 -8.709384623449238916e-01
8.015607595443725586e-01 -9.164283096790313721e+00 -8.727237406652363916e-01
9.126447439193725586e-01 -9.208350479602813721e+00 -8.745090189855488916e-01
1.023972868919372559e+00 -9.240088760852813721e+00 -8.756076517980488916e-01
1.136643767356872559e+00 -9.272315323352813721e+00 -8.767062846105488916e-01
1.249680876731872559e+00 -9.304663956165313721e+00 -8.778201762121113916e-01
1.363572478294372559e+00 -9.337134659290313721e+00 -8.789340678136738916e-01
1.478684782981872559e+00 -9.370093643665313721e+00 -8.800632182042988916e-01
1.594285368919372559e+00 -9.403052628040313721e+00 -8.812076273839863916e-01
8.146222829818725586e-01 -9.490210831165313721e+00 -8.395206156652363916e-01
9.336408376693725586e-01 -9.625708878040313721e+00 -8.455020609777363916e-01
1.097459197044372559e+00 -1.044272547960281372e+01 -8.868991557042988916e-01
1.223435759544372559e+00 -1.049179774522781372e+01 -8.886081400792988916e-01
1.350022673606872559e+00 -1.054135829210281372e+01 -8.903323832433613916e-01
1.477952361106872559e+00 -1.059128504991531372e+01 -8.920718851964863916e-01
1.607468962669372559e+00 -1.064182215929031372e+01 -8.938419047277363916e-01
1.736863493919372559e+00 -1.068405848741531372e+01 -8.954745951574238916e-01
8.112043142318725586e-01 -9.422339737415313721e+00 -7.844821635167988916e-01
9.331525564193725586e-01 -9.626685440540313721e+00 -7.933170023839863916e-01
1.201463103294372559e+00 -1.214182215929031372e+01 -9.107639017980488916e-01
1.343064665794372559e+00 -1.217307215929031372e+01 -9.112369242589863916e-01
1.485032439231872559e+00 -1.220420008897781372e+01 -9.117099467199238916e-01
1.627976775169372559e+00 -1.223569422960281372e+01 -9.121982279699238916e-01
1.771775603294372559e+00 -1.226303797960281372e+01 -9.124881449621113916e-01
1.919480681419372559e+00 -1.232334071397781372e+01 -9.143039408605488916e-01
8.091291189193725586e-01 -9.383643448352813721e+00 -7.315952006261738916e-01
9.364484548568725586e-01 -9.701026260852813721e+00 -7.439853373449238916e-01
1.329026579856872559e+00 -1.422837001085281372e+01 -9.350406351964863916e-01
1.334519743919372559e+00 -1.206357508897781372e+01 -8.422519389074238916e-01
1.484422087669372559e+00 -1.220444422960281372e+01 -8.471805277746113916e-01
1.821946501731872559e+00 -1.436167079210281372e+01 -9.371005717199238916e-01
1.993943572044372559e+00 -1.445554286241531372e+01 -9.398471537511738916e-01
2.165818572044372559e+00 -1.453476649522781372e+01 -9.423648539464863916e-01
8.076642751693725586e-01 -9.360205948352813721e+00 -6.793796244542988916e-01
9.384015798568725586e-01 -9.750342667102813721e+00 -6.932956400792988916e-01
1.522385954856872559e+00 -1.739084559679031372e+01 -9.811374369542988916e-01
1.330003142356872559e+00 -1.200949794054031372e+01 -7.767154398839863916e-01
1.491258025169372559e+00 -1.229733973741531372e+01 -7.864658060949238916e-01
1.377122282981872559e+00 -9.510840713977813721e+00 -6.807223978917988916e-01
1.488328337669372559e+00 -9.487647354602813721e+00 -6.789828959386738916e-01
1.598801970481872559e+00 -9.464698135852813721e+00 -6.772433939855488916e-01
8.065656423568725586e-01 -9.347632706165313721e+00 -6.280337992589863916e-01
9.304670095443725586e-01 -9.604712784290313721e+00 -6.356937113683613916e-01
1.039353728294372559e+00 -9.533789932727813721e+00 -6.321384135167988916e-01
1.154710173606872559e+00 -9.564063370227813721e+00 -6.322147074621113916e-01
1.266282439231872559e+00 -9.543067276477813721e+00 -6.306125346105488916e-01
1.373338103294372559e+00 -9.475684463977813721e+00 -6.274692240636738916e-01
1.483811736106872559e+00 -9.449805557727813721e+00 -6.259738627355488916e-01
1.594041228294372559e+00 -9.427954971790313721e+00 -6.243564310949238916e-01
8.059552907943725586e-01 -9.343726456165313721e+00 -5.767795267980488916e-01
9.299787282943725586e-01 -9.605689346790313721e+00 -5.833560648839863916e-01
9.810041189193725586e-01 -8.590796768665313721e+00 -5.534030619542988916e-01
1.082688689231872559e+00 -8.562598526477813721e+00 -5.517093363683613916e-01
1.183762907981872559e+00 -8.536109268665313721e+00 -5.500919047277363916e-01
1.283006072044372559e+00 -8.493140518665313721e+00 -5.480014506261738916e-01
1.384080290794372559e+00 -8.472144424915313721e+00 -5.465366068761738916e-01
1.484544157981872559e+00 -8.451148331165313721e+00 -5.450717631261738916e-01
7.758039236068725586e-01 -8.626563370227813721e+00 -5.086185160558613916e-01
8.774884939193725586e-01 -8.592749893665313721e+00 -5.068942728917988916e-01
9.789289236068725586e-01 -8.563697159290313721e+00 -5.052921000402363916e-01
1.080369353294372559e+00 -8.536353409290313721e+00 -5.037357035558613916e-01
1.181199431419372559e+00 -8.510718643665313721e+00 -5.022098246496113916e-01
1.282517790794372559e+00 -8.493995010852813721e+00 -5.009128275792988916e-01
1.383592009544372559e+00 -8.472998917102813721e+00 -4.994937601964863916e-01
1.484055876731872559e+00 -8.452002823352813721e+00 -4.981052103917988916e-01
7.740949392318725586e-01 -8.597266495227813721e+00 -4.602634135167988916e-01
8.755353689193725586e-01 -8.563819229602813721e+00 -4.586612406652363916e-01
9.766095876693725586e-01 -8.534766495227813721e+00 -4.571658793371113916e-01
1.077805876731872559e+00 -8.507666885852813721e+00 -4.556857767980488916e-01
1.178391814231872559e+00 -8.482032120227813721e+00 -4.542514506261738916e-01
1.282151579856872559e+00 -8.494971573352813721e+00 -4.535648051183613916e-01
1.383103728294372559e+00 -8.473853409290313721e+00 -4.522220316808613916e-01
1.483567595481872559e+00 -8.452857315540313721e+00 -4.508792582433613916e-01
7.729963064193725586e-01 -8.579566299915313721e+00 -4.125949564855488916e-01
8.740705251693725586e-01 -8.545752823352813721e+00 -4.111148539464863916e-01
9.750226736068725586e-01 -8.516211807727813721e+00 -4.097110453527363916e-01
1.075974822044372559e+00 -8.488257706165313721e+00 -4.083224955480488916e-01
1.176316618919372559e+00 -8.462134659290313721e+00 -4.069644633214863916e-01
1.276536345481872559e+00 -8.438819229602813721e+00 -4.056522074621113916e-01
1.376878142356872559e+00 -8.416846573352813721e+00 -4.043552103917988916e-01
1.476853728294372559e+00 -8.396704971790313721e+00 -4.031039896886738916e-01
7.721418142318725586e-01 -8.571509659290313721e+00 -3.649570170324238916e-01
8.733381032943725586e-01 -8.539038956165313721e+00 -3.636142435949238916e-01
9.741681814193725586e-01 -8.510596573352813721e+00 -3.625613871496113916e-01
1.075120329856872559e+00 -8.483863174915313721e+00 -3.612796488683613916e-01
1.175462126731872559e+00 -8.459204971790313721e+00 -3.600284281652363916e-01
1.275681853294372559e+00 -8.436011612415313721e+00 -3.587924662511738916e-01
1.376023650169372559e+00 -8.414038956165313721e+00 -3.573123637121113916e-01
1.475999236106872559e+00 -8.394263565540313721e+00 -3.561221781652363916e-01
7.780011892318725586e-01 -8.724097549915313721e+00 -3.185855570714863916e-01
8.806623220443725586e-01 -8.692603409290313721e+00 -3.173495951574238916e-01
9.830793142318725586e-01 -8.663794815540313721e+00 -3.161136332433613916e-01
1.085496306419372559e+00 -8.636695206165313721e+00 -3.149081889074238916e-01
1.187425017356872559e+00 -8.611670792102813721e+00 -3.137180033605488916e-01
1.288987517356872559e+00 -8.587989151477813721e+00 -3.125278178136738916e-01
1.390794157981872559e+00 -8.565284073352813721e+00 -3.113528910558613916e-01
1.492234587669372559e+00 -8.544532120227813721e+00 -3.101932230871113916e-01
7.775129079818725586e-01 -8.726050674915313721e+00 -2.703830424230488916e-01
8.799299001693725586e-01 -8.687720596790313721e+00 -2.694980326574238916e-01
9.822248220443725586e-01 -8.659278213977813721e+00 -2.683688822667988916e-01
1.084641814231872559e+00 -8.632422745227813721e+00 -2.672549906652363916e-01
1.186570525169372559e+00 -8.607642471790313721e+00 -2.661410990636738916e-01
1.288255095481872559e+00 -8.584449112415313721e+00 -2.650272074621113916e-01
1.389939665794372559e+00 -8.562232315540313721e+00 -2.639133158605488916e-01
1.491380095481872559e+00 -8.541724503040313721e+00 -2.625552836339863916e-01
7.771466970443725586e-01 -8.728370010852813721e+00 -2.224399271886738916e-01
8.796857595443725586e-01 -8.691504776477813721e+00 -2.214328471105488916e-01
9.819806814193725586e-01 -8.662940323352813721e+00 -2.203952494542988916e-01
1.084397673606872559e+00 -8.636084854602813721e+00 -2.193576517980488916e-01
1.186326384544372559e+00 -8.611304581165313721e+00 -2.183200541417988916e-01
1.288010954856872559e+00 -8.588111221790313721e+00 -2.172824564855488916e-01
1.389817595481872559e+00 -8.565894424915313721e+00 -2.162448588292988916e-01
1.491135954856872559e+00 -8.545264542102813721e+00 -2.151920023839863916e-01
7.801984548568725586e-01 -8.814307510852813721e+00 -1.735355082433613916e-01
8.793195486068725586e-01 -8.695655167102813721e+00 -1.735812846105488916e-01
9.817365407943725586e-01 -8.667090713977813721e+00 -1.726504984777363916e-01
1.084275603294372559e+00 -8.640235245227813721e+00 -1.716891947667988916e-01
1.186204314231872559e+00 -8.615454971790313721e+00 -1.707431498449238916e-01
1.287888884544372559e+00 -8.592261612415313721e+00 -1.697665873449238916e-01
1.389695525169372559e+00 -8.569922745227813721e+00 -1.687900248449238916e-01
1.491135954856872559e+00 -8.549414932727813721e+00 -1.675540629308613916e-01
7.764142751693725586e-01 -8.733496963977813721e+00 -1.262332621496113916e-01
8.790754079818725586e-01 -8.700660049915313721e+00 -1.254398051183613916e-01
9.816144704818725586e-01 -8.672217667102813721e+00 -1.246005717199238916e-01
1.084153532981872559e+00 -8.645362198352813721e+00 -1.237308207433613916e-01
1.186082243919372559e+00 -8.620459854602813721e+00 -1.228610697667988916e-01
1.287766814231872559e+00 -8.597388565540313721e+00 -1.219608012121113916e-01
1.389695525169372559e+00 -8.575049698352813721e+00 -1.210452738683613916e-01
1.491135954856872559e+00 -8.554419815540313721e+00 -1.201144877355488916e-01
7.793439626693725586e-01 -8.816260635852813721e+00 -7.659642132929889158e-02
8.789533376693725586e-01 -8.706397354602813721e+00 -7.725254925898639158e-02
9.814924001693725586e-01 -8.677954971790313721e+00 -7.676426800898639158e-02
1.084031462669372559e+00 -8.651099503040313721e+00 -7.598606976679889158e-02
1.185960173606872559e+00 -8.626197159290313721e+00 -7.517735394648639158e-02
1.287766814231872559e+00 -8.603003799915313721e+00 -7.435337933711139158e-02
1.389695525169372559e+00 -8.580787003040313721e+00 -7.325474652461139158e-02
1.491258025169372559e+00 -8.560157120227813721e+00 -7.238499554804889158e-02
7.759259939193725586e-01 -8.744361221790313721e+00 -2.959935101679889158e-02
8.788312673568725586e-01 -8.713843643665313721e+00 -2.923314007929889158e-02
9.813703298568725586e-01 -8.685279190540313721e+00 -2.857701214961139158e-02
1.084031462669372559e+00 -8.658423721790313721e+00 -2.789036664179889158e-02
1.186082243919372559e+00 -8.633643448352813721e+00 -2.717320355586139158e-02
1.287888884544372559e+00 -8.610450088977813721e+00 -2.641026410273639158e-02
1.389939665794372559e+00 -8.588233292102813721e+00 -2.563206586054889158e-02
1.491502165794372559e+00 -8.567725479602813721e+00 -2.456395062617389158e-02
1.384812712669372559e+00 -7.519873917102813721e+00 -8.618594828527363916e-01
1.482468962669372559e+00 -7.554053604602813721e+00 -8.636142435949238916e-01
1.580613493919372559e+00 -7.584327042102813721e+00 -8.653384867589863916e-01
1.679978728294372559e+00 -7.615088760852813721e+00 -8.670932475011738916e-01
1.779954314231872559e+00 -7.646094620227813721e+00 -8.688632670324238916e-01
1.879563689231872559e+00 -7.668921768665313721e+00 -8.700992289464863916e-01
1.979417204856872559e+00 -7.686621963977813721e+00 -8.709994975011738916e-01
2.078782439231872559e+00 -7.700293838977813721e+00 -8.718539896886738916e-01
1.480637907981872559e+00 -8.380103409290313721e+00 -8.709689799230488916e-01
1.588181853294372559e+00 -8.423804581165313721e+00 -8.732883158605488916e-01
1.695603728294372559e+00 -8.457740128040313721e+00 -8.747379008214863916e-01
1.802659392356872559e+00 -8.479712784290313721e+00 -8.757297221105488916e-01
1.910081267356872559e+00 -8.501807510852813721e+00 -8.767062846105488916e-01
2.018235564231872559e+00 -8.524024307727813721e+00 -8.777133646886738916e-01
2.126756072044372559e+00 -8.541480362415313721e+00 -8.786746683996113916e-01
2.236619353294372559e+00 -8.564063370227813721e+00 -8.796817484777363916e-01
1.594651579856872559e+00 -9.403540909290313721e+00 -8.812228861730488916e-01
1.710496306419372559e+00 -9.431128799915313721e+00 -8.823062601964863916e-01
1.827317595481872559e+00 -9.458838760852813721e+00 -8.834201517980488916e-01
1.945359587669372559e+00 -9.487037003040313721e+00 -8.845340433996113916e-01
2.064011931419372559e+00 -9.515235245227813721e+00 -8.856479350011738916e-01
2.183640837669372559e+00 -9.543799698352813721e+00 -8.867770853917988916e-01
2.304612517356872559e+00 -9.572608292102813721e+00 -8.879214945714863916e-01
2.354050993919372559e+00 -9.208350479602813721e+00 -8.672000590246113916e-01
1.737351775169372559e+00 -1.068442469835281372e+01 -8.954898539464863916e-01
1.869187712669372559e+00 -1.073715907335281372e+01 -8.972903910558613916e-01
2.001389861106872559e+00 -1.078171473741531372e+01 -8.989841166417988916e-01
2.135423064231872559e+00 -1.082675868272781372e+01 -9.006931010167988916e-01
2.270310759544372559e+00 -1.087216883897781372e+01 -9.024173441808613916e-01
2.406541228294372559e+00 -1.091794520616531372e+01 -9.041568461339863916e-01
2.544846892356872559e+00 -1.096530848741531372e+01 -9.059726420324238916e-01
2.337693572044372559e+00 -9.122412979602813721e+00 -8.117496195714863916e-01
1.920091032981872559e+00 -1.232407313585281372e+01 -9.143191996496113916e-01
2.069383025169372559e+00 -1.238449794054031372e+01 -9.163943949621113916e-01
2.220506072044372559e+00 -1.244565516710281372e+01 -9.184848490636738916e-01
2.373826384544372559e+00 -1.250778895616531372e+01 -9.205905619542988916e-01
2.528367400169372559e+00 -1.257041102647781372e+01 -9.227420512121113916e-01
2.684861540794372559e+00 -1.263376551866531372e+01 -9.248935404699238916e-01
2.843675017356872559e+00 -1.269809657335281372e+01 -9.270908060949238916e-01
2.329026579856872559e+00 -9.079078018665313721e+00 -7.588168803136738916e-01
2.166550993919372559e+00 -1.453586512804031372e+01 -9.423953715246113916e-01
2.343308806419372559e+00 -1.463828212022781372e+01 -9.453098002355488916e-01
2.520676970481872559e+00 -1.472653895616531372e+01 -9.480106058996113916e-01
2.701218962669372559e+00 -1.481613856554031372e+01 -9.507724467199238916e-01
2.880784392356872559e+00 -1.488852626085281372e+01 -9.527713480871113916e-01
3.056809782981872559e+00 -1.492697840929031372e+01 -9.533664408605488916e-01
2.221238493919372559e+00 -9.102271378040313721e+00 -7.097446146886738916e-01
2.323289275169372559e+00 -9.051245987415313721e+00 -7.072269144933613916e-01
1.599168181419372559e+00 -9.464576065540313721e+00 -6.772281351964863916e-01
1.709397673606872559e+00 -9.441504776477813721e+00 -6.756107035558613916e-01
1.819505095481872559e+00 -9.418433487415313721e+00 -6.740085307042988916e-01
1.929856657981872559e+00 -9.395362198352813721e+00 -6.723910990636738916e-01
2.039719939231872559e+00 -9.372412979602813721e+00 -6.707889262121113916e-01
2.149461150169372559e+00 -9.349341690540313721e+00 -6.691714945714863916e-01
2.217088103294372559e+00 -9.081641495227813721e+00 -6.585056010167988916e-01
2.319627165794372559e+00 -9.034888565540313721e+00 -6.560489359777363916e-01
1.594407439231872559e+00 -9.427954971790313721e+00 -6.243411723058613916e-01
1.704636931419372559e+00 -9.407691299915313721e+00 -6.228610697667988916e-01
1.824387907981872559e+00 -9.460669815540313721e+00 -6.234866801183613916e-01
1.955491423606872559e+00 -9.580420792102813721e+00 -6.265384379308613916e-01
2.113572478294372559e+00 -9.862159073352813721e+00 -6.348392191808613916e-01
2.148850798606872559e+00 -9.350318253040313721e+00 -6.173984232824238916e-01
2.214768767356872559e+00 -9.071875870227813721e+00 -6.078464213292988916e-01
2.317674040794372559e+00 -9.028052628040313721e+00 -6.056186381261738916e-01
1.484788298606872559e+00 -8.451026260852813721e+00 -5.450717631261738916e-01
1.587083220481872559e+00 -8.446387588977813721e+00 -5.441104594152363916e-01
1.687791228294372559e+00 -8.428321182727813721e+00 -5.427829447667988916e-01
1.788865447044372559e+00 -8.411231338977813721e+00 -5.414859476964863916e-01
1.889817595481872559e+00 -8.395972549915313721e+00 -5.402347269933613916e-01
1.991258025169372559e+00 -8.383277237415313721e+00 -5.390445414464863916e-01
2.097215056419372559e+00 -8.394873917102813721e+00 -5.385410014074238916e-01
2.273484587669372559e+00 -8.789771378040313721e+00 -5.485965433996113916e-01
1.484422087669372559e+00 -8.451880753040313721e+00 -4.980899516027363916e-01
1.583909392356872559e+00 -8.424414932727813721e+00 -4.965640726964863916e-01
1.684373259544372559e+00 -8.407203018665313721e+00 -4.952670756261738916e-01
1.785325407981872559e+00 -8.390723526477813721e+00 -4.940005961339863916e-01
1.886277556419372559e+00 -8.376197159290313721e+00 -4.927646342199238916e-01
1.987473845481872559e+00 -8.363745987415313721e+00 -4.915897074621113916e-01
2.092454314231872559e+00 -8.371070206165313721e+00 -4.908572855871113916e-01
2.257615447044372559e+00 -8.706275284290313721e+00 -4.976321879308613916e-01
1.483933806419372559e+00 -8.452735245227813721e+00 -4.508792582433613916e-01
1.579881072044372559e+00 -8.396338760852813721e+00 -4.488650980871113916e-01
1.680222868919372559e+00 -8.379370987415313721e+00 -4.475833598058613916e-01
1.780930876731872559e+00 -8.363257706165313721e+00 -4.463168803136738916e-01
1.881516814231872559e+00 -8.348853409290313721e+00 -4.450961771886738916e-01
1.982468962669372559e+00 -8.336524307727813721e+00 -4.439059916417988916e-01
2.086961150169372559e+00 -8.342749893665313721e+00 -4.430667582433613916e-01
2.241868376731872559e+00 -8.623999893665313721e+00 -4.472324076574238916e-01
1.477097868919372559e+00 -8.396582901477813721e+00 -4.030887308996113916e-01
1.577073454856872559e+00 -8.377539932727813721e+00 -4.018069926183613916e-01
1.677171111106872559e+00 -8.360328018665313721e+00 -4.005405131261738916e-01
1.777634978294372559e+00 -8.344458878040313721e+00 -3.992892924230488916e-01
1.878098845481872559e+00 -8.330298721790313721e+00 -3.980685892980488916e-01
1.978806853294372559e+00 -8.317847549915313721e+00 -3.968784037511738916e-01
2.082810759544372559e+00 -8.321875870227813721e+00 -3.959018412511738916e-01
2.256028532981872559e+00 -8.704932510852813721e+00 -4.000674906652363916e-01
1.476365447044372559e+00 -8.394141495227813721e+00 -3.561069193761738916e-01
1.576218962669372559e+00 -8.375342667102813721e+00 -3.548404398839863916e-01
1.676194548606872559e+00 -8.358008682727813721e+00 -3.538333598058613916e-01
1.776780486106872559e+00 -8.342261612415313721e+00 -3.525973978917988916e-01
1.877244353294372559e+00 -8.328223526477813721e+00 -3.513766947667988916e-01
1.977952361106872559e+00 -8.315894424915313721e+00 -3.501712504308613916e-01
2.081834197044372559e+00 -8.319922745227813721e+00 -3.488589945714863916e-01
2.230393767356872559e+00 -8.568213760852813721e+00 -3.499576273839863916e-01
1.492478728294372559e+00 -8.544410049915313721e+00 -3.101779642980488916e-01
1.593797087669372559e+00 -8.524756729602813721e+00 -3.089114848058613916e-01
1.695237517356872559e+00 -8.506079971790313721e+00 -3.076450053136738916e-01
1.797044157981872559e+00 -8.488990128040313721e+00 -3.063785258214863916e-01
1.898728728294372559e+00 -8.473609268665313721e+00 -3.051425639074238916e-01
2.000535368919372559e+00 -8.459327042102813721e+00 -3.038913432042988916e-01
2.103684782981872559e+00 -8.449927628040313721e+00 -3.026706400792988916e-01
2.239304900169372559e+00 -8.620093643665313721e+00 -3.021976176183613916e-01
1.491624236106872559e+00 -8.541602432727813721e+00 -2.625552836339863916e-01
1.592942595481872559e+00 -8.522193253040313721e+00 -2.615634623449238916e-01
1.694383025169372559e+00 -8.504004776477813721e+00 -2.603122416417988916e-01
1.796189665794372559e+00 -8.487281143665313721e+00 -2.590610209386738916e-01
1.897874236106872559e+00 -8.472144424915313721e+00 -2.578098002355488916e-01
1.999925017356872559e+00 -8.458716690540313721e+00 -2.565738383214863916e-01
2.105393767356872559e+00 -8.463355362415313721e+00 -2.553073588292988916e-01
2.238450407981872559e+00 -8.619239151477813721e+00 -2.537357035558613916e-01
1.491502165794372559e+00 -8.545264542102813721e+00 -2.151920023839863916e-01
1.592820525169372559e+00 -8.525855362415313721e+00 -2.139560404699238916e-01
1.694260954856872559e+00 -8.507544815540313721e+00 -2.127353373449238916e-01
1.796067595481872559e+00 -8.490821182727813721e+00 -2.114841166417988916e-01
1.897874236106872559e+00 -8.475684463977813721e+00 -2.102481547277363916e-01
1.999802947044372559e+00 -8.461890518665313721e+00 -2.089969340246113916e-01
2.102708220481872559e+00 -8.451636612415313721e+00 -2.077151957433613916e-01
2.240525603294372559e+00 -8.633643448352813721e+00 -2.054721537511738916e-01
1.491502165794372559e+00 -8.549292862415313721e+00 -1.675388041417988916e-01
1.592820525169372559e+00 -8.529883682727813721e+00 -1.665927592199238916e-01
1.694260954856872559e+00 -8.511573135852813721e+00 -1.653720560949238916e-01
1.796067595481872559e+00 -8.494849503040313721e+00 -1.641360941808613916e-01
1.897874236106872559e+00 -8.479712784290313721e+00 -1.629001322667988916e-01
1.999802947044372559e+00 -8.465918838977813721e+00 -1.616336527746113916e-01
2.116624236106872559e+00 -8.536109268665313721e+00 -1.595737162511738916e-01
2.243089079856872559e+00 -8.651343643665313721e+00 -1.567813578527363916e-01
1.491502165794372559e+00 -8.554419815540313721e+00 -1.201144877355488916e-01
1.592820525169372559e+00 -8.535010635852813721e+00 -1.189243021886738916e-01
1.694260954856872559e+00 -8.516700088977813721e+00 -1.177188578527363916e-01
1.796311736106872559e+00 -8.499976456165313721e+00 -1.164981547277363916e-01
