3.555655702948570251e-01 -2.256367909908294678e+01 -2.300237619783729315e-01
5.311026796698570251e-01 -2.276387441158294678e+01 -2.244085276033729315e-01
-9.646079689264297485e-02 -1.173994863033294678e+01 9.833011985756456852e-02
-1.186607033014297485e-02 -1.176448476314544678e+01 1.034570729825645685e-01
7.224037498235702515e-02 -1.180855214595794678e+01 1.080804860685020685e-01
1.559806093573570251e-01 -1.189961659908294678e+01 1.115289723966270685e-01
2.370352968573570251e-01 -1.215352284908294678e+01 1.108728444669395685e-01
1.083731874823570251e-01 -2.702913320064544678e+01 -2.575048410799354315e-01
3.185782656073570251e-01 -2.734798085689544678e+01 -2.510045969393104315e-01
5.342765077948570251e-01 -2.787361562252044678e+01 -2.491277658846229315e-01
-9.926841408014297485e-02 -1.173408925533294678e+01 1.457696950528770685e-01
-1.442954689264297485e-02 -1.175081288814544678e+01 1.511713063810020685e-01
6.979896873235702515e-02 -1.179048573970794678e+01 1.563440358731895685e-01
1.529288515448570251e-01 -1.189278066158294678e+01 1.599451100919395685e-01
2.342276796698570251e-01 -1.213362538814544678e+01 1.607233083341270685e-01
-1.967857033014297485e-02 -3.506453359127044678e+01 -3.049596750643104315e-01
2.508292421698570251e-01 -3.629842031002044678e+01 -3.116888010408729315e-01
5.408683046698570251e-01 -3.703963124752044678e+01 -3.066381418611854315e-01
-1.013436093926429749e-01 -1.171431386470794678e+01 1.936822927091270685e-01
-1.699302345514297485e-02 -1.173775136470794678e+01 1.990076100919395685e-01
6.723549216985702515e-02 -1.177327382564544678e+01 2.041650807950645685e-01
1.497550234198570251e-01 -1.189278066158294678e+01 2.079187429044395685e-01
2.314200624823570251e-01 -1.211165273189544678e+01 2.101465261075645685e-01
-3.237557187676429749e-01 -5.430904042720794678e+01 -4.588140451814979315e-01
9.335853904485702515e-02 -5.731172597408294678e+01 -4.756597483064979315e-01
5.633292421698570251e-01 -6.289192616939544678e+01 -5.275243723299354315e-01
-1.047615781426429749e-01 -1.171968495845794678e+01 2.408014333341270685e-01
-2.041099220514297485e-02 -1.174300038814544678e+01 2.462335622403770685e-01
6.406166404485702515e-02 -1.177473866939544678e+01 2.515741384122520685e-01
1.473136171698570251e-01 -1.186836659908294678e+01 2.561975514981895685e-01
2.286124452948570251e-01 -1.209212148189544678e+01 2.593408620450645685e-01
-5.638680234551429749e-01 -6.868391835689544678e+01 -3.809942209627479315e-01
4.491351544857025146e-03 -6.715169179439544678e+01 -3.269018137361854315e-01
5.488028749823570251e-01 -6.736189687252044678e+01 -2.924932444002479315e-01
-1.075691953301429749e-01 -1.171175038814544678e+01 2.883325612638145685e-01
-2.309653908014297485e-02 -1.173433339595794678e+01 2.938562429044395685e-01
6.125404685735702515e-02 -1.176533925533294678e+01 2.993494069669395685e-01
1.448722109198570251e-01 -1.184395253658294678e+01 3.045068776700645685e-01
2.254386171698570251e-01 -1.208650624752044678e+01 3.085199391935020685e-01
-5.625252500176429749e-01 -6.729121816158294678e+01 -6.211604713462293148e-02
-1.626060158014297485e-02 -6.720723378658294678e+01 -2.499141334556043148e-02
5.284171327948570251e-01 -6.733040273189544678e+01 1.083622337318956852e-02
-1.107430234551429749e-01 -1.171309316158294678e+01 3.354974782560020685e-01
-2.639243751764297485e-02 -1.173567616939544678e+01 3.411127126310020685e-01
5.808021873235702515e-02 -1.176668202877044678e+01 3.467279470060020685e-01
1.418204531073570251e-01 -1.183821523189544678e+01 3.522668874356895685e-01
2.221427187323570251e-01 -1.208662831783294678e+01 3.573480641935020685e-01
-5.840096250176429749e-01 -6.737276113033294678e+01 2.390314138028770685e-01
-3.701255470514297485e-02 -6.728010976314544678e+01 2.757593190763145685e-01
5.082755312323570251e-01 -6.757869374752044678e+01 3.119073903653770685e-01
-1.144051328301429749e-01 -1.172188222408294678e+01 3.829217946622520685e-01
-2.993247658014297485e-02 -1.174397695064544678e+01 3.886438405606895685e-01
5.454017966985702515e-02 -1.177449452877044678e+01 3.941370046231895685e-01
1.384024843573570251e-01 -1.184639394283294678e+01 3.999811208341270685e-01
2.187247499823570251e-01 -1.209541738033294678e+01 4.062067067716270685e-01
-6.256356015801429749e-01 -6.867342031002044678e+01 5.437341725919395685e-01
4.880118593573570251e-01 -6.918404042720794678e+01 6.215539968106895685e-01
-1.194100156426429749e-01 -1.175301015377044678e+01 4.302545583341270685e-01
-3.457114845514297485e-02 -1.177461659908294678e+01 4.360834157560020685e-01
5.014564841985702515e-02 -1.180244863033294678e+01 4.419580495450645685e-01
1.343741640448570251e-01 -1.187215077877044678e+01 4.481226003263145685e-01
2.148184999823570251e-01 -1.211702382564544678e+01 4.554773366544395685e-01
-1.251473203301429749e-01 -1.179805409908294678e+01 4.782434499356895685e-01
-3.994224220514297485e-02 -1.181819570064544678e+01 4.839197194669395685e-01
4.501869529485702515e-02 -1.184859120845794678e+01 4.899621999356895685e-01
1.294913515448570251e-01 -1.191951406002044678e+01 4.964777028653770685e-01
2.100577577948570251e-01 -1.217891347408294678e+01 5.051141774747520685e-01
-1.291756406426429749e-01 -1.181111562252044678e+01 5.259729421231895685e-01
-4.384849220514297485e-02 -1.183186757564544678e+01 5.320001638028770685e-01
4.111244529485702515e-02 -1.186580312252044678e+01 5.382257497403770685e-01
1.255851015448570251e-01 -1.193916738033294678e+01 5.451074636075645685e-01
2.052970156073570251e-01 -1.223286855220794678e+01 5.554681813810020685e-01
-1.333260312676429749e-01 -1.182686269283294678e+01 5.741144216153770685e-01
-4.787681251764297485e-02 -1.184871327877044678e+01 5.800043141935020685e-01
3.732826560735702515e-02 -1.188130605220794678e+01 5.863519704435020685e-01
1.219229921698570251e-01 -1.195467031002044678e+01 5.935693776700645685e-01
1.994376406073570251e-01 -1.233247792720794678e+01 6.069513356778770685e-01
-1.384529843926429749e-01 -1.186030995845794678e+01 6.225458180997520685e-01
-5.288169533014297485e-02 -1.188264882564544678e+01 6.288019216153770685e-01
3.195717185735702515e-02 -1.193013417720794678e+01 6.356683766935020685e-01
1.176505312323570251e-01 -1.198274648189544678e+01 6.427331960294395685e-01
1.872306093573570251e-01 -1.266743886470794678e+01 6.654382741544395685e-01
-1.408943906426429749e-01 -1.184822499752044678e+01 6.703058278653770685e-01
-5.581138283014297485e-02 -1.187630116939544678e+01 6.767908132169395685e-01
2.829506248235702515e-02 -1.194002187252044678e+01 6.843286550138145685e-01
1.131339296698570251e-01 -1.202107656002044678e+01 6.921716725919395685e-01
1.357169374823570251e-01 -1.447029531002044678e+01 7.697015798185020685e-01
2.448477968573570251e-01 -1.443721425533294678e+01 7.762018239591270685e-01
-1.446785703301429749e-01 -1.185750234127044678e+01 7.186151540372520685e-01
-5.947349220514297485e-02 -1.188570058345794678e+01 7.249780690763145685e-01
2.560951560735702515e-02 -1.192830312252044678e+01 7.321039235685020685e-01
9.933998435735702515e-02 -1.231990468502044678e+01 7.509180104825645685e-01
5.259757265448570251e-01 -1.256758534908294678e+01 -1.882604563143104315e-01
6.187491640448570251e-01 -1.259517323970794678e+01 -1.833166086580604315e-01
7.117667421698570251e-01 -1.261751210689544678e+01 -1.783422434236854315e-01
8.056388124823570251e-01 -1.264009511470794678e+01 -1.733221018221229315e-01
8.996329531073570251e-01 -1.266267812252044678e+01 -1.683172190096229315e-01
9.943595156073570251e-01 -1.268538320064544678e+01 -1.632513010408729315e-01
1.090184710919857025e+00 -1.272835195064544678e+01 -1.591619455721229315e-01
1.186498187482357025e+00 -1.276582753658294678e+01 -1.550420725252479315e-01
5.267081484198570251e-01 -1.374641835689544678e+01 -1.923498117830604315e-01
6.291251406073570251e-01 -1.377913320064544678e+01 -1.871313059236854315e-01
7.322745546698570251e-01 -1.381197011470794678e+01 -1.818670236971229315e-01
8.366446718573570251e-01 -1.385286366939544678e+01 -1.766180002596229315e-01
9.410147890448570251e-01 -1.388618886470794678e+01 -1.712926828768104315e-01
1.045995257794857025e+00 -1.391182363033294678e+01 -1.658910715486854315e-01
1.151586078107357025e+00 -1.394551503658294678e+01 -1.605047190096229315e-01
1.257909320294857025e+00 -1.398213613033294678e+01 -1.552251779939979315e-01
5.273184999823570251e-01 -1.517097890377044678e+01 -1.960119211580604315e-01
6.420645937323570251e-01 -1.523335683345794678e+01 -1.910833322908729315e-01
7.576651796698570251e-01 -1.528865468502044678e+01 -1.857885324861854315e-01
8.746085390448570251e-01 -1.534456288814544678e+01 -1.804479563143104315e-01
9.921622499823570251e-01 -1.540083730220794678e+01 -1.750616037752479315e-01
1.111180804669857025e+00 -1.545772206783294678e+01 -1.696142160799354315e-01
1.230809710919857025e+00 -1.551497304439544678e+01 -1.641363108064979315e-01
1.351537249982357025e+00 -1.557271230220794678e+01 -1.586278879549354315e-01
5.284171327948570251e-01 -1.700362050533294678e+01 -2.023748361971229315e-01
6.585440859198570251e-01 -1.710432851314544678e+01 -1.971868479158729315e-01
7.902579531073570251e-01 -1.719356191158294678e+01 -1.918462717439979315e-01
9.240470156073570251e-01 -1.728413808345794678e+01 -1.864294016268104315e-01
1.059056781232357025e+00 -1.737544667720794678e+01 -1.809514963533729315e-01
1.196019671857357025e+00 -1.746822011470794678e+01 -1.753972971346229315e-01
1.334203265607357025e+00 -1.756184804439544678e+01 -1.697973215486854315e-01
1.473241351544857025e+00 -1.764278066158294678e+01 -1.640600168611854315e-01
5.298819765448570251e-01 -1.945515859127044678e+01 -2.121099436189979315e-01
6.806388124823570251e-01 -1.958296620845794678e+01 -2.063726389314979315e-01
8.335929140448570251e-01 -1.971272695064544678e+01 -2.005437815096229315e-01
9.894767031073570251e-01 -1.984492909908294678e+01 -1.946081125643104315e-01
1.147069476544857025e+00 -1.997859609127044678e+01 -1.886114084627479315e-01
1.307591937482357025e+00 -2.011470448970794678e+01 -1.824926340486854315e-01
1.470677874982357025e+00 -2.026338613033294678e+01 -1.766332590486854315e-01
1.652074359357357025e+00 -2.067415273189544678e+01 -1.782964670564979315e-01
5.317130312323570251e-01 -2.276582753658294678e+01 -2.244237863924354315e-01
7.120108827948570251e-01 -2.309859120845794678e+01 -2.214788401033729315e-01
8.975577577948570251e-01 -2.341511952877044678e+01 -2.182439768221229315e-01
1.089452289044857025e+00 -2.374214589595794678e+01 -2.148870432283729315e-01
1.286107562482357025e+00 -2.406612050533294678e+01 -2.111181223299354315e-01
1.491673968732357025e+00 -2.445430409908294678e+01 -2.086156809236854315e-01
1.720433734357357025e+00 -2.517634999752044678e+01 -2.141546213533729315e-01
1.962010882794857025e+00 -2.590852773189544678e+01 -2.197545969393104315e-01
5.350089296698570251e-01 -2.787898671627044678e+01 -2.492040598299354315e-01
7.602286562323570251e-01 -2.846919667720794678e+01 -2.484563791658729315e-01
9.958243593573570251e-01 -2.909419667720794678e+01 -2.478612863924354315e-01
1.250463031232357025e+00 -3.000471913814544678e+01 -2.528966867830604315e-01
1.523534320294857025e+00 -3.102791249752044678e+01 -2.594274485018104315e-01
1.839818499982357025e+00 -3.263399159908294678e+01 -2.771734201814979315e-01
2.195897601544857025e+00 -3.450874745845794678e+01 -2.987646067049354315e-01
2.622045062482357025e+00 -3.702901113033294678e+01 -3.312810861971229315e-01
5.418448671698570251e-01 -3.704610097408294678e+01 -3.066991770174354315e-01
8.595938906073570251e-01 -3.934151113033294678e+01 -3.304265940096229315e-01
1.220799945294857025e+00 -4.192769277095794678e+01 -3.559545481111854315e-01
1.656346820294857025e+00 -4.564998281002044678e+01 -3.996557199861854315e-01
2.223607562482357025e+00 -5.141194570064544678e+01 -4.744543039705604315e-01
3.005712054669857025e+00 -5.989851796627044678e+01 -5.881933176424354315e-01
3.929662249982357025e+00 -6.842634999752044678e+01 -6.949132883455604315e-01
4.781468890607357025e+00 -7.337044179439544678e+01 -7.348455393221229315e-01
5.650382265448570251e-01 -6.293245351314544678e+01 -5.280126535799354315e-01
1.128758929669857025e+00 -6.859309804439544678e+01 -5.749944651033729315e-01
5.506339296698570251e-01 -6.736116445064544678e+01 -2.923559152986854315e-01
1.123876117169857025e+00 -7.029341542720794678e+01 -2.843297922518104315e-01
5.302481874823570251e-01 -6.733919179439544678e+01 1.091251731850206852e-02
1.100194476544857025e+00 -7.002779042720794678e+01 3.373966575600206852e-02
2.191625140607357025e+00 -1.003296703100204468e+02 -6.733455299399793148e-02
5.101065859198570251e-01 -6.759431874752044678e+01 3.120142018888145685e-01
2.161962054669857025e+00 -1.003745921850204468e+02 3.851038014981895685e-01
4.898429140448570251e-01 -6.918098866939544678e+01 6.216760671231895685e-01
1.312596820294857025e+00 -1.004651683568954468e+02 7.852045095060020685e-01
1.186864398419857025e+00 -1.276631581783294678e+01 -1.550420725252479315e-01
1.284520648419857025e+00 -1.281160390377044678e+01 -1.509221994783729315e-01
1.382421039044857025e+00 -1.285066640377044678e+01 -1.467412912752479315e-01
1.481908343732357025e+00 -1.289351308345794678e+01 -1.426519358064979315e-01
1.585179828107357025e+00 -1.297041738033294678e+01 -1.400884592439979315e-01
1.690282367169857025e+00 -1.304866445064544678e+01 -1.374792063143104315e-01
1.796605609357357025e+00 -1.312788808345794678e+01 -1.348394358064979315e-01
1.903783343732357025e+00 -1.320100820064544678e+01 -1.321233713533729315e-01
1.258275531232357025e+00 -1.398262441158294678e+01 -1.552099192049354315e-01
1.365697406232357025e+00 -1.402351796627044678e+01 -1.502965891268104315e-01
1.473973773419857025e+00 -1.406526601314544678e+01 -1.453680002596229315e-01
1.588353656232357025e+00 -1.416353261470794678e+01 -1.423925363924354315e-01
1.706517718732357025e+00 -1.428596913814544678e+01 -1.406225168611854315e-01
1.826512835919857025e+00 -1.440218007564544678e+01 -1.387609445955604315e-01
1.949559710919857025e+00 -1.452962148189544678e+01 -1.369298899080604315e-01
2.075292132794857025e+00 -1.465974843502044678e+01 -1.350378000643104315e-01
1.351903460919857025e+00 -1.557356679439544678e+01 -1.586278879549354315e-01
1.473363421857357025e+00 -1.562642323970794678e+01 -1.530889475252479315e-01
1.601415179669857025e+00 -1.575081288814544678e+01 -1.501592600252479315e-01
1.732396624982357025e+00 -1.587788808345794678e+01 -1.471685373689979315e-01
1.869847796857357025e+00 -1.605427968502044678e+01 -1.458410227205604315e-01
2.013524554669857025e+00 -1.625593984127044678e+01 -1.452001535799354315e-01
2.160863421857357025e+00 -1.646272695064544678e+01 -1.445287668611854315e-01
2.312596820294857025e+00 -1.667573964595794678e+01 -1.438421213533729315e-01
1.473851703107357025e+00 -1.764473378658294678e+01 -1.640905344393104315e-01
1.627049945294857025e+00 -1.790755116939544678e+01 -1.637548410799354315e-01
1.784276507794857025e+00 -1.816377675533294678e+01 -1.633275949861854315e-01
1.947240374982357025e+00 -1.842964589595794678e+01 -1.628698313143104315e-01
2.115209124982357025e+00 -1.870357167720794678e+01 -1.624120676424354315e-01
2.289525531232357025e+00 -1.898775136470794678e+01 -1.619237863924354315e-01
2.469090960919857025e+00 -1.927937734127044678e+01 -1.613897287752479315e-01
2.675878070294857025e+00 -1.975557363033294678e+01 -1.665319406893104315e-01
1.652806781232357025e+00 -2.067647206783294678e+01 -1.783269846346229315e-01
1.842137835919857025e+00 -2.109944570064544678e+01 -1.801122629549354315e-01
2.040257953107357025e+00 -2.154243886470794678e+01 -1.820043527986854315e-01
2.248509906232357025e+00 -2.200764882564544678e+01 -1.839727365877479315e-01
2.466283343732357025e+00 -2.249397695064544678e+01 -1.860326731111854315e-01
2.714818499982357025e+00 -2.319331777095794678e+01 -1.931890451814979315e-01
3.028783343732357025e+00 -2.438081777095794678e+01 -2.123388254549354315e-01
3.319310687482357025e+00 -2.520296132564544678e+01 -2.208532297518104315e-01
1.963109515607357025e+00 -2.591499745845794678e+01 -2.198614084627479315e-01
2.224462054669857025e+00 -2.675606191158294678e+01 -2.263158762361854315e-01
2.504003070294857025e+00 -2.764656484127044678e+01 -2.336095774080604315e-01
2.858495257794857025e+00 -2.922737538814544678e+01 -2.558263742830604315e-01
3.241307757794857025e+00 -3.083467519283294678e+01 -2.769292795564979315e-01
3.722753070294857025e+00 -3.313191640377044678e+01 -3.114141428377479315e-01
4.367284320294857025e+00 -3.656160390377044678e+01 -3.677190744783729315e-01
5.374486468732357025e+00 -4.255452382564544678e+01 -4.749273264314979315e-01
2.623998187482357025e+00 -3.704597890377044678e+01 -3.315557444002479315e-01
3.231542132794857025e+00 -4.159907948970794678e+01 -4.014562570955604315e-01
4.139501117169857025e+00 -4.907613027095794678e+01 -5.221227610018104315e-01
5.832005999982357025e+00 -6.428572499752044678e+01 -7.777227365877479315e-01
6.971898578107357025e+00 -7.086958730220794678e+01 -8.616003000643104315e-01
7.936498187482357025e+00 -7.462129628658294678e+01 -8.886846506502479315e-01
8.964208148419857025e+00 -7.838545644283294678e+01 -9.119237863924354315e-01
6.997899554669857025e+00 -5.635615956783294678e+01 -5.098089182283729315e-01
4.784886859357357025e+00 -7.339448964595794678e+01 -7.350744211580604315e-01
5.691380999982357025e+00 -7.792378652095794678e+01 -7.636388742830604315e-01
6.723363421857357025e+00 -8.309712636470794678e+01 -7.944768869783729315e-01
7.900731585919857025e+00 -8.892757070064544678e+01 -8.304113352205604315e-01
6.571507953107357025e+00 -5.682515370845794678e+01 -2.930730783846229315e-01
7.042089007794857025e+00 -5.687569081783294678e+01 -2.629369699861854315e-01
7.049657367169857025e+00 -5.708821523189544678e+01 -7.733722915872931480e-03
1.904149554669857025e+00 -1.320137441158294678e+01 -1.321233713533729315e-01
2.012303851544857025e+00 -1.327229726314544678e+01 -1.288885080721229315e-01
2.121068499982357025e+00 -1.333638417720794678e+01 -1.255773508455604315e-01
2.231664203107357025e+00 -1.340144765377044678e+01 -1.221898996736854315e-01
2.347264789044857025e+00 -1.349275624752044678e+01 -1.198553049471229315e-01
2.467015765607357025e+00 -1.359676015377044678e+01 -1.179174387361854315e-01
2.597508929669857025e+00 -1.375313222408294678e+01 -1.180089914705604315e-01
2.730687640607357025e+00 -1.390803945064544678e+01 -1.181920969393104315e-01
2.075658343732357025e+00 -1.466023671627044678e+01 -1.350378000643104315e-01
2.203221820294857025e+00 -1.478572499752044678e+01 -1.330846750643104315e-01
2.333470843732357025e+00 -1.491402089595794678e+01 -1.310857736971229315e-01
2.468480609357357025e+00 -1.505562245845794678e+01 -1.290716135408729315e-01
2.616796039044857025e+00 -1.526863515377044678e+01 -1.299261057283729315e-01
2.777074359357357025e+00 -1.552864491939544678e+01 -1.325811350252479315e-01
2.941258929669857025e+00 -1.578657948970794678e+01 -1.345647776033729315e-01
3.112035296857357025e+00 -1.605489003658294678e+01 -1.366399729158729315e-01
2.313207171857357025e+00 -1.667696034908294678e+01 -1.438573801424354315e-01
2.468480609357357025e+00 -1.688740956783294678e+01 -1.431096994783729315e-01
2.640843890607357025e+00 -1.719490468502044678e+01 -1.453832590486854315e-01
2.821874164044857025e+00 -1.751997792720794678e+01 -1.478704416658729315e-01
3.010228656232357025e+00 -1.785847890377044678e+01 -1.504644358064979315e-01
3.207860492169857025e+00 -1.821358144283294678e+01 -1.531957590486854315e-01
3.414037249982357025e+00 -1.858394277095794678e+01 -1.560338938143104315e-01
3.650609515607357025e+00 -1.908699452877044678e+01 -1.625799143221229315e-01
2.676732562482357025e+00 -1.975850331783294678e+01 -1.665929758455604315e-01
2.899755023419857025e+00 -2.029646718502044678e+01 -1.724065744783729315e-01
3.133763812482357025e+00 -2.084578359127044678e+01 -1.784032785799354315e-01
3.383275531232357025e+00 -2.143147695064544678e+01 -1.847967111971229315e-01
3.648046039044857025e+00 -2.205354726314544678e+01 -1.916021311189979315e-01
3.963964007794857025e+00 -2.291926991939544678e+01 -2.043737375643104315e-01
4.305638812482357025e+00 -2.385152089595794678e+01 -2.180303537752479315e-01
4.629613421857357025e+00 -2.459248769283294678e+01 -2.261785471346229315e-01
3.320653460919857025e+00 -2.520808827877044678e+01 -2.209295236971229315e-01
3.631444476544857025e+00 -2.607674062252044678e+01 -2.299779856111854315e-01
4.032201312482357025e+00 -2.749470937252044678e+01 -2.515233957674354315e-01
4.475438617169857025e+00 -2.903316152095794678e+01 -2.743505442049354315e-01
5.006444476544857025e+00 -3.097566640377044678e+01 -3.050054514314979315e-01
5.819921039044857025e+00 -3.445381581783294678e+01 -3.685888254549354315e-01
7.066991351544857025e+00 -4.013594472408294678e+01 -4.776739084627479315e-01
7.913060687482357025e+00 -4.302559316158294678e+01 -5.196966135408729315e-01
5.378026507794857025e+00 -4.257442128658294678e+01 -4.752630197908729315e-01
7.470555804669857025e+00 -5.629536855220794678e+01 -7.318548166658729315e-01
6.265477679669857025e+00 -4.401021230220794678e+01 -4.583257639314979315e-01
6.572240374982357025e+00 -4.363435781002044678e+01 -4.279302561189979315e-01
6.948461078107357025e+00 -4.375764882564544678e+01 -4.073156320955604315e-01
7.306493304669857025e+00 -4.374275624752044678e+01 -3.839239084627479315e-01
7.579930804669857025e+00 -4.323201406002044678e+01 -3.518041574861854315e-01
7.906346820294857025e+00 -4.306209218502044678e+01 -3.270544016268104315e-01
6.999242328107357025e+00 -5.635396230220794678e+01 -5.096715891268104315e-01
7.483983539044857025e+00 -5.653682363033294678e+01 -4.826482736971229315e-01
8.127172015607357025e+00 -5.785799062252044678e+01 -4.726842844393104315e-01
6.613255999982357025e+00 -4.401228749752044678e+01 -2.383550608064979315e-01
6.918797992169857025e+00 -4.365144765377044678e+01 -2.098821604158729315e-01
7.249486468732357025e+00 -4.347139394283294678e+01 -1.841405832674354315e-01
7.519383929669857025e+00 -4.295296132564544678e+01 -1.542028391268104315e-01
7.981786273419857025e+00 -4.356111562252044678e+01 -1.388372385408729315e-01
7.044042132794857025e+00 -5.687874257564544678e+01 -2.628759348299354315e-01
7.418309710919857025e+00 -5.615498769283294678e+01 -2.242711985018104315e-01
6.233739398419857025e+00 -4.397432363033294678e+01 -6.367244361899793148e-02
6.602025531232357025e+00 -4.402827870845794678e+01 -4.061641334556043148e-02
6.967992328107357025e+00 -4.406319081783294678e+01 -1.733150123618543148e-02
7.272191546857357025e+00 -4.369612538814544678e+01 9.722331771627068520e-03
7.564427874982357025e+00 -4.329719960689544678e+01 3.557072044350206852e-02
7.949681781232357025e+00 -4.345613515377044678e+01 5.771122337318956852e-02
7.023778460919857025e+00 -5.685554921627044678e+01 -5.978962173685431480e-03
7.511327289044857025e+00 -5.702803456783294678e+01 2.369938255287706852e-02
7.942967914044857025e+00 -5.675508534908294678e+01 5.630741477943956852e-02
8.393773578107357025e+00 -5.662984120845794678e+01 8.799991966225206852e-02
6.952123187482357025e+00 -4.404768788814544678e+01 1.800561940763145685e-01
7.325658343732357025e+00 -4.411384999752044678e+01 2.037836110685020685e-01
7.540624164044857025e+00 -4.323555409908294678e+01 2.310815847013145685e-01
7.916844867169857025e+00 -4.334676015377044678e+01 2.543054616544395685e-01
7.479833148419857025e+00 -5.691658437252044678e+01 2.802454030606895685e-01
7.981786273419857025e+00 -5.717329823970794678e+01 3.111291921231895685e-01
6.650731585919857025e+00 -4.455733144283294678e+01 3.527704274747520685e-01
7.008275531232357025e+00 -4.450716054439544678e+01 3.771692311856895685e-01
1.091696693748235703e+01 -6.665694081783294678e+01 4.090906179044395685e-01
7.696752093732357025e+00 -4.424177968502044678e+01 4.259210622403770685e-01
7.896825335919857025e+00 -4.330916249752044678e+01 4.489465749356895685e-01
7.494359515607357025e+00 -5.717134511470794678e+01 5.381036794278770685e-01
7.988133929669857025e+00 -5.735213124752044678e+01 5.703760182950645685e-01
1.049094154685735703e+01 -6.764986073970794678e+01 6.797662770841270685e-01
1.098874428123235703e+01 -6.723714101314544678e+01 7.157465016935020685e-01
7.682836078107357025e+00 -4.424043691158294678e+01 6.255823171231895685e-01
7.872777484357357025e+00 -4.324849355220794678e+01 6.441217458341270685e-01
7.572606585919857025e+00 -4.366414296627044678e+01 8.182703054044395685e-01
7.981908343732357025e+00 -4.394356191158294678e+01 8.458276784513145685e-01
8.038915179669857025e+00 -4.434492909908294678e+01 1.050493816146627069e+00
1.514169838279485703e+01 -8.516182363033294678e+01 2.849154094466939569e+00
2.731420062482357025e+00 -1.390974843502044678e+01 -1.182378733064979315e-01
2.870336078107357025e+00 -1.407967031002044678e+01 -1.184820139314979315e-01
3.011693499982357025e+00 -1.424519765377044678e+01 -1.186651194002479315e-01
3.157811664044857025e+00 -1.441634023189544678e+01 -1.188634836580604315e-01
3.307958148419857025e+00 -1.459224355220794678e+01 -1.190618479158729315e-01
3.463231585919857025e+00 -1.477437245845794678e+01 -1.192907297518104315e-01
3.631810687482357025e+00 -1.499971425533294678e+01 -1.209386789705604315e-01
3.804540179669857025e+00 -1.522456777095794678e+01 -1.226629221346229315e-01
3.112767718732357025e+00 -1.605696523189544678e+01 -1.366857492830604315e-01
3.288671039044857025e+00 -1.632576406002044678e+01 -1.387456858064979315e-01
3.471776507794857025e+00 -1.660542714595794678e+01 -1.408971750643104315e-01
3.665990374982357025e+00 -1.691231191158294678e+01 -1.432317697908729315e-01
3.865209124982357025e+00 -1.721675527095794678e+01 -1.455663645174354315e-01
4.070287249982357025e+00 -1.751973378658294678e+01 -1.478857004549354315e-01
4.420384906232357025e+00 -1.842720448970794678e+01 -1.692632639314979315e-01
4.663426898419857025e+00 -1.882039296627044678e+01 -1.731237375643104315e-01
3.651830218732357025e+00 -1.909090077877044678e+01 -1.626714670564979315e-01
3.941991351544857025e+00 -1.983113515377044678e+01 -1.762212717439979315e-01
4.162328265607357025e+00 -2.014766347408294678e+01 -1.762365305330604315e-01
4.448827289044857025e+00 -2.075569570064544678e+01 -1.844610178377479315e-01
4.772435687482357025e+00 -2.148738515377044678e+01 -1.956457102205604315e-01
5.087132953107357025e+00 -2.211702382564544678e+01 -2.030919992830604315e-01
5.503758929669857025e+00 -2.314033925533294678e+01 -2.208990061189979315e-01
5.839452289044857025e+00 -2.374922597408294678e+01 -2.262090647127479315e-01
4.631444476544857025e+00 -2.459871327877044678e+01 -2.263006174471229315e-01
5.035619281232357025e+00 -2.569722402095794678e+01 -2.420782053377479315e-01
5.457616351544857025e+00 -2.678682363033294678e+01 -2.570165598299354315e-01
6.251683734357357025e+00 -2.959480702877044678e+01 -3.134283029939979315e-01
6.790990374982357025e+00 -3.098152577877044678e+01 -3.323034250643104315e-01
9.924169085919857025e+00 -4.393574941158294678e+01 -6.249517404939979315e-01
1.002170326560735703e+01 -4.275447499752044678e+01 -5.748571360018104315e-01
1.100351478904485703e+01 -4.534676015377044678e+01 -6.128515207674354315e-01
7.914037249982357025e+00 -4.302388417720794678e+01 -5.195745432283729315e-01
8.580174945294857025e+00 -4.468220937252044678e+01 -5.327733957674354315e-01
8.920506976544857025e+00 -4.452327382564544678e+01 -5.064519846346229315e-01
9.277440570294857025e+00 -4.444722402095794678e+01 -4.818090402986854315e-01
9.248265765607357025e+00 -4.256380116939544678e+01 -4.217199289705604315e-01
9.677098773419857025e+00 -4.288289296627044678e+01 -4.056219065096229315e-01
1.004929115623235703e+01 -4.293220937252044678e+01 -3.841527902986854315e-01
1.039621498435735703e+01 -4.286690175533294678e+01 -3.605016672518104315e-01
7.920018695294857025e+00 -4.313191640377044678e+01 -3.281835520174354315e-01
8.283177874982357025e+00 -4.316634023189544678e+01 -3.052495920564979315e-01
8.583104632794857025e+00 -4.286751210689544678e+01 -2.779058420564979315e-01
8.930394671857357025e+00 -4.281416738033294678e+01 -2.545293772127479315e-01
9.330174945294857025e+00 -4.301155507564544678e+01 -2.349676096346229315e-01
9.676366351544857025e+00 -4.294038808345794678e+01 -2.111486399080604315e-01
1.001755287498235703e+01 -4.285310781002044678e+01 -1.871923410799354315e-01
1.035226967185735703e+01 -4.273897206783294678e+01 -1.639379465486854315e-01
7.983617328107357025e+00 -4.356441152095794678e+01 -1.387914621736854315e-01
8.321752093732357025e+00 -4.344502675533294678e+01 -1.143468820955604315e-01
8.425267718732357025e+00 -4.212654531002044678e+01 -7.629146217368543148e-02
8.934422992169857025e+00 -4.289937245845794678e+01 -6.219234107993543148e-02
9.295262835919857025e+00 -4.291035878658294678e+01 -3.941096900962293148e-02
9.639501117169857025e+00 -4.283430898189544678e+01 -1.560725807212293148e-02
9.988744281232357025e+00 -4.278584706783294678e+01 7.860759506002068520e-03
1.034189369529485703e+01 -4.275215566158294678e+01 3.122196556068956852e-02
7.951512835919857025e+00 -4.345943105220794678e+01 5.775699974037706852e-02
8.188939593732357025e+00 -4.280342519283294678e+01 8.583317161537706852e-02
8.542333148419857025e+00 -4.279451406002044678e+01 1.099420583341270685e-01
8.915868304669857025e+00 -4.287385976314544678e+01 1.326318776700645685e-01
9.259130023419857025e+00 -4.280330312252044678e+01 1.562372243497520685e-01
9.598973773419857025e+00 -4.271175038814544678e+01 1.800409352872520685e-01
1.003220131248235703e+01 -4.303364980220794678e+01 2.008539235685020685e-01
1.036984779685735703e+01 -4.292573964595794678e+01 2.248102223966270685e-01
7.918675921857357025e+00 -4.335030019283294678e+01 2.543817555997520685e-01
8.273168109357357025e+00 -4.332796132564544678e+01 2.780176198575645685e-01
8.507054828107357025e+00 -4.268135488033294678e+01 3.029809987638145685e-01
8.911839984357357025e+00 -4.291939198970794678e+01 3.260675466153770685e-01
9.230077289044857025e+00 -4.272908437252044678e+01 3.498102223966270685e-01
9.671849749982357025e+00 -4.310261952877044678e+01 3.733240163419395685e-01
1.002902748435735703e+01 -4.307930409908294678e+01 3.971582448575645685e-01
1.051743080466985703e+01 -4.360359609127044678e+01 4.214960134122520685e-01
7.898046039044857025e+00 -4.330891835689544678e+01 4.490381276700645685e-01
8.246800921857357025e+00 -4.325850331783294678e+01 4.728113210294395685e-01
8.499486468732357025e+00 -4.271077382564544678e+01 4.953180348966270685e-01
8.852025531232357025e+00 -4.269002187252044678e+01 5.190301930997520685e-01
9.302342914044857025e+00 -4.313374745845794678e+01 5.444818532560020685e-01
9.859349749982357025e+00 -4.401619374752044678e+01 5.725122487638145685e-01
1.023007728904485703e+01 -4.401692616939544678e+01 5.972314870450645685e-01
1.050168373435735703e+01 -4.359492909908294678e+01 6.196924245450645685e-01
7.873876117169857025e+00 -4.324812734127044678e+01 6.441980397794395685e-01
8.219457171857357025e+00 -4.318318593502044678e+01 6.679559743497520685e-01
8.696874164044857025e+00 -4.379756581783294678e+01 6.966577565763145685e-01
9.033544085919857025e+00 -4.365291249752044678e+01 7.202783620450645685e-01
1.846591713279485703e+01 -8.661824452877044678e+01 1.108721355209127069e+00
9.697240374982357025e+00 -4.334138906002044678e+01 7.669549977872520685e-01
1.555661537498235703e+01 -6.739485585689544678e+01 1.023562053451314569e+00
1.061826088279485703e+01 -4.414424550533294678e+01 8.245721852872520685e-01
7.983495257794857025e+00 -4.394563710689544678e+01 8.459344899747520685e-01
8.210668109357357025e+00 -4.320759999752044678e+01 8.624597585294395685e-01
8.669286273419857025e+00 -4.372505605220794678e+01 8.932214772794395685e-01
9.058446429669857025e+00 -4.384285390377044678e+01 9.197565114591270685e-01
9.349462054669857025e+00 -4.348494374752044678e+01 9.401727712247520685e-01
1.692917396873235703e+01 -7.636275136470794678e+01 1.416887859115377069e+00
1.569284584373235703e+01 -6.808577382564544678e+01 1.342928508529439569e+00
1.071335365623235703e+01 -4.460432851314544678e+01 1.032198528060689569e+00
8.040135882794857025e+00 -4.434480702877044678e+01 1.050585368881002069e+00
1.499399330466985703e+01 -8.003633534908294678e+01 1.648699382552877069e+00
8.637792132794857025e+00 -4.363252675533294678e+01 1.088762859115377069e+00
9.049535296857357025e+00 -4.386653554439544678e+01 1.118120769271627069e+00
9.300633929669857025e+00 -4.331746327877044678e+01 1.133806804427877069e+00
1.806454994529485703e+01 -8.165535390377044678e+01 1.865252116927877069e+00
1.879379799216985703e+01 -8.179475820064544678e+01 1.918398479232564569e+00
1.783969642966985703e+01 -7.479549062252044678e+01 1.829577068099752069e+00
1.495407631248235703e+01 -7.995576894283294678e+01 2.012575725326314569e+00
8.696385882794857025e+00 -4.400655019283294678e+01 1.294420818099752069e+00
9.044286273419857025e+00 -4.390828359127044678e+01 1.318163493881002069e+00
1.720432045310735703e+01 -8.100496327877044678e+01 2.179140666732564569e+00
1.614121010154485703e+01 -7.298250234127044678e+01 2.042345622787252069e+00
1.874741127341985703e+01 -8.170528066158294678e+01 2.293215373763814569e+00
1.728452064841985703e+01 -7.254573476314544678e+01 2.119494060287252069e+00
1.493710853904485703e+01 -7.999971425533294678e+01 2.378847697982564569e+00
1.563144447654485703e+01 -8.010652577877044678e+01 2.429689983138814569e+00
1.605502846091985703e+01 -7.883455312252044678e+01 2.444368938216939569e+00
1.719540932029485703e+01 -8.108491933345794678e+01 2.553240398177877069e+00
1.543527748435735703e+01 -6.985676991939544678e+01 2.290453532943502069e+00
1.669186928123235703e+01 -7.276985585689544678e+01 2.415712932357564569e+00
1.724179603904485703e+01 -7.246260488033294678e+01 2.452990154037252069e+00
1.514426185935735703e+01 -8.516255605220794678e+01 2.849352458724752069e+00
1.582761146873235703e+01 -8.498726308345794678e+01 2.895815471420064569e+00
1.560434486716985703e+01 -8.009663808345794678e+01 2.797793010482564569e+00
1.622324135154485703e+01 -7.979671132564544678e+01 2.837511638412252069e+00
1.636252357810735703e+01 -7.723091542720794678e+01 2.804628947982564569e+00
1.652512123435735703e+01 -7.213655507564544678e+01 2.731081584701314569e+00
1.867831947654485703e+01 -7.865974843502044678e+01 2.995958904037252069e+00
1.574265053123235703e+01 -8.466902577877044678e+01 3.273272136459127069e+00
1.556711342185735703e+01 -8.003401601314544678e+01 3.161959270248189569e+00
1.612790443748235703e+01 -7.944636952877044678e+01 3.190523723373189569e+00
1.682578041404485703e+01 -7.956319081783294678e+01 3.244127849349752069e+00
1.594443275779485703e+01 -6.967378652095794678e+01 2.969500163802877069e+00
1.651144935935735703e+01 -6.955403554439544678e+01 3.010195354232564569e+00
1.463730385154485703e+01 -7.531123769283294678e+01 3.341189006576314569e+00
1.553598549216985703e+01 -7.661470448970794678e+01 3.441423991927877069e+00
1.678745033591985703e+01 -7.950044667720794678e+01 3.608599284896627069e+00
1.612595131248235703e+01 -7.333833730220794678e+01 3.400744060287252069e+00
1.592600014060735703e+01 -6.969051015377044678e+01 3.291918376693502069e+00
1.619968178123235703e+01 -6.832112538814544678e+01 3.276934245834127069e+00
1.459836342185735703e+01 -7.523189198970794678e+01 3.683519939193502069e+00
1.557578041404485703e+01 -7.693477284908294678e+01 3.806612590560689569e+00
1.550070717185735703e+01 -7.056636464595794678e+01 3.609942058334127069e+00
1.588705971091985703e+01 -6.961641347408294678e+01 3.610186198959127069e+00
1.622604896873235703e+01 -6.852656972408294678e+01 3.602633098373189569e+00
1.483505775779485703e+01 -7.334407460689544678e+01 3.981264690170064569e+00
1.474045326560735703e+01 -6.990767323970794678e+01 3.854509929427877069e+00
1.634409096091985703e+01 -7.455916249752044678e+01 4.138277629623189569e+00
1.564829017966985703e+01 -6.865535390377044678e+01 3.879961589584127069e+00
1.718527748435735703e+01 -7.271504628658294678e+01 4.139879802474752069e+00
1.588388588279485703e+01 -7.143404042720794678e+01 4.007586101302877069e+00
1.570200111716985703e+01 -6.792525136470794678e+01 3.872347453841939569e+00
1.693210365623235703e+01 -7.065596425533294678e+01 4.061129192123189569e+00
1.726816322654485703e+01 -6.953194081783294678e+01 4.049807170638814569e+00
1.545651771873235703e+01 -6.842244374752044678e+01 3.539583781966939569e+00
1.759323646873235703e+01 -7.514961659908294678e+01 3.901705363998189569e+00
1.691013099998235703e+01 -6.952901113033294678e+01 3.685732463607564569e+00
1.770053627341985703e+01 -7.027095448970794678e+01 3.768389323959127069e+00
1.895004799216985703e+01 -7.274715077877044678e+01 3.937380412826314569e+00
1.533212807029485703e+01 -7.698518788814544678e+01 4.144411662826314569e+00
1.414304115623235703e+01 -6.788118398189544678e+01 3.741228679427877069e+00
1.553415443748235703e+01 -7.169429433345794678e+01 3.978945354232564569e+00
1.605038978904485703e+01 -7.121858632564544678e+01 4.003100017318502069e+00
1.770419838279485703e+01 -7.574214589595794678e+01 4.285387614974752069e+00
1.715305092185735703e+01 -7.064644277095794678e+01 4.069719890365377069e+00
1.694650795310735703e+01 -6.730830800533294678e+01 3.940477947006002069e+00
1.882736732810735703e+01 -7.236189687252044678e+01 4.260271648177877069e+00
1.110434486716985703e+01 -4.136800038814544678e+01 2.411882976302877069e+00
1.138681557029485703e+01 -4.104610097408294678e+01 2.424929240951314569e+00
1.476181557029485703e+01 -6.991572988033294678e+01 3.847262004623189569e+00
1.554221107810735703e+01 -7.073006093502044678e+01 3.934725383529439569e+00
1.593063881248235703e+01 -6.970821034908294678e+01 3.931933025131002069e+00
1.725864174216985703e+01 -7.280965077877044678e+01 4.140490154037252069e+00
1.738217689841985703e+01 -7.066121327877044678e+01 4.079302409896627069e+00
1.711642982810735703e+01 -6.708040273189544678e+01 3.939669231185689569e+00
1.142160560935735703e+01 -4.265486562252044678e+01 2.677355388412252069e+00
1.128720619529485703e+01 -4.072481191158294678e+01 2.603853801498189569e+00
1.572690346091985703e+01 -6.794551503658294678e+01 3.808519939193502069e+00
1.695078041404485703e+01 -7.063118398189544678e+01 3.993059734115377069e+00
1.733481361716985703e+01 -6.962508046627044678e+01 3.992052654037252069e+00
1.886264564841985703e+01 -7.325813710689544678e+01 4.231371501693502069e+00
1.928452064841985703e+01 -7.235713613033294678e+01 4.236773113021627069e+00
1.152560951560735703e+01 -4.098506581783294678e+01 2.609606364974752069e+00
2.021298744529485703e+01 -7.102095448970794678e+01 4.271090129623189569e+00
1.099863197654485703e+01 -4.109627187252044678e+01 1.893618205795064569e+00
1.171518471091985703e+01 -4.240340077877044678e+01 1.970781902084127069e+00
1.203195717185735703e+01 -4.213533437252044678e+01 1.991121867904439569e+00
7.729833148419857025e+00 -2.534383046627044678e+01 1.382280925521627069e+00
8.010228656232357025e+00 -2.548884999752044678e+01 1.407198528060689569e+00
1.760654213279485703e+01 -7.533638417720794678e+01 3.329470256576314569e+00
1.656430580466985703e+01 -6.804878652095794678e+01 3.095751384506002069e+00
1.907980873435735703e+01 -7.588631093502044678e+01 3.457522014388814569e+00
1.127548744529485703e+01 -4.225239980220794678e+01 2.141848186263814569e+00
1.170676185935735703e+01 -4.242989003658294678e+01 2.179674724349752069e+00
1.164963295310735703e+01 -4.077632558345794678e+01 2.140841106185689569e+00
1.162021400779485703e+01 -3.932625234127044678e+01 2.108431438216939569e+00
1.192661049216985703e+01 -3.912691152095794678e+01 2.128542522201314569e+00
1.754599525779485703e+01 -7.518538320064544678e+01 3.683992961654439569e+00
1.834848549216985703e+01 -7.576436269283294678e+01 3.763064006576314569e+00
1.909738685935735703e+01 -7.606917226314544678e+01 3.830904582748189569e+00
1.127377846091985703e+01 -4.230550038814544678e+01 2.349764446029439569e+00
1.912253334373235703e+01 -7.092720448970794678e+01 3.701403239974752069e+00
2.459445717185735703e+01 -8.883589589595794678e+01 4.594484905013814569e+00
1.156540443748235703e+01 -3.918062245845794678e+01 2.295473674545064569e+00
1.192160560935735703e+01 -3.915950429439544678e+01 2.323565105209127069e+00
1.587033607810735703e+01 -6.786568105220794678e+01 3.692553142318502069e+00
1.685007240623235703e+01 -6.947505605220794678e+01 3.818392375716939569e+00
1.756833412498235703e+01 -6.988142812252044678e+01 3.888979533920064569e+00
1.106125404685735703e+01 -4.152144277095794678e+01 2.517260173568502069e+00
1.133640053123235703e+01 -4.112544667720794678e+01 2.527926067123189569e+00
1.175168373435735703e+01 -4.126497304439544678e+01 2.565905193099752069e+00
1.239719154685735703e+01 -4.222200429439544678e+01 2.646898845443502069e+00
1.191391517966985703e+01 -3.918257558345794678e+01 2.518374065170064569e+00
8.045140765607357025e+00 -2.588777577877044678e+01 1.176745036849752069e+00
8.199925921857357025e+00 -2.556416738033294678e+01 1.186159709701314569e+00
8.468724749982357025e+00 -2.563667714595794678e+01 1.207460979232564569e+00
1.751791908591985703e+01 -7.106233632564544678e+01 2.606066325912252069e+00
1.990060951560735703e+01 -7.815413320064544678e+01 2.877657512435689569e+00
1.140048744529485703e+01 -4.201240956783294678e+01 1.769548991927877069e+00
1.138486244529485703e+01 -4.047652089595794678e+01 1.749529460677877069e+00
7.704930804669857025e+00 -2.558748281002044678e+01 1.279070476302877069e+00
8.021092914044857025e+00 -2.583736073970794678e+01 1.306902507552877069e+00
8.318822406232357025e+00 -2.600752675533294678e+01 1.332308391341939569e+00
8.622899554669857025e+00 -2.618538320064544678e+01 1.359026530990377069e+00
1.763998939841985703e+01 -7.168574941158294678e+01 2.970659831771627069e+00
1.937412025779485703e+01 -7.612508046627044678e+01 3.182741740951314569e+00
1.998508217185735703e+01 -7.582930409908294678e+01 3.226397136459127069e+00
1.152927162498235703e+01 -4.108247792720794678e+01 1.973620036849752069e+00
1.149753334373235703e+01 -3.956404531002044678e+01 1.945742229232564569e+00
8.113622210919857025e+00 -2.620210683345794678e+01 1.453463176498189569e+00
8.314794085919857025e+00 -2.602840077877044678e+01 1.466570476302877069e+00
8.523290179669857025e+00 -2.588594472408294678e+01 1.480776408920064569e+00
1.673142006248235703e+01 -6.795174062252044678e+01 3.167543987045064569e+00
1.106357338279485703e+01 -4.233980214595794678e+01 2.167955974349752069e+00
1.136325599998235703e+01 -4.198848378658294678e+01 2.184740642318502069e+00
1.182639076560735703e+01 -4.227083241939544678e+01 2.226992229232564569e+00
1.135971596091985703e+01 -3.911140859127044678e+01 2.122545818099752069e+00
1.173544838279485703e+01 -3.914387929439544678e+01 2.154619792709127069e+00
1.346066810935735703e+01 -4.245589101314544678e+01 2.364016155013814569e+00
1.714767982810735703e+01 -6.981892812252044678e+01 3.581011394271627069e+00
1.788156654685735703e+01 -7.025276601314544678e+01 3.650454143295064569e+00
1.115866615623235703e+01 -4.124300038814544678e+01 2.356981853256002069e+00
1.146616127341985703e+01 -4.095845448970794678e+01 2.374910930404439569e+00
1.140829994529485703e+01 -3.934407460689544678e+01 2.328844646224752069e+00
1.169711830466985703e+01 -3.905952870845794678e+01 2.345232585677877069e+00
1.267795326560735703e+01 -4.118330800533294678e+01 2.479982951888814569e+00
1.336777260154485703e+01 -4.219820058345794678e+01 2.563631633529439569e+00
8.130345843732357025e+00 -2.561470448970794678e+01 1.054857829818502069e+00
8.405492328107357025e+00 -2.569246327877044678e+01 1.076449016341939569e+00
8.655492328107357025e+00 -2.568074452877044678e+01 1.095781902084127069e+00
8.808690570294857025e+00 -2.535542714595794678e+01 1.106615642318502069e+00
1.095859291404485703e+01 -4.105037343502044678e+01 1.531160930404439569e+00
1.131686928123235703e+01 -4.095503652095794678e+01 1.557558635482564569e+00
7.571507953107357025e+00 -2.543343007564544678e+01 1.143480876693502069e+00
7.833470843732357025e+00 -2.548262441158294678e+01 1.164492229232564569e+00
8.096654437482357025e+00 -2.553194081783294678e+01 1.185595134506002069e+00
8.446141742169857025e+00 -2.586604726314544678e+01 1.215685466537252069e+00
8.644628070294857025e+00 -2.567940175533294678e+01 1.229906657943502069e+00
8.856664203107357025e+00 -2.554304921627044678e+01 1.246279338607564569e+00
1.098190834373235703e+01 -4.120674550533294678e+01 1.740755656966939569e+00
1.155563881248235703e+01 -4.194588124752044678e+01 1.795641521224752069e+00
1.168662025779485703e+01 -4.096199452877044678e+01 1.794191936263814569e+00
8.046239398419857025e+00 -2.629451406002044678e+01 1.325136760482564569e+00
8.206029437482357025e+00 -2.595418202877044678e+01 1.333803752670064569e+00
8.448827289044857025e+00 -2.591109120845794678e+01 1.352709392318502069e+00
8.608617328107357025e+00 -2.559431874752044678e+01 1.361651042709127069e+00
8.964940570294857025e+00 -2.592500722408294678e+01 1.394182780990377069e+00
1.981430580466985703e+01 -7.693465077877044678e+01 3.258150676498189569e+00
1.165121986716985703e+01 -4.238093984127044678e+01 2.022280315170064569e+00
1.161789467185735703e+01 -4.076204335689544678e+01 1.992739299545064569e+00
8.030736468732357025e+00 -2.627583730220794678e+01 1.460482219466939569e+00
8.182469867169857025e+00 -2.590742909908294678e+01 1.466723064193502069e+00
8.493627093732357025e+00 -2.610017812252044678e+01 1.495928386459127069e+00
1.361423256248235703e+01 -4.225191152095794678e+01 2.179689983138814569e+00
1.318430092185735703e+01 -3.956245839595794678e+01 2.100206950912252069e+00
1.121799232810735703e+01 -4.228853261470794678e+01 2.198290447006002069e+00
2.041379310935735703e+01 -7.666035878658294678e+01 3.677477458724752069e+00
1.202170326560735703e+01 -4.234517323970794678e+01 2.264666179427877069e+00
1.152402260154485703e+01 -3.907100331783294678e+01 2.154879192123189569e+00
8.237645648419857025e+00 -2.613924062252044678e+01 1.612246135482564569e+00
1.262558510154485703e+01 -4.029878652095794678e+01 2.271563152084127069e+00
1.417905189841985703e+01 -4.282381093502044678e+01 2.453936198959127069e+00
1.355331947654485703e+01 -3.999470937252044678e+01 1.603090862045064569e+00
9.297460101544857025e+00 -2.557820546627044678e+01 1.199770549545064569e+00
7.741551898419857025e+00 -2.654512441158294678e+01 1.222551921615377069e+00
7.704076312482357025e+00 -2.543062245845794678e+01 1.209200481185689569e+00
7.975804828107357025e+00 -2.550032460689544678e+01 1.231508830795064569e+00
8.243382953107357025e+00 -2.554329335689544678e+01 1.253237346420064569e+00
8.572972796857357025e+00 -2.579329335689544678e+01 1.281847575912252069e+00
1.312167885154485703e+01 -3.990828359127044678e+01 1.775881389388814569e+00
1.328891517966985703e+01 -3.920088613033294678e+01 1.782641032943502069e+00
1.388571693748235703e+01 -3.986153066158294678e+01 1.836367229232564569e+00
1.180405189841985703e+01 -4.228816640377044678e+01 1.908907512435689569e+00
1.175656654685735703e+01 -4.061482656002044678e+01 1.882067302474752069e+00
7.961156390607357025e+00 -2.548482167720794678e+01 1.366610149154439569e+00
8.361913226544857025e+00 -2.599495351314544678e+01 1.405336955795064569e+00
8.581273578107357025e+00 -2.585725820064544678e+01 1.421221355209127069e+00
1.307578041404485703e+01 -3.980977284908294678e+01 1.977877238998189569e+00
1.328549721091985703e+01 -3.924007070064544678e+01 1.987032512435689569e+00
1.359152748435735703e+01 -3.899641835689544678e+01 2.008486369857564569e+00
1.883432533591985703e+01 -6.956197011470794678e+01 3.199297527084127069e+00
1.219296791404485703e+01 -4.230659902095794678e+01 2.155993083724752069e+00
8.036839984357357025e+00 -2.579634511470794678e+01 1.514177898177877069e+00
1.204062416404485703e+01 -3.893782460689544678e+01 2.082308391341939569e+00
1.343686439841985703e+01 -4.240779531002044678e+01 2.260225871810689569e+00
1.297421791404485703e+01 -3.952644765377044678e+01 2.169832805404439569e+00
1.404062416404485703e+01 -4.170967519283294678e+01 2.297243694076314569e+00
1.359775307029485703e+01 -3.906465566158294678e+01 2.213854411849752069e+00
7.863255999982357025e+00 -2.549080312252044678e+01 1.134447673568502069e+00
8.142919085919857025e+00 -2.556807363033294678e+01 1.156664470443502069e+00
8.478246234357357025e+00 -2.582918202877044678e+01 1.184435466537252069e+00
