-1.484204571694135666e+00 -8.883093893527984619e+00 -8.495746256317886491e-01
-1.384595196694135666e+00 -8.942297995090484619e+00 -8.503375650849136491e-01
-1.283887188881635666e+00 -9.002234518527984619e+00 -8.511005045380386491e-01
-1.182812970131635666e+00 -9.062415182590484619e+00 -8.518787027802261491e-01
-2.064038556069135666e+00 -9.539954245090484619e+00 -8.433032633271011491e-01
-1.964062970131635666e+00 -9.626135885715484619e+00 -8.448291422333511491e-01
-1.861768048256635666e+00 -9.707922995090484619e+00 -8.464007975067886491e-01
-1.756299298256635666e+00 -9.782019674777984619e+00 -8.475299478974136491e-01
-1.649243634194135666e+00 -9.850134909152984619e+00 -8.483539225067886491e-01
-1.541333477944135666e+00 -9.918738424777984619e+00 -8.491778971161636491e-01
-1.432080548256635666e+00 -9.988318502902984619e+00 -8.500018717255386491e-01
-1.321362774819135666e+00 -1.005228334665298462e+01 -8.508563639130386491e-01
-2.291333477944135666e+00 -1.061197572946548462e+01 -8.398852945771011491e-01
-2.185132306069135666e+00 -1.072281557321548462e+01 -8.422809244599136491e-01
-2.081250470131635666e+00 -1.085587221384048462e+01 -8.456836344208511491e-01
-1.975171368569135666e+00 -1.099185854196548462e+01 -8.491473795380386491e-01
-1.867505352944135666e+00 -1.112979799509048462e+01 -8.526721598114761491e-01
-1.754102032631635666e+00 -1.124649721384048462e+01 -8.551746012177261491e-01
-1.635693829506635666e+00 -1.134561830759048462e+01 -8.568225504364761491e-01
-1.516309063881635666e+00 -1.144547182321548462e+01 -8.585010172333511491e-01
-2.567944806069135666e+00 -1.191654115915298462e+01 -8.364215494599136491e-01
-2.455273907631635666e+00 -1.206265932321548462e+01 -8.395953775849136491e-01
-2.341748517006635666e+00 -1.221768862009048462e+01 -8.427539469208511491e-01
-2.238843243569135666e+00 -1.244962221384048462e+01 -8.493457437958511491e-01
-2.127270977944135666e+00 -1.265250307321548462e+01 -8.546863199677261491e-01
-1.996289532631635666e+00 -1.275614076852798462e+01 -8.558917643036636491e-01
-1.862256329506635666e+00 -1.285391908884048462e+01 -8.572040201630386491e-01
-1.726392071694135666e+00 -1.294571596384048462e+01 -8.578601480927261491e-01
-3.390576642006635666e+00 -1.580277162790298462e+01 -9.161944986786636491e-01
-3.457715313881635666e+00 -1.704398256540298462e+01 -9.584460855927261491e-01
-3.355420392006635666e+00 -1.752774721384048462e+01 -9.723926187958511491e-01
-3.398877423256635666e+00 -1.887515932321548462e+01 -1.017680704733351149e+00
-3.288525860756635666e+00 -1.947281557321548462e+01 -1.035228312155226149e+00
-3.215649884194135666e+00 -2.037662416696548462e+01 -1.063609659811476149e+00
-3.030591290444135666e+00 -2.065482240915298462e+01 -1.069163859030226149e+00
-2.106396954506635666e+00 -1.566324526071548462e+01 -8.864246012177261491e-01
-3.904370587319135666e+00 -1.822708803415298462e+01 -9.124866129364761491e-01
-3.848340313881635666e+00 -1.898038393259048462e+01 -9.328723551239761491e-01
-3.757031720131635666e+00 -1.962638002634048462e+01 -9.495349527802261491e-01
-3.652539532631635666e+00 -2.027371889352798462e+01 -9.659991861786636491e-01
-3.473096173256635666e+00 -2.054959779977798462e+01 -9.704700113739761491e-01
-3.292554181069135666e+00 -2.084830385446548462e+01 -9.755817057099136491e-01
-3.111523907631635666e+00 -2.118582826852798462e+01 -9.817767740692886491e-01
-2.940259259194135666e+00 -2.162967592477798462e+01 -9.911914469208511491e-01
-4.070508282631635666e+00 -1.900614076852798462e+01 -8.399005533661636491e-01
-4.007397931069135666e+00 -1.976456362009048462e+01 -8.568988443817886491e-01
-3.900952618569135666e+00 -2.037308412790298462e+01 -8.695331217255386491e-01
-3.768384259194135666e+00 -2.090701967477798462e+01 -8.799243570771011491e-01
-3.593213360756635666e+00 -2.124625307321548462e+01 -8.848682047333511491e-01
-3.410718243569135666e+00 -2.157755190134048462e+01 -8.895068766083511491e-01
-3.251660626381635666e+00 -2.211112123727798462e+01 -8.994098307099136491e-01
-3.127637188881635666e+00 -2.296024233102798462e+01 -9.174762369599136491e-01
-4.236279767006635666e+00 -1.978348451852798462e+01 -7.604938150849136491e-01
-4.117505352944135666e+00 -2.030484682321548462e+01 -7.685657144989761491e-01
-3.993603985756635666e+00 -2.085159975290298462e+01 -7.770343424286636491e-01
-3.876172345131635666e+00 -2.149637514352798462e+01 -7.875171305146011491e-01
-3.719189923256635666e+00 -2.197708803415298462e+01 -7.941394449677261491e-01
-3.570508282631635666e+00 -2.256644350290298462e+01 -8.030048014130386491e-01
-3.391797345131635666e+00 -2.303531557321548462e+01 -8.090320230927261491e-01
-3.202832501381635666e+00 -2.348660951852798462e+01 -8.145251871552261491e-01
-4.334668438881635666e+00 -2.024234682321548462e+01 -6.674304605927261491e-01
-4.200513165444135666e+00 -2.071012026071548462e+01 -6.721759439911636491e-01
-4.089917462319135666e+00 -2.134830385446548462e+01 -6.804156900849136491e-01
-3.969678204506635666e+00 -2.200540834665298462e+01 -6.882129312958511491e-01
-3.830518048256635666e+00 -2.262174135446548462e+01 -6.951099039521011491e-01
-3.659131329506635666e+00 -2.310929018259048462e+01 -6.995502115692886491e-01
-3.471875470131635666e+00 -2.355814272165298462e+01 -7.025256754364761491e-01
-3.301709454506635666e+00 -2.418167787790298462e+01 -7.089954019989761491e-01
-4.418530743569135666e+00 -2.063175112009048462e+01 -5.696826578583511491e-01
-4.301343243569135666e+00 -2.120426088571548462e+01 -5.737720133271011491e-01
-4.188061993569135666e+00 -2.185440737009048462e+01 -5.787311197724136491e-01
-4.037671368569135666e+00 -2.237320619821548462e+01 -5.817371012177261491e-01
-3.903394024819135666e+00 -2.303946596384048462e+01 -5.865283609833511491e-01
-3.743481915444135666e+00 -2.362601381540298462e+01 -5.900989176239761491e-01
-3.557080548256635666e+00 -2.411539369821548462e+01 -5.922504068817886491e-01
-3.384717267006635666e+00 -2.476261049509048462e+01 -5.962482096161636491e-01
-4.510205548256635666e+00 -2.105850893259048462e+01 -4.680896402802261491e-01
-4.402295392006635666e+00 -2.169840151071548462e+01 -4.707904459442886491e-01
-4.256177227944135666e+00 -2.220304018259048462e+01 -4.715533853974136491e-01
-4.106641095131635666e+00 -2.274649721384048462e+01 -4.724994303192886491e-01
-3.974683087319135666e+00 -2.344864565134048462e+01 -4.746356607880386491e-01
-3.826123517006635666e+00 -2.413126283884048462e+01 -4.764056803192886491e-01
-3.640576642006635666e+00 -2.466031557321548462e+01 -4.767413736786636491e-01
-3.445386212319135666e+00 -2.518375307321548462e+01 -4.762225748505386491e-01
-4.612012188881635666e+00 -2.153226381540298462e+01 -3.632770182099136491e-01
-4.470776837319135666e+00 -2.203092104196548462e+01 -3.619342447724136491e-01
-4.320386212319135666e+00 -2.253079897165298462e+01 -3.604694010224136491e-01
-4.184644024819135666e+00 -2.316922670602798462e+01 -3.593860269989761491e-01
-4.044629376381635666e+00 -2.384879213571548462e+01 -3.583026529755386491e-01
-3.885571759194135666e+00 -2.449137026071548462e+01 -3.568988443817886491e-01
-3.705273907631635666e+00 -2.507889467477798462e+01 -3.551135660614761491e-01
-3.502026837319135666e+00 -2.557547670602798462e+01 -3.529010416474136491e-01
-4.683057110756635666e+00 -2.186063295602798462e+01 -2.535358072724136491e-01
-4.539380352944135666e+00 -2.236429506540298462e+01 -2.505908609833511491e-01
-4.386792462319135666e+00 -2.287052065134048462e+01 -2.469440103974136491e-01
-4.258618634194135666e+00 -2.356949526071548462e+01 -2.429919840302261491e-01
-4.106519024819135666e+00 -2.420194154977798462e+01 -2.389331461396011491e-01
-3.943677227944135666e+00 -2.484207826852798462e+01 -2.347217203583511491e-01
-3.767407696694135666e+00 -2.548075014352798462e+01 -2.303271891083511491e-01
-3.559155743569135666e+00 -2.596988588571548462e+01 -2.253070475067886491e-01
-4.755688946694135666e+00 -2.219657045602798462e+01 -1.412768961396011491e-01
-4.607129376381635666e+00 -2.269254213571548462e+01 -1.355853678192886491e-01
-4.469678204506635666e+00 -2.329520326852798462e+01 -1.291919352021011491e-01
-4.325635235756635666e+00 -2.393082338571548462e+01 -1.224780680146011491e-01
-4.162427227944135666e+00 -2.451969057321548462e+01 -1.158710123505386491e-01
-4.003491681069135666e+00 -2.520426088571548462e+01 -1.085773111786636491e-01
-3.827344220131635666e+00 -2.586734682321548462e+01 -1.012530924286636491e-01
-3.635083477944135666e+00 -2.649796205759048462e+01 -9.395939125678864912e-02
-4.826123517006635666e+00 -2.252225404977798462e+01 -2.541691078803864912e-02
-4.676709454506635666e+00 -2.302982240915298462e+01 -1.743656410835114912e-02
-4.541211407631635666e+00 -2.366092592477798462e+01 -8.723795553663649116e-03
-4.384351056069135666e+00 -2.424576479196548462e+01 2.788899932113508839e-04
-4.222485821694135666e+00 -2.486160951852798462e+01 9.708821633836350884e-03
-4.059644024819135666e+00 -2.554325014352798462e+01 1.997798667289885088e-02
-3.881665509194135666e+00 -2.621671205759048462e+01 3.101009116508635088e-02
-3.687817852944135666e+00 -2.686087709665298462e+01 4.118770346977385088e-02
-4.886060040444135666e+00 -2.279764467477798462e+01 9.276241050102385088e-02
-4.752759259194135666e+00 -2.339920717477798462e+01 1.037029622588363509e-01
-4.602246563881635666e+00 -2.397147279977798462e+01 1.149486897978988509e-01
-4.443677227944135666e+00 -2.456424623727798462e+01 1.266369222197738509e-01
-4.286328595131635666e+00 -2.522476869821548462e+01 1.394390462432113509e-01
-4.116406720131635666e+00 -2.588529115915298462e+01 1.523784993682113509e-01
-3.932080548256635666e+00 -2.653897768259048462e+01 1.653637288603988509e-01
-3.742017071694135666e+00 -2.723294740915298462e+01 1.798138021025863509e-01
-7.721684388816356659e-01 -6.129553854465484619e+00 -8.396411539521011491e-01
-6.966069154441356659e-01 -6.165564596652984619e+00 -8.402209879364761491e-01
-6.203129701316356659e-01 -6.199011862277984619e+00 -8.408008219208511491e-01
-5.432866029441356659e-01 -6.232825338840484619e+00 -8.413959146942886491e-01
-4.661381654441356659e-01 -6.268591940402984619e+00 -8.421130777802261491e-01
-3.886235170066356659e-01 -6.306799948215484619e+00 -8.429980875458511491e-01
-3.103764466941356659e-01 -6.345374166965484619e+00 -8.438830973114761491e-01
-2.315190248191356659e-01 -6.381018698215484619e+00 -8.447681070771011491e-01
-8.541996888816356659e-01 -6.716101706027984619e+00 -8.428607584442886491e-01
-7.730229310691356659e-01 -6.753821432590484619e+00 -8.434863687958511491e-01
-6.922123841941356659e-01 -6.799841940402984619e+00 -8.444629312958511491e-01
-6.100590638816356659e-01 -6.842932760715484619e+00 -8.454242350067886491e-01
-5.275395326316356659e-01 -6.886145651340484619e+00 -8.463702799286636491e-01
-4.437992982566356659e-01 -6.923865377902984619e+00 -8.469501139130386491e-01
-3.583500795066356659e-01 -6.950110495090484619e+00 -8.469501139130386491e-01
-2.730229310691356659e-01 -6.979529440402984619e+00 -8.469501139130386491e-01
-9.501469545066356659e-01 -7.402625143527984619e+00 -8.469806314911636491e-01
-8.614018373191356659e-01 -7.434851706027984619e+00 -8.469806314911636491e-01
-7.727787904441356659e-01 -7.472815573215484619e+00 -8.473163248505386491e-01
-6.837895326316356659e-01 -7.516394674777984619e+00 -8.480029703583511491e-01
-5.945561341941356659e-01 -7.560095846652984619e+00 -8.486743570771011491e-01
-5.045903138816356659e-01 -7.604041159152984619e+00 -8.493610025849136491e-01
-4.136479310691356659e-01 -7.647498190402984619e+00 -8.500018717255386491e-01
-3.219731263816356659e-01 -7.685584127902984619e+00 -8.502917887177261491e-01
-1.051221173256635666e+00 -8.124060690402984619e+00 -8.469958902802261491e-01
-9.561283998191356659e-01 -8.164954245090484619e+00 -8.469958902802261491e-01
-8.600590638816356659e-01 -8.201941549777984619e+00 -8.469958902802261491e-01
-7.638676576316356659e-01 -8.246375143527984619e+00 -8.474231363739761491e-01
-6.685307435691356659e-01 -8.302893698215484619e+00 -8.485217691864761491e-01
-5.723393373191356659e-01 -8.360999166965484619e+00 -8.497119547333511491e-01
-4.750492982566356659e-01 -8.419714987277984619e+00 -8.509021402802261491e-01
-3.766606263816356659e-01 -8.473792135715484619e+00 -8.520618082489761491e-01
-1.182446759194135666e+00 -9.062903463840484619e+00 -8.518939615692886491e-01
-1.080029767006635666e+00 -9.120154440402984619e+00 -8.526721598114761491e-01
-9.767582826316356659e-01 -9.177771627902984619e+00 -8.534656168427261491e-01
-8.722660951316356659e-01 -9.236121237277984619e+00 -8.542590738739761491e-01
-7.671635560691356659e-01 -9.294837057590484619e+00 -8.550677896942886491e-01
-6.610844545066356659e-01 -9.353919088840484619e+00 -8.558765055146011491e-01
-5.539067201316356659e-01 -9.413855612277984619e+00 -8.566852213349136491e-01
-4.459965638816356659e-01 -9.474036276340484619e+00 -8.575091959442886491e-01
-1.321118634194135666e+00 -1.005277162790298462e+01 -8.508716227021011491e-01
-1.210645001381635666e+00 -1.012564760446548462e+01 -8.517108561005386491e-01
-1.098340313881635666e+00 -1.019327455759048462e+01 -8.525653482880386491e-01
-9.848149232566356659e-01 -1.026334291696548462e+01 -8.535113932099136491e-01
-8.716557435691356659e-01 -1.034488588571548462e+01 -8.549914957489761491e-01
-7.571537904441356659e-01 -1.042728334665298462e+01 -8.565021158661636491e-01
-6.409428529441356659e-01 -1.051102358102798462e+01 -8.580279947724136491e-01
-5.232670716941356659e-01 -1.058804994821548462e+01 -8.595080973114761491e-01
-1.516064923256635666e+00 -1.144644838571548462e+01 -8.585315348114761491e-01
-1.394604962319135666e+00 -1.154373842477798462e+01 -8.602100016083511491e-01
-1.271680157631635666e+00 -1.164237123727798462e+01 -8.619037271942886491e-01
-1.143750470131635666e+00 -1.171512514352798462e+01 -8.624072672333511491e-01
-1.014111798256635666e+00 -1.177689272165298462e+01 -8.624072672333511491e-01
-8.833744935691356659e-01 -1.183902651071548462e+01 -8.624072672333511491e-01
-7.522709779441356659e-01 -1.191336733102798462e+01 -8.629108072724136491e-01
-6.211674623191356659e-01 -1.199942690134048462e+01 -8.639026285614761491e-01
-1.726025860756635666e+00 -1.294632631540298462e+01 -8.578906656708511491e-01
-1.587598126381635666e+00 -1.302970033884048462e+01 -8.583026529755386491e-01
-1.448804181069135666e+00 -1.312125307321548462e+01 -8.586688639130386491e-01
-1.307324688881635666e+00 -1.320645815134048462e+01 -8.590961100067886491e-01
-1.166577618569135666e+00 -1.330899721384048462e+01 -8.601947428192886491e-01
-1.026318829506635666e+00 -1.343643862009048462e+01 -8.622394205536636491e-01
-8.826420716941356659e-01 -1.355448061227798462e+01 -8.642383219208511491e-01
-7.394535951316356659e-01 -1.370438295602798462e+01 -8.670764566864761491e-01
-2.105664532631635666e+00 -1.566202455759048462e+01 -8.863788248505386491e-01
-1.901196759194135666e+00 -1.544730287790298462e+01 -8.753772379364761491e-01
-1.731030743569135666e+00 -1.548038393259048462e+01 -8.732104898896011491e-01
-1.578809063881635666e+00 -1.568643862009048462e+01 -8.771014811005386491e-01
-1.424878399819135666e+00 -1.590750795602798462e+01 -8.814654947724136491e-01
-1.278027813881635666e+00 -1.625455385446548462e+01 -8.901324869599136491e-01
-1.117749493569135666e+00 -1.652115541696548462e+01 -8.958697916474136491e-01
-9.533207826316356659e-01 -1.679300600290298462e+01 -9.017139078583511491e-01
-2.940015118569135666e+00 -2.163394838571548462e+01 -9.913135172333511491e-01
-2.795605938881635666e+00 -2.235159975290298462e+01 -1.009059488913038649e+00
-2.611035626381635666e+00 -2.284903627634048462e+01 -1.019786417623976149e+00
-2.486768048256635666e+00 -2.399515444040298462e+01 -1.050105631491163649e+00
-2.280835431069135666e+00 -2.453617006540298462e+01 -1.061671793600538649e+00
-2.048657696694135666e+00 -2.489700990915298462e+01 -1.067622721334913649e+00
-1.805249493569135666e+00 -2.521427065134048462e+01 -1.072124064108351149e+00
-1.545117657631635666e+00 -2.535794740915298462e+01 -1.071361124655226149e+00
-3.127515118569135666e+00 -2.296561342477798462e+01 -9.176135660614761491e-01
-2.939038556069135666e+00 -2.344632631540298462e+01 -9.256702066864761491e-01
-2.782788556069135666e+00 -2.427347475290298462e+01 -9.425922037567886491e-01
-2.568311017006635666e+00 -2.472513490915298462e+01 -9.494891764130386491e-01
-2.339795392006635666e+00 -2.511112123727798462e+01 -9.545703531708511491e-01
-2.128003399819135666e+00 -2.576578432321548462e+01 -9.663501383271011491e-01
-1.914258282631635666e+00 -2.656815248727798462e+01 -9.816394449677261491e-01
-1.727490704506635666e+00 -2.797183901071548462e+01 -1.011790812155226149e+00
-3.202222149819135666e+00 -2.348892885446548462e+01 -8.145709635224136491e-01
-3.044995587319135666e+00 -2.425076967477798462e+01 -8.265185953583511491e-01
-2.856885235756635666e+00 -2.487943178415298462e+01 -8.353381754364761491e-01
-2.646802227944135666e+00 -2.542520815134048462e+01 -8.421741129364761491e-01
-2.427563946694135666e+00 -2.597635561227798462e+01 -8.489490152802261491e-01
-2.198804181069135666e+00 -2.653739076852798462e+01 -8.557391764130386491e-01
-2.033276837319135666e+00 -2.804654604196548462e+01 -8.819842936005386491e-01
-1.805249493569135666e+00 -2.906314760446548462e+01 -8.976092936005386491e-01
-3.301465313881635666e+00 -2.418692690134048462e+01 -7.090716959442886491e-01
-3.122510235756635666e+00 -2.483463197946548462e+01 -7.155414225067886491e-01
-2.919507306069135666e+00 -2.538773256540298462e+01 -7.208667398896011491e-01
-2.720288556069135666e+00 -2.607950502634048462e+01 -7.276569010224136491e-01
-2.496045392006635666e+00 -2.664505678415298462e+01 -7.321582437958511491e-01
-2.315747540444135666e+00 -2.782535463571548462e+01 -7.464862467255386491e-01
-2.082715313881635666e+00 -2.864176088571548462e+01 -7.537799478974136491e-01
-1.864819806069135666e+00 -2.989200502634048462e+01 -7.684589029755386491e-01
-3.384106915444135666e+00 -2.476554018259048462e+01 -5.962787271942886491e-01
-3.183179181069135666e+00 -2.528922182321548462e+01 -5.982471109833511491e-01
-2.987012188881635666e+00 -2.593558412790298462e+01 -6.015430094208511491e-01
-2.796460431069135666e+00 -2.675760561227798462e+01 -6.067309977021011491e-01
-2.593457501381635666e+00 -2.760465151071548462e+01 -6.119495035614761491e-01
-2.368603985756635666e+00 -2.839176088571548462e+01 -6.162067057099136491e-01
-2.147412579506635666e+00 -2.942972475290298462e+01 -6.230731607880386491e-01
-1.916089337319135666e+00 -3.059635072946548462e+01 -6.310840250458511491e-01
-3.444897931069135666e+00 -2.518692690134048462e+01 -4.762378336396011491e-01
-3.234936993569135666e+00 -2.567313295602798462e+01 -4.762378336396011491e-01
-3.056714337319135666e+00 -2.650260072946548462e+01 -4.780078531708511491e-01
-2.862378399819135666e+00 -2.734134584665298462e+01 -4.795642496552261491e-01
-2.651807110756635666e+00 -2.817105776071548462e+01 -4.808002115692886491e-01
-2.421826642006635666e+00 -2.896268373727798462e+01 -4.815173746552261491e-01
-2.204175274819135666e+00 -3.011637026071548462e+01 -4.844623209442886491e-01
-1.969922345131635666e+00 -3.133878237009048462e+01 -4.867206217255386491e-01
-3.501538556069135666e+00 -2.557840639352798462e+01 -3.529010416474136491e-01
-3.308667462319135666e+00 -2.622684389352798462e+01 -3.505359293427261491e-01
-3.124463360756635666e+00 -2.705130678415298462e+01 -3.484912516083511491e-01
-2.919385235756635666e+00 -2.784183412790298462e+01 -3.460803629364761491e-01
-2.708569806069135666e+00 -2.871939760446548462e+01 -3.436694742646011491e-01
-2.490796368569135666e+00 -2.970780092477798462e+01 -3.412585855927261491e-01
-2.249219220131635666e+00 -3.065262514352798462e+01 -3.384357096161636491e-01
-2.020825665444135666e+00 -3.203604799509048462e+01 -3.362689615692886491e-01
-3.558667462319135666e+00 -2.597305971384048462e+01 -2.252917887177261491e-01
-3.381665509194135666e+00 -2.677335268259048462e+01 -2.204547525849136491e-01
-3.171338360756635666e+00 -2.742581850290298462e+01 -2.149463297333511491e-01
-2.977246563881635666e+00 -2.835050112009048462e+01 -2.087207437958511491e-01
-2.768506329506635666e+00 -2.929874330759048462e+01 -2.022052408661636491e-01
-2.539624493569135666e+00 -3.022794252634048462e+01 -1.954303385224136491e-01
-2.308545392006635666e+00 -3.136832338571548462e+01 -1.878924967255386491e-01
-2.064038556069135666e+00 -3.262076479196548462e+01 -1.789050699677261491e-01
-3.634595196694135666e+00 -2.650211244821548462e+01 -9.392887367866364912e-02
-3.431592267006635666e+00 -2.714285951852798462e+01 -8.573490395210114912e-02
-3.225415509194135666e+00 -2.786026674509048462e+01 -7.686954750678864912e-02
-3.033398907631635666e+00 -2.884293276071548462e+01 -6.606632485053864912e-02
-2.822583477944135666e+00 -2.981900697946548462e+01 -5.503422035835114912e-02
-2.590405743569135666e+00 -3.076846987009048462e+01 -4.391056313178864912e-02
-2.361645977944135666e+00 -3.200577455759048462e+01 -3.051334633491364912e-02
-2.111279767006635666e+00 -3.326224428415298462e+01 -1.662784828803864912e-02
-3.687451642006635666e+00 -2.686490541696548462e+01 4.123347983696135088e-02
-3.482861798256635666e+00 -2.752213197946548462e+01 5.249446616508635088e-02
-3.288403790444135666e+00 -2.836844545602798462e+01 6.526607261039885088e-02
-3.084546368569135666e+00 -2.928861147165298462e+01 7.983821616508635088e-02
-2.873975079506635666e+00 -3.031168276071548462e+01 9.579890952446135088e-02
-2.649243634194135666e+00 -3.139700990915298462e+01 1.127514241728988509e-01
-2.409253399819135666e+00 -3.257120424509048462e+01 1.318859456572738509e-01
-2.159131329506635666e+00 -3.391117006540298462e+01 1.524547933135238509e-01
-3.741528790444135666e+00 -2.723709779977798462e+01 1.798748372588363509e-01
-3.535352032631635666e+00 -2.790933901071548462e+01 1.936077474150863509e-01
-3.347363751381635666e+00 -2.884220033884048462e+01 2.122845052275863509e-01
-3.136426251381635666e+00 -2.974124819040298462e+01 2.306866048369613509e-01
-2.927319806069135666e+00 -3.082266908884048462e+01 2.522167562041488509e-01
-2.702466290444135666e+00 -3.196231752634048462e+01 2.749676106963363509e-01
-2.459668438881635666e+00 -3.317227846384048462e+01 2.991833089385238509e-01
-2.203442852944135666e+00 -3.450723940134048462e+01 3.266186116728988509e-01
-2.312748841941356659e-01 -6.381140768527984619e+00 -8.447681070771011491e-01
-1.519291810691356659e-01 -6.419470846652984619e+00 -8.456683756317886491e-01
-7.185105606913566589e-02 -6.454871237277984619e+00 -8.465533853974136491e-01
9.447772055864334106e-03 -6.483557760715484619e+00 -8.469348551239761491e-01
9.123488143086433411e-02 -6.506873190402984619e+00 -8.469348551239761491e-01
1.733882017433643341e-01 -6.530310690402984619e+00 -8.469348551239761491e-01
2.560298033058643341e-01 -6.561926901340484619e+00 -8.474994303192886491e-01
3.391596861183643341e-01 -6.591712057590484619e+00 -8.481402994599136491e-01
-2.727787904441356659e-01 -6.979651510715484619e+00 -8.469501139130386491e-01
-1.867192201316356659e-01 -7.005652487277984619e+00 -8.469501139130386491e-01
-1.005375795066356659e-01 -7.035071432590484619e+00 -8.469501139130386491e-01
-1.325730606913566589e-02 -7.061438620090484619e+00 -8.469653727021011491e-01
7.414503768086433411e-02 -7.087927877902984619e+00 -8.469653727021011491e-01
1.619135923683643341e-01 -7.114539206027984619e+00 -8.469653727021011491e-01
2.505366392433643341e-01 -7.145911276340484619e+00 -8.474841715302261491e-01
3.394038267433643341e-01 -7.183142721652984619e+00 -8.481555582489761491e-01
-3.216069154441356659e-01 -7.685706198215484619e+00 -8.502917887177261491e-01
-2.290776185691356659e-01 -7.719885885715484619e+00 -8.505511881317886491e-01
-1.359379701316356659e-01 -7.754309713840484619e+00 -8.508105875458511491e-01
-4.182175919413566589e-02 -7.789099752902984619e+00 -8.510852457489761491e-01
5.253859236836433411e-02 -7.823889791965484619e+00 -8.513446451630386491e-01
1.475092954933643341e-01 -7.859046041965484619e+00 -8.516193033661636491e-01
2.434565611183643341e-01 -7.903235495090484619e+00 -8.524127603974136491e-01
3.398921079933643341e-01 -7.952673971652984619e+00 -8.535266519989761491e-01
-3.762944154441356659e-01 -8.473914206027984619e+00 -8.520618082489761491e-01
-2.774174623191356659e-01 -8.534461081027984619e+00 -8.532825113739761491e-01
-1.771977357566356659e-01 -8.590491354465484619e+00 -8.544726969208511491e-01
-7.563523575663566589e-02 -8.647254049777984619e+00 -8.556781412567886491e-01
2.678175643086433411e-02 -8.704505026340484619e+00 -8.568988443817886491e-01
1.300532408058643341e-01 -8.762244284152984619e+00 -8.581348062958511491e-01
2.350337095558643341e-01 -8.812537252902984619e+00 -8.589130045380386491e-01
3.403803892433643341e-01 -8.849524557590484619e+00 -8.592029215302261491e-01
-4.456303529441356659e-01 -9.474158346652984619e+00 -8.575091959442886491e-01
-3.364994935691356659e-01 -9.531165182590484619e+00 -8.583484293427261491e-01
-2.263920716941356659e-01 -9.588782370090484619e+00 -8.591876627411636491e-01
-1.149418763816356659e-01 -9.647131979465484619e+00 -8.600421549286636491e-01
-2.637188881635665894e-03 -9.705847799777984619e+00 -8.608966471161636491e-01
1.106440611183643341e-01 -9.765051901340484619e+00 -8.617663980927261491e-01
2.255122251808643341e-01 -9.818762838840484619e+00 -8.623157144989761491e-01
3.409907408058643341e-01 -9.861975729465484619e+00 -8.623157144989761491e-01
-5.229008607566356659e-01 -1.058829408884048462e+01 -8.595233561005386491e-01
-4.044926576316356659e-01 -1.067679506540298462e+01 -8.610950113739761491e-01
-2.842533998191356659e-01 -1.075894838571548462e+01 -8.626514078583511491e-01
-1.619389466941356659e-01 -1.084232240915298462e+01 -8.642230631317886491e-01
-3.852586075663566589e-02 -1.092655092477798462e+01 -8.658099771942886491e-01
8.647413924336433411e-02 -1.101187807321548462e+01 -8.674121500458511491e-01
2.135493345558643341e-01 -1.109854799509048462e+01 -8.690448404755386491e-01
3.411128111183643341e-01 -1.068680483102798462e+01 -8.476215006317886491e-01
-6.208012513816356659e-01 -1.199967104196548462e+01 -8.639026285614761491e-01
-4.879887513816356659e-01 -1.208316713571548462e+01 -8.649249674286636491e-01
-3.537114076316356659e-01 -1.216776186227798462e+01 -8.659473062958511491e-01
-2.174809388816356659e-01 -1.225345522165298462e+01 -8.669849039521011491e-01
-8.002976700663566589e-02 -1.234000307321548462e+01 -8.680377603974136491e-01
5.876417830586433411e-02 -1.243790346384048462e+01 -8.695483805146011491e-01
2.164790220558643341e-01 -1.063529115915298462e+01 -7.903552652802261491e-01
3.398921079933643341e-01 -1.059732729196548462e+01 -7.864032389130386491e-01
-7.390873841941356659e-01 -1.370511537790298462e+01 -8.670917154755386491e-01
-5.940678529441356659e-01 -1.386954408884048462e+01 -8.705707193817886491e-01
-4.466069154441356659e-01 -1.404971987009048462e+01 -8.742023111786636491e-01
-2.947514466941356659e-01 -1.422208315134048462e+01 -8.778339029755386491e-01
-1.416752748191356659e-01 -1.444315248727798462e+01 -8.832812906708511491e-01
1.664992049336433411e-02 -1.461771303415298462e+01 -8.868823648896011491e-01
2.159907408058643341e-01 -1.057730776071548462e+01 -7.312579752411636491e-01
3.387934751808643341e-01 -1.055826479196548462e+01 -7.282214762177261491e-01
-9.528325013816356659e-01 -1.679434877634048462e+01 -9.017444254364761491e-01
-7.823002748191356659e-01 -1.705118471384048462e+01 -9.070697428192886491e-01
-6.033451966941356659e-01 -1.723624330759048462e+01 -9.098468424286636491e-01
-4.230473451316356659e-01 -1.749259096384048462e+01 -9.149737955536636491e-01
-2.387211732566356659e-01 -1.776492983102798462e+01 -9.205432535614761491e-01
-4.926804825663566589e-02 -1.804483705759048462e+01 -9.262652994599136491e-01
2.152583189308643341e-01 -1.054813295602798462e+01 -6.733508707489761491e-01
3.378169126808643341e-01 -1.053275209665298462e+01 -6.705585123505386491e-01
-1.544263165444135666e+00 -2.535916811227798462e+01 -1.071376383444288649e+00
-1.289502423256635666e+00 -2.563687807321548462e+01 -1.074580729147413649e+00
-1.159009259194135666e+00 -2.856729799509048462e+01 -1.155665934225538649e+00
-6.513188295066356659e-01 -2.332401186227798462e+01 -9.968829752411636491e-01
-5.639164857566356659e-01 -2.896146303415298462e+01 -1.155894816061476149e+00
-2.522709779441356659e-01 -2.867569643259048462e+01 -1.141994059225538649e+00
2.142817564308643341e-01 -1.053287416696548462e+01 -6.164508463349136491e-01
3.367182798683643341e-01 -1.051798158884048462e+01 -6.137500406708511491e-01
-1.726880352944135666e+00 -2.797635561227798462e+01 -1.011882364889601149e+00
-1.474561017006635666e+00 -2.874051576852798462e+01 -1.025508463522413649e+00
-1.200513165444135666e+00 -2.936624819040298462e+01 -1.035426676413038649e+00
-9.528325013816356659e-01 -3.101175600290298462e+01 -1.070186197897413649e+00
-6.551030091941356659e-01 -3.202054506540298462e+01 -1.088832438131788649e+00
-3.297856263816356659e-01 -3.262345033884048462e+01 -1.097255289694288649e+00
2.194087095558643341e-01 -9.851477682590484619e+00 -5.433612467255386491e-01
3.350092954933643341e-01 -9.800940573215484619e+00 -5.400500894989761491e-01
-1.804395001381635666e+00 -2.906644350290298462e+01 -8.976550699677261491e-01
-1.532910626381635666e+00 -2.968888002634048462e+01 -9.047351480927261491e-01
-1.283032696694135666e+00 -3.099722963571548462e+01 -9.254413248505386491e-01
-1.001294415444135666e+00 -3.218533998727798462e+01 -9.432483316864761491e-01
-7.025883607566356659e-01 -3.355985170602798462e+01 -9.643512369599136491e-01
-3.706791810691356659e-01 -3.461710268259048462e+01 -9.787097574677261491e-01
2.187983579933643341e-01 -9.815833151340484619e+00 -4.894214273896011491e-01
3.340327329933643341e-01 -9.774085104465484619e+00 -4.865222574677261491e-01
-1.864331524819135666e+00 -2.989981752634048462e+01 -7.685657144989761491e-01
-1.607495587319135666e+00 -3.090714174509048462e+01 -7.787433268036636491e-01
-1.326001446694135666e+00 -3.181961733102798462e+01 -7.878986002411636491e-01
-1.045850079506635666e+00 -3.325455385446548462e+01 -8.039661051239761491e-01
-7.404301576316356659e-01 -3.475784975290298462e+01 -8.205829264130386491e-01
-4.007084779441356659e-01 -3.602384096384048462e+01 -8.330951334442886491e-01
2.180659361183643341e-01 -9.784339010715484619e+00 -4.355884195771011491e-01
3.330561704933643341e-01 -9.744055807590484619e+00 -4.329333902802261491e-01
-1.915601056069135666e+00 -3.060575014352798462e+01 -6.311755777802261491e-01
-1.658398907631635666e+00 -3.172428041696548462e+01 -6.378894449677261491e-01
-1.382642071694135666e+00 -3.291580873727798462e+01 -6.450000406708511491e-01
-1.086987774819135666e+00 -3.423294740915298462e+01 -6.530414225067886491e-01
-7.736332826316356659e-01 -3.579227358102798462e+01 -6.632037760224136491e-01
-4.191410951316356659e-01 -3.681900697946548462e+01 -6.672473551239761491e-01
2.173335142433643341e-01 -9.762976706027984619e+00 -3.824573160614761491e-01
3.320796079933643341e-01 -9.724768698215484619e+00 -3.800159098114761491e-01
-1.969434063881635666e+00 -3.134744936227798462e+01 -4.867663980927261491e-01
-1.711865704506635666e+00 -3.258341127634048462e+01 -4.898486734833511491e-01
-1.419751446694135666e+00 -3.361441713571548462e+01 -4.903674723114761491e-01
-1.126782696694135666e+00 -3.517374330759048462e+01 -4.938006998505386491e-01
-8.004887513816356659e-01 -3.660538393259048462e+01 -4.959369303192886491e-01
-4.425785951316356659e-01 -3.786344057321548462e+01 -4.965625406708511491e-01
2.163569517433643341e-01 -9.769324362277984619e+00 -3.296771646942886491e-01
3.311030454933643341e-01 -9.732459127902984619e+00 -3.271594644989761491e-01
-2.020337384194135666e+00 -3.204434877634048462e+01 -3.362689615692886491e-01
-1.756055157631635666e+00 -3.328336244821548462e+01 -3.327899576630386491e-01
-1.469189923256635666e+00 -3.455838686227798462e+01 -3.289294840302261491e-01
-1.157178204506635666e+00 -3.587125307321548462e+01 -3.246570230927261491e-01
-8.260014466941356659e-01 -3.736734682321548462e+01 -3.202319742646011491e-01
-4.595463685691356659e-01 -3.856888490915298462e+01 -3.149066568817886491e-01
2.140376158058643341e-01 -9.906897604465484619e+00 -2.767291666474136491e-01
3.301264829933643341e-01 -9.873938620090484619e+00 -2.746539713349136491e-01
-2.063428204506635666e+00 -3.262857729196548462e+01 -1.788592936005386491e-01
-1.800488751381635666e+00 -3.398441225290298462e+01 -1.701770426239761491e-01
-1.506665509194135666e+00 -3.525907045602798462e+01 -1.604114176239761491e-01
-1.190503399819135666e+00 -3.663980776071548462e+01 -1.498675943817886491e-01
-8.490727357566356659e-01 -3.804398256540298462e+01 -1.387897135224136491e-01
-4.785893373191356659e-01 -3.937747865915298462e+01 -1.274676920380386491e-01
2.130610533058643341e-01 -9.915320456027984619e+00 -2.232471109833511491e-01
3.291499204933643341e-01 -9.875403463840484619e+00 -2.210956217255386491e-01
-2.110669415444135666e+00 -3.326993471384048462e+01 -1.655155434272614912e-02
-1.843335431069135666e+00 -3.465836244821548462e+01 -4.840494599136491161e-04
-1.541455548256635666e+00 -3.590274721384048462e+01 1.500362143852385088e-02
-1.219922345131635666e+00 -3.730667787790298462e+01 3.213924155571135088e-02
-8.727543763816356659e-01 -3.873453432321548462e+01 4.991573081352385088e-02
-4.983647279441356659e-01 -4.021573549509048462e+01 6.859248862602385088e-02
2.112299986183643341e-01 -9.996497213840484619e+00 -1.688342691864761491e-01
3.281733579933643341e-01 -9.879920065402984619e+00 -1.677814127411636491e-01
-2.158520977944135666e+00 -3.391910463571548462e+01 1.525616048369613509e-01
-1.884839337319135666e+00 -3.530765444040298462e+01 1.750988362822738509e-01
-1.580273907631635666e+00 -3.662589174509048462e+01 1.963085530791488509e-01
-1.249341290444135666e+00 -3.796964174509048462e+01 2.192119954619613509e-01
-8.981450013816356659e-01 -3.948099428415298462e+01 2.446026204619613509e-01
-5.204594545066356659e-01 -4.116239076852798462e+01 2.726330159697738509e-01
2.109858579933643341e-01 -9.921423971652984619e+00 -1.156726480927261491e-01
3.271967954933643341e-01 -9.885535299777984619e+00 -1.141620279755386491e-01
-2.202710431069135666e+00 -3.451529604196548462e+01 3.267711995635238509e-01
-1.924390118569135666e+00 -3.592240053415298462e+01 3.551220296416488509e-01
-1.614087384194135666e+00 -3.724478822946548462e+01 3.834270833525863509e-01
-1.279858868569135666e+00 -3.865994936227798462e+01 4.137615560088363509e-01
-9.257328920066356659e-01 -4.029666811227798462e+01 4.482921956572738509e-01
-5.460942201316356659e-01 -4.227762514352798462e+01 4.892467855010238509e-01
2.092768736183643341e-01 -9.997107565402984619e+00 -6.089359535835114912e-02
3.262202329933643341e-01 -9.892127096652984619e+00 -6.046634926460114912e-02
3.394038267433643341e-01 -6.591834127902984619e+00 -8.481402994599136491e-01
4.230219908058643341e-01 -6.624060690402984619e+00 -8.487811686005386491e-01
5.073725767433643341e-01 -6.653601706027984619e+00 -8.494220377411636491e-01
5.925776548683643341e-01 -6.683508932590484619e+00 -8.500781656708511491e-01
6.780268736183643341e-01 -6.709265768527984619e+00 -8.504443766083511491e-01
7.639643736183643341e-01 -6.732581198215484619e+00 -8.506122232880386491e-01
8.507563658058643341e-01 -6.756018698215484619e+00 -8.507953287567886491e-01
9.374262876808643341e-01 -6.776160299777984619e+00 -8.509479166474136491e-01
3.397700376808643341e-01 -7.183386862277984619e+00 -8.481708170380386491e-01
4.292475767433643341e-01 -7.217200338840484619e+00 -8.488574625458511491e-01
5.197016783058643341e-01 -7.254675924777984619e+00 -8.495441080536636491e-01
6.112544126808643341e-01 -7.294226706027984619e+00 -8.505664469208511491e-01
7.032954283058643341e-01 -7.333655416965484619e+00 -8.515735269989761491e-01
7.963130064308643341e-01 -7.373450338840484619e+00 -8.525806070771011491e-01
8.903071470558643341e-01 -7.409705221652984619e+00 -8.535724283661636491e-01
9.849116392433643341e-01 -7.450110495090484619e+00 -8.546100260224136491e-01
3.402583189308643341e-01 -7.953040182590484619e+00 -8.535419107880386491e-01
4.375483579933643341e-01 -7.998572409152984619e+00 -8.546405436005386491e-01
5.359370298683643341e-01 -8.044592916965484619e+00 -8.557391764130386491e-01
6.355464048683643341e-01 -8.091223776340484619e+00 -8.568530680146011491e-01
7.360102720558643341e-01 -8.138220846652984619e+00 -8.579822184052261491e-01
8.373286314308643341e-01 -8.185706198215484619e+00 -8.591266275849136491e-01
9.402339048683643341e-01 -8.233801901340484619e+00 -8.602710367646011491e-01
1.043383318930864334e+00 -8.278357565402984619e+00 -8.612018228974136491e-01
3.407466001808643341e-01 -8.849890768527984619e+00 -8.592181803192886491e-01
4.470698423683643341e-01 -8.893347799777984619e+00 -8.595538736786636491e-01
5.541255064308643341e-01 -8.931677877902984619e+00 -8.598437906708511491e-01
6.624018736183643341e-01 -8.970496237277984619e+00 -8.601337076630386491e-01
7.711665220558643341e-01 -9.009436666965484619e+00 -8.604388834442886491e-01
8.809077329933643341e-01 -9.048743307590484619e+00 -8.607440592255386491e-01
9.918696470558643341e-01 -9.088538229465484619e+00 -8.610492350067886491e-01
1.103319842368364334e+00 -9.129920065402984619e+00 -8.616901041474136491e-01
3.413569517433643341e-01 -9.862341940402984619e+00 -8.623309732880386491e-01
4.576899595558643341e-01 -9.901892721652984619e+00 -8.623309732880386491e-01
5.751216001808643341e-01 -9.955969870090484619e+00 -8.630633951630386491e-01
6.946284361183643341e-01 -1.002457338571548462e+01 -8.644977213349136491e-01
8.151118345558643341e-01 -1.009366518259048462e+01 -8.659473062958511491e-01
9.371821470558643341e-01 -1.016373354196548462e+01 -8.674121500458511491e-01
1.061205584555864334e+00 -1.023490053415298462e+01 -8.689075113739761491e-01
1.186449725180864334e+00 -1.030667787790298462e+01 -8.704028727021011491e-01
3.414790220558643341e-01 -1.068643862009048462e+01 -8.475909830536636491e-01
4.720942564308643341e-01 -1.126798158884048462e+01 -8.722339273896011491e-01
6.035639829933643341e-01 -1.133890444040298462e+01 -8.732410074677261491e-01
7.369868345558643341e-01 -1.141104799509048462e+01 -8.742633463349136491e-01
8.715083189308643341e-01 -1.148367983102798462e+01 -8.752856852021011491e-01
1.008959490805864334e+00 -1.158316713571548462e+01 -8.775134684052261491e-01
1.150072772055864334e+00 -1.170169740915298462e+01 -8.805804850067886491e-01
1.291186053305864334e+00 -1.179056459665298462e+01 -8.825793863739761491e-01
3.403803892433643341e-01 -1.059867006540298462e+01 -7.864490152802261491e-01
4.882075376808643341e-01 -1.279068666696548462e+01 -8.764911295380386491e-01
6.355464048683643341e-01 -1.289908510446548462e+01 -8.784442545380386491e-01
7.856928892433643341e-01 -1.300955873727798462e+01 -8.804278971161636491e-01
9.377924986183643341e-01 -1.312137514352798462e+01 -8.824420572724136491e-01
1.092333514243364334e+00 -1.323490053415298462e+01 -8.845019937958511491e-01
1.250780779868364334e+00 -1.336649233102798462e+01 -8.872333170380386491e-01
1.413134295493364334e+00 -1.352176576852798462e+01 -8.908954264130386491e-01
3.392817564308643341e-01 -1.055936342477798462e+01 -7.282519937958511491e-01
5.129878111183643341e-01 -1.512125307321548462e+01 -8.970752359833511491e-01
6.860835142433643341e-01 -1.535050112009048462e+01 -9.021716715302261491e-01
7.919184751808643341e-01 -1.324930483102798462e+01 -8.211169840302261491e-01
1.044970232993364334e+00 -1.575980287790298462e+01 -9.111285807099136491e-01
1.227953631430864334e+00 -1.591617494821548462e+01 -9.137225748505386491e-01
1.414110857993364334e+00 -1.606046205759048462e+01 -9.162555338349136491e-01
1.603930193930864334e+00 -1.622244936227798462e+01 -9.189410807099136491e-01
3.381831236183643341e-01 -1.053360658884048462e+01 -6.705890299286636491e-01
5.537592954933643341e-01 -1.893082338571548462e+01 -9.444385172333511491e-01
7.665278501808643341e-01 -1.923929506540298462e+01 -9.507709146942886491e-01
7.886225767433643341e-01 -1.318619447946548462e+01 -7.501483561005386491e-01
8.358637876808643341e-01 -1.070157533884048462e+01 -6.670947672333511491e-01
9.591548033058643341e-01 -1.067948061227798462e+01 -6.641345621552261491e-01
1.082567889243364334e+00 -1.065726381540298462e+01 -6.611590982880386491e-01
1.205248553305864334e+00 -1.063516908884048462e+01 -6.581988932099136491e-01
3.370844908058643341e-01 -1.051883608102798462e+01 -6.137805582489761491e-01
4.617182798683643341e-01 -1.072269350290298462e+01 -6.173053385224136491e-01
5.868403501808643341e-01 -1.075784975290298462e+01 -6.160083414521011491e-01
7.098872251808643341e-01 -1.068814760446548462e+01 -6.117663980927261491e-01
8.331782408058643341e-01 -1.066348940134048462e+01 -6.088061930146011491e-01
9.563471861183643341e-01 -1.064517885446548462e+01 -6.060290934052261491e-01
1.091845232993364334e+00 -1.082767397165298462e+01 -6.087451578583511491e-01
1.216356951743364334e+00 -1.080716615915298462e+01 -6.058765055146011491e-01
3.353755064308643341e-01 -9.800818502902984619e+00 -5.400348307099136491e-01
4.502436704933643341e-01 -9.768714010715484619e+00 -5.371356607880386491e-01
5.645014829933643341e-01 -9.739295065402984619e+00 -5.343280436005386491e-01
6.786372251808643341e-01 -9.712195456027984619e+00 -5.315662027802261491e-01
7.917964048683643341e-01 -9.677649557590484619e+00 -5.286517740692886491e-01
9.049555845558643341e-01 -9.657385885715484619e+00 -5.260730387177261491e-01
1.018236834555864334e+00 -9.637000143527984619e+00 -5.234943033661636491e-01
1.131273943930864334e+00 -9.624182760715484619e+00 -5.210986734833511491e-01
3.343989439308643341e-01 -9.773840963840484619e+00 -4.865069986786636491e-01
4.489008970558643341e-01 -9.743567526340484619e+00 -4.837909342255386491e-01
5.629145689308643341e-01 -9.715857565402984619e+00 -4.811206461396011491e-01
6.770503111183643341e-01 -9.689978659152984619e+00 -4.784961344208511491e-01
7.908198423683643341e-01 -9.678504049777984619e+00 -4.761615396942886491e-01
9.039790220558643341e-01 -9.658240377902984619e+00 -4.736590982880386491e-01
1.017260272055864334e+00 -9.637854635715484619e+00 -4.711566568817886491e-01
1.129076678305864334e+00 -9.607581198215484619e+00 -4.684863687958511491e-01
3.334223814308643341e-01 -9.743811666965484619e+00 -4.329181314911636491e-01
4.475581236183643341e-01 -9.713782370090484619e+00 -4.303241373505386491e-01
5.613276548683643341e-01 -9.686194479465484619e+00 -4.280658365692886491e-01
6.750971861183643341e-01 -9.660437643527984619e+00 -4.255481363739761491e-01
7.898432798683643341e-01 -9.679480612277984619e+00 -4.236713053192886491e-01
9.030024595558643341e-01 -9.659094870090484619e+00 -4.212451578583511491e-01
1.016161639243364334e+00 -9.638709127902984619e+00 -4.185290934052261491e-01
1.125902850180864334e+00 -9.578772604465484619e+00 -4.155841471161636491e-01
3.324458189308643341e-01 -9.724524557590484619e+00 -3.800159098114761491e-01
4.464594908058643341e-01 -9.694983541965484619e+00 -3.775439859833511491e-01
5.599848814308643341e-01 -9.667761862277984619e+00 -3.751178385224136491e-01
6.735102720558643341e-01 -9.642737448215484619e+00 -3.727069498505386491e-01
7.863032408058643341e-01 -9.620032370090484619e+00 -3.703418375458511491e-01
8.988520689308643341e-01 -9.599036276340484619e+00 -3.679919840302261491e-01
1.011645037680864334e+00 -9.579627096652984619e+00 -3.656573893036636491e-01
1.123705584555864334e+00 -9.562293112277984619e+00 -3.633533121552261491e-01
3.314692564308643341e-01 -9.732337057590484619e+00 -3.271594644989761491e-01
4.456049986183643341e-01 -9.704749166965484619e+00 -3.250995279755386491e-01
5.592524595558643341e-01 -9.679724752902984619e+00 -3.227954508271011491e-01
6.730219908058643341e-01 -9.657019674777984619e+00 -3.204913736786636491e-01
7.863032408058643341e-01 -9.644568502902984619e+00 -3.182483316864761491e-01
9.034907408058643341e-01 -9.710120260715484619e+00 -3.163715006317886491e-01
1.021654803305864334e+00 -9.763098776340484619e+00 -3.144031168427261491e-01
1.135546404868364334e+00 -9.744788229465484619e+00 -3.118396402802261491e-01
3.306147642433643341e-01 -9.873450338840484619e+00 -2.746539713349136491e-01
4.459712095558643341e-01 -9.841956198215484619e+00 -2.723956705536636491e-01
5.609614439308643341e-01 -9.815100729465484619e+00 -2.701526285614761491e-01
6.760737486183643341e-01 -9.790564596652984619e+00 -2.679095865692886491e-01
7.903315611183643341e-01 -9.767859518527984619e+00 -2.656818033661636491e-01
9.042231626808643341e-01 -9.746497213840484619e+00 -2.634540201630386491e-01
1.018480975180864334e+00 -9.727332174777984619e+00 -2.612414957489761491e-01
1.132006365805864334e+00 -9.709265768527984619e+00 -2.590289713349136491e-01
3.295161314308643341e-01 -9.875281393527984619e+00 -2.210803629364761491e-01
4.451167173683643341e-01 -9.846106588840484619e+00 -2.192340494599136491e-01
5.601069517433643341e-01 -9.819129049777984619e+00 -2.170825602021011491e-01
6.750971861183643341e-01 -9.794592916965484619e+00 -2.149463297333511491e-01
7.894770689308643341e-01 -9.771887838840484619e+00 -2.127948404755386491e-01
9.034907408058643341e-01 -9.750525534152984619e+00 -2.106586100067886491e-01
1.017626482993364334e+00 -9.731238424777984619e+00 -2.085071207489761491e-01
1.131151873618364334e+00 -9.713172018527984619e+00 -2.060809732880386491e-01
3.285395689308643341e-01 -9.879797995090484619e+00 -1.677814127411636491e-01
4.441401548683643341e-01 -9.850623190402984619e+00 -1.657519937958511491e-01
5.591303892433643341e-01 -9.823767721652984619e+00 -1.637225748505386491e-01
6.742426939308643341e-01 -9.799109518527984619e+00 -1.616626383271011491e-01
7.886225767433643341e-01 -9.776404440402984619e+00 -1.596027018036636491e-01
9.026362486183643341e-01 -9.755042135715484619e+00 -1.575427652802261491e-01
1.016771990805864334e+00 -9.735755026340484619e+00 -1.554675699677261491e-01
1.130419451743364334e+00 -9.717688620090484619e+00 -1.533771158661636491e-01
3.275630064308643341e-01 -9.885413229465484619e+00 -1.141467691864761491e-01
4.431635923683643341e-01 -9.856360495090484619e+00 -1.122394205536636491e-01
5.582758970558643341e-01 -9.829382956027984619e+00 -1.105914713349136491e-01
6.733882017433643341e-01 -9.804724752902984619e+00 -1.086230875458511491e-01
7.877680845558643341e-01 -9.782141745090484619e+00 -1.066547037567886491e-01
9.019038267433643341e-01 -9.760657370090484619e+00 -1.046710611786636491e-01
1.016161639243364334e+00 -9.741492331027984619e+00 -1.023822428192886491e-01
1.129809100180864334e+00 -9.723425924777984619e+00 -1.003528238739761491e-01
3.265864439308643341e-01 -9.891882956027984619e+00 -6.046634926460114912e-02
4.421870298683643341e-01 -9.862830221652984619e+00 -5.895572914741364912e-02
5.574214048683643341e-01 -9.835974752902984619e+00 -5.712467445991364912e-02
6.725337095558643341e-01 -9.811316549777984619e+00 -5.524784340522614912e-02
7.870356626808643341e-01 -9.788611471652984619e+00 -5.337101235053864912e-02
9.011714048683643341e-01 -9.767249166965484619e+00 -5.146366371772614912e-02
1.015429217368364334e+00 -9.747839987277984619e+00 -4.951053871772614912e-02
1.129076678305864334e+00 -9.729895651340484619e+00 -4.728275551460114912e-02
9.377924986183643341e-01 -6.776282370090484619e+00 -8.509631754364761491e-01
1.025194842368364334e+00 -6.799231588840484619e+00 -8.511310221161636491e-01
1.113085467368364334e+00 -6.818762838840484619e+00 -8.512836100067886491e-01
1.201708514243364334e+00 -6.838538229465484619e+00 -8.514361978974136491e-01
1.290819842368364334e+00 -6.858313620090484619e+00 -8.515887857880386491e-01
1.380419451743364334e+00 -6.878333151340484619e+00 -8.517413736786636491e-01
1.470873553305864334e+00 -6.898474752902984619e+00 -8.518939615692886491e-01
1.561205584555864334e+00 -6.915076315402984619e+00 -8.520160318817886491e-01
9.852778501808643341e-01 -7.450476706027984619e+00 -8.546252848114761491e-01
1.080614764243364334e+00 -7.486853659152984619e+00 -8.556323648896011491e-01
1.177294451743364334e+00 -7.527625143527984619e+00 -8.566852213349136491e-01
1.273607928305864334e+00 -7.552405416965484619e+00 -8.569141031708511491e-01
1.370287615805864334e+00 -7.576453268527984619e+00 -8.570972086396011491e-01
1.467699725180864334e+00 -7.600623190402984619e+00 -8.572803141083511491e-01
