1.540697403252124786e+00 -1.697395879030227661e+01 -1.335044044535607100e-01
6.090567782521247864e-01 -1.158772832155227661e+01 4.996727523393929005e-02
6.904776766896247864e-01 -1.134883671998977661e+01 6.350182113237679005e-02
7.780020907521247864e-01 -1.159309941530227661e+01 6.162499007768929005e-02
1.078539200127124786e+00 -1.906734257936477661e+01 -1.623892921488732100e-01
1.229173965752124786e+00 -1.917903691530227661e+01 -1.554923194926232100e-01
1.382372207939624786e+00 -1.929268437623977661e+01 -1.484885353129357100e-01
1.537157364189624786e+00 -1.940730839967727661e+01 -1.414237159769982100e-01
1.694261856377124786e+00 -1.952913457155227661e+01 -1.344046730082482100e-01
6.040518954396247864e-01 -1.110799199342727661e+01 1.099800926167517900e-01
6.862052157521247864e-01 -1.125826054811477661e+01 1.115059715230017900e-01
7.727530673146247864e-01 -1.149910527467727661e+01 1.110482078511267900e-01
1.176317520439624786e+00 -2.269576054811477661e+01 -1.760001319926232100e-01
1.360643692314624786e+00 -2.290584355592727661e+01 -1.689810890238732100e-01
1.549364395439624786e+00 -2.312093144655227661e+01 -1.617941993754357100e-01
1.740404434502124786e+00 -2.331941777467727661e+01 -1.545310157816857100e-01
1.949755020439624786e+00 -2.376326543092727661e+01 -1.523337501566857100e-01
6.007559970021247864e-01 -1.107478886842727661e+01 1.554055076558142900e-01
6.827872470021247864e-01 -1.124410039186477661e+01 1.571907859761267900e-01
7.692130282521247864e-01 -1.148787480592727661e+01 1.575112205464392900e-01
1.319872207939624786e+00 -2.802742558717727661e+01 -1.936240333598107100e-01
1.572679825127124786e+00 -2.890682011842727661e+01 -1.965689796488732100e-01
1.844896622002124786e+00 -2.986971074342727661e+01 -2.001242775004357100e-01
2.153734512627124786e+00 -3.123531132936477661e+01 -2.105918067973107100e-01
2.521898575127124786e+00 -3.319563847780227661e+01 -2.309165138285607100e-01
5.975821688771247864e-01 -1.105806523561477661e+01 1.999611717183142900e-01
6.796134188771247864e-01 -1.124202519655227661e+01 2.022652488667517900e-01
7.656729891896247864e-01 -1.147371464967727661e+01 2.039284568745642900e-01
1.666429825127124786e+00 -4.076094609498977661e+01 -2.883658546488732100e-01
2.163011856377124786e+00 -4.546712285280227661e+01 -3.426718849223107100e-01
2.943895645439624786e+00 -5.477168828248977661e+01 -4.642233985941857100e-01
4.143236465752124786e+00 -6.909676152467727661e+01 -6.515402931254357100e-01
5.120775528252124786e+00 -7.589607793092727661e+01 -7.116904396098107100e-01
5.944083407521247864e-01 -1.104817754030227661e+01 2.445168357808142900e-01
6.761954501271247864e-01 -1.122347050905227661e+01 2.477669578511267900e-01
7.622550204396247864e-01 -1.146565800905227661e+01 2.503762107808142900e-01
5.913565829396247864e-01 -1.104292851686477661e+01 2.886757713276892900e-01
6.726554110646247864e-01 -1.118562871217727661e+01 2.930397849995642900e-01
7.588370516896247864e-01 -1.145491582155227661e+01 2.965035301167517900e-01
5.881827548146247864e-01 -1.103328496217727661e+01 3.330483299214392900e-01
6.691153720021247864e-01 -1.115730839967727661e+01 3.381600242573767900e-01
7.556632235646247864e-01 -1.145918828248977661e+01 3.424782615620642900e-01
5.850089266896247864e-01 -1.103218632936477661e+01 3.770851951558142900e-01
6.659415438771247864e-01 -1.115132695436477661e+01 3.827614646870642900e-01
7.524893954396247864e-01 -1.146639043092727661e+01 3.887429099995642900e-01
5.819571688771247864e-01 -1.103670293092727661e+01 4.213662010151892900e-01
6.627677157521247864e-01 -1.115230351686477661e+01 4.273476463276892900e-01
7.495597079396247864e-01 -1.148616582155227661e+01 4.348702293355017900e-01
5.787833407521247864e-01 -1.105428105592727661e+01 4.655556541401892900e-01
6.598380282521247864e-01 -1.117268925905227661e+01 4.723610740620642900e-01
7.468741610646247864e-01 -1.151900273561477661e+01 4.815621238667517900e-01
5.757315829396247864e-01 -1.110652714967727661e+01 5.105995994526892900e-01
6.571524813771247864e-01 -1.122078496217727661e+01 5.176949363667517900e-01
7.452872470021247864e-01 -1.161482793092727661e+01 5.292000633198767900e-01
5.726798251271247864e-01 -1.112312871217727661e+01 5.552468162495642900e-01
6.542227938771247864e-01 -1.124983769655227661e+01 5.633339744526892900e-01
7.440665438771247864e-01 -1.174202519655227661e+01 5.785622459370642900e-01
5.695059970021247864e-01 -1.116255742311477661e+01 6.007790428120642900e-01
6.512931063771247864e-01 -1.128694707155227661e+01 6.094460349995642900e-01
5.663321688771247864e-01 -1.115401250123977661e+01 6.453652244526892900e-01
6.483634188771247864e-01 -1.132539921998977661e+01 6.556649070698767900e-01
1.162035293877124786e+00 -1.065901738405227661e+01 -1.377921241801232100e-01
1.239916153252124786e+00 -1.067000371217727661e+01 -1.330466407816857100e-01
1.317674942314624786e+00 -1.067720586061477661e+01 -1.283011573832482100e-01
1.396044082939624786e+00 -1.068453007936477661e+01 -1.235251564066857100e-01
1.474413223564624786e+00 -1.069185429811477661e+01 -1.187491554301232100e-01
1.553148575127124786e+00 -1.069917851686477661e+01 -1.139273780863732100e-01
1.632005997002124786e+00 -1.070650273561477661e+01 -1.091208595316857100e-01
1.710497207939624786e+00 -1.071004277467727661e+01 -1.043295997660607100e-01
1.208422012627124786e+00 -1.143477421998977661e+01 -1.349997657816857100e-01
1.292650528252124786e+00 -1.144392949342727661e+01 -1.298575538676232100e-01
1.377001114189624786e+00 -1.145308476686477661e+01 -1.247153419535607100e-01
1.462450332939624786e+00 -1.146675664186477661e+01 -1.194968360941857100e-01
1.547411270439624786e+00 -1.147603398561477661e+01 -1.143088478129357100e-01
1.632616348564624786e+00 -1.148067265748977661e+01 -1.091208595316857100e-01
1.718065567314624786e+00 -1.148995000123977661e+01 -1.039023536723107100e-01
1.804003067314624786e+00 -1.149922734498977661e+01 -9.866858902387320995e-02
1.263353653252124786e+00 -1.235188847780227661e+01 -1.316580909769982100e-01
1.355272598564624786e+00 -1.236348515748977661e+01 -1.260581153910607100e-01
1.447557754814624786e+00 -1.237508183717727661e+01 -1.204276222269982100e-01
1.540453262627124786e+00 -1.238680058717727661e+01 -1.147513526957482100e-01
1.633348770439624786e+00 -1.239851933717727661e+01 -1.090750831644982100e-01
1.726976700127124786e+00 -1.241023808717727661e+01 -1.033682960551232100e-01
1.820604629814624786e+00 -1.242207890748977661e+01 -9.766150894574820995e-02
1.921922989189624786e+00 -1.249422246217727661e+01 -9.451819839887320995e-02
1.334642715752124786e+00 -1.353853398561477661e+01 -1.315512794535607100e-01
1.438890762627124786e+00 -1.358504277467727661e+01 -1.263480323832482100e-01
1.543505020439624786e+00 -1.362410527467727661e+01 -1.210532325785607100e-01
1.649339981377124786e+00 -1.366353398561477661e+01 -1.157126564066857100e-01
1.753465957939624786e+00 -1.368062382936477661e+01 -1.094412941019982100e-01
1.860887832939624786e+00 -1.372163945436477661e+01 -1.040549415629357100e-01
1.974413223564624786e+00 -1.381294804811477661e+01 -1.005911964457482100e-01
2.089037247002124786e+00 -1.389839726686477661e+01 -9.709693375043570995e-02
1.427782364189624786e+00 -1.508589726686477661e+01 -1.338248390238732100e-01
1.543260879814624786e+00 -1.511043339967727661e+01 -1.269583839457482100e-01
1.659471817314624786e+00 -1.513509160280227661e+01 -1.200614112894982100e-01
1.776659317314624786e+00 -1.515999394655227661e+01 -1.131186622660607100e-01
1.900804825127124786e+00 -1.525606328248977661e+01 -1.086630958598107100e-01
2.032274551689624786e+00 -1.540108281373977661e+01 -1.057639259379357100e-01
2.166307754814624786e+00 -1.554878789186477661e+01 -1.028037208598107100e-01
2.303392715752124786e+00 -1.569991093873977661e+01 -9.978248062543570995e-02
1.541185684502124786e+00 -1.697469121217727661e+01 -1.335044044535607100e-01
1.677416153252124786e+00 -1.706868535280227661e+01 -1.272788185160607100e-01
1.814501114189624786e+00 -1.715315800905227661e+01 -1.210074562113732100e-01
1.959032364189624786e+00 -1.729793339967727661e+01 -1.164755958598107100e-01
2.112840957939624786e+00 -1.751753789186477661e+01 -1.141104835551232100e-01
2.274095840752124786e+00 -1.776668339967727661e+01 -1.123252052348107100e-01
2.440111465752124786e+00 -1.802315312623977661e+01 -1.104941505473107100e-01
2.609545059502124786e+00 -1.827095586061477661e+01 -1.085105079691857100e-01
1.694872207939624786e+00 -1.952998906373977661e+01 -1.343894142191857100e-01
1.859545059502124786e+00 -1.972859746217727661e+01 -1.295066017191857100e-01
2.043260879814624786e+00 -2.012300664186477661e+01 -1.297354835551232100e-01
2.236009903252124786e+00 -2.053682500123977661e+01 -1.299491066019982100e-01
2.436937637627124786e+00 -2.096834355592727661e+01 -1.301932472269982100e-01
2.648363418877124786e+00 -2.142268925905227661e+01 -1.304526466410607100e-01
2.873949356377124786e+00 -2.193733769655227661e+01 -1.317191261332482100e-01
3.145922012627124786e+00 -2.276375371217727661e+01 -1.399741310160607100e-01
1.950731582939624786e+00 -2.376827031373977661e+01 -1.524100441019982100e-01
2.186693497002124786e+00 -2.448091679811477661e+01 -1.560721534769982100e-01
2.441454239189624786e+00 -2.527901250123977661e+01 -1.602530616801232100e-01
2.712206192314624786e+00 -2.609749394655227661e+01 -1.644492286723107100e-01
3.076952286064624786e+00 -2.776277714967727661e+01 -1.859336036723107100e-01
3.439745254814624786e+00 -2.913057500123977661e+01 -1.991782325785607100e-01
3.907030411064624786e+00 -3.123006230592727661e+01 -2.264914650004357100e-01
4.501268692314624786e+00 -3.409004765748977661e+01 -2.656912941019982100e-01
2.523485489189624786e+00 -3.320699101686477661e+01 -2.310691017191857100e-01
2.936083145439624786e+00 -3.533077031373977661e+01 -2.522177833598107100e-01
3.593797989189624786e+00 -4.013570195436477661e+01 -3.193717140238732100e-01
5.514574356377124786e+00 -5.860176640748977661e+01 -6.198935646098107100e-01
7.447191543877124786e+00 -7.394820195436477661e+01 -8.461203712504357100e-01
8.493822403252124786e+00 -7.819246464967727661e+01 -8.728690284769982100e-01
7.100755997002124786e+00 -5.994344121217727661e+01 -5.405783790629357100e-01
7.571337051689624786e+00 -5.977339726686477661e+01 -5.036673683207482100e-01
5.125536270439624786e+00 -7.593953496217727661e+01 -7.121634620707482100e-01
6.106493301689624786e+00 -8.114339238405227661e+01 -7.418875831644982100e-01
7.211107559502124786e+00 -8.681294804811477661e+01 -7.717337745707482100e-01
8.594774551689624786e+00 -9.458321171998977661e+01 -8.218131202738732100e-01
7.080858536064624786e+00 -5.993977910280227661e+01 -2.711844581644982100e-01
7.702074356377124786e+00 -6.102986699342727661e+01 -2.481589454691857100e-01
7.100267715752124786e+00 -6.029121953248977661e+01 -2.736582187935709953e-03
7.596727676689624786e+00 -6.031355839967727661e+01 3.205345687456429005e-02
7.621019668877124786e+00 -6.068343144655227661e+01 3.027443748433142900e-01
1.710863418877124786e+00 -1.071004277467727661e+01 -1.043143409769982100e-01
1.790209122002124786e+00 -1.071797734498977661e+01 -9.947730484418570995e-02
1.871996231377124786e+00 -1.074129277467727661e+01 -9.561683121137320995e-02
1.956713028252124786e+00 -1.077791386842727661e+01 -9.239722671918570995e-02
2.041918106377124786e+00 -1.081477910280227661e+01 -8.914710464887320995e-02
2.128465957939624786e+00 -1.085225468873977661e+01 -8.585120621137320995e-02
2.215502090752124786e+00 -1.088997441530227661e+01 -8.252479019574820995e-02
2.302660293877124786e+00 -1.092366582155227661e+01 -7.919837418012320995e-02
1.804247207939624786e+00 -1.149886113405227661e+01 -9.862281265668570995e-02
1.894579239189624786e+00 -1.154048711061477661e+01 -9.508277359418570995e-02
1.987352676689624786e+00 -1.159224492311477661e+01 -9.193946304731070995e-02
2.082323379814624786e+00 -1.165059453248977661e+01 -8.876563492231070995e-02
2.177538223564624786e+00 -1.170369511842727661e+01 -8.554603043012320995e-02
2.273241348564624786e+00 -1.175166875123977661e+01 -8.225013199262320995e-02
2.370897598564624786e+00 -1.180611211061477661e+01 -7.895423355512320995e-02
2.469774551689624786e+00 -1.186128789186477661e+01 -7.559729996137320995e-02
1.922289200127124786e+00 -1.249483281373977661e+01 -9.451819839887320995e-02
2.026537247002124786e+00 -1.257808476686477661e+01 -9.192420425824820995e-02
2.132738418877124786e+00 -1.266402226686477661e+01 -8.934546890668570995e-02
2.241136856377124786e+00 -1.275191289186477661e+01 -8.672095718793570995e-02
2.351244278252124786e+00 -1.284090214967727661e+01 -8.403541031293570995e-02
2.463671036064624786e+00 -1.293196660280227661e+01 -8.130408707074820995e-02
2.577806778252124786e+00 -1.302425175905227661e+01 -7.852698746137320995e-02
2.694139786064624786e+00 -1.311836796998977661e+01 -7.570411148481070995e-02
2.089525528252124786e+00 -1.389937382936477661e+01 -9.711219253949820995e-02
2.207201309502124786e+00 -1.399678593873977661e+01 -9.352637710981070995e-02
2.326097793877124786e+00 -1.408833867311477661e+01 -8.989478531293570995e-02
2.447435684502124786e+00 -1.418172246217727661e+01 -8.620215835981070995e-02
2.570482559502124786e+00 -1.427644902467727661e+01 -8.244849625043570995e-02
2.696092911064624786e+00 -1.437312871217727661e+01 -7.861854019574820995e-02
2.823412247002124786e+00 -1.447115117311477661e+01 -7.472754898481070995e-02
2.973680801689624786e+00 -1.468453007936477661e+01 -7.500220718793570995e-02
2.303880997002124786e+00 -1.570137578248977661e+01 -9.979773941449820995e-02
2.443407364189624786e+00 -1.584993535280227661e+01 -9.668494644574820995e-02
2.586229629814624786e+00 -1.600203496217727661e+01 -9.348060074262320995e-02
2.732958145439624786e+00 -1.615828496217727661e+01 -9.019996109418570995e-02
2.891283340752124786e+00 -1.637288457155227661e+01 -8.858252945356070995e-02
3.069505997002124786e+00 -1.668233281373977661e+01 -8.958960953168570995e-02
3.255052872002124786e+00 -1.700459843873977661e+01 -9.064246597699820995e-02
3.449144668877124786e+00 -1.734139043092727661e+01 -9.174109878949820995e-02
2.610277481377124786e+00 -1.827327519655227661e+01 -1.085410255473107100e-01
2.787279434502124786e+00 -1.854488164186477661e+01 -1.062827247660607100e-01
2.994921036064624786e+00 -1.900252324342727661e+01 -1.092734474223107100e-01
3.219164200127124786e+00 -1.951546269655227661e+01 -1.132102150004357100e-01
3.456713028252124786e+00 -2.005867558717727661e+01 -1.173606056254357100e-01
3.710375137627124786e+00 -2.063887578248977661e+01 -1.218009132426232100e-01
3.979906387627124786e+00 -2.125484257936477661e+01 -1.265006202738732100e-01
4.345751114189624786e+00 -2.234346562623977661e+01 -1.427970069926232100e-01
3.147753067314624786e+00 -2.277425175905227661e+01 -1.401877540629357100e-01
3.447191543877124786e+00 -2.370223027467727661e+01 -1.500449317973107100e-01
3.769823379814624786e+00 -2.468221074342727661e+01 -1.600089210551232100e-01
4.150682754814624786e+00 -2.593904668092727661e+01 -1.750388282816857100e-01
4.602098770439624786e+00 -2.751668339967727661e+01 -1.957297462504357100e-01
5.066332168877124786e+00 -2.900057011842727661e+01 -2.124838966410607100e-01
5.749071426689624786e+00 -3.161238652467727661e+01 -2.511344093363732100e-01
7.091356582939624786e+00 -3.763789921998977661e+01 -3.561606544535607100e-01
4.504198379814624786e+00 -3.410652714967727661e+01 -2.659506935160607100e-01
5.674852676689624786e+00 -4.106526738405227661e+01 -3.806815284769982100e-01
8.625047989189624786e+00 -6.013911992311477661e+01 -7.115378517191857100e-01
7.219774551689624786e+00 -4.707088261842727661e+01 -4.417777198832482100e-01
7.529589004814624786e+00 -4.657198125123977661e+01 -4.064536232035607100e-01
7.931566543877124786e+00 -4.667818242311477661e+01 -3.817649025004357100e-01
8.210741348564624786e+00 -4.605806523561477661e+01 -3.462577003519982100e-01
8.923387832939624786e+00 -4.790450078248977661e+01 -3.490347999613732100e-01
7.572435684502124786e+00 -5.976863652467727661e+01 -5.034690040629357100e-01
8.068651504814624786e+00 -5.981307011842727661e+01 -4.700217384379357100e-01
6.847460098564624786e+00 -4.729134160280227661e+01 -2.606711525004357100e-01
7.189989395439624786e+00 -4.697176152467727661e+01 -2.293601173441857100e-01
7.495531387627124786e+00 -4.644978886842727661e+01 -1.958518165629357100e-01
7.857347793877124786e+00 -4.631538945436477661e+01 -1.675467628519982100e-01
8.548509903252124786e+00 -4.812508183717727661e+01 -1.620230812113732100e-01
8.608812637627124786e+00 -4.623897343873977661e+01 -1.135153907816857100e-01
7.574022598564624786e+00 -5.994441777467727661e+01 -2.365775245707482100e-01
8.060594864189624786e+00 -5.990352421998977661e+01 -2.016501564066857100e-01
8.485643692314624786e+00 -5.940682011842727661e+01 -1.624045509379357100e-01
7.282396622002124786e+00 -4.771590214967727661e+01 -2.528907242231070995e-02
7.488085098564624786e+00 -4.650118046998977661e+01 1.215599593706429005e-02
7.884813614189624786e+00 -4.657906132936477661e+01 3.852318343706429005e-02
8.342577286064624786e+00 -4.701009160280227661e+01 6.249474105425179005e-02
8.673387832939624786e+00 -4.668538457155227661e+01 9.186790999956429005e-02
7.598680801689624786e+00 -6.031648808717727661e+01 3.216026839800179005e-02
8.048998184502124786e+00 -5.996712285280227661e+01 6.911705550737679005e-02
8.531420059502124786e+00 -5.988753300905227661e+01 1.044411521870642900e-01
7.209764786064624786e+00 -4.732149296998977661e+01 1.914772849995642900e-01
7.609178848564624786e+00 -4.739217168092727661e+01 2.187752586323767900e-01
7.925340957939624786e+00 -4.692561894655227661e+01 2.478890281636267900e-01
8.263109512627124786e+00 -4.663448125123977661e+01 2.760109764058142900e-01
8.645311661064624786e+00 -4.661519414186477661e+01 3.033852439839392900e-01
7.622362442314624786e+00 -6.068050175905227661e+01 3.028664451558142900e-01
8.016649551689624786e+00 -5.986629277467727661e+01 3.390908103901892900e-01
8.592699356377124786e+00 -6.048299199342727661e+01 3.742470603901892900e-01
1.061015541106462479e+01 -7.099727421998977661e+01 4.151711326558142900e-01
7.590868301689624786e+00 -4.737422734498977661e+01 4.314980369526892900e-01
7.991136856377124786e+00 -4.742915898561477661e+01 4.595894676167517900e-01
8.240892715752124786e+00 -4.659480839967727661e+01 4.856667381245642900e-01
8.916429825127124786e+00 -4.822224980592727661e+01 5.179848533589392900e-01
8.095873184502124786e+00 -6.064522343873977661e+01 6.129708152730017900e-01
7.251024551689624786e+00 -4.782344609498977661e+01 6.183113914448767900e-01
7.587206192314624786e+00 -4.745210820436477661e+01 6.445565086323767900e-01
7.970506973564624786e+00 -4.739790898561477661e+01 6.725258689839392900e-01
8.214891739189624786e+00 -4.653243046998977661e+01 6.958718162495642900e-01
8.588426895439624786e+00 -4.646944218873977661e+01 7.231850486714392900e-01
1.533073646575212479e+01 -8.871040898561477661e+01 1.394602284999564290e+00
8.690355606377124786e+00 -4.713008671998977661e+01 9.404244285542517900e-01
1.530473548918962479e+01 -8.873225957155227661e+01 1.799601064296439290e+00
1.523417884856462479e+01 -8.413631230592727661e+01 1.778894887538626790e+00
1.526689369231462479e+01 -8.868501836061477661e+01 2.205454335780814290e+00
1.572844154387712479e+01 -8.708992558717727661e+01 2.226343618007376790e+00
1.516679603606462479e+01 -8.826546269655227661e+01 2.599146352382376790e+00
1.519645912200212479e+01 -8.424324589967727661e+01 2.551386342616751790e+00
2.302904434502124786e+00 -1.092378789186477661e+01 -7.918311539106070995e-02
2.392015762627124786e+00 -1.096297246217727661e+01 -7.579566421918570995e-02
2.481249161064624786e+00 -1.099812871217727661e+01 -7.239295425824820995e-02
2.571703262627124786e+00 -1.103389531373977661e+01 -6.894446793012320995e-02
2.662889786064624786e+00 -1.106990605592727661e+01 -6.548072281293570995e-02
2.755419082939624786e+00 -1.110640507936477661e+01 -6.195594253949820995e-02
2.852464981377124786e+00 -1.115999394655227661e+01 -5.916358414106070995e-02
2.960741348564624786e+00 -1.125398808717727661e+01 -5.833960953168570995e-02
2.470140762627124786e+00 -1.186177617311477661e+01 -7.561255875043570995e-02
2.569505997002124786e+00 -1.191292363405227661e+01 -7.220984878949820995e-02
2.670214004814624786e+00 -1.196480351686477661e+01 -6.877662125043570995e-02
2.773851700127124786e+00 -1.202388554811477661e+01 -6.526709976606070995e-02
2.887499161064624786e+00 -1.212422734498977661e+01 -6.368018570356070995e-02
3.012132950127124786e+00 -1.226289921998977661e+01 -6.378699722699820995e-02
3.132494278252124786e+00 -1.237300664186477661e+01 -6.232215347699820995e-02
3.253710098564624786e+00 -1.247713261842727661e+01 -6.047584000043570995e-02
2.694505997002124786e+00 -1.311873418092727661e+01 -7.570411148481070995e-02
2.812059707939624786e+00 -1.320931035280227661e+01 -7.280494156293570995e-02
2.941820450127124786e+00 -1.335164433717727661e+01 -7.176734390668570995e-02
3.076708145439624786e+00 -1.350337773561477661e+01 -7.086707535199820995e-02
3.208544082939624786e+00 -1.362898808717727661e+01 -6.883765640668570995e-02
3.344164200127124786e+00 -1.375862675905227661e+01 -6.677771988324820995e-02
3.485643692314624786e+00 -1.390364629030227661e+01 -6.511451187543570995e-02
3.645311661064624786e+00 -1.411177617311477661e+01 -6.549598160199820995e-02
2.974291153252124786e+00 -1.468599492311477661e+01 -7.503272476606070995e-02
3.134813614189624786e+00 -1.493257695436477661e+01 -7.568885269574820995e-02
3.299364395439624786e+00 -1.517659550905227661e+01 -7.631446304731070995e-02
3.471239395439624786e+00 -1.543135625123977661e+01 -7.695533218793570995e-02
3.649584122002124786e+00 -1.569576054811477661e+01 -7.761146011762320995e-02
3.836962051689624786e+00 -1.597603398561477661e+01 -7.843543472699820995e-02
4.045702286064624786e+00 -1.632698613405227661e+01 -8.112098160199820995e-02
4.261400528252124786e+00 -1.667964726686477661e+01 -8.382178726606070995e-02
3.449877090752124786e+00 -1.734346562623977661e+01 -9.177161636762320995e-02
3.651537247002124786e+00 -1.768782597780227661e+01 -9.287024918012320995e-02
3.865648575127124786e+00 -1.806258183717727661e+01 -9.442664566449820995e-02
4.105516739189624786e+00 -1.852608281373977661e+01 -9.796668472699820995e-02
4.428514786064624786e+00 -1.933907109498977661e+01 -1.105704444926232100e-01
4.718797989189624786e+00 -1.993782597780227661e+01 -1.164298194926232100e-01
5.012010879814624786e+00 -2.050435429811477661e+01 -1.207785743754357100e-01
5.529100723564624786e+00 -2.195564824342727661e+01 -1.471610206644982100e-01
4.347582168877124786e+00 -2.235030156373977661e+01 -1.429190773051232100e-01
4.688646622002124786e+00 -2.320711308717727661e+01 -1.514487403910607100e-01
5.092333145439624786e+00 -2.430293828248977661e+01 -1.651663917582482100e-01
5.535326309502124786e+00 -2.549104863405227661e+01 -1.796927589457482100e-01
6.081835098564624786e+00 -2.706514531373977661e+01 -2.016348976176232100e-01
6.762499161064624786e+00 -2.911104375123977661e+01 -2.320914405863732100e-01
1.020134193450212479e+01 -4.288106328248977661e+01 -5.128836769144982100e-01
7.144823379814624786e+00 -2.869124394655227661e+01 -1.919150489848107100e-01
7.104784317314624786e+00 -3.770686894655227661e+01 -3.575034278910607100e-01
9.268602676689624786e+00 -4.753377324342727661e+01 -5.308890480082482100e-01
9.392992325127124786e+00 -4.615535527467727661e+01 -4.778037208598107100e-01
9.806688614189624786e+00 -4.628548222780227661e+01 -4.541983741801232100e-01
1.020988685637712479e+01 -4.635616093873977661e+01 -4.293875831644982100e-01
1.057267982512712479e+01 -4.622798711061477661e+01 -4.008231300394982100e-01
7.186815567314624786e+00 -2.994185429811477661e+01 -1.000113624613732100e-01
7.394090957939624786e+00 -2.976692754030227661e+01 -8.040381851606070995e-02
8.923021622002124786e+00 -4.789497929811477661e+01 -3.487906593363732100e-01
8.982958145439624786e+00 -4.610030156373977661e+01 -2.945456642191857100e-01
9.423631973564624786e+00 -4.639021855592727661e+01 -2.714743751566857100e-01
9.792894668877124786e+00 -4.629439336061477661e+01 -2.436118263285607100e-01
1.016459877043962479e+01 -4.621797734498977661e+01 -2.161460060160607100e-01
1.053068763762712479e+01 -4.610970097780227661e+01 -1.881613868754357100e-01
7.172533340752124786e+00 -2.992305546998977661e+01 3.418968734331429005e-02
7.304369278252124786e+00 -2.943489629030227661e+01 5.681847152300179005e-02
8.610765762627124786e+00 -4.624263554811477661e+01 -1.134543556254357100e-01
8.872118301689624786e+00 -4.559248906373977661e+01 -8.015967789106070995e-02
9.401171036064624786e+00 -4.635445195436477661e+01 -6.143714371137320995e-02
9.756273575127124786e+00 -4.619148808717727661e+01 -3.307105484418570995e-02
1.012468177825212479e+01 -4.610371953248977661e+01 -5.559458164498209953e-03
1.049394447356462479e+01 -4.601473027467727661e+01 2.205895003862679005e-02
1.100346595793962479e+01 -4.653890019655227661e+01 4.499290999956429005e-02
7.118578262627124786e+00 -2.870161992311477661e+01 1.943459373433142900e-01
8.673754043877124786e+00 -4.668074589967727661e+01 9.198998031206429005e-02
8.930834122002124786e+00 -4.598592168092727661e+01 1.231484275776892900e-01
9.327684707939624786e+00 -4.605830937623977661e+01 1.495766502339392900e-01
9.716356582939624786e+00 -4.607198125123977661e+01 1.765541892964392900e-01
1.016777259856462479e+01 -4.637813359498977661e+01 2.023873191792517900e-01
1.053862220793962479e+01 -4.628548222780227661e+01 2.301125389058142900e-01
1.100151283293962479e+01 -4.659871464967727661e+01 2.566170555073767900e-01
7.365282364189624786e+00 -2.977168828248977661e+01 3.203682762105017900e-01
8.646532364189624786e+00 -4.661507207155227661e+01 3.034767967183142900e-01
8.915209122002124786e+00 -4.598470097780227661e+01 3.316292625386267900e-01
9.314745254814624786e+00 -4.607149296998977661e+01 3.587593894917517900e-01
9.741747207939624786e+00 -4.627205449342727661e+01 3.861794334370642900e-01
1.015214759856462479e+01 -4.637813359498977661e+01 4.137978416401892900e-01
1.063090736418962479e+01 -4.677242070436477661e+01 4.421028953511267900e-01
1.119841224700212479e+01 -4.752193242311477661e+01 4.716133933980017900e-01
7.344408340752124786e+00 -2.972591191530227661e+01 4.543099266011267900e-01
8.918138809502124786e+00 -4.822469121217727661e+01 5.180916648823767900e-01
8.993578262627124786e+00 -4.648592168092727661e+01 5.407357078511267900e-01
9.491258926689624786e+00 -4.705318242311477661e+01 5.709328514058142900e-01
9.834398575127124786e+00 -4.680196171998977661e+01 5.981087547261267900e-01
1.049785072356462479e+01 -4.807661992311477661e+01 6.332039695698767900e-01
1.070097572356462479e+01 -4.716048222780227661e+01 6.569008689839392900e-01
1.104265052825212479e+01 -4.691487675905227661e+01 6.839089256245642900e-01
1.176323158293962479e+01 -4.826827031373977661e+01 7.223458152730017900e-01
8.589647598564624786e+00 -4.646932011842727661e+01 7.232766014058142900e-01
8.870165176689624786e+00 -4.590706425905227661e+01 7.467446189839392900e-01
9.446214981377124786e+00 -4.690254765748977661e+01 7.822365623433142900e-01
1.051201087981462479e+01 -4.821944218873977661e+01 8.527932029683142900e-01
1.080034095793962479e+01 -4.768184453248977661e+01 8.767189842183142900e-01
1.121183998137712479e+01 -4.772102910280227661e+01 9.076790672261267900e-01
1.184648353606462479e+01 -4.868697148561477661e+01 9.487404685933142900e-01
8.691454239189624786e+00 -4.712923222780227661e+01 9.405159812886267900e-01
9.053636856377124786e+00 -4.697456914186477661e+01 9.673867088276892900e-01
9.416551895439624786e+00 -4.683089238405227661e+01 9.943032127339392900e-01
1.725578529387712479e+01 -8.344563847780227661e+01 1.540689931483939290e+00
1.726616127043962479e+01 -8.015230351686477661e+01 1.544367299648001790e+00
1.086357337981462479e+01 -4.804158574342727661e+01 1.100077138515189290e+00
1.120170814543962479e+01 -4.774690800905227661e+01 1.125299916835501790e+00
1.648027259856462479e+01 -6.821443730592727661e+01 1.496912465663626790e+00
1.523576576262712479e+01 -8.413240605592727661e+01 1.778986440273001790e+00
9.103685684502124786e+00 -4.732820683717727661e+01 1.185419545741751790e+00
9.461229629814624786e+00 -4.714107304811477661e+01 1.211466298671439290e+00
1.674492103606462479e+01 -8.106868535280227661e+01 1.878687368007376790e+00
1.711076576262712479e+01 -7.954732304811477661e+01 1.900553212733939290e+00
1.724785072356462479e+01 -7.708601933717727661e+01 1.901911244960501790e+00
1.117399818450212479e+01 -4.769673711061477661e+01 1.341547475429251790e+00
1.863969642668962479e+01 -7.739473515748977661e+01 2.009012685390189290e+00
1.573100502043962479e+01 -8.709078007936477661e+01 2.226526723476126790e+00
1.685808021575212479e+01 -8.921907597780227661e+01 2.329187856288626790e+00
9.452318497002124786e+00 -4.717647343873977661e+01 1.426371083827689290e+00
1.676445228606462479e+01 -8.130183964967727661e+01 2.257685170741751790e+00
1.639995033293962479e+01 -7.631245976686477661e+01 2.189478383632376790e+00
1.720024330168962479e+01 -7.698933964967727661e+01 2.255579457851126790e+00
1.924308998137712479e+01 -8.304805546998977661e+01 2.459558950038626790e+00
1.844951087981462479e+01 -7.670540410280227661e+01 2.347849355312064290e+00
1.602226478606462479e+01 -8.890596562623977661e+01 2.673700795741751790e+00
1.574516517668962479e+01 -8.337032109498977661e+01 2.580347524257376790e+00
1.642656166106462479e+01 -8.326009160280227661e+01 2.631189809413626790e+00
1.571721107512712479e+01 -7.319881230592727661e+01 2.449671254726126790e+00
1.683305580168962479e+01 -7.543758183717727661e+01 2.563501821132376790e+00
1.776738197356462479e+01 -7.671040898561477661e+01 2.651209340663626790e+00
1.786442787200212479e+01 -7.434944707155227661e+01 2.630655751796439290e+00
1.568498451262712479e+01 -8.319746953248977661e+01 2.957758412929251790e+00
1.634269935637712479e+01 -8.297261601686477661e+01 3.004938588710501790e+00
1.669267494231462479e+01 -7.794881230592727661e+01 2.945902333827689290e+00
1.626408607512712479e+01 -7.296101933717727661e+01 2.827066884608939290e+00
1.757890541106462479e+01 -7.599983769655227661e+01 2.981241689296439290e+00
1.798832923918962479e+01 -7.498067265748977661e+01 2.995508657069876790e+00
1.551103431731462479e+01 -7.881001836061477661e+01 3.233194814296439290e+00
1.656071693450212479e+01 -8.070149785280227661e+01 3.354654775233939290e+00
1.572502357512712479e+01 -7.347322636842727661e+01 3.132486806483939290e+00
1.624589759856462479e+01 -7.299214726686477661e+01 3.164774404140189290e+00
1.801664955168962479e+01 -7.803743535280227661e+01 3.413248525233939290e+00
1.707890541106462479e+01 -7.124300175905227661e+01 3.192286000819876790e+00
1.572477943450212479e+01 -8.005684453248977661e+01 3.645075307460501790e+00
1.575444252043962479e+01 -7.373250371217727661e+01 3.481882558437064290e+00
1.594291908293962479e+01 -7.171993046998977661e+01 3.444162831874564290e+00
1.645854408293962479e+01 -7.130037480592727661e+01 3.474176869960501790e+00
1.749370033293962479e+01 -7.310432988405227661e+01 3.605478749843314290e+00
2.961229629814624786e+00 -1.125496464967727661e+01 -5.835486832074820995e-02
3.073534317314624786e+00 -1.135725957155227661e+01 -5.750037613324820995e-02
3.187181778252124786e+00 -1.145662480592727661e+01 -5.664588394574820995e-02
3.307298965752124786e+00 -1.157076054811477661e+01 -5.626441421918570995e-02
3.432909317314624786e+00 -1.169685918092727661e+01 -5.626441421918570995e-02
3.559496231377124786e+00 -1.181599980592727661e+01 -5.580665054731070995e-02
3.679491348564624786e+00 -1.190523320436477661e+01 -5.397559585981070995e-02
3.800340957939624786e+00 -1.199056035280227661e+01 -5.212928238324820995e-02
3.254198379814624786e+00 -1.247810918092727661e+01 -6.049109878949820995e-02
3.381273575127124786e+00 -1.259663945436477661e+01 -5.928565445356070995e-02
3.512987442314624786e+00 -1.272334843873977661e+01 -5.824805679731070995e-02
3.650926895439624786e+00 -1.286226445436477661e+01 -5.719520035199820995e-02
3.790209122002124786e+00 -1.299629765748977661e+01 -5.609656753949820995e-02
3.938890762627124786e+00 -1.315193730592727661e+01 -5.591346207074820995e-02
4.096971817314624786e+00 -1.332979375123977661e+01 -5.606604996137320995e-02
4.260668106377124786e+00 -1.351387578248977661e+01 -5.621863785199820995e-02
3.646166153252124786e+00 -1.411336308717727661e+01 -6.552649918012320995e-02
3.810106582939624786e+00 -1.432198125123977661e+01 -6.587745132856070995e-02
3.980150528252124786e+00 -1.453841191530227661e+01 -6.624366226606070995e-02
4.157518692314624786e+00 -1.476399785280227661e+01 -6.660987320356070995e-02
4.341234512627124786e+00 -1.499751836061477661e+01 -6.699134293012320995e-02
4.590257950127124786e+00 -1.544136601686477661e+01 -7.387305679731070995e-02
4.816698379814624786e+00 -1.578108769655227661e+01 -7.694007339887320995e-02
5.028978653252124786e+00 -1.605257207155227661e+01 -7.745887222699820995e-02
4.262377090752124786e+00 -1.668196660280227661e+01 -8.386756363324820995e-02
4.495897598564624786e+00 -1.707881718873977661e+01 -8.690406265668570995e-02
4.738085098564624786e+00 -1.747981816530227661e+01 -9.000159683637320995e-02
4.995043106377124786e+00 -1.790486699342727661e+01 -9.325171890668570995e-02
5.316942520439624786e+00 -1.853682500123977661e+01 -1.018576759379357100e-01
5.644457168877124786e+00 -1.914473515748977661e+01 -1.090140480082482100e-01
5.976610489189624786e+00 -1.973079472780227661e+01 -1.148734230082482100e-01
6.301439590752124786e+00 -2.025581914186477661e+01 -1.189017433207482100e-01
5.531053848564624786e+00 -2.196089726686477661e+01 -1.472525733988732100e-01
5.876634903252124786e+00 -2.262166386842727661e+01 -1.523337501566857100e-01
6.246507950127124786e+00 -2.332735234498977661e+01 -1.577201026957482100e-01
6.762010879814624786e+00 -2.452486211061477661e+01 -1.740164894144982100e-01
7.551195450127124786e+00 -2.663399296998977661e+01 -2.103171485941857100e-01
8.254930801689624786e+00 -2.830562382936477661e+01 -2.340750831644982100e-01
8.626024551689624786e+00 -2.874568730592727661e+01 -2.284598487894982100e-01
1.174638587981462479e+01 -3.821040898561477661e+01 -4.182486671488732100e-01
7.145922012627124786e+00 -2.869234257936477661e+01 -1.918845314066857100e-01
7.418993301689624786e+00 -2.882723027467727661e+01 -1.783652442973107100e-01
7.593187637627124786e+00 -2.856612187623977661e+01 -1.574454444926232100e-01
7.789476700127124786e+00 -2.839778691530227661e+01 -1.384940284769982100e-01
8.061571426689624786e+00 -2.851338750123977661e+01 -1.250052589457482100e-01
8.320482559502124786e+00 -2.856941777467727661e+01 -1.102042335551232100e-01
8.579271622002124786e+00 -2.862032109498977661e+01 -9.522010269574820995e-02
8.792406387627124786e+00 -2.851411992311477661e+01 -7.813025894574820995e-02
7.394701309502124786e+00 -2.976595097780227661e+01 -8.032752457074820995e-02
7.373949356377124786e+00 -2.868501836061477661e+01 -4.686500015668570995e-02
7.581468887627124786e+00 -2.855782109498977661e+01 -2.899695816449820995e-02
7.748461075127124786e+00 -2.828011113405227661e+01 -8.962168125435709953e-03
8.013109512627124786e+00 -2.837300664186477661e+01 5.594716640189290047e-03
8.273729629814624786e+00 -2.843965703248977661e+01 2.073143539018929005e-02
8.487108536064624786e+00 -2.833992558717727661e+01 3.808067855425179005e-02
8.670458145439624786e+00 -2.814400273561477661e+01 5.657433089800179005e-02
7.306566543877124786e+00 -2.944051152467727661e+01 5.681847152300179005e-02
7.293016739189624786e+00 -2.839864140748977661e+01 8.484886703081429005e-02
7.567797012627124786e+00 -2.854195195436477661e+01 1.001076560933142900e-01
7.717699356377124786e+00 -2.820052129030227661e+01 1.197152000386267900e-01
7.976366348564624786e+00 -2.827498418092727661e+01 1.351265769917517900e-01
8.236742325127124786e+00 -2.834370976686477661e+01 1.507973533589392900e-01
8.421556778252124786e+00 -2.814986211061477661e+01 1.679787498433142900e-01
8.609545059502124786e+00 -2.797469121217727661e+01 1.855416160542517900e-01
7.119554825127124786e+00 -2.870247441530227661e+01 1.943917137105017900e-01
7.417528457939624786e+00 -2.893770390748977661e+01 2.093758445698767900e-01
7.663255997002124786e+00 -2.895003300905227661e+01 2.259774070698767900e-01
7.705004043877124786e+00 -2.818880254030227661e+01 2.466072898823767900e-01
8.230150528252124786e+00 -2.923164921998977661e+01 2.583718162495642900e-01
8.154589004814624786e+00 -2.808858281373977661e+01 2.798561912495642900e-01
8.366380997002124786e+00 -2.799434453248977661e+01 2.965950828511267900e-01
8.554857559502124786e+00 -2.782552129030227661e+01 3.135018211323767900e-01
7.365892715752124786e+00 -2.977034550905227661e+01 3.204293113667517900e-01
7.407152481377124786e+00 -2.893514043092727661e+01 3.391060691792517900e-01
7.546434707939624786e+00 -2.853377324342727661e+01 3.564247947651892900e-01
7.853197403252124786e+00 -2.878145390748977661e+01 3.731942039448767900e-01
7.959520645439624786e+00 -2.828304082155227661e+01 3.900551658589392900e-01
8.217943497002124786e+00 -2.834517461061477661e+01 4.069466453511267900e-01
8.483690567314624786e+00 -2.842769414186477661e+01 4.239754539448767900e-01
8.667406387627124786e+00 -2.823006230592727661e+01 4.405617576558142900e-01
7.344774551689624786e+00 -2.972383671998977661e+01 4.543557029683142900e-01
7.787279434502124786e+00 -3.050703984498977661e+01 4.745278221089392900e-01
7.671068497002124786e+00 -2.905660039186477661e+01 4.872078758198767900e-01
7.983934707939624786e+00 -2.931014043092727661e+01 5.057930808980017900e-01
7.951830215752124786e+00 -2.829036504030227661e+01 5.182442527730017900e-01
8.108934707939624786e+00 -2.799519902467727661e+01 5.336861473042517900e-01
8.473924942314624786e+00 -2.842793828248977661e+01 5.534005027730017900e-01
8.635423965752124786e+00 -2.815620976686477661e+01 5.688118797261267900e-01
1.176469642668962479e+01 -4.826888066530227661e+01 7.224526267964392900e-01
7.776537247002124786e+00 -3.050533086061477661e+01 6.115975242573767900e-01
7.669725723564624786e+00 -2.908931523561477661e+01 6.180214744526892900e-01
7.818773575127124786e+00 -2.872530156373977661e+01 6.324410301167517900e-01
8.138597793877124786e+00 -2.900642949342727661e+01 6.527657371480017900e-01
8.390306778252124786e+00 -2.902205449342727661e+01 6.708168846089392900e-01
8.466356582939624786e+00 -2.843501836061477661e+01 6.821846824605017900e-01
8.727342911064624786e+00 -2.849349004030227661e+01 7.004799705464392900e-01
2.078142005950212479e+01 -8.614095097780227661e+01 1.398386464687064290e+00
7.391161270439624786e+00 -2.898848515748977661e+01 7.301888328511267900e-01
7.672533340752124786e+00 -2.913863164186477661e+01 7.493386131245642900e-01
7.840868301689624786e+00 -2.884493046998977661e+01 7.633461814839392900e-01
8.117113418877124786e+00 -2.896370488405227661e+01 7.829995017964392900e-01
8.372728653252124786e+00 -2.899507695436477661e+01 8.016304832417517900e-01
8.298998184502124786e+00 -2.789473515748977661e+01 8.030037742573767900e-01
8.659838028252124786e+00 -2.830159550905227661e+01 8.272805076558142900e-01
1.648271400481462479e+01 -6.821626836061477661e+01 1.497095571132376790e+00
1.105961830168962479e+01 -4.388387089967727661e+01 1.118570790858939290e+00
1.160795814543962479e+01 -4.456599980592727661e+01 1.158808217616751790e+00
8.145799942314624786e+00 -3.003450566530227661e+01 9.160408836323767900e-01
8.078417129814624786e+00 -2.885848027467727661e+01 9.123024803120642900e-01
8.343431778252124786e+00 -2.892647343873977661e+01 9.320320945698767900e-01
8.613085098564624786e+00 -2.900545293092727661e+01 9.520974021870642900e-01
8.634203262627124786e+00 -2.824849492311477661e+01 9.545082908589392900e-01
1.962211830168962479e+01 -8.151595097780227661e+01 2.097467885585501790e+00
1.141789466887712479e+01 -4.539742070436477661e+01 1.351923451991751790e+00
1.150444252043962479e+01 -4.422029668092727661e+01 1.354578481288626790e+00
8.152025528252124786e+00 -3.009639531373977661e+01 1.052881703944876790e+00
8.050218887627124786e+00 -2.879073125123977661e+01 1.040781484218314290e+00
8.314501114189624786e+00 -2.885860234498977661e+01 1.061075673671439290e+00
8.583299942314624786e+00 -2.893697148561477661e+01 1.081766591640189290e+00
8.853563614189624786e+00 -2.901192265748977661e+01 1.103235707851126790e+00
1.845121986418962479e+01 -7.670320683717727661e+01 2.347971425624564290e+00
1.115910560637712479e+01 -4.440962773561477661e+01 1.533625112148001790e+00
2.013298255950212479e+01 -7.811433964967727661e+01 2.488718495937064290e+00
1.173246986418962479e+01 -4.370320683717727661e+01 1.572351918788626790e+00
8.229051895439624786e+00 -2.948225957155227661e+01 1.191202626796439290e+00
8.394335098564624786e+00 -2.917732793092727661e+01 1.201578603358939290e+00
8.549120254814624786e+00 -2.885371953248977661e+01 1.210993276210501790e+00
8.817919082939624786e+00 -2.892622929811477661e+01 1.232294545741751790e+00
1.786711341887712479e+01 -7.435188847780227661e+01 2.630899892421439290e+00
2.024980384856462479e+01 -8.144368535280227661e+01 2.902491078944876790e+00
1.174968177825212479e+01 -4.530196171998977661e+01 1.794382558437064290e+00
1.173405677825212479e+01 -4.376607304811477661e+01 1.774363027187064290e+00
8.054125137627124786e+00 -2.887703496217727661e+01 1.303904042812064290e+00
8.370287247002124786e+00 -2.912691289186477661e+01 1.331736074062064290e+00
8.668016739189624786e+00 -2.929707890748977661e+01 1.357141957851126790e+00
8.972093887627124786e+00 -2.947493535280227661e+01 1.383860097499564290e+00
1.798918373137712479e+01 -7.497530156373977661e+01 2.995493398280814290e+00
1.972331459075212479e+01 -7.941463261842727661e+01 3.207575307460501790e+00
2.033427650481462479e+01 -7.911885625123977661e+01 3.251230702968314290e+00
1.187846595793962479e+01 -4.437203007936477661e+01 1.998453603358939290e+00
1.184672767668962479e+01 -4.285359746217727661e+01 1.970575795741751790e+00
8.462816543877124786e+00 -2.949165898561477661e+01 1.478296743007376790e+00
8.663988418877124786e+00 -2.931795293092727661e+01 1.491404042812064290e+00
8.872484512627124786e+00 -2.917549687623977661e+01 1.505609975429251790e+00
1.708061439543962479e+01 -7.124129277467727661e+01 3.192377553554251790e+00
1.141276771575212479e+01 -4.562935429811477661e+01 2.192789540858939290e+00
1.171245033293962479e+01 -4.527803593873977661e+01 2.209574208827689290e+00
1.217558509856462479e+01 -4.556038457155227661e+01 2.251825795741751790e+00
1.170891029387712479e+01 -4.240096074342727661e+01 2.147379384608939290e+00
1.208464271575212479e+01 -4.243343144655227661e+01 2.179453359218314290e+00
1.380986244231462479e+01 -4.574544316530227661e+01 2.388849721523001790e+00
1.749687416106462479e+01 -7.310848027467727661e+01 3.605844960780814290e+00
1.823076087981462479e+01 -7.354231816530227661e+01 3.675287709804251790e+00
1.150786048918962479e+01 -4.453255254030227661e+01 2.381815419765189290e+00
1.181535560637712479e+01 -4.424800664186477661e+01 2.399744496913626790e+00
1.175749427825212479e+01 -4.263362675905227661e+01 2.353678212733939290e+00
1.204631263762712479e+01 -4.234908086061477661e+01 2.370066152187064290e+00
1.302714759856462479e+01 -4.447286015748977661e+01 2.504816518398001790e+00
1.371696693450212479e+01 -4.548775273561477661e+01 2.588465200038626790e+00
8.479540176689624786e+00 -2.890425664186477661e+01 1.079691396327689290e+00
8.754686661064624786e+00 -2.898201543092727661e+01 1.101282582851126790e+00
9.004686661064624786e+00 -2.897029668092727661e+01 1.120615468593314290e+00
9.157884903252124786e+00 -2.864497929811477661e+01 1.131449208827689290e+00
1.130778724700212479e+01 -4.433992558717727661e+01 1.555994496913626790e+00
1.166606361418962479e+01 -4.424458867311477661e+01 1.582392201991751790e+00
7.920702286064624786e+00 -2.872298222780227661e+01 1.168314443202689290e+00
8.182665176689624786e+00 -2.877217656373977661e+01 1.189325795741751790e+00
8.445848770439624786e+00 -2.882149296998977661e+01 1.210428701015189290e+00
8.795336075127124786e+00 -2.915559941530227661e+01 1.240519033046439290e+00
8.993822403252124786e+00 -2.896895390748977661e+01 1.254740224452689290e+00
9.205858536064624786e+00 -2.883260136842727661e+01 1.271112905116751790e+00
1.133110267668962479e+01 -4.449629765748977661e+01 1.765589223476126790e+00
1.190483314543962479e+01 -4.523543339967727661e+01 1.820475087733939290e+00
1.203581459075212479e+01 -4.425154668092727661e+01 1.819025502773001790e+00
8.395433731377124786e+00 -2.958406621217727661e+01 1.349970326991751790e+00
8.555223770439624786e+00 -2.924373418092727661e+01 1.358637319179251790e+00
8.798021622002124786e+00 -2.920064336061477661e+01 1.377542958827689290e+00
8.957811661064624786e+00 -2.888387089967727661e+01 1.386484609218314290e+00
9.314134903252124786e+00 -2.921455937623977661e+01 1.419016347499564290e+00
2.016350013762712479e+01 -8.022420293092727661e+01 3.282984243007376790e+00
1.200041420012712479e+01 -4.567049199342727661e+01 2.047113881679251790e+00
1.196708900481462479e+01 -4.405159550905227661e+01 2.017572866054251790e+00
8.379930801689624786e+00 -2.956538945436477661e+01 1.485315785976126790e+00
8.531664200127124786e+00 -2.919698125123977661e+01 1.491556630702689290e+00
8.842821426689624786e+00 -2.938973027467727661e+01 1.520761952968314290e+00
1.396342689543962479e+01 -4.554146367311477661e+01 2.204523549648001790e+00
1.353349525481462479e+01 -4.285201054811477661e+01 2.125040517421439290e+00
1.156718666106462479e+01 -4.557808476686477661e+01 2.223124013515189290e+00
2.076298744231462479e+01 -7.994991093873977661e+01 3.702311025233939290e+00
1.237089759856462479e+01 -4.563472539186477661e+01 2.289499745937064290e+00
1.187321693450212479e+01 -4.236055546998977661e+01 2.179712758632376790e+00
8.586839981377124786e+00 -2.942879277467727661e+01 1.637079701991751790e+00
1.297477943450212479e+01 -4.358833867311477661e+01 2.296396718593314290e+00
1.452824623137712479e+01 -4.611336308717727661e+01 2.478769765468314290e+00
1.390251380950212479e+01 -4.328426152467727661e+01 1.627924428554251790e+00
9.646654434502124786e+00 -2.886775761842727661e+01 1.224604116054251790e+00
8.090746231377124786e+00 -2.983467656373977661e+01 1.247385488124564290e+00
8.053270645439624786e+00 -2.872017461061477661e+01 1.234034047694876790e+00
8.324999161064624786e+00 -2.878987675905227661e+01 1.256342397304251790e+00
8.592577286064624786e+00 -2.883284550905227661e+01 1.278070912929251790e+00
8.922167129814624786e+00 -2.908284550905227661e+01 1.306681142421439290e+00
1.347087318450212479e+01 -4.319783574342727661e+01 1.800714955898001790e+00
1.363810951262712479e+01 -4.249043828248977661e+01 1.807474599452689290e+00
1.423491127043962479e+01 -4.315108281373977661e+01 1.861200795741751790e+00
1.215324623137712479e+01 -4.557771855592727661e+01 1.933741078944876790e+00
1.210576087981462479e+01 -4.390437871217727661e+01 1.906900868983939290e+00
8.310350723564624786e+00 -2.877437382936477661e+01 1.391443715663626790e+00
8.711107559502124786e+00 -2.928450566530227661e+01 1.430170522304251790e+00
8.930467911064624786e+00 -2.914681035280227661e+01 1.446054921718314290e+00
1.342497474700212479e+01 -4.309932500123977661e+01 2.002710805507376790e+00
1.363469154387712479e+01 -4.252962285280227661e+01 2.011866078944876790e+00
1.394072181731462479e+01 -4.228597050905227661e+01 2.033319936366751790e+00
1.918351966887712479e+01 -7.285152226686477661e+01 3.224131093593314290e+00
1.254216224700212479e+01 -4.559615117311477661e+01 2.180826650233939290e+00
8.386034317314624786e+00 -2.908589726686477661e+01 1.539011464687064290e+00
1.238981849700212479e+01 -4.222737675905227661e+01 2.107141957851126790e+00
1.378605873137712479e+01 -4.569734746217727661e+01 2.285059438319876790e+00
1.332341224700212479e+01 -4.281599980592727661e+01 2.194666371913626790e+00
1.438981849700212479e+01 -4.499922734498977661e+01 2.322077260585501790e+00
1.394694740325212479e+01 -4.235420781373977661e+01 2.238687978358939290e+00
8.212450332939624786e+00 -2.878035527467727661e+01 1.159281240077689290e+00
8.492113418877124786e+00 -2.885762578248977661e+01 1.181498036952689290e+00
8.827440567314624786e+00 -2.911873418092727661e+01 1.209269033046439290e+00
9.036547012627124786e+00 -2.893172246217727661e+01 1.224207387538626790e+00
