-8.940490502864122391e-01 -6.398691654205322266e+00 -8.418670982588025709e-01
-8.203185815364122391e-01 -6.428720951080322266e+00 -8.422333091963025709e-01
-7.469543237239122391e-01 -6.465097904205322266e+00 -8.430725425947400709e-01
-6.729797143489122391e-01 -6.498789310455322266e+00 -8.438965172041150709e-01
-1.291143776848912239e+00 -6.795053958892822266e+00 -8.414551109541150709e-01
-1.215460183098912239e+00 -6.834726810455322266e+00 -8.423248619306775709e-01
-1.139776589348912239e+00 -6.877695560455322266e+00 -8.432403892744275709e-01
-1.062750222161412239e+00 -6.917978763580322266e+00 -8.441406578291150709e-01
-9.841369409114122391e-01 -6.950571537017822266e+00 -8.444916099775525709e-01
-9.045470971614122391e-01 -6.978159427642822266e+00 -8.444916099775525709e-01
-8.241027612239122391e-01 -7.004648685455322266e+00 -8.446136802900525709e-01
-7.450011987239122391e-01 -7.041147708892822266e+00 -8.452087730634900709e-01
-1.418341042473912239e+00 -7.416635990142822266e+00 -8.445068687666150709e-01
-1.334356667473912239e+00 -7.446787357330322266e+00 -8.445068687666150709e-01
-1.250006081536412239e+00 -7.477182865142822266e+00 -8.445068687666150709e-01
-1.165167214348912239e+00 -7.507700443267822266e+00 -8.445068687666150709e-01
-1.080206276848912239e+00 -7.538218021392822266e+00 -8.445068687666150709e-01
-9.950011987239122391e-01 -7.568857669830322266e+00 -8.445068687666150709e-01
-9.091857690364122391e-01 -7.599741458892822266e+00 -8.445221275556775709e-01
-8.236144799739122391e-01 -7.632456302642822266e+00 -8.446289390791150709e-01
-1.561163308098912239e+00 -8.115000247955322266e+00 -8.466583580244275709e-01
-1.473516823723912239e+00 -8.163706302642822266e+00 -8.473297447431775709e-01
-1.384649636223912239e+00 -8.208994388580322266e+00 -8.480163902509900709e-01
-1.293951394036412239e+00 -8.250010013580322266e+00 -8.484131187666150709e-01
-1.202886940911412239e+00 -8.289438724517822266e+00 -8.487182945478650709e-01
-1.111456276848912239e+00 -8.329111576080322266e+00 -8.490234703291150709e-01
-1.019171120598912239e+00 -8.369028568267822266e+00 -8.493286461103650709e-01
-9.261535424739122391e-01 -8.404428958892822266e+00 -8.496033043134900709e-01
-1.716680886223912239e+00 -8.874643802642822266e+00 -8.454986900556775709e-01
-1.621710183098912239e+00 -8.925791263580322266e+00 -8.462158531416150709e-01
-1.526007058098912239e+00 -8.977304935455322266e+00 -8.469482750166150709e-01
-1.429327370598912239e+00 -9.029428958892822266e+00 -8.476959556806775709e-01
-1.332403542473912239e+00 -9.081675052642822266e+00 -8.484436363447400709e-01
-1.234747292473912239e+00 -9.134165287017822266e+00 -8.491760582197400709e-01
-1.136114479973912239e+00 -9.187265872955322266e+00 -8.499389976728650709e-01
-1.037237526848912239e+00 -9.240610599517822266e+00 -8.507019371259900709e-01
-1.896856667473912239e+00 -9.755136966705322266e+00 -8.437286705244275709e-01
-1.799566628411412239e+00 -9.841562747955322266e+00 -8.456512779463025709e-01
-1.697759987786412239e+00 -9.911020755767822266e+00 -8.469635338056775709e-01
-1.594610573723912239e+00 -9.981333255767822266e+00 -8.482910484541150709e-01
-1.490972878411412239e+00 -1.005213403701782227e+01 -8.496185631025525709e-01
-1.386358620598912239e+00 -1.012354516983032227e+01 -8.509613365400525709e-01
-1.280401589348912239e+00 -1.019593286514282227e+01 -8.523346275556775709e-01
-1.172857644036412239e+00 -1.026209497451782227e+01 -8.536468834150525709e-01
-2.135259987786412239e+00 -1.092042016983032227e+01 -8.468567222822400709e-01
-2.032598854973912239e+00 -1.104114770889282227e+01 -8.501373619306775709e-01
-1.928228737786412239e+00 -1.116395044326782227e+01 -8.534637779463025709e-01
-1.820440651848912239e+00 -1.128211450576782227e+01 -8.565307945478650709e-01
-1.705938698723912239e+00 -1.136780786514282227e+01 -8.580566734541150709e-01
-1.590093972161412239e+00 -1.145447778701782227e+01 -8.596130699384900709e-01
-1.468878151848912239e+00 -1.151478052139282227e+01 -8.599182457197400709e-01
-1.346319558098912239e+00 -1.156861352920532227e+01 -8.599182457197400709e-01
-2.405401589348912239e+00 -1.224073266983032227e+01 -8.459564537275525709e-01
-2.288702370598912239e+00 -1.235914087295532227e+01 -8.484131187666150709e-01
-2.165777565911412239e+00 -1.245533227920532227e+01 -8.495575279463025709e-01
-2.040045144036412239e+00 -1.254627466201782227e+01 -8.507782310713025709e-01
-1.913458229973912239e+00 -1.263770532608032227e+01 -8.520141929853650709e-01
-1.784429909661412239e+00 -1.272193384170532227e+01 -8.529144615400525709e-01
-1.653814675286412239e+00 -1.280811548233032227e+01 -8.542267173994275709e-01
-1.525274636223912239e+00 -1.291517114639282227e+01 -8.560272545088025709e-01
-3.409918190911412239e+00 -1.715589380264282227e+01 -9.682098716963025709e-01
-3.450689675286412239e+00 -1.834949731826782227e+01 -1.009774813102552571e+00
-3.350103737786412239e+00 -1.890394067764282227e+01 -1.026986727165052571e+00
-3.296270729973912239e+00 -1.979407739639282227e+01 -1.056512484000990071e+00
-3.122564675286412239e+00 -2.005164575576782227e+01 -1.062280306266615071e+00
-2.945074440911412239e+00 -2.031482934951782227e+01 -1.068185457633802571e+00
-2.006597878411412239e+00 -1.527710962295532227e+01 -8.793579429853650709e-01
-1.818853737786412239e+00 -1.512586450576782227e+01 -8.708893150556775709e-01
-3.798590065911412239e+00 -1.905420923233032227e+01 -9.448944420088025709e-01
-3.675665261223912239e+00 -1.950428247451782227e+01 -9.562012047041150709e-01
-3.544439675286412239e+00 -1.995630884170532227e+01 -9.674316734541150709e-01
-3.371099831536412239e+00 -2.021900415420532227e+01 -9.723297447431775709e-01
-3.201177956536412239e+00 -2.052662134170532227e+01 -9.786163658369275709e-01
-3.026495339348912239e+00 -2.083985376358032227e+01 -9.849945396650525709e-01
-2.886846901848912239e+00 -2.144349145889282227e+01 -1.000589022086927571e+00
-2.726202370598912239e+00 -2.196888208389282227e+01 -1.013497957633802571e+00
-3.943609597161412239e+00 -1.975879907608032227e+01 -8.693481773603650709e-01
-3.826300026848912239e+00 -2.027552270889282227e+01 -8.804718345869275709e-01
-3.661505104973912239e+00 -2.058777856826782227e+01 -8.856903404463025709e-01
-3.490606667473912239e+00 -2.090162134170532227e+01 -8.908630699384900709e-01
-3.314459206536412239e+00 -2.121375513076782227e+01 -8.958984703291150709e-01
-3.192755104973912239e+00 -2.191871118545532227e+01 -9.116760582197400709e-01
-3.056280495598912239e+00 -2.262146997451782227e+01 -9.271789879072400709e-01
-2.891119362786412239e+00 -2.320337915420532227e+01 -9.391723961103650709e-01
-4.028936745598912239e+00 -2.017115259170532227e+01 -7.808166832197400709e-01
-3.922003151848912239e+00 -2.076331567764282227e+01 -7.914062828291150709e-01
-3.788702370598912239e+00 -2.127417993545532227e+01 -7.999206871259900709e-01
-3.621954323723912239e+00 -2.165284204483032227e+01 -8.051849693525525709e-01
-3.484503151848912239e+00 -2.224903345108032227e+01 -8.153930992353650709e-01
-3.312628151848912239e+00 -2.269410181045532227e+01 -8.219543785322400709e-01
-3.132574440911412239e+00 -2.314612817764282227e+01 -8.285461754072400709e-01
-2.985357644036412239e+00 -2.390333032608032227e+01 -8.419281334150525709e-01
-4.123785378411412239e+00 -2.062989282608032227e+01 -6.887909263838025709e-01
-4.013800026848912239e+00 -2.123047876358032227e+01 -6.968628257978650709e-01
-3.887945534661412239e+00 -2.180726099014282227e+01 -7.048889488447400709e-01
-3.739019753411412239e+00 -2.232056665420532227e+01 -7.110077232588025709e-01
-3.570440651848912239e+00 -2.276734399795532227e+01 -7.157532066572400709e-01
-3.386968972161412239e+00 -2.317151880264282227e+01 -7.196136802900525709e-01
-3.236700417473912239e+00 -2.386561059951782227e+01 -7.280060142744275709e-01
-3.060186745598912239e+00 -2.445630884170532227e+01 -7.349487632978650709e-01
-4.219732644036412239e+00 -2.109388208389282227e+01 -5.931030601728650709e-01
-4.095953347161412239e+00 -2.164759302139282227e+01 -5.978180259931775709e-01
-3.959234597161412239e+00 -2.218836450576782227e+01 -6.021972984541150709e-01
-3.829717995598912239e+00 -2.283582544326782227e+01 -6.079040855634900709e-01
-3.649420144036412239e+00 -2.324280786514282227e+01 -6.101318687666150709e-01
-3.488043190911412239e+00 -2.382313013076782227e+01 -6.146332115400525709e-01
-3.311773659661412239e+00 -2.438123559951782227e+01 -6.186767906416150709e-01
-3.116339089348912239e+00 -2.486805200576782227e+01 -6.216217369306775709e-01
-4.301397683098912239e+00 -2.148792505264282227e+01 -4.918609947431775709e-01
-4.157110573723912239e+00 -2.195618677139282227e+01 -4.938598961103650709e-01
-4.032476784661412239e+00 -2.258008813858032227e+01 -4.966522545088025709e-01
-3.898199440911412239e+00 -2.322303247451782227e+01 -4.994293541181775709e-01
-3.738897683098912239e+00 -2.378248071670532227e+01 -5.013061851728650709e-01
-3.559942604973912239e+00 -2.428333520889282227e+01 -5.025268882978650709e-01
-3.370245339348912239e+00 -2.478040552139282227e+01 -5.035644859541150709e-01
-3.176275612786412239e+00 -2.530799341201782227e+01 -5.041138023603650709e-01
-4.367071511223912239e+00 -2.180311059951782227e+01 -3.871399254072400709e-01
-4.226690651848912239e+00 -2.230835962295532227e+01 -3.866821617353650709e-01
-4.104254128411412239e+00 -2.296399927139282227e+01 -3.868347496259900709e-01
-3.966436745598912239e+00 -2.360828638076782227e+01 -3.867737144697400709e-01
-3.806768776848912239e+00 -2.418958520889282227e+01 -3.862701744306775709e-01
-3.622930886223912239e+00 -2.468506860733032227e+01 -3.852783531416150709e-01
-3.424444558098912239e+00 -2.514844751358032227e+01 -3.840118736494275709e-01
-3.248663308098912239e+00 -2.584058618545532227e+01 -3.835998863447400709e-01
-4.431158425286412239e+00 -2.211084985733032227e+01 -2.788940757978650709e-01
-4.304937722161412239e+00 -2.270459985733032227e+01 -2.768493980634900709e-01
-4.174688698723912239e+00 -2.333973169326782227e+01 -2.740722984541150709e-01
-4.020513894036412239e+00 -2.391224145889282227e+01 -2.711578697431775709e-01
-3.868658425286412239e+00 -2.455945825576782227e+01 -2.681213707197400709e-01
-3.681524636223912239e+00 -2.505774927139282227e+01 -2.649780601728650709e-01
-3.488165261223912239e+00 -2.558362817764282227e+01 -2.617126793134900709e-01
-3.318975808098912239e+00 -2.635804224014282227e+01 -2.575317711103650709e-01
-4.497686745598912239e+00 -2.242981958389282227e+01 -1.683441490400525709e-01
-4.379156472161412239e+00 -2.308021020889282227e+01 -1.628204673994275709e-01
-4.233892800286412239e+00 -2.365442895889282227e+01 -1.574951500166150709e-01
-4.079107644036412239e+00 -2.424170923233032227e+01 -1.520019859541150709e-01
-3.924566628411412239e+00 -2.489307641983032227e+01 -1.460815757978650709e-01
-3.740728737786412239e+00 -2.543421411514282227e+01 -1.405731529463025709e-01
-3.563482644036412239e+00 -2.609925317764282227e+01 -1.343170494306775709e-01
-3.367559792473912239e+00 -2.671106958389282227e+01 -1.282287925947400709e-01
-4.579840065911412239e+00 -2.282532739639282227e+01 -5.353702013380257085e-02
-4.442510964348912239e+00 -2.339991235733032227e+01 -4.580081407911507085e-02
-4.290289284661412239e+00 -2.395374536514282227e+01 -3.878177111036507085e-02
-4.139410378411412239e+00 -2.458057641983032227e+01 -3.034366075880257085e-02
-3.978277565911412239e+00 -2.521277856826782227e+01 -2.175296251661507085e-02
-3.804815651848912239e+00 -2.584266138076782227e+01 -1.305545275099007085e-02
-3.614996315911412239e+00 -2.644825220108032227e+01 -3.793367790052570854e-03
-3.417608620598912239e+00 -2.707532739639282227e+01 5.117765022447429146e-03
-4.647467019036412239e+00 -2.314979028701782227e+01 6.397091443650992915e-02
-4.501592995598912239e+00 -2.369751977920532227e+01 7.323299939744742915e-02
-4.348028542473912239e+00 -2.425989770889282227e+01 8.342587049119742915e-02
-4.198614479973912239e+00 -2.491297388076782227e+01 9.497677381150992915e-02
-4.033575417473912239e+00 -2.554188013076782227e+01 1.063140540849474291e-01
-3.857916237786412239e+00 -2.617908716201782227e+01 1.178649574052599291e-01
-3.667486550286412239e+00 -2.680408716201782227e+01 1.293548255693224291e-01
-3.471685769036412239e+00 -2.746937036514282227e+01 1.422332435380724291e-01
-6.727355737239122391e-01 -6.499033451080322266e+00 -8.439117759931775709e-01
-5.981506127864122391e-01 -6.531504154205322266e+00 -8.444763511884900709e-01
-5.218566674739122391e-01 -6.553598880767822266e+00 -8.444763511884900709e-01
-4.450744409114122391e-01 -6.575937747955322266e+00 -8.444763511884900709e-01
-3.682922143489122391e-01 -6.598276615142822266e+00 -8.444763511884900709e-01
-2.911437768489122391e-01 -6.620615482330322266e+00 -8.444763511884900709e-01
-2.135070580989122391e-01 -6.643198490142822266e+00 -8.444763511884900709e-01
-1.356261987239122391e-01 -6.662973880767822266e+00 -8.444763511884900709e-01
-7.447570580989122391e-01 -7.041391849517822266e+00 -8.452240318525525709e-01
-6.648010034114122391e-01 -7.074839115142822266e+00 -8.458343834150525709e-01
-5.847228784114122391e-01 -7.111460208892822266e+00 -8.464447349775525709e-01
-5.034240502864122391e-01 -7.145517826080322266e+00 -8.470550865400525709e-01
-4.220031518489122391e-01 -7.179575443267822266e+00 -8.476806968916150709e-01
-3.397277612239122391e-01 -7.210581302642822266e+00 -8.480774254072400709e-01
-2.563537377864122391e-01 -7.235605716705322266e+00 -8.482757896650525709e-01
-1.731017846614122391e-01 -7.264170169830322266e+00 -8.484894127119275709e-01
-8.233703393489122391e-01 -7.632578372955322266e+00 -8.446441978681775709e-01
-7.379211205989122391e-01 -7.670298099517822266e+00 -8.452850670088025709e-01
-6.519836205989122391e-01 -7.708384037017822266e+00 -8.459411949384900709e-01
-5.651916284114122391e-01 -7.747446537017822266e+00 -8.466583580244275709e-01
-4.785217065364122391e-01 -7.791147708892822266e+00 -8.476501793134900709e-01
-3.912414330989122391e-01 -7.835215091705322266e+00 -8.486420006025525709e-01
-3.029845971614122391e-01 -7.879770755767822266e+00 -8.496643394697400709e-01
-2.142394799739122391e-01 -7.924570560455322266e+00 -8.506866783369275709e-01
-9.257873315364122391e-01 -8.404551029205322266e+00 -8.496033043134900709e-01
-8.331359643489122391e-01 -8.446421146392822266e+00 -8.499695152509900709e-01
-7.406066674739122391e-01 -8.496592044830322266e+00 -8.510528892744275709e-01
-6.471008080989122391e-01 -8.547251224517822266e+00 -8.521515220869275709e-01
-5.531066674739122391e-01 -8.598276615142822266e+00 -8.532654136884900709e-01
-4.582580346614122391e-01 -8.649790287017822266e+00 -8.543793052900525709e-01
-3.623107690364122391e-01 -8.701914310455322266e+00 -8.555084556806775709e-01
-2.655090112239122391e-01 -8.748545169830322266e+00 -8.565613121259900709e-01
-1.036871315911412239e+00 -9.240732669830322266e+00 -8.506866783369275709e-01
-9.366515893489122391e-01 -9.291025638580322266e+00 -8.514648765791150709e-01
-8.358215112239122391e-01 -9.341806888580322266e+00 -8.522278160322400709e-01
-7.337707299739122391e-01 -9.393076419830322266e+00 -8.530060142744275709e-01
-6.313537377864122391e-01 -9.444590091705322266e+00 -8.537842125166150709e-01
-5.280822534114122391e-01 -9.496469974517822266e+00 -8.545776695478650709e-01
-4.237121362239122391e-01 -9.548960208892822266e+00 -8.553711265791150709e-01
-3.188537377864122391e-01 -9.601694583892822266e+00 -8.561798423994275709e-01
-1.172491433098912239e+00 -1.026246118545532227e+01 -8.536621422041150709e-01
-1.065191628411412239e+00 -1.033863306045532227e+01 -8.550659507978650709e-01
-9.559386987239122391e-01 -1.040894556045532227e+01 -8.564392418134900709e-01
-8.452209252864122391e-01 -1.048023462295532227e+01 -8.578277916181775709e-01
-7.336486596614122391e-01 -1.055213403701782227e+01 -8.592316002119275709e-01
-6.209777612239122391e-01 -1.062464380264282227e+01 -8.606354088056775709e-01
-5.067199487239122391e-01 -1.069813013076782227e+01 -8.620697349775525709e-01
-3.909972924739122391e-01 -1.076185083389282227e+01 -8.633056968916150709e-01
-1.345953347161412239e+00 -1.156897974014282227e+01 -8.599182457197400709e-01
-1.222418190911412239e+00 -1.162000513076782227e+01 -8.599182457197400709e-01
-1.098028542473912239e+00 -1.167127466201782227e+01 -8.599182457197400709e-01
-9.725402612239122391e-01 -1.172303247451782227e+01 -8.599182457197400709e-01
-8.466857690364122391e-01 -1.177491235733032227e+01 -8.599182457197400709e-01
-7.216857690364122391e-01 -1.184717798233032227e+01 -8.608185142744275709e-01
-5.953429955989122391e-01 -1.192151880264282227e+01 -8.617950767744275709e-01
-4.680236596614122391e-01 -1.199634790420532227e+01 -8.627563804853650709e-01
-1.524908425286412239e+00 -1.291578149795532227e+01 -8.560425132978650709e-01
-1.394293190911412239e+00 -1.302076196670532227e+01 -8.578430504072400709e-01
-1.263189675286412239e+00 -1.313758325576782227e+01 -8.597351402509900709e-01
-1.128668190911412239e+00 -1.324585962295532227e+01 -8.615967125166150709e-01
-9.928039330989122391e-01 -1.335499048233032227e+01 -8.634582847822400709e-01
-8.551086205989122391e-01 -1.346570825576782227e+01 -8.653503746259900709e-01
-7.163146752864122391e-01 -1.359559106826782227e+01 -8.683410972822400709e-01
-5.767883080989122391e-01 -1.374183130264282227e+01 -8.715912193525525709e-01
-1.818365456536412239e+00 -1.512684106826782227e+01 -8.709198326338025709e-01
-1.674078347161412239e+00 -1.530201196670532227e+01 -8.744598716963025709e-01
-1.528570534661412239e+00 -1.549573755264282227e+01 -8.786255211103650709e-01
-1.387945534661412239e+00 -1.577857446670532227e+01 -8.859344810713025709e-01
-1.237310769036412239e+00 -1.600428247451782227e+01 -8.911072105634900709e-01
-1.082891823723912239e+00 -1.623548364639282227e+01 -8.964020103681775709e-01
-9.242004174739122391e-01 -1.647339868545532227e+01 -9.018493980634900709e-01
-7.592834252864122391e-01 -1.667469263076782227e+01 -9.059540123213025709e-01
-2.725836159661412239e+00 -2.197193384170532227e+01 -1.013589510368177571e+00
-2.547125222161412239e+00 -2.243226099014282227e+01 -1.024301180290052571e+00
-2.442755104973912239e+00 -2.363514184951782227e+01 -1.058313021110365071e+00
-2.238531472161412239e+00 -2.410022974014282227e+01 -1.068750032829115071e+00
-2.012579323723912239e+00 -2.441675806045532227e+01 -1.074411043571302571e+00
-1.775396706536412239e+00 -2.466797876358032227e+01 -1.077951082633802571e+00
-1.520391823723912239e+00 -2.474561548233032227e+01 -1.076013216422865071e+00
-1.274053933098912239e+00 -2.496741724014282227e+01 -1.078530916618177571e+00
-2.891119362786412239e+00 -2.320899438858032227e+01 -9.393097252119275709e-01
-2.722662331536412239e+00 -2.385535669326782227e+01 -9.528290123213025709e-01
-2.516973854973912239e+00 -2.428223657608032227e+01 -9.602447838056775709e-01
-2.293585183098912239e+00 -2.462391138076782227e+01 -9.652191490400525709e-01
-2.092535378411412239e+00 -2.526709985733032227e+01 -9.781433433759900709e-01
-1.898077370598912239e+00 -2.614258813858032227e+01 -9.970032066572400709e-01
-1.708502175286412239e+00 -2.733460474014282227e+01 -1.023889192985365071e+00
-1.471929909661412239e+00 -2.813086938858032227e+01 -1.040078768180677571e+00
-2.985113503411412239e+00 -2.390735864639282227e+01 -8.420044273603650709e-01
-2.798834206536412239e+00 -2.446521997451782227e+01 -8.505493492353650709e-01
-2.594366433098912239e+00 -2.495704126358032227e+01 -8.574463218916150709e-01
-2.384649636223912239e+00 -2.549842309951782227e+01 -8.652893394697400709e-01
-2.164556862786412239e+00 -2.603077173233032227e+01 -8.727814048994275709e-01
-2.012701394036412239e+00 -2.751697778701782227e+01 -9.009643882978650709e-01
-1.790411354973912239e+00 -2.844507837295532227e+01 -9.165588707197400709e-01
-1.530157448723912239e+00 -2.903809595108032227e+01 -9.246612877119275709e-01
-3.059820534661412239e+00 -2.445997095108032227e+01 -7.349945396650525709e-01
-2.870977761223912239e+00 -2.504212427139282227e+01 -7.414184898603650709e-01
-2.667974831536412239e+00 -2.559839868545532227e+01 -7.478729576338025709e-01
-2.451544167473912239e+00 -2.613672876358032227e+01 -7.531830162275525709e-01
-2.287237526848912239e+00 -2.734156274795532227e+01 -7.699524254072400709e-01
-2.064703347161412239e+00 -2.812647485733032227e+01 -7.791076988447400709e-01
-1.855474831536412239e+00 -2.932093286514282227e+01 -7.942749351728650709e-01
-1.607427956536412239e+00 -3.024781274795532227e+01 -8.053070396650525709e-01
-3.115850808098912239e+00 -2.487085962295532227e+01 -6.216522545088025709e-01
-2.936529519036412239e+00 -2.556397485733032227e+01 -6.269012779463025709e-01
-2.742437722161412239e+00 -2.624549341201782227e+01 -6.317993492353650709e-01
-2.555303933098912239e+00 -2.713379907608032227e+01 -6.391693443525525709e-01
-2.338995339348912239e+00 -2.788294458389282227e+01 -6.445099205244275709e-01
-2.128668190911412239e+00 -2.888160181045532227e+01 -6.527954429853650709e-01
-1.908087136223912239e+00 -3.002039575576782227e+01 -6.625305504072400709e-01
-1.659063698723912239e+00 -3.104456567764282227e+01 -6.705261558759900709e-01
-3.176031472161412239e+00 -2.531299829483032227e+01 -5.041443199384900709e-01
-3.004644753411412239e+00 -2.610633325576782227e+01 -5.077759117353650709e-01
-2.820440651848912239e+00 -2.692347192764282227e+01 -5.107208580244275709e-01
-2.612676979973912239e+00 -2.767615747451782227e+01 -5.129028648603650709e-01
-2.392706276848912239e+00 -2.844483423233032227e+01 -5.150085777509900709e-01
-2.187261940911412239e+00 -2.956910181045532227e+01 -5.197540611494275709e-01
-1.961309792473912239e+00 -3.072840356826782227e+01 -5.244385093916150709e-01
-1.715093972161412239e+00 -3.190931177139282227e+01 -5.281769127119275709e-01
-3.248419167473912239e+00 -2.584607934951782227e+01 -3.836151451338025709e-01
-3.069830300286412239e+00 -2.662464380264282227e+01 -3.828979820478650709e-01
-2.878424050286412239e+00 -2.742359399795532227e+01 -3.820434898603650709e-01
-2.668096901848912239e+00 -2.819983911514282227e+01 -3.808685631025525709e-01
-2.463018776848912239e+00 -2.918433618545532227e+01 -3.802429527509900709e-01
-2.231573464348912239e+00 -3.008204126358032227e+01 -3.790527672041150709e-01
-2.011968972161412239e+00 -3.139966821670532227e+01 -3.789764732588025709e-01
-1.758795144036412239e+00 -3.257361841201782227e+01 -3.781067222822400709e-01
-3.318487526848912239e+00 -2.636194849014282227e+01 -2.575165123213025709e-01
-3.115606667473912239e+00 -2.698426294326782227e+01 -2.540375084150525709e-01
-2.934454323723912239e+00 -2.790503931045532227e+01 -2.494751304853650709e-01
-2.728521706536412239e+00 -2.877051782608032227e+01 -2.447143882978650709e-01
-2.510992409661412239e+00 -2.968250513076782227e+01 -2.396942466963025709e-01
-2.289801003411412239e+00 -3.076392602920532227e+01 -2.342316002119275709e-01
-2.056036354973912239e+00 -3.197889184951782227e+01 -2.282806724775525709e-01
-1.803350808098912239e+00 -3.325159692764282227e+01 -2.211090416181775709e-01
-3.367071511223912239e+00 -2.671509790420532227e+01 -1.281982750166150709e-01
-3.174322487786412239e+00 -2.744800806045532227e+01 -1.206451744306775709e-01
-2.989385964348912239e+00 -2.837659692764282227e+01 -1.118408531416150709e-01
-2.784063698723912239e+00 -2.929468774795532227e+01 -1.028534263838025709e-01
-2.560797097161412239e+00 -3.019947290420532227e+01 -9.371341173536507085e-02
-2.344488503411412239e+00 -3.140113306045532227e+01 -8.263553087599007085e-02
-2.102789284661412239e+00 -3.259314966201782227e+01 -7.128299181349007085e-02
-1.847784401848912239e+00 -3.392664575576782227e+01 -5.878604357130257085e-02
-3.417120339348912239e+00 -2.707935571670532227e+01 5.163541389634929146e-03
-3.235357644036412239e+00 -2.793104028701782227e+01 1.721798474900992915e-02
-3.040045144036412239e+00 -2.881055688858032227e+01 2.901302869432242915e-02
-2.837530495598912239e+00 -2.979688501358032227e+01 4.283749158494742915e-02
-2.618536354973912239e+00 -3.080079126358032227e+01 5.708920056932242915e-02
-2.391241433098912239e+00 -3.194166040420532227e+01 7.298885877244742915e-02
-2.150152565911412239e+00 -3.321656274795532227e+01 9.145199353807242915e-02
-1.889044167473912239e+00 -3.454737329483032227e+01 1.099914222490099291e-01
-3.471441628411412239e+00 -2.747510766983032227e+01 1.423247962724474291e-01
-3.293096901848912239e+00 -2.838611841201782227e+01 1.583770423661974291e-01
-3.091925026848912239e+00 -2.925403833389282227e+01 1.747192054521349291e-01
-2.890142800286412239e+00 -3.028907251358032227e+01 1.937469154130724291e-01
-2.673101784661412239e+00 -3.136744165420532227e+01 2.136596351396349291e-01
-2.440191628411412239e+00 -3.250794458389282227e+01 2.347625404130724291e-01
-2.195196511223912239e+00 -3.380579614639282227e+01 2.585204749833849291e-01
-1.929571511223912239e+00 -3.515577173233032227e+01 2.842620521318224291e-01
-1.353820580989122391e-01 -6.663218021392822266e+00 -8.444916099775525709e-01
-5.737912841141223907e-02 -6.685190677642822266e+00 -8.444916099775525709e-01
2.123415283858776093e-02 -6.704599857330322266e+00 -8.444916099775525709e-01
1.003357153385877609e-01 -6.724131107330322266e+00 -8.444916099775525709e-01
1.795593481510877609e-01 -6.746225833892822266e+00 -8.446747154463025709e-01
2.590271215885877609e-01 -6.777719974517822266e+00 -8.455139488447400709e-01
3.393493872135877609e-01 -6.809580326080322266e+00 -8.463684410322400709e-01
4.200378637760877609e-01 -6.838388919830322266e+00 -8.472076744306775709e-01
-1.728576440364122391e-01 -7.264414310455322266e+00 -8.484894127119275709e-01
-8.887326903641223907e-02 -7.289194583892822266e+00 -8.486877769697400709e-01
-4.644753411412239075e-03 -7.317636966705322266e+00 -8.489014000166150709e-01
8.043825440108776093e-02 -7.342905521392822266e+00 -8.490997642744275709e-01
1.656433325260877609e-01 -7.368784427642822266e+00 -8.493286461103650709e-01
2.513366919010877609e-01 -7.405161380767822266e+00 -8.502594322431775709e-01
3.378845434635877609e-01 -7.438364505767822266e+00 -8.511749595869275709e-01
4.249206762760877609e-01 -7.475351810455322266e+00 -8.521210045088025709e-01
-2.139953393489122391e-01 -7.925058841705322266e+00 -8.507019371259900709e-01
-1.242736596614122391e-01 -7.966196537017822266e+00 -8.516937584150525709e-01
-3.394162841141223907e-02 -8.007700443267822266e+00 -8.527008384931775709e-01
5.761110596358776093e-02 -8.049692630767822266e+00 -8.537231773603650709e-01
1.495300512760877609e-01 -8.091928958892822266e+00 -8.547455162275525709e-01
2.424255590885877609e-01 -8.123178958892822266e+00 -8.550812095869275709e-01
3.362976294010877609e-01 -8.153086185455322266e+00 -8.553100914228650709e-01
4.302917700260877609e-01 -8.182993412017822266e+00 -8.555389732588025709e-01
-2.652648705989122391e-01 -8.748789310455322266e+00 -8.565765709150525709e-01
-1.676086205989122391e-01 -8.795420169830322266e+00 -8.573242515791150709e-01
-6.897580809891223907e-02 -8.838022708892822266e+00 -8.580719322431775709e-01
3.075563721358776093e-02 -8.881235599517822266e+00 -8.588348716963025709e-01
1.309753637760877609e-01 -8.924692630767822266e+00 -8.595978111494275709e-01
2.321716528385877609e-01 -8.958994388580322266e+00 -8.598266929853650709e-01
3.342224340885877609e-01 -8.989634037017822266e+00 -8.598266929853650709e-01
4.365173559635877609e-01 -9.015879154205322266e+00 -8.598266929853650709e-01
-3.184875268489122391e-01 -9.602182865142822266e+00 -8.561951011884900709e-01
-2.125304955989122391e-01 -9.651743412017822266e+00 -8.570038170088025709e-01
-1.055969018489122391e-01 -9.701792240142822266e+00 -8.578277916181775709e-01
2.557395026087760925e-03 -9.754160404205322266e+00 -8.587433189619275709e-01
1.110779028385877609e-01 -9.813608646392822266e+00 -8.600250572431775709e-01
2.208191137760877609e-01 -9.873667240142822266e+00 -8.613220543134900709e-01
3.320251684635877609e-01 -9.934458255767822266e+00 -8.626343101728650709e-01
4.439636450260877609e-01 -9.995859622955322266e+00 -8.639618248213025709e-01
-3.906310815364122391e-01 -1.076233911514282227e+01 -8.633209556806775709e-01
-2.739318627864122391e-01 -1.082801294326782227e+01 -8.642059654463025709e-01
-1.557678002864122391e-01 -1.088831567764282227e+01 -8.651062340009900709e-01
-3.613889403641223907e-02 -1.094947290420532227e+01 -8.660217613447400709e-01
8.434450440108776093e-02 -1.101099634170532227e+01 -8.669525474775525709e-01
2.059265356510877609e-01 -1.107313013076782227e+01 -8.678833336103650709e-01
3.290954809635877609e-01 -1.113599634170532227e+01 -8.688141197431775709e-01
4.514099340885877609e-01 -1.100416040420532227e+01 -8.607117027509900709e-01
-4.676574487239122391e-01 -1.199695825576782227e+01 -8.627716392744275709e-01
-3.389953393489122391e-01 -1.206922388076782227e+01 -8.637634605634900709e-01
-2.092345971614122391e-01 -1.214795923233032227e+01 -8.650146812666150709e-01
-7.861936278641223907e-02 -1.226465845108032227e+01 -8.678985923994275709e-01
5.370485596358776093e-02 -1.238294458389282227e+01 -8.708130211103650709e-01
1.883484106510877609e-01 -1.249744653701782227e+01 -8.735443443525525709e-01
3.284851294010877609e-01 -1.095911645889282227e+01 -8.042389244306775709e-01
4.497009497135877609e-01 -1.089698266983032227e+01 -7.994934410322400709e-01
-5.764220971614122391e-01 -1.374292993545532227e+01 -8.716217369306775709e-01
-4.362853784114122391e-01 -1.393128442764282227e+01 -8.766266197431775709e-01
-2.933410424739122391e-01 -1.414039087295532227e+01 -8.819977134931775709e-01
-1.433166284114122391e-01 -1.427161645889282227e+01 -8.846069664228650709e-01
8.905051276087760925e-03 -1.439002466201782227e+01 -8.866669029463025709e-01
1.634460669010877609e-01 -1.451075220108032227e+01 -8.888031334150525709e-01
3.277527075260877609e-01 -1.087476587295532227e+01 -7.448974937666150709e-01
4.483581762760877609e-01 -1.084852075576782227e+01 -7.418609947431775709e-01
-7.586730737239122391e-01 -1.667554712295532227e+01 -9.059692711103650709e-01
-5.892394799739122391e-01 -1.686170434951782227e+01 -9.095550865400525709e-01
-4.174865502864122391e-01 -1.707996606826782227e+01 -9.141937584150525709e-01
-2.409728784114122391e-01 -1.730433130264282227e+01 -9.189697593916150709e-01
-6.091916747391223907e-02 -1.753321313858032227e+01 -9.238525718916150709e-01
1.234070044010877609e-01 -1.778248071670532227e+01 -9.293609947431775709e-01
3.268982153385877609e-01 -1.084376001358032227e+01 -6.878753990400525709e-01
4.472595434635877609e-01 -1.082239770889282227e+01 -6.851593345869275709e-01
-1.273199440911412239e+00 -2.496900415420532227e+01 -1.078561434196302571e+00
-8.405822534114122391e-01 -2.168018579483032227e+01 -9.736877769697400709e-01
-6.308654565364122391e-01 -2.214002466201782227e+01 -9.839111656416150709e-01
-4.178527612239122391e-01 -2.280457544326782227e+01 -1.000177034782240071e+00
-1.868957299739122391e-01 -2.321607446670532227e+01 -1.008615145133802571e+00
5.187380127608776093e-02 -2.364173364639282227e+01 -1.017343172477552571e+00
3.260437231510877609e-01 -1.082642602920532227e+01 -6.318756431806775709e-01
4.461609106510877609e-01 -1.080652856826782227e+01 -6.292969078291150709e-01
-1.471075417473912239e+00 -2.813440942764282227e+01 -1.040155062125990071e+00
-1.208502175286412239e+00 -2.872889184951782227e+01 -1.050805696891615071e+00
-9.657043237239122391e-01 -3.007605981826782227e+01 -1.080682405875990071e+00
-6.890929955989122391e-01 -3.123145532608032227e+01 -1.105203279899427571e+00
-3.783019799739122391e-01 -3.183350610733032227e+01 -1.115258821891615071e+00
-7.007444091141223907e-02 -3.361707544326782227e+01 -1.155023226188490071e+00
3.261657934635877609e-01 -1.032337427139282227e+01 -5.635162681806775709e-01
4.451843481510877609e-01 -1.079896020889282227e+01 -5.735260338056775709e-01
-1.529425026848912239e+00 -2.904200220108032227e+01 -9.247375816572400709e-01
-1.294195534661412239e+00 -3.033521509170532227e+01 -9.474731773603650709e-01
-1.022344948723912239e+00 -3.136951684951782227e+01 -9.643188804853650709e-01
-7.337707299739122391e-01 -3.255701684951782227e+01 -9.840332359541150709e-01
-4.237121362239122391e-01 -3.377906274795532227e+01 -1.004113802360365071e+00
-9.351194091141223907e-02 -3.534083032608032227e+01 -1.030831942008802571e+00
3.256775122135877609e-01 -1.011255884170532227e+01 -5.060974449384900709e-01
4.385925512760877609e-01 -1.006934595108032227e+01 -5.033813804853650709e-01
-1.606695534661412239e+00 -3.025403833389282227e+01 -8.053833336103650709e-01
-1.337774636223912239e+00 -3.112977075576782227e+01 -8.150116295088025709e-01
-1.073980690911412239e+00 -3.254175806045532227e+01 -8.341003746259900709e-01
-7.799133080989122391e-01 -3.391712427139282227e+01 -8.513122886884900709e-01
-4.575256127864122391e-01 -3.519410181045532227e+01 -8.664947838056775709e-01
-1.079162377864122391e-01 -3.630372095108032227e+01 -8.785797447431775709e-01
3.249450903385877609e-01 -1.008021020889282227e+01 -4.531952232588025709e-01
4.374939184635877609e-01 -1.003895044326782227e+01 -4.507385582197400709e-01
-1.658331276848912239e+00 -3.105030298233032227e+01 -6.705719322431775709e-01
-1.397100808098912239e+00 -3.222584009170532227e+01 -6.797424644697400709e-01
-1.109869362786412239e+00 -3.333558130264282227e+01 -6.877533287275525709e-01
-8.165344018489122391e-01 -3.497791528701782227e+01 -7.017151207197400709e-01
-4.780334252864122391e-01 -3.599561548233032227e+01 -7.078644127119275709e-01
-1.252502221614122391e-01 -3.748780298233032227e+01 -7.191559166181775709e-01
3.242126684635877609e-01 -1.005640649795532227e+01 -4.009796470869275709e-01
4.363952856510877609e-01 -1.001746606826782227e+01 -3.987518638838025709e-01
-1.714483620598912239e+00 -3.191651391983032227e+01 -5.282226890791150709e-01
-1.434576394036412239e+00 -3.289832544326782227e+01 -5.312439293134900709e-01
-1.156134011223912239e+00 -3.437281274795532227e+01 -5.368133873213025709e-01
-8.453429955989122391e-01 -3.579041528701782227e+01 -5.414825767744275709e-01
-5.018371362239122391e-01 -3.694336938858032227e+01 -5.438476890791150709e-01
-1.368469018489122391e-01 -3.820337915420532227e+01 -5.465942711103650709e-01
3.233581762760877609e-01 -1.005359888076782227e+01 -3.491455406416150709e-01
4.355407934635877609e-01 -1.001490259170532227e+01 -3.468414634931775709e-01
-1.758062722161412239e+00 -3.258069849014282227e+01 -3.781067222822400709e-01
-1.478765847161412239e+00 -3.369800806045532227e+01 -3.761383384931775709e-01
-1.187017800286412239e+00 -3.504407739639282227e+01 -3.744598716963025709e-01
-8.709777612239122391e-01 -3.649964380264282227e+01 -3.726440757978650709e-01
-5.213683862239122391e-01 -3.769214868545532227e+01 -3.697296470869275709e-01
-1.508849877864122391e-01 -3.909681177139282227e+01 -3.669372886884900709e-01
3.221374731510877609e-01 -1.020069360733032227e+01 -2.974029869306775709e-01
4.357849340885877609e-01 -1.016456079483032227e+01 -2.955414146650525709e-01
-1.802618386223912239e+00 -3.325904321670532227e+01 -2.210785240400525709e-01
-1.522833229973912239e+00 -3.449402856826782227e+01 -2.145782798994275709e-01
-1.221563698723912239e+00 -3.579932641983032227e+01 -2.067200035322400709e-01
-8.953918237239122391e-01 -3.717005395889282227e+01 -1.983276695478650709e-01
-5.395568627864122391e-01 -3.837598657608032227e+01 -1.898590416181775709e-01
-1.645568627864122391e-01 -3.995154809951782227e+01 -1.802154869306775709e-01
3.212829809635877609e-01 -1.020154809951782227e+01 -2.449432701338025709e-01
4.349304419010877609e-01 -1.016517114639282227e+01 -2.429901451338025709e-01
-1.847296120598912239e+00 -3.393726587295532227e+01 -5.869449083692757085e-02
-1.558721901848912239e+00 -3.513001489639282227e+01 -4.586184923536507085e-02
-1.253424050286412239e+00 -3.648658227920532227e+01 -3.162539904005257085e-02
-9.198058862239122391e-01 -3.783887720108032227e+01 -1.696170275099007085e-02
-5.612853784114122391e-01 -3.921619653701782227e+01 -1.748690055677570854e-03
-1.789611596614122391e-01 -4.085914087295532227e+01 1.569210584275992915e-02
3.201843481510877609e-01 -1.027918481826782227e+01 -1.916748375166150709e-01
4.340759497135877609e-01 -1.016932153701782227e+01 -1.906982750166150709e-01
-1.888433815911412239e+00 -3.455799341201782227e+01 1.101287513505724291e-01
-1.597174050286412239e+00 -3.581653833389282227e+01 1.292174964677599291e-01
-1.282232644036412239e+00 -3.710352563858032227e+01 1.480621009599474291e-01
-9.444640893489122391e-01 -3.850953149795532227e+01 1.695617347490099291e-01
-5.830138940364122391e-01 -4.004981470108032227e+01 1.929687171708849291e-01
-1.958068627864122391e-01 -4.194568872451782227e+01 2.208923011552599291e-01
3.193298559635877609e-01 -1.028455591201782227e+01 -1.385437340009900709e-01
4.332214575260877609e-01 -1.017420434951782227e+01 -1.380859703291150709e-01
-1.928839089348912239e+00 -3.516553735733032227e+01 2.844298988115099291e-01
-1.632452370598912239e+00 -3.643726587295532227e+01 3.086455970536974291e-01
-1.313238503411412239e+00 -3.776807641983032227e+01 3.350585609208849291e-01
-9.730285424739122391e-01 -3.929847192764282227e+01 3.650268226396349291e-01
-6.074279565364122391e-01 -4.099073266983032227e+01 3.980010658036974291e-01
-2.155822534114122391e-01 -4.325489282608032227e+01 4.406493812333849291e-01
3.184753637760877609e-01 -1.028772974014282227e+01 -8.568728868849007085e-02
4.324890356510877609e-01 -1.018042993545532227e+01 -8.542788927442757085e-02
4.202820044010877609e-01 -6.838633060455322266e+00 -8.472229332197400709e-01
5.015808325260877609e-01 -6.870127201080322266e+00 -8.480774254072400709e-01
5.834900122135877609e-01 -6.898569583892822266e+00 -8.489166588056775709e-01
6.662536840885877609e-01 -6.927500247955322266e+00 -8.497711509931775709e-01
7.495056372135877609e-01 -6.956552982330322266e+00 -8.506256431806775709e-01
8.333679419010877609e-01 -6.985727787017822266e+00 -8.514953941572400709e-01
9.182068090885877609e-01 -7.015268802642822266e+00 -8.523651451338025709e-01
1.003045676276087761e+00 -7.041758060455322266e+00 -8.532196373213025709e-01
4.251648169010877609e-01 -7.475595951080322266e+00 -8.521362632978650709e-01
5.128113012760877609e-01 -7.508799076080322266e+00 -8.530517906416150709e-01
6.013122778385877609e-01 -7.546030521392822266e+00 -8.540130943525525709e-01
6.907898169010877609e-01 -7.579966068267822266e+00 -8.549591392744275709e-01
7.807556372135877609e-01 -7.614145755767822266e+00 -8.559051841963025709e-01
8.714538794010877609e-01 -7.648569583892822266e+00 -8.568664879072400709e-01
9.630066137760877609e-01 -7.679575443267822266e+00 -8.577972740400525709e-01
1.055291770026087761e+00 -7.714609622955322266e+00 -8.587738365400525709e-01
4.305359106510877609e-01 -8.183115482330322266e+00 -8.555389732588025709e-01
5.251404028385877609e-01 -8.209116458892822266e+00 -8.557373375166150709e-01
6.202331762760877609e-01 -8.235239505767822266e+00 -8.559357017744275709e-01
7.165466528385877609e-01 -8.266123294830322266e+00 -8.564087242353650709e-01
8.133484106510877609e-01 -8.301401615142822266e+00 -8.571564048994275709e-01
9.110046606510877609e-01 -8.336924076080322266e+00 -8.579040855634900709e-01
1.009881613776087761e+00 -8.372934818267822266e+00 -8.586670250166150709e-01
1.109124777838587761e+00 -8.409067630767822266e+00 -8.594147056806775709e-01
4.368835669010877609e-01 -9.016123294830322266e+00 -8.598419517744275709e-01
5.399109106510877609e-01 -9.047617435455322266e+00 -8.598419517744275709e-01
6.434265356510877609e-01 -9.074839115142822266e+00 -8.598419517744275709e-01
7.479187231510877609e-01 -9.102427005767822266e+00 -8.598419517744275709e-01
8.533874731510877609e-01 -9.142588138580322266e+00 -8.605438560713025709e-01
9.601989965885877609e-01 -9.191416263580322266e+00 -8.617340416181775709e-01
1.068475363776087761e+00 -9.240976810455322266e+00 -8.629394859541150709e-01
1.177117941901087761e+00 -9.285532474517822266e+00 -8.641144127119275709e-01
4.443298559635877609e-01 -9.996225833892822266e+00 -8.639770836103650709e-01
5.574890356510877609e-01 -1.005372095108032227e+01 -8.652740806806775709e-01
6.719909887760877609e-01 -1.011194849014282227e+01 -8.665863365400525709e-01
7.880798559635877609e-01 -1.017103052139282227e+01 -8.679291099775525709e-01
9.050232153385877609e-01 -1.023047876358032227e+01 -8.692718834150525709e-01
1.023431418463587761e+00 -1.029065942764282227e+01 -8.706451744306775709e-01
1.143548605963587761e+00 -1.035169458389282227e+01 -8.720184654463025709e-01
1.264642355963587761e+00 -1.041321802139282227e+01 -8.734070152509900709e-01
4.518982153385877609e-01 -1.100391626358032227e+01 -8.606811851728650709e-01
5.787292700260877609e-01 -1.125989770889282227e+01 -8.707367271650525709e-01
7.059265356510877609e-01 -1.134412622451782227e+01 -8.728119224775525709e-01
8.358093481510877609e-01 -1.144288110733032227e+01 -8.755585045088025709e-01
9.675232153385877609e-01 -1.154297876358032227e+01 -8.783356041181775709e-01
1.101312277838587761e+00 -1.164466333389282227e+01 -8.811584800947400709e-01
1.236932395026087761e+00 -1.173340845108032227e+01 -8.833252281416150709e-01
1.371698020026087761e+00 -1.179322290420532227e+01 -8.844391197431775709e-01
4.500671606510877609e-01 -1.089673852920532227e+01 -7.994781822431775709e-01
6.053405981510877609e-01 -1.277747583389282227e+01 -8.788696617353650709e-01
7.479187231510877609e-01 -1.287012720108032227e+01 -8.806701988447400709e-01
8.929382544010877609e-01 -1.296436548233032227e+01 -8.825012535322400709e-01
1.039544699713587761e+00 -1.305970239639282227e+01 -8.843475670088025709e-01
1.188592551276087761e+00 -1.316236352920532227e+01 -8.864837974775525709e-01
1.342401145026087761e+00 -1.329493188858032227e+01 -8.898407310713025709e-01
1.498529074713587761e+00 -1.342969751358032227e+01 -8.932586998213025709e-01
4.487243872135877609e-01 -1.084949731826782227e+01 -7.418915123213025709e-01
6.457458715885877609e-01 -1.506470727920532227e+01 -9.028412193525525709e-01
8.137146215885877609e-01 -1.525220727920532227e+01 -9.070679039228650709e-01
9.141784887760877609e-01 -1.355335474014282227e+01 -8.393951744306775709e-01
1.156243918463587761e+00 -1.551001977920532227e+01 -9.116607994306775709e-01
1.331414816901087761e+00 -1.564173364639282227e+01 -9.139953941572400709e-01
1.509515402838587761e+00 -1.576709985733032227e+01 -9.164673179853650709e-01
1.694329855963587761e+00 -1.595069360733032227e+01 -9.206787437666150709e-01
4.476257544010877609e-01 -1.082325220108032227e+01 -6.851745933759900709e-01
7.066589575260877609e-01 -1.850416040420532227e+01 -9.445740074384900709e-01
9.106384497135877609e-01 -1.875831079483032227e+01 -9.500061363447400709e-01
9.105163794010877609e-01 -1.348523950576782227e+01 -7.690826744306775709e-01
1.332757590338587761e+00 -1.921521997451782227e+01 -9.589020103681775709e-01
1.547845480963587761e+00 -1.939686059951782227e+01 -9.616791099775525709e-01
1.767816184088587761e+00 -1.958252954483032227e+01 -9.645172447431775709e-01
1.300408957526087761e+00 -1.092322778701782227e+01 -6.749054283369275709e-01
4.465271215885877609e-01 -1.080738306045532227e+01 -6.293274254072400709e-01
5.704284887760877609e-01 -1.101294946670532227e+01 -6.334167808759900709e-01
6.933532934635877609e-01 -1.103699731826782227e+01 -6.321350425947400709e-01
8.155456762760877609e-01 -1.101661157608032227e+01 -6.295410484541150709e-01
9.371277075260877609e-01 -1.099744653701782227e+01 -6.269928306806775709e-01
1.055780051276087761e+00 -1.093238306045532227e+01 -6.231323570478650709e-01
1.176385520026087761e+00 -1.090772485733032227e+01 -6.204315513838025709e-01
1.296746848151087761e+00 -1.088904809951782227e+01 -6.179291099775525709e-01
4.455505590885877609e-01 -1.079981470108032227e+01 -5.735412925947400709e-01
5.795837622135877609e-01 -1.158118677139282227e+01 -5.909515709150525709e-01
6.705261450260877609e-01 -1.025367212295532227e+01 -5.561157554853650709e-01
7.766052465885877609e-01 -1.001307153701782227e+01 -5.483337730634900709e-01
8.868347387760877609e-01 -9.967173099517822266e+00 -5.453583091963025709e-01
9.977966528385877609e-01 -9.946543216705322266e+00 -5.430237144697400709e-01
1.108758566901087761e+00 -9.925791263580322266e+00 -5.406738609541150709e-01
1.220330832526087761e+00 -9.922495365142822266e+00 -5.387512535322400709e-01
4.389587622135877609e-01 -1.006910181045532227e+01 -5.033813804853650709e-01
5.511413794010877609e-01 -1.003858423233032227e+01 -5.008789390791150709e-01
6.628357153385877609e-01 -1.001038599014282227e+01 -4.984375328291150709e-01
7.746521215885877609e-01 -9.984262943267822266e+00 -4.960419029463025709e-01
8.859802465885877609e-01 -9.968027591705322266e+00 -4.938598961103650709e-01
9.969421606510877609e-01 -9.947397708892822266e+00 -4.915863365400525709e-01
1.107904074713587761e+00 -9.926645755767822266e+00 -4.893127769697400709e-01
1.217645285651087761e+00 -9.899302005767822266e+00 -4.869171470869275709e-01
4.378601294010877609e-01 -1.003870630264282227e+01 -4.507232994306775709e-01
5.496765356510877609e-01 -1.000831079483032227e+01 -4.483581871259900709e-01
6.611267309635877609e-01 -9.980356693267822266e+00 -4.463135093916150709e-01
7.725769262760877609e-01 -9.954233646392822266e+00 -4.440246910322400709e-01
8.851257544010877609e-01 -9.968882083892822266e+00 -4.423614830244275709e-01
9.960876684635877609e-01 -9.948252201080322266e+00 -4.401642173994275709e-01
1.107049582526087761e+00 -9.927500247955322266e+00 -4.376770347822400709e-01
1.214471457526087761e+00 -9.870249271392822266e+00 -4.349609703291150709e-01
4.367614965885877609e-01 -1.001722192764282227e+01 -3.987518638838025709e-01
5.484558325260877609e-01 -9.987436771392822266e+00 -3.965088218916150709e-01
6.596618872135877609e-01 -9.959848880767822266e+00 -3.942962974775525709e-01
7.709900122135877609e-01 -9.934458255767822266e+00 -3.921142906416150709e-01
8.814636450260877609e-01 -9.911142826080322266e+00 -3.899628013838025709e-01
9.916931372135877609e-01 -9.889658451080322266e+00 -3.878418297041150709e-01
1.102166770026087761e+00 -9.869883060455322266e+00 -3.857361168134900709e-01
1.212030051276087761e+00 -9.851816654205322266e+00 -3.836609215009900709e-01
4.359070044010877609e-01 -1.001465845108032227e+01 -3.468262047041150709e-01
5.476013403385877609e-01 -9.985239505767822266e+00 -3.449798912275525709e-01
6.588073950260877609e-01 -9.957895755767822266e+00 -3.428894371259900709e-01
7.700134497135877609e-01 -9.932993412017822266e+00 -3.407989830244275709e-01
8.804870825260877609e-01 -9.910044193267822266e+00 -3.387390465009900709e-01
9.908386450260877609e-01 -9.890146732330322266e+00 -3.366943687666150709e-01
1.101434348151087761e+00 -9.872812747955322266e+00 -3.346802086103650709e-01
1.211541770026087761e+00 -9.857187747955322266e+00 -3.324066490400525709e-01
4.362732153385877609e-01 -1.016431665420532227e+01 -2.955261558759900709e-01
5.493103247135877609e-01 -1.013440942764282227e+01 -2.934967369306775709e-01
6.619812231510877609e-01 -1.010645532608032227e+01 -2.914673179853650709e-01
7.746521215885877609e-01 -1.008094263076782227e+01 -2.894531578291150709e-01
8.865905981510877609e-01 -1.005762720108032227e+01 -2.874542564619275709e-01
9.982849340885877609e-01 -1.003565454483032227e+01 -2.854553550947400709e-01
1.110101340338587761e+00 -1.001563501358032227e+01 -2.834717125166150709e-01
1.221429465338587761e+00 -9.997080326080322266e+00 -2.814880699384900709e-01
4.352966528385877609e-01 -1.016492700576782227e+01 -2.429748863447400709e-01
5.484558325260877609e-01 -1.013563013076782227e+01 -2.413421959150525709e-01
6.611267309635877609e-01 -1.010840845108032227e+01 -2.394195884931775709e-01
7.737976294010877609e-01 -1.008338403701782227e+01 -2.374969810713025709e-01
8.858581762760877609e-01 -1.006031274795532227e+01 -2.355743736494275709e-01
9.975525122135877609e-01 -1.003846216201782227e+01 -2.336517662275525709e-01
1.109368918463587761e+00 -1.001856470108032227e+01 -2.317291588056775709e-01
1.220697043463587761e+00 -1.000001001358032227e+01 -2.295318931806775709e-01
4.345642309635877609e-01 -1.016907739639282227e+01 -1.906830162275525709e-01
5.476013403385877609e-01 -1.013978052139282227e+01 -1.888824791181775709e-01
6.603943090885877609e-01 -1.011255884170532227e+01 -1.870514244306775709e-01
7.730652075260877609e-01 -1.008753442764282227e+01 -1.852203697431775709e-01
8.851257544010877609e-01 -1.006446313858032227e+01 -1.833893150556775709e-01
9.968200903385877609e-01 -1.004261255264282227e+01 -1.815582603681775709e-01
