1.825229737907648087e+00 -1.345423403382301331e+01 -1.059016605140641332e-01
1.938755128532648087e+00 -1.354554262757301331e+01 -1.024379153968766332e-01
2.053379151970148087e+00 -1.363099184632301331e+01 -9.894365270156413317e-02
1.392124269157648087e+00 -1.481849184632301331e+01 -1.356715579750016332e-01
1.507602784782648087e+00 -1.484302797913551331e+01 -1.288051028968766332e-01
1.623813722282648087e+00 -1.486768618226051331e+01 -1.219081302406266332e-01
1.741001222282648087e+00 -1.489258852601051331e+01 -1.149653812171891332e-01
1.865146730095148087e+00 -1.498865786194801331e+01 -1.105098148109391332e-01
1.996616456657648087e+00 -1.513367739319801331e+01 -1.076106448890641332e-01
2.130649659782648087e+00 -1.528138247132301331e+01 -1.046504398109391332e-01
2.267734620720148087e+00 -1.543250551819801331e+01 -1.016291995765641332e-01
1.505527589470148087e+00 -1.670728579163551331e+01 -1.353511234046891332e-01
1.641758058220148087e+00 -1.680127993226051331e+01 -1.291255374671891332e-01
1.778843019157648087e+00 -1.688575258851051331e+01 -1.228541751625016332e-01
1.923374269157648087e+00 -1.703052797913551331e+01 -1.183223148109391332e-01
2.077182862907648087e+00 -1.725013247132301331e+01 -1.159572025062516332e-01
2.238437745720148087e+00 -1.749927797913551331e+01 -1.141719241859391332e-01
2.404453370720148087e+00 -1.775574770569801331e+01 -1.123408694984391332e-01
2.573886964470148087e+00 -1.800355044007301331e+01 -1.103572269203141332e-01
1.659214112907648087e+00 -1.926258364319801331e+01 -1.362361331703141332e-01
1.823886964470148087e+00 -1.946119204163551331e+01 -1.313533206703141332e-01
2.007602784782648087e+00 -1.985560122132301331e+01 -1.315822025062516332e-01
2.200351808220148087e+00 -2.026941958069801331e+01 -1.317958255531266332e-01
2.401279542595148087e+00 -2.070093813538551331e+01 -1.320399661781266332e-01
2.612705323845148087e+00 -2.115528383851051331e+01 -1.322993655921891332e-01
2.838291261345148087e+00 -2.166993227601051331e+01 -1.335658450843766332e-01
3.110263917595148087e+00 -2.249634829163551331e+01 -1.418208499671891332e-01
1.915073487907648087e+00 -2.350086489319801331e+01 -1.542567630531266332e-01
2.151035401970148087e+00 -2.421351137757301331e+01 -1.579188724281266332e-01
2.405796144157648087e+00 -2.501160708069801331e+01 -1.620997806312516332e-01
2.676548097282648087e+00 -2.583008852601051331e+01 -1.662959476234391332e-01
3.041294191032648087e+00 -2.749537172913551331e+01 -1.877803226234391332e-01
3.404087159782648087e+00 -2.886316958069801331e+01 -2.010249515296891332e-01
3.871372316032648087e+00 -3.096265688538551331e+01 -2.283381839515641332e-01
4.465610597282648087e+00 -3.382264223694801331e+01 -2.675380130531266332e-01
2.487827394157648087e+00 -3.293958559632301331e+01 -2.329158206703141332e-01
2.900425050407648087e+00 -3.506336489319801331e+01 -2.540645023109391332e-01
3.558139894157648087e+00 -3.986829653382301331e+01 -3.212184329750016332e-01
5.478916261345148087e+00 -5.833436098694801331e+01 -6.217402835609391332e-01
7.411533448845148087e+00 -7.368079653382301331e+01 -8.479670902015641332e-01
8.458164308220148087e+00 -7.792505922913551331e+01 -8.747157474281266332e-01
7.065097901970148087e+00 -5.967603579163551331e+01 -5.424250980140641332e-01
7.535678956657648087e+00 -5.950599184632301331e+01 -5.055140872718766332e-01
5.089878175407648087e+00 -7.567212954163551331e+01 -7.140101810218766332e-01
6.070835206657648087e+00 -8.087598696351051331e+01 -7.437343021156266332e-01
7.175449464470148087e+00 -8.654554262757301331e+01 -7.735804935218766332e-01
8.559116456657648087e+00 -9.431580629944801331e+01 -8.236598392250016332e-01
7.045200441032648087e+00 -5.967237368226051331e+01 -2.730311771156266332e-01
7.666416261345148087e+00 -6.076246157288551331e+01 -2.500056644203141332e-01
7.064609620720148087e+00 -6.002381411194801331e+01 -4.583301139064133167e-03
7.561069581657648087e+00 -6.004615297913551331e+01 3.020673792343586683e-02
7.585361573845148087e+00 -6.041602602601051331e+01 3.008976558921858668e-01
1.675205323845148087e+00 -1.044263735413551331e+01 -1.061610599281266332e-01
1.754551026970148087e+00 -1.045057192444801331e+01 -1.013240237953141332e-01
1.836338136345148087e+00 -1.047388735413551331e+01 -9.746355016250163317e-02
1.921054933220148087e+00 -1.051050844788551331e+01 -9.424394567031413317e-02
2.006260011345148087e+00 -1.054737368226051331e+01 -9.099382360000163317e-02
2.092807862907648087e+00 -1.058484926819801331e+01 -8.769792516250163317e-02
2.179843995720148087e+00 -1.062256899476051331e+01 -8.437150914687663317e-02
2.267002198845148087e+00 -1.065626040101051331e+01 -8.104509313125163317e-02
1.768589112907648087e+00 -1.123145571351051331e+01 -1.004695316078141332e-01
1.858921144157648087e+00 -1.127308169007301331e+01 -9.692949254531413317e-02
1.951694581657648087e+00 -1.132483950257301331e+01 -9.378618199843913317e-02
2.046665284782648087e+00 -1.138318911194801331e+01 -9.061235387343913317e-02
2.141880128532648087e+00 -1.143628969788551331e+01 -8.739274938125163317e-02
2.237583253532648087e+00 -1.148426333069801331e+01 -8.409685094375163317e-02
2.335239503532648087e+00 -1.153870669007301331e+01 -8.080095250625163317e-02
2.434116456657648087e+00 -1.159388247132301331e+01 -7.744401891250163317e-02
1.886631105095148087e+00 -1.222742739319801331e+01 -9.636491735000163317e-02
1.990879151970148087e+00 -1.231067934632301331e+01 -9.377092320937663317e-02
2.097080323845148087e+00 -1.239661684632301331e+01 -9.119218785781413317e-02
2.205478761345148087e+00 -1.248450747132301331e+01 -8.856767613906413317e-02
2.315586183220148087e+00 -1.257349672913551331e+01 -8.588212926406413317e-02
2.428012941032648087e+00 -1.266456118226051331e+01 -8.315080602187663317e-02
2.542148683220148087e+00 -1.275684633851051331e+01 -8.037370641250163317e-02
2.658481691032648087e+00 -1.285096254944801331e+01 -7.755083043593913317e-02
2.053867433220148087e+00 -1.363196840882301331e+01 -9.895891149062663317e-02
2.171543214470148087e+00 -1.372938051819801331e+01 -9.537309606093913317e-02
2.290439698845148087e+00 -1.382093325257301331e+01 -9.174150426406413317e-02
2.411777589470148087e+00 -1.391431704163551331e+01 -8.804887731093913317e-02
2.534824464470148087e+00 -1.400904360413551331e+01 -8.429521520156413317e-02
2.660434816032648087e+00 -1.410572329163551331e+01 -8.046525914687663317e-02
2.787754151970148087e+00 -1.420374575257301331e+01 -7.657426793593913317e-02
2.938022706657648087e+00 -1.441712465882301331e+01 -7.684892613906413317e-02
2.268222901970148087e+00 -1.543397036194801331e+01 -1.016444583656266332e-01
2.407749269157648087e+00 -1.558252993226051331e+01 -9.853166539687663317e-02
2.550571534782648087e+00 -1.573462954163551331e+01 -9.532731969375163317e-02
2.697300050407648087e+00 -1.589087954163551331e+01 -9.204668004531413317e-02
2.855625245720148087e+00 -1.610547915101051331e+01 -9.042924840468913317e-02
3.033847901970148087e+00 -1.641492739319801331e+01 -9.143632848281413317e-02
3.219394776970148087e+00 -1.673719301819801331e+01 -9.248918492812663317e-02
3.413486573845148087e+00 -1.707398501038551331e+01 -9.358781774062663317e-02
2.574619386345148087e+00 -1.800586977601051331e+01 -1.103877444984391332e-01
2.751621339470148087e+00 -1.827747622132301331e+01 -1.081294437171891332e-01
2.959262941032648087e+00 -1.873511782288551331e+01 -1.111201663734391332e-01
3.183506105095148087e+00 -1.924805727601051331e+01 -1.150569339515641332e-01
3.421054933220148087e+00 -1.979127016663551331e+01 -1.192073245765641332e-01
3.674717042595148087e+00 -2.037147036194801331e+01 -1.236476321937516332e-01
3.944248292595148087e+00 -2.098743715882301331e+01 -1.283473392250016332e-01
4.310093019157648087e+00 -2.207606020569801331e+01 -1.446437259437516332e-01
3.112094972282648087e+00 -2.250684633851051331e+01 -1.420344730140641332e-01
3.411533448845148087e+00 -2.343482485413551331e+01 -1.518916507484391332e-01
3.734165284782648087e+00 -2.441480532288551331e+01 -1.618556400062516332e-01
4.115024659782648087e+00 -2.567164126038551331e+01 -1.768855472328141332e-01
4.566440675407648087e+00 -2.724927797913551331e+01 -1.975764652015641332e-01
5.030674073845148087e+00 -2.873316469788551331e+01 -2.143306155921891332e-01
5.713413331657648087e+00 -3.134498110413551331e+01 -2.529811282875016332e-01
7.055698487907648087e+00 -3.737049379944801331e+01 -3.580073734046891332e-01
4.468540284782648087e+00 -3.383912172913551331e+01 -2.677974124671891332e-01
5.639194581657648087e+00 -4.079786196351051331e+01 -3.825282474281266332e-01
8.589389894157648087e+00 -5.987171450257301331e+01 -7.133845706703141332e-01
7.184116456657648087e+00 -4.680347719788551331e+01 -4.436244388343766332e-01
7.493930909782648087e+00 -4.630457583069801331e+01 -4.083003421546891332e-01
7.895908448845148087e+00 -4.641077700257301331e+01 -3.836116214515641332e-01
8.175083253532648087e+00 -4.579065981507301331e+01 -3.481044193031266332e-01
8.887729737907648087e+00 -4.763709536194801331e+01 -3.508815189125016332e-01
7.536777589470148087e+00 -5.950123110413551331e+01 -5.053157230140641332e-01
8.032993409782648087e+00 -5.954566469788551331e+01 -4.718684573890641332e-01
6.811802003532648087e+00 -4.702393618226051331e+01 -2.625178714515641332e-01
7.154331300407648087e+00 -4.670435610413551331e+01 -2.312068362953141332e-01
7.459873292595148087e+00 -4.618238344788551331e+01 -1.976985355140641332e-01
7.821689698845148087e+00 -4.604798403382301331e+01 -1.693934818031266332e-01
8.512851808220148087e+00 -4.785767641663551331e+01 -1.638698001625016332e-01
8.573154542595148087e+00 -4.597156801819801331e+01 -1.153621097328141332e-01
7.538364503532648087e+00 -5.967701235413551331e+01 -2.384242435218766332e-01
8.024936769157648087e+00 -5.963611879944801331e+01 -2.034968753578141332e-01
8.449985597282648087e+00 -5.913941469788551331e+01 -1.642512698890641332e-01
7.246738526970148087e+00 -4.744849672913551331e+01 -2.713579137343913317e-02
7.452427003532648087e+00 -4.623377504944801331e+01 1.030927698593586683e-02
7.849155519157648087e+00 -4.631165590882301331e+01 3.667646448593586683e-02
8.306919191032648087e+00 -4.674268618226051331e+01 6.064802210312336683e-02
8.637729737907648087e+00 -4.641797915101051331e+01 9.002119104843586683e-02
7.563022706657648087e+00 -6.004908266663551331e+01 3.031354944687336683e-02
8.013340089470148087e+00 -5.969971743226051331e+01 6.727033655624836683e-02
8.495761964470148087e+00 -5.962012758851051331e+01 1.025944332359358668e-01
7.174106691032648087e+00 -4.705408754944801331e+01 1.896305660484358668e-01
7.573520753532648087e+00 -4.712476626038551331e+01 2.169285396812483668e-01
7.889682862907648087e+00 -4.665821352601051331e+01 2.460423092124983668e-01
8.227451417595148087e+00 -4.636707583069801331e+01 2.741642574546858668e-01
8.609653566032648087e+00 -4.634778872132301331e+01 3.015385250328108668e-01
7.586704347282648087e+00 -6.041309633851051331e+01 3.010197262046858668e-01
7.980991456657648087e+00 -5.959888735413551331e+01 3.372440914390608668e-01
8.557041261345148087e+00 -6.021558657288551331e+01 3.724003414390608668e-01
1.057449731603264809e+01 -7.072986879944801331e+01 4.133244137046858668e-01
7.555210206657648087e+00 -4.710682192444801331e+01 4.296513180015608668e-01
7.955478761345148087e+00 -4.716175356507301331e+01 4.577427486656233668e-01
8.205234620720148087e+00 -4.632740297913551331e+01 4.838200191734358668e-01
8.880771730095148087e+00 -4.795484438538551331e+01 5.161381344078108668e-01
8.060215089470148087e+00 -6.037781801819801331e+01 6.111240963218733668e-01
7.215366456657648087e+00 -4.755604067444801331e+01 6.164646724937483668e-01
7.551548097282648087e+00 -4.718470278382301331e+01 6.427097896812483668e-01
7.934848878532648087e+00 -4.713050356507301331e+01 6.706791500328108668e-01
8.179233644157648087e+00 -4.626502504944801331e+01 6.940250972984358668e-01
8.552768800407648087e+00 -4.620203676819801331e+01 7.213383297203108668e-01
1.529507837072014809e+01 -8.844300356507301331e+01 1.392755566048435867e+00
8.654697511345148087e+00 -4.686268129944801331e+01 9.385777096031233668e-01
1.526907739415764809e+01 -8.846485415101051331e+01 1.797754345345310867e+00
1.519852075353264809e+01 -8.386890688538551331e+01 1.777048168587498367e+00
1.523123559728264809e+01 -8.841761294007301331e+01 2.203607616829685867e+00
1.569278344884514809e+01 -8.682252016663551331e+01 2.224496899056248367e+00
1.513113794103264809e+01 -8.799805727601051331e+01 2.597299633431248367e+00
1.516080102697014809e+01 -8.397584047913551331e+01 2.549539623665623367e+00
2.267246339470148087e+00 -1.065638247132301331e+01 -8.102983434218913317e-02
2.356357667595148087e+00 -1.069556704163551331e+01 -7.764238317031413317e-02
2.445591066032648087e+00 -1.073072329163551331e+01 -7.423967320937663317e-02
2.536045167595148087e+00 -1.076648989319801331e+01 -7.079118688125163317e-02
2.627231691032648087e+00 -1.080250063538551331e+01 -6.732744176406413317e-02
2.719760987907648087e+00 -1.083899965882301331e+01 -6.380266149062663317e-02
2.816806886345148087e+00 -1.089258852601051331e+01 -6.101030309218913317e-02
2.925083253532648087e+00 -1.098658266663551331e+01 -6.018632848281413317e-02
2.434482667595148087e+00 -1.159437075257301331e+01 -7.745927770156413317e-02
2.533847901970148087e+00 -1.164551821351051331e+01 -7.405656774062663317e-02
2.634555909782648087e+00 -1.169739809632301331e+01 -7.062334020156413317e-02
2.738193605095148087e+00 -1.175648012757301331e+01 -6.711381871718913317e-02
2.851841066032648087e+00 -1.185682192444801331e+01 -6.552690465468913317e-02
2.976474855095148087e+00 -1.199549379944801331e+01 -6.563371617812663317e-02
3.096836183220148087e+00 -1.210560122132301331e+01 -6.416887242812663317e-02
3.218052003532648087e+00 -1.220972719788551331e+01 -6.232255895156413317e-02
2.658847901970148087e+00 -1.285132876038551331e+01 -7.755083043593913317e-02
2.776401612907648087e+00 -1.294190493226051331e+01 -7.465166051406413317e-02
2.906162355095148087e+00 -1.308423891663551331e+01 -7.361406285781413317e-02
3.041050050407648087e+00 -1.323597231507301331e+01 -7.271379430312663317e-02
3.172885987907648087e+00 -1.336158266663551331e+01 -7.068437535781413317e-02
3.308506105095148087e+00 -1.349122133851051331e+01 -6.862443883437663317e-02
3.449985597282648087e+00 -1.363624086976051331e+01 -6.696123082656413317e-02
3.609653566032648087e+00 -1.384437075257301331e+01 -6.734270055312663317e-02
2.938633058220148087e+00 -1.441858950257301331e+01 -7.687944371718913317e-02
3.099155519157648087e+00 -1.466517153382301331e+01 -7.753557164687663317e-02
3.263706300407648087e+00 -1.490919008851051331e+01 -7.816118199843913317e-02
3.435581300407648087e+00 -1.516395083069801331e+01 -7.880205113906413317e-02
3.613926026970148087e+00 -1.542835512757301331e+01 -7.945817906875163317e-02
3.801303956657648087e+00 -1.570862856507301331e+01 -8.028215367812663317e-02
4.010044191032648087e+00 -1.605958071351051331e+01 -8.296770055312663317e-02
4.225742433220148087e+00 -1.641224184632301331e+01 -8.566850621718913317e-02
3.414218995720148087e+00 -1.707606020569801331e+01 -9.361833531875163317e-02
3.615879151970148087e+00 -1.742042055726051331e+01 -9.471696813125163317e-02
3.829990480095148087e+00 -1.779517641663551331e+01 -9.627336461562663317e-02
4.069858644157648087e+00 -1.825867739319801331e+01 -9.981340367812663317e-02
4.392856691032648087e+00 -1.907166567444801331e+01 -1.124171634437516332e-01
4.683139894157648087e+00 -1.967042055726051331e+01 -1.182765384437516332e-01
4.976352784782648087e+00 -2.023694887757301331e+01 -1.226252933265641332e-01
5.493442628532648087e+00 -2.168824282288551331e+01 -1.490077396156266332e-01
4.311924073845148087e+00 -2.208289614319801331e+01 -1.447657962562516332e-01
4.652988526970148087e+00 -2.293970766663551331e+01 -1.532954593421891332e-01
5.056675050407648087e+00 -2.403553286194801331e+01 -1.670131107093766332e-01
5.499668214470148087e+00 -2.522364321351051331e+01 -1.815394778968766332e-01
6.046177003532648087e+00 -2.679773989319801331e+01 -2.034816165687516332e-01
6.726841066032648087e+00 -2.884363833069801331e+01 -2.339381595375016332e-01
1.016568383947014809e+01 -4.261365786194801331e+01 -5.147303958656266332e-01
7.109165284782648087e+00 -2.842383852601051331e+01 -1.937617679359391332e-01
7.069126222282648087e+00 -3.743946352601051331e+01 -3.593501468421891332e-01
9.232944581657648087e+00 -4.726636782288551331e+01 -5.327357669593766332e-01
9.357334230095148087e+00 -4.588794985413551331e+01 -4.796504398109391332e-01
9.771030519157648087e+00 -4.601807680726051331e+01 -4.560450931312516332e-01
1.017422876134514809e+01 -4.608875551819801331e+01 -4.312343021156266332e-01
1.053702173009514809e+01 -4.596058169007301331e+01 -4.026698489906266332e-01
7.151157472282648087e+00 -2.967444887757301331e+01 -1.018580814125016332e-01
7.358432862907648087e+00 -2.949952211976051331e+01 -8.225053746718913317e-02
8.887363526970148087e+00 -4.762757387757301331e+01 -3.506373782875016332e-01
8.947300050407648087e+00 -4.583289614319801331e+01 -2.963923831703141332e-01
9.387973878532648087e+00 -4.612281313538551331e+01 -2.733210941078141332e-01
9.757236573845148087e+00 -4.602698794007301331e+01 -2.454585452796891332e-01
1.012894067540764809e+01 -4.595057192444801331e+01 -2.179927249671891332e-01
1.049502954259514809e+01 -4.584229555726051331e+01 -1.900081058265641332e-01
7.136875245720148087e+00 -2.965565004944801331e+01 3.234296839218586683e-02
7.268711183220148087e+00 -2.916749086976051331e+01 5.497175257187336683e-02
8.575107667595148087e+00 -4.597523012757301331e+01 -1.153010745765641332e-01
8.836460206657648087e+00 -4.532508364319801331e+01 -8.200639684218913317e-02
9.365512941032648087e+00 -4.608704653382301331e+01 -6.328386266250163317e-02
9.720615480095148087e+00 -4.592408266663551331e+01 -3.491777379531413317e-02
1.008902368322014809e+01 -4.583631411194801331e+01 -7.406177115626633167e-03
1.045828637853264809e+01 -4.574732485413551331e+01 2.021223108749836683e-02
1.096780786290764809e+01 -4.627149477601051331e+01 4.314619104843586683e-02
7.082920167595148087e+00 -2.843421450257301331e+01 1.924992183921858668e-01
8.638095948845148087e+00 -4.641334047913551331e+01 9.014326136093586683e-02
8.895176026970148087e+00 -4.571851626038551331e+01 1.213017086265608668e-01
9.292026612907648087e+00 -4.579090395569801331e+01 1.477299312828108668e-01
9.680698487907648087e+00 -4.580457583069801331e+01 1.747074703453108668e-01
1.013211450353264809e+01 -4.611072817444801331e+01 2.005406002281233668e-01
1.050296411290764809e+01 -4.601807680726051331e+01 2.282658199546858668e-01
1.096585473790764809e+01 -4.633130922913551331e+01 2.547703365562483668e-01
7.329624269157648087e+00 -2.950428286194801331e+01 3.185215572593733668e-01
8.610874269157648087e+00 -4.634766665101051331e+01 3.016300777671858668e-01
8.879551026970148087e+00 -4.571729555726051331e+01 3.297825435874983668e-01
9.279087159782648087e+00 -4.580408754944801331e+01 3.569126705406233668e-01
9.706089112907648087e+00 -4.600464907288551331e+01 3.843327144859358668e-01
1.011648950353264809e+01 -4.611072817444801331e+01 4.119511226890608668e-01
1.059524926915764809e+01 -4.650501528382301331e+01 4.402561763999983668e-01
1.116275415197014809e+01 -4.725452700257301331e+01 4.697666744468733668e-01
7.308750245720148087e+00 -2.945850649476051331e+01 4.524632076499983668e-01
8.882480714470148087e+00 -4.795728579163551331e+01 5.162449459312483668e-01
8.957920167595148087e+00 -4.621851626038551331e+01 5.388889888999983668e-01
9.455600831657648087e+00 -4.678577700257301331e+01 5.690861324546858668e-01
9.798740480095148087e+00 -4.653455629944801331e+01 5.962620357749983668e-01
1.046219262853264809e+01 -4.780921450257301331e+01 6.313572506187483668e-01
1.066531762853264809e+01 -4.689307680726051331e+01 6.550541500328108668e-01
1.100699243322014809e+01 -4.664747133851051331e+01 6.820622066734358668e-01
1.172757348790764809e+01 -4.800086489319801331e+01 7.204990963218733668e-01
8.553989503532648087e+00 -4.620191469788551331e+01 7.214298824546858668e-01
8.834507081657648087e+00 -4.563965883851051331e+01 7.448979000328108668e-01
9.410556886345148087e+00 -4.663514223694801331e+01 7.803898433921858668e-01
1.047635278478264809e+01 -4.795203676819801331e+01 8.509464840171858668e-01
1.076468286290764809e+01 -4.741443911194801331e+01 8.748722652671858668e-01
1.117618188634514809e+01 -4.745362368226051331e+01 9.058323482749983668e-01
1.181082544103264809e+01 -4.841956606507301331e+01 9.468937496421858668e-01
8.655796144157648087e+00 -4.686182680726051331e+01 9.386692623374983668e-01
9.017978761345148087e+00 -4.670716372132301331e+01 9.655399898765608668e-01
9.380893800407648087e+00 -4.656348696351051331e+01 9.924564937828108668e-01
1.722012719884514809e+01 -8.317823305726051331e+01 1.538843212532810867e+00
1.723050317540764809e+01 -7.988489809632301331e+01 1.542520580696873367e+00
1.082791528478264809e+01 -4.777418032288551331e+01 1.098230419564060867e+00
1.116605005040764809e+01 -4.747950258851051331e+01 1.123453197884373367e+00
1.644461450353264809e+01 -6.794703188538551331e+01 1.495065746712498367e+00
1.520010766759514809e+01 -8.386500063538551331e+01 1.777139721321873367e+00
9.068027589470148087e+00 -4.706080141663551331e+01 1.183572826790623367e+00
9.425571534782648087e+00 -4.687366762757301331e+01 1.209619579720310867e+00
1.670926294103264809e+01 -8.080127993226051331e+01 1.876840649056248367e+00
1.707510766759514809e+01 -7.927991762757301331e+01 1.898706493782810867e+00
1.721219262853264809e+01 -7.681861391663551331e+01 1.900064526009373367e+00
1.113834008947014809e+01 -4.742933169007301331e+01 1.339700756478123367e+00
1.860403833165764809e+01 -7.712732973694801331e+01 2.007165966439060867e+00
1.569534692540764809e+01 -8.682337465882301331e+01 2.224680004524998367e+00
1.682242212072014809e+01 -8.895167055726051331e+01 2.327341137337498367e+00
9.416660401970148087e+00 -4.690906801819801331e+01 1.424524364876560867e+00
1.672879419103264809e+01 -8.103443422913551331e+01 2.255838451790623367e+00
1.636429223790764809e+01 -7.604505434632301331e+01 2.187631664681248367e+00
1.716458520665764809e+01 -7.672193422913551331e+01 2.253732738899998367e+00
1.920743188634514809e+01 -8.278065004944801331e+01 2.457712231087498367e+00
1.841385278478264809e+01 -7.643799868226051331e+01 2.346002636360935867e+00
1.598660669103264809e+01 -8.863856020569801331e+01 2.671854076790623367e+00
1.570950708165764809e+01 -8.310291567444801331e+01 2.578500805306248367e+00
1.639090356603264809e+01 -8.299268618226051331e+01 2.629343090462498367e+00
1.568155298009514809e+01 -7.293140688538551331e+01 2.447824535774998367e+00
1.679739770665764809e+01 -7.517017641663551331e+01 2.561655102181248367e+00
1.773172387853264809e+01 -7.644300356507301331e+01 2.649362621712498367e+00
1.782876977697014809e+01 -7.408204165101051331e+01 2.628809032845310867e+00
1.564932641759514809e+01 -8.293006411194801331e+01 2.955911693978123367e+00
1.630704126134514809e+01 -8.270521059632301331e+01 3.003091869759373367e+00
1.665701684728264809e+01 -7.768140688538551331e+01 2.944055614876560867e+00
1.622842798009514809e+01 -7.269361391663551331e+01 2.825220165657810867e+00
1.754324731603264809e+01 -7.573243227601051331e+01 2.979394970345310867e+00
1.795267114415764809e+01 -7.471326723694801331e+01 2.993661938118748367e+00
1.547537622228264809e+01 -7.854261294007301331e+01 3.231348095345310867e+00
1.652505883947014809e+01 -8.043409243226051331e+01 3.352808056282810867e+00
1.568936548009514809e+01 -7.320582094788551331e+01 3.130640087532810867e+00
1.621023950353264809e+01 -7.272474184632301331e+01 3.162927685189060867e+00
1.798099145665764809e+01 -7.777002993226051331e+01 3.411401806282810867e+00
1.704324731603264809e+01 -7.097559633851051331e+01 3.190439281868748367e+00
1.568912133947014809e+01 -7.978943911194801331e+01 3.643228588509373367e+00
1.571878442540764809e+01 -7.346509829163551331e+01 3.480035839485935867e+00
1.590726098790764809e+01 -7.145252504944801331e+01 3.442316112923435867e+00
1.642288598790764809e+01 -7.103296938538551331e+01 3.472330151009373367e+00
1.745804223790764809e+01 -7.283692446351051331e+01 3.603632030892185867e+00
2.925571534782648087e+00 -1.098755922913551331e+01 -6.020158727187663317e-02
3.037876222282648087e+00 -1.108985415101051331e+01 -5.934709508437663317e-02
3.151523683220148087e+00 -1.118921938538551331e+01 -5.849260289687663317e-02
3.271640870720148087e+00 -1.130335512757301331e+01 -5.811113317031413317e-02
3.397251222282648087e+00 -1.142945376038551331e+01 -5.811113317031413317e-02
3.523838136345148087e+00 -1.154859438538551331e+01 -5.765336949843913317e-02
3.643833253532648087e+00 -1.163782778382301331e+01 -5.582231481093913317e-02
3.764682862907648087e+00 -1.172315493226051331e+01 -5.397600133437663317e-02
3.218540284782648087e+00 -1.221070376038551331e+01 -6.233781774062663317e-02
3.345615480095148087e+00 -1.232923403382301331e+01 -6.113237340468913317e-02
3.477329347282648087e+00 -1.245594301819801331e+01 -6.009477574843913317e-02
3.615268800407648087e+00 -1.259485903382301331e+01 -5.904191930312663317e-02
3.754551026970148087e+00 -1.272889223694801331e+01 -5.794328649062663317e-02
3.903232667595148087e+00 -1.288453188538551331e+01 -5.776018102187663317e-02
4.061313722282648087e+00 -1.306238833069801331e+01 -5.791276891250163317e-02
4.225010011345148087e+00 -1.324647036194801331e+01 -5.806535680312663317e-02
3.610508058220148087e+00 -1.384595766663551331e+01 -6.737321813125163317e-02
3.774448487907648087e+00 -1.405457583069801331e+01 -6.772417027968913317e-02
3.944492433220148087e+00 -1.427100649476051331e+01 -6.809038121718913317e-02
4.121860597282648087e+00 -1.449659243226051331e+01 -6.845659215468913317e-02
4.305576417595148087e+00 -1.473011294007301331e+01 -6.883806188125163317e-02
4.554599855095148087e+00 -1.517396059632301331e+01 -7.571977574843913317e-02
4.781040284782648087e+00 -1.551368227601051331e+01 -7.878679235000163317e-02
4.993320558220148087e+00 -1.578516665101051331e+01 -7.930559117812663317e-02
4.226718995720148087e+00 -1.641456118226051331e+01 -8.571428258437663317e-02
4.460239503532648087e+00 -1.681141176819801331e+01 -8.875078160781413317e-02
4.702427003532648087e+00 -1.721241274476051331e+01 -9.184831578750163317e-02
4.959385011345148087e+00 -1.763746157288551331e+01 -9.509843785781413317e-02
5.281284425407648087e+00 -1.826941958069801331e+01 -1.037043948890641332e-01
5.608799073845148087e+00 -1.887732973694801331e+01 -1.108607669593766332e-01
5.940952394157648087e+00 -1.946338930726051331e+01 -1.167201419593766332e-01
6.265781495720148087e+00 -1.998841372132301331e+01 -1.207484622718766332e-01
5.495395753532648087e+00 -2.169349184632301331e+01 -1.490992923500016332e-01
5.840976808220148087e+00 -2.235425844788551331e+01 -1.541804691078141332e-01
6.210849855095148087e+00 -2.305994692444801331e+01 -1.595668216468766332e-01
6.726352784782648087e+00 -2.425745669007301331e+01 -1.758632083656266332e-01
7.515537355095148087e+00 -2.636658754944801331e+01 -2.121638675453141332e-01
8.219272706657648087e+00 -2.803821840882301331e+01 -2.359218021156266332e-01
8.590366456657648087e+00 -2.847828188538551331e+01 -2.303065677406266332e-01
1.171072778478264809e+01 -3.794300356507301331e+01 -4.200953861000016332e-01
7.110263917595148087e+00 -2.842493715882301331e+01 -1.937312503578141332e-01
7.383335206657648087e+00 -2.855982485413551331e+01 -1.802119632484391332e-01
7.557529542595148087e+00 -2.829871645569801331e+01 -1.592921634437516332e-01
7.753818605095148087e+00 -2.813038149476051331e+01 -1.403407474281266332e-01
8.025913331657648087e+00 -2.824598208069801331e+01 -1.268519778968766332e-01
8.284824464470148087e+00 -2.830201235413551331e+01 -1.120509525062516332e-01
8.543613526970148087e+00 -2.835291567444801331e+01 -9.706682164687663317e-02
8.756748292595148087e+00 -2.824671450257301331e+01 -7.997697789687663317e-02
7.359043214470148087e+00 -2.949854555726051331e+01 -8.217424352187663317e-02
7.338291261345148087e+00 -2.841761294007301331e+01 -4.871171910781413317e-02
7.545810792595148087e+00 -2.829041567444801331e+01 -3.084367711562663317e-02
7.712802980095148087e+00 -2.801270571351051331e+01 -1.080888707656413317e-02
7.977451417595148087e+00 -2.810560122132301331e+01 3.747997689060866833e-03
8.238071534782648087e+00 -2.817225161194801331e+01 1.888471643906086683e-02
8.451450441032648087e+00 -2.807252016663551331e+01 3.623395960312336683e-02
8.634800050407648087e+00 -2.787659731507301331e+01 5.472761194687336683e-02
7.270908448845148087e+00 -2.917310610413551331e+01 5.497175257187336683e-02
7.257358644157648087e+00 -2.813123598694801331e+01 8.300214807968586683e-02
7.532138917595148087e+00 -2.827454653382301331e+01 9.826093714218586683e-02
7.682041261345148087e+00 -2.793311586976051331e+01 1.178684810874983668e-01
7.940708253532648087e+00 -2.800757876038551331e+01 1.332798580406233668e-01
8.201084230095148087e+00 -2.807630434632301331e+01 1.489506344078108668e-01
8.385898683220148087e+00 -2.788245669007301331e+01 1.661320308921858668e-01
8.573886964470148087e+00 -2.770728579163551331e+01 1.836948971031233668e-01
7.083896730095148087e+00 -2.843506899476051331e+01 1.925449947593733668e-01
7.381870362907648087e+00 -2.867029848694801331e+01 2.075291256187483668e-01
7.627597901970148087e+00 -2.868262758851051331e+01 2.241306881187483668e-01
7.669345948845148087e+00 -2.792139711976051331e+01 2.447605709312483668e-01
8.194492433220148087e+00 -2.896424379944801331e+01 2.565250972984358668e-01
8.118930909782648087e+00 -2.782117739319801331e+01 2.780094722984358668e-01
8.330722901970148087e+00 -2.772693911194801331e+01 2.947483638999983668e-01
8.519199464470148087e+00 -2.755811586976051331e+01 3.116551021812483668e-01
7.330234620720148087e+00 -2.950294008851051331e+01 3.185825924156233668e-01
7.371494386345148087e+00 -2.866773501038551331e+01 3.372593502281233668e-01
7.510776612907648087e+00 -2.826636782288551331e+01 3.545780758140608668e-01
7.817539308220148087e+00 -2.851404848694801331e+01 3.713474849937483668e-01
7.923862550407648087e+00 -2.801563540101051331e+01 3.882084469078108668e-01
8.182285401970148087e+00 -2.807776919007301331e+01 4.050999263999983668e-01
8.448032472282648087e+00 -2.816028872132301331e+01 4.221287349937483668e-01
8.631748292595148087e+00 -2.796265688538551331e+01 4.387150387046858668e-01
7.309116456657648087e+00 -2.945643129944801331e+01 4.525089840171858668e-01
7.751621339470148087e+00 -3.023963442444801331e+01 4.726811031578108668e-01
7.635410401970148087e+00 -2.878919497132301331e+01 4.853611568687483668e-01
7.948276612907648087e+00 -2.904273501038551331e+01 5.039463619468733668e-01
7.916172120720148087e+00 -2.802295961976051331e+01 5.163975338218733668e-01
8.073276612907648087e+00 -2.772779360413551331e+01 5.318394283531233668e-01
8.438266847282648087e+00 -2.816053286194801331e+01 5.515537838218733668e-01
8.599765870720148087e+00 -2.788880434632301331e+01 5.669651607749983668e-01
1.172903833165764809e+01 -4.800147524476051331e+01 7.206059078453108668e-01
7.740879151970148087e+00 -3.023792544007301331e+01 6.097508053062483668e-01
7.634067628532648087e+00 -2.882190981507301331e+01 6.161747555015608668e-01
7.783115480095148087e+00 -2.845789614319801331e+01 6.305943111656233668e-01
8.102939698845148087e+00 -2.873902407288551331e+01 6.509190181968733668e-01
8.354648683220148087e+00 -2.875464907288551331e+01 6.689701656578108668e-01
8.430698487907648087e+00 -2.816761294007301331e+01 6.803379635093733668e-01
8.691684816032648087e+00 -2.822608461976051331e+01 6.986332515953108668e-01
2.074576196447014809e+01 -8.587354555726051331e+01 1.396539745735935867e+00
7.355503175407648087e+00 -2.872107973694801331e+01 7.283421138999983668e-01
7.636875245720148087e+00 -2.887122622132301331e+01 7.474918941734358668e-01
7.805210206657648087e+00 -2.857752504944801331e+01 7.614994625328108668e-01
8.081455323845148087e+00 -2.869629946351051331e+01 7.811527828453108668e-01
8.337070558220148087e+00 -2.872767153382301331e+01 7.997837642906233668e-01
8.263340089470148087e+00 -2.762732973694801331e+01 8.011570553062483668e-01
8.624179933220148087e+00 -2.803419008851051331e+01 8.254337887046858668e-01
1.644705590978264809e+01 -6.794886294007301331e+01 1.495248852181248367e+00
1.102396020665764809e+01 -4.361646547913551331e+01 1.116724071907810867e+00
1.157230005040764809e+01 -4.429859438538551331e+01 1.156961498665623367e+00
8.110141847282648087e+00 -2.976710024476051331e+01 9.141941646812483668e-01
8.042759034782648087e+00 -2.859107485413551331e+01 9.104557613609358668e-01
8.307773683220148087e+00 -2.865906801819801331e+01 9.301853756187483668e-01
8.577427003532648087e+00 -2.873804751038551331e+01 9.502506832359358668e-01
8.598545167595148087e+00 -2.798108950257301331e+01 9.526615719078108668e-01
1.958646020665764809e+01 -8.124854555726051331e+01 2.095621166634373367e+00
1.138223657384514809e+01 -4.513001528382301331e+01 1.350076733040623367e+00
1.146878442540764809e+01 -4.395289126038551331e+01 1.352731762337498367e+00
8.116367433220148087e+00 -2.982898989319801331e+01 1.051034984993748367e+00
8.014560792595148087e+00 -2.852332583069801331e+01 1.038934765267185867e+00
8.278843019157648087e+00 -2.859119692444801331e+01 1.059228954720310867e+00
8.547641847282648087e+00 -2.866956606507301331e+01 1.079919872689060867e+00
8.817905519157648087e+00 -2.874451723694801331e+01 1.101388988899998367e+00
1.841556176915764809e+01 -7.643580141663551331e+01 2.346124706673435867e+00
1.112344751134514809e+01 -4.414222231507301331e+01 1.531778393196873367e+00
2.009732446447014809e+01 -7.784693422913551331e+01 2.486871776985935867e+00
1.169681176915764809e+01 -4.343580141663551331e+01 1.570505199837498367e+00
8.193393800407648087e+00 -2.921485415101051331e+01 1.189355907845310867e+00
8.358677003532648087e+00 -2.890992251038551331e+01 1.199731884407810867e+00
8.513462159782648087e+00 -2.858631411194801331e+01 1.209146557259373367e+00
8.782260987907648087e+00 -2.865882387757301331e+01 1.230447826790623367e+00
1.783145532384514809e+01 -7.408448305726051331e+01 2.629053173470310867e+00
2.021414575353264809e+01 -8.117627993226051331e+01 2.900644359993748367e+00
1.171402368322014809e+01 -4.503455629944801331e+01 1.792535839485935867e+00
1.169839868322014809e+01 -4.349866762757301331e+01 1.772516308235935867e+00
8.018467042595148087e+00 -2.860962954163551331e+01 1.302057323860935867e+00
8.334629151970148087e+00 -2.885950747132301331e+01 1.329889355110935867e+00
8.632358644157648087e+00 -2.902967348694801331e+01 1.355295238899998367e+00
8.936435792595148087e+00 -2.920752993226051331e+01 1.382013378548435867e+00
1.795352563634514809e+01 -7.470789614319801331e+01 2.993646679329685867e+00
1.968765649572014809e+01 -7.914722719788551331e+01 3.205728588509373367e+00
2.029861840978264809e+01 -7.885145083069801331e+01 3.249383984017185867e+00
1.184280786290764809e+01 -4.410462465882301331e+01 1.996606884407810867e+00
1.181106958165764809e+01 -4.258619204163551331e+01 1.968729076790623367e+00
8.427158448845148087e+00 -2.922425356507301331e+01 1.476450024056248367e+00
8.628330323845148087e+00 -2.905054751038551331e+01 1.489557323860935867e+00
8.836826417595148087e+00 -2.890809145569801331e+01 1.503763256478123367e+00
1.704495630040764809e+01 -7.097388735413551331e+01 3.190530834603123367e+00
1.137710962072014809e+01 -4.536194887757301331e+01 2.190942821907810867e+00
1.167679223790764809e+01 -4.501063051819801331e+01 2.207727489876560867e+00
1.213992700353264809e+01 -4.529297915101051331e+01 2.249979076790623367e+00
1.167325219884514809e+01 -4.213355532288551331e+01 2.145532665657810867e+00
1.204898462072014809e+01 -4.216602602601051331e+01 2.177606640267185867e+00
1.377420434728264809e+01 -4.547803774476051331e+01 2.387003002571873367e+00
1.746121606603264809e+01 -7.284107485413551331e+01 3.603998241829685867e+00
1.819510278478264809e+01 -7.327491274476051331e+01 3.673440990853123367e+00
1.147220239415764809e+01 -4.426514711976051331e+01 2.379968700814060867e+00
1.177969751134514809e+01 -4.398060122132301331e+01 2.397897777962498367e+00
1.172183618322014809e+01 -4.236622133851051331e+01 2.351831493782810867e+00
1.201065454259514809e+01 -4.208167544007301331e+01 2.368219433235935867e+00
1.299148950353264809e+01 -4.420545473694801331e+01 2.502969799446873367e+00
1.368130883947014809e+01 -4.522034731507301331e+01 2.586618481087498367e+00
8.443882081657648087e+00 -2.863685122132301331e+01 1.077844677376560867e+00
8.719028566032648087e+00 -2.871461001038551331e+01 1.099435863899998367e+00
8.969028566032648087e+00 -2.870289126038551331e+01 1.118768749642185867e+00
9.122226808220148087e+00 -2.837757387757301331e+01 1.129602489876560867e+00
1.127212915197014809e+01 -4.407252016663551331e+01 1.554147777962498367e+00
1.163040551915764809e+01 -4.397718325257301331e+01 1.580545483040623367e+00
7.885044191032648087e+00 -2.845557680726051331e+01 1.166467724251560867e+00
8.147007081657648087e+00 -2.850477114319801331e+01 1.187479076790623367e+00
8.410190675407648087e+00 -2.855408754944801331e+01 1.208581982064060867e+00
8.759677980095148087e+00 -2.888819399476051331e+01 1.238672314095310867e+00
8.958164308220148087e+00 -2.870154848694801331e+01 1.252893505501560867e+00
9.170200441032648087e+00 -2.856519594788551331e+01 1.269266186165623367e+00
1.129544458165764809e+01 -4.422889223694801331e+01 1.763742504524998367e+00
1.186917505040764809e+01 -4.496802797913551331e+01 1.818628368782810867e+00
1.200015649572014809e+01 -4.398414126038551331e+01 1.817178783821873367e+00
8.359775636345148087e+00 -2.931666079163551331e+01 1.348123608040623367e+00
8.519565675407648087e+00 -2.897632876038551331e+01 1.356790600228123367e+00
8.762363526970148087e+00 -2.893323794007301331e+01 1.375696239876560867e+00
8.922153566032648087e+00 -2.861646547913551331e+01 1.384637890267185867e+00
9.278476808220148087e+00 -2.894715395569801331e+01 1.417169628548435867e+00
2.012784204259514809e+01 -7.995679751038551331e+01 3.281137524056248367e+00
1.196475610509514809e+01 -4.540308657288551331e+01 2.045267162728123367e+00
1.193143090978264809e+01 -4.378419008851051331e+01 2.015726147103123367e+00
8.344272706657648087e+00 -2.929798403382301331e+01 1.483469067024998367e+00
8.496006105095148087e+00 -2.892957583069801331e+01 1.489709911751560867e+00
8.807163331657648087e+00 -2.912232485413551331e+01 1.518915234017185867e+00
1.392776880040764809e+01 -4.527405825257301331e+01 2.202676830696873367e+00
1.349783715978264809e+01 -4.258460512757301331e+01 2.123193798470310867e+00
1.153152856603264809e+01 -4.531067934632301331e+01 2.221277294564060867e+00
2.072732934728264809e+01 -7.968250551819801331e+01 3.700464306282810867e+00
1.233523950353264809e+01 -4.536731997132301331e+01 2.287653026985935867e+00
1.183755883947014809e+01 -4.209315004944801331e+01 2.177866039681248367e+00
8.551181886345148087e+00 -2.916138735413551331e+01 1.635232983040623367e+00
1.293912133947014809e+01 -4.332093325257301331e+01 2.294549999642185867e+00
1.449258813634514809e+01 -4.584595766663551331e+01 2.476923046517185867e+00
1.386685571447014809e+01 -4.301685610413551331e+01 1.626077709603123367e+00
9.610996339470148087e+00 -2.860035219788551331e+01 1.222757397103123367e+00
8.055088136345148087e+00 -2.956727114319801331e+01 1.245538769173435867e+00
8.017612550407648087e+00 -2.845276919007301331e+01 1.232187328743748367e+00
8.289341066032648087e+00 -2.852247133851051331e+01 1.254495678353123367e+00
8.556919191032648087e+00 -2.856544008851051331e+01 1.276224193978123367e+00
8.886509034782648087e+00 -2.881544008851051331e+01 1.304834423470310867e+00
1.343521508947014809e+01 -4.293043032288551331e+01 1.798868236946873367e+00
1.360245141759514809e+01 -4.222303286194801331e+01 1.805627880501560867e+00
1.419925317540764809e+01 -4.288367739319801331e+01 1.859354076790623367e+00
1.211758813634514809e+01 -4.531031313538551331e+01 1.931894359993748367e+00
1.207010278478264809e+01 -4.363697329163551331e+01 1.905054150032810867e+00
8.274692628532648087e+00 -2.850696840882301331e+01 1.389596996712498367e+00
8.675449464470148087e+00 -2.901710024476051331e+01 1.428323803353123367e+00
8.894809816032648087e+00 -2.887940493226051331e+01 1.444208202767185867e+00
1.338931665197014809e+01 -4.283191958069801331e+01 2.000864086556248367e+00
1.359903344884514809e+01 -4.226221743226051331e+01 2.010019359993748367e+00
1.390506372228264809e+01 -4.201856508851051331e+01 2.031473217415623367e+00
1.914786157384514809e+01 -7.258411684632301331e+01 3.222284374642185867e+00
1.250650415197014809e+01 -4.532874575257301331e+01 2.178979931282810867e+00
8.350376222282648087e+00 -2.881849184632301331e+01 1.537164745735935867e+00
1.235416040197014809e+01 -4.195997133851051331e+01 2.105295238899998367e+00
1.375040063634514809e+01 -4.542994204163551331e+01 2.283212719368748367e+00
1.328775415197014809e+01 -4.254859438538551331e+01 2.192819652962498367e+00
1.435416040197014809e+01 -4.473182192444801331e+01 2.320230541634373367e+00
1.391128930822014809e+01 -4.208680239319801331e+01 2.236841259407810867e+00
8.176792237907648087e+00 -2.851294985413551331e+01 1.157434521126560867e+00
8.456455323845148087e+00 -2.859022036194801331e+01 1.179651318001560867e+00
8.791782472282648087e+00 -2.885132876038551331e+01 1.207422314095310867e+00
9.000888917595148087e+00 -2.866431704163551331e+01 1.222360668587498367e+00
1.362283715978264809e+01 -4.290015688538551331e+01 1.677286205696873367e+00
2.342081079259514809e+01 -7.272388735413551331e+01 2.639276562142185867e+00
1.416946801915764809e+01 -4.214612856507301331e+01 1.714563427376560867e+00
1.514957055822014809e+01 -4.391211977601051331e+01 1.802545605110935867e+00
8.162265870720148087e+00 -2.849720278382301331e+01 1.294870434212498367e+00
8.560093019157648087e+00 -2.899903383851051331e+01 1.331872997689060867e+00
8.794834230095148087e+00 -2.889832583069801331e+01 1.349252758431248367e+00
9.122593019157648087e+00 -2.910962954163551331e+01 1.376718578743748367e+00
2.241580590978264809e+01 -7.170484438538551331e+01 2.901331005501560867e+00
1.374710473790764809e+01 -4.208997622132301331e+01 1.887674389290623367e+00
1.538150415197014809e+01 -4.593494692444801331e+01 2.059656200814060867e+00
1.442459497228264809e+01 -4.178541079163551331e+01 1.937692699837498367e+00
1.195132837072014809e+01 -4.259119692444801331e+01 1.957651195931248367e+00
8.539341066032648087e+00 -2.896192446351051331e+01 1.470285473274998367e+00
8.862583253532648087e+00 -2.917054262757301331e+01 1.499460277962498367e+00
9.016513917595148087e+00 -2.878760805726051331e+01 1.505838451790623367e+00
1.352042016759514809e+01 -4.266761294007301331e+01 2.083612499642185867e+00
1.463699731603264809e+01 -4.496790590882301331e+01 2.209055004524998367e+00
1.405447778478264809e+01 -4.188721743226051331e+01 2.114282665657810867e+00
2.906753930822014809e+01 -8.582813540101051331e+01 4.006189403939060867e+00
8.588169191032648087e+00 -2.859034243226051331e+01 1.243722973274998367e+00
9.030307862907648087e+00 -2.920032778382301331e+01 1.282922802376560867e+00
9.177768800407648087e+00 -2.878394594788551331e+01 1.290521679329685867e+00
1.358694848790764809e+01 -4.221497622132301331e+01 1.745401440071873367e+00
1.449075708165764809e+01 -4.382496157288551331e+01 1.828729687142185867e+00
1.434866723790764809e+01 -4.212977114319801331e+01 1.804010448860935867e+00
1.496353540197014809e+01 -4.278028383851051331e+01 1.856775341439060867e+00
1.487942895665764809e+01 -4.136304751038551331e+01 1.837808666634373367e+00
8.690708253532648087e+00 -2.899219790101051331e+01 1.399103222298435867e+00
8.918003175407648087e+00 -2.884888735413551331e+01 1.414133129524998367e+00
2.206937036290764809e+01 -7.197632876038551331e+01 3.008462963509373367e+00
1.358938989415764809e+01 -4.227247133851051331e+01 1.955362377571873367e+00
1.389578637853264809e+01 -4.199732485413551331e+01 1.975565014290623367e+00
1.428616723790764809e+01 -4.198511782288551331e+01 2.005792675423435867e+00
1.463101587072014809e+01 -4.183509340882301331e+01 2.030649242806248367e+00
1.497403344884514809e+01 -4.168226137757301331e+01 2.056436596321873367e+00
7.733799073845148087e+00 -2.274964419007301331e+01 9.537449459312483668e-01
7.928379151970148087e+00 -2.266321840882301331e+01 9.679661373374983668e-01
1.415787133947014809e+01 -4.092627993226051331e+01 1.469110546517185867e+00
8.324009034782648087e+00 -2.251478090882301331e+01 9.968968013999983668e-01
8.333530519157648087e+00 -2.190027895569801331e+01 9.962559322593733668e-01
1.569009790197014809e+01 -4.191041079163551331e+01 1.584650097298435867e+00
9.054966066032648087e+00 -2.880250063538551331e+01 1.210962353157810867e+00
9.328769776970148087e+00 -2.880347719788551331e+01 1.231622753548435867e+00
1.489786157384514809e+01 -4.586365786194801331e+01 1.764108715462498367e+00
7.918369386345148087e+00 -2.265857973694801331e+01 1.084116039681248367e+00
1.446512231603264809e+01 -4.190687075257301331e+01 1.704263744759373367e+00
1.465213403478264809e+01 -4.127247133851051331e+01 1.715311108040623367e+00
1.514810571447014809e+01 -4.155933657288551331e+01 1.754617748665623367e+00
1.391226587072014809e+01 -4.547754946351051331e+01 1.913477001595310867e+00
2.240677270665764809e+01 -7.229847231507301331e+01 2.858942089485935867e+00
1.371939477697014809e+01 -4.211500063538551331e+01 1.860605297493748367e+00
1.411746606603264809e+01 -4.211231508851051331e+01 1.891168651985935867e+00
1.442654809728264809e+01 -4.183631411194801331e+01 1.911890087532810867e+00
1.525003442540764809e+01 -4.189795961976051331e+01 1.975854931282810867e+00
1.572049340978264809e+01 -4.208423891663551331e+01 2.015192089485935867e+00
1.356778344884514809e+01 -4.226795473694801331e+01 1.874353466439060867e+00
1.415640649572014809e+01 -4.286329165101051331e+01 1.925684032845310867e+00
1.533694848790764809e+01 -4.525818911194801331e+01 2.043710766243748367e+00
1.466287622228264809e+01 -4.190565004944801331e+01 1.955179272103123367e+00
1.497000512853264809e+01 -4.161597719788551331e+01 1.976160107064060867e+00
1.540237817540764809e+01 -4.168934145569801331e+01 2.010812817024998367e+00
8.514560792595148087e+00 -2.274317446351051331e+01 1.050775585579685867e+00
1.521255883947014809e+01 -4.150013247132301331e+01 1.597681103157810867e+00
3.134317407384514809e+01 -8.592981997132301331e+01 2.912653026985935867e+00
1.417007837072014809e+01 -4.210584536194801331e+01 1.739404735970310867e+00
1.448209008947014809e+01 -4.180836001038551331e+01 1.760751781868748367e+00
8.391391847282648087e+00 -2.240211001038551331e+01 1.162942943978123367e+00
1.519424829259514809e+01 -4.149195376038551331e+01 1.810937939095310867e+00
1.414029321447014809e+01 -4.206043520569801331e+01 1.953470287728123367e+00
1.451651391759514809e+01 -4.196143618226051331e+01 1.980066357064060867e+00
1.530301294103264809e+01 -4.308704653382301331e+01 2.053430614876560867e+00
1.526395044103264809e+01 -4.174000063538551331e+01 2.034921703743748367e+00
1.195157251134514809e+01 -2.338404360413551331e+01 9.614658931968733668e-01
3.093643579259514809e+01 -7.793482485413551331e+01 2.218683300423435867e+00
3.616519555822014809e+01 -8.491956606507301331e+01 2.549661693978123367e+00
3.686734399572014809e+01 -8.451087465882301331e+01 2.598886547493748367e+00
1.170999536290764809e+01 -2.349769106507301331e+01 1.087457714485935867e+00
3.593533715978264809e+01 -8.443079653382301331e+01 2.981943188118748367e+00
3.968296144157648087e+00 -2.518565088510513306e+00 7.505436519859358668e-01
3.951938722282648087e+00 -2.265269190073013306e+00 7.487125972984358668e-01
3.936435792595148087e+00 -2.021616846323013306e+00 7.469730953453108668e-01
3.922275636345148087e+00 -1.788950830698013306e+00 7.453556637046858668e-01
3.908847901970148087e+00 -1.565562158823013306e+00 7.440891842124983668e-01
3.922275636345148087e+00 -1.803843408823013306e+00 6.268559078453108668e-01
3.909702394157648087e+00 -1.565440088510513306e+00 6.276798824546858668e-01
3.897617433220148087e+00 -1.334849268198013306e+00 6.284733394859358668e-01
3.886142823845148087e+00 -1.113413721323013306e+00 6.292362789390608668e-01
3.870395753532648087e+00 -8.911236822605133057e-01 6.297245601890608668e-01
3.966343019157648087e+00 -2.590952783823013306e+00 6.829319576499983668e-01
3.950962159782648087e+00 -2.321055322885513306e+00 6.826420406578108668e-01
