-1.807159487158060074e+00 -1.221987009048461914e+01 -8.502961328718754430e-01
-1.676544252783060074e+00 -1.230605173110961914e+01 -8.516083887312504430e-01
-1.548004213720560074e+00 -1.241310739517211914e+01 -8.534089258406254430e-01
-3.432647768408060074e+00 -1.665383005142211914e+01 -9.655915430281254430e-01
-3.473419252783060074e+00 -1.784743356704711914e+01 -1.007156484434375443e+00
-3.372833315283060074e+00 -1.840187692642211914e+01 -1.024368398496875443e+00
-3.319000307470560074e+00 -1.929201364517211914e+01 -1.053894155332812943e+00
-3.145294252783060074e+00 -1.954958200454711914e+01 -1.059661977598437943e+00
-2.967804018408060074e+00 -1.981276559829711914e+01 -1.065567128965625443e+00
-2.029327455908060074e+00 -1.477504587173461914e+01 -8.767396143171879430e-01
-1.841583315283060074e+00 -1.462380075454711914e+01 -8.682709863875004430e-01
-3.821319643408060074e+00 -1.855214548110961914e+01 -9.422761133406254430e-01
-3.698394838720560074e+00 -1.900221872329711914e+01 -9.535828760359379430e-01
-3.567169252783060074e+00 -1.945424509048461914e+01 -9.648133447859379430e-01
-3.393829409033060074e+00 -1.971694040298461914e+01 -9.697114160750004430e-01
-3.223907534033060074e+00 -2.002455759048461914e+01 -9.759980371687504430e-01
-3.049224916845560074e+00 -2.033779001235961914e+01 -9.823762109968754430e-01
-2.909576479345560074e+00 -2.094142770767211914e+01 -9.979706934187504430e-01
-2.748931948095560074e+00 -2.146681833267211914e+01 -1.010879628965625443e+00
-3.966339174658060074e+00 -1.925673532485961914e+01 -8.667298486921879430e-01
-3.849029604345560074e+00 -1.977345895767211914e+01 -8.778535059187504430e-01
-3.684234682470560074e+00 -2.008571481704711914e+01 -8.830720117781254430e-01
-3.513336244970560074e+00 -2.039955759048461914e+01 -8.882447412703129430e-01
-3.337188784033060074e+00 -2.071169137954711914e+01 -8.932801416609379430e-01
-3.215484682470560074e+00 -2.141664743423461914e+01 -9.090577295515629430e-01
-3.079010073095560074e+00 -2.211940622329711914e+01 -9.245606592390629430e-01
-2.913848940283060074e+00 -2.270131540298461914e+01 -9.365540674421879430e-01
-4.051666323095560074e+00 -1.966908884048461914e+01 -7.781983545515629430e-01
-3.944732729345560074e+00 -2.026125192642211914e+01 -7.887879541609379430e-01
-3.811431948095560074e+00 -2.077211618423461914e+01 -7.973023584578129430e-01
-3.644683901220560074e+00 -2.115077829360961914e+01 -8.025666406843754430e-01
-3.507232729345560074e+00 -2.174696969985961914e+01 -8.127747705671879430e-01
-3.335357729345560074e+00 -2.219203805923461914e+01 -8.193360498640629430e-01
-3.155304018408060074e+00 -2.264406442642211914e+01 -8.259278467390629430e-01
-3.008087221533060074e+00 -2.340126657485961914e+01 -8.393098047468754430e-01
-4.146514955908060074e+00 -2.012782907485961914e+01 -6.861725977156254430e-01
-4.036529604345560074e+00 -2.072841501235961914e+01 -6.942444971296879430e-01
-3.910675112158060074e+00 -2.130519723892211914e+01 -7.022706201765629430e-01
-3.761749330908060074e+00 -2.181850290298461914e+01 -7.083893945906254430e-01
-3.593170229345560074e+00 -2.226528024673461914e+01 -7.131348779890629430e-01
-3.409698549658060074e+00 -2.266945505142211914e+01 -7.169953516218754430e-01
-3.259429994970560074e+00 -2.336354684829711914e+01 -7.253876856062504430e-01
-3.082916323095560074e+00 -2.395424509048461914e+01 -7.323304346296879430e-01
-4.242462221533060074e+00 -2.059181833267211914e+01 -5.904847315046879430e-01
-4.118682924658060074e+00 -2.114552927017211914e+01 -5.951996973250004430e-01
-3.981964174658060074e+00 -2.168630075454711914e+01 -5.995789697859379430e-01
-3.852447573095560074e+00 -2.233376169204711914e+01 -6.052857568953129430e-01
-3.672149721533060074e+00 -2.274074411392211914e+01 -6.075135400984379430e-01
-3.510772768408060074e+00 -2.332106637954711914e+01 -6.120148828718754430e-01
-3.334503237158060074e+00 -2.387917184829711914e+01 -6.160584619734379430e-01
-3.139068666845560074e+00 -2.436598825454711914e+01 -6.190034082625004430e-01
-4.324127260595560074e+00 -2.098586130142211914e+01 -4.892426660750004430e-01
-4.179840151220560074e+00 -2.145412302017211914e+01 -4.912415674421879430e-01
-4.055206362158060074e+00 -2.207802438735961914e+01 -4.940339258406254430e-01
-3.920929018408060074e+00 -2.272096872329711914e+01 -4.968110254500004430e-01
-3.761627260595560074e+00 -2.328041696548461914e+01 -4.986878565046879430e-01
-3.582672182470560074e+00 -2.378127145767211914e+01 -4.999085596296879430e-01
-3.392974916845560074e+00 -2.427834177017211914e+01 -5.009461572859379430e-01
-3.199005190283060074e+00 -2.480592966079711914e+01 -5.014954736921879430e-01
-4.389801088720560074e+00 -2.130104684829711914e+01 -3.845215967390629430e-01
-4.249420229345560074e+00 -2.180629587173461914e+01 -3.840638330671879430e-01
-4.126983705908060074e+00 -2.246193552017211914e+01 -3.842164209578129430e-01
-3.989166323095560074e+00 -2.310622262954711914e+01 -3.841553858015629430e-01
-3.829498354345560074e+00 -2.368752145767211914e+01 -3.836518457625004430e-01
-3.645660463720560074e+00 -2.418300485610961914e+01 -3.826600244734379430e-01
-3.447174135595560074e+00 -2.464638376235961914e+01 -3.813935449812504430e-01
-3.271392885595560074e+00 -2.533852243423461914e+01 -3.809815576765629430e-01
-4.453888002783060074e+00 -2.160878610610961914e+01 -2.762757471296879430e-01
-4.327667299658060074e+00 -2.220253610610961914e+01 -2.742310693953129430e-01
-4.197418276220560074e+00 -2.283766794204711914e+01 -2.714539697859379430e-01
-4.043243471533060074e+00 -2.341017770767211914e+01 -2.685395410750004430e-01
-3.891388002783060074e+00 -2.405739450454711914e+01 -2.655030420515629430e-01
-3.704254213720560074e+00 -2.455568552017211914e+01 -2.623597315046879430e-01
-3.510894838720560074e+00 -2.508156442642211914e+01 -2.590943506453129430e-01
-3.341705385595560074e+00 -2.585597848892211914e+01 -2.549134424421879430e-01
-4.520416323095560074e+00 -2.192775583267211914e+01 -1.657258203718754430e-01
-4.401886049658060074e+00 -2.257814645767211914e+01 -1.602021387312504430e-01
-4.256622377783060074e+00 -2.315236520767211914e+01 -1.548768213484379430e-01
-4.101837221533060074e+00 -2.373964548110961914e+01 -1.493836572859379430e-01
-3.947296205908060074e+00 -2.439101266860961914e+01 -1.434632471296879430e-01
-3.763458315283060074e+00 -2.493215036392211914e+01 -1.379548242781254430e-01
-3.586212221533060074e+00 -2.559718942642211914e+01 -1.316987207625004430e-01
-3.390289369970560074e+00 -2.620900583267211914e+01 -1.256104639265629430e-01
-4.602569643408060074e+00 -2.232326364517211914e+01 -5.091869146562544302e-02
-4.465240541845560074e+00 -2.289784860610961914e+01 -4.318248541093794302e-02
-4.313018862158060074e+00 -2.345168161392211914e+01 -3.616344244218794302e-02
-4.162139955908060074e+00 -2.407851266860961914e+01 -2.772533209062544302e-02
-4.001007143408060074e+00 -2.471071481704711914e+01 -1.913463384843794302e-02
-3.827545229345560074e+00 -2.534059762954711914e+01 -1.043712408281294302e-02
-3.637725893408060074e+00 -2.594618844985961914e+01 -1.175039121875443016e-03
-3.440338198095560074e+00 -2.657326364517211914e+01 7.736093690624556984e-03
-4.670196596533060074e+00 -2.264772653579711914e+01 6.658924310468705698e-02
-4.524322573095560074e+00 -2.319545602798461914e+01 7.585132806562455698e-02
-4.370758119970560074e+00 -2.375783395767211914e+01 8.604419915937455698e-02
-4.221344057470560074e+00 -2.441091012954711914e+01 9.759510247968705698e-02
-4.056304994970560074e+00 -2.503981637954711914e+01 1.089323827531245570e-01
-3.880645815283060074e+00 -2.567702341079711914e+01 1.204832860734370570e-01
-3.690216127783060074e+00 -2.630202341079711914e+01 1.319731542374995570e-01
-3.494415346533060074e+00 -2.696730661392211914e+01 1.448515722062495570e-01
-6.954651512205600739e-01 -5.996969699859619141e+00 -8.412934473250004430e-01
-6.208801902830600739e-01 -6.029440402984619141e+00 -8.418580225203129430e-01
-5.445862449705600739e-01 -6.051535129547119141e+00 -8.418580225203129430e-01
-4.678040184080600739e-01 -6.073873996734619141e+00 -8.418580225203129430e-01
-3.910217918455600739e-01 -6.096212863922119141e+00 -8.418580225203129430e-01
-3.138733543455600739e-01 -6.118551731109619141e+00 -8.418580225203129430e-01
-2.362366355955600739e-01 -6.141134738922119141e+00 -8.418580225203129430e-01
-1.583557762205600739e-01 -6.160910129547119141e+00 -8.418580225203129430e-01
-7.674866355955600739e-01 -6.539328098297119141e+00 -8.426057031843754430e-01
-6.875305809080600739e-01 -6.572775363922119141e+00 -8.432160547468754430e-01
-6.074524559080600739e-01 -6.609396457672119141e+00 -8.438264063093754430e-01
-5.261536277830600739e-01 -6.643454074859619141e+00 -8.444367578718754430e-01
-4.447327293455600739e-01 -6.677511692047119141e+00 -8.450623682234379430e-01
-3.624573387205600739e-01 -6.708517551422119141e+00 -8.454590967390629430e-01
-2.790833152830600739e-01 -6.733541965484619141e+00 -8.456574609968754430e-01
-1.958313621580600739e-01 -6.762106418609619141e+00 -8.458710840437504430e-01
-8.460999168455600739e-01 -7.130514621734619141e+00 -8.420258692000004430e-01
-7.606506980955600739e-01 -7.168234348297119141e+00 -8.426667383406254430e-01
-6.747131980955600739e-01 -7.206320285797119141e+00 -8.433228662703129430e-01
-5.879212059080600739e-01 -7.245382785797119141e+00 -8.440400293562504430e-01
-5.012512840330600739e-01 -7.289083957672119141e+00 -8.450318506453129430e-01
-4.139710105955600739e-01 -7.333151340484619141e+00 -8.460236719343754430e-01
-3.257141746580600739e-01 -7.377707004547119141e+00 -8.470460108015629430e-01
-2.369690574705600739e-01 -7.422506809234619141e+00 -8.480683496687504430e-01
-9.485169090330600739e-01 -7.902487277984619141e+00 -8.469849756453129430e-01
-8.558655418455600739e-01 -7.944357395172119141e+00 -8.473511865828129430e-01
-7.633362449705600739e-01 -7.994528293609619141e+00 -8.484345606062504430e-01
-6.698303855955600739e-01 -8.045187473297119141e+00 -8.495331934187504430e-01
-5.758362449705600739e-01 -8.096212863922119141e+00 -8.506470850203129430e-01
-4.809876121580600739e-01 -8.147726535797119141e+00 -8.517609766218754430e-01
-3.850403465330600739e-01 -8.199850559234619141e+00 -8.528901270125004430e-01
-2.882385887205600739e-01 -8.246481418609619141e+00 -8.539429834578129430e-01
-1.059600893408060074e+00 -8.738668918609619141e+00 -8.480683496687504430e-01
-9.593811668455600739e-01 -8.788961887359619141e+00 -8.488465479109379430e-01
-8.585510887205600739e-01 -8.839743137359619141e+00 -8.496094873640629430e-01
-7.565003074705600739e-01 -8.891012668609619141e+00 -8.503876856062504430e-01
-6.540833152830600739e-01 -8.942526340484619141e+00 -8.511658838484379430e-01
-5.508118309080600739e-01 -8.994406223297119141e+00 -8.519593408796879430e-01
-4.464417137205600739e-01 -9.046896457672119141e+00 -8.527527979109379430e-01
-3.415833152830600739e-01 -9.099630832672119141e+00 -8.535615137312504430e-01
-1.195221010595560074e+00 -9.760397434234619141e+00 -8.510438135359379430e-01
-1.087921205908060074e+00 -9.836569309234619141e+00 -8.524476221296879430e-01
-9.786682762205600739e-01 -9.906881809234619141e+00 -8.538209131453129430e-01
-8.679505027830600739e-01 -9.978170871734619141e+00 -8.552094629500004430e-01
-7.563782371580600739e-01 -1.005007028579711914e+01 -8.566132715437504430e-01
-6.437073387205600739e-01 -1.012258005142211914e+01 -8.580170801375004430e-01
-5.294495262205600739e-01 -1.019606637954711914e+01 -8.594514063093754430e-01
-4.137268699705600739e-01 -1.025978708267211914e+01 -8.606873682234379430e-01
-1.368682924658060074e+00 -1.106691598892211914e+01 -8.572999170515629430e-01
-1.245147768408060074e+00 -1.111794137954711914e+01 -8.572999170515629430e-01
-1.120758119970560074e+00 -1.116921091079711914e+01 -8.572999170515629430e-01
-9.952698387205600739e-01 -1.122096872329711914e+01 -8.572999170515629430e-01
-8.694153465330600739e-01 -1.127284860610961914e+01 -8.572999170515629430e-01
-7.444153465330600739e-01 -1.134511423110961914e+01 -8.582001856062504430e-01
-6.180725730955600739e-01 -1.141945505142211914e+01 -8.591767481062504430e-01
-4.907532371580600739e-01 -1.149428415298461914e+01 -8.601380518171879430e-01
-1.547638002783060074e+00 -1.241371774673461914e+01 -8.534241846296879430e-01
-1.417022768408060074e+00 -1.251869821548461914e+01 -8.552247217390629430e-01
-1.285919252783060074e+00 -1.263551950454711914e+01 -8.571168115828129430e-01
-1.151397768408060074e+00 -1.274379587173461914e+01 -8.589783838484379430e-01
-1.015533510595560074e+00 -1.285292673110961914e+01 -8.608399561140629430e-01
-8.778381980955600739e-01 -1.296364450454711914e+01 -8.627320459578129430e-01
-7.390442527830600739e-01 -1.309352731704711914e+01 -8.657227686140629430e-01
-5.995178855955600739e-01 -1.323976755142211914e+01 -8.689728906843754430e-01
-1.841095034033060074e+00 -1.462477731704711914e+01 -8.683015039656254430e-01
-1.696807924658060074e+00 -1.479994821548461914e+01 -8.718415430281254430e-01
-1.551300112158060074e+00 -1.499367380142211914e+01 -8.760071924421879430e-01
-1.410675112158060074e+00 -1.527651071548461914e+01 -8.833161524031254430e-01
-1.260040346533060074e+00 -1.550221872329711914e+01 -8.884888818953129430e-01
-1.105621401220560074e+00 -1.573341989517211914e+01 -8.937836817000004430e-01
-9.469299949705600739e-01 -1.597133493423461914e+01 -8.992310693953129430e-01
-7.820130027830600739e-01 -1.617262887954711914e+01 -9.033356836531254430e-01
-2.748565737158060074e+00 -2.146987009048461914e+01 -1.010971181700000443e+00
-2.569854799658060074e+00 -2.193019723892211914e+01 -1.021682851621875443e+00
-2.465484682470560074e+00 -2.313307809829711914e+01 -1.055694692442187943e+00
-2.261261049658060074e+00 -2.359816598892211914e+01 -1.066131704160937943e+00
-2.035308901220560074e+00 -2.391469430923461914e+01 -1.071792714903125443e+00
-1.798126284033060074e+00 -2.416591501235961914e+01 -1.075332753965625443e+00
-1.543121401220560074e+00 -2.424355173110961914e+01 -1.073394887754687943e+00
-1.296783510595560074e+00 -2.446535348892211914e+01 -1.075912587950000443e+00
-2.913848940283060074e+00 -2.270693063735961914e+01 -9.366913965437504430e-01
-2.745391909033060074e+00 -2.335329294204711914e+01 -9.502106836531254430e-01
-2.539703432470560074e+00 -2.378017282485961914e+01 -9.576264551375004430e-01
-2.316314760595560074e+00 -2.412184762954711914e+01 -9.626008203718754430e-01
-2.115264955908060074e+00 -2.476503610610961914e+01 -9.755250147078129430e-01
-1.920806948095560074e+00 -2.564052438735961914e+01 -9.943848779890629430e-01
-1.731231752783060074e+00 -2.683254098892211914e+01 -1.021270864317187943e+00
-1.494659487158060074e+00 -2.762880563735961914e+01 -1.037460439512500443e+00
-3.007843080908060074e+00 -2.340529489517211914e+01 -8.393860986921879430e-01
-2.821563784033060074e+00 -2.396315622329711914e+01 -8.479310205671879430e-01
-2.617096010595560074e+00 -2.445497751235961914e+01 -8.548279932234379430e-01
-2.407379213720560074e+00 -2.499635934829711914e+01 -8.626710108015629430e-01
-2.187286440283060074e+00 -2.552870798110961914e+01 -8.701630762312504430e-01
-2.035430971533060074e+00 -2.701491403579711914e+01 -8.983460596296879430e-01
-1.813140932470560074e+00 -2.794301462173461914e+01 -9.139405420515629430e-01
-1.552887026220560074e+00 -2.853603219985961914e+01 -9.220429590437504430e-01
-3.082550112158060074e+00 -2.395790719985961914e+01 -7.323762109968754430e-01
-2.893707338720560074e+00 -2.454006052017211914e+01 -7.388001611921879430e-01
-2.690704409033060074e+00 -2.509633493423461914e+01 -7.452546289656254430e-01
-2.474273744970560074e+00 -2.563466501235961914e+01 -7.505646875593754430e-01
-2.309967104345560074e+00 -2.683949899673461914e+01 -7.673340967390629430e-01
-2.087432924658060074e+00 -2.762441110610961914e+01 -7.764893701765629430e-01
-1.878204409033060074e+00 -2.881886911392211914e+01 -7.916566065046879430e-01
-1.630157534033060074e+00 -2.974574899673461914e+01 -8.026887109968754430e-01
-3.138580385595560074e+00 -2.436879587173461914e+01 -6.190339258406254430e-01
-2.959259096533060074e+00 -2.506191110610961914e+01 -6.242829492781254430e-01
-2.765167299658060074e+00 -2.574342966079711914e+01 -6.291810205671879430e-01
-2.578033510595560074e+00 -2.663173532485961914e+01 -6.365510156843754430e-01
-2.361724916845560074e+00 -2.738088083267211914e+01 -6.418915918562504430e-01
-2.151397768408060074e+00 -2.837953805923461914e+01 -6.501771143171879430e-01
-1.930816713720560074e+00 -2.951833200454711914e+01 -6.599122217390629430e-01
-1.681793276220560074e+00 -3.054250192642211914e+01 -6.679078272078129430e-01
-3.198761049658060074e+00 -2.481093454360961914e+01 -5.015259912703129430e-01
-3.027374330908060074e+00 -2.560426950454711914e+01 -5.051575830671879430e-01
-2.843170229345560074e+00 -2.642140817642211914e+01 -5.081025293562504430e-01
-2.635406557470560074e+00 -2.717409372329711914e+01 -5.102845361921879430e-01
-2.415435854345560074e+00 -2.794277048110961914e+01 -5.123902490828129430e-01
-2.209991518408060074e+00 -2.906703805923461914e+01 -5.171357324812504430e-01
-1.984039369970560074e+00 -3.022633981704711914e+01 -5.218201807234379430e-01
-1.737823549658060074e+00 -3.140724802017211914e+01 -5.255585840437504430e-01
-3.271148744970560074e+00 -2.534401559829711914e+01 -3.809968164656254430e-01
-3.092559877783060074e+00 -2.612258005142211914e+01 -3.802796533796879430e-01
-2.901153627783060074e+00 -2.692153024673461914e+01 -3.794251611921879430e-01
-2.690826479345560074e+00 -2.769777536392211914e+01 -3.782502344343754430e-01
-2.485748354345560074e+00 -2.868227243423461914e+01 -3.776246240828129430e-01
-2.254303041845560074e+00 -2.957997751235961914e+01 -3.764344385359379430e-01
-2.034698549658060074e+00 -3.089760446548461914e+01 -3.763581445906254430e-01
-1.781524721533060074e+00 -3.207155466079711914e+01 -3.754883936140629430e-01
-3.341217104345560074e+00 -2.585988473892211914e+01 -2.548981836531254430e-01
-3.138336244970560074e+00 -2.648219919204711914e+01 -2.514191797468754430e-01
-2.957183901220560074e+00 -2.740297555923461914e+01 -2.468568018171879430e-01
-2.751251284033060074e+00 -2.826845407485961914e+01 -2.420960596296879430e-01
-2.533721987158060074e+00 -2.918044137954711914e+01 -2.370759180281254430e-01
-2.312530580908060074e+00 -3.026186227798461914e+01 -2.316132715437504430e-01
-2.078765932470560074e+00 -3.147682809829711914e+01 -2.256623438093754430e-01
-1.826080385595560074e+00 -3.274953317642211914e+01 -2.184907129500004430e-01
-3.389801088720560074e+00 -2.621303415298461914e+01 -1.255799463484379430e-01
-3.197052065283060074e+00 -2.694594430923461914e+01 -1.180268457625004430e-01
-3.012115541845560074e+00 -2.787453317642211914e+01 -1.092225244734379430e-01
-2.806793276220560074e+00 -2.879262399673461914e+01 -1.002350977156254430e-01
-2.583526674658060074e+00 -2.969740915298461914e+01 -9.109508306718794302e-02
-2.367218080908060074e+00 -3.089906930923461914e+01 -8.001720220781294302e-02
-2.125518862158060074e+00 -3.209108591079711914e+01 -6.866466314531294302e-02
-1.870513979345560074e+00 -3.342458200454711914e+01 -5.616771490312544302e-02
-3.439849916845560074e+00 -2.657729196548461914e+01 7.781870057812056984e-03
-3.258087221533060074e+00 -2.742897653579711914e+01 1.983631341718705698e-02
-3.062774721533060074e+00 -2.830849313735961914e+01 3.163135736249955698e-02
-2.860260073095560074e+00 -2.929482126235961914e+01 4.545582025312455698e-02
-2.641265932470560074e+00 -3.029872751235961914e+01 5.970752923749955698e-02
-2.413971010595560074e+00 -3.143959665298461914e+01 7.560718744062455698e-02
-2.172882143408060074e+00 -3.271449899673461914e+01 9.407032220624955698e-02
-1.911773744970560074e+00 -3.404530954360961914e+01 1.126097509171870570e-01
-3.494171205908060074e+00 -2.697304391860961914e+01 1.449431249406245570e-01
-3.315826479345560074e+00 -2.788405466079711914e+01 1.609953710343745570e-01
-3.114654604345560074e+00 -2.875197458267211914e+01 1.773375341203120570e-01
-2.912872377783060074e+00 -2.978700876235961914e+01 1.963652440812495570e-01
-2.695831362158060074e+00 -3.086537790298461914e+01 2.162779638078120570e-01
-2.462921205908060074e+00 -3.200588083267211914e+01 2.373808690812495570e-01
-2.217926088720560074e+00 -3.330373239517211914e+01 2.611388036515620570e-01
-1.952301088720560074e+00 -3.465370798110961914e+01 2.868803807999995570e-01
-1.581116355955600739e-01 -6.161154270172119141e+00 -8.418732813093754430e-01
-8.010870590806007385e-02 -6.183126926422119141e+00 -8.418732813093754430e-01
-1.495424658060073853e-03 -6.202536106109619141e+00 -8.418732813093754430e-01
7.760613784193992615e-02 -6.222067356109619141e+00 -8.418732813093754430e-01
1.568297706544399261e-01 -6.244162082672119141e+00 -8.420563867781254430e-01
2.362975440919399261e-01 -6.275656223297119141e+00 -8.428956201765629430e-01
3.166198097169399261e-01 -6.307516574859619141e+00 -8.437501123640629430e-01
3.973082862794399261e-01 -6.336325168609619141e+00 -8.445893457625004430e-01
-1.955872215330600739e-01 -6.762350559234619141e+00 -8.458710840437504430e-01
-1.116028465330600739e-01 -6.787130832672119141e+00 -8.460694483015629430e-01
-2.737433090806007385e-02 -6.815573215484619141e+00 -8.462830713484379430e-01
5.770867690443992615e-02 -6.840841770172119141e+00 -8.464814356062504430e-01
1.429137550294399261e-01 -6.866720676422119141e+00 -8.467103174421879430e-01
2.286071144044399261e-01 -6.903097629547119141e+00 -8.476411035750004430e-01
3.151549659669399261e-01 -6.936300754547119141e+00 -8.485566309187504430e-01
4.021910987794399261e-01 -6.973288059234619141e+00 -8.495026758406254430e-01
-2.367249168455600739e-01 -7.422995090484619141e+00 -8.480836084578129430e-01
-1.470032371580600739e-01 -7.464132785797119141e+00 -8.490754297468754430e-01
-5.667120590806007385e-02 -7.505636692047119141e+00 -8.500825098250004430e-01
3.488152846693992615e-02 -7.547628879547119141e+00 -8.511048486921879430e-01
1.268004737794399261e-01 -7.589865207672119141e+00 -8.521271875593754430e-01
2.196959815919399261e-01 -7.621115207672119141e+00 -8.524628809187504430e-01
3.135680519044399261e-01 -7.651022434234619141e+00 -8.526917627546879430e-01
4.075621925294399261e-01 -7.680929660797119141e+00 -8.529206445906254430e-01
-2.879944480955600739e-01 -8.246725559234619141e+00 -8.539582422468754430e-01
-1.903381980955600739e-01 -8.293356418609619141e+00 -8.547059229109379430e-01
-9.170538559556007385e-02 -8.335958957672119141e+00 -8.554536035750004430e-01
8.026059716939926147e-03 -8.379171848297119141e+00 -8.562165430281254430e-01
1.082457862794399261e-01 -8.422628879547119141e+00 -8.569794824812504430e-01
2.094420753419399261e-01 -8.456930637359619141e+00 -8.572083643171879430e-01
3.114928565919399261e-01 -8.487570285797119141e+00 -8.572083643171879430e-01
4.137877784669399261e-01 -8.513815402984619141e+00 -8.572083643171879430e-01
-3.412171043455600739e-01 -9.100119113922119141e+00 -8.535767725203129430e-01
-2.352600730955600739e-01 -9.149679660797119141e+00 -8.543854883406254430e-01
-1.283264793455600739e-01 -9.199728488922119141e+00 -8.552094629500004430e-01
-2.017218247056007385e-02 -9.252096652984619141e+00 -8.561249902937504430e-01
8.834832534193992615e-02 -9.311544895172119141e+00 -8.574067285750004430e-01
1.980895362794399261e-01 -9.371603488922119141e+00 -8.587037256453129430e-01
3.092955909669399261e-01 -9.432394504547119141e+00 -8.600159815046879430e-01
4.212340675294399261e-01 -9.493795871734619141e+00 -8.613434961531254430e-01
-4.133606590330600739e-01 -1.026027536392211914e+01 -8.607026270125004430e-01
-2.966614402830600739e-01 -1.032594919204711914e+01 -8.615876367781254430e-01
-1.784973777830600739e-01 -1.038625192642211914e+01 -8.624879053328129430e-01
-5.886847153306007385e-02 -1.044740915298461914e+01 -8.634034326765629430e-01
6.161492690443992615e-02 -1.050893259048461914e+01 -8.643342188093754430e-01
1.831969581544399261e-01 -1.057106637954711914e+01 -8.652650049421879430e-01
3.063659034669399261e-01 -1.063393259048461914e+01 -8.661957910750004430e-01
4.286803565919399261e-01 -1.050209665298461914e+01 -8.580933740828129430e-01
-4.903870262205600739e-01 -1.149489450454711914e+01 -8.601533106062504430e-01
-3.617249168455600739e-01 -1.156716012954711914e+01 -8.611451318953129430e-01
-2.319641746580600739e-01 -1.164589548110961914e+01 -8.623963525984379430e-01
-1.013489402830600739e-01 -1.176259469985961914e+01 -8.652802637312504430e-01
3.097527846693992615e-02 -1.188088083267211914e+01 -8.681946924421879430e-01
1.656188331544399261e-01 -1.199538278579711914e+01 -8.709260156843754430e-01
3.057555519044399261e-01 -1.045705270767211914e+01 -8.016205957625004430e-01
4.269713722169399261e-01 -1.039491891860961914e+01 -7.968751123640629430e-01
-5.991516746580600739e-01 -1.324086618423461914e+01 -8.690034082625004430e-01
-4.590149559080600739e-01 -1.342922067642211914e+01 -8.740082910750004430e-01
-3.160706199705600739e-01 -1.363832712173461914e+01 -8.793793848250004430e-01
-1.660462059080600739e-01 -1.376955270767211914e+01 -8.819886377546879430e-01
-1.382452622056007385e-02 -1.388796091079711914e+01 -8.840485742781254430e-01
1.407164894044399261e-01 -1.400868844985961914e+01 -8.861848047468754430e-01
3.050231300294399261e-01 -1.037270212173461914e+01 -7.422791650984379430e-01
4.256285987794399261e-01 -1.034645700454711914e+01 -7.392426660750004430e-01
-7.814026512205600739e-01 -1.617348337173461914e+01 -9.033509424421879430e-01
-6.119690574705600739e-01 -1.635964059829711914e+01 -9.069367578718754430e-01
-4.402161277830600739e-01 -1.657790231704711914e+01 -9.115754297468754430e-01
-2.637024559080600739e-01 -1.680226755142211914e+01 -9.163514307234379430e-01
-8.364874497056007385e-02 -1.703114938735961914e+01 -9.212342432234379430e-01
1.006774269044399261e-01 -1.728041696548461914e+01 -9.267426660750004430e-01
3.041686378419399261e-01 -1.034169626235961914e+01 -6.852570703718754430e-01
4.245299659669399261e-01 -1.032033395767211914e+01 -6.825410059187504430e-01
-1.295929018408060074e+00 -2.446694040298461914e+01 -1.075943105528125443e+00
-8.633118309080600739e-01 -2.117812204360961914e+01 -9.710694483015629430e-01
-6.535950340330600739e-01 -2.163796091079711914e+01 -9.812928369734379430e-01
-4.405823387205600739e-01 -2.230251169204711914e+01 -9.975587061140629430e-01
-2.096253074705600739e-01 -2.271401071548461914e+01 -1.005996816465625443e+00
2.914422377943992615e-02 -2.313966989517211914e+01 -1.014724843809375443e+00
3.033141456544399261e-01 -1.032436227798461914e+01 -6.292573145125004430e-01
4.234313331544399261e-01 -1.030446481704711914e+01 -6.266785791609379430e-01
-1.493804994970560074e+00 -2.763234567642211914e+01 -1.037536733457812943e+00
-1.231231752783060074e+00 -2.822682809829711914e+01 -1.048187368223437943e+00
-9.884339012205600739e-01 -2.957399606704711914e+01 -1.078064077207812943e+00
-7.118225730955600739e-01 -3.072939157485961914e+01 -1.102584951231250443e+00
-4.010315574705600739e-01 -3.133144235610961914e+01 -1.112640493223437943e+00
-9.280401840806007385e-02 -3.311501169204711914e+01 -1.152404897520312943e+00
3.034362159669399261e-01 -9.821310520172119141e+00 -5.608979395125004430e-01
4.224547706544399261e-01 -1.029689645767211914e+01 -5.709077051375004430e-01
-1.552154604345560074e+00 -2.853993844985961914e+01 -9.221192529890629430e-01
-1.316925112158060074e+00 -2.983315134048461914e+01 -9.448548486921879430e-01
-1.045074526220560074e+00 -3.086745309829711914e+01 -9.617005518171879430e-01
-7.565003074705600739e-01 -3.205495309829711914e+01 -9.814149072859379430e-01
-4.464417137205600739e-01 -3.327699899673461914e+01 -1.001495473692187943e+00
-1.162415184080600739e-01 -3.483876657485961914e+01 -1.028213613340625443e+00
3.029479347169399261e-01 -9.610495090484619141e+00 -5.034791162703129430e-01
4.158629737794399261e-01 -9.567282199859619141e+00 -5.007630518171879430e-01
-1.629425112158060074e+00 -2.975197458267211914e+01 -8.027650049421879430e-01
-1.360504213720560074e+00 -3.062770700454711914e+01 -8.123933008406254430e-01
-1.096710268408060074e+00 -3.203969430923461914e+01 -8.314820459578129430e-01
-8.026428855955600739e-01 -3.341506052017211914e+01 -8.486939600203129430e-01
-4.802551902830600739e-01 -3.469203805923461914e+01 -8.638764551375004430e-01
-1.306458152830600739e-01 -3.580165719985961914e+01 -8.759614160750004430e-01
3.022155128419399261e-01 -9.578146457672119141e+00 -4.505768945906254430e-01
4.147643409669399261e-01 -9.536886692047119141e+00 -4.481202295515629430e-01
-1.681060854345560074e+00 -3.054823923110961914e+01 -6.679536035750004430e-01
-1.419830385595560074e+00 -3.172377634048461914e+01 -6.771241358015629430e-01
-1.132598940283060074e+00 -3.283351755142211914e+01 -6.851350000593754430e-01
-8.392639793455600739e-01 -3.447585153579711914e+01 -6.990967920515629430e-01
-5.007630027830600739e-01 -3.549355173110961914e+01 -7.052460840437504430e-01
-1.479797996580600739e-01 -3.698573923110961914e+01 -7.165375879500004430e-01
3.014830909669399261e-01 -9.554342746734619141e+00 -3.983613184187504430e-01
4.136657081544399261e-01 -9.515402317047119141e+00 -3.961335352156254430e-01
-1.737213198095560074e+00 -3.141445016860961914e+01 -5.256043604109379430e-01
-1.457305971533060074e+00 -3.239626169204711914e+01 -5.286256006453129430e-01
-1.178863588720560074e+00 -3.387074899673461914e+01 -5.341950586531254430e-01
-8.680725730955600739e-01 -3.528835153579711914e+01 -5.388642481062504430e-01
-5.245667137205600739e-01 -3.644130563735961914e+01 -5.412293604109379430e-01
-1.595764793455600739e-01 -3.770131540298461914e+01 -5.439759424421879430e-01
3.006285987794399261e-01 -9.551535129547119141e+00 -3.465272119734379430e-01
4.128112159669399261e-01 -9.512838840484619141e+00 -3.442231348250004430e-01
-1.780792299658060074e+00 -3.207863473892211914e+01 -3.754883936140629430e-01
-1.501495424658060074e+00 -3.319594430923461914e+01 -3.735200098250004430e-01
-1.209747377783060074e+00 -3.454201364517211914e+01 -3.718415430281254430e-01
-8.937073387205600739e-01 -3.599758005142211914e+01 -3.700257471296879430e-01
-5.440979637205600739e-01 -3.719008493423461914e+01 -3.671113184187504430e-01
-1.736145652830600739e-01 -3.859474802017211914e+01 -3.643189600203129430e-01
2.994078956544399261e-01 -9.698629856109619141e+00 -2.947846582625004430e-01
4.130553565919399261e-01 -9.662497043609619141e+00 -2.929230859968754430e-01
-1.825347963720560074e+00 -3.275697946548461914e+01 -2.184601953718754430e-01
-1.545562807470560074e+00 -3.399196481704711914e+01 -2.119599512312504430e-01
-1.244293276220560074e+00 -3.529726266860961914e+01 -2.041016748640629430e-01
-9.181214012205600739e-01 -3.666799020767211914e+01 -1.957093408796879430e-01
-5.622864402830600739e-01 -3.787392282485961914e+01 -1.872407129500004430e-01
-1.872864402830600739e-01 -3.944948434829711914e+01 -1.775971582625004430e-01
2.985534034669399261e-01 -9.699484348297119141e+00 -2.423249414656254430e-01
4.122008644044399261e-01 -9.663107395172119141e+00 -2.403718164656254430e-01
-1.870025698095560074e+00 -3.343520212173461914e+01 -5.607616216875044302e-02
-1.581451479345560074e+00 -3.462795114517211914e+01 -4.324352056718794302e-02
-1.276153627783060074e+00 -3.598451852798461914e+01 -2.900707037187544302e-02
-9.425354637205600739e-01 -3.733681344985961914e+01 -1.434337408281294302e-02
-5.840149559080600739e-01 -3.871413278579711914e+01 8.696386124995569844e-04
-2.016907371580600739e-01 -4.035707712173461914e+01 1.831043451093705698e-02
2.974547706544399261e-01 -9.777121067047119141e+00 -1.890565088484379430e-01
4.113463722169399261e-01 -9.667257785797119141e+00 -1.880799463484379430e-01
-1.911163393408060074e+00 -3.405592966079711914e+01 1.127470800187495570e-01
-1.619903627783060074e+00 -3.531447458267211914e+01 1.318358251359370570e-01
-1.304962221533060074e+00 -3.660146188735961914e+01 1.506804296281245570e-01
-9.671936668455600739e-01 -3.800746774673461914e+01 1.721800634171870570e-01
-6.057434715330600739e-01 -3.954775094985961914e+01 1.955870458390620570e-01
-2.185364402830600739e-01 -4.144362497329711914e+01 2.235106298234370570e-01
2.966002784669399261e-01 -9.782492160797119141e+00 -1.359254053328129430e-01
4.104918800294399261e-01 -9.672140598297119141e+00 -1.354676416609379430e-01
-1.951568666845560074e+00 -3.466347360610961914e+01 2.870482274796870570e-01
-1.655181948095560074e+00 -3.593520212173461914e+01 3.112639257218745570e-01
-1.335968080908060074e+00 -3.726601266860961914e+01 3.376768895890620570e-01
-9.957581199705600739e-01 -3.879640817642211914e+01 3.676451513078120570e-01
-6.301575340330600739e-01 -4.048866891860961914e+01 4.006193944718745570e-01
-2.383118309080600739e-01 -4.275282907485961914e+01 4.432677099015620570e-01
2.957457862794399261e-01 -9.785665988922119141e+00 -8.306896002031294302e-02
4.097594581544399261e-01 -9.678366184234619141e+00 -8.280956060625044302e-02
3.975524269044399261e-01 -6.336569309234619141e+00 -8.446046045515629430e-01
4.788512550294399261e-01 -6.368063449859619141e+00 -8.454590967390629430e-01
5.607604347169399261e-01 -6.396505832672119141e+00 -8.462983301375004430e-01
6.435241065919399261e-01 -6.425436496734619141e+00 -8.471528223250004430e-01
7.267760597169399261e-01 -6.454489231109619141e+00 -8.480073145125004430e-01
8.106383644044399261e-01 -6.483664035797119141e+00 -8.488770654890629430e-01
8.954772315919399261e-01 -6.513205051422119141e+00 -8.497468164656254430e-01
9.803160987794399261e-01 -6.539694309234619141e+00 -8.506013086531254430e-01
4.024352394044399261e-01 -6.973532199859619141e+00 -8.495179346296879430e-01
4.900817237794399261e-01 -7.006735324859619141e+00 -8.504334619734379430e-01
5.785827003419399261e-01 -7.043966770172119141e+00 -8.513947656843754430e-01
6.680602394044399261e-01 -7.077902317047119141e+00 -8.523408106062504430e-01
7.580260597169399261e-01 -7.112082004547119141e+00 -8.532868555281254430e-01
8.487243019044399261e-01 -7.146505832672119141e+00 -8.542481592390629430e-01
9.402770362794399261e-01 -7.177511692047119141e+00 -8.551789453718754430e-01
1.032562192529439926e+00 -7.212545871734619141e+00 -8.561555078718754430e-01
4.078063331544399261e-01 -7.681051731109619141e+00 -8.529206445906254430e-01
5.024108253419399261e-01 -7.707052707672119141e+00 -8.531190088484379430e-01
5.975035987794399261e-01 -7.733175754547119141e+00 -8.533173731062504430e-01
6.938170753419399261e-01 -7.764059543609619141e+00 -8.537903955671879430e-01
7.906188331544399261e-01 -7.799337863922119141e+00 -8.545380762312504430e-01
8.882750831544399261e-01 -7.834860324859619141e+00 -8.552857568953129430e-01
9.871520362794399261e-01 -7.870871067047119141e+00 -8.560486963484379430e-01
1.086395200341939926e+00 -7.907003879547119141e+00 -8.567963770125004430e-01
4.141539894044399261e-01 -8.514059543609619141e+00 -8.572236231062504430e-01
5.171813331544399261e-01 -8.545553684234619141e+00 -8.572236231062504430e-01
6.206969581544399261e-01 -8.572775363922119141e+00 -8.572236231062504430e-01
7.251891456544399261e-01 -8.600363254547119141e+00 -8.572236231062504430e-01
8.306578956544399261e-01 -8.640524387359619141e+00 -8.579255274031254430e-01
9.374694190919399261e-01 -8.689352512359619141e+00 -8.591157129500004430e-01
1.045745786279439926e+00 -8.738913059234619141e+00 -8.603211572859379430e-01
1.154388364404439926e+00 -8.783468723297119141e+00 -8.614960840437504430e-01
4.216002784669399261e-01 -9.494162082672119141e+00 -8.613587549421879430e-01
5.347594581544399261e-01 -9.551657199859619141e+00 -8.626557520125004430e-01
6.492614112794399261e-01 -9.609884738922119141e+00 -8.639680078718754430e-01
7.653502784669399261e-01 -9.668966770172119141e+00 -8.653107813093754430e-01
8.822936378419399261e-01 -9.728415012359619141e+00 -8.666535547468754430e-01
1.000701840966939926e+00 -9.788595676422119141e+00 -8.680268457625004430e-01
1.120819028466939926e+00 -9.849630832672119141e+00 -8.694001367781254430e-01
1.241912778466939926e+00 -9.911154270172119141e+00 -8.707886865828129430e-01
4.291686378419399261e-01 -1.050185251235961914e+01 -8.580628565046879430e-01
5.559996925294399261e-01 -1.075783395767211914e+01 -8.681183984968754430e-01
6.831969581544399261e-01 -1.084206247329711914e+01 -8.701935938093754430e-01
8.130797706544399261e-01 -1.094081735610961914e+01 -8.729401758406254430e-01
9.447936378419399261e-01 -1.104091501235961914e+01 -8.757172754500004430e-01
1.078582700341939926e+00 -1.114259958267211914e+01 -8.785401514265629430e-01
1.214202817529439926e+00 -1.123134469985961914e+01 -8.807068994734379430e-01
1.348968442529439926e+00 -1.129115915298461914e+01 -8.818207910750004430e-01
4.273375831544399261e-01 -1.039467477798461914e+01 -7.968598535750004430e-01
5.826110206544399261e-01 -1.227541208267211914e+01 -8.762513330671879430e-01
7.251891456544399261e-01 -1.236806344985961914e+01 -8.780518701765629430e-01
8.702086769044399261e-01 -1.246230173110961914e+01 -8.798829248640629430e-01
1.016815122216939926e+00 -1.255763864517211914e+01 -8.817292383406254430e-01
1.165862973779439926e+00 -1.266029977798461914e+01 -8.838654688093754430e-01
1.319671567529439926e+00 -1.279286813735961914e+01 -8.872224024031254430e-01
1.475799497216939926e+00 -1.292763376235961914e+01 -8.906403711531254430e-01
4.259948097169399261e-01 -1.034743356704711914e+01 -7.392731836531254430e-01
6.230162940919399261e-01 -1.456264352798461914e+01 -9.002228906843754430e-01
7.909850440919399261e-01 -1.475014352798461914e+01 -9.044495752546879430e-01
8.914489112794399261e-01 -1.305129098892211914e+01 -8.367768457625004430e-01
1.133514340966939926e+00 -1.500795602798461914e+01 -9.090424707625004430e-01
1.308685239404439926e+00 -1.513966989517211914e+01 -9.113770654890629430e-01
1.486785825341939926e+00 -1.526503610610961914e+01 -9.138489893171879430e-01
1.671600278466939926e+00 -1.544862985610961914e+01 -9.180604150984379430e-01
4.248961769044399261e-01 -1.032118844985961914e+01 -6.825562647078129430e-01
6.839293800294399261e-01 -1.800209665298461914e+01 -9.419556787703129430e-01
8.879088722169399261e-01 -1.825624704360961914e+01 -9.473878076765629430e-01
8.877868019044399261e-01 -1.298317575454711914e+01 -7.664643457625004430e-01
1.310028012841939926e+00 -1.871315622329711914e+01 -9.562836817000004430e-01
1.525115903466939926e+00 -1.889479684829711914e+01 -9.590607813093754430e-01
1.745086606591939926e+00 -1.908046579360961914e+01 -9.618989160750004430e-01
1.277679380029439926e+00 -1.042116403579711914e+01 -6.722870996687504430e-01
4.237975440919399261e-01 -1.030531930923461914e+01 -6.267090967390629430e-01
5.476989112794399261e-01 -1.051088571548461914e+01 -6.307984522078129430e-01
6.706237159669399261e-01 -1.053493356704711914e+01 -6.295167139265629430e-01
7.928160987794399261e-01 -1.051454782485961914e+01 -6.269227197859379430e-01
9.143981300294399261e-01 -1.049538278579711914e+01 -6.243745020125004430e-01
1.033050473779439926e+00 -1.043031930923461914e+01 -6.205140283796879430e-01
1.153655942529439926e+00 -1.040566110610961914e+01 -6.178132227156254430e-01
1.274017270654439926e+00 -1.038698434829711914e+01 -6.153107813093754430e-01
4.228209815919399261e-01 -1.029775094985961914e+01 -5.709229639265629430e-01
5.568541847169399261e-01 -1.107912302017211914e+01 -5.883332422468754430e-01
6.477965675294399261e-01 -9.751608371734619141e+00 -5.534974268171879430e-01
7.538756690919399261e-01 -9.511007785797119141e+00 -5.457154443953129430e-01
8.641051612794399261e-01 -9.465109348297119141e+00 -5.427399805281254430e-01
9.750670753419399261e-01 -9.444479465484619141e+00 -5.404053858015629430e-01
1.086028989404439926e+00 -9.423727512359619141e+00 -5.380555322859379430e-01
1.197601255029439926e+00 -9.420431613922119141e+00 -5.361329248640629430e-01
4.162291847169399261e-01 -9.567038059234619141e+00 -5.007630518171879430e-01
5.284118019044399261e-01 -9.536520481109619141e+00 -4.982606104109379430e-01
6.401061378419399261e-01 -9.508322238922119141e+00 -4.958192041609379430e-01
7.519225440919399261e-01 -9.482199192047119141e+00 -4.934235742781254430e-01
8.632506690919399261e-01 -9.465963840484619141e+00 -4.912415674421879430e-01
9.742125831544399261e-01 -9.445333957672119141e+00 -4.889680078718754430e-01
1.085174497216939926e+00 -9.424582004547119141e+00 -4.866944483015629430e-01
1.194915708154439926e+00 -9.397238254547119141e+00 -4.842988184187504430e-01
4.151305519044399261e-01 -9.536642551422119141e+00 -4.481049707625004430e-01
5.269469581544399261e-01 -9.506247043609619141e+00 -4.457398584578129430e-01
6.383971534669399261e-01 -9.478292942047119141e+00 -4.436951807234379430e-01
7.498473487794399261e-01 -9.452169895172119141e+00 -4.414063623640629430e-01
8.623961769044399261e-01 -9.466818332672119141e+00 -4.397431543562504430e-01
9.733580909669399261e-01 -9.446188449859619141e+00 -4.375458887312504430e-01
1.084320005029439926e+00 -9.425436496734619141e+00 -4.350587061140629430e-01
1.191741880029439926e+00 -9.368185520172119141e+00 -4.323426416609379430e-01
4.140319190919399261e-01 -9.515158176422119141e+00 -3.961335352156254430e-01
5.257262550294399261e-01 -9.485373020172119141e+00 -3.938904932234379430e-01
6.369323097169399261e-01 -9.457785129547119141e+00 -3.916779688093754430e-01
7.482604347169399261e-01 -9.432394504547119141e+00 -3.894959619734379430e-01
8.587340675294399261e-01 -9.409079074859619141e+00 -3.873444727156254430e-01
9.689635597169399261e-01 -9.387594699859619141e+00 -3.852235010359379430e-01
1.079437192529439926e+00 -9.367819309234619141e+00 -3.831177881453129430e-01
1.189300473779439926e+00 -9.349752902984619141e+00 -3.810425928328129430e-01
4.131774269044399261e-01 -9.512594699859619141e+00 -3.442078760359379430e-01
5.248717628419399261e-01 -9.483175754547119141e+00 -3.423615625593754430e-01
6.360778175294399261e-01 -9.455832004547119141e+00 -3.402711084578129430e-01
7.472838722169399261e-01 -9.430929660797119141e+00 -3.381806543562504430e-01
8.577575050294399261e-01 -9.407980442047119141e+00 -3.361207178328129430e-01
9.681090675294399261e-01 -9.388082981109619141e+00 -3.340760400984379430e-01
1.078704770654439926e+00 -9.370748996734619141e+00 -3.320618799421879430e-01
1.188812192529439926e+00 -9.355123996734619141e+00 -3.297883203718754430e-01
4.135436378419399261e-01 -9.662252902984619141e+00 -2.929078272078129430e-01
5.265807472169399261e-01 -9.632345676422119141e+00 -2.908784082625004430e-01
6.392516456544399261e-01 -9.604391574859619141e+00 -2.888489893171879430e-01
7.519225440919399261e-01 -9.578878879547119141e+00 -2.868348291609379430e-01
8.638610206544399261e-01 -9.555563449859619141e+00 -2.848359277937504430e-01
9.755553565919399261e-01 -9.533590793609619141e+00 -2.828370264265629430e-01
1.087371762841939926e+00 -9.513571262359619141e+00 -2.808533838484379430e-01
1.198699887841939926e+00 -9.495016574859619141e+00 -2.788697412703129430e-01
4.125670753419399261e-01 -9.662863254547119141e+00 -2.403565576765629430e-01
5.257262550294399261e-01 -9.633566379547119141e+00 -2.387238672468754430e-01
6.383971534669399261e-01 -9.606344699859619141e+00 -2.368012598250004430e-01
7.510680519044399261e-01 -9.581320285797119141e+00 -2.348786524031254430e-01
8.631285987794399261e-01 -9.558248996734619141e+00 -2.329560449812504430e-01
9.748229347169399261e-01 -9.536398410797119141e+00 -2.310334375593754430e-01
1.086639340966939926e+00 -9.516500949859619141e+00 -2.291108301375004430e-01
1.197967465966939926e+00 -9.497946262359619141e+00 -2.269135645125004430e-01
4.118346534669399261e-01 -9.667013645172119141e+00 -1.880646875593754430e-01
5.248717628419399261e-01 -9.637716770172119141e+00 -1.862641504500004430e-01
6.376647315919399261e-01 -9.610495090484619141e+00 -1.844330957625004430e-01
7.503356300294399261e-01 -9.585470676422119141e+00 -1.826020410750004430e-01
8.623961769044399261e-01 -9.562399387359619141e+00 -1.807709863875004430e-01
9.740905128419399261e-01 -9.540548801422119141e+00 -1.789399317000004430e-01
1.086028989404439926e+00 -9.520651340484619141e+00 -1.770783594343754430e-01
1.197357114404439926e+00 -9.502096652984619141e+00 -1.752320459578129430e-01
4.109801612794399261e-01 -9.671896457672119141e+00 -1.354676416609379430e-01
5.241393409669399261e-01 -9.642721652984619141e+00 -1.337586572859379430e-01
6.368102394044399261e-01 -9.615499973297119141e+00 -1.323243311140629430e-01
7.496032081544399261e-01 -9.590353488922119141e+00 -1.305848291609379430e-01
8.616637550294399261e-01 -9.567404270172119141e+00 -1.288300684187504430e-01
9.734801612794399261e-01 -9.545553684234619141e+00 -1.270753076765629430e-01
1.085418637841939926e+00 -9.525656223297119141e+00 -1.250153711531254430e-01
1.196746762841939926e+00 -9.507101535797119141e+00 -1.232148340437504430e-01
4.101256690919399261e-01 -9.678122043609619141e+00 -8.280956060625044302e-02
5.234069190919399261e-01 -9.648825168609619141e+00 -8.149730474687544302e-02
6.360778175294399261e-01 -9.621603488922119141e+00 -7.987987310625044302e-02
7.489928565919399261e-01 -9.596579074859619141e+00 -7.823192388750044302e-02
8.610534034669399261e-01 -9.573507785797119141e+00 -7.656871587968794302e-02
9.728698097169399261e-01 -9.551535129547119141e+00 -7.489024908281294302e-02
1.084808286279439926e+00 -9.531637668609619141e+00 -7.316600591875044302e-02
1.196258481591939926e+00 -9.513082981109619141e+00 -7.116710455156294302e-02
9.806823097169399261e-01 -6.539938449859619141e+00 -8.506165674421879430e-01
1.066497739404439926e+00 -6.569113254547119141e+00 -8.515015772078129430e-01
1.152679380029439926e+00 -6.593405246734619141e+00 -8.522339990828129430e-01
1.238861020654439926e+00 -6.609030246734619141e+00 -8.523560693953129430e-01
1.325286801904439926e+00 -6.624655246734619141e+00 -8.524628809187504430e-01
1.412200864404439926e+00 -6.640402317047119141e+00 -8.525849512312504430e-01
1.499847348779439926e+00 -6.656271457672119141e+00 -8.527070215437504430e-01
1.587371762841939926e+00 -6.668844699859619141e+00 -8.527985742781254430e-01
1.032928403466939926e+00 -7.212912082672119141e+00 -8.561860254500004430e-01
1.125701840966939926e+00 -7.243429660797119141e+00 -8.570862940046879430e-01
1.218231137841939926e+00 -7.264914035797119141e+00 -8.571931055281254430e-01
1.311370786279439926e+00 -7.281759738922119141e+00 -8.571931055281254430e-01
1.404632505029439926e+00 -7.298605442047119141e+00 -8.571931055281254430e-01
1.498626645654439926e+00 -7.315573215484619141e+00 -8.571931055281254430e-01
1.592864926904439926e+00 -7.329245090484619141e+00 -8.571931055281254430e-01
1.687835630029439926e+00 -7.346334934234619141e+00 -8.571931055281254430e-01
1.086761411279439926e+00 -7.907370090484619141e+00 -8.568268945906254430e-01
1.186004575341939926e+00 -7.933859348297119141e+00 -8.572083643171879430e-01
1.285491880029439926e+00 -7.953878879547119141e+00 -8.572083643171879430e-01
1.385955747216939926e+00 -7.974264621734619141e+00 -8.572083643171879430e-01
1.488494809716939926e+00 -8.009909152984619141e+00 -8.581238916609379430e-01
1.592254575341939926e+00 -8.048483371734619141e+00 -8.592225244734379430e-01
1.697601255029439926e+00 -8.087667942047119141e+00 -8.603211572859379430e-01
1.803558286279439926e+00 -8.127096652984619141e+00 -8.614197900984379430e-01
1.154754575341939926e+00 -8.783834934234619141e+00 -8.615113428328129430e-01
1.264984067529439926e+00 -8.835104465484619141e+00 -8.627473047468754430e-01
1.376068051904439926e+00 -8.881369113922119141e+00 -8.639527490828129430e-01
1.488738950341939926e+00 -8.928366184234619141e+00 -8.651734522078129430e-01
1.602264340966939926e+00 -8.975729465484619141e+00 -8.663941553328129430e-01
1.717132505029439926e+00 -9.023581027984619141e+00 -8.676453760359379430e-01
1.833709653466939926e+00 -9.072165012359619141e+00 -8.688965967390629430e-01
1.950164731591939926e+00 -9.115377902984619141e+00 -8.701172998640629430e-01
1.242278989404439926e+00 -9.912008762359619141e+00 -8.708344629500004430e-01
1.364471372216939926e+00 -9.969503879547119141e+00 -8.722077539656254430e-01
1.488128598779439926e+00 -1.002773141860961914e+01 -8.735963037703129430e-01
1.613616880029439926e+00 -1.008681344985961914e+01 -8.750001123640629430e-01
1.740325864404439926e+00 -1.014650583267211914e+01 -8.764191797468754430e-01
1.868621762841939926e+00 -1.020693063735961914e+01 -8.778687647078129430e-01
1.998870786279439926e+00 -1.026820993423461914e+01 -8.793336084578129430e-01
2.130462583154439926e+00 -1.033022165298461914e+01 -8.807984522078129430e-01
