1.339521445333957672e-01 -1.079557597637176514e+01 1.688103073975071311e-01
2.136640585958957672e-01 -1.080924785137176514e+01 1.741814011475071311e-01
2.936201132833957672e-01 -1.082890117168426514e+01 1.794456833740696311e-01
3.736982382833957672e-01 -1.084818828105926514e+01 1.847404831787571311e-01
4.537763632833957672e-01 -1.089091289043426514e+01 1.895622605225071311e-01
-1.072587929666042328e-01 -1.075236308574676514e+01 1.968864792725071311e-01
-2.766894921660423279e-02 -1.075761210918426514e+01 2.024254197021946311e-01
5.192089453339576721e-02 -1.076420390605926514e+01 2.079491013428196311e-01
1.316328085958957672e-01 -1.077543437480926514e+01 2.134117478271946311e-01
2.112226523458957672e-01 -1.078922832012176514e+01 2.188133591553196311e-01
2.909345664083957672e-01 -1.081010234355926514e+01 2.241234177490696311e-01
3.707685507833957672e-01 -1.083524882793426514e+01 2.293724411865696311e-01
4.507246054708957672e-01 -1.087858378887176514e+01 2.343773239990696311e-01
-1.105546914041042328e-01 -1.075370585918426514e+01 2.411827439209446311e-01
-3.084277734160423279e-02 -1.075907695293426514e+01 2.467216843506321311e-01
4.874706640839576721e-02 -1.076554667949676514e+01 2.522606247803196311e-01
1.284589804708957672e-01 -1.077738749980926514e+01 2.577537888428196311e-01
2.079267539083957672e-01 -1.079252421855926514e+01 2.631859177490696311e-01
2.877607382833957672e-01 -1.081352031230926514e+01 2.685875290771946311e-01
3.675947226583957672e-01 -1.083842265605926514e+01 2.739433640381321311e-01
4.475507773458957672e-01 -1.087553203105926514e+01 2.791923874756321311e-01
-1.139726601541042328e-01 -1.075956523418426514e+01 2.851890915771946311e-01
-3.499316796660423279e-02 -1.077714335918426514e+01 2.906364792725071311e-01
4.496288672089576721e-02 -1.077970683574676514e+01 2.962364548584446311e-01
1.255292929708957672e-01 -1.077311503887176514e+01 3.019279831787571311e-01
2.049970664083957672e-01 -1.078776347637176514e+01 3.074211472412571311e-01
2.848310507833957672e-01 -1.080802714824676514e+01 3.129143113037571311e-01
3.645429648458957672e-01 -1.083195292949676514e+01 3.183769577881321311e-01
4.444990195333957672e-01 -1.086674296855926514e+01 3.237938279053196311e-01
-1.172685585916042328e-01 -1.076334941387176514e+01 3.295158738037571311e-01
-3.828906640410423279e-02 -1.077982890605926514e+01 3.350242966553196311e-01
4.178905859589576721e-02 -1.078190410137176514e+01 3.403953904053196311e-01
1.224775351583957672e-01 -1.077201640605926514e+01 3.460564011475071311e-01
2.019453085958957672e-01 -1.078727519512176514e+01 3.515953415771946311e-01
2.816572226583957672e-01 -1.080717265605926514e+01 3.571647995850071311e-01
3.613691367208957672e-01 -1.083109843730926514e+01 3.629631394287571311e-01
4.414472617208957672e-01 -1.086564433574676514e+01 3.685173386475071311e-01
-1.205644570291042328e-01 -1.076701152324676514e+01 3.736137741943821311e-01
-4.158496484160423279e-02 -1.078458964824676514e+01 3.791984909912571311e-01
3.885937109589576721e-02 -1.077763164043426514e+01 3.847984665771946311e-01
1.191816367208957672e-01 -1.077702128887176514e+01 3.903984421631321311e-01
1.986494101583957672e-01 -1.079228007793426514e+01 3.960136765381321311e-01
2.784833945333957672e-01 -1.081193339824676514e+01 4.016441697021946311e-01
3.581953085958957672e-01 -1.083561503887176514e+01 4.073051804443821311e-01
4.382734335958957672e-01 -1.087016093730926514e+01 4.130119675537571311e-01
-1.238603554666042328e-01 -1.077006328105926514e+01 4.179863327881321311e-01
-4.414844140410423279e-02 -1.077555644512176514e+01 4.233421677490696311e-01
3.556347265839576721e-02 -1.078227031230926514e+01 4.289574021240696311e-01
1.152753867208957672e-01 -1.079606425762176514e+01 4.346184128662571311e-01
1.948652304708957672e-01 -1.081181132793426514e+01 4.402946823975071311e-01
2.748212851583957672e-01 -1.083122050762176514e+01 4.460319870850071311e-01
3.547773398458957672e-01 -1.085429179668426514e+01 4.517845505615696311e-01
4.349775351583957672e-01 -1.088834941387176514e+01 4.578880661865696311e-01
-1.311845742166042328e-01 -1.083231914043426514e+01 4.626030320068821311e-01
-5.086230859160423279e-02 -1.083793437480926514e+01 4.682640427490696311e-01
2.933788672089576721e-02 -1.084440410137176514e+01 4.739097947021946311e-01
1.096601523458957672e-01 -1.085636699199676514e+01 4.796470993896946311e-01
1.897382773458957672e-01 -1.087064921855926514e+01 4.853996628662571311e-01
2.703046835958957672e-01 -1.088834941387176514e+01 4.912285202881321311e-01
3.506269492208957672e-01 -1.090995585918426514e+01 4.970878952881321311e-01
4.313154257833957672e-01 -1.094108378887176514e+01 5.030845993896946311e-01
-1.348466835916042328e-01 -1.084171855449676514e+01 5.073723191162571311e-01
-5.464648827910423279e-02 -1.084769999980926514e+01 5.128044480225071311e-01
2.567577734589576721e-02 -1.085465800762176514e+01 5.184959763428196311e-01
1.061201132833957672e-01 -1.086710917949676514e+01 5.242790573975071311e-01
1.863203085958957672e-01 -1.088187968730926514e+01 5.301079148193821311e-01
2.668867148458957672e-01 -1.089994609355926514e+01 5.359978073975071311e-01
3.473310507833957672e-01 -1.092179667949676514e+01 5.419639939209446311e-01
4.280195273458957672e-01 -1.095756328105926514e+01 5.484032029053196311e-01
-1.387529335916042328e-01 -1.085343730449676514e+01 5.520195359131321311e-01
-5.843066796660423279e-02 -1.085954082012176514e+01 5.577110642334446311e-01
2.189159765839576721e-02 -1.086662089824676514e+01 5.634331101318821311e-01
1.024580039083957672e-01 -1.087907207012176514e+01 5.692772263428196311e-01
1.827802695333957672e-01 -1.089372050762176514e+01 5.751518601318821311e-01
2.633466757833957672e-01 -1.091154277324676514e+01 5.811180466553196311e-01
3.439130820333957672e-01 -1.093436992168426514e+01 5.871910447021946311e-01
4.244794882833957672e-01 -1.098612773418426514e+01 5.938896531006321311e-01
-1.430253945291042328e-01 -1.086942851543426514e+01 5.971092575928196311e-01
-6.245898827910423279e-02 -1.087565410137176514e+01 6.028313034912571311e-01
1.798534765839576721e-02 -1.088285624980926514e+01 6.085686081787571311e-01
9.855175390839576721e-02 -1.089530742168426514e+01 6.142296189209446311e-01
1.789960898458957672e-01 -1.091203105449676514e+01 6.202110642334446311e-01
2.598066367208957672e-01 -1.092997539043426514e+01 6.264976853271946311e-01
3.404951132833957672e-01 -1.095231425762176514e+01 6.326622361084446311e-01
4.213056601583957672e-01 -1.098832499980926514e+01 6.391929978271946311e-01
-1.465654335916042328e-01 -1.087650859355926514e+01 6.420921677490696311e-01
-6.599902734160423279e-02 -1.088261210918426514e+01 6.475853318115696311e-01
1.456737890839576721e-02 -1.088957011699676514e+01 6.533531540771946311e-01
9.513378515839576721e-02 -1.090287578105926514e+01 6.593193406006321311e-01
1.755781210958957672e-01 -1.091898906230926514e+01 6.653465622803196311e-01
2.560224570333957672e-01 -1.095011699199676514e+01 6.718620652100071311e-01
3.365888632833957672e-01 -1.098686015605926514e+01 6.785454148193821311e-01
4.176435507833957672e-01 -1.103165996074676514e+01 6.857475632568821311e-01
4.786787070333957672e-01 -1.103727519512176514e+01 -1.770454054931178689e-01
5.607099570333957672e-01 -1.106510722637176514e+01 -1.726661330321803689e-01
6.433515585958957672e-01 -1.108866679668426514e+01 -1.682563429931178689e-01
7.266035117208957672e-01 -1.111137187480926514e+01 -1.637397414306178689e-01
8.096113242208957672e-01 -1.112382304668426514e+01 -1.586585646728053689e-01
8.932294882833957672e-01 -1.113651835918426514e+01 -1.535621291259303689e-01
9.768476523458957672e-01 -1.114909160137176514e+01 -1.484656935790553689e-01
1.060465816408395767e+00 -1.115727031230926514e+01 -1.433539992431178689e-01
4.726972617208957672e-01 -1.162980449199676514e+01 -1.624122267821803689e-01
5.594892539083957672e-01 -1.159635722637176514e+01 -1.546302443603053689e-01
6.462812460958957672e-01 -1.160294902324676514e+01 -1.489234572509303689e-01
7.414960898458957672e-01 -1.200797832012176514e+01 -1.630378371337428689e-01
8.324384726583957672e-01 -1.203654277324676514e+01 -1.581855422118678689e-01
9.239912070333957672e-01 -1.205998027324676514e+01 -1.532874709228053689e-01
1.016032222658395767e+00 -1.208878886699676514e+01 -1.483893996337428689e-01
1.108439449220895767e+00 -1.211784160137176514e+01 -1.434455519774928689e-01
4.697675742208957672e-01 -1.154130351543426514e+01 -1.099067336181178689e-01
5.558271445333957672e-01 -1.152311503887176514e+01 -1.030402785399928689e-01
6.420087851583957672e-01 -1.152665507793426514e+01 -9.719616232905536890e-02
7.606611289083957672e-01 -1.314860332012176514e+01 -1.655860549071803689e-01
8.613691367208957672e-01 -1.319010722637176514e+01 -1.605201369384303689e-01
9.632978476583957672e-01 -1.323209941387176514e+01 -1.553931838134303689e-01
1.065470699220895767e+00 -1.327433574199676514e+01 -1.502509718993678689e-01
1.167887691408395767e+00 -1.330399882793426514e+01 -1.445289260009303689e-01
4.665937460958957672e-01 -1.149625957012176514e+01 -6.034618674311786890e-02
5.524091757833957672e-01 -1.147904765605926514e+01 -5.337292014155536890e-02
6.381025351583957672e-01 -1.148209941387176514e+01 -4.751354514155536890e-02
7.843427695333957672e-01 -1.455863749980926514e+01 -1.684852248290553689e-01
8.967695273458957672e-01 -1.460197246074676514e+01 -1.624732619384303689e-01
1.010416988283395767e+00 -1.464579570293426514e+01 -1.564002638915553689e-01
1.124552730470895767e+00 -1.468974101543426514e+01 -1.503120070556178689e-01
1.238932613283395767e+00 -1.472599589824676514e+01 -1.441932326415553689e-01
4.634199179708957672e-01 -1.146635234355926514e+01 -1.153332053218036890e-02
5.489912070333957672e-01 -1.145060527324676514e+01 -4.956782446242868900e-03
6.344404257833957672e-01 -1.145353496074676514e+01 9.178513428196310997e-04
8.140058554708957672e-01 -1.632353007793426514e+01 -1.717963820556178689e-01
9.418134726583957672e-01 -1.639298808574676514e+01 -1.654945021728053689e-01
1.071208003908395767e+00 -1.646330058574676514e+01 -1.591163283446803689e-01
1.201579097658395767e+00 -1.653410136699676514e+01 -1.526923781493678689e-01
1.333048824220895767e+00 -1.660551249980926514e+01 -1.462226515868678689e-01
4.602460898458957672e-01 -1.144682109355926514e+01 3.639453591313213110e-02
5.449628867208957672e-01 -1.116557109355926514e+01 5.198901833500713110e-02
6.309003867208957672e-01 -1.143449199199676514e+01 4.901355446781963110e-02
8.513593710958957672e-01 -1.856107890605926514e+01 -1.737189894774928689e-01
9.986982382833957672e-01 -1.866813457012176514e+01 -1.669746047118678689e-01
1.149333003908395767e+00 -1.880204570293426514e+01 -1.609016066649928689e-01
1.302165035158395767e+00 -1.894584453105926514e+01 -1.549964552978053689e-01
1.456706050783395767e+00 -1.907401835918426514e+01 -1.489081984618678689e-01
4.600019492208957672e-01 -1.094425761699676514e+01 9.852832497563213110e-02
5.415449179708957672e-01 -1.107584941387176514e+01 1.004509323975071311e-01
6.262617148458957672e-01 -1.131059062480926514e+01 9.964221657719463110e-02
9.092206992208957672e-01 -2.197538554668426514e+01 -1.879249220946803689e-01
1.087321285158395767e+00 -2.217326152324676514e+01 -1.811500197509303689e-01
1.269450191408395767e+00 -2.237577617168426514e+01 -1.742072707274928689e-01
1.454508785158395767e+00 -2.258146464824676514e+01 -1.671577101806178689e-01
1.645182613283395767e+00 -2.282731425762176514e+01 -1.608710890868678689e-01
4.570722617208957672e-01 -1.090971171855926514e+01 1.442589157959446311e-01
5.382490195333957672e-01 -1.104191386699676514e+01 1.467613572021946311e-01
6.228437460958957672e-01 -1.129984843730926514e+01 1.467003220459446311e-01
9.921064414083957672e-01 -2.687736308574676514e+01 -2.044044142821803689e-01
1.218668941408395767e+00 -2.737504374980926514e+01 -2.005439406493678689e-01
1.465495113283395767e+00 -2.819523417949676514e+01 -2.030616408446803689e-01
1.725749019533395767e+00 -2.902457988262176514e+01 -2.055335646728053689e-01
2.021647457033395767e+00 -3.027970683574676514e+01 -2.151618605712428689e-01
4.540205039083957672e-01 -1.089127910137176514e+01 1.895775193115696311e-01
5.350751914083957672e-01 -1.103678691387176514e+01 1.924156540771946311e-01
6.194257773458957672e-01 -1.128007304668426514e+01 1.935753220459446311e-01
1.162028316408395767e+00 -3.680888164043426514e+01 -2.688270217040553689e-01
1.518107417970895767e+00 -3.911430156230926514e+01 -2.889838820556178689e-01
1.938517574220895767e+00 -4.213786113262176514e+01 -3.187080031493678689e-01
2.566447261720895767e+00 -4.885807597637176514e+01 -4.063087111571803689e-01
3.636881832033395767e+00 -6.204728496074676514e+01 -5.896430617431178689e-01
4.509687460958957672e-01 -1.087931621074676514e+01 2.343773239990696311e-01
5.317792929708957672e-01 -1.103471171855926514e+01 2.377342575928196311e-01
6.160078085958957672e-01 -1.126786601543426514e+01 2.401604050537571311e-01
1.717936519533395767e+00 -6.899003398418426514e+01 -5.487952834228053689e-01
2.507975582033395767e+00 -7.777995097637176514e+01 -6.251197463134303689e-01
4.479169882833957672e-01 -1.087589824199676514e+01 2.792076462646946311e-01
5.286054648458957672e-01 -1.099577128887176514e+01 2.836632126709446311e-01
6.125898398458957672e-01 -1.124931132793426514e+01 2.869438523193821311e-01
4.448652304708957672e-01 -1.086710917949676514e+01 3.238090866943821311e-01
5.254316367208957672e-01 -1.097086894512176514e+01 3.288902634521946311e-01
6.092939414083957672e-01 -1.124784648418426514e+01 3.332085007568821311e-01
4.416914023458957672e-01 -1.086601054668426514e+01 3.685325974365696311e-01
5.222578085958957672e-01 -1.096183574199676514e+01 3.741173142334446311e-01
6.059980429708957672e-01 -1.125163066387176514e+01 3.794578904053196311e-01
4.385175742208957672e-01 -1.087052714824676514e+01 4.130272263428196311e-01
5.190839804708957672e-01 -1.095915019512176514e+01 4.190391892334446311e-01
6.028242148458957672e-01 -1.126481425762176514e+01 4.260124558350071311e-01
4.352216757833957672e-01 -1.088871562480926514e+01 4.579033249756321311e-01
5.159101523458957672e-01 -1.098026835918426514e+01 4.641136521240696311e-01
5.997724570333957672e-01 -1.128715312480926514e+01 4.725212448975071311e-01
4.315595664083957672e-01 -1.094132792949676514e+01 5.030998581787571311e-01
5.126142539083957672e-01 -1.103056132793426514e+01 5.099968308350071311e-01
5.970869101583957672e-01 -1.137003886699676514e+01 5.202659958740696311e-01
4.282636679708957672e-01 -1.095780742168426514e+01 5.484337204834446311e-01
5.094404257833957672e-01 -1.105399882793426514e+01 5.556206101318821311e-01
5.944013632833957672e-01 -1.146220195293426514e+01 5.686821335693821311e-01
4.248456992208957672e-01 -1.098612773418426514e+01 5.939049118896946311e-01
5.061445273458957672e-01 -1.108219707012176514e+01 6.017937058350071311e-01
4.215498007833957672e-01 -1.098869121074676514e+01 6.392235154053196311e-01
5.028486289083957672e-01 -1.111637675762176514e+01 6.483940476318821311e-01
4.180097617208957672e-01 -1.103165996074676514e+01 6.857780808350071311e-01
4.995527304708957672e-01 -1.116508281230926514e+01 6.954979294678196311e-01
5.969648398458957672e-01 -1.352201640605926514e+01 7.756065720459446311e-01
1.060709957033395767e+00 -1.115800273418426514e+01 -1.433692580321803689e-01
1.144816402345895767e+00 -1.117130839824676514e+01 -1.382423049071803689e-01
1.228922847658395767e+00 -1.118021953105926514e+01 -1.331000929931178689e-01
1.313639644533395767e+00 -1.118913066387176514e+01 -1.279273635009303689e-01
1.398234371095895767e+00 -1.119816386699676514e+01 -1.227698927978053689e-01
1.483439449220895767e+00 -1.120707499980926514e+01 -1.175666457274928689e-01
1.568644527345895767e+00 -1.121610820293426514e+01 -1.123633986571803689e-01
1.653605464845895767e+00 -1.122074687480926514e+01 -1.071754103759303689e-01
1.108805660158395767e+00 -1.211869609355926514e+01 -1.434608107665553689e-01
1.201334957033395767e+00 -1.213871562480926514e+01 -1.382728224853053689e-01
1.293742183595895767e+00 -1.215189921855926514e+01 -1.327186232665553689e-01
1.387370113283395767e+00 -1.217155253887176514e+01 -1.271644240478053689e-01
1.480631832033395767e+00 -1.218498027324676514e+01 -1.215797072509303689e-01
1.573893550783395767e+00 -1.219218242168426514e+01 -1.159339552978053689e-01
1.667765621095895767e+00 -1.220561015605926514e+01 -1.103034621337428689e-01
1.765666011720895767e+00 -1.225260722637176514e+01 -1.061378127196803689e-01
1.168253902345895767e+00 -1.330485332012176514e+01 -1.445289260009303689e-01
1.270182613283395767e+00 -1.331925761699676514e+01 -1.383033400634303689e-01
1.372599605470895767e+00 -1.333378398418426514e+01 -1.320624953368678689e-01
1.475626949220895767e+00 -1.334843242168426514e+01 -1.257606154540553689e-01
1.578776363283395767e+00 -1.336308085918426514e+01 -1.194739943603053689e-01
1.682658199220895767e+00 -1.337785136699676514e+01 -1.131263381103053689e-01
1.791544917970895767e+00 -1.344083964824676514e+01 -1.087165480712428689e-01
1.904459957033395767e+00 -1.353007304668426514e+01 -1.052833205321803689e-01
1.239420894533395767e+00 -1.472709453105926514e+01 -1.442084914306178689e-01
1.355143550783395767e+00 -1.477506816387176514e+01 -1.380286818603053689e-01
1.471354488283395767e+00 -1.481522929668426514e+01 -1.318183547118678689e-01
1.589518550783395767e+00 -1.486417949199676514e+01 -1.258674269774928689e-01
1.710734371095895767e+00 -1.494169414043426514e+01 -1.209083205321803689e-01
1.839152339845895767e+00 -1.507682597637176514e+01 -1.179175978759303689e-01
1.970255855470895767e+00 -1.521818339824676514e+01 -1.149879103759303689e-01
2.102946285158395767e+00 -1.535099589824676514e+01 -1.119666701415553689e-01
1.333537105470895767e+00 -1.660709941387176514e+01 -1.462379103759303689e-01
1.466105464845895767e+00 -1.667289531230926514e+01 -1.396613722899928689e-01
1.599162105470895767e+00 -1.672953593730926514e+01 -1.327033644774928689e-01
1.736979488283395767e+00 -1.682658183574676514e+01 -1.269508010009303689e-01
1.887248042970895767e+00 -1.705265605449676514e+01 -1.252418166259303689e-01
2.042643550783395767e+00 -1.728654277324676514e+01 -1.234870558837428689e-01
2.202311519533395767e+00 -1.752677714824676514e+01 -1.216712599853053689e-01
2.364909175783395767e+00 -1.775553691387176514e+01 -1.192298537353053689e-01
1.457316402345895767e+00 -1.907645976543426514e+01 -1.489539748290553689e-01
1.615885738283395767e+00 -1.923576152324676514e+01 -1.428962355712428689e-01
1.781779292970895767e+00 -1.946000468730926514e+01 -1.389594679931178689e-01
1.964274410158395767e+00 -1.984013164043426514e+01 -1.390815383056178689e-01
2.154093746095895767e+00 -2.023624980449676514e+01 -1.392341261962428689e-01
2.353068355470895767e+00 -2.065153300762176514e+01 -1.393867140868678689e-01
2.560221675783395767e+00 -2.108317363262176514e+01 -1.395240431884303689e-01
2.779582027345895767e+00 -2.155582988262176514e+01 -1.406989699462428689e-01
1.646037105470895767e+00 -2.283146464824676514e+01 -1.609321242431178689e-01
1.856852535158395767e+00 -2.334184062480926514e+01 -1.610236769774928689e-01
2.087443355470895767e+00 -2.401371562480926514e+01 -1.643958693603053689e-01
2.333659175783395767e+00 -2.473063457012176514e+01 -1.679969435790553689e-01
2.595377925783395767e+00 -2.549430644512176514e+01 -1.718574172118678689e-01
2.943278316408395767e+00 -2.703239238262176514e+01 -1.920447951415553689e-01
3.287150386720895767e+00 -2.828373515605926514e+01 -2.042518263915553689e-01
3.733195308595895767e+00 -3.026933085918426514e+01 -2.305274611571803689e-01
2.023234371095895767e+00 -3.029252421855926514e+01 -2.153602248290553689e-01
2.370646480470895767e+00 -3.205338847637176514e+01 -2.338081008056178689e-01
2.755656246095895767e+00 -3.393351542949676514e+01 -2.517066603759303689e-01
3.321574214845895767e+00 -3.775187480449676514e+01 -3.046241408446803689e-01
4.172282222658395767e+00 -4.418510234355926514e+01 -4.009223586181178689e-01
6.972941402345895767e+00 -7.037394511699676514e+01 -8.390784865478053689e-01
7.964274410158395767e+00 -7.443742167949676514e+01 -8.701301222899928689e-01
9.038737300783395767e+00 -7.863249003887176514e+01 -8.968940383056178689e-01
3.640177730470895767e+00 -6.207914531230926514e+01 -5.900397902587428689e-01
4.739909175783395767e+00 -7.206278789043426514e+01 -7.086921340087428689e-01
5.676066402345895767e+00 -7.717521464824676514e+01 -7.433753615478053689e-01
6.689127925783395767e+00 -8.213981425762176514e+01 -7.697730666259303689e-01
7.840495113283395767e+00 -8.777873027324676514e+01 -7.997108107665553689e-01
9.337931636720895767e+00 -9.609220683574676514e+01 -8.578315383056178689e-01
6.865641597658395767e+00 -5.903397929668426514e+01 -3.048377638915553689e-01
6.886027339845895767e+00 -5.939677226543426514e+01 -4.125744162593036890e-02
6.871012691408395767e+00 -5.943607890605926514e+01 2.279686325928196311e-01
1.653849605470895767e+00 -1.122074687480926514e+01 -1.071601515868678689e-01
1.741251949220895767e+00 -1.124320781230926514e+01 -1.025367385009303689e-01
1.833415035158395767e+00 -1.129911601543426514e+01 -9.972912131343036890e-02
1.927287105470895767e+00 -1.135587871074676514e+01 -9.686046896968036890e-02
2.022013667970895767e+00 -1.141337382793426514e+01 -9.397655783686786890e-02
2.118327144533395767e+00 -1.147172343730926514e+01 -9.103161154780536890e-02
2.215739253908395767e+00 -1.153068339824676514e+01 -8.807140646968036890e-02
2.313517574220895767e+00 -1.158537089824676514e+01 -8.508068381343036890e-02
1.766032222658395767e+00 -1.225309550762176514e+01 -1.061378127196803689e-01
1.869181636720895767e+00 -1.233439433574676514e+01 -1.036201125243678689e-01
1.973917964845895767e+00 -1.241715800762176514e+01 -1.010566359618678689e-01
2.081950191408395767e+00 -1.250871074199676514e+01 -9.846264182124286890e-02
2.190470699220895767e+00 -1.259440410137176514e+01 -9.580761252436786890e-02
2.300211910158395767e+00 -1.267448222637176514e+01 -9.306103049311786890e-02
2.410563472658395767e+00 -1.275065410137176514e+01 -8.981090842280536890e-02
2.522135738283395767e+00 -1.282560527324676514e+01 -8.640819846186786890e-02
1.904948238283395767e+00 -1.353056132793426514e+01 -1.052680617431178689e-01
2.019206050783395767e+00 -1.361625468730926514e+01 -1.017890578368678689e-01
2.135783199220895767e+00 -1.370646464824676514e+01 -9.835583029780536890e-02
2.256876949220895767e+00 -1.381498515605926514e+01 -9.548717795405536890e-02
2.380045894533395767e+00 -1.392533671855926514e+01 -9.257274924311786890e-02
2.506022457033395767e+00 -1.403825175762176514e+01 -8.958202658686786890e-02
2.634196285158395767e+00 -1.415299785137176514e+01 -8.654552756343036890e-02
2.771037105470895767e+00 -1.430582988262176514e+01 -8.472973166499286890e-02
2.103434566408395767e+00 -1.535160624980926514e+01 -1.119514113524928689e-01
2.240885738283395767e+00 -1.550382792949676514e+01 -1.089301711181178689e-01
2.380045894533395767e+00 -1.564774882793426514e+01 -1.057868605712428689e-01
2.520060542970895767e+00 -1.577421367168426514e+01 -1.018500929931178689e-01
2.666666988283395767e+00 -1.593229472637176514e+01 -9.881359396968036890e-02
2.831706050783395767e+00 -1.618864238262176514e+01 -9.872204123530536890e-02
3.007609371095895767e+00 -1.648649394512176514e+01 -9.966808615718036890e-02
3.188517574220895767e+00 -1.678165996074676514e+01 -1.005530959228053689e-01
2.365397457033395767e+00 -1.775651347637176514e+01 -1.192298537353053689e-01
2.529704097658395767e+00 -1.796500957012176514e+01 -1.161018019774928689e-01
2.710856441408395767e+00 -1.827580058574676514e+01 -1.157050734618678689e-01
2.917887691408395767e+00 -1.873185527324676514e+01 -1.190772658446803689e-01
3.136881832033395767e+00 -1.921879374980926514e+01 -1.228156691649928689e-01
3.369791988283395767e+00 -1.973637187480926514e+01 -1.267829543212428689e-01
3.616129878908395767e+00 -2.028458964824676514e+01 -1.309943801024928689e-01
3.903361324220895767e+00 -2.101603496074676514e+01 -1.394019728759303689e-01
2.780558589845895767e+00 -2.156010234355926514e+01 -1.407752638915553689e-01
3.051188472658395767e+00 -2.239530742168426514e+01 -1.497169142821803689e-01
3.337077144533395767e+00 -2.323698222637176514e+01 -1.583381301024928689e-01
3.648600582033395767e+00 -2.415458476543426514e+01 -1.677680617431178689e-01
4.007975582033395767e+00 -2.529862773418426514e+01 -1.814704543212428689e-01
4.439982417970895767e+00 -2.678275859355926514e+01 -2.015662795165553689e-01
4.867472652345895767e+00 -2.808524882793426514e+01 -2.159248000243678689e-01
5.448039058595895767e+00 -3.015482890605926514e+01 -2.461524611571803689e-01
3.735026363283395767e+00 -3.027848613262176514e+01 -2.306647902587428689e-01
4.280314449220895767e+00 -3.281425273418426514e+01 -2.661567336181178689e-01
5.033976558595895767e+00 -3.665141093730926514e+01 -3.247199660399928689e-01
6.666789058595895767e+00 -4.648624980449676514e+01 -4.952674513915553689e-01
7.018229488283395767e+00 -4.626749980449676514e+01 -4.649940138915553689e-01
7.311686519533395767e+00 -4.567899882793426514e+01 -4.280830031493678689e-01
7.731730464845895767e+00 -4.594181621074676514e+01 -4.069495802978053689e-01
8.141520503908395767e+00 -4.611234843730926514e+01 -3.838630324462428689e-01
9.043131832033395767e+00 -7.865299785137176514e+01 -8.970771437743678689e-01
7.347819332033395767e+00 -5.883122050762176514e+01 -5.357490187743678689e-01
7.851115230470895767e+00 -5.897794902324676514e+01 -5.031867629149928689e-01
8.371745113283395767e+00 -5.921244609355926514e+01 -4.729743605712428689e-01
7.038371089845895767e+00 -4.651334941387176514e+01 -2.588325148681178689e-01
7.377482417970895767e+00 -4.621000468730926514e+01 -2.281623488524928689e-01
7.694010738283395767e+00 -4.580009257793426514e+01 -1.975837355712428689e-01
8.104289058595895767e+00 -4.598136699199676514e+01 -1.736884718993678689e-01
6.867350582033395767e+00 -5.903556621074676514e+01 -3.047462111571803689e-01
7.412760738283395767e+00 -5.954374492168426514e+01 -2.767615920165553689e-01
7.856486324220895767e+00 -5.917204082012176514e+01 -2.386451369384303689e-01
8.307658199220895767e+00 -5.888114726543426514e+01 -2.015815383056178689e-01
7.022868160158395767e+00 -4.651090800762176514e+01 -4.916149436030536890e-02
7.299723628908395767e+00 -4.579716289043426514e+01 -1.595836936030536890e-02
7.665446285158395767e+00 -4.571647441387176514e+01 1.104968728031963110e-02
8.125163082033395767e+00 -4.619523417949676514e+01 3.364795388188213110e-02
7.402262691408395767e+00 -5.961906230449676514e+01 -8.374751196242868900e-03
7.858317378908395767e+00 -5.933939921855926514e+01 2.781909646000713110e-02
8.322428707033395767e+00 -5.913407695293426514e+01 6.346362771000713110e-02
7.067667964845895767e+00 -4.693095195293426514e+01 1.583732956787571311e-01
7.400797847658395767e+00 -4.656327617168426514e+01 1.872429245850071311e-01
7.793986324220895767e+00 -4.661405742168426514e+01 2.140831345459446311e-01
8.102458003908395767e+00 -4.615019023418426514e+01 2.426628464600071311e-01
6.872965816408395767e+00 -5.943913066387176514e+01 2.280754441162571311e-01
7.426554683595895767e+00 -5.999210917949676514e+01 2.614921921631321311e-01
7.797282222658395767e+00 -5.900834453105926514e+01 2.979912156006321311e-01
8.395670894533395767e+00 -5.982401835918426514e+01 3.318504685303196311e-01
8.847086910158395767e+00 -5.951713359355926514e+01 3.670067185303196311e-01
7.442545894533395767e+00 -4.694108378887176514e+01 3.985466355225071311e-01
7.777140621095895767e+00 -4.660453593730926514e+01 4.257530564209446311e-01
8.119303707033395767e+00 -4.634135234355926514e+01 4.527000779053196311e-01
8.338053707033395767e+00 -5.953959453105926514e+01 6.015495652100071311e-01
1.142997265234589577e+01 -6.964115703105926514e+01 7.631554001709446311e-01
8.005412105470895767e+00 -4.575272929668426514e+01 6.586021775146946311e-01
8.085490230470895767e+00 -4.632157695293426514e+01 8.725914353271946311e-01
8.099528316408395767e+00 -4.649650371074676514e+01 1.084642826928757131e+00
1.500773144140839577e+01 -8.802653300762176514e+01 2.129229008569382131e+00
2.313883785158395767e+00 -1.158585917949676514e+01 -8.509594260249286890e-02
2.414103511720895767e+00 -1.164726054668426514e+01 -8.202892600093036890e-02
2.515421871095895767e+00 -1.170707499980926514e+01 -7.908397971186786890e-02
2.620036128908395767e+00 -1.177567851543426514e+01 -7.642895041499286890e-02
2.726603511720895767e+00 -1.184831035137176514e+01 -7.385021506343036890e-02
2.844157222658395767e+00 -1.196281230449676514e+01 -7.293468771968036890e-02
2.964152339845895767e+00 -1.207963359355926514e+01 -7.200390158686786890e-02
3.085490230470895767e+00 -1.219206035137176514e+01 -7.102733908686786890e-02
2.522624019533395767e+00 -1.282621562480926514e+01 -8.640819846186786890e-02
2.635172847658395767e+00 -1.289750468730926514e+01 -8.297497092280536890e-02
2.751627925783395767e+00 -1.298112285137176514e+01 -7.993847189936786890e-02
2.877970699220895767e+00 -1.310478007793426514e+01 -7.801586447749286890e-02
3.005534175783395767e+00 -1.322379863262176514e+01 -7.607799826655536890e-02
3.138346675783395767e+00 -1.335416972637176514e+01 -7.468944846186786890e-02
3.286173824220895767e+00 -1.354215800762176514e+01 -7.500988303218036890e-02
3.439127925783395767e+00 -1.373649394512176514e+01 -7.533031760249286890e-02
2.771769527345895767e+00 -1.430851542949676514e+01 -8.479076682124286890e-02
2.923380855470895767e+00 -1.452689921855926514e+01 -8.530956564936786890e-02
3.080607417970895767e+00 -1.475358378887176514e+01 -8.585888205561786890e-02
3.244303707033395767e+00 -1.498978984355926514e+01 -8.642345725093036890e-02
3.413859371095895767e+00 -1.523441874980926514e+01 -8.700329123530536890e-02
3.590617183595895767e+00 -1.548942363262176514e+01 -8.761364279780536890e-02
3.777628902345895767e+00 -1.577067363262176514e+01 -8.880382834468036890e-02
3.982462886720895767e+00 -1.610600078105926514e+01 -9.136730490718036890e-02
3.189494136720895767e+00 -1.678458964824676514e+01 -1.006141310790553689e-01
3.382121089845895767e+00 -1.711540019512176514e+01 -1.016822463134303689e-01
3.580607417970895767e+00 -1.744450175762176514e+01 -1.026893263915553689e-01
3.806437496095895767e+00 -1.787956035137176514e+01 -1.063819533446803689e-01
4.091593746095895767e+00 -1.856803691387176514e+01 -1.169105177978053689e-01
4.353922847658395767e+00 -1.908854472637176514e+01 -1.218543654540553689e-01
4.620890621095895767e+00 -1.959013164043426514e+01 -1.256843215087428689e-01
5.079997066408395767e+00 -2.088371074199676514e+01 -1.509070998290553689e-01
3.905314449220895767e+00 -2.102384746074676514e+01 -1.395698195556178689e-01
4.270060542970895767e+00 -2.211662089824676514e+01 -1.567054396728053689e-01
4.540446285158395767e+00 -2.260197246074676514e+01 -1.572089797118678689e-01
4.943400386720895767e+00 -2.371574199199676514e+01 -1.726203566649928689e-01
5.373576167970895767e+00 -2.486845195293426514e+01 -1.877112990478053689e-01
5.880534175783395767e+00 -2.628190410137176514e+01 -2.075629836181178689e-01
6.501261714845895767e+00 -2.809782207012176514e+01 -2.350745802978053689e-01
7.594889644533395767e+00 -3.182584941387176514e+01 -3.034034377196803689e-01
5.453776363283395767e+00 -3.018400371074676514e+01 -2.467322951415553689e-01
6.332682613283395767e+00 -3.372440898418426514e+01 -3.045173293212428689e-01
9.079264644533395767e+00 -4.693144023418426514e+01 -5.581794386962428689e-01
9.184977535158395767e+00 -4.545487773418426514e+01 -5.023933058837428689e-01
9.494425777345895767e+00 -4.510111796855926514e+01 -4.701362258056178689e-01
9.929850582033395767e+00 -4.535636699199676514e+01 -4.496436720946803689e-01
1.030753612890839577e+01 -4.533097636699676514e+01 -4.237037306884303689e-01
1.061564159765839577e+01 -4.499943339824676514e+01 -3.933845168212428689e-01
8.142985347658395767e+00 -4.611295878887176514e+01 -3.837867385009303689e-01
8.704508785158395767e+00 -4.711417949199676514e+01 -3.745246535399928689e-01
8.795451167970895767e+00 -4.549271953105926514e+01 -3.221717482665553689e-01
9.230753902345895767e+00 -4.576664531230926514e+01 -3.006568556884303689e-01
9.452311519533395767e+00 -4.496757304668426514e+01 -2.629523879149928689e-01
9.932658199220895767e+00 -4.544035136699676514e+01 -2.440925246337428689e-01
1.029752636328339577e+01 -4.535429179668426514e+01 -2.170539504149928689e-01
1.066752148047089577e+01 -4.529118144512176514e+01 -1.903510695556178689e-01
8.105753902345895767e+00 -4.598283183574676514e+01 -1.736274367431178689e-01
8.640055660158395767e+00 -4.683866679668426514e+01 -1.577125197509303689e-01
8.762492183595895767e+00 -4.539689433574676514e+01 -1.136451369384303689e-01
9.124918941408395767e+00 -4.530155742168426514e+01 -8.662182150874286890e-02
9.553385738283395767e+00 -4.553886210918426514e+01 -6.307750998530536890e-02
9.895182613283395767e+00 -4.533573710918426514e+01 -3.487926779780536890e-02
1.037736034765839577e+01 -4.578446757793426514e+01 -1.386791525874286890e-02
1.060697460547089577e+01 -4.509342753887176514e+01 1.840442360844463110e-02
8.098063472658395767e+00 -4.602714335918426514e+01 3.505176247563213110e-02
8.636393550783395767e+00 -4.690556132793426514e+01 5.516284646000713110e-02
8.746134761720895767e+00 -4.538957011699676514e+01 9.227222146000713110e-02
9.126017574220895767e+00 -4.538444316387176514e+01 1.186394089600071311e-01
9.490641597658395767e+00 -4.530436503887176514e+01 1.454033249756321311e-01
9.852580074220895767e+00 -4.520585429668426514e+01 1.723503464600071311e-01
1.030338573828339577e+01 -4.551896464824676514e+01 1.974205368896946311e-01
1.082340526953339577e+01 -4.610441386699676514e+01 2.219566697021946311e-01
8.103678707033395767e+00 -4.615043437480926514e+01 2.427543991943821311e-01
8.380656246095895767e+00 -4.554716289043426514e+01 2.711815232178196311e-01
8.626994136720895767e+00 -4.482865703105926514e+01 2.991966599365696311e-01
9.098185542970895767e+00 -4.531852519512176514e+01 3.248466843506321311e-01
9.457072261720895767e+00 -4.521305644512176514e+01 3.515648239990696311e-01
9.917765621095895767e+00 -4.558573710918426514e+01 3.782524460693821311e-01
1.048624706640839577e+01 -4.641911113262176514e+01 4.055809372803196311e-01
1.080338573828339577e+01 -4.608500468730926514e+01 4.327873581787571311e-01
8.119914058595895767e+00 -4.633732402324676514e+01 4.527916306396946311e-01
8.305583003908395767e+00 -4.520805156230926514e+01 4.777550095459446311e-01
8.714030269533395767e+00 -4.537870585918426514e+01 5.049309128662571311e-01
9.280070308595895767e+00 -4.633500468730926514e+01 5.350975388428196311e-01
9.524333003908395767e+00 -4.561991679668426514e+01 5.598930710693821311e-01
1.009647655859589577e+01 -4.650456035137176514e+01 5.912346238037571311e-01
1.026346874609589577e+01 -4.547587382793426514e+01 6.138176316162571311e-01
1.086735058203339577e+01 -4.643314921855926514e+01 6.466698044678196311e-01
8.006510738283395767e+00 -4.575236308574676514e+01 6.586937302490696311e-01
8.372965816408395767e+00 -4.567423808574676514e+01 6.854729050537571311e-01
8.869669917970895767e+00 -4.630192363262176514e+01 7.174248093506321311e-01
9.266398433595895767e+00 -4.634342753887176514e+01 7.456688279053196311e-01
9.556437496095895767e+00 -4.585392558574676514e+01 7.694115036865696311e-01
9.936198238283395767e+00 -4.581779277324676514e+01 7.968925827881321311e-01
1.059794140234589577e+01 -4.707011210918426514e+01 8.369926804443821311e-01
1.094547558203339577e+01 -4.684379374980926514e+01 8.632988327881321311e-01
8.087199214845895767e+00 -4.632377421855926514e+01 8.727135056396946311e-01
8.480753902345895767e+00 -4.637272441387176514e+01 9.012626999756321311e-01
8.840006832033395767e+00 -4.622416484355926514e+01 9.264702195068821311e-01
9.198527339845895767e+00 -4.607133281230926514e+01 9.527458542725071311e-01
9.548747066408395767e+00 -4.589091289043426514e+01 9.784721726318821311e-01
9.906413082033395767e+00 -4.574870097637176514e+01 1.004686772241257131e+00
1.664493847265839577e+01 -7.475370585918426514e+01 1.455309330835007131e+00
1.733292675390839577e+01 -7.496586406230926514e+01 1.505037724389694631e+00
8.101115230470895767e+00 -4.649870097637176514e+01 1.084780156030319631e+00
8.537882808595895767e+00 -4.678507792949676514e+01 1.117815434350632131e+00
8.806437496095895767e+00 -4.612528789043426514e+01 1.135530888452194631e+00
9.241618160158395767e+00 -4.637467753887176514e+01 1.168337284936569631e+00
1.712650585547089577e+01 -8.360307109355926514e+01 1.864595829858444631e+00
1.806754589453339577e+01 -8.468339335918426514e+01 1.937242924585007131e+00
1.605631542578339577e+01 -7.217716777324676514e+01 1.750276982202194631e+00
1.956632519140839577e+01 -8.490116679668426514e+01 2.048235356225632131e+00
1.500956249609589577e+01 -8.802323710918426514e+01 2.129351078881882131e+00
8.498209957033395767e+00 -4.664689433574676514e+01 1.326784550561569631e+00
8.868693355470895767e+00 -4.654655253887176514e+01 1.353624760522507131e+00
9.232462886720895767e+00 -4.640714824199676514e+01 1.379656254663132131e+00
1.652384472265839577e+01 -8.074467265605926514e+01 2.184557377710007131e+00
1.603544140234589577e+01 -7.219315898418426514e+01 2.083010136499069631e+00
1.741251659765839577e+01 -7.554105937480926514e+01 2.212999760522507131e+00
1.660770702734589577e+01 -8.881449687480926514e+01 2.664156376733444631e+00
1.615238476172089577e+01 -8.251701152324676514e+01 2.553286015405319631e+00
1.664750194922089577e+01 -8.149650371074676514e+01 2.578218876733444631e+00
1.674698925390839577e+01 -7.864835917949676514e+01 2.551119267358444631e+00
1.674906444922089577e+01 -7.557926738262176514e+01 2.513979374780319631e+00
1.731034374609589577e+01 -7.520329082012176514e+01 2.551744877710007131e+00
1.562491894140839577e+01 -8.764494121074676514e+01 2.979357182397507131e+00
1.627555370703339577e+01 -8.716227519512176514e+01 3.020952641381882131e+00
1.609134960547089577e+01 -8.234293925762176514e+01 2.926607548608444631e+00
1.674601269140839577e+01 -8.212492167949676514e+01 2.972933232202194631e+00
1.607242870703339577e+01 -7.554691874980926514e+01 2.811953007592819631e+00
1.741385937109589577e+01 -7.875102031230926514e+01 2.967684208764694631e+00
1.657169628515839577e+01 -7.205228984355926514e+01 2.793611943139694631e+00
1.521610546484589577e+01 -7.791435039043426514e+01 3.147264897241257131e+00
1.678580761328339577e+01 -8.246281230449676514e+01 3.364839970483444631e+00
1.541678905859589577e+01 -7.252714335918426514e+01 3.048586308374069631e+00
1.736930370703339577e+01 -7.866935527324676514e+01 3.329485356225632131e+00
1.784867382422089577e+01 -7.781156718730926514e+01 3.348329960717819631e+00
1.549564648047089577e+01 -7.951420390605926514e+01 3.569506108178757131e+00
1.703666210547089577e+01 -7.725883281230926514e+01 3.633806645288132131e+00
1.778788280859589577e+01 -7.765922343730926514e+01 3.702776371850632131e+00
1.533854198828339577e+01 -7.883024394512176514e+01 3.905138432397507131e+00
1.603214550390839577e+01 -7.895951640605926514e+01 3.963838993920944631e+00
1.636515331640839577e+01 -7.732279765605926514e+01 3.940676152124069631e+00
1.582572460547089577e+01 -7.178910624980926514e+01 3.730760990991257131e+00
1.611417675390839577e+01 -7.034708964824676514e+01 3.711687504663132131e+00
3.085978511720895767e+00 -1.219291484355926514e+01 -7.104259787593036890e-02
3.212443355470895767e+00 -1.231693828105926514e+01 -7.006603537593036890e-02
3.340373042970895767e+00 -1.243632304668426514e+01 -6.902843771968036890e-02
3.472086910158395767e+00 -1.255936992168426514e+01 -6.797558127436786890e-02
3.606730464845895767e+00 -1.268510234355926514e+01 -6.689220725093036890e-02
3.747233394533395767e+00 -1.282084453105926514e+01 -6.600719748530536890e-02
3.898722652345895767e+00 -1.298661601543426514e+01 -6.611400900874286890e-02
4.052653316408395767e+00 -1.314835917949676514e+01 -6.617504416499286890e-02
3.439982417970895767e+00 -1.373844707012176514e+01 -7.537609396968036890e-02
3.596476558595895767e+00 -1.393156230449676514e+01 -7.566601096186786890e-02
3.758585933595895767e+00 -1.413151347637176514e+01 -7.595592795405536890e-02
3.929972652345895767e+00 -1.435062968730926514e+01 -7.632213889155536890e-02
4.131999019533395767e+00 -1.466947734355926514e+01 -8.021313010249286890e-02
4.327677730470895767e+00 -1.494157207012176514e+01 -8.245617209468036890e-02
4.533610347658395767e+00 -1.523234355449676514e+01 -8.468395529780536890e-02
4.746989253908395767e+00 -1.552873027324676514e+01 -8.674389182124286890e-02
3.983683589845895767e+00 -1.610917460918426514e+01 -9.144359885249286890e-02
4.196330074220895767e+00 -1.645048320293426514e+01 -9.403759299311786890e-02
4.419962886720895767e+00 -1.680961406230926514e+01 -9.679943381343036890e-02
4.656291011720895767e+00 -1.718888652324676514e+01 -9.969860373530536890e-02
4.917521480470895767e+00 -1.763651835918426514e+01 -1.041999465087428689e-01
5.215983394533395767e+00 -1.818644511699676514e+01 -1.111274367431178689e-01
5.548258785158395767e+00 -1.882011210918426514e+01 -1.198402052978053689e-01
5.847819332033395767e+00 -1.930094707012176514e+01 -1.235175734618678689e-01
5.081583980470895767e+00 -2.088773906230926514e+01 -1.509833937743678689e-01
5.397990230470895767e+00 -2.148881328105926514e+01 -1.556068068603053689e-01
5.728556636720895767e+00 -2.210124003887176514e+01 -1.603065138915553689e-01
6.093058589845895767e+00 -2.279765117168426514e+01 -1.663947707274928689e-01
6.589396480470895767e+00 -2.394303691387176514e+01 -1.828742629149928689e-01
7.202433589845895767e+00 -2.543351542949676514e+01 -2.063880568603053689e-01
7.969889644533395767e+00 -2.737345683574676514e+01 -2.389197951415553689e-01
8.437785152345895767e+00 -2.816813457012176514e+01 -2.432685500243678689e-01
7.602335933595895767e+00 -3.185416972637176514e+01 -3.039832717040553689e-01
1.034318066015839577e+01 -4.219071757793426514e+01 -5.130439406493678689e-01
7.170817378908395767e+00 -2.794621074199676514e+01 -1.861701613524928689e-01
7.318888667970895767e+00 -2.760014140605926514e+01 -1.638007765868678689e-01
7.623209957033395767e+00 -2.786466777324676514e+01 -1.541419631103053689e-01
7.800333980470895767e+00 -2.764188945293426514e+01 -1.344886427978053689e-01
8.058878902345895767e+00 -2.771989238262176514e+01 -1.208167677978053689e-01
8.312785152345895767e+00 -2.777360332012176514e+01 -1.065345412353053689e-01
1.061649608984589577e+01 -4.499735820293426514e+01 -3.932624465087428689e-01
7.407267574220895767e+00 -2.995927226543426514e+01 -1.090675002196803689e-01
7.393717769533395767e+00 -2.888395488262176514e+01 -7.473522482905536890e-02
7.314372066408395767e+00 -2.761857402324676514e+01 -3.848034201655536890e-02
7.611735347658395767e+00 -2.785661113262176514e+01 -2.686840353999286890e-02
7.752970699220895767e+00 -2.750346171855926514e+01 -6.070674047805368900e-03
7.991129878908395767e+00 -2.751395976543426514e+01 9.127079858444631100e-03
8.266520503908395767e+00 -2.764738261699676514e+01 2.205127419438213110e-02
1.066862011328339577e+01 -4.529044902324676514e+01 -1.902442580321803689e-01
1.123356151953339577e+01 -4.604276835918426514e+01 -1.740241652587428689e-01
7.379313472658395767e+00 -2.886503398418426514e+01 5.620044411625713110e-02
7.440592769533395767e+00 -2.814774882793426514e+01 8.058398903813213110e-02
7.700724605470895767e+00 -2.822794902324676514e+01 9.558337868656963110e-02
7.907023433595895767e+00 -2.809953105449676514e+01 1.129173630615696311e-01
7.968424800783395767e+00 -2.746635234355926514e+01 1.349205368896946311e-01
8.178629878908395767e+00 -2.737846171855926514e+01 1.513695114990696311e-01
1.060660839453339577e+01 -4.508646953105926514e+01 1.854175271000713110e-02
7.157023433595895767e+00 -2.899247539043426514e+01 1.694054001709446311e-01
7.580851558595895767e+00 -2.972025859355926514e+01 1.813988083740696311e-01
7.572916988283395767e+00 -2.870194804668426514e+01 2.051414841553196311e-01
7.695475582033395767e+00 -2.824381816387176514e+01 2.243370407959446311e-01
7.778239253908395767e+00 -2.766349589824676514e+01 2.437614792725071311e-01
7.961588863283395767e+00 -2.747489726543426514e+01 2.599815720459446311e-01
8.144572261720895767e+00 -2.729313457012176514e+01 2.766746872803196311e-01
1.082499218359589577e+01 -4.610575664043426514e+01 2.220482224365696311e-01
1.154081249609589577e+01 -4.746586406230926514e+01 2.448906296631321311e-01
7.357218746095895767e+00 -2.885343730449676514e+01 3.181480759521946311e-01
7.431071285158395767e+00 -2.818424785137176514e+01 3.361992234131321311e-01
7.540568355470895767e+00 -2.769352519512176514e+01 3.532280320068821311e-01
7.687663082033395767e+00 -2.736625468730926514e+01 3.696922654053196311e-01
7.897868160158395767e+00 -2.728202617168426514e+01 3.857750290771946311e-01
8.096110347658395767e+00 -2.715849101543426514e+01 4.017814988037571311e-01
1.080485058203339577e+01 -4.608549296855926514e+01 4.328941697021946311e-01
1.124882030859589577e+01 -4.630326640605926514e+01 4.606651657959446311e-01
7.156657222658395767e+00 -2.807804667949676514e+01 4.469017380615696311e-01
7.362711910158395767e+00 -2.795316874980926514e+01 4.631676072021946311e-01
7.685465816408395767e+00 -2.827799785137176514e+01 4.808830613037571311e-01
7.687052730470895767e+00 -2.739762675762176514e+01 4.941429489990696311e-01
8.176188472658395767e+00 -2.830265605449676514e+01 5.148186081787571311e-01
8.284098628908395767e+00 -2.783720195293426514e+01 5.293144577881321311e-01
1.086893749609589577e+01 -4.643388164043426514e+01 6.467613572021946311e-01
1.120365429297089577e+01 -4.617899882793426514e+01 6.732200974365696311e-01
7.129923824220895767e+00 -2.800736796855926514e+01 5.739464157959446311e-01
7.599284175783395767e+00 -2.891837871074676514e+01 5.977653855225071311e-01
7.745524410158395767e+00 -2.854166972637176514e+01 6.120933884521946311e-01
7.953166011720895767e+00 -2.840788066387176514e+01 6.282524460693821311e-01
8.164835933595895767e+00 -2.829643046855926514e+01 6.444572800537571311e-01
8.197306636720895767e+00 -2.757060039043426514e+01 6.543602341553196311e-01
1.094816112890839577e+01 -4.684953105449676514e+01 8.634514206787571311e-01
1.134012890234589577e+01 -4.682121074199676514e+01 8.919395798584446311e-01
1.083402538672089577e+01 -4.313017070293426514e+01 8.775963181396946311e-01
7.428019527345895767e+00 -2.828312480449676514e+01 7.209953659912571311e-01
7.686808589845895767e+00 -2.835502421855926514e+01 7.392601364990696311e-01
8.247965816408395767e+00 -2.952653300762176514e+01 7.727226609131321311e-01
8.136637691408395767e+00 -2.822990214824676514e+01 7.724937790771946311e-01
8.376627925783395767e+00 -2.822135722637176514e+01 7.898735398193821311e-01
1.733487987890839577e+01 -7.496525371074676514e+01 1.505190312280319631e+00
1.130582714453339577e+01 -4.674320781230926514e+01 1.106447636499069631e+00
1.875199413672089577e+01 -7.548112285137176514e+01 1.606493412866257131e+00
7.424967769533395767e+00 -2.830863749980926514e+01 8.495048874756321311e-01
1.169059276953339577e+01 -4.362260234355926514e+01 1.138430058374069631e+00
7.840250972658395767e+00 -2.806315410137176514e+01 8.803581589600071311e-01
8.085246089845895767e+00 -2.808122050762176514e+01 8.989891404053196311e-01
8.340739253908395767e+00 -2.813053691387176514e+01 9.176658982178196311e-01
1.956937694922089577e+01 -8.490409648418426514e+01 2.048479496850632131e+00
1.796012401953339577e+01 -7.499394023418426514e+01 1.899767338647507131e+00
1.119022655859589577e+01 -4.470426738262176514e+01 1.307299076928757131e+00
1.149528026953339577e+01 -4.439091289043426514e+01 1.329119145288132131e+00
7.935709957033395767e+00 -2.937589824199676514e+01 1.020235478295944631e+00
8.137980464845895767e+00 -2.919499003887176514e+01 1.034792363061569631e+00
8.056559566408395767e+00 -2.801273906230926514e+01 1.025286137475632131e+00
8.318522457033395767e+00 -2.808683574199676514e+01 1.045031010522507131e+00
1.741593456640839577e+01 -7.554643046855926514e+01 2.213289677514694631e+00
1.792826366797089577e+01 -7.496708476543426514e+01 2.245943486108444631e+00
1.880167675390839577e+01 -7.589518535137176514e+01 2.318865239038132131e+00
1.125345898047089577e+01 -4.349564921855926514e+01 1.509371220483444631e+00
1.171390819922089577e+01 -4.382475078105926514e+01 1.546633183374069631e+00
1.188480663672089577e+01 -4.305363261699676514e+01 1.553911625756882131e+00
