-2.860879240557551384e+00 -2.197510883212089539e+01 -9.139459440717416783e-01
-2.673989592120051384e+00 -2.235840961337089539e+01 -9.212549040326791783e-01
-2.471108732745051384e+00 -2.265967914462089539e+01 -9.262140104779916783e-01
-3.699014006182551384e+00 -2.012427875399589539e+01 -7.774865934858041783e-01
-3.548379240557551384e+00 -2.051038715243339539e+01 -7.837274382123666783e-01
-3.389199553057551384e+00 -2.088831683993339539e+01 -7.896783659467416783e-01
-3.242959318682551384e+00 -2.139649555087089539e+01 -7.985894987592416783e-01
-3.102578459307551384e+00 -2.200440570712089539e+01 -8.097131559858041783e-01
-2.938760099932551384e+00 -2.252686664462089539e+01 -8.186853239545541783e-01
-2.755044279620051384e+00 -2.297840473055839539e+01 -8.258874723920541783e-01
-2.564370451495051384e+00 -2.343482562899589539e+01 -8.330896208295541783e-01
-3.785805998370051384e+00 -2.057606098055839539e+01 -6.864984343061166783e-01
-3.628213224932551384e+00 -2.094837543368339539e+01 -6.907708952436166783e-01
-3.467690763995051384e+00 -2.134498187899589539e+01 -6.954095671186166783e-01
-3.335244474932551384e+00 -2.196912738680839539e+01 -7.042596647748666783e-01
-3.176797209307551384e+00 -2.249427387118339539e+01 -7.110956022748666783e-01
-3.003213224932551384e+00 -2.298243305087089539e+01 -7.171228239545541783e-01
-2.827065763995051384e+00 -2.352833148837089539e+01 -7.240808317670541783e-01
-2.633218107745051384e+00 -2.400489398837089539e+01 -7.296502897748666783e-01
-3.869546232745051384e+00 -2.101099750399589539e+01 -5.905206511029916783e-01
-3.706216154620051384e+00 -2.137647601962089539e+01 -5.930536100873666783e-01
-3.568276701495051384e+00 -2.193214008212089539e+01 -5.988061735639291783e-01
-3.406777678057551384e+00 -2.241163226962089539e+01 -6.027734587201791783e-01
-3.230508146807551384e+00 -2.284669086337089539e+01 -6.060235807904916783e-01
-3.068276701495051384e+00 -2.344214984774589539e+01 -6.114099333295541783e-01
-2.902871428057551384e+00 -2.410670062899589539e+01 -6.169946501264291783e-01
-2.723916349932551384e+00 -2.475782367587089539e+01 -6.228540251264291783e-01
-3.950356779620051384e+00 -2.143091937899589539e+01 -4.908960173139291783e-01
-3.800576506182551384e+00 -2.189539691805839539e+01 -4.928033659467416783e-01
-3.636269865557551384e+00 -2.232642719149589539e+01 -4.942987272748666783e-01
-3.465127287432551384e+00 -2.277039691805839539e+01 -4.958093473920541783e-01
-3.287881193682551384e+00 -2.322364398837089539e+01 -4.973352262983041783e-01
-3.136269865557551384e+00 -2.392200824618339539e+01 -5.010431120404916783e-01
-2.975503263995051384e+00 -2.466114398837089539e+01 -5.049798796186166783e-01
-2.793740568682551384e+00 -2.533423969149589539e+01 -5.081537077436166783e-01
-4.012734709307551384e+00 -2.175342914462089539e+01 -3.862970182904916783e-01
-3.863930998370051384e+00 -2.224134418368339539e+01 -3.868615934858041783e-01
-3.698159513995051384e+00 -2.268494769930839539e+01 -3.865564177045541783e-01
-3.518716154620051384e+00 -2.309974262118339539e+01 -3.859918425092416783e-01
-3.359170256182551384e+00 -2.369324848055839539e+01 -3.862207243451791783e-01
-3.206460295245051384e+00 -2.441773578524589539e+01 -3.869531462201791783e-01
-3.028725920245051384e+00 -2.506312152743339539e+01 -3.871515104779916783e-01
-2.853432951495051384e+00 -2.582520648837089539e+01 -3.871057341108041783e-01
-4.067422209307551384e+00 -2.203504535555839539e+01 -2.792566130170541783e-01
-3.929482756182551384e+00 -2.259962055087089539e+01 -2.771509001264291783e-01
-3.756264982745051384e+00 -2.302064105868339539e+01 -2.748773405561166783e-01
-3.579018888995051384e+00 -2.347034808993339539e+01 -2.725274870404916783e-01
-3.433511076495051384e+00 -2.418336078524589539e+01 -2.701623747358041783e-01
-3.255410490557551384e+00 -2.476075336337089539e+01 -2.676294157514291783e-01
-3.085732756182551384e+00 -2.549561664462089539e+01 -2.649896452436166783e-01
-2.910683928057551384e+00 -2.629493305087089539e+01 -2.622125456342416783e-01
-4.124673185870051384e+00 -2.233094379305839539e+01 -1.689660856733041783e-01
-3.985390959307551384e+00 -2.290418598055839539e+01 -1.649225065717416783e-01
-3.814614592120051384e+00 -2.335743305087089539e+01 -1.607110807904916783e-01
-3.656655607745051384e+00 -2.394996234774589539e+01 -1.557977507123666783e-01
-3.485268888995051384e+00 -2.452149555087089539e+01 -1.508691618451791783e-01
-3.302407560870051384e+00 -2.508948871493339539e+01 -1.458795378217416783e-01
-3.142495451495051384e+00 -2.592506000399589539e+01 -1.395318815717416783e-01
-2.966836271807551384e+00 -2.675501605868339539e+01 -1.323755095014291783e-01
-4.183144865557551384e+00 -2.263270160555839539e+01 -5.647829270455417827e-02
-4.038125334307551384e+00 -2.319105121493339539e+01 -4.942873215767917827e-02
-3.877358732745051384e+00 -2.372022601962089539e+01 -4.257753586861667827e-02
-3.711831388995051384e+00 -2.428760883212089539e+01 -3.526857590767917827e-02
-3.534951506182551384e+00 -2.484632465243339539e+01 -2.795961594674167827e-02
-3.363564787432551384e+00 -2.551917621493339539e+01 -1.950624680611667827e-02
-3.198769865557551384e+00 -2.635059711337089539e+01 -9.481222392054178272e-03
-3.017007170245051384e+00 -2.716456195712089539e+01 5.285432329458217282e-04
-4.239785490557551384e+00 -2.292420551180839539e+01 5.927488112357082173e-02
-4.092202482745051384e+00 -2.348487445712089539e+01 6.879636549857082173e-02
-3.935220060870051384e+00 -2.405372211337089539e+01 7.789060377982082173e-02
-3.763711271807551384e+00 -2.460523578524589539e+01 8.745786452200832173e-02
-3.585732756182551384e+00 -2.517750141024589539e+01 9.737607741263332173e-02
-3.424599943682551384e+00 -2.594813129305839539e+01 1.101324250688833217e-01
-3.249062834307551384e+00 -2.672889301180839539e+01 1.238348176470083217e-01
-3.069009123370051384e+00 -2.758997699618339539e+01 1.381017854204458217e-01
-4.295693693682551384e+00 -2.321204730868339539e+01 1.776525666704458217e-01
-4.143105803057551384e+00 -2.376160785555839539e+01 1.888220002641958217e-01
-3.986733732745051384e+00 -2.435010883212089539e+01 2.013952424516958217e-01
-3.817178068682551384e+00 -2.493262836337089539e+01 2.139379670610708217e-01
-3.642129240557551384e+00 -2.554590961337089539e+01 2.271063020220083217e-01
-3.481484709307551384e+00 -2.634644672274589539e+01 2.438299348345083217e-01
-3.299233732745051384e+00 -2.710670062899589539e+01 2.599279572954458217e-01
-3.122720060870051384e+00 -2.802820941805839539e+01 2.798406770220083217e-01
-6.221097093075513840e-01 -7.105357855558395386e+00 -8.448999235639291783e-01
-5.414212327450513840e-01 -7.138438910245895386e+00 -8.455255339154916783e-01
-4.598782639950513840e-01 -7.168834418058395386e+00 -8.461358854779916783e-01
-3.777249436825513840e-01 -7.199351996183395386e+00 -8.467614958295541783e-01
-2.952054124325513840e-01 -7.230113714933395386e+00 -8.474023649701791783e-01
-2.124417405575513840e-01 -7.260875433683395386e+00 -8.480279753217416783e-01
-1.287015061825513840e-01 -7.292003363370895386e+00 -8.486688444623666783e-01
-4.471713118255138397e-02 -7.320201605558395386e+00 -8.493097136029916783e-01
-6.925442796200513840e-01 -7.697643011808395386e+00 -8.443811247358041783e-01
-6.061184983700513840e-01 -7.732433050870895386e+00 -8.450982878217416783e-01
-5.198147874325513840e-01 -7.775157660245895386e+00 -8.460748503217416783e-01
-4.321683030575513840e-01 -7.814342230558395386e+00 -8.470514128217416783e-01
-3.442776780575513840e-01 -7.853770941495895386e+00 -8.480127165326791783e-01
-2.557767014950513840e-01 -7.893443793058395386e+00 -8.490045378217416783e-01
-1.660550218075513840e-01 -7.929454535245895386e+00 -8.499505827436166783e-01
-7.633334212005138397e-02 -7.969615668058395386e+00 -8.509424040326791783e-01
-7.848294358700513840e-01 -8.473888128995895386e+00 -8.494165251264291783e-01
-6.915677171200513840e-01 -8.518687933683395386e+00 -8.504693815717416783e-01
-5.975735764950513840e-01 -8.563976019620895386e+00 -8.515374968061166783e-01
-5.026028733700513840e-01 -8.609630316495895386e+00 -8.526056120404916783e-01
-4.072659593075513840e-01 -8.655528753995895386e+00 -8.536889860639291783e-01
-3.111966233700513840e-01 -8.701793402433395386e+00 -8.547723600873666783e-01
-2.137845139950513840e-01 -8.745616644620895386e+00 -8.557031462201791783e-01
-1.160061936825513840e-01 -8.786510199308395386e+00 -8.564508268842416783e-01
-8.837063889950513840e-01 -9.306407660245895386e+00 -8.506219694623666783e-01
-7.826321702450513840e-01 -9.356456488370895386e+00 -8.514001677045541783e-01
-6.803372483700513840e-01 -9.402110785245895386e+00 -8.521783659467416783e-01
-5.769436936825513840e-01 -9.448253363370895386e+00 -8.529565641889291783e-01
-4.731839280575513840e-01 -9.494640082120895386e+00 -8.537500212201791783e-01
-3.688138108700513840e-01 -9.541270941495895386e+00 -8.545434782514291783e-01
-2.632229905575513840e-01 -9.588390082120895386e+00 -8.553521940717416783e-01
-1.570218186825513840e-01 -9.630870550870895386e+00 -8.561609098920541783e-01
-9.975979905575513840e-01 -1.026417133212089539e+01 -8.502099821576791783e-01
-8.862698655575513840e-01 -1.030897113680839539e+01 -8.506372282514291783e-01
-7.751858811825513840e-01 -1.036231586337089539e+01 -8.514917204389291783e-01
-6.627591233700513840e-01 -1.041639301180839539e+01 -8.523462126264291783e-01
-5.517972093075513840e-01 -1.049415180087089539e+01 -8.543756315717416783e-01
-4.398587327450513840e-01 -1.057862445712089539e+01 -8.567407438764291783e-01
-3.262112718075513840e-01 -1.066443988680839539e+01 -8.591211149701791783e-01
-2.113431077450513840e-01 -1.075098773837089539e+01 -8.615472624311166783e-01
-1.146157560870051384e+00 -1.151380512118339539e+01 -8.546960661420541783e-01
-1.026528654620051384e+00 -1.159791156649589539e+01 -8.562524626264291783e-01
-9.054349046200513840e-01 -1.168189594149589539e+01 -8.580987761029916783e-01
-7.850735764950513840e-01 -1.179713031649589539e+01 -8.613336393842416783e-01
-6.642239671200513840e-01 -1.192530414462089539e+01 -8.651483366498666783e-01
-5.410550218075513840e-01 -1.205579730868339539e+01 -8.690088102826791783e-01
-4.153225999325513840e-01 -1.218909808993339539e+01 -8.729760954389291783e-01
-2.848294358700513840e-01 -1.226526996493339539e+01 -8.746545622358041783e-01
-1.369912443682551384e+00 -1.339832660555839539e+01 -8.736322233686166783e-01
-1.243447599932551384e+00 -1.359498187899589539e+01 -8.795373747358041783e-01
-1.112466154620051384e+00 -1.378235980868339539e+01 -8.850000212201791783e-01
-9.752591233700513840e-01 -1.394507953524589539e+01 -8.893945524701791783e-01
-8.319485764950513840e-01 -1.406251117587089539e+01 -8.918969938764291783e-01
-6.855862718075513840e-01 -1.416627094149589539e+01 -8.938043425092416783e-01
-5.370267014950513840e-01 -1.427161762118339539e+01 -8.957422087201791783e-01
-3.871243577450513840e-01 -1.437781879305839539e+01 -8.976953337201791783e-01
-1.673135099932551384e+00 -1.595154926180839539e+01 -9.001672575483041783e-01
-1.561074553057551384e+00 -1.651758930087089539e+01 -9.184015104779916783e-01
-1.516030607745051384e+00 -1.787916156649589539e+01 -9.651086637983041783e-01
-1.307412443682551384e+00 -1.770118305087089539e+01 -9.557855436811166783e-01
-1.103677092120051384e+00 -1.752735492587089539e+01 -9.466913053998666783e-01
-9.079983811825513840e-01 -1.741675922274589539e+01 -9.399316618451791783e-01
-7.283108811825513840e-01 -1.754615375399589539e+01 -9.422967741498666783e-01
-5.476468186825513840e-01 -1.769300433993339539e+01 -9.447839567670541783e-01
-2.414223967120051384e+00 -2.219691058993339539e+01 -1.021657736063929178e+00
-2.207925138995051384e+00 -2.247425433993339539e+01 -1.027166158915491678e+00
-1.999062834307551384e+00 -2.277869769930839539e+01 -1.033468038798304178e+00
-1.792031584307551384e+00 -2.317933246493339539e+01 -1.042745382548304178e+00
-1.645669279620051384e+00 -2.444080707430839539e+01 -1.079168112040491678e+00
-1.441689787432551384e+00 -2.522266742587089539e+01 -1.100118429423304178e+00
-1.234414396807551384e+00 -2.622645160555839539e+01 -1.127813131571741678e+00
-9.820950608700513840e-01 -2.668152973055839539e+01 -1.138082296610804178e+00
-2.470498381182551384e+00 -2.266138812899589539e+01 -9.262445280561166783e-01
-2.298013029620051384e+00 -2.329346820712089539e+01 -9.402520964154916783e-01
-2.101968107745051384e+00 -2.381129047274589539e+01 -9.509637663373666783e-01
-1.964883146807551384e+00 -2.512061664462089539e+01 -9.830529997358041783e-01
-1.761758146807551384e+00 -2.590577289462089539e+01 -1.000615865946741678e+00
-1.525185881182551384e+00 -2.642420551180839539e+01 -1.010778219462366678e+00
-1.278847990557551384e+00 -2.696168109774589539e+01 -1.021291525126429178e+00
-1.072060881182551384e+00 -2.851197406649589539e+01 -1.058660299540491678e+00
-2.563760099932551384e+00 -2.343763324618339539e+01 -8.331353971967416783e-01
-2.366250334307551384e+00 -2.391065570712089539e+01 -8.405664274701791783e-01
-2.220376310870051384e+00 -2.500049945712089539e+01 -8.618829557904916783e-01
-2.037759123370051384e+00 -2.592921039462089539e+01 -8.792474577436166783e-01
-1.827431974932551384e+00 -2.672474262118339539e+01 -8.933923552045541783e-01
-1.583657560870051384e+00 -2.725721332430839539e+01 -9.014642546186166783e-01
-1.370522795245051384e+00 -2.850599262118339539e+01 -9.252679655561166783e-01
-1.121987638995051384e+00 -2.950941058993339539e+01 -9.433343718061166783e-01
-2.632729826495051384e+00 -2.400782367587089539e+01 -7.296960661420541783e-01
-2.472817717120051384e+00 -2.487977191805839539e+01 -7.422387907514291783e-01
-2.292519865557551384e+00 -2.571851703524589539e+01 -7.539422819623666783e-01
-2.097939787432551384e+00 -2.659339496493339539e+01 -7.660882780561166783e-01
-1.894204435870051384e+00 -2.755689594149589539e+01 -7.795770475873666783e-01
-1.665444670245051384e+00 -2.842921039462089539e+01 -7.912195036420541783e-01
-1.413735685870051384e+00 -2.921815082430839539e+01 -8.011529753217416783e-01
-1.173989592120051384e+00 -3.054749652743339539e+01 -8.203332731733041783e-01
-2.723916349932551384e+00 -2.476539203524589539e+01 -6.229455778608041783e-01
-2.544717131182551384e+00 -2.552881976962089539e+01 -6.299646208295541783e-01
-2.341958342120051384e+00 -2.620569965243339539e+01 -6.363122770795541783e-01
-2.159219084307551384e+00 -2.726905414462089539e+01 -6.469781706342416783e-01
-1.956338224932551384e+00 -2.832850238680839539e+01 -6.573388884076791783e-01
-1.716225920245051384e+00 -2.914735004305839539e+01 -6.642816374311166783e-01
-1.476479826495051384e+00 -3.026221820712089539e+01 -6.740777800092416783e-01
-1.210732756182551384e+00 -3.126856586337089539e+01 -6.829583952436166783e-01
-2.793374357745051384e+00 -2.533875629305839539e+01 -5.081842253217416783e-01
-2.598061857745051384e+00 -2.600684711337089539e+01 -5.108545134076791783e-01
-2.410073576495051384e+00 -2.688221332430839539e+01 -5.152032682904916783e-01
-2.208901701495051384e+00 -2.781275531649589539e+01 -5.198114225873666783e-01
-2.007607756182551384e+00 -2.896070453524589539e+01 -5.260827848920541783e-01
-1.774697599932551384e+00 -2.997547504305839539e+01 -5.309350798139291783e-01
-1.514565763995051384e+00 -3.088270160555839539e+01 -5.346429655561166783e-01
-1.258950529620051384e+00 -3.222364398837089539e+01 -5.417077848920541783e-01
-2.853066740557551384e+00 -2.582947894930839539e+01 -3.871057341108041783e-01
-2.652505217120051384e+00 -2.649549457430839539e+01 -3.874109098920541783e-01
-2.468056974932551384e+00 -2.745411273837089539e+01 -3.881280729779916783e-01
-2.259682951495051384e+00 -2.836829730868339539e+01 -3.884332487592416783e-01
-2.057290373370051384e+00 -2.957191058993339539e+01 -3.896844694623666783e-01
-1.818520842120051384e+00 -3.058912250399589539e+01 -3.899286100873666783e-01
-1.558511076495051384e+00 -3.160279437899589539e+01 -3.899133512983041783e-01
-1.293496428057551384e+00 -3.289527484774589539e+01 -3.898523161420541783e-01
-2.910195646807551384e+00 -2.629932758212089539e+01 -2.621972868451791783e-01
-2.720742521807551384e+00 -2.710889789462089539e+01 -2.587640593061166783e-01
-2.515298185870051384e+00 -2.791810199618339539e+01 -2.551324675092416783e-01
-2.317178068682551384e+00 -2.899842426180839539e+01 -2.511804411420541783e-01
-2.100747404620051384e+00 -3.010340473055839539e+01 -2.469842741498666783e-01
-1.863198576495051384e+00 -3.121546527743339539e+01 -2.425134489545541783e-01
-1.606240568682551384e+00 -3.238599750399589539e+01 -2.377527067670541783e-01
-1.327554045245051384e+00 -3.355433246493339539e+01 -2.327173063764291783e-01
-2.966470060870051384e+00 -2.676014301180839539e+01 -1.323449919233041783e-01
-2.771279631182551384e+00 -2.755945941805839539e+01 -1.259668180951791783e-01
-2.564858732745051384e+00 -2.840394183993339539e+01 -1.184900114545541783e-01
-2.368325529620051384e+00 -2.955689594149589539e+01 -1.092584440717416783e-01
-2.146889982745051384e+00 -3.066688129305839539e+01 -1.000116178998666783e-01
-1.910317717120051384e+00 -3.187537738680839539e+01 -8.998659348580417827e-02
-1.642983732745051384e+00 -3.297852680087089539e+01 -8.026674485299167827e-02
-1.362466154620051384e+00 -3.423170062899589539e+01 -6.860903000924167827e-02
-3.016640959307551384e+00 -2.717042133212089539e+01 5.895783891958217282e-04
-2.823647795245051384e+00 -2.802711078524589539e+01 1.183530592825832173e-02
-2.628579435870051384e+00 -2.903223773837089539e+01 2.469846510794582173e-02
-2.414223967120051384e+00 -3.005518695712089539e+01 3.794309401419582173e-02
-2.193642912432551384e+00 -3.123939105868339539e+01 5.298826002982082173e-02
-1.952920256182551384e+00 -3.246766254305839539e+01 6.872007155325832173e-02
-1.680093107745051384e+00 -3.357874652743339539e+01 8.355161452200832173e-02
-1.392739592120051384e+00 -3.481104633212089539e+01 9.984800124075832173e-02
-3.068764982745051384e+00 -2.759583637118339539e+01 1.381933381548208217e-01
-2.877847013995051384e+00 -2.851002094149589539e+01 1.541540315141958217e-01
-2.678994474932551384e+00 -2.952576801180839539e+01 1.709997346391958217e-01
-2.464028654620051384e+00 -3.059693500399589539e+01 1.895696809282583217e-01
-2.238564787432551384e+00 -3.178699848055839539e+01 2.100774934282583217e-01
-1.993569670245051384e+00 -3.303126117587089539e+01 2.316076447954458217e-01
-1.719277678057551384e+00 -3.421168109774589539e+01 2.533514192095083217e-01
-1.424233732745051384e+00 -3.541358539462089539e+01 2.748052766313833217e-01
-3.122353849932551384e+00 -2.803419086337089539e+01 2.799474885454458217e-01
-2.933999357745051384e+00 -2.901172992587089539e+01 3.005163362016958217e-01
-2.729897795245051384e+00 -3.002418109774589539e+01 3.226568391313833217e-01
-2.516640959307551384e+00 -3.116932269930839539e+01 3.475286653032583217e-01
-2.283974943682551384e+00 -3.233961078524589539e+01 3.730871369829458217e-01
-2.034097013995051384e+00 -3.359217426180839539e+01 4.004461457720083217e-01
-1.754311857745051384e+00 -3.477186176180839539e+01 4.266607453813833217e-01
-1.456948576495051384e+00 -3.604029437899589539e+01 4.557287385454458217e-01
-4.447299055755138397e-02 -7.320323675870895386e+00 -8.493097136029916783e-01
3.987759537994861603e-02 -7.351085394620895386e+00 -8.499658415326791783e-01
1.250826735049486160e-01 -7.371349066495895386e+00 -8.501031706342416783e-01
2.110201735049486160e-01 -7.389659613370895386e+00 -8.501031706342416783e-01
2.970797438174486160e-01 -7.407970160245895386e+00 -8.501031706342416783e-01
3.833834547549486160e-01 -7.429576605558395386e+00 -8.503167936811166783e-01
4.705416578799486160e-01 -7.461681097745895386e+00 -8.512323210248666783e-01
5.579440016299486160e-01 -7.490245550870895386e+00 -8.521173307904916783e-01
-7.596713118255138397e-02 -7.969981878995895386e+00 -8.509576628217416783e-01
1.460904069244861603e-02 -8.005992621183395386e+00 -8.519342253217416783e-01
1.057955641299486160e-01 -8.046397894620895386e+00 -8.529413053998666783e-01
1.982027906924486160e-01 -8.083018988370895386e+00 -8.539178678998666783e-01
2.909762281924486160e-01 -8.120006293058395386e+00 -8.549096891889291783e-01
3.843600172549486160e-01 -8.157115668058395386e+00 -8.559015104779916783e-01
4.788424391299486160e-01 -8.190440863370895386e+00 -8.568780729779916783e-01
5.736910719424486160e-01 -8.228160589933395386e+00 -8.579004118451791783e-01
-1.156399827450513840e-01 -8.786754339933395386e+00 -8.564508268842416783e-01
-1.688509993255138397e-02 -8.823863714933395386e+00 -8.572137663373666783e-01
8.260220475494861603e-02 -8.861217230558395386e+00 -8.579767057904916783e-01
1.830660719424486160e-01 -8.899059027433395386e+00 -8.587396452436166783e-01
2.838961500674486160e-01 -8.936900824308395386e+00 -8.595178434858041783e-01
3.854586500674486160e-01 -8.975108832120895386e+00 -8.602807829389291783e-01
4.882418531924486160e-01 -9.013683050870895386e+00 -8.610742399701791783e-01
5.912691969424486160e-01 -9.052501410245895386e+00 -8.618676970014291783e-01
-1.566556077450513840e-01 -9.631236761808395386e+00 -8.561761686811166783e-01
-4.996615462005138397e-02 -9.679576605558395386e+00 -8.570001432904916783e-01
5.782193131744861603e-02 -9.723521918058395386e+00 -8.578241178998666783e-01
1.665865797549486160e-01 -9.783092230558395386e+00 -8.594720671186166783e-01
2.760836500674486160e-01 -9.843272894620895386e+00 -8.611505339154916783e-01
3.868014235049486160e-01 -9.904185980558395386e+00 -8.628290007123666783e-01
4.989840406924486160e-01 -9.965831488370895386e+00 -8.645532438764291783e-01
6.120211500674486160e-01 -1.002271625399589539e+01 -8.662774870404916783e-01
-2.109768968075513840e-01 -1.075159808993339539e+01 -8.615625212201791783e-01
-9.439974837005138397e-02 -1.083436176180839539e+01 -8.639734098920541783e-01
2.376431412994861603e-02 -1.091834613680839539e+01 -8.664148161420541783e-01
1.442477125674486160e-01 -1.098817035555839539e+01 -8.681390593061166783e-01
2.657076735049486160e-01 -1.105213519930839539e+01 -8.695581266889291783e-01
3.883883375674486160e-01 -1.111658832430839539e+01 -8.709924528608041783e-01
5.127779860049486160e-01 -1.118201801180839539e+01 -8.724420378217416783e-01
6.227633375674486160e-01 -1.055006000399589539e+01 -8.399408171186166783e-01
-2.843411546200513840e-01 -1.226563617587089539e+01 -8.746698210248666783e-01
-1.528714280575513840e-01 -1.235230609774589539e+01 -8.763330290326791783e-01
-1.932650618255138397e-02 -1.243116351962089539e+01 -8.779504606733041783e-01
1.158053297549486160e-01 -1.252296039462089539e+01 -8.801324675092416783e-01
2.521578688174486160e-01 -1.263184711337089539e+01 -8.830468962201791783e-01
3.907076735049486160e-01 -1.274598285555839539e+01 -8.861596891889291783e-01
5.323092360049486160e-01 -1.288868305087089539e+01 -8.905084440717416783e-01
6.203219313174486160e-01 -1.047474262118339539e+01 -7.824762175092416783e-01
-3.866360764950513840e-01 -1.437855121493339539e+01 -8.977105925092416783e-01
-2.346585374325513840e-01 -1.448072406649589539e+01 -8.996637175092416783e-01
-8.072787337005138397e-02 -1.458423969149589539e+01 -9.016168425092416783e-01
7.564419694244861603e-02 -1.469361469149589539e+01 -9.037835905561166783e-01
2.331149000674486160e-01 -1.487000629305839539e+01 -9.086053678998666783e-01
3.941256422549486160e-01 -1.506226703524589539e+01 -9.139917204389291783e-01
5.030123610049486160e-01 -1.049073383212089539e+01 -7.306878874311166783e-01
6.187350172549486160e-01 -1.043470355868339539e+01 -7.268426725873666783e-01
-5.470364671200513840e-01 -1.769361469149589539e+01 -9.447992155561166783e-01
-3.635647874325513840e-01 -1.783729144930839539e+01 -9.473016569623666783e-01
-1.781399827450513840e-01 -1.801087543368339539e+01 -9.503534147748666783e-01
9.482087567448616028e-03 -1.828663226962089539e+01 -9.574334928998666783e-01
2.027193922549486160e-01 -1.845972797274589539e+01 -9.608362028608041783e-01
3.993746656924486160e-01 -1.859742328524589539e+01 -9.629419157514291783e-01
5.019137281924486160e-01 -1.045374652743339539e+01 -6.755426237592416783e-01
6.173922438174486160e-01 -1.040992328524589539e+01 -6.723840544233041783e-01
-9.812405686825513840e-01 -2.668458148837089539e+01 -1.138173849345179178e+00
-7.327054124325513840e-01 -2.747230121493339539e+01 -1.158803732157679178e+00
-4.685452561825513840e-01 -2.825977680087089539e+01 -1.179204733134241678e+00
-1.926663499325513840e-01 -2.932007953524589539e+01 -1.207799703837366678e+00
1.526705641299486160e-01 -2.438404437899589539e+01 -1.052160055399866678e+00
4.086520094424486160e-01 -2.474415180087089539e+01 -1.059621603251429178e+00
5.009371656924486160e-01 -1.043812152743339539e+01 -6.211145231733041783e-01
6.164156813174486160e-01 -1.039625141024589539e+01 -6.182306120404916783e-01
-1.071572599932551384e+00 -2.852271625399589539e+01 -1.058934957743616678e+00
-8.081448655575513840e-01 -2.939966937899589539e+01 -1.078084738017054178e+00
-5.176175218075513840e-01 -2.993262836337089539e+01 -1.087911398173304178e+00
-2.352688889950513840e-01 -3.154896137118339539e+01 -1.126012594462366678e+00
7.808560319244861603e-02 -3.316089984774589539e+01 -1.163549215556116678e+00
4.220797438174486160e-01 -3.386793109774589539e+01 -1.177175314188929178e+00
4.922701735049486160e-01 -9.765147894620895386e+00 -5.501611540326791783e-01
6.003024000674486160e-01 -9.690807074308395386e+00 -5.467279264936166783e-01
-1.121377287432551384e+00 -2.951905414462089539e+01 -9.435327360639291783e-01
-8.566067796200513840e-01 -3.061634418368339539e+01 -9.633386442670541783e-01
-5.698636155575513840e-01 -3.170740863680839539e+01 -9.827173063764291783e-01
-2.656643968075513840e-01 -3.309412738680839539e+01 -1.008168966532679178e+00
6.526822037994861603e-02 -3.444202777743339539e+01 -1.032415182352991678e+00
4.219576735049486160e-01 -3.522132465243339539e+01 -1.044164449931116678e+00
4.910494703799486160e-01 -9.716808050870895386e+00 -4.983728239545541783e-01
5.990816969424486160e-01 -9.664806097745895386e+00 -4.957788298139291783e-01
-1.173257170245051384e+00 -3.055396625399589539e+01 -8.204248259076791783e-01
-9.058011155575513840e-01 -3.184852191805839539e+01 -8.384912321576791783e-01
-6.080716233700513840e-01 -3.298597308993339539e+01 -8.535058805951791783e-01
-2.839749436825513840e-01 -3.397413226962089539e+01 -8.656518766889291783e-01
5.379361100494861603e-02 -3.553431293368339539e+01 -8.872125456342416783e-01
4.217135328799486160e-01 -3.655701801180839539e+01 -8.993432829389291783e-01
4.899508375674486160e-01 -9.681773871183395386e+00 -4.475457975873666783e-01
5.977389235049486160e-01 -9.635509222745895386e+00 -4.453027555951791783e-01
-1.210122404620051384e+00 -3.127955219149589539e+01 -6.830804655561166783e-01
-9.454739671200513840e-01 -3.283204242587089539e+01 -6.983697721967416783e-01
-6.330960374325513840e-01 -3.378931781649589539e+01 -7.066247770795541783e-01
-3.057034593075513840e-01 -3.503358051180839539e+01 -7.173364470014291783e-01
4.415005631744861603e-02 -3.640735980868339539e+01 -7.293298552045541783e-01
4.206149000674486160e-01 -3.739332172274589539e+01 -7.362268278608041783e-01
4.889742750674486160e-01 -9.659435003995895386e+00 -3.969323942670541783e-01
5.966402906924486160e-01 -9.615733832120895386e+00 -3.949334928998666783e-01
-1.258218107745051384e+00 -3.223292133212089539e+01 -5.417688200483041783e-01
-9.748929124325513840e-01 -3.354224750399589539e+01 -5.478570768842416783e-01
-6.553128343075513840e-01 -3.449708148837089539e+01 -5.507715055951791783e-01
-3.223050218075513840e-01 -3.581385394930839539e+01 -5.562494108686166783e-01
3.462857194244861603e-02 -3.723878070712089539e+01 -5.622155973920541783e-01
4.197604078799486160e-01 -3.854859516024589539e+01 -5.669458220014291783e-01
4.882418531924486160e-01 -9.657848089933395386e+00 -3.469446012983041783e-01
5.959078688174486160e-01 -9.614024847745895386e+00 -3.451593229779916783e-01
-1.292641935870051384e+00 -3.290186664462089539e+01 -3.898675749311166783e-01
-1.002969084307551384e+00 -3.421766254305839539e+01 -3.907525846967416783e-01
-6.821683030575513840e-01 -3.535840961337089539e+01 -3.898523161420541783e-01
-3.382962327450513840e-01 -3.654700824618339539e+01 -3.887842009076791783e-01
2.510708756744861603e-02 -3.806385394930839539e+01 -3.884332487592416783e-01
4.184176344424486160e-01 -3.945069476962089539e+01 -3.872888395795541783e-01
4.892184156924486160e-01 -9.801280707120895386e+00 -2.974145720014291783e-01
5.983492750674486160e-01 -9.762462347745895386e+00 -2.955529997358041783e-01
-1.326821623370051384e+00 -3.356360980868339539e+01 -2.327020475873666783e-01
-1.029946623370051384e+00 -3.486256000399589539e+01 -2.266290495404916783e-01
-7.026761155575513840e-01 -3.600110980868339539e+01 -2.204034636029916783e-01
-3.559964280575513840e-01 -3.737269183993339539e+01 -2.135522673139291783e-01
1.534146256744861603e-02 -3.891492816805839539e+01 -2.060907194623666783e-01
4.173190016299486160e-01 -4.060511371493339539e+01 -1.979883024701791783e-01
4.884859938174486160e-01 -9.806895941495895386e+00 -2.465265104779916783e-01
5.977389235049486160e-01 -9.768932074308395386e+00 -2.451227018842416783e-01
-1.361733732745051384e+00 -3.424061176180839539e+01 -6.853273606392917827e-02
-1.055703459307551384e+00 -3.547510883212089539e+01 -5.768373704049167827e-02
-7.245267014950513840e-01 -3.668238422274589539e+01 -4.579714036080417827e-02
-3.734524827450513840e-01 -3.818494769930839539e+01 -3.180483079049167827e-02
4.477204754948616028e-03 -3.986072894930839539e+01 -1.639345383736667827e-02
4.162203688174486160e-01 -4.184852191805839539e+01 1.413552998570821728e-03
4.886080641299486160e-01 -9.873912543058395386e+00 -1.955011198529916783e-01
5.976168531924486160e-01 -9.799693793058395386e+00 -1.942346403608041783e-01
-1.392007170245051384e+00 -3.481946918368339539e+01 9.993955397513332173e-02
-1.082192717120051384e+00 -3.610206195712089539e+01 1.178991487016958217e-01
-7.489407639950513840e-01 -3.745264789462089539e+01 1.369115998735708217e-01
-3.921292405575513840e-01 -3.904713031649589539e+01 1.588537385454458217e-01
-8.340178057551383972e-03 -4.103040668368339539e+01 1.853582551470083217e-01
4.145113844424486160e-01 -4.283448383212089539e+01 2.104589631548208217e-01
4.878756422549486160e-01 -9.880382269620895386e+00 -1.442468473920541783e-01
5.971285719424486160e-01 -9.807994574308395386e+00 -1.435754606733041783e-01
-1.423501310870051384e+00 -3.542261859774589539e+01 2.749426057329458217e-01
-1.109780607745051384e+00 -3.675513812899589539e+01 2.996160676470083217e-01
-7.751858811825513840e-01 -3.828065082430839539e+01 3.265630891313833217e-01
-4.164212327450513840e-01 -4.020667621493339539e+01 3.609106233110708217e-01
-2.152377180755138397e-02 -4.221766254305839539e+01 3.970434358110708217e-01
4.129244703799486160e-01 -4.389100238680839539e+01 4.285070588579458217e-01
4.872652906924486160e-01 -9.881725043058395386e+00 -9.303835129830417827e-02
5.965182203799486160e-01 -9.814586371183395386e+00 -9.262636399361667827e-02
-1.456216154620051384e+00 -3.604920551180839539e+01 4.559271028032583217e-01
-1.142373381182551384e+00 -3.753773090243339539e+01 4.888708283891958217e-01
-8.050931077450513840e-01 -3.923633930087089539e+01 5.272466828813833217e-01
-4.433987718075513840e-01 -4.150233051180839539e+01 5.772649934282583217e-01
-3.324252180755138397e-02 -4.322742816805839539e+01 6.171209504595083217e-01
4.121920485049486160e-01 -4.600294086337089539e+01 6.784307649126333217e-01
4.864107985049486160e-01 -9.871715277433395386e+00 -4.231813645455417827e-02
5.955416578799486160e-01 -9.803477972745895386e+00 -4.196718430611667827e-02
5.583102125674486160e-01 -7.490489691495895386e+00 -8.521325895795541783e-01
6.464449781924486160e-01 -7.521983832120895386e+00 -8.530481169233041783e-01
7.350680250674486160e-01 -7.550060003995895386e+00 -8.539331266889291783e-01
8.247897047549486160e-01 -7.578502386808395386e+00 -8.548333952436166783e-01
9.148775953799486160e-01 -7.607066839933395386e+00 -8.557336637983041783e-01
1.005575837567448616e+00 -7.635875433683395386e+00 -8.566491911420541783e-01
1.097372712567448616e+00 -7.664928168058395386e+00 -8.575799772748666783e-01
1.189169587567448616e+00 -7.690440863370895386e+00 -8.584649870404916783e-01
5.740572828799486160e-01 -8.228526800870895386e+00 -8.579156706342416783e-01
6.696383375674486160e-01 -8.261729925870895386e+00 -8.588922331342416783e-01
7.660738844424486160e-01 -8.299571722745895386e+00 -8.599145720014291783e-01
8.636080641299486160e-01 -8.333507269620895386e+00 -8.609216520795541783e-01
9.615084547549486160e-01 -8.367686957120895386e+00 -8.619287321576791783e-01
1.060263337567448616e+00 -8.402110785245895386e+00 -8.629510710248666783e-01
1.159872712567448616e+00 -8.432506293058395386e+00 -8.639428923139291783e-01
1.260214509442448616e+00 -8.467418402433395386e+00 -8.649652311811166783e-01
5.916354078799486160e-01 -9.052623480558395386e+00 -8.618676970014291783e-01
6.953951735049486160e-01 -9.087413519620895386e+00 -8.626611540326791783e-01
8.008639235049486160e-01 -9.143687933683395386e+00 -8.646753141889291783e-01
9.080416578799486160e-01 -9.201183050870895386e+00 -8.667657682904916783e-01
1.016195954754948616e+00 -9.259166449308395386e+00 -8.688562223920541783e-01
1.124838532879948616e+00 -9.307506293058395386e+00 -8.703821012983041783e-01
1.234457673504948616e+00 -9.349742621183395386e+00 -8.715417692670541783e-01
1.344809236004948616e+00 -9.392223089933395386e+00 -8.727014372358041783e-01
6.123873610049486160e-01 -1.002308246493339539e+01 -8.662927458295541783e-01
7.267672438174486160e-01 -1.008668109774589539e+01 -8.680322477826791783e-01
8.422457594424486160e-01 -1.014576312899589539e+01 -8.698022673139291783e-01
9.595553297549486160e-01 -1.020582172274589539e+01 -8.716028044233041783e-01
1.077719392254948616e+00 -1.026356098055839539e+01 -8.732660124311166783e-01
1.196127595379948616e+00 -1.030714008212089539e+01 -8.741662809858041783e-01
1.316000642254948616e+00 -1.035132953524589539e+01 -8.750818083295541783e-01
1.436484040692448616e+00 -1.039698383212089539e+01 -8.763482878217416783e-01
6.231295485049486160e-01 -1.054981586337089539e+01 -8.399102995404916783e-01
7.649752516299486160e-01 -1.130970355868339539e+01 -8.753564665326791783e-01
8.929049391299486160e-01 -1.137147113680839539e+01 -8.768060514936166783e-01
1.022665681317448616e+00 -1.143421527743339539e+01 -8.782708952436166783e-01
1.154501618817448616e+00 -1.151563617587089539e+01 -8.806207487592416783e-01
1.288656892254948616e+00 -1.160535785555839539e+01 -8.833673307904916783e-01
1.425497712567448616e+00 -1.169678851962089539e+01 -8.861444303998666783e-01
1.565268220379948616e+00 -1.180433246493339539e+01 -8.896844694623666783e-01
6.208102125674486160e-01 -1.047449848055839539e+01 -7.824609587201791783e-01
8.222262281924486160e-01 -1.313087055087089539e+01 -8.973901579389291783e-01
9.690768141299486160e-01 -1.321192523837089539e+01 -8.991296598920541783e-01
1.116171540692448616e+00 -1.325416156649589539e+01 -8.991449186811166783e-01
1.268759431317448616e+00 -1.337720844149589539e+01 -9.026849577436166783e-01
1.421225251629948616e+00 -1.346131488680839539e+01 -9.044854948529916783e-01
1.576132478192448616e+00 -1.354676410555839539e+01 -9.063165495404916783e-01
1.731527986004948616e+00 -1.362256976962089539e+01 -9.080865690717416783e-01
6.191012281924486160e-01 -1.043458148837089539e+01 -7.268274137983041783e-01
9.018160719424486160e-01 -1.566187641024589539e+01 -9.309289762983041783e-01
1.077231111004948616e+00 -1.582361957430839539e+01 -9.351098845014291783e-01
1.107992829754948616e+00 -1.311487933993339539e+01 -8.270623991498666783e-01
1.427572907879948616e+00 -1.596400043368339539e+01 -9.361779997358041783e-01
1.604941071942448616e+00 -1.603504535555839539e+01 -9.367273161420541783e-01
1.787436189129948616e+00 -1.614039203524589539e+01 -9.385736296186166783e-01
1.976401032879948616e+00 -1.629883930087089539e+01 -9.424341032514291783e-01
6.177584547549486160e-01 -1.040980121493339539e+01 -6.723840544233041783e-01
7.499606031924486160e-01 -1.091590473055839539e+01 -6.884363005170541783e-01
1.226278962567448616e+00 -1.942615863680839539e+01 -9.808862516889291783e-01
1.104208650067448616e+00 -1.306226703524589539e+01 -7.589013884076791783e-01
1.094320954754948616e+00 -1.058558246493339539e+01 -6.720178434858041783e-01
1.211142243817448616e+00 -1.056263324618339539e+01 -6.696832487592416783e-01
1.327963532879948616e+00 -1.053968402743339539e+01 -6.676385710248666783e-01
1.444174470379948616e+00 -1.051685687899589539e+01 -6.653039762983041783e-01
6.167818922549486160e-01 -1.039612933993339539e+01 -6.182153532514291783e-01
7.409274000674486160e-01 -1.065577289462089539e+01 -6.244867155561166783e-01
8.590914625674486160e-01 -1.064112445712089539e+01 -6.224725553998666783e-01
9.746920485049486160e-01 -1.057484027743339539e+01 -6.189019987592416783e-01
1.091269196942448616e+00 -1.054810687899589539e+01 -6.165216276654916783e-01
1.207724275067448616e+00 -1.052601215243339539e+01 -6.142938444623666783e-01
1.341025056317448616e+00 -1.070997211337089539e+01 -6.181238005170541783e-01
1.458700837567448616e+00 -1.068580219149589539e+01 -6.158197233686166783e-01
6.006686110049486160e-01 -9.690562933683395386e+00 -5.467279264936166783e-01
7.087008375674486160e-01 -9.658092230558395386e+00 -5.444085905561166783e-01
8.161227125674486160e-01 -9.628062933683395386e+00 -5.421655485639291783e-01
9.236666578799486160e-01 -9.600597113370895386e+00 -5.399835417279916783e-01
1.029745759442448616e+00 -9.563243597745895386e+00 -5.375726530561166783e-01
1.136435212567448616e+00 -9.542369574308395386e+00 -5.355737516889291783e-01
1.243124665692448616e+00 -9.521373480558395386e+00 -5.335748503217416783e-01
1.349814118817448616e+00 -9.506969183683395386e+00 -5.317437956342416783e-01
5.994479078799486160e-01 -9.664684027433395386e+00 -4.957788298139291783e-01
7.071139235049486160e-01 -9.633800238370895386e+00 -4.936273405561166783e-01
8.144137281924486160e-01 -9.605113714933395386e+00 -4.915216276654916783e-01
9.218356031924486160e-01 -9.578868597745895386e+00 -4.894616911420541783e-01
1.029013337567448616e+00 -9.564098089933395386e+00 -4.876611540326791783e-01
1.135702790692448616e+00 -9.543224066495895386e+00 -4.857385466108041783e-01
1.242392243817448616e+00 -9.522227972745895386e+00 -4.838006803998666783e-01
1.347494782879948616e+00 -9.490123480558395386e+00 -4.816644499311166783e-01
5.981051344424486160e-01 -9.635387152433395386e+00 -4.452874968061166783e-01
7.055270094424486160e-01 -9.604625433683395386e+00 -4.432580778608041783e-01
8.124606031924486160e-01 -9.576060980558395386e+00 -4.412591764936166783e-01
9.195162672549486160e-01 -9.549815863370895386e+00 -4.393060514936166783e-01
1.028402986004948616e+00 -9.564952582120895386e+00 -4.380243132123666783e-01
1.134970368817448616e+00 -9.544078558683395386e+00 -4.361627409467416783e-01
1.241781892254948616e+00 -9.523082464933395386e+00 -4.343011686811166783e-01
1.344076814129948616e+00 -9.461803168058395386e+00 -4.318292448529916783e-01
5.970065016299486160e-01 -9.615489691495895386e+00 -3.949182341108041783e-01
7.041842360049486160e-01 -9.585338324308395386e+00 -3.930108854779916783e-01
8.109957594424486160e-01 -9.557140082120895386e+00 -3.913934538373666783e-01
9.178072828799486160e-01 -9.531261175870895386e+00 -3.895471403608041783e-01
1.024008454754948616e+00 -9.507091253995895386e+00 -3.877160856733041783e-01
1.130087556317448616e+00 -9.484996527433395386e+00 -3.859155485639291783e-01
1.236166657879948616e+00 -9.464366644620895386e+00 -3.838708708295541783e-01
1.341757478192448616e+00 -9.445201605558395386e+00 -3.821161100873666783e-01
5.962740797549486160e-01 -9.613902777433395386e+00 -3.451593229779916783e-01
7.034518141299486160e-01 -9.583995550870895386e+00 -3.433587858686166783e-01
8.102633375674486160e-01 -9.556407660245895386e+00 -3.415735075483041783e-01
9.171969313174486160e-01 -9.532481878995895386e+00 -3.398340055951791783e-01
1.023520173504948616e+00 -9.510509222745895386e+00 -3.381097624311166783e-01
1.129599275067448616e+00 -9.490123480558395386e+00 -3.363855192670541783e-01
1.235922517254948616e+00 -9.471324652433395386e+00 -3.346917936811166783e-01
1.341757478192448616e+00 -9.454112738370895386e+00 -3.330133268842416783e-01
5.987154860049486160e-01 -9.762218207120895386e+00 -2.955529997358041783e-01
7.073580641299486160e-01 -9.732188910245895386e+00 -2.941034147748666783e-01
8.156344313174486160e-01 -9.704112738370895386e+00 -2.924096891889291783e-01
9.239107985049486160e-01 -9.678233832120895386e+00 -2.907159636029916783e-01
1.031576814129948616e+00 -9.654308050870895386e+00 -2.890374968061166783e-01
1.138998689129948616e+00 -9.631602972745895386e+00 -2.873590300092416783e-01
1.246542634442448616e+00 -9.610606878995895386e+00 -2.856958220014291783e-01
1.353598298504948616e+00 -9.591197699308395386e+00 -2.837732145795541783e-01
5.981051344424486160e-01 -9.768565863370895386e+00 -2.451227018842416783e-01
7.066256422549486160e-01 -9.734386175870895386e+00 -2.435357878217416783e-01
8.149020094424486160e-01 -9.706554144620895386e+00 -2.419336149701791783e-01
9.233004469424486160e-01 -9.680797308683395386e+00 -2.403314421186166783e-01
1.030966462567448616e+00 -9.656993597745895386e+00 -2.387292692670541783e-01
1.138388337567448616e+00 -9.634532660245895386e+00 -2.371423552045541783e-01
1.245932282879948616e+00 -9.613536566495895386e+00 -2.355401823529916783e-01
1.352987946942448616e+00 -9.594005316495895386e+00 -2.339380095014291783e-01
5.979830641299486160e-01 -9.798717230558395386e+00 -1.942346403608041783e-01
7.060152906924486160e-01 -9.738414496183395386e+00 -1.932123014936166783e-01
8.144137281924486160e-01 -9.710704535245895386e+00 -1.917016813764291783e-01
9.226900953799486160e-01 -9.684825628995895386e+00 -1.901910612592416783e-01
1.030478181317448616e+00 -9.661021918058395386e+00 -1.886804411420541783e-01
1.137900056317448616e+00 -9.638560980558395386e+00 -1.871545622358041783e-01
1.245444001629948616e+00 -9.617442816495895386e+00 -1.856286833295541783e-01
1.352621736004948616e+00 -9.598033636808395386e+00 -1.838281462201791783e-01
5.974947828799486160e-01 -9.807018011808395386e+00 -1.435907194623666783e-01
7.055270094424486160e-01 -9.743053168058395386e+00 -1.425836393842416783e-01
8.138033766299486160e-01 -9.715343207120895386e+00 -1.411798307904916783e-01
9.222018141299486160e-01 -9.689586371183395386e+00 -1.397455046186166783e-01
1.029989900067448616e+00 -9.665782660245895386e+00 -1.383111784467416783e-01
1.137411775067448616e+00 -9.643199652433395386e+00 -1.368768522748666783e-01
1.245077790692448616e+00 -9.622203558683395386e+00 -1.354120085248666783e-01
1.352255525067448616e+00 -9.602794378995895386e+00 -1.339319059858041783e-01
5.968844313174486160e-01 -9.813609808683395386e+00 -9.262636399361667827e-02
7.049166578799486160e-01 -9.749156683683395386e+00 -9.189394211861667827e-02
8.133150953799486160e-01 -9.721324652433395386e+00 -9.085634446236667827e-02
9.217135328799486160e-01 -9.695445746183395386e+00 -8.952882981392917827e-02
1.029501618817448616e+00 -9.671642035245895386e+00 -8.817079758736667827e-02
1.137045564129948616e+00 -9.649059027433395386e+00 -8.681276536080417827e-02
1.244833650067448616e+00 -9.628062933683395386e+00 -8.514955735299167827e-02
1.352011384442448616e+00 -9.608653753995895386e+00 -8.373048997017917827e-02
5.959078688174486160e-01 -9.802379339933395386e+00 -4.198244309517917827e-02
7.044283766299486160e-01 -9.755626410245895386e+00 -4.143312668892917827e-02
8.128268141299486160e-01 -9.727794378995895386e+00 -4.022768235299167827e-02
9.213473219424486160e-01 -9.702037543058395386e+00 -3.897646164986667827e-02
1.029135407879948616e+00 -9.678111761808395386e+00 -3.770998215767917827e-02
1.136801423504948616e+00 -9.655528753995895386e+00 -3.641298508736667827e-02
1.244467439129948616e+00 -9.634532660245895386e+00 -3.508547043892917827e-02
1.351767243817448616e+00 -9.615733832120895386e+00 -3.345278000924167827e-02
1.189535798504948616e+00 -7.690685003995895386e+00 -8.584802458295541783e-01
1.282309236004948616e+00 -7.719127386808395386e+00 -8.594110319623666783e-01
1.375448884442448616e+00 -7.744151800870895386e+00 -8.603113005170541783e-01
1.469809236004948616e+00 -7.769298285245895386e+00 -8.612268278608041783e-01
1.564535798504948616e+00 -7.794688910245895386e+00 -8.621423552045541783e-01
1.659994782879948616e+00 -7.820201605558395386e+00 -8.630578825483041783e-01
1.756674470379948616e+00 -7.846080511808395386e+00 -8.640039274701791783e-01
1.853110017254948616e+00 -7.868053168058395386e+00 -8.649041960248666783e-01
1.260580720379948616e+00 -8.467662543058395386e+00 -8.649804899701791783e-01
1.361410798504948616e+00 -8.497935980558395386e+00 -8.659875700483041783e-01
1.463583650067448616e+00 -8.533092230558395386e+00 -8.670404264936166783e-01
1.566488923504948616e+00 -8.564098089933395386e+00 -8.680627653608041783e-01
1.670004548504948616e+00 -8.595226019620895386e+00 -8.690851042279916783e-01
1.774496736004948616e+00 -8.626720160245895386e+00 -8.701227018842416783e-01
1.879599275067448616e+00 -8.653819769620895386e+00 -8.711450407514291783e-01
1.985800446942448616e+00 -8.685680121183395386e+00 -8.721978971967416783e-01
1.345175446942448616e+00 -9.392589300870895386e+00 -8.727166960248666783e-01
1.456015290692448616e+00 -9.430186957120895386e+00 -8.738458464154916783e-01
1.567831696942448616e+00 -9.468028753995895386e+00 -8.749902555951791783e-01
1.681235017254948616e+00 -9.506602972745895386e+00 -8.761499235639291783e-01
1.795248689129948616e+00 -9.545299261808395386e+00 -8.773248503217416783e-01
1.910483064129948616e+00 -9.584361761808395386e+00 -8.784997770795541783e-01
2.027182282879948616e+00 -9.623912543058395386e+00 -8.796899626264291783e-01
2.146078767254948616e+00 -9.672496527433395386e+00 -8.813836882123666783e-01
1.436972321942448616e+00 -1.039759418368339539e+01 -8.763788053998666783e-01
1.561728181317448616e+00 -1.047291156649589539e+01 -8.788659880170541783e-01
1.687704743817448616e+00 -1.054249164462089539e+01 -8.813073942670541783e-01
1.815878571942448616e+00 -1.061341449618339539e+01 -8.838098356733041783e-01
1.945517243817448616e+00 -1.068506976962089539e+01 -8.863427946576791783e-01
2.076620759442448616e+00 -1.075477191805839539e+01 -8.887384245404916783e-01
2.125937165692448616e+00 -1.027491351962089539e+01 -8.626611540326791783e-01
2.337118806317448616e+00 -1.084876605868339539e+01 -8.914544889936166783e-01
1.565756501629948616e+00 -1.180506488680839539e+01 -8.897149870404916783e-01
1.708212556317448616e+00 -1.191505023837089539e+01 -8.935754606733041783e-01
1.851401032879948616e+00 -1.200904437899589539e+01 -8.966424772748666783e-01
1.993490876629948616e+00 -1.207203266024589539e+01 -8.982141325483041783e-01
2.136801423504948616e+00 -1.213550922274589539e+01 -8.997857878217416783e-01
2.281820954754948616e+00 -1.219971820712089539e+01 -9.013879606733041783e-01
2.112265290692448616e+00 -1.019214984774589539e+01 -8.052575895795541783e-01
2.577841462567448616e+00 -1.233069965243339539e+01 -9.046533415326791783e-01
1.732016267254948616e+00 -1.362293598055839539e+01 -9.081018278608041783e-01
1.890829743817448616e+00 -1.371461078524589539e+01 -9.100091764936166783e-01
2.052939118817448616e+00 -1.381592914462089539e+01 -9.126794645795541783e-01
2.218832673504948616e+00 -1.392371723055839539e+01 -9.155938932904916783e-01
2.387777986004948616e+00 -1.403870746493339539e+01 -9.187829802045541783e-01
2.560751618817448616e+00 -1.416382953524589539e+01 -9.223840544233041783e-01
2.104819001629948616e+00 -1.014942523837089539e+01 -7.500665495404916783e-01
2.662192048504948616e+00 -1.285547992587089539e+01 -8.637903044233041783e-01
1.977011384442448616e+00 -1.629969379305839539e+01 -9.424493620404916783e-01
2.169027986004948616e+00 -1.645228168368339539e+01 -9.462488005170541783e-01
2.364706696942448616e+00 -1.660804340243339539e+01 -9.501245329389291783e-01
2.564169587567448616e+00 -1.675867816805839539e+01 -9.537561247358041783e-01
2.762411775067448616e+00 -1.687879535555839539e+01 -9.561975309858041783e-01
1.991049470379948616e+00 -1.017396137118339539e+01 -6.994684050092416783e-01
2.099936189129948616e+00 -1.012281391024589539e+01 -6.961725065717416783e-01
2.649740876629948616e+00 -1.278626605868339539e+01 -7.952936003217416783e-01
1.444540681317448616e+00 -1.051673480868339539e+01 -6.653039762983041783e-01
