1.542704384773969650e-01 -1.103345400094985962e+01 6.000016249017789960e-01
2.356913369148969650e-01 -1.105567079782485962e+01 6.061203993158414960e-01
3.171122353523969650e-01 -1.108887392282485962e+01 6.125138319330289960e-01
-2.572285849601030350e-01 -1.099268251657485962e+01 6.164048231439664960e-01
-1.756856162101030350e-01 -1.099793154001235962e+01 6.221421278314664960e-01
-9.414264746010303497e-02 -1.100476747751235962e+01 6.279099500970914960e-01
-1.247760839760303497e-02 -1.101624208688735962e+01 6.335862196283414960e-01
6.882121972739696503e-02 -1.103272157907485962e+01 6.396134413080289960e-01
1.498759072273969650e-01 -1.106616884469985962e+01 6.463578260736539960e-01
2.315409462898969650e-01 -1.108850771188735962e+01 6.525834120111539960e-01
3.129618447273969650e-01 -1.113892275094985962e+01 6.595871961908414960e-01
-2.605244833976030350e-01 -1.099426943063735962e+01 6.618454969720914960e-01
-1.788594443351030350e-01 -1.099939638376235962e+01 6.673539198236539960e-01
-9.743854589760303497e-02 -1.100684267282485962e+01 6.731522596674039960e-01
-1.577350683510303497e-02 -1.101941591501235962e+01 6.791337049799039960e-01
6.552532128989696503e-02 -1.103504091501235962e+01 6.851914442377164960e-01
1.470682900398969650e-01 -1.105786806344985962e+01 6.915085829095914960e-01
2.282450478523969650e-01 -1.109107118844985962e+01 6.981461561517789960e-01
3.094218056648969650e-01 -1.115259462594985962e+01 7.059586561517789960e-01
3.661845009773969650e-01 -1.148987489938735962e+01 -1.856429063482210040e-01
4.518778603523969650e-01 -1.150830751657485962e+01 -1.804091416997835040e-01
5.378153603523969650e-01 -1.152197939157485962e+01 -1.751601182622835040e-01
6.242411416023969650e-01 -1.153589540719985962e+01 -1.698805772466585040e-01
7.109110634773969650e-01 -1.155774599313735962e+01 -1.650282823247835040e-01
7.983134072273969650e-01 -1.158399111032485962e+01 -1.603590928716585040e-01
8.858378212898969650e-01 -1.161035829782485962e+01 -1.556899034185335040e-01
9.737284462898969650e-01 -1.163196474313735962e+01 -1.510054551763460040e-01
3.483622353523969650e-01 -1.250391298532485962e+01 -1.895033799810335040e-01
4.474833291023969650e-01 -1.167517763376235962e+01 -1.413161241216585040e-01
5.347636025398969650e-01 -1.167786318063735962e+01 -1.353499375982210040e-01
6.319315712898969650e-01 -1.256946474313735962e+01 -1.727034532232210040e-01
7.272684853523969650e-01 -1.260266786813735962e+01 -1.676833116216585040e-01
8.234598916023969650e-01 -1.263330751657485962e+01 -1.627852403325960040e-01
9.201395791023969650e-01 -1.267090517282485962e+01 -1.579176866216585040e-01
1.017429618164896965e+00 -1.270886904001235962e+01 -1.530043565435335040e-01
3.271220009773969650e-01 -1.371765810251235962e+01 -1.932570420904085040e-01
4.444315712898969650e-01 -1.161585146188735962e+01 -9.012288681697100401e-02
5.312235634773969650e-01 -1.161939150094985962e+01 -8.421773544978350401e-02
6.412089150398969650e-01 -1.383216005563735962e+01 -1.764876329107210040e-01
7.471659462898969650e-01 -1.387073427438735962e+01 -1.708266221685335040e-01
8.540995400398969650e-01 -1.390967470407485962e+01 -1.651198350591585040e-01
9.613993447273969650e-01 -1.394861513376235962e+01 -1.593825303716585040e-01
1.069309500977396965e+00 -1.398792177438735962e+01 -1.536299668950960040e-01
3.113749306648969650e-01 -1.449903017282485962e+01 -1.682173692388460040e-01
4.413798134773969650e-01 -1.157898622751235962e+01 -4.039449326228350401e-02
5.278055947273969650e-01 -1.158203798532485962e+01 -3.447408310603350401e-02
6.519511025398969650e-01 -1.531690126657485962e+01 -1.772353135747835040e-01
7.706034462898969650e-01 -1.537695986032485962e+01 -1.713759385747835040e-01
8.905985634773969650e-01 -1.543726259469985962e+01 -1.654250108404085040e-01
1.011326102539896965e+00 -1.549915224313735962e+01 -1.595046006841585040e-01
1.133152274414896965e+00 -1.556287294626235962e+01 -1.539351426763460040e-01
3.084452431648969650e-01 -1.441065126657485962e+01 -1.034743272466585040e-01
4.382059853523969650e-01 -1.155469423532485962e+01 8.281043847091495991e-03
5.243876259773969650e-01 -1.155762392282485962e+01 1.420145400334149599e-02
6.668436806648969650e-01 -1.731897646188735962e+01 -1.829573594732210040e-01
8.024637978523969650e-01 -1.741028505563735962e+01 -1.767470323247835040e-01
9.402811806648969650e-01 -1.750305849313735962e+01 -1.704451524419710040e-01
1.079197196289896965e+00 -1.759668642282485962e+01 -1.640974961919710040e-01
1.219700125977396965e+00 -1.769129091501235962e+01 -1.576582872075960040e-01
3.558085244148969650e-01 -1.108582216501235962e+01 6.510477431584149599e-02
4.373514931648969650e-01 -1.120520693063735962e+01 6.731729872990399599e-02
5.208475869148969650e-01 -1.139624696969985962e+01 6.719522841740399599e-02
6.864970009773969650e-01 -1.997803407907485962e+01 -1.900679551763460040e-01
8.454325478523969650e-01 -2.013989931344985962e+01 -1.840102159185335040e-01
1.009006766602396965e+00 -2.035584169626235962e+01 -1.793257676763460040e-01
1.175998954102396965e+00 -2.058045107126235962e+01 -1.746718370122835040e-01
1.346042899414896965e+00 -2.078894716501235962e+01 -1.697737657232210040e-01
3.534891884773969650e-01 -1.102905946969985962e+01 1.124527967767789960e-01
4.347880166023969650e-01 -1.111926943063735962e+01 1.157334364252164960e-01
5.175516884773969650e-01 -1.137378603219985962e+01 1.147263563470914960e-01
7.153055947273969650e-01 -2.384766298532485962e+01 -2.048537217779085040e-01
9.084208291023969650e-01 -2.413330751657485962e+01 -1.989638291997835040e-01
1.110080985352396965e+00 -2.454163271188735962e+01 -1.957442247075960040e-01
1.318699149414896965e+00 -2.497376161813735962e+01 -1.926772081060335040e-01
1.535251883789896965e+00 -2.542261415719985962e+01 -1.895186387700960040e-01
3.506815712898969650e-01 -1.100781923532485962e+01 1.581986463861539960e-01
4.316141884773969650e-01 -1.110523134469985962e+01 1.617234266595914960e-01
5.142557900398969650e-01 -1.136548525094985962e+01 1.619980848627164960e-01
7.627909462898969650e-01 -3.013904482126235962e+01 -2.356612168950960040e-01
1.013767508789896965e+00 -3.077258974313735962e+01 -2.320754014654085040e-01
1.289890555664896965e+00 -3.194776064157485962e+01 -2.386977159185335040e-01
1.586399344727396965e+00 -3.317334657907485962e+01 -2.457777940435335040e-01
1.933079032227396965e+00 -3.510938173532485962e+01 -2.643324815435335040e-01
3.477518837898969650e-01 -1.098963075876235962e+01 2.039292372064664960e-01
4.284403603523969650e-01 -1.110230165719985962e+01 2.076066053705289960e-01
5.109598916023969650e-01 -1.134009462594985962e+01 2.092392958002164960e-01
8.696024697273969650e-01 -4.399646669626235962e+01 -3.375288926763460040e-01
1.287815360352396965e+00 -4.779065614938735962e+01 -3.746382676763460040e-01
1.846531180664896965e+00 -5.462988954782485962e+01 -4.552046739263460040e-01
2.583103446289896965e+00 -6.344641786813735962e+01 -5.579421006841585040e-01
3.436497000977396965e+00 -7.155603700876235962e+01 -6.400954209966585040e-01
3.448221962898969650e-01 -1.098169618844985962e+01 2.490952528314664960e-01
4.252665322273969650e-01 -1.109570986032485962e+01 2.532761610345914960e-01
5.076639931648969650e-01 -1.132251650094985962e+01 2.561448133783414960e-01
3.416483681648969650e-01 -1.097778993844985962e+01 2.943985975580289960e-01
4.223368447273969650e-01 -1.106702333688735962e+01 2.993271864252164960e-01
5.044901650398969650e-01 -1.130298525094985962e+01 3.031418836908414960e-01
3.385966103523969650e-01 -1.097095400094985962e+01 3.394272840814664960e-01
4.194071572273969650e-01 -1.104651552438735962e+01 3.448288954095914960e-01
5.011942666023969650e-01 -1.130335146188735962e+01 3.496354139642789960e-01
3.354227822273969650e-01 -1.097388368844985962e+01 3.846390760736539960e-01
4.162333291023969650e-01 -1.104309755563735962e+01 3.903763807611539960e-01
4.978983681648969650e-01 -1.130640321969985962e+01 3.961289442377164960e-01
3.321268837898969650e-01 -1.098377138376235962e+01 4.296525038080289960e-01
4.129374306648969650e-01 -1.105530458688735962e+01 4.357407606439664960e-01
4.946024697273969650e-01 -1.131726747751235962e+01 4.429276502924039960e-01
3.283427041023969650e-01 -1.101758486032485962e+01 4.751999891595914960e-01
4.093973916023969650e-01 -1.108753114938735962e+01 4.813797987299039960e-01
4.913065712898969650e-01 -1.135010439157485962e+01 4.898026502924039960e-01
3.244364541023969650e-01 -1.105774599313735962e+01 5.209000624017789960e-01
4.057352822273969650e-01 -1.113037782907485962e+01 5.277054823236539960e-01
4.877665322273969650e-01 -1.142407900094985962e+01 5.378220594720914960e-01
3.208964150398969650e-01 -1.107520204782485962e+01 5.667984999017789960e-01
4.023173134773969650e-01 -1.115027529001235962e+01 5.737565077142789960e-01
4.843485634773969650e-01 -1.150110536813735962e+01 5.863297499017789960e-01
3.173563759773969650e-01 -1.108911806344985962e+01 6.125290907220914960e-01
3.987772744148969650e-01 -1.117945009469985962e+01 6.204484022455289960e-01
4.804423134773969650e-01 -1.170191103219985962e+01 6.387131727533414960e-01
3.132059853523969650e-01 -1.113928896188735962e+01 6.596177137689664960e-01
3.953593056648969650e-01 -1.119800478219985962e+01 6.670945204095914960e-01
4.709208291023969650e-01 -1.364368349313735962e+01 7.422593153314664960e-01
3.096659462898969650e-01 -1.115308290719985962e+01 7.060044325189664960e-01
3.915751259773969650e-01 -1.124304872751235962e+01 7.145188368158414960e-01
4.668925087898969650e-01 -1.365296083688735962e+01 7.997239149408414960e-01
5.706522744148969650e-01 -1.362268739938735962e+01 8.060563124017789960e-01
9.739725869148969650e-01 -1.163233095407485962e+01 -1.509901963872835040e-01
1.062473563477396965e+00 -1.165955263376235962e+01 -1.462752305669710040e-01
1.151340750977396965e+00 -1.168213564157485962e+01 -1.415297471685335040e-01
1.240574149414896965e+00 -1.170044618844985962e+01 -1.365248643560335040e-01
1.329441336914896965e+00 -1.171216493844985962e+01 -1.311842881841585040e-01
1.419040946289896965e+00 -1.172400575876235962e+01 -1.258131944341585040e-01
1.508518485352396965e+00 -1.173584657907485962e+01 -1.204421006841585040e-01
1.597751883789896965e+00 -1.174195009469985962e+01 -1.150404893560335040e-01
1.017795829102396965e+00 -1.270899111032485962e+01 -1.529890977544710040e-01
1.115085868164896965e+00 -1.273303896188735962e+01 -1.476180040044710040e-01
1.212253836914896965e+00 -1.274573427438735962e+01 -1.416823350591585040e-01
1.310398368164896965e+00 -1.276428896188735962e+01 -1.357008897466585040e-01
1.408176688477396965e+00 -1.277710634469985962e+01 -1.297347032232210040e-01
1.506199149414896965e+00 -1.278406435251235962e+01 -1.237532579107210040e-01
1.604587821289896965e+00 -1.279700380563735962e+01 -1.177412950200960040e-01
1.706638602539896965e+00 -1.284204775094985962e+01 -1.130873643560335040e-01
1.069675711914896965e+00 -1.398828798532485962e+01 -1.536147081060335040e-01
1.178196219727396965e+00 -1.402307802438735962e+01 -1.478163682622835040e-01
1.287327079102396965e+00 -1.405811220407485962e+01 -1.420027696294710040e-01
1.397556571289896965e+00 -1.409339052438735962e+01 -1.361128770513460040e-01
1.508152274414896965e+00 -1.412891298532485962e+01 -1.302077256841585040e-01
1.619968680664896965e+00 -1.416467958688735962e+01 -1.242415391607210040e-01
1.738010672852396965e+00 -1.426465517282485962e+01 -1.207320176763460040e-01
1.860080985352396965e+00 -1.438635927438735962e+01 -1.179396592779085040e-01
1.133640555664896965e+00 -1.556336122751235962e+01 -1.539198838872835040e-01
1.257297782227396965e+00 -1.564050966501235962e+01 -1.482588731450960040e-01
1.381931571289896965e+00 -1.570947939157485962e+01 -1.425520860357210040e-01
1.508274344727396965e+00 -1.577942568063735962e+01 -1.367690049810335040e-01
1.635593680664896965e+00 -1.584986025094985962e+01 -1.309401475591585040e-01
1.768528250977396965e+00 -1.596619325876235962e+01 -1.265913926763460040e-01
1.908787040039896965e+00 -1.614356142282485962e+01 -1.242110215825960040e-01
2.053196219727396965e+00 -1.633142763376235962e+01 -1.223341905279085040e-01
1.220188407227396965e+00 -1.769202333688735962e+01 -1.576582872075960040e-01
1.362156180664896965e+00 -1.778186708688735962e+01 -1.511580430669710040e-01
1.505832938477396965e+00 -1.787280946969985962e+01 -1.445815049810335040e-01
1.651706961914896965e+00 -1.796521669626235962e+01 -1.379134141607210040e-01
1.810520438477396965e+00 -1.821118837594985962e+01 -1.358534776372835040e-01
1.980442313477396965e+00 -1.853162294626235962e+01 -1.357314073247835040e-01
2.156467704102396965e+00 -1.886377626657485962e+01 -1.355940782232210040e-01
2.339451102539896965e+00 -1.920911318063735962e+01 -1.354567491216585040e-01
1.346653250977396965e+00 -2.079041200876235962e+01 -1.697890245122835040e-01
1.522312430664896965e+00 -2.103894716501235962e+01 -1.649825059575960040e-01
1.701755790039896965e+00 -2.127747255563735962e+01 -1.600996934575960040e-01
1.891819266602396965e+00 -2.160303407907485962e+01 -1.572157823247835040e-01
2.094211844727396965e+00 -2.202539736032485962e+01 -1.564986192388460040e-01
2.317600516602396965e+00 -2.260437685251235962e+01 -1.592299424810335040e-01
2.553196219727396965e+00 -2.321497255563735962e+01 -1.621291124029085040e-01
2.813450125977396965e+00 -2.396619325876235962e+01 -1.682784043950960040e-01
1.536106375977396965e+00 -2.542627626657485962e+01 -1.895491563482210040e-01
1.768284110352396965e+00 -2.603418642282485962e+01 -1.897322618169710040e-01
2.034641532227396965e+00 -2.704712587594985962e+01 -1.983534776372835040e-01
2.320530204102396965e+00 -2.808545595407485962e+01 -2.063033067388460040e-01
2.626438407227396965e+00 -2.916565614938735962e+01 -2.139937364263460040e-01
3.041843680664896965e+00 -3.132459169626235962e+01 -2.429091416997835040e-01
3.519871024414896965e+00 -3.377783876657485962e+01 -2.753493272466585040e-01
4.201633719727396965e+00 -3.784632021188735962e+01 -3.368117295904085040e-01
1.934665946289896965e+00 -3.512329775094985962e+01 -2.645308458013460040e-01
2.371799735352396965e+00 -3.821631532907485962e+01 -3.025557481450960040e-01
2.918308524414896965e+00 -4.229651552438735962e+01 -3.537795030279085040e-01
3.999485282227396965e+00 -5.333484560251235962e+01 -5.224501573247835040e-01
5.655491141602396965e+00 -6.958533388376235962e+01 -7.663008653325960040e-01
6.620945243164896965e+00 -7.429321962594985962e+01 -8.032118760747835040e-01
7.634983329102396965e+00 -7.868591982126235962e+01 -8.317000352544710040e-01
8.737400321289896965e+00 -8.322400575876235962e+01 -8.554732286138460040e-01
3.440159110352396965e+00 -7.159412294626235962e+01 -6.405074083013460040e-01
4.338108329102396965e+00 -7.788379579782485962e+01 -6.879012071294710040e-01
5.337009696289896965e+00 -8.409912782907485962e+01 -7.269789659185335040e-01
1.597996024414896965e+00 -1.174195009469985962e+01 -1.150252305669710040e-01
1.690891532227396965e+00 -1.177893739938735962e+01 -1.107527696294710040e-01
1.788791922852396965e+00 -1.185095888376235962e+01 -1.083113633794710040e-01
1.888523368164896965e+00 -1.192444521188735962e+01 -1.058241807622835040e-01
1.989597586914896965e+00 -1.199890810251235962e+01 -1.033217393560335040e-01
2.092624930664896965e+00 -1.207471376657485962e+01 -1.007582627935335040e-01
2.196995047852396965e+00 -1.215161806344985962e+01 -9.816426865290850401e-02
2.299900321289896965e+00 -1.221082216501235962e+01 -9.497518173884600401e-02
1.707126883789896965e+00 -1.284278017282485962e+01 -1.131026231450960040e-01
1.813328055664896965e+00 -1.291748720407485962e+01 -1.098677598638460040e-01
1.921238211914896965e+00 -1.299329286813735962e+01 -1.065718614263460040e-01
2.031833915039896965e+00 -1.307703310251235962e+01 -1.031996690435335040e-01
2.143284110352396965e+00 -1.315698915719985962e+01 -9.987325302790850401e-02
2.257908133789896965e+00 -1.324500185251235962e+01 -9.706563584040850401e-02
2.375217704102396965e+00 -1.334253603219985962e+01 -9.422750107478350401e-02
2.494724540039896965e+00 -1.344190126657485962e+01 -9.134358994197100401e-02
1.860569266602396965e+00 -1.438709169626235962e+01 -1.179396592779085040e-01
1.984470633789896965e+00 -1.450464540719985962e+01 -1.150710069341585040e-01
2.110813407227396965e+00 -1.462464052438735962e+01 -1.121260606450960040e-01
2.240207938477396965e+00 -1.474744325876235962e+01 -1.091200791997835040e-01
2.371799735352396965e+00 -1.487232118844985962e+01 -1.060683213872835040e-01
2.506565360352396965e+00 -1.500025087594985962e+01 -1.029250108404085040e-01
2.643650321289896965e+00 -1.513049989938735962e+01 -9.975118271540850401e-02
2.800754813477396965e+00 -1.536914736032485962e+01 -1.001173936529085040e-01
2.053928641602396965e+00 -1.633399111032485962e+01 -1.223952256841585040e-01
2.204441336914896965e+00 -1.654602724313735962e+01 -1.205641709966585040e-01
2.357883719727396965e+00 -1.675049501657485962e+01 -1.186110459966585040e-01
2.516330985352396965e+00 -1.696167665719985962e+01 -1.165968858404085040e-01
2.682102469727396965e+00 -1.720130068063735962e+01 -1.152541124029085040e-01
2.874363211914896965e+00 -1.759278017282485962e+01 -1.182448350591585040e-01
3.076023368164896965e+00 -1.800318056344985962e+01 -1.213881456060335040e-01
3.285373954102396965e+00 -1.841638857126235962e+01 -1.245619737310335040e-01
2.340305594727396965e+00 -1.921204286813735962e+01 -1.355025254888460040e-01
2.529880790039896965e+00 -1.956140810251235962e+01 -1.352889024419710040e-01
2.733860282227396965e+00 -1.997998720407485962e+01 -1.365858995122835040e-01
2.961399344727396965e+00 -2.052356630563735962e+01 -1.407515489263460040e-01
3.202244071289896965e+00 -2.109863954782485962e+01 -1.451613389654085040e-01
3.509739188477396965e+00 -2.206397157907485962e+01 -1.590620958013460040e-01
3.806614188477396965e+00 -2.285401064157485962e+01 -1.673933946294710040e-01
4.127414969727396965e+00 -2.370740419626235962e+01 -1.763960801763460040e-01
2.815159110352396965e+00 -2.397571474313735962e+01 -1.684615098638460040e-01
3.112888602539896965e+00 -2.495227724313735962e+01 -1.781966172857210040e-01
3.494724540039896965e+00 -2.650000673532485962e+01 -2.005965196294710040e-01
3.853611258789896965e+00 -2.764978700876235962e+01 -2.121626817388460040e-01
4.322483329102396965e+00 -2.947583681344985962e+01 -2.373549424810335040e-01
4.963108329102396965e+00 -3.227783876657485962e+01 -2.813460313482210040e-01
5.867405204102396965e+00 -3.650977236032485962e+01 -3.520705186529085040e-01
7.592502860352396965e+00 -4.542249208688735962e+01 -5.142256700200960040e-01
4.212986258789896965e+00 -3.794910341501235962e+01 -3.387801133794710040e-01
5.413425711914896965e+00 -4.614050966501235962e+01 -4.747969590825960040e-01
7.255466727539896965e+00 -5.862341982126235962e+01 -6.812025987310335040e-01
7.745823172852396965e+00 -5.866858583688735962e+01 -6.489607774419710040e-01
8.150120047852396965e+00 -5.807105165719985962e+01 -6.055037461919710040e-01
6.904758719727396965e+00 -4.596155458688735962e+01 -3.683363877935335040e-01
7.237400321289896965e+00 -4.565405946969985962e+01 -3.374831163091585040e-01
7.555271415039896965e+00 -4.528211122751235962e+01 -3.059126817388460040e-01
8.743015555664896965e+00 -8.325549989938735962e+01 -8.557784043950960040e-01
6.734104422852396965e+00 -5.843543154001235962e+01 -4.469191514654085040e-01
7.220798758789896965e+00 -5.848938661813735962e+01 -4.132124864263460040e-01
7.685276297852396965e+00 -5.833826357126235962e+01 -3.779341661138460040e-01
6.484226493164896965e+00 -4.576709657907485962e+01 -1.837813340825960040e-01
6.889744071289896965e+00 -4.596094423532485962e+01 -1.601607286138460040e-01
7.231663016602396965e+00 -4.571485048532485962e+01 -1.323286973638460040e-01
7.599582938477396965e+00 -4.565235048532485962e+01 -1.056563340825960040e-01
6.720554618164896965e+00 -5.848450380563735962e+01 -1.824690782232210040e-01
7.241428641602396965e+00 -5.882800966501235962e+01 -1.523329698247835040e-01
7.682102469727396965e+00 -5.846301943063735962e+01 -1.153914415044710040e-01
8.211399344727396965e+00 -5.881311708688735962e+01 -8.478231064509600401e-02
6.874851493164896965e+00 -4.596106630563735962e+01 4.687052138615399599e-02
7.261936454102396965e+00 -4.601428896188735962e+01 7.277994521427899599e-02
7.649631766602396965e+00 -4.606140810251235962e+01 9.885721572209149599e-02
6.761692313477396965e+00 -5.904028993844985962e+01 7.828836806584149599e-02
7.224949149414896965e+00 -5.885034853219985962e+01 1.131547010736539960e-01
7.795627860352396965e+00 -5.952442079782485962e+01 1.443741834955289960e-01
8.174778250977396965e+00 -5.868091493844985962e+01 1.817734754877164960e-01
8.688205985352396965e+00 -5.886719423532485962e+01 2.152970350580289960e-01
7.244358329102396965e+00 -4.599683290719985962e+01 2.802994764642789960e-01
7.670872000977396965e+00 -4.628955751657485962e+01 3.063614881830289960e-01
7.709324149414896965e+00 -5.898706728219985962e+01 4.146073377924039960e-01
8.205906180664896965e+00 -5.905982118844985962e+01 4.490464247064664960e-01
8.702732352539896965e+00 -5.910608583688735962e+01 4.836991346674039960e-01
7.299167899414896965e+00 -4.646265321969985962e+01 4.898484266595914960e-01
7.620090750977396965e+00 -4.606433779001235962e+01 5.158036268549039960e-01
7.291233329102396965e+00 -4.651038271188735962e+01 6.996872938470914960e-01
2.300510672852396965e+00 -1.221204286813735962e+01 -9.500569931697100401e-02
2.406101493164896965e+00 -1.227954775094985962e+01 -9.178609482478350401e-02
2.512424735352396965e+00 -1.234229189157485962e+01 -8.855123154353350401e-02
2.620579032227396965e+00 -1.240613466501235962e+01 -8.525533310603350401e-02
2.735080985352396965e+00 -1.249658876657485962e+01 -8.298177353572100401e-02
2.854587821289896965e+00 -1.260120302438735962e+01 -8.116597763728350401e-02
2.976291922852396965e+00 -1.270777040719985962e+01 -7.931966416072100401e-02
3.104587821289896965e+00 -1.283399111032485962e+01 -7.840413681697100401e-02
2.495456961914896965e+00 -1.344361025094985962e+01 -9.138936630915850401e-02
2.616184500977396965e+00 -1.353821474313735962e+01 -8.842916123103350401e-02
2.749973563477396965e+00 -1.369580751657485962e+01 -8.772725693415850401e-02
2.895603446289896965e+00 -1.389807802438735962e+01 -8.816976181697100401e-02
3.043918875977396965e+00 -1.409632021188735962e+01 -8.856649033259600401e-02
3.195652274414896965e+00 -1.429126650094985962e+01 -8.890218369197100401e-02
3.354465750977396965e+00 -1.450330263376235962e+01 -8.931417099665850401e-02
3.518894461914896965e+00 -1.472327333688735962e+01 -8.974141709040850401e-02
2.801609305664896965e+00 -1.537171083688735962e+01 -1.001784288091585040e-01
2.964695243164896965e+00 -1.562012392282485962e+01 -1.008345567388460040e-01
3.134128836914896965e+00 -1.587818056344985962e+01 -1.015059434575960040e-01
3.311008719727396965e+00 -1.614734560251235962e+01 -1.022231065435335040e-01
3.494236258789896965e+00 -1.642664247751235962e+01 -1.029555284185335040e-01
3.687839774414896965e+00 -1.672852236032485962e+01 -1.040541612310335040e-01
3.900852469727396965e+00 -1.709729677438735962e+01 -1.068922959966585040e-01
4.161960868164896965e+00 -1.765320497751235962e+01 -1.149794541997835040e-01
3.286594657227396965e+00 -1.842114931344985962e+01 -1.246687852544710040e-01
3.512058524414896965e+00 -1.888513857126235962e+01 -1.282393418950960040e-01
3.746799735352396965e+00 -1.935449892282485962e+01 -1.318251573247835040e-01
4.046970633789896965e+00 -2.012708193063735962e+01 -1.433302842779085040e-01
4.365818290039896965e+00 -2.092737489938735962e+01 -1.547285997075960040e-01
4.668186454102396965e+00 -2.157324892282485962e+01 -1.610152208013460040e-01
4.954563407227396965e+00 -2.209155946969985962e+01 -1.632277452154085040e-01
5.332493094727396965e+00 -2.298120790719985962e+01 -1.749159776372835040e-01
4.129246024414896965e+00 -2.371448427438735962e+01 -1.765334092779085040e-01
4.549656180664896965e+00 -2.506848818063735962e+01 -1.970412217779085040e-01
4.940159110352396965e+00 -2.612012392282485962e+01 -2.087904893560335040e-01
5.437473563477396965e+00 -2.764185243844985962e+01 -2.302138291997835040e-01
5.959324149414896965e+00 -2.915564638376235962e+01 -2.497603379888460040e-01
6.955784110352396965e+00 -3.287097841501235962e+01 -3.163496934575960040e-01
9.671848563477396965e+00 -4.440491396188735962e+01 -5.478102647466585040e-01
1.017221477441489697e+01 -4.497498232126235962e+01 -5.352522813482210040e-01
7.594089774414896965e+00 -4.542383486032485962e+01 -5.141798936529085040e-01
7.929661063477396965e+00 -4.518225771188735962e+01 -4.833113633794710040e-01
8.391453055664896965e+00 -4.567005068063735962e+01 -4.677473985357210040e-01
8.902073172852396965e+00 -4.636243349313735962e+01 -4.552657090825960040e-01
9.006687430664896965e+00 -4.490283876657485962e+01 -4.031264268560335040e-01
9.322117118164896965e+00 -4.459436708688735962e+01 -3.726393663091585040e-01
9.632297782227396965e+00 -4.428699404001235962e+01 -3.425185166997835040e-01
1.013766887597739697e+01 -4.488526064157485962e+01 -3.285872422857210040e-01
7.556858329102396965e+00 -4.528357607126235962e+01 -3.058516465825960040e-01
7.860935477539896965e+00 -4.486096864938735962e+01 -2.742201768560335040e-01
8.372165946289896965e+00 -4.564502626657485962e+01 -2.605635606450960040e-01
8.641697196289896965e+00 -4.503845888376235962e+01 -2.263991319341585040e-01
8.904026297852396965e+00 -4.444934755563735962e+01 -1.931654893560335040e-01
9.402927665039896965e+00 -4.506653505563735962e+01 -1.759383165044710040e-01
9.788059500977396965e+00 -4.509473329782485962e+01 -1.507765733404085040e-01
1.010153606347739697e+01 -4.478870302438735962e+01 -1.216017686529085040e-01
7.600925711914896965e+00 -4.565259462594985962e+01 -1.055800401372835040e-01
7.924656180664896965e+00 -4.532800966501235962e+01 -7.640523544978350401e-02
8.537205008789896965e+00 -4.666602236032485962e+01 -6.290120712947100401e-02
8.609592704102396965e+00 -4.494519716501235962e+01 -2.025289169978350401e-02
8.907078055664896965e+00 -4.454065614938735962e+01 8.860877831466495991e-03
9.334324149414896965e+00 -4.480078798532485962e+01 3.226786025334149599e-02
9.702122000977396965e+00 -4.475733095407485962e+01 5.718546279240399599e-02
1.017770793847739697e+01 -4.520410829782485962e+01 7.978372939396649599e-02
7.651096610352396965e+00 -4.606177431344985962e+01 9.894876845646649599e-02
7.959202079102396965e+00 -4.562293154001235962e+01 1.278336561517789960e-01
8.530857352539896965e+00 -4.671704775094985962e+01 1.482193983392789960e-01
8.531345633789896965e+00 -4.460083681344985962e+01 1.850693739252164960e-01
8.889866141602396965e+00 -4.452710634469985962e+01 2.110703504877164960e-01
9.304416922852396965e+00 -4.472534853219985962e+01 2.362168348627164960e-01
9.746311454102396965e+00 -4.503797060251235962e+01 2.612565077142789960e-01
1.012228801660239697e+01 -4.501917177438735962e+01 2.875168836908414960e-01
7.672092704102396965e+00 -4.628906923532485962e+01 3.064530409174039960e-01
7.995334891602396965e+00 -4.592798525094985962e+01 3.336747206049039960e-01
8.259495047852396965e+00 -4.525879579782485962e+01 3.607285536127164960e-01
8.593235282227396965e+00 -4.501587587594985962e+01 3.871567762689664960e-01
8.919773368164896965e+00 -4.475781923532485962e+01 4.132798231439664960e-01
9.355686454102396965e+00 -4.505298525094985962e+01 4.399216688470914960e-01
9.936985282227396965e+00 -4.601673036813735962e+01 4.680893934564664960e-01
1.009970500878989697e+01 -4.498401552438735962e+01 4.927475965814664960e-01
7.621433524414896965e+00 -4.606397157907485962e+01 5.158799208002164960e-01
8.055271415039896965e+00 -4.637708193063735962e+01 5.439408338861539960e-01
8.220432547852396965e+00 -4.512024599313735962e+01 5.660813368158414960e-01
8.570774344727396965e+00 -4.497461611032485962e+01 5.920670545892789960e-01
9.083225516602396965e+00 -4.568384462594985962e+01 6.223710096674039960e-01
9.350681571289896965e+00 -4.510254579782485962e+01 6.461289442377164960e-01
9.710422782227396965e+00 -4.500928407907485962e+01 6.723282850580289960e-01
1.046957805566489697e+01 -4.674695497751235962e+01 7.114823377924039960e-01
7.997043875977396965e+00 -4.611817079782485962e+01 7.515061415033414960e-01
8.343357352539896965e+00 -4.590723329782485962e+01 7.770798719720914960e-01
8.577488211914896965e+00 -4.509143739938735962e+01 7.969468153314664960e-01
9.102634696289896965e+00 -4.586341005563735962e+01 8.315537489252164960e-01
9.406955985352396965e+00 -4.545667177438735962e+01 8.548844374017789960e-01
9.755466727539896965e+00 -4.529529482126235962e+01 8.804276502924039960e-01
1.043552043847739697e+01 -4.666150575876235962e+01 9.238389051752164960e-01
8.314548758789896965e+00 -4.582776552438735962e+01 9.838059461908414960e-01
8.683811454102396965e+00 -4.575195986032485962e+01 1.010493568261153996e+00
9.022922782227396965e+00 -4.552612978219985962e+01 1.034877113183028996e+00
9.433811454102396965e+00 -4.566541200876235962e+01 1.064723304589278996e+00
9.732517508789896965e+00 -4.525745302438735962e+01 1.087168983300216496e+00
1.584982707910239697e+01 -7.160694032907485962e+01 1.548869422753341496e+00
8.347141532227396965e+00 -4.610169130563735962e+01 1.197245887597091496e+00
8.721042899414896965e+00 -4.603797060251235962e+01 1.224299720604903996e+00
9.078342704102396965e+00 -4.589441591501235962e+01 1.249720863183028996e+00
1.631528118066489697e+01 -8.013904482126235962e+01 1.958964637597091496e+00
1.673154094628989697e+01 -7.886890321969985962e+01 1.982814124901778996e+00
1.584238079003989697e+01 -7.168311220407485962e+01 1.880076698143966496e+00
1.554416301660239697e+01 -8.756250673532485962e+01 2.344508460839278996e+00
1.526364543847739697e+01 -8.196631532907485962e+01 2.269145301659591496e+00
9.059788016602396965e+00 -4.587586122751235962e+01 1.457606605370528996e+00
1.641696575097739697e+01 -8.078150087594985962e+01 2.343043617089278996e+00
1.756747844628989697e+01 -8.300720888376235962e+01 2.449977210839278996e+00
1.644260051660239697e+01 -7.456018739938735962e+01 2.286128333886153996e+00
1.543820598535239697e+01 -8.711914736032485962e+01 2.735530189354903996e+00
1.525436809472739697e+01 -8.206519228219985962e+01 2.649531654198653996e+00
1.616818645410239697e+01 -8.322022157907485962e+01 2.734523109276778996e+00
1.638827922753989697e+01 -8.077344423532485962e+01 2.716044715722091496e+00
1.659116008691489697e+01 -7.536048036813735962e+01 2.653880409081466496e+00
1.522482707910239697e+01 -8.205176454782485962e+01 3.025126746972091496e+00
1.598520305566489697e+01 -8.240430361032485962e+01 3.089396766503341496e+00
1.649777629785239697e+01 -8.145813661813735962e+01 3.110438636620528996e+00
1.713730266503989697e+01 -8.120300966501235962e+01 3.154124549706466496e+00
1.657870891503989697e+01 -7.542041689157485962e+01 3.004893592675216496e+00
1.602646282128989697e+01 -8.276599794626235962e+01 3.483287147362716496e+00
1.558884075097739697e+01 -7.386548525094985962e+01 3.241923621972091496e+00
1.687485149316489697e+01 -7.690796571969985962e+01 3.411525062401778996e+00
1.492905071191489697e+01 -7.712708193063735962e+01 3.623042396386153996e+00
1.517148235253989697e+01 -7.196875673532485962e+01 3.499858192284591496e+00
1.682297161035239697e+01 -7.678760439157485962e+01 3.762263587792403996e+00
1.517245891503989697e+01 -7.517786318063735962e+01 3.936381629784591496e+00
1.516855266503989697e+01 -7.207080751657485962e+01 3.835383704979903996e+00
1.537387493066489697e+01 -7.017603212594985962e+01 3.791789344628341496e+00
3.104954032227396965e+00 -1.283411318063735962e+01 -7.838887802790850401e-02
3.245212821289896965e+00 -1.300134950876235962e+01 -7.860250107478350401e-02
3.388035086914896965e+00 -1.316504579782485962e+01 -7.877034775447100401e-02
3.535862235352396965e+00 -1.333447939157485962e+01 -7.893819443415850401e-02
3.688083915039896965e+00 -1.350891786813735962e+01 -7.912129990290850401e-02
3.845920829102396965e+00 -1.368970400094985962e+01 -7.928914658259600401e-02
4.016575125977396965e+00 -1.390528017282485962e+01 -8.055562607478350401e-02
4.213230399414896965e+00 -1.419690614938735962e+01 -8.462972275447100401e-02
3.519382743164896965e+00 -1.472327333688735962e+01 -8.972615830134600401e-02
3.689914969727396965e+00 -1.495130068063735962e+01 -9.042806259822100401e-02
3.876926688477396965e+00 -1.522876650094985962e+01 -9.256429306697100401e-02
4.076389579102396965e+00 -1.553382021188735962e+01 -9.489888779353350401e-02
4.281223563477396965e+00 -1.583789736032485962e+01 -9.723348252009600401e-02
4.492405204102396965e+00 -1.614221864938735962e+01 -9.956807724665850401e-02
4.716892508789896965e+00 -1.647522646188735962e+01 -1.021010362310335040e-01
4.952610282227396965e+00 -1.682483583688735962e+01 -1.047713243169710040e-01
4.162571219727396965e+00 -1.765369325876235962e+01 -1.149641954107210040e-01
4.437351493164896965e+00 -1.822437196969985962e+01 -1.231429063482210040e-01
4.688205985352396965e+00 -1.865039736032485962e+01 -1.264235459966585040e-01
4.953953055664896965e+00 -1.910169130563735962e+01 -1.299025499029085040e-01
5.423557547852396965e+00 -2.031763368844985962e+01 -1.544844590825960040e-01
5.732761649414896965e+00 -2.084241396188735962e+01 -1.585127793950960040e-01
6.059665946289896965e+00 -2.139734560251235962e+01 -1.627699815435335040e-01
6.407078055664896965e+00 -2.198718935251235962e+01 -1.673018418950960040e-01
5.333713797852396965e+00 -2.298377138376235962e+01 -1.749464952154085040e-01
5.802219657227396965e+00 -2.419824892282485962e+01 -1.930281602544710040e-01
6.272800711914896965e+00 -2.532874208688735962e+01 -2.081953965825960040e-01
6.964084891602396965e+00 -2.726612001657485962e+01 -2.414442979497835040e-01
7.124851493164896965e+00 -2.699524599313735962e+01 -2.205855333013460040e-01
7.407932547852396965e+00 -2.719800478219985962e+01 -2.107893907232210040e-01
7.607883719727396965e+00 -2.708350282907485962e+01 -1.936537706060335040e-01
7.870701102539896965e+00 -2.719519716501235962e+01 -1.821944200200960040e-01
1.017355754785239697e+01 -4.497473818063735962e+01 -5.351607286138460040e-01
1.107358196191489697e+01 -4.723987489938735962e+01 -5.571639024419710040e-01
1.086459758691489697e+01 -4.466956239938735962e+01 -4.801070176763460040e-01
7.238376883789896965e+00 -2.841419130563735962e+01 -1.406142198247835040e-01
7.166355399414896965e+00 -2.719226747751235962e+01 -1.022383653325960040e-01
7.396091727539896965e+00 -2.718762880563735962e+01 -8.734578720759600401e-02
7.694431571289896965e+00 -2.743335634469985962e+01 -7.686299912165850401e-02
7.945652274414896965e+00 -2.749317079782485962e+01 -6.285543076228350401e-02
1.013888957910239697e+01 -4.488501650094985962e+01 -3.284956895513460040e-01
1.049936321191489697e+01 -4.479895693063735962e+01 -3.012282334966585040e-01
1.084543254785239697e+01 -4.465161806344985962e+01 -2.741286241216585040e-01
7.469211844727396965e+00 -2.938977724313735962e+01 -2.573079697322100401e-02
7.116672782227396965e+00 -2.703333193063735962e+01 2.363138564396649599e-02
7.384372977539896965e+00 -2.717725282907485962e+01 3.666239150334149599e-02
7.671482352539896965e+00 -2.738269716501235962e+01 4.908304580021649599e-02
7.787815360352396965e+00 -2.696533876657485962e+01 6.882791884709149599e-02
1.010263469628989697e+01 -4.478797060251235962e+01 -1.215102159185335040e-01
1.045187786035239697e+01 -4.465613466501235962e+01 -9.488362900447100401e-02
1.086069133691489697e+01 -4.477869325876235962e+01 -7.097310654353350401e-02
7.260959891602396965e+00 -2.858264833688735962e+01 1.153367079095914960e-01
7.245945243164896965e+00 -2.757544618844985962e+01 1.407731092767789960e-01
7.368381766602396965e+00 -2.715088564157485962e+01 1.600449598627164960e-01
7.597141532227396965e+00 -2.714307314157485962e+01 1.754105604486539960e-01
7.760959891602396965e+00 -2.690210634469985962e+01 1.926224745111539960e-01
1.017905071191489697e+01 -4.520374208688735962e+01 7.986002333927899599e-02
1.051437786035239697e+01 -4.499500185251235962e+01 1.070359266595914960e-01
6.992405204102396965e+00 -2.850708681344985962e+01 2.294266737299039960e-01
7.207493094727396965e+00 -2.840308290719985962e+01 2.461960829095914960e-01
7.403782157227396965e+00 -2.823206239938735962e+01 2.631638563470914960e-01
7.434910086914896965e+00 -2.743762880563735962e+01 2.825577772455289960e-01
7.499973563477396965e+00 -2.681922060251235962e+01 2.997544325189664960e-01
7.961033133789896965e+00 -2.764588075876235962e+01 3.128464735345914960e-01
1.012363079003989697e+01 -4.501941591501235962e+01 2.875931776361539960e-01
1.053561809472739697e+01 -4.515430361032485962e+01 3.135178602533414960e-01
1.103989055566489697e+01 -4.566321474313735962e+01 3.392899549799039960e-01
1.147446086816489697e+01 -4.583899599313735962e+01 3.660538709955289960e-01
7.226536063477396965e+00 -2.757105165719985962e+01 3.909409559564664960e-01
7.491550711914896965e+00 -2.768762880563735962e+01 4.070847547845914960e-01
7.644016532227396965e+00 -2.738220888376235962e+01 4.228318250970914960e-01
7.748874930664896965e+00 -2.692285829782485962e+01 4.379685438470914960e-01
1.010092571191489697e+01 -4.498425966501235962e+01 4.928391493158414960e-01
1.056515911035239697e+01 -4.535047060251235962e+01 5.204880750970914960e-01
1.102341106347739697e+01 -4.565784364938735962e+01 5.484726942377164960e-01
7.082493094727396965e+00 -2.796936708688735962e+01 5.011246717767789960e-01
7.618259696289896965e+00 -2.915088564157485962e+01 5.232804334955289960e-01
7.487156180664896965e+00 -2.770593935251235962e+01 5.327103651361539960e-01
7.790745047852396965e+00 -2.795618349313735962e+01 5.506394422845914960e-01
7.940159110352396965e+00 -2.763733583688735962e+01 5.651505506830289960e-01
1.047031047753989697e+01 -4.674390321969985962e+01 7.115586317377164960e-01
1.075632121972739697e+01 -4.625916200876235962e+01 7.358658827142789960e-01
1.102756145410239697e+01 -4.574011904001235962e+01 7.594101942377164960e-01
1.088144329003989697e+01 -4.354028993844985962e+01 7.674820936517789960e-01
1.091891887597739697e+01 -4.221607118844985962e+01 7.812150038080289960e-01
7.567112235352396965e+00 -2.804614931344985962e+01 6.624405897455289960e-01
7.611179618164896965e+00 -2.732849794626235962e+01 6.715653456049039960e-01
7.919651297852396965e+00 -2.759693056344985962e+01 6.911576307611539960e-01
1.043600871972739697e+01 -4.665747743844985962e+01 9.238846815424039960e-01
1.083017375878989697e+01 -4.665222841501235962e+01 9.522660291986539960e-01
1.099716594628989697e+01 -4.567566591501235962e+01 9.680893934564664960e-01
1.652914836816489697e+01 -6.672437196969985962e+01 1.283702186425216496e+00
1.094870403222739697e+01 -4.238977724313735962e+01 9.774430311517789960e-01
7.492893485352396965e+00 -2.779798036813735962e+01 7.859147108392789960e-01
8.057346610352396965e+00 -2.900977236032485962e+01 8.217881239252164960e-01
7.904880790039896965e+00 -2.757715517282485962e+01 8.164170301752164960e-01
1.585165813378989697e+01 -7.160608583688735962e+01 1.549006751854903996e+00
1.080380657128989697e+01 -4.660510927438735962e+01 1.165934852440841496e+00
1.112656047753989697e+01 -4.629102236032485962e+01 1.188182166893966496e+00
1.853366496972739697e+01 -7.503516298532485962e+01 1.745005897362716496e+00
1.118381145410239697e+01 -4.337622743844985962e+01 1.190745643456466496e+00
1.150204875878989697e+01 -4.316248232126235962e+01 1.213877967675216496e+00
1.230929973535239697e+01 -4.477027040719985962e+01 1.274836829979903996e+00
7.866672782227396965e+00 -2.747339540719985962e+01 9.403946913080289960e-01
1.584470012597739697e+01 -7.168396669626235962e+01 1.880244544823653996e+00
1.814413860253989697e+01 -7.914685732126235962e+01 2.088328651268966496e+00
1.768246868066489697e+01 -7.428308779001235962e+01 2.029597572167403996e+00
1.853903606347739697e+01 -7.516187196969985962e+01 2.097544959862716496e+00
1.107126262597739697e+01 -4.298828798532485962e+01 1.381785682518966496e+00
1.169345500878989697e+01 -4.395130068063735962e+01 1.432780555565841496e+00
7.973484305664896965e+00 -2.877100282907485962e+01 1.080500892479903996e+00
7.841892508789896965e+00 -2.741748720407485962e+01 1.063929847558028996e+00
1.644491985253989697e+01 -7.456043154001235962e+01 2.286280921776778996e+00
1.708835246972739697e+01 -7.458679872751235962e+01 2.333125404198653996e+00
1.929172161035239697e+01 -8.125452333688735962e+01 2.562266639550216496e+00
1.846652629785239697e+01 -7.496814638376235962e+01 2.440470985253341496e+00
1.106711223535239697e+01 -4.302869325876235962e+01 1.580287269433028996e+00
1.878720500878989697e+01 -7.120276552438735962e+01 2.428859046776778996e+00
1.173886516503989697e+01 -4.276734071969985962e+01 1.628367713768966496e+00
8.189792899414896965e+00 -2.869922548532485962e+01 1.228373817284591496e+00
1.658896282128989697e+01 -7.534021669626235962e+01 2.653422645409591496e+00
1.693954875878989697e+01 -7.403772646188735962e+01 2.661998084862716496e+00
1.735629680566489697e+01 -7.310352236032485962e+01 2.680766395409591496e+00
1.902365520410239697e+01 -7.736719423532485962e+01 2.867747596581466496e+00
1.180014446191489697e+01 -4.447449404001235962e+01 1.856166175683028996e+00
1.176083782128989697e+01 -4.290283876657485962e+01 1.831187537987716496e+00
1.201877239160239697e+01 -4.249390321969985962e+01 1.845179847558028996e+00
1.658176067285239697e+01 -7.542407900094985962e+01 3.005183509667403996e+00
1.588193157128989697e+01 -6.944824892282485962e+01 2.838893226464278996e+00
1.759604289941489697e+01 -7.423462587594985962e+01 3.059993079979903996e+00
1.907809856347739697e+01 -7.769934755563735962e+01 3.238734535058028996e+00
1.125644329003989697e+01 -4.389710146188735962e+01 2.009257606347091496e+00
1.177463176660239697e+01 -4.443396669626235962e+01 2.059321693261153996e+00
1.174399211816489697e+01 -4.289404970407485962e+01 2.028559974511153996e+00
1.171384075097739697e+01 -4.144873720407485962e+01 2.000590614159591496e+00
1.613913371972739697e+01 -7.349182802438735962e+01 3.275370887597091496e+00
1.799020793847739697e+01 -7.893591982126235962e+01 3.545695594628341496e+00
1.660080364160239697e+01 -7.007813173532485962e+01 3.233409217675216496e+00
1.778293254785239697e+01 -7.245996767282485962e+01 3.380946449120528996e+00
2.011813762597739697e+01 -7.926819521188735962e+01 3.720622352440841496e+00
1.162900188378989697e+01 -4.393103700876235962e+01 2.243129066308028996e+00
1.206589153222739697e+01 -4.414600282907485962e+01 2.282405189354903996e+00
1.159762981347739697e+01 -4.108032900094985962e+01 2.175319007714278996e+00
1.682480266503989697e+01 -7.678528505563735962e+01 3.762324622948653996e+00
1.777365520410239697e+01 -7.808911806344985962e+01 3.873713783104903996e+00
1.816489055566489697e+01 -7.689099794626235962e+01 3.872081092675216496e+00
1.747592571191489697e+01 -7.129163271188735962e+01 3.661906532128341496e+00
1.170334270410239697e+01 -4.285047060251235962e+01 2.423823646386153996e+00
1.163376262597739697e+01 -4.126123720407485962e+01 2.374736121972091496e+00
1.537558391503989697e+01 -7.017444521188735962e+01 3.791865638573653996e+00
1.590878704003989697e+01 -6.988062196969985962e+01 3.823878578026778996e+00
1.713266399316489697e+01 -7.256629091501235962e+01 4.008418372948653996e+00
1.751669719628989697e+01 -7.156018739938735962e+01 4.007411292870528996e+00
1.904452922753989697e+01 -7.519324404001235962e+01 4.246730140526778996e+00
1.946640422753989697e+01 -7.429224306344985962e+01 4.252131751854903996e+00
1.170749309472739697e+01 -4.292017275094985962e+01 2.624965003808028996e+00
2.039487102441489697e+01 -7.295606142282485962e+01 4.286448768456466496e+00
1.118051555566489697e+01 -4.303137880563735962e+01 1.908976844628341496e+00
1.189706829003989697e+01 -4.433850771188735962e+01 1.986140540917403996e+00
1.221384075097739697e+01 -4.407044130563735962e+01 2.006480506737716496e+00
7.911716727539896965e+00 -2.727893739938735962e+01 1.397639564354903996e+00
8.192112235352396965e+00 -2.742395693063735962e+01 1.422557166893966496e+00
1.778842571191489697e+01 -7.727149111032485962e+01 3.344828895409591496e+00
1.674618938378989697e+01 -6.998389345407485962e+01 3.111110023339278996e+00
1.926169231347739697e+01 -7.782141786813735962e+01 3.472880653222091496e+00
1.145737102441489697e+01 -4.418750673532485962e+01 2.157206825097091496e+00
1.188864543847739697e+01 -4.436499696969985962e+01 2.195033363183028996e+00
1.183151653222739697e+01 -4.271143251657485962e+01 2.156199745018966496e+00
1.180209758691489697e+01 -4.126135927438735962e+01 2.123790077050216496e+00
1.210849407128989697e+01 -4.106201845407485962e+01 2.143901161034591496e+00
1.772787883691489697e+01 -7.712049013376235962e+01 3.699351600487716496e+00
1.853036907128989697e+01 -7.769946962594985962e+01 3.778422645409591496e+00
1.927927043847739697e+01 -7.800427919626235962e+01 3.846263221581466496e+00
1.145566204003989697e+01 -4.424060732126235962e+01 2.365123084862716496e+00
1.930441692285239697e+01 -7.286231142282485962e+01 3.716761878808028996e+00
2.477634075097739697e+01 -9.077100282907485962e+01 4.609843543847091496e+00
1.174728801660239697e+01 -4.111572939157485962e+01 2.310832313378341496e+00
1.210348918847739697e+01 -4.109461122751235962e+01 2.338923744042403996e+00
1.605221965722739697e+01 -6.980078798532485962e+01 3.707911781151778996e+00
1.703195598535239697e+01 -7.141016298532485962e+01 3.833751014550216496e+00
1.775021770410239697e+01 -7.181653505563735962e+01 3.904338172753341496e+00
1.124313762597739697e+01 -4.345654970407485962e+01 2.532618812401778996e+00
1.151828411035239697e+01 -4.306055361032485962e+01 2.543284705956466496e+00
1.193356731347739697e+01 -4.320007997751235962e+01 2.581263831933028996e+00
1.257907512597739697e+01 -4.415711122751235962e+01 2.662257484276778996e+00
1.209579875878989697e+01 -4.111768251657485962e+01 2.533732704003341496e+00
8.227024344727396965e+00 -2.782288271188735962e+01 1.192103675683028996e+00
8.381809500977396965e+00 -2.749927431344985962e+01 1.201518348534591496e+00
8.650608329102396965e+00 -2.757178407907485962e+01 1.222819618065841496e+00
1.769980266503989697e+01 -7.299744325876235962e+01 2.621424964745528996e+00
2.008249309472739697e+01 -8.008924013376235962e+01 2.893016151268966496e+00
1.158237102441489697e+01 -4.394751650094985962e+01 1.784907630761153996e+00
1.156674602441489697e+01 -4.241162782907485962e+01 1.764888099511153996e+00
7.886814383789896965e+00 -2.752258974313735962e+01 1.294429115136153996e+00
8.202976493164896965e+00 -2.777246767282485962e+01 1.322261146386153996e+00
8.500705985352396965e+00 -2.794263368844985962e+01 1.347667030175216496e+00
8.804783133789896965e+00 -2.812049013376235962e+01 1.374385169823653996e+00
1.782187297753989697e+01 -7.362085634469985962e+01 2.986018470604903996e+00
1.955600383691489697e+01 -7.806018739938735962e+01 3.198100379784591496e+00
2.016696575097739697e+01 -7.776441103219985962e+01 3.241755775292403996e+00
1.171115520410239697e+01 -4.301758486032485962e+01 1.988978675683028996e+00
1.167941692285239697e+01 -4.149915224313735962e+01 1.961100868065841496e+00
8.295505790039896965e+00 -2.813721376657485962e+01 1.468821815331466496e+00
8.496677665039896965e+00 -2.796350771188735962e+01 1.481929115136153996e+00
8.705173758789896965e+00 -2.782105165719985962e+01 1.496135047753341496e+00
1.691330364160239697e+01 -6.988684755563735962e+01 3.182902625878341496e+00
1.124545696191489697e+01 -4.427490907907485962e+01 2.183314613183028996e+00
1.154513957910239697e+01 -4.392359071969985962e+01 2.200099281151778996e+00
1.200827434472739697e+01 -4.420593935251235962e+01 2.242350868065841496e+00
1.154159954003989697e+01 -4.104651552438735962e+01 2.137904456933028996e+00
1.191733196191489697e+01 -4.107898622751235962e+01 2.169978431542403996e+00
1.364255168847739697e+01 -4.439099794626235962e+01 2.379374793847091496e+00
1.732956340722739697e+01 -7.175403505563735962e+01 3.596370033104903996e+00
1.806345012597739697e+01 -7.218787294626235962e+01 3.665812782128341496e+00
1.134054973535239697e+01 -4.317810732126235962e+01 2.372340492089278996e+00
1.164804485253989697e+01 -4.289356142282485962e+01 2.390269569237716496e+00
1.159018352441489697e+01 -4.127918154001235962e+01 2.344203285058028996e+00
1.187900188378989697e+01 -4.099463564157485962e+01 2.360591224511153996e+00
1.285983684472739697e+01 -4.311841493844985962e+01 2.495341590722091496e+00
