1.426111422479152679e-01 -1.147029191255569458e+01 7.079694340936839581e-01
2.250086031854152679e-01 -1.150227433443069458e+01 7.148358891718089581e-01
2.744470797479152679e-01 -1.200300675630569458e+01 -1.925585200078785419e-01
3.618494234979152679e-01 -1.202510148286819458e+01 -1.873857905156910419e-01
4.496179781854152679e-01 -1.204145890474319458e+01 -1.821520258672535419e-01
5.381189547479152679e-01 -1.205806046724319458e+01 -1.768877436406910419e-01
6.264978609979152679e-01 -1.207478410005569458e+01 -1.716387202031910419e-01
7.157312594354152679e-01 -1.210640031099319458e+01 -1.671068598516285419e-01
8.052087984979152679e-01 -1.213801652193069458e+01 -1.625749995000660419e-01
8.950525484979152679e-01 -1.216401749849319458e+01 -1.579668452031910419e-01
2.449060641229152679e-01 -1.308162003755569458e+01 -1.981432368047535419e-01
3.579431734979152679e-01 -1.205659562349319458e+01 -1.403582026250660419e-01
4.462000094354152679e-01 -1.205745011568069458e+01 -1.342699457891285419e-01
5.347009859979152679e-01 -1.209443742036819458e+01 -1.296465327031910419e-01
6.333337984979152679e-01 -1.321662980318069458e+01 -1.774065424688160419e-01
7.319666109979152679e-01 -1.324336320161819458e+01 -1.721270014531910419e-01
8.308435641229152679e-01 -1.327607804536819458e+01 -1.668474604375660419e-01
9.303308688104152679e-01 -1.330903702974319458e+01 -1.615374018438160419e-01
2.115808688104152679e-01 -1.429524308443069458e+01 -1.999742914922535419e-01
3.555017672479152679e-01 -1.199873429536819458e+01 -8.875297801569104195e-02
4.431482516229152679e-01 -1.200093156099319458e+01 -8.274101512506604195e-02
5.312830172479152679e-01 -1.202583390474319458e+01 -7.772087352350354195e-02
6.402918063104152679e-01 -1.445271378755569458e+01 -1.770861078985035419e-01
7.494226656854152679e-01 -1.449275285005569458e+01 -1.712572504766285419e-01
8.587976656854152679e-01 -1.453279191255569458e+01 -1.654131342656910419e-01
9.692712984979152679e-01 -1.458259660005569458e+01 -1.599199702031910419e-01
1.680017672479152679e-01 -1.588545304536819458e+01 -2.065203120000660419e-01
3.526941500604152679e-01 -1.196479874849319458e+01 -3.864311473444104195e-02
4.400964938104152679e-01 -1.196711808443069458e+01 -3.266166942194104195e-02
5.278650484979152679e-01 -1.198603898286819458e+01 -2.729057567194104195e-02
6.505457125604152679e-01 -1.618086320161819458e+01 -1.842424799688160419e-01
7.742029391229152679e-01 -1.623152238130569458e+01 -1.776354243047535419e-01
8.983484469354152679e-01 -1.628242570161819458e+01 -1.709978510625660419e-01
1.022982235997915268e+00 -1.632417374849319458e+01 -1.643450190313160419e-01
1.131921969354152679e-01 -1.788203507661819458e+01 -2.129747797735035419e-01
3.496423922479152679e-01 -1.194307023286819458e+01 1.044440967962145805e-02
4.381433688104152679e-01 -1.179817277193069458e+01 2.164436085149645805e-02
5.244470797479152679e-01 -1.196125870943069458e+01 2.198005421087145805e-02
6.622644625604152679e-01 -1.822114640474319458e+01 -1.865923334844410419e-01
8.041101656854152679e-01 -1.834529191255569458e+01 -1.810533930547535419e-01
9.474207125604152679e-01 -1.847078019380569458e+01 -1.754534174688160419e-01
1.093050595372915268e+00 -1.859809952974319458e+01 -1.697618891485035419e-01
2.717615328729152679e-01 -1.144490128755569458e+01 6.853461964055895805e-02
3.535486422479152679e-01 -1.152119523286819458e+01 7.216621143743395805e-02
4.357019625604152679e-01 -1.170442277193069458e+01 7.233405811712145805e-02
5.211511813104152679e-01 -1.194648820161819458e+01 7.097602589055895805e-02
6.802087984979152679e-01 -2.124287492036819458e+01 -1.989672114141285419e-01
8.479334078729152679e-01 -2.141731339693069458e+01 -1.925737787969410419e-01
1.017977353185415268e+00 -2.159431535005569458e+01 -1.860887934453785419e-01
1.190584775060415268e+00 -2.175727921724319458e+01 -1.795122553594410419e-01
2.696863375604152679e-01 -1.139778214693069458e+01 1.159894536249339581e-01
3.513513766229152679e-01 -1.146418839693069458e+01 1.199567387811839581e-01
4.326502047479152679e-01 -1.167756730318069458e+01 1.201551030389964581e-01
5.177332125604152679e-01 -1.193977433443069458e+01 1.193616460077464581e-01
7.053552828729152679e-01 -2.548164445161819458e+01 -2.146837641485035419e-01
9.112879000604152679e-01 -2.585737687349319458e+01 -2.099687983281910419e-01
1.123079892247915268e+00 -2.624372941255569458e+01 -2.051317621953785419e-01
1.348909970372915268e+00 -2.686494523286819458e+01 -2.053453852422535419e-01
2.670007906854152679e-01 -1.137995988130569458e+01 1.620862553827464581e-01
3.485437594354152679e-01 -1.144245988130569458e+01 1.664502690546214581e-01
4.293543063104152679e-01 -1.167817765474319458e+01 1.673657963983714581e-01
5.144373141229152679e-01 -1.194038468599319458e+01 1.677777837030589581e-01
7.490564547479152679e-01 -3.273835831880569458e+01 -2.528459955938160419e-01
1.029451962560415268e+00 -3.403999406099319458e+01 -2.606737543828785419e-01
1.331453915685415268e+00 -3.537910538911819458e+01 -2.686235834844410419e-01
1.674715634435415268e+00 -3.731440812349319458e+01 -2.854387690313160419e-01
2.643152438104152679e-01 -1.136287003755569458e+01 2.082593510858714581e-01
3.456140719354152679e-01 -1.142622452974319458e+01 2.128827641718089581e-01
4.263025484979152679e-01 -1.165144425630569458e+01 2.148053715936839581e-01
5.111414156854152679e-01 -1.187910538911819458e+01 2.169721196405589581e-01
8.662439547479152679e-01 -5.153486710786819458e+01 -4.091875483281910419e-01
1.365633603185415268e+00 -5.702510148286819458e+01 -4.645464350469410419e-01
2.008089657872915268e+00 -6.480818253755569458e+01 -5.475695063360035419e-01
2.772860165685415268e+00 -7.238411027193069458e+01 -6.186754633672535419e-01
2.612634859979152679e-01 -1.135810929536819458e+01 2.538678715936839581e-01
3.424402438104152679e-01 -1.142585831880569458e+01 2.587201665155589581e-01
4.233728609979152679e-01 -1.162385636568069458e+01 2.620160649530589581e-01
5.078455172479152679e-01 -1.186457902193069458e+01 2.650525639764964581e-01
2.582117281854152679e-01 -1.135554581880569458e+01 2.996442387811839581e-01
3.395105563104152679e-01 -1.140986710786819458e+01 3.049085210077464581e-01
4.204431734979152679e-01 -1.159565812349319458e+01 3.092114995233714581e-01
5.044275484979152679e-01 -1.187092667818069458e+01 3.130719731561839581e-01
2.551599703729152679e-01 -1.135200577974319458e+01 3.451459477655589581e-01
3.364587984979152679e-01 -1.140339738130569458e+01 3.506848881952464581e-01
4.172693453729152679e-01 -1.159211808443069458e+01 3.558118413202464581e-01
5.011316500604152679e-01 -1.188447648286819458e+01 3.608930180780589581e-01
2.518640719354152679e-01 -1.135554581880569458e+01 3.908612797968089581e-01
3.332849703729152679e-01 -1.140486222505569458e+01 3.966291020624339581e-01
4.139734469354152679e-01 -1.159309464693069458e+01 4.023816655389964581e-01
4.977136813104152679e-01 -1.190718156099319458e+01 4.088361333124339581e-01
2.483240328729152679e-01 -1.136933976411819458e+01 4.364087651483714581e-01
3.297449313104152679e-01 -1.141951066255569458e+01 4.424207280389964581e-01
4.105554781854152679e-01 -1.160566788911819458e+01 4.492719243280589581e-01
4.942957125604152679e-01 -1.194624406099319458e+01 4.573590825311839581e-01
2.435632906854152679e-01 -1.142244035005569458e+01 4.826886723749339581e-01
3.255945406854152679e-01 -1.146772843599319458e+01 4.886701176874339581e-01
4.068933688104152679e-01 -1.164680558443069458e+01 4.963300297968089581e-01
4.906336031854152679e-01 -1.202693253755569458e+01 5.064160893671214581e-01
2.399011813104152679e-01 -1.144075089693069458e+01 5.287244389764964581e-01
3.219324313104152679e-01 -1.149214249849319458e+01 5.352552006952464581e-01
4.031091891229152679e-01 -1.168708878755569458e+01 5.439832280389964581e-01
2.359949313104152679e-01 -1.146577531099319458e+01 5.752942631952464581e-01
3.181482516229152679e-01 -1.152253800630569458e+01 5.819318364374339581e-01
3.994470797479152679e-01 -1.172114640474319458e+01 5.916516850702464581e-01
2.325769625604152679e-01 -1.147297745943069458e+01 6.214368413202464581e-01
3.148523531854152679e-01 -1.152327042818069458e+01 6.284253667108714581e-01
3.950525484979152679e-01 -1.180146867036819458e+01 6.409833501093089581e-01
2.284265719354152679e-01 -1.150532609224319458e+01 6.685712407343089581e-01
3.104578219354152679e-01 -1.158088761568069458e+01 6.765210698358714581e-01
3.899255953729152679e-01 -1.194502335786819458e+01 6.928632329218089581e-01
4.676843844354152679e-01 -1.402632218599319458e+01 7.596814702264964581e-01
2.252527438104152679e-01 -1.150251847505569458e+01 7.148664067499339581e-01
3.072839938104152679e-01 -1.157917863130569458e+01 7.229535649530589581e-01
3.583093844354152679e-01 -1.406453019380569458e+01 8.116223881952464581e-01
4.635339938104152679e-01 -1.403315812349319458e+01 8.178784917108714581e-01
8.952966891229152679e-01 -1.216377335786819458e+01 -1.579363276250660419e-01
9.858728609979152679e-01 -1.219661027193069458e+01 -1.533586909063160419e-01
1.076815243810415268e+00 -1.222383195161819458e+01 -1.487047602422535419e-01
1.168612118810415268e+00 -1.225129777193069458e+01 -1.440203120000660419e-01
1.260164853185415268e+00 -1.227253800630569458e+01 -1.390154291875660419e-01
1.351717587560415268e+00 -1.228279191255569458e+01 -1.334307123906910419e-01
1.443270321935415268e+00 -1.229316788911819458e+01 -1.278459955938160419e-01
1.534578915685415268e+00 -1.229829484224319458e+01 -1.222765375860035419e-01
9.306970797479152679e-01 -1.330879288911819458e+01 -1.614916254766285419e-01
1.030550595372915268e+00 -1.333735734224319458e+01 -1.561663080938160419e-01
1.130892392247915268e+00 -1.336372452974319458e+01 -1.507036616094410419e-01
1.231844540685415268e+00 -1.338642960786819458e+01 -1.447069575078785419e-01
1.332552548497915268e+00 -1.340181046724319458e+01 -1.386797358281910419e-01
1.433382626622915268e+00 -1.340998917818069458e+01 -1.325914789922535419e-01
1.534700985997915268e+00 -1.342537003755569458e+01 -1.265337397344410419e-01
1.637117978185415268e+00 -1.344990617036819458e+01 -1.208269526250660419e-01
9.696375094354152679e-01 -1.458247452974319458e+01 -1.598894526250660419e-01
1.081698056310415268e+00 -1.464973527193069458e+01 -1.552812983281910419e-01
1.194979306310415268e+00 -1.471760636568069458e+01 -1.506121088750660419e-01
1.309969540685415268e+00 -1.478657609224319458e+01 -1.458818842656910419e-01
1.425814267247915268e+00 -1.485603410005569458e+01 -1.411058832891285419e-01
1.542757626622915268e+00 -1.491682511568069458e+01 -1.358873774297535419e-01
1.661287900060415268e+00 -1.498811417818069458e+01 -1.310198237188160419e-01
1.783968564122915268e+00 -1.509150773286819458e+01 -1.272814203985035419e-01
1.023348446935415268e+00 -1.632405167818069458e+01 -1.643145014531910419e-01
1.149569150060415268e+00 -1.638703995943069458e+01 -1.578600336797535419e-01
1.278353329747915268e+00 -1.647663956880569458e+01 -1.526567866094410419e-01
1.409334775060415268e+00 -1.656770402193069458e+01 -1.473619868047535419e-01
1.541414853185415268e+00 -1.665962296724319458e+01 -1.420214106328785419e-01
1.678866025060415268e+00 -1.679377824068069458e+01 -1.379778315313160419e-01
1.821932431310415268e+00 -1.697285538911819458e+01 -1.353380610235035419e-01
1.965975400060415268e+00 -1.712751847505569458e+01 -1.320421625860035419e-01
1.093538876622915268e+00 -1.859822160005569458e+01 -1.697313715703785419e-01
1.240999814122915268e+00 -1.871955949068069458e+01 -1.639025141485035419e-01
1.390780087560415268e+00 -1.884272843599319458e+01 -1.579973627813160419e-01
1.543367978185415268e+00 -1.896833878755569458e+01 -1.519701411016285419e-01
1.704012509435415268e+00 -1.918904191255569458e+01 -1.487200190313160419e-01
1.877718564122915268e+00 -1.952766495943069458e+01 -1.486742426641285419e-01
2.057650204747915268e+00 -1.987837296724319458e+01 -1.486132075078785419e-01
2.245028134435415268e+00 -2.024287492036819458e+01 -1.485369135625660419e-01
1.191195126622915268e+00 -2.175825577974319458e+01 -1.794969965703785419e-01
1.368807431310415268e+00 -2.197773820161819458e+01 -1.734697748906910419e-01
1.551546689122915268e+00 -2.222309952974319458e+01 -1.683885981328785419e-01
1.750033017247915268e+00 -2.265876847505569458e+01 -1.679613520391285419e-01
1.964876767247915268e+00 -2.323774796724319458e+01 -1.707537104375660419e-01
2.192659970372915268e+00 -2.385139542818069458e+01 -1.736986567266285419e-01
2.433260556310415268e+00 -2.450068742036819458e+01 -1.768419672735035419e-01
2.718783017247915268e+00 -2.552327042818069458e+01 -1.887895991094410419e-01
1.349764462560415268e+00 -2.686909562349319458e+01 -2.053911616094410419e-01
1.589754696935415268e+00 -2.758369523286819458e+01 -2.072069575078785419e-01
1.855135556310415268e+00 -2.856868058443069458e+01 -2.142107416875660419e-01
2.144930478185415268e+00 -2.967695695161819458e+01 -2.226793696172535419e-01
2.490877743810415268e+00 -3.137043839693069458e+01 -2.422869135625660419e-01
2.878817196935415268e+00 -3.323506242036819458e+01 -2.633745600469410419e-01
3.409090634435415268e+00 -3.646040421724319458e+01 -3.095476557500660419e-01
4.176302548497915268e+00 -4.170503312349319458e+01 -3.911364008672535419e-01
1.677889462560415268e+00 -3.737934952974319458e+01 -2.865831782110035419e-01
2.089876767247915268e+00 -4.020747452974319458e+01 -3.176042963750660419e-01
2.726839657872915268e+00 -4.669624406099319458e+01 -4.089281489141285419e-01
3.678255673497915268e+00 -5.678291398286819458e+01 -5.550463129766285419e-01
4.968905087560415268e+00 -6.951545792818069458e+01 -7.333147455938160419e-01
5.899813290685415268e+00 -7.443830949068069458e+01 -7.724687983281910419e-01
6.855135556310415268e+00 -7.867475968599319458e+01 -7.974321772344410419e-01
7.953158017247915268e+00 -8.370405656099319458e+01 -8.274156977422535419e-01
2.775545712560415268e+00 -7.240449601411819458e+01 -6.188127924688160419e-01
3.610506650060415268e+00 -7.857527238130569458e+01 -6.622393061406910419e-01
1.534823056310415268e+00 -1.229841691255569458e+01 -1.222612787969410419e-01
1.626986142247915268e+00 -1.231062394380569458e+01 -1.166918207891285419e-01
1.725130673497915268e+00 -1.237361222505569458e+01 -1.137010981328785419e-01
1.824984189122915268e+00 -1.243757706880569458e+01 -1.106493403203785419e-01
1.925814267247915268e+00 -1.250227433443069458e+01 -1.075823237188160419e-01
2.028475400060415268e+00 -1.256807023286819458e+01 -1.044390131719410419e-01
2.132113095372915268e+00 -1.263447648286819458e+01 -1.012804438360035419e-01
2.236361142247915268e+00 -1.269612199068069458e+01 -9.810661571100354195e-02
1.637484189122915268e+00 -1.345051652193069458e+01 -1.208269526250660419e-01
1.747469540685415268e+00 -1.354353410005569458e+01 -1.181871821172535419e-01
1.859408017247915268e+00 -1.363813859224319458e+01 -1.154863764531910419e-01
1.974642392247915268e+00 -1.374324113130569458e+01 -1.127855707891285419e-01
2.090609189122915268e+00 -1.384150773286819458e+01 -1.099932123906910419e-01
2.208040829747915268e+00 -1.393342667818069458e+01 -1.071245600469410419e-01
2.328280087560415268e+00 -1.403523331880569458e+01 -1.042406489141285419e-01
2.450716610997915268e+00 -1.413899308443069458e+01 -1.012957026250660419e-01
1.784456845372915268e+00 -1.509211808443069458e+01 -1.272661616094410419e-01
1.908724423497915268e+00 -1.519160538911819458e+01 -1.234819819219410419e-01
2.035067196935415268e+00 -1.529267960786819458e+01 -1.196367670781910419e-01
2.165804501622915268e+00 -1.541084367036819458e+01 -1.162493159063160419e-01
2.303866025060415268e+00 -1.557380753755569458e+01 -1.143267084844410419e-01
2.445955868810415268e+00 -1.574141007661819458e+01 -1.123583246953785419e-01
2.591341610997915268e+00 -1.591291886568069458e+01 -1.103441645391285419e-01
2.750155087560415268e+00 -1.615290910005569458e+01 -1.104509760625660419e-01
1.966463681310415268e+00 -1.712849503755569458e+01 -1.320421625860035419e-01
2.115145321935415268e+00 -1.730220109224319458e+01 -1.286547114141285419e-01
2.273592587560415268e+00 -1.753718644380569458e+01 -1.273882319219410419e-01
2.440706845372915268e+00 -1.780598527193069458e+01 -1.268999506719410419e-01
2.613192196935415268e+00 -1.808381730318069458e+01 -1.263964106328785419e-01
2.807650204747915268e+00 -1.848469620943069458e+01 -1.292650629766285419e-01
3.012606259435415268e+00 -1.891389542818069458e+01 -1.325457026250660419e-01
3.225618954747915268e+00 -1.934578019380569458e+01 -1.358721186406910419e-01
2.245760556310415268e+00 -2.024556046724319458e+01 -1.485826899297535419e-01
2.439852353185415268e+00 -2.061494523286819458e+01 -1.484453608281910419e-01
2.644320126622915268e+00 -2.101960831880569458e+01 -1.488573481328785419e-01
2.886995907872915268e+00 -2.168733292818069458e+01 -1.558306147344410419e-01
3.146395321935415268e+00 -2.240120011568069458e+01 -1.632921625860035419e-01
3.426302548497915268e+00 -2.317060929536819458e+01 -1.713182856328785419e-01
3.733797665685415268e+00 -2.404548722505569458e+01 -1.811602045781910419e-01
4.122103329747915268e+00 -2.535835343599319458e+01 -2.007830073125660419e-01
2.720736142247915268e+00 -2.553755265474319458e+01 -1.890795161016285419e-01
3.043490048497915268e+00 -2.675959855318069458e+01 -2.035601069219410419e-01
3.374666806310415268e+00 -2.786531144380569458e+01 -2.145769526250660419e-01
3.802401181310415268e+00 -2.963276749849319458e+01 -2.390062739141285419e-01
4.331698056310415268e+00 -3.198078995943069458e+01 -2.740709711797535419e-01
5.051302548497915268e+00 -3.545283585786819458e+01 -3.301622797735035419e-01
6.353548642247915268e+00 -4.263642960786819458e+01 -4.587328364141285419e-01
7.122347470372915268e+00 -4.544233781099319458e+01 -4.925920893438160419e-01
4.190950985997915268e+00 -4.185408097505569458e+01 -3.939440180547535419e-01
6.507967587560415268e+00 -6.185908585786819458e+01 -7.474749018438160419e-01
8.118685360997915268e+00 -7.215547257661819458e+01 -9.011156489141285419e-01
7.115267392247915268e+00 -5.834211808443069458e+01 -6.166002680547535419e-01
7.599398251622915268e+00 -5.838960343599319458e+01 -5.850145746953785419e-01
6.394442196935415268e+00 -4.566877824068069458e+01 -3.420488764531910419e-01
6.768221493810415268e+00 -4.567317277193069458e+01 -3.168413569219410419e-01
7.149691220372915268e+00 -4.572248917818069458e+01 -2.922594477422535419e-01
7.959505673497915268e+00 -8.374849015474319458e+01 -8.279192377813160419e-01
9.124544735997915268e+00 -8.859138566255569458e+01 -8.498461176641285419e-01
6.709993954747915268e+00 -5.920381242036819458e+01 -3.975145746953785419e-01
7.093416806310415268e+00 -5.831355363130569458e+01 -3.526995112188160419e-01
7.540560360997915268e+00 -5.806465226411819458e+01 -3.169634272344410419e-01
8.058626767247915268e+00 -5.836482316255569458e+01 -2.878649164922535419e-01
6.809237118810415268e+00 -4.606745988130569458e+01 -1.169207026250660419e-01
7.056551571935415268e+00 -4.519563370943069458e+01 -8.176445262506604195e-02
7.090365048497915268e+00 -5.844819718599319458e+01 -9.186577098444104195e-02
7.563997860997915268e+00 -5.840449601411819458e+01 -5.855583446100354195e-02
8.051180478185415268e+00 -5.844917374849319458e+01 -2.576469676569104195e-02
6.795199032872915268e+00 -4.607246476411819458e+01 9.035468799993395805e-02
7.167269345372915268e+00 -4.603682023286819458e+01 1.165387700311839581e-01
7.123446103185415268e+00 -5.889814835786819458e+01 1.689679692499339581e-01
7.573641415685415268e+00 -5.863349992036819458e+01 2.033155034296214581e-01
8.086458798497915268e+00 -5.885896378755569458e+01 2.362134526483714581e-01
8.570101376622915268e+00 -5.885359269380569458e+01 2.698285649530589581e-01
1.048123418912291527e+01 -6.845796281099319458e+01 2.890241215936839581e-01
8.051302548497915268e+00 -5.873445206880569458e+01 5.023419926874339581e-01
1.446707403287291527e+01 -9.551594620943069458e+01 6.854627202264964581e-01
1.443301641568541527e+01 -9.549470597505569458e+01 1.120124585460871458e+00
2.236849423497915268e+00 -1.269709855318069458e+01 -9.812187450006604195e-02
2.343660946935415268e+00 -1.276619035005569458e+01 -9.487175242975354195e-02
2.450960751622915268e+00 -1.283039933443069458e+01 -9.159111278131604195e-02
2.561068173497915268e+00 -1.290046769380569458e+01 -8.844780223444104195e-02
2.679964657872915268e+00 -1.301130753755569458e+01 -8.692192332819104195e-02
2.810457821935415268e+00 -1.316926652193069458e+01 -8.715080516412854195e-02
2.944613095372915268e+00 -1.333149796724319458e+01 -8.736442821100354195e-02
3.080965634435415268e+00 -1.348957902193069458e+01 -8.754753367975354195e-02
2.451326962560415268e+00 -1.414106827974319458e+01 -1.013567377813160419e-01
2.575106259435415268e+00 -1.423970109224319458e+01 -9.833549754694104195e-02
2.710360165685415268e+00 -1.439582902193069458e+01 -9.734367625787854195e-02
2.858553525060415268e+00 -1.460603410005569458e+01 -9.781669871881604195e-02
3.009676571935415268e+00 -1.481257706880569458e+01 -9.825920360162854195e-02
3.164461728185415268e+00 -1.501545792818069458e+01 -9.864067332819104195e-02
3.326082821935415268e+00 -1.523616105318069458e+01 -9.909843700006604195e-02
3.493685360997915268e+00 -1.546479874849319458e+01 -9.957145946100354195e-02
2.751009579747915268e+00 -1.615608292818069458e+01 -1.105272700078785419e-01
2.917391415685415268e+00 -1.641560441255569458e+01 -1.112596918828785419e-01
3.090120907872915268e+00 -1.668525773286819458e+01 -1.120073725469410419e-01
3.277132626622915268e+00 -1.700459367036819458e+01 -1.140215327031910419e-01
3.487459775060415268e+00 -1.742109757661819458e+01 -1.187670161016285419e-01
3.716951962560415268e+00 -1.789473038911819458e+01 -1.248094965703785419e-01
3.937899228185415268e+00 -1.828669816255569458e+01 -1.278154780156910419e-01
4.170443173497915268e+00 -1.869905167818069458e+01 -1.309740473516285419e-01
3.226961728185415268e+00 -1.935127335786819458e+01 -1.359941889531910419e-01
3.456087704747915268e+00 -1.983686906099319458e+01 -1.397173334844410419e-01
3.704744931310415268e+00 -2.038655167818069458e+01 -1.451342036016285419e-01
4.034090634435415268e+00 -2.133516007661819458e+01 -1.609117914922535419e-01
4.293490048497915268e+00 -2.181794816255569458e+01 -1.630175043828785419e-01
4.649691220372915268e+00 -2.275264054536819458e+01 -1.765215327031910419e-01
5.004061337560415268e+00 -2.359956437349319458e+01 -1.867144037969410419e-01
5.468050595372915268e+00 -2.489497452974319458e+01 -2.079088618047535419e-01
4.125887509435415268e+00 -2.537837296724319458e+01 -2.012407709844410419e-01
4.483675595372915268e+00 -2.635383683443069458e+01 -2.115099360235035419e-01
4.895662900060415268e+00 -2.755037003755569458e+01 -2.258837153203785419e-01
5.439974423497915268e+00 -2.937690812349319458e+01 -2.533190180547535419e-01
6.248934384435415268e+00 -3.247029191255569458e+01 -3.071672846563160419e-01
7.479769345372915268e+00 -3.746772843599319458e+01 -3.990862299688160419e-01
9.212557431310415268e+00 -4.453193742036819458e+01 -5.295031000860035419e-01
9.477694150060415268e+00 -4.402351456880569458e+01 -4.946978022344410419e-01
7.123690243810415268e+00 -4.544233781099319458e+01 -4.925005366094410419e-01
7.497469540685415268e+00 -4.544746476411819458e+01 -4.668962885625660419e-01
7.798494931310415268e+00 -4.500874406099319458e+01 -4.339067866094410419e-01
8.065340634435415268e+00 -4.440437394380569458e+01 -3.982317377813160419e-01
8.746370907872915268e+00 -4.610896378755569458e+01 -4.042589594610035419e-01
9.161409970372915268e+00 -4.626789933443069458e+01 -3.816149164922535419e-01
9.173861142247915268e+00 -4.441120988130569458e+01 -3.252794672735035419e-01
9.597811337560415268e+00 -4.466413956880569458e+01 -3.059618403203785419e-01
7.151033993810415268e+00 -4.572309952974319458e+01 -2.921831537969410419e-01
7.464510556310415268e+00 -4.533100968599319458e+01 -2.612993647344410419e-01
7.798739071935415268e+00 -4.509687882661819458e+01 -2.330400873906910419e-01
8.231966610997915268e+00 -4.543769913911819458e+01 -2.127458979375660419e-01
8.425692196935415268e+00 -4.444294816255569458e+01 -1.745531489141285419e-01
9.123324032872915268e+00 -4.614717179536819458e+01 -1.712114741094410419e-01
9.210604306310415268e+00 -4.466609269380569458e+01 -1.277849604375660419e-01
9.568148251622915268e+00 -4.459224015474319458e+01 -1.020281245000660419e-01
7.057528134435415268e+00 -4.519343644380569458e+01 -8.165764110162854195e-02
7.456087704747915268e+00 -4.536921769380569458e+01 -5.837272899225354195e-02
7.763704892247915268e+00 -4.497285538911819458e+01 -2.823662059381604195e-02
8.209993954747915268e+00 -4.539607316255569458e+01 -6.874315906316041946e-03
8.405550595372915268e+00 -4.441108781099319458e+01 2.686286671087145805e-02
8.871126767247915268e+00 -4.491035538911819458e+01 4.793525440618395805e-02
9.175203915685415268e+00 -4.456111222505569458e+01 7.468391163274645805e-02
9.531038876622915268e+00 -4.448371964693069458e+01 1.003644536249339581e-01
7.169710751622915268e+00 -4.604414445161819458e+01 1.165845463983714581e-01
7.505770321935415268e+00 -4.577754288911819458e+01 1.439282963983714581e-01
7.747835751622915268e+00 -4.496431046724319458e+01 1.737439702264964581e-01
8.147005673497915268e+00 -4.511824113130569458e+01 1.985395024530589581e-01
8.493685360997915268e+00 -4.497114640474319458e+01 2.246472905389964581e-01
8.741854306310415268e+00 -4.431111222505569458e+01 2.524030278436839581e-01
9.138826962560415268e+00 -4.445185929536819458e+01 2.772595952264964581e-01
9.588778134435415268e+00 -4.482954484224319458e+01 3.018872807733714581e-01
1.048306524381041527e+01 -6.845747452974319458e+01 2.891614506952464581e-01
7.489657040685415268e+00 -4.576765519380569458e+01 3.492810796014964581e-01
7.775423642247915268e+00 -4.521760636568069458e+01 3.755414555780589581e-01
8.109285946935415268e+00 -4.498457413911819458e+01 4.013898442499339581e-01
8.785067196935415268e+00 -4.664643937349319458e+01 4.285810063593089581e-01
8.697542782872915268e+00 -4.415400773286819458e+01 4.518964360468089581e-01
9.118441220372915268e+00 -4.442170792818069458e+01 4.778821538202464581e-01
9.551424618810415268e+00 -4.472041398286819458e+01 5.043408940546214581e-01
1.447049200162291527e+01 -9.552009660005569458e+01 6.856763432733714581e-01
7.481356259435415268e+00 -4.580867081880569458e+01 5.558087895624339581e-01
7.855745907872915268e+00 -4.579182511568069458e+01 5.821454594843089581e-01
8.081942196935415268e+00 -4.491047745943069458e+01 6.043622563593089581e-01
8.443514462560415268e+00 -4.485517960786819458e+01 6.300885747186839581e-01
8.930208798497915268e+00 -4.544783097505569458e+01 6.598737309686839581e-01
9.277498837560415268e+00 -4.529145890474319458e+01 6.853253911249339581e-01
9.623324032872915268e+00 -4.513569718599319458e+01 7.106702397577464581e-01
1.443643438443541527e+01 -9.549885636568069458e+01 1.120338208507746458e+00
7.843416806310415268e+00 -4.580622941255569458e+01 7.879407475702464581e-01
8.198031064122915268e+00 -4.566304093599319458e+01 8.134534428827464581e-01
8.423006650060415268e+00 -4.482124406099319458e+01 8.316724370233714581e-01
8.901644345372915268e+00 -4.537519913911819458e+01 8.640821049921214581e-01
9.248690243810415268e+00 -4.522053605318069458e+01 8.890760014764964581e-01
1.849807989224791527e+01 -8.793855363130569458e+01 1.428550488781183958e+00
7.766146298497915268e+00 -4.542549210786819458e+01 9.884870122186839581e-01
8.173128720372915268e+00 -4.560347062349319458e+01 1.017966992687433958e+00
8.504671689122915268e+00 -4.535078507661819458e+01 1.041267163585871458e+00
8.869173642247915268e+00 -4.528108292818069458e+01 1.067252881359308958e+00
9.286043759435415268e+00 -4.548225480318069458e+01 1.098594434093683958e+00
1.846304571256041527e+01 -8.790937882661819458e+01 1.834129102062433958e+00
8.157625790685415268e+00 -4.559919816255569458e+01 1.224052197765558958e+00
8.568514462560415268e+00 -4.578389054536819458e+01 1.254997021984308958e+00
1.557693731412291527e+01 -8.069856339693069458e+01 1.984977490734308958e+00
9.279940243810415268e+00 -4.552571183443069458e+01 1.304908521007746458e+00
1.734048711881041527e+01 -8.262641984224319458e+01 2.125022656749933958e+00
1.514786016568541527e+01 -8.223982316255569458e+01 2.341209180187433958e+00
1.575760137662291527e+01 -8.179145890474319458e+01 2.381004102062433958e+00
1.619449102506041527e+01 -8.051069718599319458e+01 2.399055249523371458e+00
1.521939336881041527e+01 -8.682441788911819458e+01 2.796821362804621458e+00
1.592569219693541527e+01 -8.669709855318069458e+01 2.847175366710871458e+00
1.572647344693541527e+01 -8.176887589693069458e+01 2.756355054210871458e+00
1.636563360318541527e+01 -8.151057511568069458e+01 2.799705273937433958e+00
1.651614629849791527e+01 -7.889509660005569458e+01 2.770469434093683958e+00
1.568777715787291527e+01 -8.170491105318069458e+01 3.128043896984308958e+00
1.626834356412291527e+01 -8.115242081880569458e+01 3.160484082531183958e+00
1.697024786099791527e+01 -8.122602921724319458e+01 3.216514355968683958e+00
1.538077032193541527e+01 -7.678389054536819458e+01 3.361762769054621458e+00
1.693106329068541527e+01 -8.116511613130569458e+01 3.586494214367121458e+00
1.483816778287291527e+01 -7.747468644380569458e+01 3.695274121593683958e+00
1.572281133756041527e+01 -7.865095597505569458e+01 3.797126538585871458e+00
1.467935430631041527e+01 -7.676362687349319458e+01 4.014869458507746458e+00
1.498062383756041527e+01 -7.500325089693069458e+01 3.979041821788996458e+00
1.491104375943541527e+01 -7.157295304536819458e+01 3.860221631359308958e+00
3.081331845372915268e+00 -1.349006730318069458e+01 -8.754753367975354195e-02
3.224154110997915268e+00 -1.366365128755569458e+01 -8.777641551569104195e-02
3.369539853185415268e+00 -1.383332902193069458e+01 -8.797477977350354195e-02
3.520052548497915268e+00 -1.400898820161819458e+01 -8.817314403131604195e-02
3.678255673497915268e+00 -1.420283585786819458e+01 -8.885978953912854195e-02
3.849886532872915268e+00 -1.443281632661819458e+01 -9.062980907037854195e-02
4.027865048497915268e+00 -1.467134171724319458e+01 -9.246086375787854195e-02
4.209993954747915268e+00 -1.490754777193069458e+01 -9.427665965631604195e-02
3.494173642247915268e+00 -1.546504288911819458e+01 -9.955620067194104195e-02
3.668367978185415268e+00 -1.570381242036819458e+01 -1.003801752813160419e-01
3.858431454747915268e+00 -1.599189835786819458e+01 -1.025926996953785419e-01
4.061312314122915268e+00 -1.630891495943069458e+01 -1.050188471563160419e-01
4.269564267247915268e+00 -1.662495499849319458e+01 -1.074449946172535419e-01
4.492098446935415268e+00 -1.697090226411819458e+01 -1.108324457891285419e-01
4.763460751622915268e+00 -1.747883683443069458e+01 -1.185839106328785419e-01
5.041292782872915268e+00 -1.797554093599319458e+01 -1.254198481328785419e-01
4.171175595372915268e+00 -1.870039445161819458e+01 -1.309893061406910419e-01
4.444002743810415268e+00 -1.926118546724319458e+01 -1.383593012578785419e-01
4.831209775060415268e+00 -2.027888566255569458e+01 -1.583788325078785419e-01
5.112215634435415268e+00 -2.076741105318069458e+01 -1.621324946172535419e-01
5.408114071935415268e+00 -2.128193742036819458e+01 -1.660692621953785419e-01
5.722567196935415268e+00 -2.182832413911819458e+01 -1.702654291875660419e-01
6.104769345372915268e+00 -2.259492570161819458e+01 -1.797716547735035419e-01
6.619539853185415268e+00 -2.379670792818069458e+01 -1.998522211797535419e-01
5.470125790685415268e+00 -2.490156632661819458e+01 -2.080461909063160419e-01
5.874056454747915268e+00 -2.581709367036819458e+01 -2.174913813360035419e-01
6.437655087560415268e+00 -2.736055070161819458e+01 -2.417681147344410419e-01
7.255282040685415268e+00 -2.985725480318069458e+01 -2.869341303594410419e-01
9.849398251622915268e+00 -3.941816788911819458e+01 -4.935381342656910419e-01
1.047281133756041527e+01 -4.055146867036819458e+01 -4.982378412969410419e-01
7.186068173497915268e+00 -2.673567277193069458e+01 -1.707384516485035419e-01
7.582308407872915268e+00 -2.736714249849319458e+01 -1.709520746953785419e-01
9.476473446935415268e+00 -4.401130753755569458e+01 -4.943621088750660419e-01
1.020852911099791527e+01 -4.567244035005569458e+01 -5.044329096563160419e-01
1.030118047818541527e+01 -4.438850480318069458e+01 -4.546739985235035419e-01
1.071109258756041527e+01 -4.453120499849319458e+01 -4.334185053594410419e-01
7.095125790685415268e+00 -2.822480851411819458e+01 -1.071093012578785419e-01
7.586947079747915268e+00 -2.923091202974319458e+01 -1.101152827031910419e-01
7.191317196935415268e+00 -2.678852921724319458e+01 -5.193352000787854195e-02
7.474398251622915268e+00 -2.700239640474319458e+01 -4.119133250787854195e-02
9.587435360997915268e+00 -4.460835343599319458e+01 -3.049700190313160419e-01
9.962435360997915268e+00 -4.461409074068069458e+01 -2.797624995000660419e-01
1.031729375943541527e+01 -4.452339249849319458e+01 -2.540666987188160419e-01
1.077640020474791527e+01 -4.487007218599319458e+01 -2.345964838750660419e-01
7.325350400060415268e+00 -2.920369035005569458e+01 6.309277843683958054e-03
7.279451962560415268e+00 -2.805476456880569458e+01 3.740668995305895805e-02
7.322176571935415268e+00 -2.732075577974319458e+01 6.194282276555895805e-02
7.463533993810415268e+00 -2.699482804536819458e+01 8.011604053899645805e-02
9.569491025060415268e+00 -4.459199601411819458e+01 -1.019518305547535419e-01
9.926302548497915268e+00 -4.451472550630569458e+01 -7.650017039850354195e-02
1.027713262662291527e+01 -4.441035538911819458e+01 -5.075859325006604195e-02
1.072146856412291527e+01 -4.469905167818069458e+01 -2.875541942194104195e-02
7.066317196935415268e+00 -2.818147355318069458e+01 1.464459965936839581e-01
7.266390439122915268e+00 -2.803865128755569458e+01 1.632306645624339581e-01
7.181795712560415268e+00 -2.681831437349319458e+01 1.883924077264964581e-01
7.449373837560415268e+00 -2.697493058443069458e+01 2.020795415155589581e-01
9.532259579747915268e+00 -4.448335343599319458e+01 1.004560063593089581e-01
9.964022275060415268e+00 -4.475459367036819458e+01 1.237409184686839581e-01
1.034292852506041527e+01 -4.476521378755569458e+01 1.499707768671214581e-01
1.079617559537291527e+01 -4.507954484224319458e+01 1.738202641718089581e-01
1.122452032193541527e+01 -4.526802140474319458e+01 1.986005376093089581e-01
7.258089657872915268e+00 -2.804194718599319458e+01 2.894818852655589581e-01
7.313875790685415268e+00 -2.735615617036819458e+01 3.067548344843089581e-01
7.433626767247915268e+00 -2.694892960786819458e+01 3.232038090936839581e-01
9.589998837560415268e+00 -4.482917863130569458e+01 3.019635747186839581e-01
9.948763485997915268e+00 -4.475141984224319458e+01 3.276288579218089581e-01
1.032242071256041527e+01 -4.473945695161819458e+01 3.532483647577464581e-01
1.080374395474791527e+01 -4.517427140474319458e+01 3.789289067499339581e-01
1.150882207974791527e+01 -4.649641495943069458e+01 4.054486821405589581e-01
7.149691220372915268e+00 -2.764851456880569458e+01 4.147107671014964581e-01
7.441561337560415268e+00 -2.787934952974319458e+01 4.308240483514964581e-01
7.559237118810415268e+00 -2.744661027193069458e+01 4.458539555780589581e-01
9.552889462560415268e+00 -4.472090226411819458e+01 5.044324467889964581e-01
1.570999395474791527e+01 -7.136409074068069458e+01 6.166455815546214581e-01
1.049392950162291527e+01 -4.556343156099319458e+01 5.595319340936839581e-01
1.081521856412291527e+01 -4.528657609224319458e+01 5.849988530389964581e-01
1.160684454068541527e+01 -4.696223527193069458e+01 6.199872563593089581e-01
1.083865606412291527e+01 -4.232038956880569458e+01 6.214826176874339581e-01
7.307161923497915268e+00 -2.739851456880569458e+01 5.528791020624339581e-01
7.555941220372915268e+00 -2.746724015474319458e+01 5.692670415155589581e-01
9.624422665685415268e+00 -4.513484269380569458e+01 7.107617924921214581e-01
1.032913457974791527e+01 -4.664167863130569458e+01 7.492597172968089581e-01
1.060916387662291527e+01 -4.614094620943069458e+01 7.725446294061839581e-01
1.088321172818541527e+01 -4.564045792818069458e+01 7.954175542108714581e-01
1.130349981412291527e+01 -4.577693253755569458e+01 8.239057133905589581e-01
1.078518926724791527e+01 -4.216352921724319458e+01 8.137891362421214581e-01
1.137539922818541527e+01 -4.304853898286819458e+01 8.487622807733714581e-01
7.559603329747915268e+00 -2.751423722505569458e+01 6.938245366327464581e-01
1.850161993131041527e+01 -8.794258195161819458e+01 1.428779370617121458e+00
1.526480352506041527e+01 -6.952363663911819458e+01 1.249625928234308958e+00
1.694375860318541527e+01 -7.435627824068069458e+01 1.355735547374933958e+00
1.084903204068541527e+01 -4.555818253755569458e+01 1.001991040538996458e+00
1.143521368131041527e+01 -4.638179093599319458e+01 1.041435010265558958e+00
1.110525762662291527e+01 -4.349189835786819458e+01 1.026008374523371458e+00
7.305819150060415268e+00 -2.746162492036819458e+01 8.001020024530589581e-01
7.600252743810415268e+00 -2.769844132661819458e+01 8.204114506952464581e-01
1.846585332974791527e+01 -8.791035538911819458e+01 1.834327466320246458e+00
1.810635625943541527e+01 -8.278389054536819458e+01 1.799613721203058958e+00
1.831204473599791527e+01 -8.055464249849319458e+01 1.808692700695246458e+00
1.803750860318541527e+01 -7.641389542818069458e+01 1.781898267101496458e+00
1.831863653287291527e+01 -7.486470109224319458e+01 1.799628979992121458e+00
1.696194707974791527e+01 -6.688057023286819458e+01 1.688148267101496458e+00
1.146914922818541527e+01 -4.351899796724319458e+01 1.252860791515558958e+00
1.163931524381041527e+01 -4.276448136568069458e+01 1.263877637218683958e+00
1.734317266568541527e+01 -8.262751847505569458e+01 2.125221021007746458e+00
1.632254278287291527e+01 -7.463984757661819458e+01 2.001014478038996458e+00
1.695047247037291527e+01 -7.460554581880569458e+01 2.046882397960871458e+00
1.942630254849791527e+01 -8.248054581880569458e+01 2.277168042492121458e+00
1.949661504849791527e+01 -7.983845597505569458e+01 2.266013867687433958e+00
1.698160040006041527e+01 -6.704817277193069458e+01 2.002525098156183958e+00
1.122464239224791527e+01 -4.263215714693069458e+01 1.429389722179621458e+00
1.197098028287291527e+01 -4.405293351411819458e+01 1.492927319835871458e+00
1.670376836881041527e+01 -7.966633683443069458e+01 2.429145581554621458e+00
1.562381231412291527e+01 -7.150935441255569458e+01 2.259956128429621458e+00
1.682742559537291527e+01 -7.416645890474319458e+01 2.377845532726496458e+00
1.743680059537291527e+01 -7.405146867036819458e+01 2.421989209484308958e+00
1.832351934537291527e+01 -7.509138566255569458e+01 2.499076611828058958e+00
1.102945196256041527e+01 -4.336042863130569458e+01 1.618339307140558958e+00
1.125686895474791527e+01 -4.281037980318069458e+01 1.629417187999933958e+00
1.153848516568541527e+01 -4.249409562349319458e+01 1.648063428234308958e+00
1.651639043912291527e+01 -7.888520890474319458e+01 2.770347363781183958e+00
1.808499395474791527e+01 -8.306599503755569458e+01 2.952094800304621458e+00
1.681839239224791527e+01 -7.423603898286819458e+01 2.722770459484308958e+00
1.806399786099791527e+01 -7.685554581880569458e+01 2.856498486828058958e+00
1.772537481412291527e+01 -7.271553117036819458e+01 2.768256909679621458e+00
2.009744512662291527e+01 -7.969038468599319458e+01 3.052985913585871458e+00
1.122207891568541527e+01 -4.273066788911819458e+01 1.823203809093683958e+00
1.191006719693541527e+01 -4.393452531099319458e+01 1.893394238781183958e+00
1.697268926724791527e+01 -8.122627335786819458e+01 3.216712720226496458e+00
1.788015997037291527e+01 -8.223884660005569458e+01 3.304054028820246458e+00
1.571182500943541527e+01 -6.939131242036819458e+01 2.886070020031183958e+00
1.722647344693541527e+01 -7.335676652193069458e+01 3.079826123546808958e+00
1.808291875943541527e+01 -7.429988175630569458e+01 3.163917310070246458e+00
1.992618047818541527e+01 -7.911079484224319458e+01 3.399436719249933958e+00
2.037576543912291527e+01 -7.819990617036819458e+01 3.416007764171808958e+00
1.190249883756041527e+01 -4.396101456880569458e+01 2.096732861828058958e+00
1.693374883756041527e+01 -8.116633683443069458e+01 3.586723096203058958e+00
1.630166875943541527e+01 -7.500215226411819458e+01 3.389060742687433958e+00
1.612137090787291527e+01 -7.133076554536819458e+01 3.286552197765558958e+00
1.641543829068541527e+01 -6.996247941255569458e+01 3.276420361828058958e+00
1.884414922818541527e+01 -7.756807023286819458e+01 3.648368604015558958e+00
1.115567266568541527e+01 -4.403877335786819458e+01 2.243049390148371458e+00
1.146548711881041527e+01 -4.378303605318069458e+01 2.260932690929621458e+00
1.181021368131041527e+01 -4.366963273286819458e+01 2.284980542492121458e+00
1.654056036099791527e+01 -7.623432999849319458e+01 3.790916211437433958e+00
1.608462774381041527e+01 -7.127192765474319458e+01 3.613090283703058958e+00
1.635635625943541527e+01 -6.980720597505569458e+01 3.590873486828058958e+00
1.836917364224791527e+01 -7.569795304536819458e+01 3.917686230968683958e+00
1.808291875943541527e+01 -7.192012101411819458e+01 3.788978345226496458e+00
1.125638067349791527e+01 -4.302851945161819458e+01 2.425163037609308958e+00
1.153885137662291527e+01 -4.270662003755569458e+01 2.438209302257746458e+00
1.491385137662291527e+01 -7.157624894380569458e+01 3.860542065929621458e+00
1.569424688443541527e+01 -7.239057999849319458e+01 3.948005444835871458e+00
1.608267461881041527e+01 -7.136872941255569458e+01 3.945213086437433958e+00
1.741067754849791527e+01 -7.447016984224319458e+01 4.153770215343683958e+00
1.753421270474791527e+01 -7.232173234224319458e+01 4.092582471203058958e+00
1.726846563443541527e+01 -6.874092179536819458e+01 3.952949292492121458e+00
1.157364141568541527e+01 -4.431538468599319458e+01 2.690635449718683958e+00
1.143924200162291527e+01 -4.238533097505569458e+01 2.617133862804621458e+00
1.587893926724791527e+01 -6.960603410005569458e+01 3.821800000499933958e+00
1.710281622037291527e+01 -7.229170304536819458e+01 4.006339795421808958e+00
1.748684942349791527e+01 -7.128559952974319458e+01 4.005332715343683958e+00
1.901468145474791527e+01 -7.491865617036819458e+01 4.244651562999933958e+00
1.943655645474791527e+01 -7.401765519380569458e+01 4.250053174328058958e+00
1.167764532193541527e+01 -4.264558488130569458e+01 2.622886426281183958e+00
2.036502325162291527e+01 -7.268147355318069458e+01 4.284370190929621458e+00
1.115066778287291527e+01 -4.275679093599319458e+01 1.906898267101496458e+00
1.186722051724791527e+01 -4.406391984224319458e+01 1.984061963390558958e+00
1.218399297818541527e+01 -4.379585343599319458e+01 2.004401929210871458e+00
7.881868954747915268e+00 -2.700434952974319458e+01 1.395560986828058958e+00
8.162264462560415268e+00 -2.714936906099319458e+01 1.420478589367121458e+00
1.775857793912291527e+01 -7.699690324068069458e+01 3.342750317882746458e+00
1.671634161099791527e+01 -6.970930558443069458e+01 3.109031445812433958e+00
1.923184454068541527e+01 -7.754682999849319458e+01 3.470802075695246458e+00
1.142752325162291527e+01 -4.391291886568069458e+01 2.155128247570246458e+00
1.185879766568541527e+01 -4.409040910005569458e+01 2.192954785656183958e+00
1.180166875943541527e+01 -4.243684464693069458e+01 2.154121167492121458e+00
1.177224981412291527e+01 -4.098677140474319458e+01 2.121711499523371458e+00
1.207864629849791527e+01 -4.078743058443069458e+01 2.141822583507746458e+00
1.769803106412291527e+01 -7.684590226411819458e+01 3.697273022960871458e+00
1.850052129849791527e+01 -7.742488175630569458e+01 3.776344067882746458e+00
1.924942266568541527e+01 -7.772969132661819458e+01 3.844184644054621458e+00
1.142581426724791527e+01 -4.396601945161819458e+01 2.363044507335871458e+00
1.927456915006041527e+01 -7.258772355318069458e+01 3.714683301281183958e+00
2.474649297818541527e+01 -9.049641495943069458e+01 4.607764966320246458e+00
1.171744024381041527e+01 -4.084114152193069458e+01 2.308753735851496458e+00
1.207364141568541527e+01 -4.082002335786819458e+01 2.336845166515558958e+00
1.602237188443541527e+01 -6.952620011568069458e+01 3.705833203624933958e+00
1.700210821256041527e+01 -7.113557511568069458e+01 3.831672437023371458e+00
1.772036993131041527e+01 -7.154194718599319458e+01 3.902259595226496458e+00
1.121328985318541527e+01 -4.318196183443069458e+01 2.530540234874933958e+00
1.148843633756041527e+01 -4.278596574068069458e+01 2.541206128429621458e+00
1.190371954068541527e+01 -4.292549210786819458e+01 2.579185254406183958e+00
1.254922735318541527e+01 -4.388252335786819458e+01 2.660178906749933958e+00
1.206595098599791527e+01 -4.084309464693069458e+01 2.531654126476496458e+00
8.197176571935415268e+00 -2.754829484224319458e+01 1.190025098156183958e+00
8.351961728185415268e+00 -2.722468644380569458e+01 1.199439771007746458e+00
8.620760556310415268e+00 -2.729719620943069458e+01 1.220741040538996458e+00
1.766995489224791527e+01 -7.272285538911819458e+01 2.619346387218683958e+00
2.005264532193541527e+01 -7.981465226411819458e+01 2.890937573742121458e+00
1.155252325162291527e+01 -4.367292863130569458e+01 1.782829053234308958e+00
1.153689825162291527e+01 -4.213703995943069458e+01 1.762809521984308958e+00
7.856966610997915268e+00 -2.724800187349319458e+01 1.292350537609308958e+00
8.173128720372915268e+00 -2.749787980318069458e+01 1.320182568859308958e+00
8.470858212560415268e+00 -2.766804581880569458e+01 1.345588452648371458e+00
8.774935360997915268e+00 -2.784590226411819458e+01 1.372306592296808958e+00
1.779202520474791527e+01 -7.334626847505569458e+01 2.983939893078058958e+00
1.952615606412291527e+01 -7.778559952974319458e+01 3.196021802257746458e+00
2.013711797818541527e+01 -7.748982316255569458e+01 3.239677197765558958e+00
1.168130743131041527e+01 -4.274299699068069458e+01 1.986900098156183958e+00
1.164956915006041527e+01 -4.122456437349319458e+01 1.959022290538996458e+00
8.265658017247915268e+00 -2.786262589693069458e+01 1.466743237804621458e+00
8.466829892247915268e+00 -2.768891984224319458e+01 1.479850537609308958e+00
8.675325985997915268e+00 -2.754646378755569458e+01 1.494056470226496458e+00
1.688345586881041527e+01 -6.961225968599319458e+01 3.180824048351496458e+00
1.121560918912291527e+01 -4.400032120943069458e+01 2.181236035656183958e+00
1.151529180631041527e+01 -4.364900285005569458e+01 2.198020703624933958e+00
1.197842657193541527e+01 -4.393135148286819458e+01 2.240272290538996458e+00
1.151175176724791527e+01 -4.077192765474319458e+01 2.135825879406183958e+00
1.188748418912291527e+01 -4.080439835786819458e+01 2.167899854015558958e+00
1.361270391568541527e+01 -4.411641007661819458e+01 2.377296216320246458e+00
1.729971563443541527e+01 -7.147944718599319458e+01 3.594291455578058958e+00
1.803360235318541527e+01 -7.191328507661819458e+01 3.663734204601496458e+00
1.131070196256041527e+01 -4.290351945161819458e+01 2.370261914562433958e+00
1.161819707974791527e+01 -4.261897355318069458e+01 2.388190991710871458e+00
1.156033575162291527e+01 -4.100459367036819458e+01 2.342124707531183958e+00
1.184915411099791527e+01 -4.072004777193069458e+01 2.358512646984308958e+00
1.282998907193541527e+01 -4.284382706880569458e+01 2.493263013195246458e+00
1.351980840787291527e+01 -4.385871964693069458e+01 2.576911694835871458e+00
8.282381650060415268e+00 -2.727522355318069458e+01 1.068137891124933958e+00
8.557528134435415268e+00 -2.735298234224319458e+01 1.089729077648371458e+00
8.807528134435415268e+00 -2.734126359224319458e+01 1.109061963390558958e+00
8.960726376622915268e+00 -2.701594620943069458e+01 1.119895703624933958e+00
1.111062872037291527e+01 -4.271089249849319458e+01 1.544440991710871458e+00
1.146890508756041527e+01 -4.261555558443069458e+01 1.570838696788996458e+00
7.723543759435415268e+00 -2.709394913911819458e+01 1.156760937999933958e+00
7.985506650060415268e+00 -2.714314347505569458e+01 1.177772290538996458e+00
8.248690243810415268e+00 -2.719245988130569458e+01 1.198875195812433958e+00
8.598177548497915268e+00 -2.752656632661819458e+01 1.228965527843683958e+00
8.796663876622915268e+00 -2.733992081880569458e+01 1.243186719249933958e+00
9.008700009435415268e+00 -2.720356827974319458e+01 1.259559399913996458e+00
1.113394415006041527e+01 -4.286726456880569458e+01 1.754035718273371458e+00
1.170767461881041527e+01 -4.360640031099319458e+01 1.808921582531183958e+00
1.183865606412291527e+01 -4.262251359224319458e+01 1.807471997570246458e+00
8.198275204747915268e+00 -2.795503312349319458e+01 1.338416821788996458e+00
