-3.036328420042991638e+00 -1.844360321760177612e+01 -9.887008733581694742e-01
-2.897046193480491638e+00 -1.882702606916427612e+01 -9.995956487487944742e-01
-2.744092091917991638e+00 -1.917272919416427612e+01 -1.009513861639419474e+00
-2.683179005980491638e+00 -2.020593231916427612e+01 -1.044349677069106974e+00
-2.531933888792991638e+00 -2.071008270978927612e+01 -1.059761054022231974e+00
-2.352246388792991638e+00 -2.106506317853927612e+01 -1.070198065740981974e+00
-2.155957326292991638e+00 -2.132373017072677612e+01 -1.076545721990981974e+00
-3.306592091917991638e+00 -1.881030243635177612e+01 -9.108657903503569742e-01
-3.205639943480491638e+00 -1.941772431135177612e+01 -9.278030462097319742e-01
-3.065014943480491638e+00 -1.985412567853927612e+01 -9.391250676941069742e-01
-2.935010060667991638e+00 -2.041992157697677612e+01 -9.544448919128569742e-01
-2.778149709105491638e+00 -2.086718720197677612e+01 -9.659042424987944742e-01
-2.600415334105491638e+00 -2.122106903791427612e+01 -9.742813176941069742e-01
-2.406445607542991638e+00 -2.150207489728927612e+01 -9.802932805847319742e-01
-2.212109670042991638e+00 -2.181750458478927612e+01 -9.873123235534819742e-01
-3.440625295042991638e+00 -1.953759735822677612e+01 -8.374099798034819742e-01
-3.287671193480491638e+00 -1.988745087385177612e+01 -8.445053167175444742e-01
-3.162060841917991638e+00 -2.044543427228927612e+01 -8.572006292175444742e-01
-3.024731740355491638e+00 -2.100244110822677612e+01 -8.697433538269194742e-01
-2.851758107542991638e+00 -2.137792938947677612e+01 -8.772506780456694742e-01
-2.662060841917991638e+00 -2.168054169416427612e+01 -8.826980657409819742e-01
-2.500805959105491638e+00 -2.226733368635177612e+01 -8.957138128112944742e-01
-2.312451466917991638e+00 -2.270495575666427612e+01 -9.046249456237944742e-01
-3.516430959105491638e+00 -1.994738739728927612e+01 -7.493972844909819742e-01
-3.378125295042991638e+00 -2.040576142072677612e+01 -7.574234075378569742e-01
-3.248608693480491638e+00 -2.097204560041427612e+01 -7.677993841003569742e-01
-3.095898732542991638e+00 -2.146325653791427612e+01 -7.763443059753569742e-01
-2.931347951292991638e+00 -2.193090790510177612e+01 -7.842636174987944742e-01
-2.752514943480491638e+00 -2.235766571760177612e+01 -7.911758489441069742e-01
-2.566845998167991638e+00 -2.280065888166427612e+01 -7.983474798034819742e-01
-2.400830373167991638e+00 -2.348425263166427612e+01 -8.107528753112944742e-01
-3.593457326292991638e+00 -2.036291474103927612e+01 -6.582107610534819742e-01
-3.471509084105491638e+00 -2.094103974103927612e+01 -6.663742132019194742e-01
-3.323437795042991638e+00 -2.142639130353927612e+01 -6.727523870300444742e-01
-3.153760060667991638e+00 -2.183642548322677612e+01 -6.776657171081694742e-01
-3.005566701292991638e+00 -2.244604462385177612e+01 -6.860733098816069742e-01
-2.824292287230491638e+00 -2.289282196760177612e+01 -6.914596624206694742e-01
-2.635571584105491638e+00 -2.335546845197677612e+01 -6.970443792175444742e-01
-2.502148732542991638e+00 -2.437927216291427612e+01 -7.123489446472319742e-01
-3.694897755980491638e+00 -2.091235321760177612e+01 -5.644455022644194742e-01
-3.543042287230491638e+00 -2.134899872541427612e+01 -5.680923528503569742e-01
-3.378979787230491638e+00 -2.176269501447677612e+01 -5.719223089050444742e-01
-3.216382130980491638e+00 -2.224108856916427612e+01 -5.759658880066069742e-01
-3.070263966917991638e+00 -2.289367645978927612e+01 -5.822372503112944742e-01
-2.899365529417991638e+00 -2.345275849103927612e+01 -5.871505803894194742e-01
-2.740674123167991638e+00 -2.420690888166427612e+01 -5.938491887878569742e-01
-2.555127248167991638e+00 -2.484252899885177612e+01 -5.995101995300444742e-01
-3.761304005980491638e+00 -2.127014130353927612e+01 -4.644088811706694742e-01
-3.602368459105491638e+00 -2.168688935041427612e+01 -4.659652776550444742e-01
-3.430859670042991638e+00 -2.207543915510177612e+01 -4.672164983581694742e-01
-3.284863576292991638e+00 -2.268383759260177612e+01 -4.702835149597319742e-01
-3.137768849730491638e+00 -2.336083954572677612e+01 -4.738388128112944742e-01
-2.977002248167991638e+00 -2.403198212385177612e+01 -4.772110051941069742e-01
-2.798535451292991638e+00 -2.467150849103927612e+01 -4.802017278503569742e-01
-2.606274709105491638e+00 -2.528857392072677612e+01 -4.829177923034819742e-01
-3.824048146605491638e+00 -2.160790985822677612e+01 -3.604202337097319742e-01
-3.657666310667991638e+00 -2.200170868635177612e+01 -3.606338567566069742e-01
-3.496411427855491638e+00 -2.247253388166427612e+01 -3.605423040222319742e-01
-3.355664357542991638e+00 -2.314111298322677612e+01 -3.611526555847319742e-01
-3.193188771605491638e+00 -2.374291962385177612e+01 -3.613967962097319742e-01
-3.034863576292991638e+00 -2.446130341291427612e+01 -3.619918889831694742e-01
-2.854199513792991638e+00 -2.511816376447677612e+01 -3.622360296081694742e-01
-2.676465138792991638e+00 -2.590441864728927612e+01 -3.621749944519194742e-01
-3.883984670042991638e+00 -2.192993134260177612e+01 -2.538681096862944742e-01
-3.713818654417991638e+00 -2.232128876447677612e+01 -2.518081731628569742e-01
-3.570996388792991638e+00 -2.292468231916427612e+01 -2.495651311706694742e-01
-3.414380177855491638e+00 -2.351977509260177612e+01 -2.472457952331694742e-01
-3.242627248167991638e+00 -2.408239716291427612e+01 -2.448501653503569742e-01
-3.090161427855491638e+00 -2.487097138166427612e+01 -2.421951360534819742e-01
-2.911328420042991638e+00 -2.557678192853927612e+01 -2.394943303894194742e-01
-2.730786427855491638e+00 -2.637866181135177612e+01 -2.365951604675444742e-01
-3.943188771605491638e+00 -2.224792450666427612e+01 -1.437759466003569742e-01
-3.782300099730491638e+00 -2.271154755353927612e+01 -1.402511663269194742e-01
-3.632519826292991638e+00 -2.329650849103927612e+01 -1.354446477722319742e-01
-3.461987599730491638e+00 -2.382556122541427612e+01 -1.308364934753569742e-01
-3.301587209105491638e+00 -2.448876923322677612e+01 -1.254501409362944742e-01
-3.143994435667991638e+00 -2.526977509260177612e+01 -1.193313665222319742e-01
-2.970776662230491638e+00 -2.605371063947677612e+01 -1.130905217956694742e-01
-2.781323537230491638e+00 -2.681799286603927612e+01 -1.061630315612944742e-01
-4.003613576292991638e+00 -2.257311981916427612e+01 -3.124237726441947416e-02
-3.846997365355491638e+00 -2.308007782697677612e+01 -2.468109796754447416e-02
-3.682690724730491638e+00 -2.359887665510177612e+01 -1.795197199098197416e-02
-3.511181935667991638e+00 -2.414099091291427612e+01 -1.090241144410697416e-02
-3.360913380980491638e+00 -2.489770478010177612e+01 -1.655585272231974159e-03
-3.196728810667991638e+00 -2.566027802228927612e+01 7.759087579330525841e-03
-3.023266896605491638e+00 -2.647314423322677612e+01 1.778411199339302584e-02
-2.833081349730491638e+00 -2.726879853010177612e+01 2.771758367308052584e-02
-4.054761037230491638e+00 -2.284692353010177612e+01 8.412932683714302584e-02
-3.899487599730491638e+00 -2.337744110822677612e+01 9.325408269651802584e-02
-3.733838185667991638e+00 -2.390722626447677612e+01 1.017990045715180258e-01
-3.569531545042991638e+00 -2.451647919416427612e+01 1.121749811340180258e-01
-3.419018849730491638e+00 -2.529785126447677612e+01 1.251449518371430258e-01
-3.245190724730491638e+00 -2.601733368635177612e+01 1.372909479308930258e-01
-3.074902638792991638e+00 -2.688610810041427612e+01 1.524276666808930258e-01
-2.890942677855491638e+00 -2.777368134260177612e+01 1.672439508605805258e-01
-4.105420216917991638e+00 -2.311816376447677612e+01 2.020034723449555258e-01
-3.952832326292991638e+00 -2.368054169416427612e+01 2.134475641418305258e-01
-3.786694630980491638e+00 -2.422497528791427612e+01 2.251968317199555258e-01
-3.632886037230491638e+00 -2.492468231916427612e+01 2.399978571105805258e-01
-3.468579396605491638e+00 -2.563818329572677612e+01 2.551345758605805258e-01
-3.299267873167991638e+00 -2.641735810041427612e+01 2.716140680480805258e-01
-3.127881154417991638e+00 -2.730920380353927612e+01 2.903518610168305258e-01
-2.945630177855491638e+00 -2.824877899885177612e+01 3.108444147277680258e-01
-5.757571309804916382e-01 -7.231811225414276123e+00 -8.444290227722319742e-01
-4.938479512929916382e-01 -7.266479194164276123e+00 -8.453140325378569742e-01
-4.109622091054916382e-01 -7.297973334789276123e+00 -8.461990423034819742e-01
-3.274661153554916382e-01 -7.329711616039276123e+00 -8.470687932800444742e-01
-2.436038106679916382e-01 -7.361571967601776123e+00 -8.479538030456694742e-01
-1.593752950429916382e-01 -7.393554389476776123e+00 -8.488540716003569742e-01
-7.429228723049163818e-02 -7.425780951976776123e+00 -8.497390813659819742e-01
1.115693151950836182e-02 -7.454589545726776123e+00 -8.506240911316069742e-01
-6.507083028554916382e-01 -7.899779975414276123e+00 -8.476181096862944742e-01
-5.617190450429916382e-01 -7.931396186351776123e+00 -8.483047551941069742e-01
-4.726077169179916382e-01 -7.966674506664276123e+00 -8.489761419128569742e-01
-3.822756856679916382e-01 -7.998778998851776123e+00 -8.496780462097319742e-01
-2.918215841054916382e-01 -8.030883491039276123e+00 -8.503646917175444742e-01
-2.008792012929916382e-01 -8.063232123851776123e+00 -8.510513372253569742e-01
-1.089602559804916382e-01 -8.092284858226776123e+00 -8.517532415222319742e-01
-1.704131066799163818e-02 -8.124877631664276123e+00 -8.524551458191069742e-01
-7.301760762929916382e-01 -8.608520209789276123e+00 -8.470382757019194742e-01
-6.345950216054916382e-01 -8.644653022289276123e+00 -8.477706975769194742e-01
-5.384036153554916382e-01 -8.680907905101776123e+00 -8.485031194519194742e-01
-4.412356466054916382e-01 -8.717651069164276123e+00 -8.492508001159819742e-01
-3.439456075429916382e-01 -8.754394233226776123e+00 -8.499832219909819742e-01
-2.460452169179916382e-01 -8.791381537914276123e+00 -8.507309026550444742e-01
-1.471682637929916382e-01 -8.828735053539276123e+00 -8.514938421081694742e-01
-4.877959191799163818e-02 -8.880737006664276123e+00 -8.530960149597319742e-01
-8.225833028554916382e-01 -9.431518256664276123e+00 -8.463668889831694742e-01
-7.202883809804916382e-01 -9.484130561351776123e+00 -8.474807805847319742e-01
-6.183596700429916382e-01 -9.549438178539276123e+00 -8.495407171081694742e-01
-5.149661153554916382e-01 -9.615722358226776123e+00 -8.516159124206694742e-01
-4.107180684804916382e-01 -9.682372748851776123e+00 -8.537216253112944742e-01
-3.053713887929916382e-01 -9.749877631664276123e+00 -8.558425969909819742e-01
-1.985598653554916382e-01 -9.818237006664276123e+00 -8.580093450378569742e-01
-9.077177941799163818e-02 -9.881225287914276123e+00 -8.601303167175444742e-01
-9.470950216054916382e-01 -1.054174774885177612e+01 -8.521347112487944742e-01
-8.362551778554916382e-01 -1.061962860822677612e+01 -8.544235296081694742e-01
-7.240725606679916382e-01 -1.069860810041427612e+01 -8.567276067566069742e-01
-6.111575216054916382e-01 -1.079064911603927612e+01 -8.596725530456694742e-01
-4.975100606679916382e-01 -1.088903778791427612e+01 -8.629074163269194742e-01
-3.821536153554916382e-01 -1.098889130353927612e+01 -8.662033147644194742e-01
-2.636233419179916382e-01 -1.107153290510177612e+01 -8.685989446472319742e-01
-1.432620137929916382e-01 -1.113366669416427612e+01 -8.700027532409819742e-01
-1.131543263792991638e+00 -1.218640106916427612e+01 -8.721084661316069742e-01
-1.012646779417991638e+00 -1.234802216291427612e+01 -8.772964544128569742e-01
-8.848391622304916382e-01 -1.244592255353927612e+01 -8.799057073425444742e-01
-7.545901387929916382e-01 -1.254040497541427612e+01 -8.823471135925444742e-01
-6.231204122304916382e-01 -1.263574188947677612e+01 -8.848037786316069742e-01
-4.900637716054916382e-01 -1.273229950666427612e+01 -8.873062200378569742e-01
-3.537112325429916382e-01 -1.280871552228927612e+01 -8.888626165222319742e-01
-2.162600606679916382e-01 -1.287768524885177612e+01 -8.904495305847319742e-01
-1.354687795042991638e+00 -1.417675751447677612e+01 -8.905563421081694742e-01
-1.232373341917991638e+00 -1.450134247541427612e+01 -9.017257757019194742e-01
-1.102124318480491638e+00 -1.480871552228927612e+01 -9.121170110534819742e-01
-9.569827169179916382e-01 -1.501232880353927612e+01 -9.182510442566069742e-01
-8.000002950429916382e-01 -1.509570282697677612e+01 -9.195327825378569742e-01
-6.415530294179916382e-01 -1.517968720197677612e+01 -9.208145208191069742e-01
-4.811526387929916382e-01 -1.526477020978927612e+01 -9.221115178894194742e-01
-3.198977559804916382e-01 -1.535034149885177612e+01 -9.234237737487944742e-01
-2.155346974730491638e+00 -2.132543915510177612e+01 -1.076606757147231974e+00
-1.949414357542991638e+00 -2.153601044416427612e+01 -1.081352240545669474e+00
-1.726147755980491638e+00 -2.160046356916427612e+01 -1.080268866522231974e+00
-1.501050099730491638e+00 -2.166271942853927612e+01 -1.079643256170669474e+00
-1.025342091917991638e+00 -1.822998017072677612e+01 -9.550857610534819742e-01
-8.366213887929916382e-01 -1.833227509260177612e+01 -9.562912053894194742e-01
-6.525393575429916382e-01 -1.857019013166427612e+01 -9.627304143737944742e-01
-4.658938497304916382e-01 -1.883666962385177612e+01 -9.696579046081694742e-01
-2.211987599730491638e+00 -2.182287567853927612e+01 -9.874649114441069742e-01
-2.052441701292991638e+00 -2.253808563947677612e+01 -1.007026679022231974e+00
-1.895947560667991638e+00 -2.343811005353927612e+01 -1.032157904608169474e+00
-1.707104787230491638e+00 -2.417040985822677612e+01 -1.051872260076919474e+00
-1.515332326292991638e+00 -2.504943817853927612e+01 -1.075950629217544474e+00
-1.278637990355491638e+00 -2.547912567853927612e+01 -1.086006171209731974e+00
-1.053296193480491638e+00 -2.630566376447677612e+01 -1.108100897772231974e+00
-8.183108419179916382e-01 -2.726379364728927612e+01 -1.134040839178481974e+00
-2.311963185667991638e+00 -2.270812958478927612e+01 -9.047012395691069742e-01
-2.165722951292991638e+00 -2.363977020978927612e+01 -9.266891546081694742e-01
-2.016430959105491638e+00 -2.473803681135177612e+01 -9.528732366394194742e-01
-1.796948537230491638e+00 -2.525610321760177612e+01 -9.635086126159819742e-01
-1.567822560667991638e+00 -2.576440399885177612e+01 -9.737625188659819742e-01
-1.347485646605491638e+00 -2.657482880353927612e+01 -9.918136663269194742e-01
-1.133374318480491638e+00 -2.782873505353927612e+01 -1.021217352850356974e+00
-8.821536153554916382e-01 -2.876208466291427612e+01 -1.042030341131606974e+00
-2.401196584105491638e+00 -2.349560517072677612e+01 -8.109970159362944742e-01
-2.260693654417991638e+00 -2.456115692853927612e+01 -8.316116399597319742e-01
-2.073926076292991638e+00 -2.535205048322677612e+01 -8.459854192566069742e-01
-1.862866505980491638e+00 -2.604772919416427612e+01 -8.581008977722319742e-01
-1.647168263792991638e+00 -2.685314911603927612e+01 -8.724441594909819742e-01
-1.422558888792991638e+00 -2.776977509260177612e+01 -8.890152044128569742e-01
-1.187207326292991638e+00 -2.884228485822677612e+01 -9.086990423034819742e-01
-9.356204122304916382e-01 -3.000463837385177612e+01 -9.300766057800444742e-01
-2.501782521605491638e+00 -2.438391083478927612e+01 -7.124252385925444742e-01
-2.307812795042991638e+00 -2.501269501447677612e+01 -7.205276555847319742e-01
-2.133496388792991638e+00 -2.598791474103927612e+01 -7.344741887878569742e-01
-1.936352834105491638e+00 -2.693017548322677612e+01 -7.476425237487944742e-01
-1.709668263792991638e+00 -2.770568817853927612e+01 -7.577896184753569742e-01
-1.473462209105491638e+00 -2.857080048322677612e+01 -7.692794866394194742e-01
-1.233594045042991638e+00 -2.971154755353927612e+01 -7.851944036316069742e-01
-9.802981466054916382e-01 -3.103832978010177612e+01 -8.040084905456694742e-01
-2.554761037230491638e+00 -2.484692353010177612e+01 -5.995559758972319742e-01
-2.372143849730491638e+00 -2.563244599103927612e+01 -6.067886419128569742e-01
-2.192090138792991638e+00 -2.661157196760177612e+01 -6.169967717956694742e-01
-1.995679005980491638e+00 -2.763854950666427612e+01 -6.269149846862944742e-01
-1.758984670042991638e+00 -2.837255829572677612e+01 -6.330032415222319742e-01
-1.528271779417991638e+00 -2.943298310041427612e+01 -6.429519719909819742e-01
-1.275830373167991638e+00 -3.049584931135177612e+01 -6.519241399597319742e-01
-1.018628224730491638e+00 -3.191674774885177612e+01 -6.657943792175444742e-01
-2.605908498167991638e+00 -2.529333466291427612e+01 -4.829483098816069742e-01
-2.438428029417991638e+00 -2.627062958478927612e+01 -4.881668157409819742e-01
-2.237134084105491638e+00 -2.708801239728927612e+01 -4.919052190612944742e-01
-2.045971974730491638e+00 -2.823644989728927612e+01 -4.981002874206694742e-01
-1.817334279417991638e+00 -2.916516083478927612e+01 -5.023574895691069742e-01
-1.566723927855491638e+00 -3.003198212385177612e+01 -5.059433049987944742e-01
-1.323681935667991638e+00 -3.138842743635177612e+01 -5.130844182800444742e-01
-1.049023732542991638e+00 -3.260192841291427612e+01 -5.188827581237944742e-01
-2.676343068480491638e+00 -2.591223114728927612e+01 -3.621902532409819742e-01
-2.485180959105491638e+00 -2.671630829572677612e+01 -3.630142278503569742e-01
-2.294262990355491638e+00 -2.769482392072677612e+01 -3.635940618347319742e-01
-2.092969045042991638e+00 -2.879504364728927612e+01 -3.643875188659819742e-01
-1.861401662230491638e+00 -2.975952118635177612e+01 -3.645401067566069742e-01
-1.616406545042991638e+00 -3.081042450666427612e+01 -3.647689885925444742e-01
-1.355420216917991638e+00 -3.197192353010177612e+01 -3.651351995300444742e-01
-1.077832326292991638e+00 -3.324926728010177612e+01 -3.647689885925444742e-01
-2.730542287230491638e+00 -2.638476532697677612e+01 -2.365799016784819742e-01
-2.532300099730491638e+00 -2.716601532697677612e+01 -2.330703801941069742e-01
-2.348828420042991638e+00 -2.827404755353927612e+01 -2.290268010925444742e-01
-2.137402638792991638e+00 -2.931982392072677612e+01 -2.248611516784819742e-01
-1.906201466917991638e+00 -3.036132782697677612e+01 -2.204971380066069742e-01
-1.660107716917991638e+00 -3.149121063947677612e+01 -2.158279485534819742e-01
-1.391308888792991638e+00 -3.263110321760177612e+01 -2.109146184753569742e-01
-1.105298146605491638e+00 -3.386242645978927612e+01 -2.056350774597319742e-01
-2.780957326292991638e+00 -2.682421845197677612e+01 -1.061172551941069742e-01
-2.591992482542991638e+00 -2.773876923322677612e+01 -9.900665949098197416e-02
-2.395825490355491638e+00 -2.876989716291427612e+01 -9.037018488160697416e-02
-2.183179005980491638e+00 -2.986157196760177612e+01 -8.116913507691947416e-02
-1.954053029417991638e+00 -3.100537079572677612e+01 -7.147980402223197416e-02
-1.696728810667991638e+00 -3.205627411603927612e+01 -6.215668390504447416e-02
-1.426343068480491638e+00 -3.327282685041427612e+01 -5.159760187379447416e-02
-1.132031545042991638e+00 -3.445703095197677612e+01 -4.016876886598197416e-02
-2.832837209105491638e+00 -2.727526825666427612e+01 2.779387761839302584e-02
-2.648144826292991638e+00 -2.827575653791427612e+01 4.065703679808052584e-02
-2.441723927855491638e+00 -2.925488251447677612e+01 5.347441961058052584e-02
-2.229809865355491638e+00 -3.041271942853927612e+01 6.833648015745552584e-02
-1.997265920042991638e+00 -3.158398407697677612e+01 8.353423406370552584e-02
-1.735425099730491638e+00 -3.265563935041427612e+01 9.787749578245552584e-02
-1.456982716917991638e+00 -3.382897919416427612e+01 1.135024957824555258e-01
-1.159009084105491638e+00 -3.505957001447677612e+01 1.299362116027680258e-01
-2.890942677855491638e+00 -2.778222626447677612e+01 1.673812799621430258e-01
-2.697949513792991638e+00 -2.875073212385177612e+01 1.843337946105805258e-01
-2.492993459105491638e+00 -2.979650849103927612e+01 2.018508844543305258e-01
-2.273511037230491638e+00 -3.092712372541427612e+01 2.215652399230805258e-01
-2.037793263792991638e+00 -3.212512177228927612e+01 2.424697809387055258e-01
-1.773755177855491638e+00 -3.324682587385177612e+01 2.624282770324555258e-01
-1.488965138792991638e+00 -3.441198700666427612e+01 2.841110162902680258e-01
-1.187207326292991638e+00 -3.568615692853927612e+01 3.068160944152680258e-01
-2.945386037230491638e+00 -2.825634735822677612e+01 3.109970026183930258e-01
-2.747754201292991638e+00 -2.922497528791427612e+01 3.316116266418305258e-01
-2.543774709105491638e+00 -3.033154267072677612e+01 3.558273248840180258e-01
-2.319653615355491638e+00 -3.147058075666427612e+01 3.808517389465180258e-01
-2.078442677855491638e+00 -3.266796845197677612e+01 4.072189264465180258e-01
-1.809277638792991638e+00 -3.379174774885177612e+01 4.323043756652680258e-01
-1.522168263792991638e+00 -3.501464813947677612e+01 4.595565729308930258e-01
-1.221387013792991638e+00 -3.645117157697677612e+01 4.921951227355805258e-01
1.140107214450836182e-02 -7.454711616039276123e+00 -8.506088323425444742e-01
9.733857214450836182e-02 -7.486327826976776123e+00 -8.515091008972319742e-01
1.837643533945083618e-01 -7.514648139476776123e+00 -8.523941106628569742e-01
2.711666971445083618e-01 -7.543334662914276123e+00 -8.532791204284819742e-01
3.588131815195083618e-01 -7.572021186351776123e+00 -8.541641301941069742e-01
4.470700174570083618e-01 -7.600829780101776123e+00 -8.550491399597319742e-01
5.361813455820083618e-01 -7.630004584789276123e+00 -8.559646673034819742e-01
6.254147440195083618e-01 -7.655517280101776123e+00 -8.568344182800444742e-01
-1.667509973049163818e-02 -8.124877631664276123e+00 -8.524551458191069742e-01
7.597626745700836182e-02 -8.153686225414276123e+00 -8.531723089050444742e-01
1.689938455820083618e-01 -8.186401069164276123e+00 -8.538742132019194742e-01
2.631100565195083618e-01 -8.215575873851776123e+00 -8.545913762878569742e-01
3.574704080820083618e-01 -8.244872748851776123e+00 -8.553237981628569742e-01
4.523190408945083618e-01 -8.275390326976776123e+00 -8.561019964050444742e-01
5.483883768320083618e-01 -8.318603217601776123e+00 -8.579025335144194742e-01
6.451901346445083618e-01 -8.366332709789276123e+00 -8.597335882019194742e-01
-4.841338098049163818e-02 -8.880859076976776123e+00 -8.531112737487944742e-01
5.119599401950836182e-02 -8.926391303539276123e+00 -8.545608587097319742e-01
1.519040018320083618e-01 -8.965331733226776123e+00 -8.556289739441069742e-01
2.535885721445083618e-01 -9.004638373851776123e+00 -8.567123479675444742e-01
3.557614237070083618e-01 -9.048827826976776123e+00 -8.580703801941069742e-01
4.589108377695083618e-01 -9.097045600414276123e+00 -8.596420354675444742e-01
5.632809549570083618e-01 -9.145873725414276123e+00 -8.612289495300444742e-01
6.682614237070083618e-01 -9.194945991039276123e+00 -8.628311223816069742e-01
-9.040556848049163818e-02 -9.881469428539276123e+00 -8.601303167175444742e-01
1.860322058200836182e-02 -9.948486030101776123e+00 -8.621444768737944742e-01
1.291989237070083618e-01 -9.995605170726776123e+00 -8.633499212097319742e-01
2.411374002695083618e-01 -1.004309052228927612e+01 -8.645706243347319742e-01
3.536862283945083618e-01 -1.009094208478927612e+01 -8.657913274597319742e-01
4.670895487070083618e-01 -1.013915985822677612e+01 -8.670272893737944742e-01
5.819577127695083618e-01 -1.018786591291427612e+01 -8.682785100769194742e-01
6.971920877695083618e-01 -1.023059052228927612e+01 -8.694839544128569742e-01
-1.427737325429916382e-01 -1.113391083478927612e+01 -8.700027532409819742e-01
-2.119170129299163818e-02 -1.119140595197677612e+01 -8.713760442566069742e-01
1.012448221445083618e-01 -1.126855438947677612e+01 -8.736953801941069742e-01
2.255124002695083618e-01 -1.135046356916427612e+01 -8.762130803894194742e-01
3.510006815195083618e-01 -1.143322724103927612e+01 -8.787612981628569742e-01
4.781979471445083618e-01 -1.151696747541427612e+01 -8.813400335144194742e-01
6.073483377695083618e-01 -1.160217255353927612e+01 -8.839645452331694742e-01
6.991452127695083618e-01 -1.032189911603927612e+01 -8.208999700378569742e-01
-2.158938497304916382e-01 -1.287805145978927612e+01 -8.904647893737944742e-01
-7.758818566799163818e-02 -1.296118134260177612e+01 -8.921432561706694742e-01
6.218232214450836182e-02 -1.304919403791427612e+01 -8.943862981628569742e-01
2.040280252695083618e-01 -1.315441864728927612e+01 -8.973465032409819742e-01
3.474606424570083618e-01 -1.326086395978927612e+01 -9.003524846862944742e-01
4.929684549570083618e-01 -1.336889618635177612e+01 -9.034042424987944742e-01
6.411618143320083618e-01 -1.347888153791427612e+01 -9.065017766784819742e-01
6.967038065195083618e-01 -1.026147431135177612e+01 -7.651596135925444742e-01
-3.192874044179916382e-01 -1.535070770978927612e+01 -9.234390325378569742e-01
-1.563235372304916382e-01 -1.542932099103927612e+01 -9.246292180847319742e-01
8.227244019508361816e-03 -1.551220673322677612e+01 -9.259872503112944742e-01
1.743649393320083618e-01 -1.564526337385177612e+01 -9.292831487487944742e-01
3.424557596445083618e-01 -1.578002899885177612e+01 -9.326248235534819742e-01
5.133541971445083618e-01 -1.591686981916427612e+01 -9.360275335144194742e-01
6.875485330820083618e-01 -1.605639618635177612e+01 -9.394760198425444742e-01
6.951168924570083618e-01 -1.022741669416427612e+01 -7.107315130066069742e-01
-4.652834981679916382e-01 -1.883825653791427612e+01 -9.697036809753569742e-01
-2.753420919179916382e-01 -1.916467255353927612e+01 -9.788284368347319742e-01
-8.491240441799163818e-02 -1.976831024885177612e+01 -9.970321721862944742e-01
1.240719705820083618e-01 -1.987109345197677612e+01 -9.981765813659819742e-01
3.345211893320083618e-01 -1.990148895978927612e+01 -9.968032903503569742e-01
5.455807596445083618e-01 -1.993188446760177612e+01 -9.954299993347319742e-01
7.576168924570083618e-01 -1.994311493635177612e+01 -9.938888616394194742e-01
6.938961893320083618e-01 -1.020654267072677612e+01 -6.573715276550444742e-01
-8.174563497304916382e-01 -2.726843231916427612e+01 -1.134178168280044474e+00
-5.597659200429916382e-01 -2.810693329572677612e+01 -1.156394965155044474e+00
-2.772952169179916382e-01 -2.857727020978927612e+01 -1.167259222967544474e+00
3.954783082008361816e-03 -3.002526825666427612e+01 -1.207511908514419474e+00
3.123043924570083618e-01 -3.195739716291427612e+01 -1.261985785467544474e+00
6.476315408945083618e-01 -3.250915497541427612e+01 -1.274681097967544474e+00
1.002367869019508362e+00 -3.345617645978927612e+01 -1.299049384100356974e+00
6.930416971445083618e-01 -1.019714325666427612e+01 -6.042556829284819742e-01
-8.812991231679916382e-01 -2.876525849103927612e+01 -1.042106635076919474e+00
-5.971194356679916382e-01 -2.923791474103927612e+01 -1.050880438787856974e+00
-3.264895528554916382e-01 -3.076769989728927612e+01 -1.086692816717544474e+00
-2.509795129299163818e-02 -3.235485810041427612e+01 -1.123603827459731974e+00
3.082760721445083618e-01 -3.322900360822677612e+01 -1.142021185858169474e+00
6.581295877695083618e-01 -3.400878876447677612e+01 -1.157844550115981974e+00
5.669430643320083618e-01 -9.570068061351776123e+00 -5.372543401550444742e-01
6.722897440195083618e-01 -9.484252631664276123e+00 -5.338668889831694742e-01
-9.347659200429916382e-01 -3.001025360822677612e+01 -9.301986760925444742e-01
-6.516848653554916382e-01 -3.090759247541427612e+01 -9.456405706237944742e-01
-3.607913106679916382e-01 -3.226415985822677612e+01 -9.705734319519194742e-01
-4.035674035549163818e-02 -3.350463837385177612e+01 -9.927444524597319742e-01
3.043698221445083618e-01 -3.432922333478927612e+01 -1.005973822576919474e+00
6.697262674570083618e-01 -3.567248505353927612e+01 -1.029777533514419474e+00
5.657223612070083618e-01 -9.531982123851776123e+00 -4.865951604675444742e-01
6.711911112070083618e-01 -9.465820014476776123e+00 -4.840164251159819742e-01
-9.794436544179916382e-01 -3.104357880353927612e+01 -8.040847844909819742e-01
-6.920901387929916382e-01 -3.212805145978927612e+01 -8.184280462097319742e-01
-3.791018575429916382e-01 -3.302551239728927612e+01 -8.294296331237944742e-01
-5.439482629299163818e-02 -3.453222626447677612e+01 -8.501968450378569742e-01
3.002194315195083618e-01 -3.555334442853927612e+01 -8.627395696472319742e-01
6.769284158945083618e-01 -3.682116669416427612e+01 -8.790359563659819742e-01
5.643795877695083618e-01 -9.491820991039276123e+00 -4.365310735534819742e-01
6.698483377695083618e-01 -9.436889350414276123e+00 -4.344406194519194742e-01
-1.017895802855491638e+00 -3.192541474103927612e+01 -6.658859319519194742e-01
-7.169924825429916382e-01 -3.285754364728927612e+01 -6.733017034362944742e-01
-4.033938497304916382e-01 -3.405163544416427612e+01 -6.844863958191069742e-01
-6.574736535549163818e-02 -3.533740204572677612e+01 -6.956405706237944742e-01
2.966793924570083618e-01 -3.636364716291427612e+01 -7.034835882019194742e-01
6.835202127695083618e-01 -3.788915985822677612e+01 -7.168655462097319742e-01
5.634030252695083618e-01 -9.468505561351776123e+00 -3.867721624206694742e-01
6.687497049570083618e-01 -9.418822944164276123e+00 -3.850021428894194742e-01
-1.048291310667991638e+00 -3.261083954572677612e+01 -5.189437932800444742e-01
-7.410403341054916382e-01 -3.355749481916427612e+01 -5.221328801941069742e-01
-4.213381856679916382e-01 -3.478723114728927612e+01 -5.271682805847319742e-01
-7.734404504299163818e-02 -3.614331024885177612e+01 -5.328292913269194742e-01
2.925290018320083618e-01 -3.743627899885177612e+01 -5.377426214050444742e-01
6.899899393320083618e-01 -3.897668427228927612e+01 -5.440902776550444742e-01
5.629147440195083618e-01 -9.477172553539276123e+00 -3.377304143737944742e-01
6.682614237070083618e-01 -9.425414741039276123e+00 -3.361740178894194742e-01
-1.076977834105491638e+00 -3.325720185041427612e+01 -3.647842473816069742e-01
-7.682620137929916382e-01 -3.435498017072677612e+01 -3.648452825378569742e-01
-4.383059591054916382e-01 -3.547387665510177612e+01 -3.638687200378569742e-01
-8.881865441799163818e-02 -3.693981903791427612e+01 -3.635330266784819742e-01
2.887448221445083618e-01 -3.829443329572677612e+01 -3.626022405456694742e-01
6.969479471445083618e-01 -4.012048310041427612e+01 -3.624801702331694742e-01
5.647457987070083618e-01 -9.609496772289276123e+00 -2.888870305847319742e-01
6.716793924570083618e-01 -9.566528022289276123e+00 -2.873153753112944742e-01
-1.104443654417991638e+00 -3.386999481916427612e+01 -2.056198186706694742e-01
-7.899905294179916382e-01 -3.497692841291427612e+01 -1.996994085144194742e-01
-4.578372091054916382e-01 -3.627587860822677612e+01 -1.931686467956694742e-01
-1.006594747304916382e-01 -3.775537079572677612e+01 -1.859817571472319742e-01
2.843502908945083618e-01 -3.936950653791427612e+01 -1.781845159362944742e-01
7.032956033945083618e-01 -4.122595185041427612e+01 -1.694717473816069742e-01
5.642575174570083618e-01 -9.616820991039276123e+00 -2.388687200378569742e-01
6.714352518320083618e-01 -9.580199897289276123e+00 -2.377395696472319742e-01
-1.131177052855491638e+00 -3.446496552228927612e+01 -4.010773370973197416e-02
-8.123293966054916382e-01 -3.561657685041427612e+01 -2.965546320191947416e-02
-4.767581075429916382e-01 -3.704626435041427612e+01 -1.627350519410697416e-02
-1.133547872304916382e-01 -3.863293427228927612e+01 -1.518256170669474159e-03
2.795895487070083618e-01 -4.057617157697677612e+01 1.596831609495552584e-02
7.086666971445083618e-01 -4.220666474103927612e+01 3.176116277464302584e-02
5.647457987070083618e-01 -9.678710639476776123e+00 -1.886825628112944742e-01
6.720456033945083618e-01 -9.624999701976776123e+00 -1.875839299987944742e-01
-1.158154591917991638e+00 -3.506750458478927612e+01 1.300277643371430258e-01
-8.382083028554916382e-01 -3.636718720197677612e+01 1.483383112121430258e-01
-4.972659200429916382e-01 -3.788415497541427612e+01 1.693496637512055258e-01
-1.291018575429916382e-01 -3.975842255353927612e+01 1.947097711730805258e-01
2.751950174570083618e-01 -4.157495087385177612e+01 2.198257379699555258e-01
7.057370096445083618e-01 -4.212670868635177612e+01 2.309036188293305258e-01
5.641354471445083618e-01 -9.677367866039276123e+00 -1.384048528503569742e-01
6.714352518320083618e-01 -9.623778998851776123e+00 -1.378097600769194742e-01
-1.186352834105491638e+00 -3.569494599103927612e+01 3.069534235168305258e-01
-8.654299825429916382e-01 -3.715637177228927612e+01 3.338241510558930258e-01
-5.221682637929916382e-01 -3.891796845197677612e+01 3.647537164855805258e-01
-1.464358419179916382e-01 -4.100878876447677612e+01 4.022140436340180258e-01
2.706784158945083618e-01 -4.257836884260177612e+01 4.318466119933930258e-01
7.029293924570083618e-01 -4.205517548322677612e+01 4.283523492980805258e-01
5.636471658945083618e-01 -9.683471381664276123e+00 -8.802033136598197416e-02
6.711911112070083618e-01 -9.636352241039276123e+00 -8.757782648316947416e-02
-1.220410451292991638e+00 -3.645959442853927612e+01 4.923782282043305258e-01
-8.963137716054916382e-01 -3.805297821760177612e+01 5.277481012512055258e-01
-5.518313497304916382e-01 -4.015637177228927612e+01 5.747299127746430258e-01
-1.604739278554916382e-01 -4.197460907697677612e+01 6.163864069152680258e-01
2.646969705820083618e-01 -4.414990204572677612e+01 6.657485895324555258e-01
7.135495096445083618e-01 -4.375012177228927612e+01 6.625442438293305258e-01
5.625485330820083618e-01 -9.654540717601776123e+00 -3.859711359254447416e-02
6.693600565195083618e-01 -9.591796576976776123e+00 -3.842926691285697416e-02
6.256588846445083618e-01 -7.655761420726776123e+00 -8.568496770691069742e-01
7.156247049570083618e-01 -7.684325873851776123e+00 -8.577499456237944742e-01
8.060788065195083618e-01 -7.709350287914276123e+00 -8.586349553894194742e-01
8.972653299570083618e-01 -7.733031928539276123e+00 -8.594284124206694742e-01
9.890622049570083618e-01 -7.758788764476776123e+00 -8.603439397644194742e-01
1.081347361207008362e+00 -7.785400092601776123e+00 -8.613205022644194742e-01
1.174731150269508362e+00 -7.811156928539276123e+00 -8.622360296081694742e-01
1.267870798707008362e+00 -7.833129584789276123e+00 -8.631057805847319742e-01
6.455563455820083618e-01 -8.366820991039276123e+00 -8.597641057800444742e-01
7.430905252695083618e-01 -8.410155951976776123e+00 -8.615799016784819742e-01
8.418454080820083618e-01 -8.458495795726776123e+00 -8.634567327331694742e-01
9.419430643320083618e-01 -8.502929389476776123e+00 -8.653335637878569742e-01
1.042162790894508362e+00 -8.541381537914276123e+00 -8.668136663269194742e-01
1.142748728394508362e+00 -8.572021186351776123e+00 -8.678207464050444742e-01
1.243945017457008362e+00 -8.598388373851776123e+00 -8.687820501159819742e-01
1.345995798707008362e+00 -8.629516303539276123e+00 -8.698043889831694742e-01
6.686276346445083618e-01 -9.195434272289276123e+00 -8.628616399597319742e-01
7.744625955820083618e-01 -9.240478217601776123e+00 -8.644790716003569742e-01
8.815182596445083618e-01 -9.286132514476776123e+00 -8.661117620300444742e-01
9.899166971445083618e-01 -9.332275092601776123e+00 -8.677597112487944742e-01
1.098070994019508362e+00 -9.365112006664276123e+00 -8.686447210144194742e-01
1.206957712769508362e+00 -9.397216498851776123e+00 -8.694839544128569742e-01
1.317309275269508362e+00 -9.433593451976776123e+00 -8.705520696472319742e-01
1.430224314332008362e+00 -9.489135444164276123e+00 -8.727035589050444742e-01
6.975582987070083618e-01 -1.023107880353927612e+01 -8.694992132019194742e-01
8.140133768320083618e-01 -1.028149384260177612e+01 -8.707809514831694742e-01
9.312008768320083618e-01 -1.032604950666427612e+01 -8.720169133972319742e-01
1.050463572144508362e+00 -1.038012665510177612e+01 -8.737411565612944742e-01
1.171435251832008362e+00 -1.044641083478927612e+01 -8.760910100769194742e-01
1.293871775269508362e+00 -1.051354950666427612e+01 -8.784713811706694742e-01
1.418383494019508362e+00 -1.058166474103927612e+01 -8.808975286316069742e-01
1.543383494019508362e+00 -1.064367645978927612e+01 -8.832778997253569742e-01
6.995114237070083618e-01 -1.032165497541427612e+01 -8.208847112487944742e-01
8.708981424570083618e-01 -1.178124970197677612e+01 -8.898086614441069742e-01
1.004320994019508362e+00 -1.185156220197677612e+01 -8.918991155456694742e-01
1.139208689332008362e+00 -1.190942353010177612e+01 -8.933792180847319742e-01
1.274828806519508362e+00 -1.196777313947677612e+01 -8.948593206237944742e-01
1.411913767457008362e+00 -1.202661103010177612e+01 -8.963546819519194742e-01
1.550829783082008362e+00 -1.208618134260177612e+01 -8.978653020691069742e-01
1.690722361207008362e+00 -1.214623993635177612e+01 -8.993911809753569742e-01
6.970700174570083618e-01 -1.026123017072677612e+01 -7.651443548034819742e-01
8.270749002695083618e-01 -1.065710419416427612e+01 -7.808761663269194742e-01
1.097094431519508362e+00 -1.378491181135177612e+01 -9.150619573425444742e-01
1.201098337769508362e+00 -1.298449677228927612e+01 -8.789749212097319742e-01
1.408739939332008362e+00 -1.393835419416427612e+01 -9.186172551941069742e-01
1.567065134644508362e+00 -1.401623505353927612e+01 -9.204177923034819742e-01
1.727709665894508362e+00 -1.409521454572677612e+01 -9.222488469909819742e-01
1.888598337769508362e+00 -1.416394013166427612e+01 -9.240036077331694742e-01
6.954831033945083618e-01 -1.022729462385177612e+01 -7.107162542175444742e-01
8.260983377695083618e-01 -1.064953583478927612e+01 -7.259140081237944742e-01
1.222216501832008362e+00 -1.639758270978927612e+01 -9.470901555847319742e-01
1.195116892457008362e+00 -1.289501923322677612e+01 -8.100814885925444742e-01
1.360888376832008362e+00 -1.325109833478927612e+01 -8.223037786316069742e-01
1.771410837769508362e+00 -1.663720673322677612e+01 -9.507522649597319742e-01
1.958666697144508362e+00 -1.671899384260177612e+01 -9.520034856628569742e-01
2.152270212769508362e+00 -1.685241669416427612e+01 -9.552078313659819742e-01
6.942624002695083618e-01 -1.020642060041427612e+01 -6.573562688659819742e-01
8.180416971445083618e-01 -1.045715302228927612e+01 -6.647110051941069742e-01
9.337643533945083618e-01 -1.043395966291427612e+01 -6.623764104675444742e-01
1.049487009644508362e+00 -1.041076630353927612e+01 -6.603317327331694742e-01
1.164599314332008362e+00 -1.038769501447677612e+01 -6.583023137878569742e-01
1.279345408082008362e+00 -1.036462372541427612e+01 -6.562728948425444742e-01
1.394213572144508362e+00 -1.034155243635177612e+01 -6.545333928894194742e-01
1.508349314332008362e+00 -1.031872528791427612e+01 -6.525192327331694742e-01
6.934079080820083618e-01 -1.019689911603927612e+01 -6.042556829284819742e-01
8.174313455820083618e-01 -1.045812958478927612e+01 -6.107254094909819742e-01
9.312008768320083618e-01 -1.039550751447677612e+01 -6.075973577331694742e-01
1.046801462769508362e+00 -1.037475556135177612e+01 -6.057052678894194742e-01
1.176073923707008362e+00 -1.056616181135177612e+01 -6.100235051941069742e-01
1.292040720582008362e+00 -1.053540009260177612e+01 -6.078109807800444742e-01
1.408129587769508362e+00 -1.050732392072677612e+01 -6.057052678894194742e-01
1.523852244019508362e+00 -1.048400849103927612e+01 -6.037216253112944742e-01
6.726559549570083618e-01 -9.484008491039276123e+00 -5.338668889831694742e-01
7.783688455820083618e-01 -9.451049506664276123e+00 -5.318222112487944742e-01
8.837155252695083618e-01 -9.421020209789276123e+00 -5.298690862487944742e-01
9.890622049570083618e-01 -9.393310248851776123e+00 -5.279769964050444742e-01
1.093676462769508362e+00 -9.367553412914276123e+00 -5.261459417175444742e-01
1.198290720582008362e+00 -9.345092475414276123e+00 -5.243911809753569742e-01
1.303027048707008362e+00 -9.324096381664276123e+00 -5.226669378112944742e-01
1.407153025269508362e+00 -9.303100287914276123e+00 -5.209579534362944742e-01
6.715573221445083618e-01 -9.465575873851776123e+00 -4.840164251159819742e-01
7.771481424570083618e-01 -9.434325873851776123e+00 -4.821395940612944742e-01
8.823727518320083618e-01 -9.405639350414276123e+00 -4.803237981628569742e-01
9.875973612070083618e-01 -9.379150092601776123e+00 -4.785537786316069742e-01
1.092089548707008362e+00 -9.353393256664276123e+00 -4.767990178894194742e-01
1.197680369019508362e+00 -9.345946967601776123e+00 -4.754257268737944742e-01
1.302416697144508362e+00 -9.324950873851776123e+00 -4.737777776550444742e-01
1.406542673707008362e+00 -9.303954780101776123e+00 -4.721298284362944742e-01
6.702145487070083618e-01 -9.436645209789276123e+00 -4.344406194519194742e-01
7.754391580820083618e-01 -9.406005561351776123e+00 -4.326858587097319742e-01
8.804196268320083618e-01 -9.377441108226776123e+00 -4.309768743347319742e-01
9.852780252695083618e-01 -9.350829780101776123e+00 -4.292984075378569742e-01
1.090502634644508362e+00 -9.339111030101776123e+00 -4.278640813659819742e-01
1.197192087769508362e+00 -9.346801459789276123e+00 -4.267196721862944742e-01
1.301073923707008362e+00 -9.316894233226776123e+00 -4.249954290222319742e-01
1.404101267457008362e+00 -9.285400092601776123e+00 -4.232711858581694742e-01
6.691159158945083618e-01 -9.418578803539276123e+00 -3.850021428894194742e-01
7.742184549570083618e-01 -9.388305366039276123e+00 -3.833694524597319742e-01
8.789547830820083618e-01 -9.360107123851776123e+00 -3.820266790222319742e-01
9.836911112070083618e-01 -9.333984076976776123e+00 -3.804397649597319742e-01
1.087939158082008362e+00 -9.309447944164276123e+00 -3.788986272644194742e-01
1.191820994019508362e+00 -9.286987006664276123e+00 -3.773727483581694742e-01
1.295946970582008362e+00 -9.265868842601776123e+00 -3.756027288269194742e-01
1.399584665894508362e+00 -9.246093451976776123e+00 -3.741073674987944742e-01
6.686276346445083618e-01 -9.425170600414276123e+00 -3.361740178894194742e-01
7.738522440195083618e-01 -9.396606147289276123e+00 -3.346481389831694742e-01
8.788327127695083618e-01 -9.370116889476776123e+00 -3.331680364441069742e-01
9.838131815195083618e-01 -9.345458686351776123e+00 -3.316879339050444742e-01
1.088183298707008362e+00 -9.322997748851776123e+00 -3.302230901550444742e-01
1.192309275269508362e+00 -9.302001655101776123e+00 -3.287735051941069742e-01
1.297411814332008362e+00 -9.290038764476776123e+00 -3.273849553894194742e-01
1.407519236207008362e+00 -9.333617866039276123e+00 -3.263168401550444742e-01
6.720456033945083618e-01 -9.566283881664276123e+00 -2.873153753112944742e-01
7.786129862070083618e-01 -9.536132514476776123e+00 -2.861404485534819742e-01
8.848141580820083618e-01 -9.508056342601776123e+00 -2.847213811706694742e-01
9.910153299570083618e-01 -9.481811225414276123e+00 -2.833023137878569742e-01
1.096606150269508362e+00 -9.456908881664276123e+00 -2.818985051941069742e-01
1.201952829957008362e+00 -9.434203803539276123e+00 -2.804946966003569742e-01
1.307543650269508362e+00 -9.412597358226776123e+00 -2.790908880066069742e-01
1.412646189332008362e+00 -9.392944037914276123e+00 -2.774429387878569742e-01
6.715573221445083618e-01 -9.570556342601776123e+00 -2.377700872253569742e-01
7.781247049570083618e-01 -9.539062201976776123e+00 -2.364425725769194742e-01
8.843258768320083618e-01 -9.510986030101776123e+00 -2.351150579284819742e-01
9.905270487070083618e-01 -9.484862983226776123e+00 -2.337875432800444742e-01
1.096239939332008362e+00 -9.460693061351776123e+00 -2.324600286316069742e-01
1.201586619019508362e+00 -9.437865912914276123e+00 -2.311325139831694742e-01
1.307177439332008362e+00 -9.416381537914276123e+00 -2.298049993347319742e-01
1.412279978394508362e+00 -9.396606147289276123e+00 -2.284774846862944742e-01
6.724118143320083618e-01 -9.623901069164276123e+00 -1.875839299987944742e-01
7.776364237070083618e-01 -9.543090522289276123e+00 -1.869888372253569742e-01
8.838375955820083618e-01 -9.515014350414276123e+00 -1.857528753112944742e-01
9.901608377695083618e-01 -9.488891303539276123e+00 -1.845169133972319742e-01
1.095873728394508362e+00 -9.464721381664276123e+00 -1.832656926941069742e-01
1.201342478394508362e+00 -9.441894233226776123e+00 -1.820144719909819742e-01
1.306933298707008362e+00 -9.420409858226776123e+00 -1.807632512878569742e-01
1.412035837769508362e+00 -9.400634467601776123e+00 -1.792221135925444742e-01
6.718014627695083618e-01 -9.622802436351776123e+00 -1.378250188659819742e-01
7.771481424570083618e-01 -9.547851264476776123e+00 -1.372299260925444742e-01
8.834713846445083618e-01 -9.519897162914276123e+00 -1.361007757019194742e-01
9.897946268320083618e-01 -9.493774116039276123e+00 -1.349411077331694742e-01
1.095507517457008362e+00 -9.469604194164276123e+00 -1.337814397644194742e-01
1.200976267457008362e+00 -9.446777045726776123e+00 -1.326065130066069742e-01
1.306689158082008362e+00 -9.425170600414276123e+00 -1.314010686706694742e-01
1.411791697144508362e+00 -9.405395209789276123e+00 -1.301956243347319742e-01
6.715573221445083618e-01 -9.635375678539276123e+00 -8.759308527223197416e-02
7.767819315195083618e-01 -9.553832709789276123e+00 -8.742523859254447416e-02
8.831051737070083618e-01 -9.525756537914276123e+00 -8.664704035035697416e-02
9.895504862070083618e-01 -9.499511420726776123e+00 -8.559418390504447416e-02
1.095263376832008362e+00 -9.475341498851776123e+00 -8.449555109254447416e-02
1.200854197144508362e+00 -9.452514350414276123e+00 -8.339691828004447416e-02
1.306445017457008362e+00 -9.431029975414276123e+00 -8.200836847535697416e-02
1.411669626832008362e+00 -9.411132514476776123e+00 -8.086395929566947416e-02
6.697262674570083618e-01 -9.591674506664276123e+00 -3.842926691285697416e-02
7.764157205820083618e-01 -9.560302436351776123e+00 -3.781891535035697416e-02
8.828610330820083618e-01 -9.532226264476776123e+00 -3.688812921754447416e-02
9.893063455820083618e-01 -9.506957709789276123e+00 -3.589630792848197416e-02
1.095141306519508362e+00 -9.483276069164276123e+00 -3.487396906129447416e-02
1.200732126832008362e+00 -9.459106147289276123e+00 -3.386688898316947416e-02
1.306445017457008362e+00 -9.437621772289276123e+00 -3.281403253785697416e-02
1.411669626832008362e+00 -9.417968451976776123e+00 -3.145600031129447416e-02
1.268237009644508362e+00 -7.833373725414276123e+00 -8.631210393737944742e-01
1.362475290894508362e+00 -7.858520209789276123e+00 -8.640365667175444742e-01
1.456957712769508362e+00 -7.879882514476776123e+00 -8.649215764831694742e-01
1.552416697144508362e+00 -7.901488959789276123e+00 -8.658218450378569742e-01
1.648363962769508362e+00 -7.923095405101776123e+00 -8.667068548034819742e-01
1.744921579957008362e+00 -7.944945991039276123e+00 -8.676223821472319742e-01
1.842577829957008362e+00 -7.967040717601776123e+00 -8.685379094909819742e-01
1.939989939332008362e+00 -7.985107123851776123e+00 -8.694076604675444742e-01
1.346362009644508362e+00 -8.629882514476776123e+00 -8.698349065612944742e-01
1.448656931519508362e+00 -8.656127631664276123e+00 -8.708114690612944742e-01
1.552416697144508362e+00 -8.687255561351776123e+00 -8.718338079284819742e-01
1.656786814332008362e+00 -8.713988959789276123e+00 -8.728408880066069742e-01
1.761279001832008362e+00 -8.738525092601776123e+00 -8.736953801941069742e-01
1.866503611207008362e+00 -8.762206733226776123e+00 -8.745040960144194742e-01
1.972948923707008362e+00 -8.786864936351776123e+00 -8.756179876159819742e-01
2.080859079957008362e+00 -8.818114936351776123e+00 -8.768692083191069742e-01
1.430590525269508362e+00 -9.489623725414276123e+00 -8.727340764831694742e-01
1.544237986207008362e+00 -9.540160834789276123e+00 -8.748550481628569742e-01
1.659228220582008362e+00 -9.591430366039276123e+00 -8.769912786316069742e-01
1.776049509644508362e+00 -9.643432319164276123e+00 -8.791732854675444742e-01
1.893847361207008362e+00 -9.695922553539276123e+00 -8.813705510925444742e-01
2.012865915894508362e+00 -9.746825873851776123e+00 -8.834610051941069742e-01
2.130907908082008362e+00 -9.781249701976776123e+00 -8.846359319519194742e-01
2.249682322144508362e+00 -9.816039741039276123e+00 -8.858108587097319742e-01
1.543871775269508362e+00 -1.064440888166427612e+01 -8.833084173034819742e-01
1.671313181519508362e+00 -1.071520966291427612e+01 -8.857955999206694742e-01
1.801195994019508362e+00 -1.079235810041427612e+01 -8.888931341003569742e-01
1.931933298707008362e+00 -1.085778778791427612e+01 -8.913803167175444742e-01
2.060839548707008362e+00 -1.090100067853927612e+01 -8.926925725769194742e-01
2.190966501832008362e+00 -1.094470185041427612e+01 -8.940200872253569742e-01
2.171679392457008362e+00 -1.004138153791427612e+01 -8.465042180847319742e-01
2.454272165894508362e+00 -1.102624481916427612e+01 -8.966445989441069742e-01
1.691210642457008362e+00 -1.214685028791427612e+01 -8.994216985534819742e-01
1.831957712769508362e+00 -1.220141571760177612e+01 -9.009170598816069742e-01
1.974291697144508362e+00 -1.225671356916427612e+01 -9.024276799987944742e-01
2.118700876832008362e+00 -1.231262177228927612e+01 -9.039535589050444742e-01
2.264086619019508362e+00 -1.236901825666427612e+01 -9.054946966003569742e-01
