1.573133096098899841e+01 -1.649616906046867371e+01 -4.133658695733117838e-01
1.421216592192649841e+01 -1.733210656046867371e+01 -2.719168949639367838e-01
1.458142861723899841e+01 -1.742573449015617371e+01 -2.761740971123742838e-01
1.495728310942649841e+01 -1.751826378703117371e+01 -2.805381107842492838e-01
1.537683877348899841e+01 -1.765705773234367371e+01 -2.851004887139367838e-01
7.031501859426498413e+00 -6.462721794843673706e+00 -2.674155521904992838e-01
1.625843057036399841e+01 -1.795588585734367371e+01 -2.946372318779992838e-01
1.532178506255149841e+01 -1.637763878703117371e+01 -2.954306889092492838e-01
1.551294717192649841e+01 -1.622810265421867371e+01 -2.993674564873742838e-01
1.461023721098899841e+01 -1.788764855265617371e+01 -1.566977787529992838e-01
1.499842080473899841e+01 -1.799568077921867371e+01 -1.596122074639367838e-01
1.542578896880149841e+01 -1.814594933390617371e+01 -1.630759525811242838e-01
1.587049111723899841e+01 -1.830476281046867371e+01 -1.659903812920617838e-01
7.033577054738998413e+00 -6.464064568281173706e+00 -2.148642826592492838e-01
1.679834756255149841e+01 -1.863593956828117371e+01 -1.720786381279992838e-01
1.544165810942649841e+01 -1.652339074015617371e+01 -1.826072025811242838e-01
1.544678506255149841e+01 -1.614485070109367371e+01 -1.873221684014367838e-01
1.504322060942649841e+01 -1.849226281046867371e+01 -3.532937054987428382e-02
1.548120889067649841e+01 -1.865608116984367371e+01 -3.627541547174928382e-02
1.592810830473899841e+01 -1.881880089640617371e+01 -3.732827191706178382e-02
1.638977822661399841e+01 -1.898615929484367371e+01 -3.842690472956178382e-02
7.035652250051498413e+00 -6.465407341718673706e+00 -1.620383549248742838e-01
1.540064248442649841e+01 -1.686433312296867371e+01 -6.422951703424928382e-02
1.557996377348899841e+01 -1.669196984171867371e+01 -6.844094281549928382e-02
1.572583779692649841e+01 -1.648115441203117371e+01 -7.300332074518678382e-02
6.019661039113998413e+00 -5.825392693281173706e+00 -1.163077641045617838e-01
6.247688382863998413e+00 -5.963698357343673706e+00 -1.150718021904992838e-01
6.486457914113998413e+00 -6.108351677656173706e+00 -1.135154057061242838e-01
6.738166898488998413e+00 -6.260817497968673706e+00 -1.118827152764367838e-01
7.002082914113998413e+00 -6.420607537031173706e+00 -1.101737309014367838e-01
7.264289945363998413e+00 -6.569167107343673706e+00 -1.086631107842492838e-01
7.536750882863998413e+00 -6.720900505781173706e+00 -1.071524906670617838e-01
7.821418851613998413e+00 -6.878981560468673706e+00 -1.052756596123742838e-01
5.958259671926498413e+00 -5.737868279218673706e+00 -7.079079633112428382e-02
6.182014554738998413e+00 -5.872145622968673706e+00 -6.824257855768678382e-02
6.416633695363998413e+00 -6.013014763593673706e+00 -6.557229047174928382e-02
6.663826078176498413e+00 -6.161330193281173706e+00 -6.274941449518678382e-02
6.922737210988998413e+00 -6.316725701093673706e+00 -5.980446820612428382e-02
7.195198148488998413e+00 -6.480421990156173706e+00 -5.669167523737428382e-02
7.476692289113998413e+00 -6.644972771406173706e+00 -5.359414105768678382e-02
7.775032132863998413e+00 -6.821242302656173706e+00 -5.025246625299928382e-02
5.956916898488998413e+00 -5.734572380781173706e+00 -2.373269086237428382e-02
6.194465726613998413e+00 -5.887892693281173706e+00 -1.981118207331178382e-02
6.445076078176498413e+00 -6.050002068281173706e+00 -1.538613324518678382e-02
6.710456937551498413e+00 -6.221510857343673706e+00 -1.071694379206178382e-02
6.989875882863998413e+00 -6.402052849531173706e+00 -5.803613713936783824e-03
7.268318265676498413e+00 -6.571364372968673706e+00 -1.180200627999283824e-03
7.557258695363998413e+00 -6.743483513593673706e+00 3.519506403250716176e-03
7.861579984426498413e+00 -6.925002068281173706e+00 8.768529840750716176e-03
6.018074125051498413e+00 -5.819167107343673706e+00 2.591940874700071618e-02
6.243049710988998413e+00 -5.953444451093673706e+00 3.069540972356321618e-02
6.478279203176498413e+00 -6.093337029218673706e+00 3.568503374700071618e-02
6.725959867238998413e+00 -6.240553826093673706e+00 4.093405718450071618e-02
6.985359281301498413e+00 -6.394850701093673706e+00 4.644248003606321618e-02
7.244880765676498413e+00 -6.540358513593673706e+00 5.166098589543821618e-02
7.512580960988998413e+00 -6.686720818281173706e+00 5.695578570012571618e-02
7.792488187551498413e+00 -6.839674919843673706e+00 6.247946734075071618e-02
5.968025296926498413e+00 -5.747633904218673706e+00 7.079550737981321618e-02
6.189338773488998413e+00 -5.878249138593673706e+00 7.654807085637571618e-02
6.421516507863998413e+00 -6.015578240156173706e+00 8.233115191106321618e-02
6.665535062551498413e+00 -6.159621208906173706e+00 8.867880816106321618e-02
6.926399320363998413e+00 -6.317458122968673706e+00 9.559103960637571618e-02
7.215583890676498413e+00 -6.501906365156173706e+00 1.035866450751257162e-01
7.510383695363998413e+00 -6.682448357343673706e+00 1.117653560126257162e-01
7.820320218801498413e+00 -6.872023552656173706e+00 1.200508784735632162e-01
5.954597562551498413e+00 -5.727370232343673706e+00 1.171059321845007162e-01
6.199714750051498413e+00 -5.891188591718673706e+00 1.251625728095007162e-01
6.458992093801498413e+00 -6.064650505781173706e+00 1.339668940985632162e-01
6.734382718801498413e+00 -6.248976677656173706e+00 1.433205317938757162e-01
7.025154203176498413e+00 -6.443556755781173706e+00 1.531929683173132162e-01
7.310920804738998413e+00 -6.621169060468673706e+00 1.623787593329382162e-01
1.564563760161399841e+01 -1.675593468546867371e+01 6.177925776923132162e-01
1.579175576567649841e+01 -1.654402062296867371e+01 6.116432857001257162e-01
6.396858304738998413e+00 -5.164626091718673706e+00 -7.782187748467492838e-01
6.469123929738998413e+00 -5.095046013593673706e+00 -7.793021488701867838e-01
6.538337796926498413e+00 -5.022047966718673706e+00 -7.804007816826867838e-01
6.607551664113998413e+00 -4.948927849531173706e+00 -7.814841557061242838e-01
6.676521390676498413e+00 -4.876173943281173706e+00 -7.825675297295617838e-01
6.745369046926498413e+00 -4.803542107343673706e+00 -7.836356449639367838e-01
6.814338773488998413e+00 -4.730788201093673706e+00 -7.847190189873742838e-01
6.879768460988998413e+00 -4.655104607343673706e+00 -7.858023930108117838e-01
6.997688382863998413e+00 -5.894484490156173706e+00 -7.772727299248742838e-01
7.072883695363998413e+00 -5.813796013593673706e+00 -7.784629154717492838e-01
7.151496976613998413e+00 -5.737502068281173706e+00 -7.796531010186242838e-01
7.226692289113998413e+00 -5.656813591718673706e+00 -7.808280277764367838e-01
7.301521390676498413e+00 -5.576491326093673706e+00 -7.820182133233117838e-01
7.376228421926498413e+00 -5.496413201093673706e+00 -7.832083988701867838e-01
7.447273343801498413e+00 -5.412306755781173706e+00 -7.843833256279992838e-01
7.521736234426498413e+00 -5.332472771406173706e+00 -7.855582523858117838e-01
7.712654203176498413e+00 -6.762892693281173706e+00 -7.753958988701867838e-01
7.803474515676498413e+00 -6.683546990156173706e+00 -7.773032475029992838e-01
7.887825101613998413e+00 -6.596388787031173706e+00 -7.787680912529992838e-01
7.969856351613998413e+00 -6.506422966718673706e+00 -7.800803471123742838e-01
8.051643460988998413e+00 -6.416945427656173706e+00 -7.813773441826867838e-01
8.133064359426498413e+00 -6.327712029218673706e+00 -7.826896000420617838e-01
8.214729398488998413e+00 -6.238356560468673706e+00 -7.839865971123742838e-01
8.295906156301498413e+00 -6.149489372968673706e+00 -7.852835941826867838e-01
8.589851468801498413e+00 -7.828444451093673706e+00 -7.733817387139367838e-01
8.734626859426498413e+00 -7.791945427656173706e+00 -7.778220463311242838e-01
8.876350492238998413e+00 -7.749709099531173706e+00 -7.823539066826867838e-01
9.004646390676498413e+00 -7.689650505781173706e+00 -7.860312748467492838e-01
9.095832914113998413e+00 -7.587355583906173706e+00 -7.875113773858117838e-01
9.171638578176498413e+00 -7.468581169843673706e+00 -7.880912113701867838e-01
9.247322171926498413e+00 -7.350050896406173706e+00 -7.886710453545617838e-01
9.315559476613998413e+00 -7.225661247968673706e+00 -7.891898441826867838e-01
1.231653603911399841e+01 -1.235908409953117371e+01 -9.117636967217492838e-01
1.022327432036399841e+01 -9.564528435468673706e+00 -7.951560307061242838e-01
1.030847939848899841e+01 -9.420851677656173706e+00 -7.958426762139367838e-01
1.039331826567649841e+01 -9.277541130781173706e+00 -7.965293217217492838e-01
9.418342679738998413e+00 -7.947585076093673706e+00 -7.417655277764367838e-01
1.038245400786399841e+01 -8.798415154218673706e+00 -7.885947514092492838e-01
1.041895303130149841e+01 -8.611403435468673706e+00 -7.869162846123742838e-01
1.055066689848899841e+01 -8.529005974531173706e+00 -7.901816654717492838e-01
1.324817666411399841e+01 -1.348969933390617371e+01 -8.663840580498742838e-01
1.356153115630149841e+01 -1.354048058390617371e+01 -8.763938236748742838e-01
1.390357217192649841e+01 -1.361726281046867371e+01 -8.881583500420617838e-01
1.411817178130149841e+01 -1.353852745890617371e+01 -8.939872074639367838e-01
9.419197171926498413e+00 -7.947096794843673706e+00 -6.766104984795617838e-01
1.460523232817649841e+01 -1.343940636515617371e+01 -9.081626225029992838e-01
1.223633584380149841e+01 -1.056819054484367371e+01 -7.979483891045617838e-01
1.217371377348899841e+01 -1.024189659953117371e+01 -7.923789310967492838e-01
1.429566201567649841e+01 -1.476081749796867371e+01 -8.115744877373742838e-01
1.461512002348899841e+01 -1.479341027140617371e+01 -8.210044193779992838e-01
1.497815713286399841e+01 -1.486958214640617371e+01 -8.320517826592492838e-01
1.533716592192649841e+01 -1.493098351359367371e+01 -8.428550053154992838e-01
9.420051664113998413e+00 -7.946486443281173706e+00 -6.118216801201867838e-01
1.600025185942649841e+01 -1.497053429484367371e+01 -8.621573734795617838e-01
1.627747353911399841e+01 -1.492036339640617371e+01 -8.696494389092492838e-01
1.655725869536399841e+01 -1.486970421671867371e+01 -8.772025394951867838e-01
1.504407510161399841e+01 -1.566804406046867371e+01 -7.325797367608117838e-01
1.540015420317649841e+01 -1.572602745890617371e+01 -7.419791508233117838e-01
1.576526650786399841e+01 -1.578596398234367371e+01 -7.510428715264367838e-01
1.618079385161399841e+01 -1.589362999796867371e+01 -7.622428226983117838e-01
9.420906156301498413e+00 -7.945998162031173706e+00 -5.466819096123742838e-01
1.689441689848899841e+01 -1.595075890421867371e+01 -7.807669926201867838e-01
1.718213662505149841e+01 -1.589240929484367371e+01 -7.884269047295617838e-01
1.710364541411399841e+01 -1.544416710734367371e+01 -7.839865971123742838e-01
1.553553017973899841e+01 -1.626252648234367371e+01 -6.357932377373742838e-01
1.596302041411399841e+01 -1.639362999796867371e+01 -6.456656742608117838e-01
1.637232217192649841e+01 -1.649189659953117371e+01 -6.550803471123742838e-01
1.643347939848899841e+01 -1.618000695109367371e+01 -6.558432865654992838e-01
9.421882718801498413e+00 -7.945509880781173706e+00 -4.818930912529992838e-01
1.685742959380149841e+01 -1.590754601359367371e+01 -6.648459721123742838e-01
1.709998330473899841e+01 -1.580122277140617371e+01 -6.700797367608117838e-01
1.707703408598899841e+01 -1.541352745890617371e+01 -6.688132572686242838e-01
1.573963174223899841e+01 -1.650788781046867371e+01 -5.274558353936242838e-01
1.638684853911399841e+01 -1.689558312296867371e+01 -5.394797611748742838e-01
1.640430459380149841e+01 -1.652644249796867371e+01 -5.403647709404992838e-01
1.665857705473899841e+01 -1.643476769328117371e+01 -5.454459476983117838e-01
9.422737210988998413e+00 -7.945021599531173706e+00 -4.171042728936242838e-01
1.714356240630149841e+01 -1.621931359171867371e+01 -5.552115726983117838e-01
1.710645303130149841e+01 -1.580573937296867371e+01 -5.550895023858117838e-01
1.624927529692649841e+01 -1.453718468546867371e+01 -5.402732182061242838e-01
1.573291787505149841e+01 -1.649677941203117371e+01 -4.133963871514367838e-01
1.680860146880149841e+01 -1.739497277140617371e+01 -4.266257572686242838e-01
1.636573037505149841e+01 -1.647859093546867371e+01 -4.238639164483117838e-01
1.657361611723899841e+01 -1.633479210734367371e+01 -4.279837894951867838e-01
9.423591703176498413e+00 -7.944411247968673706e+00 -3.519645023858117838e-01
1.706177529692649841e+01 -1.612666222453117371e+01 -4.370169926201867838e-01
1.774268350005149841e+01 -1.648811241984367371e+01 -4.464164066826867838e-01
1.622156533598899841e+01 -1.450556847453117371e+01 -4.312186527764367838e-01
1.551123818755149841e+01 -1.622468468546867371e+01 -2.993674564873742838e-01
1.651087197661399841e+01 -1.703742882609367371e+01 -3.059439945733117838e-01
1.719409951567649841e+01 -1.744233605265617371e+01 -3.116965580498742838e-01
1.659912881255149841e+01 -1.636115929484367371e+01 -3.127799320733117838e-01
9.424568265676498413e+00 -7.943922966718673706e+00 -2.871909428154992838e-01
1.673865517973899841e+01 -1.576924034953117371e+01 -3.195853519951867838e-01
1.770166787505149841e+01 -1.644135949015617371e+01 -3.268485355889367838e-01
1.637915810942649841e+01 -1.466950890421867371e+01 -3.239798832451867838e-01
1.544654092192649841e+01 -1.614338585734367371e+01 -1.873374271904992838e-01
1.662390908598899841e+01 -1.716914269328117371e+01 -1.873832035576867838e-01
1.669544228911399841e+01 -1.685761925578117371e+01 -1.924186039483117838e-01
1.610242471098899841e+01 -1.579060265421867371e+01 -1.988730717217492838e-01
9.425422757863998413e+00 -7.943434685468673706e+00 -2.224173832451867838e-01
1.674646767973899841e+01 -1.577509972453117371e+01 -2.057242680108117838e-01
1.616761025786399841e+01 -1.478718468546867371e+01 -2.108054447686242838e-01
1.647486123442649841e+01 -1.476801964640617371e+01 -2.142081547295617838e-01
1.572681435942649841e+01 -1.648091027140617371e+01 -7.300332074518678382e-02
1.592554482817649841e+01 -1.633503624796867371e+01 -7.668068890924928382e-02
1.710303506255149841e+01 -1.733027550578117371e+01 -7.008889203424928382e-02
1.653980264067649841e+01 -1.628791710734367371e+01 -8.186867719049928382e-02
9.426277250051498413e+00 -7.942946404218673706e+00 -1.573081303154992838e-01
1.716358193755149841e+01 -1.623054406046867371e+01 -8.730080609674928382e-02
9.990730375051498413e+00 -8.136183708906173706e+00 -1.584677982842492838e-01
1.038733682036399841e+01 -8.342726677656173706e+00 -1.582083988701867838e-01
7.823127835988998413e+00 -6.880446404218673706e+00 -1.052604008233117838e-01
8.123298734426498413e+00 -7.047682732343673706e+00 -1.037040043389367838e-01
8.439338773488998413e+00 -7.223463982343673706e+00 -1.017661381279992838e-01
8.774055570363998413e+00 -7.409621208906173706e+00 -9.970620160456178382e-02
9.126716703176498413e+00 -7.605910271406173706e+00 -9.755471234674928382e-02
9.500251859426498413e+00 -7.813551872968673706e+00 -9.525063519831178382e-02
9.869514554738998413e+00 -8.004225701093673706e+00 -9.326699262018678382e-02
1.025708779692649841e+01 -8.203810662031173706e+00 -9.081032758112428382e-02
7.776741117238998413e+00 -6.822829216718673706e+00 -5.022194867487428382e-02
8.092414945363998413e+00 -7.009596794843673706e+00 -4.646828656549928382e-02
8.426643460988998413e+00 -7.207350701093673706e+00 -4.248574262018678382e-02
8.782478421926498413e+00 -7.417799919843673706e+00 -3.825905804987428382e-02
9.159309476613998413e+00 -7.640822380781173706e+00 -3.377297406549928382e-02
9.554329007863998413e+00 -7.871535271406173706e+00 -2.913430219049928382e-02
9.949714750051498413e+00 -8.089064568281173706e+00 -2.480080609674928382e-02
1.036450967192649841e+01 -8.315627068281173706e+00 -2.028420453424928382e-02
7.863411039113998413e+00 -6.926588982343673706e+00 8.814306207938216176e-03
8.165168851613998413e+00 -7.094679802656173706e+00 1.336142534856321618e-02
8.479621976613998413e+00 -7.267653435468673706e+00 1.836630816106321618e-02
8.812507718801498413e+00 -7.450758904218673706e+00 2.366110796575071618e-02
9.163093656301498413e+00 -7.643629997968673706e+00 2.923056597356321618e-02
9.533943265676498413e+00 -7.847609490156173706e+00 3.512045855168821618e-02
9.897834867238998413e+00 -8.031813591718673706e+00 4.050681109075071618e-02
1.028235635161399841e+01 -8.227370232343673706e+00 4.657980913762571618e-02
7.794197171926498413e+00 -6.841017693281173706e+00 6.252524370793821618e-02
8.088020414113998413e+00 -7.001418083906173706e+00 6.861350054387571618e-02
8.397346585988998413e+00 -7.170241326093673706e+00 7.502219195012571618e-02
8.742073148488998413e+00 -7.368727654218673706e+00 8.246848101262571618e-02
9.128303617238998413e+00 -7.603102654218673706e+00 9.116599077825071618e-02
9.540535062551498413e+00 -7.853346794843673706e+00 1.004280757391882162e-01
9.942146390676498413e+00 -8.077956169843673706e+00 1.089119624579382162e-01
1.036853799223899841e+01 -8.316847771406173706e+00 1.179299067938757162e-01
7.822151273488998413e+00 -6.873610466718673706e+00 1.201271724188757162e-01
8.151252835988998413e+00 -7.075270622968673706e+00 1.292824458563757162e-01
8.500129789113998413e+00 -7.288649529218673706e+00 1.386666011298132162e-01
8.873298734426498413e+00 -7.517287224531173706e+00 1.490425776923132162e-01
1.641834267973899841e+01 -1.576338097453117371e+01 4.764504146063757162e-01
1.662061318755149841e+01 -1.562129113078117371e+01 4.734444331610632162e-01
1.679065713286399841e+01 -1.544258019328117371e+01 4.695992183173132162e-01
1.694995889067649841e+01 -1.525446984171867371e+01 4.647469233954382162e-01
1.579199990630149841e+01 -1.654292199015617371e+01 6.116127681220007162e-01
1.564014443755149841e+01 -1.597895714640617371e+01 5.890907954657507162e-01
1.719361123442649841e+01 -1.741828820109367371e+01 6.578163814032507162e-01
1.613391885161399841e+01 -1.580793663859367371e+01 5.883583735907507162e-01
1.819727334380149841e+01 -1.775202843546867371e+01 6.808113765204382162e-01
1.773938760161399841e+01 -1.684626671671867371e+01 6.432594966376257162e-01
1.668152627348899841e+01 -1.532258507609367371e+01 5.769295405829382162e-01
1.704407510161399841e+01 -1.535102745890617371e+01 5.825295161688757162e-01
6.880012601613998413e+00 -4.654860466718673706e+00 -7.858023930108117838e-01
6.954841703176498413e+00 -4.589186638593673706e+00 -7.874350834404992838e-01
7.026252835988998413e+00 -4.519850701093673706e+00 -7.890372562920617838e-01
7.098030179738998413e+00 -4.450270622968673706e+00 -7.906394291436242838e-01
7.169563382863998413e+00 -4.380934685468673706e+00 -7.922416019951867838e-01
7.241096585988998413e+00 -4.311476677656173706e+00 -7.938590336358117838e-01
7.312873929738998413e+00 -4.241774529218673706e+00 -7.954612064873742838e-01
7.381355375051498413e+00 -4.169508904218673706e+00 -7.970938969170617838e-01
7.521858304738998413e+00 -5.332228630781173706e+00 -7.855582523858117838e-01
7.599861234426498413e+00 -5.256422966718673706e+00 -7.872977543389367838e-01
7.690315335988998413e+00 -5.193312615156173706e+00 -7.896476078545617838e-01
7.777595609426498413e+00 -5.125807732343673706e+00 -7.920127201592492838e-01
7.864753812551498413e+00 -5.058424919843673706e+00 -7.943625736748742838e-01
7.950203031301498413e+00 -4.988844841718673706e+00 -7.966056156670617838e-01
8.025642484426498413e+00 -4.909132927656173706e+00 -7.983908939873742838e-01
8.104377835988998413e+00 -4.833083122968673706e+00 -8.001609135186242838e-01
8.296150296926498413e+00 -6.149123162031173706e+00 -7.852835941826867838e-01
8.378181546926498413e+00 -6.061598747968673706e+00 -7.869315434014367838e-01
8.474861234426498413e+00 -5.988844841718673706e+00 -7.895102787529992838e-01
8.572273343801498413e+00 -5.915602654218673706e+00 -7.921195316826867838e-01
8.669441312551498413e+00 -5.842360466718673706e+00 -7.947135258233117838e-01
8.766975492238998413e+00 -5.768996208906173706e+00 -7.973227787529992838e-01
8.865242093801498413e+00 -5.695143669843673706e+00 -7.999472904717492838e-01
8.954353421926498413e+00 -5.613112419843673706e+00 -8.020224857842492838e-01
9.315803617238998413e+00 -7.225172966718673706e+00 -7.891898441826867838e-01
9.393196195363998413e+00 -7.111403435468673706e+00 -7.898764896904992838e-01
9.490974515676498413e+00 -7.019118279218673706e+00 -7.920737553154992838e-01
9.589119046926498413e+00 -6.926344841718673706e+00 -7.942710209404992838e-01
9.687141507863998413e+00 -6.833937615156173706e+00 -7.964682865654992838e-01
9.785163968801498413e+00 -6.741408318281173706e+00 -7.986808109795617838e-01
9.883552640676498413e+00 -6.648390740156173706e+00 -8.008933353936242838e-01
9.969001859426498413e+00 -6.544142693281173706e+00 -8.027243900811242838e-01
1.055115517973899841e+01 -8.528883904218673706e+00 -7.901969242608117838e-01
1.067823037505149841e+01 -8.440749138593673706e+00 -7.934928226983117838e-01
1.075012978911399841e+01 -8.295973747968673706e+00 -7.939658451592492838e-01
1.081226357817649841e+01 -8.142043083906173706e+00 -7.939658451592492838e-01
1.087366494536399841e+01 -7.989943474531173706e+00 -7.939658451592492838e-01
1.093457803130149841e+01 -7.839186638593673706e+00 -7.939658451592492838e-01
1.102210244536399841e+01 -7.714186638593673706e+00 -7.952933598076867838e-01
1.113282021880149841e+01 -7.612013787031173706e+00 -7.977805424248742838e-01
1.217285928130149841e+01 -1.024006554484367371e+01 -7.923331547295617838e-01
1.212390908598899841e+01 -9.936110466718673706e+00 -7.868552494561242838e-01
1.221448525786399841e+01 -9.780714958906173706e+00 -7.880606937920617838e-01
1.192371377348899841e+01 -9.246291130781173706e+00 -7.725119877373742838e-01
1.251868447661399841e+01 -9.592726677656173706e+00 -7.958731937920617838e-01
1.264698037505149841e+01 -9.474684685468673706e+00 -7.987265873467492838e-01
1.277588662505149841e+01 -9.356032341718673706e+00 -8.015952396904992838e-01
1.289209756255149841e+01 -9.226515740156173706e+00 -8.043570805108117838e-01
1.655884560942649841e+01 -1.487019249796867371e+01 -8.772330570733117838e-01
1.685681924223899841e+01 -1.483381554484367371e+01 -8.857016850029992838e-01
1.719763955473899841e+01 -1.483576866984367371e+01 -8.957419682061242838e-01
1.192469033598899841e+01 -9.245558708906173706e+00 -6.954856205498742838e-01
1.735681924223899841e+01 -1.430866906046867371e+01 -8.961539555108117838e-01
1.484961709380149841e+01 -1.157844445109367371e+01 -8.003592777764367838e-01
1.496997842192649841e+01 -1.141010949015617371e+01 -8.025412846123742838e-01
1.518555459380149841e+01 -1.133112999796867371e+01 -8.082328129326867838e-01
1.710364541411399841e+01 -1.544294640421867371e+01 -7.839713383233117838e-01
1.720142373442649841e+01 -1.518818566203117371e+01 -7.852835941826867838e-01
1.712525185942649841e+01 -1.475996300578117371e+01 -7.806144047295617838e-01
1.192566689848899841e+01 -9.244948357343673706e+00 -6.180472660576867838e-01
1.741651162505149841e+01 -1.436457726359367371e+01 -7.863059330498742838e-01
1.900550088286399841e+01 -1.554829308390617371e+01 -8.335471439873742838e-01
1.887488564848899841e+01 -1.506623741984367371e+01 -8.284354496514367838e-01
1.885205850005149841e+01 -1.469612023234367371e+01 -8.260245609795617838e-01
1.707617959380149841e+01 -1.541145226359367371e+01 -6.687827396904992838e-01
1.669104775786399841e+01 -1.465742394328117371e+01 -6.587424564873742838e-01
1.668079385161399841e+01 -1.430659386515617371e+01 -6.579337406670617838e-01
1.192652139067649841e+01 -9.244215935468673706e+00 -5.410361576592492838e-01
1.780677041411399841e+01 -1.474262902140617371e+01 -6.843772221123742838e-01
1.762122353911399841e+01 -1.422297570109367371e+01 -6.792807865654992838e-01
2.015564736723899841e+01 -1.626350304484367371e+01 -7.405295658623742838e-01
1.891101846098899841e+01 -1.474787804484367371e+01 -7.096152592217492838e-01
1.625000771880149841e+01 -1.453681847453117371e+01 -5.402884769951867838e-01
1.659021767973899841e+01 -1.455085656046867371e+01 -5.469260502373742838e-01
1.732410439848899841e+01 -1.495686241984367371e+01 -5.606437016045617838e-01
1.192749795317649841e+01 -9.243605583906173706e+00 -4.640250492608117838e-01
1.755262002348899841e+01 -1.449250695109367371e+01 -5.658622074639367838e-01
1.769434365630149841e+01 -1.429060265421867371e+01 -5.689444828545617838e-01
1.871936807036399841e+01 -1.491584679484367371e+01 -5.880332279717492838e-01
1.897168740630149841e+01 -1.480122277140617371e+01 -5.931449223076867838e-01
1.622229775786399841e+01 -1.450508019328117371e+01 -4.312186527764367838e-01
1.660108193755149841e+01 -1.455964562296867371e+01 -4.371390629326867838e-01
1.657471475005149841e+01 -1.419441124796867371e+01 -4.384665775811242838e-01
1.192847451567649841e+01 -9.242873162031173706e+00 -3.866019535576867838e-01
1.760034951567649841e+01 -1.453669640421867371e+01 -4.535270023858117838e-01
2.000318154692649841e+01 -1.649397179484367371e+01 -4.832511234795617838e-01
1.883838662505149841e+01 -1.502497765421867371e+01 -4.713492680108117838e-01
1.974158486723899841e+01 -1.550556847453117371e+01 -4.837546635186242838e-01
1.637964639067649841e+01 -1.466889855265617371e+01 -3.239798832451867838e-01
1.656104287505149841e+01 -1.451582238078117371e+01 -3.275809574639367838e-01
1.695728310942649841e+01 -1.458003136515617371e+01 -3.322196293389367838e-01
1.192945107817649841e+01 -9.242262810468673706e+00 -3.095908451592492838e-01
1.761804971098899841e+01 -1.455171105265617371e+01 -3.410544682061242838e-01
1.804212197661399841e+01 -1.461823937296867371e+01 -3.460440922295617838e-01
1.859607705473899841e+01 -1.479572960734367371e+01 -3.518271732842492838e-01
2.496692666411399841e+01 -2.029878136515617371e+01 -3.906150150811242838e-01
1.647473916411399841e+01 -1.476679894328117371e+01 -2.142234135186242838e-01
1.643762978911399841e+01 -1.438581749796867371e+01 -2.181449223076867838e-01
1.667249307036399841e+01 -1.428889366984367371e+01 -2.221122074639367838e-01
1.193030557036399841e+01 -9.241530388593673706e+00 -2.325949955498742838e-01
1.756580361723899841e+01 -1.449836632609367371e+01 -2.284598637139367838e-01
1.839612588286399841e+01 -1.495405480265617371e+01 -2.314505863701867838e-01
1.857703408598899841e+01 -1.477546593546867371e+01 -2.345938969170617838e-01
1.875720986723899841e+01 -1.459748741984367371e+01 -2.383475590264367838e-01
1.038977822661399841e+01 -8.344557732343673706e+00 -1.581931400811242838e-01
1.080994424223899841e+01 -8.563185662031173706e+00 -1.577506351983117838e-01
1.125598916411399841e+01 -8.795241326093673706e+00 -1.572776127373742838e-01
1.173230752348899841e+01 -9.043166130781173706e+00 -1.567740726983117838e-01
1.222107705473899841e+01 -9.289504021406173706e+00 -1.563620853936242838e-01
1.271387490630149841e+01 -9.525465935468673706e+00 -1.561332035576867838e-01
1.323938760161399841e+01 -9.777052849531173706e+00 -1.558890629326867838e-01
1.379688271880149841e+01 -1.004402062296867371e+01 -1.556449223076867838e-01
1.025940713286399841e+01 -8.205519646406173706e+00 -9.079506879206178382e-02
1.067456826567649841e+01 -8.421706169843673706e+00 -8.865883832331178382e-02
1.113538369536399841e+01 -8.671462029218673706e+00 -8.571389203424928382e-02
1.162940225005149841e+01 -8.939284294843673706e+00 -8.257058148737428382e-02
1.214502725005149841e+01 -9.213820427656173706e+00 -7.935097699518678382e-02
1.265235146880149841e+01 -9.465041130781173706e+00 -7.654335980768678382e-02
1.319483193755149841e+01 -9.733717888593673706e+00 -7.352211957331178382e-02
1.377320107817649841e+01 -1.002058312296867371e+01 -6.984475140924928382e-02
1.036707314848899841e+01 -8.317580193281173706e+00 -2.023842816706178382e-02
1.080652627348899841e+01 -8.556471794843673706e+00 -1.520302777643678382e-02
1.124622353911399841e+01 -8.782179802656173706e+00 -1.044228558893678382e-02
1.171509560942649841e+01 -9.022780388593673706e+00 -5.376367620186783824e-03
1.219812783598899841e+01 -9.263991326093673706e+00 -2.799320733117838245e-04
1.268274697661399841e+01 -9.492506951093673706e+00 4.541845270438216176e-03
1.319898232817649841e+01 -9.736037224531173706e+00 9.668798395438216176e-03
1.374597939848899841e+01 -9.993971794843673706e+00 1.511618609075071618e-02
1.028467568755149841e+01 -8.229201287031173706e+00 4.662558550481321618e-02
1.069226846098899841e+01 -8.436842888593673706e+00 5.263754839543821618e-02
1.113440713286399841e+01 -8.667311638593673706e+00 5.968710894231321618e-02
1.164356240630149841e+01 -8.950148552656173706e+00 6.821677202825071618e-02
1.217261514067649841e+01 -9.237502068281173706e+00 7.692954058293821618e-02
1.269532021880149841e+01 -9.502882927656173706e+00 8.507773394231321618e-02
1.325550088286399841e+01 -9.787306755781173706e+00 9.382102007512571618e-02
1.385449990630149841e+01 -1.009187218546867371e+01 1.036324214423132162e-01
1.037122353911399841e+01 -8.318800896406173706e+00 1.180062007391882162e-01
1.082691201567649841e+01 -8.574538201093673706e+00 1.280312251532507162e-01
1.679505166411399841e+01 -1.440144249796867371e+01 3.270821284735632162e-01
1.878247842192649841e+01 -1.603901574015617371e+01 3.850807857001257162e-01
1.904871377348899841e+01 -1.593061730265617371e+01 3.838753413641882162e-01
1.967627725005149841e+01 -1.616389366984367371e+01 3.944344233954382162e-01
2.570178994536399841e+01 -2.142915245890617371e+01 5.784859370673132162e-01
3.028821572661399841e+01 -2.516010949015617371e+01 7.110237788641882162e-01
1.695032510161399841e+01 -1.525361534953117371e+01 4.647316646063757162e-01
1.717981728911399841e+01 -1.513874718546867371e+01 4.634804439032507162e-01
1.683948525786399841e+01 -1.444416710734367371e+01 4.382729243720007162e-01
1.883484658598899841e+01 -1.608845421671867371e+01 5.083107661688757162e-01
1.952918252348899841e+01 -1.639582726359367371e+01 5.245766353095007162e-01
2.952845010161399841e+01 -2.556318566203117371e+01 9.039101314032507162e-01
2.570496377348899841e+01 -2.142878624796867371e+01 7.404885005438757162e-01
3.122559365630149841e+01 -2.601594445109367371e+01 9.355873774970007162e-01
1.704322060942649841e+01 -1.534895226359367371e+01 5.824532222235632162e-01
1.642005166411399841e+01 -1.435102745890617371e+01 5.398964595282507162e-01
1.736585244536399841e+01 -1.497505089640617371e+01 5.734505366766882162e-01
2.385376748442649841e+01 -2.106941124796867371e+01 8.650459956610632162e-01
1.917371377348899841e+01 -1.604719445109367371e+01 6.335396480048132162e-01
3.036450967192649841e+01 -2.635700890421867371e+01 1.129648656793875716e+00
2.570813760161399841e+01 -2.142854210734367371e+01 9.016365718329382162e-01
3.210730752348899841e+01 -2.682038781046867371e+01 1.169352025934500716e+00
7.381721585988998413e+00 -4.169386833906173706e+00 -7.971091557061242838e-01
7.452644437551498413e+00 -4.099196404218673706e+00 -7.987113285576867838e-01
7.520637601613998413e+00 -4.026076287031173706e+00 -8.003440189873742838e-01
7.588874906301498413e+00 -3.952834099531173706e+00 -8.019919682061242838e-01
7.656868070363998413e+00 -3.879591912031173706e+00 -8.036246586358117838e-01
7.724983304738998413e+00 -3.806349724531173706e+00 -8.052573490654992838e-01
7.793464750051498413e+00 -3.732863396406173706e+00 -8.069052982842492838e-01
7.858406156301498413e+00 -3.656935662031173706e+00 -8.085685062920617838e-01
8.104621976613998413e+00 -4.832716912031173706e+00 -8.001609135186242838e-01
8.179451078176498413e+00 -4.752882927656173706e+00 -8.019461918389367838e-01
8.257942289113998413e+00 -4.676222771406173706e+00 -8.037162113701867838e-01
8.325447171926498413e+00 -4.589308708906173706e+00 -8.049979496514367838e-01
8.391121000051498413e+00 -4.501296013593673706e+00 -8.061728764092492838e-01
8.456550687551498413e+00 -4.413405388593673706e+00 -8.073478031670617838e-01
8.518074125051498413e+00 -4.322096794843673706e+00 -8.085074711358117838e-01
8.593025296926498413e+00 -4.242140740156173706e+00 -8.103080082451867838e-01
8.954841703176498413e+00 -5.612990349531173706e+00 -8.020377445733117838e-01
9.026863187551498413e+00 -5.515089958906173706e+00 -8.033347416436242838e-01
9.098640531301498413e+00 -5.417433708906173706e+00 -8.046164799248742838e-01
9.170662015676498413e+00 -5.319533318281173706e+00 -8.059134769951867838e-01
9.242317289113998413e+00 -5.222121208906173706e+00 -8.072104740654992838e-01
9.313850492238998413e+00 -5.124831169843673706e+00 -8.084922123467492838e-01
9.385505765676498413e+00 -5.027296990156173706e+00 -8.097892094170617838e-01
9.456794828176498413e+00 -4.930251091718673706e+00 -8.110709476983117838e-01
9.969368070363998413e+00 -6.543776482343673706e+00 -8.027243900811242838e-01
1.005469521880149841e+01 -6.439528435468673706e+00 -8.041739750420617838e-01
1.013391885161399841e+01 -6.330031365156173706e+00 -8.056083012139367838e-01
1.021326455473899841e+01 -6.220168083906173706e+00 -8.070578861748742838e-01
1.029224404692649841e+01 -6.111037224531173706e+00 -8.084922123467492838e-01
1.037097939848899841e+01 -6.001906365156173706e+00 -8.099265385186242838e-01
1.044983682036399841e+01 -5.892653435468673706e+00 -8.113608646904992838e-01
1.052210244536399841e+01 -5.778883904218673706e+00 -8.127799320733117838e-01
1.113330850005149841e+01 -7.611769646406173706e+00 -7.977958012139367838e-01
1.125464639067649841e+01 -7.518752068281173706e+00 -8.010764408623742838e-01
1.137635049223899841e+01 -7.425246208906173706e+00 -8.043570805108117838e-01
1.149903115630149841e+01 -7.331129997968673706e+00 -8.076682377373742838e-01
1.160327920317649841e+01 -7.221144646406173706e+00 -8.100943851983117838e-01
1.169092568755149841e+01 -7.097121208906173706e+00 -8.116965580498742838e-01
1.177857217192649841e+01 -6.972975701093673706e+00 -8.133139896904992838e-01
1.186585244536399841e+01 -6.849318474531173706e+00 -8.149161625420617838e-01
1.289270791411399841e+01 -9.226271599531173706e+00 -8.043875980889367838e-01
1.301013955473899841e+01 -9.097853630781173706e+00 -8.065848637139367838e-01
1.310938271880149841e+01 -8.953078240156173706e+00 -8.084464359795617838e-01
1.320874795317649841e+01 -8.808302849531173706e+00 -8.103080082451867838e-01
1.330762490630149841e+01 -8.664259880781173706e+00 -8.121543217217492838e-01
1.340637978911399841e+01 -8.520583122968673706e+00 -8.140006351983117838e-01
1.350525674223899841e+01 -8.376662224531173706e+00 -8.158622074639367838e-01
1.359290322661399841e+01 -8.225172966718673706e+00 -8.176780033623742838e-01
1.518665322661399841e+01 -1.133125206828117371e+01 -8.082633305108117838e-01
1.448694619536399841e+01 -1.042549034953117371e+01 -7.805838871514367838e-01
1.555945596098899841e+01 -1.111311241984367371e+01 -8.179221439873742838e-01
1.568360146880149841e+01 -1.094660851359367371e+01 -8.204703617608117838e-01
1.580725869536399841e+01 -1.078083702921867371e+01 -8.229880619561242838e-01
1.590845498442649841e+01 -1.059675499796867371e+01 -8.247123051201867838e-01
1.596204385161399841e+01 -1.037422081828117371e+01 -8.247123051201867838e-01
1.601490029692649841e+01 -1.015461632609367371e+01 -8.247123051201867838e-01
1.885266885161399841e+01 -1.469550988078117371e+01 -8.260398197686242838e-01
1.448780068755149841e+01 -1.042463585734367371e+01 -6.913199711358117838e-01
2.089417275786399841e+01 -1.581733605265617371e+01 -8.846183109795617838e-01
2.221326455473899841e+01 -1.658979699015617371e+01 -9.230857182061242838e-01
2.260376748442649841e+01 -1.653742882609367371e+01 -9.332633305108117838e-01
1.706861123442649841e+01 -1.155842491984367371e+01 -7.644858646904992838e-01
1.929114541411399841e+01 -1.308088585734367371e+01 -8.308310795342492838e-01
1.941455850005149841e+01 -1.286299034953117371e+01 -8.331809330498742838e-01
1.891162881255149841e+01 -1.474726769328117371e+01 -7.096305180108117838e-01
1.448877725005149841e+01 -1.042378136515617371e+01 -6.015982914483117838e-01
2.326807412505149841e+01 -1.790864464640617371e+01 -8.146262455498742838e-01
2.387000283598899841e+01 -1.801924034953117371e+01 -8.287253666436242838e-01
2.459009560942649841e+01 -1.821760460734367371e+01 -8.456626225029992838e-01
1.706958779692649841e+01 -1.155732628703117371e+01 -6.628470707451867838e-01
2.520398721098899841e+01 -1.788850304484367371e+01 -8.594565678154992838e-01
2.452503213286399841e+01 -1.693415734171867371e+01 -8.425040531670617838e-01
1.897241982817649841e+01 -1.480073449015617371e+01 -5.931601810967492838e-01
1.448975381255149841e+01 -1.042280480265617371e+01 -5.123496342217492838e-01
2.097510537505149841e+01 -1.588374230265617371e+01 -6.307578373467492838e-01
2.432178506255149841e+01 -1.840705773234367371e+01 -6.923575687920617838e-01
2.529773721098899841e+01 -1.881428429484367371e+01 -7.108664799248742838e-01
1.707056435942649841e+01 -1.155622765421867371e+01 -5.612387943779992838e-01
2.429834756255149841e+01 -1.714924523234367371e+01 -6.940207767998742838e-01
2.401990517973899841e+01 -1.652912804484367371e+01 -6.895957279717492838e-01
1.974134072661399841e+01 -1.550410363078117371e+01 -4.837546635186242838e-01
1.449073037505149841e+01 -1.042195031046867371e+01 -4.226432133233117838e-01
2.101721963286399841e+01 -1.591853234171867371e+01 -5.024466801201867838e-01
2.511255654692649841e+01 -1.908772179484367371e+01 -5.538535404717492838e-01
2.428430947661399841e+01 -1.795320031046867371e+01 -5.457663822686242838e-01
1.707141885161399841e+01 -1.155525109171867371e+01 -4.590812016045617838e-01
2.520069131255149841e+01 -1.788056847453117371e+01 -5.609488773858117838e-01
2.667981728911399841e+01 -1.864607140421867371e+01 -5.812888432061242838e-01
2.497107705473899841e+01 -2.030097863078117371e+01 -3.906607914483117838e-01
1.449158486723899841e+01 -1.042109581828117371e+01 -3.334098148858117838e-01
2.104346475005149841e+01 -1.593916222453117371e+01 -3.742575932061242838e-01
2.443360146880149841e+01 -1.849812218546867371e+01 -3.976645756279992838e-01
2.433643350005149841e+01 -1.799470421671867371e+01 -4.003043461358117838e-01
1.707239541411399841e+01 -1.155415245890617371e+01 -3.574881840264367838e-01
2.425782021880149841e+01 -1.711128136515617371e+01 -4.060721684014367838e-01
2.457569131255149841e+01 -1.696699425578117371e+01 -4.112143803154992838e-01
1.875794228911399841e+01 -1.459687706828117371e+01 -2.383628178154992838e-01
1.449256142973899841e+01 -1.042024132609367371e+01 -2.437033939873742838e-01
2.076734170317649841e+01 -1.569331261515617371e+01 -2.458243656670617838e-01
2.462232217192649841e+01 -1.865840050578117371e+01 -2.497458744561242838e-01
2.441370400786399841e+01 -1.805744835734367371e+01 -2.542319584404992838e-01
1.707337197661399841e+01 -1.155305382609367371e+01 -2.558951664483117838e-01
2.407398232817649841e+01 -1.695930382609367371e+01 -2.620444584404992838e-01
2.446009072661399841e+01 -1.687238976359367371e+01 -2.665152836358117838e-01
1.380042275786399841e+01 -1.004646202921867371e+01 -1.556296635186242838e-01
1.439539346098899841e+01 -1.033112999796867371e+01 -1.551413822686242838e-01
1.498755654692649841e+01 -1.059638878703117371e+01 -1.548972416436242838e-01
1.560327920317649841e+01 -1.086469933390617371e+01 -1.547599125420617838e-01
1.625757607817649841e+01 -1.114985558390617371e+01 -1.546073246514367838e-01
1.695667275786399841e+01 -1.145442101359367371e+01 -1.544394779717492838e-01
1.765052041411399841e+01 -1.173518273234367371e+01 -1.545615482842492838e-01
1.836927041411399841e+01 -1.201850792765617371e+01 -1.548056889092492838e-01
1.377686318755149841e+01 -1.002314659953117371e+01 -6.981423383112428382e-02
1.439514932036399841e+01 -1.032917687296867371e+01 -6.654885297174928382e-02
1.500659951567649841e+01 -1.061140343546867371e+01 -6.322243695612428382e-02
1.564295205473899841e+01 -1.089717003703117371e+01 -5.989602094049928382e-02
1.632105264067649841e+01 -1.120173546671867371e+01 -5.634072308893678382e-02
1.704761514067649841e+01 -1.152802941203117371e+01 -5.252602582331178382e-02
1.773523721098899841e+01 -1.180207726359367371e+01 -4.950478558893678382e-02
1.845056924223899841e+01 -1.208125206828117371e+01 -4.587319379206178382e-02
1.374939736723899841e+01 -9.996291130781173706e+00 1.516196245793821618e-02
1.433216103911399841e+01 -1.027082726359367371e+01 2.129599566106321618e-02
1.491956338286399841e+01 -1.053291222453117371e+01 2.718588823918821618e-02
1.553162392973899841e+01 -1.079926964640617371e+01 3.319785112981321618e-02
1.621656045317649841e+01 -1.111152550578117371e+01 4.018637652043821618e-02
1.695154580473899841e+01 -1.144660851359367371e+01 4.770895952825071618e-02
1.767639932036399841e+01 -1.175239464640617371e+01 5.462119097356321618e-02
1.842847451567649841e+01 -1.206184288859367371e+01 6.165549273137571618e-02
1.385840615630149841e+01 -1.009443566203117371e+01 1.037087153876257162e-01
2.857801064848899841e+01 -2.307514855265617371e+01 4.666542720282507162e-01
2.894971475005149841e+01 -2.289301964640617371e+01 4.643044185126257162e-01
3.196375283598899841e+01 -2.498652550578117371e+01 5.259651851141882162e-01
3.273584756255149841e+01 -2.508930870890617371e+01 5.319618892157507162e-01
2.496814736723899841e+01 -1.809284874796867371e+01 3.368782710516882162e-01
2.638684853911399841e+01 -1.882856652140617371e+01 3.602547358954382162e-01
2.464405068755149841e+01 -1.700874230265617371e+01 3.116097163641882162e-01
3.029297646880149841e+01 -2.516267296671867371e+01 7.111153315985632162e-01
2.855530557036399841e+01 -2.305122277140617371e+01 6.427254390204382162e-01
2.894910439848899841e+01 -2.288911339640617371e+01 6.418251704657507162e-01
3.281751260161399841e+01 -2.572004601359367371e+01 7.462410640204382162e-01
3.370801553130149841e+01 -2.590827843546867371e+01 7.584023189032507162e-01
2.496546182036399841e+01 -1.808808800578117371e+01 4.860481929266882162e-01
2.640650185942649841e+01 -1.884175011515617371e+01 5.172371577704382162e-01
2.458631142973899841e+01 -1.696028038859367371e+01 4.540505122626257162e-01
3.123084267973899841e+01 -2.601875206828117371e+01 9.357247065985632162e-01
2.853260049223899841e+01 -2.302741906046867371e+01 8.184761714423132162e-01
3.285559853911399841e+01 -2.632685753703117371e+01 9.625801753485632162e-01
3.379163369536399841e+01 -2.655720421671867371e+01 9.801430415595007162e-01
3.485901650786399841e+01 -2.687837120890617371e+01 1.001856298395438216e+00
2.496729287505149841e+01 -1.808686730265617371e+01 6.345162105048132162e-01
3.688623818755149841e+01 -2.735249230265617371e+01 1.040354223200125716e+00
2.457386025786399841e+01 -1.694782921671867371e+01 5.981239985907507162e-01
3.211145791411399841e+01 -2.682221886515617371e+01 1.169474096247000716e+00
2.852246865630149841e+01 -2.301484581828117371e+01 9.935249995673132162e-01
3.380774697661399841e+01 -2.716157433390617371e+01 1.204981298395438216e+00
3.495960244536399841e+01 -2.756147667765617371e+01 1.235147924372000716e+00
3.592322549223899841e+01 -2.777473351359367371e+01 1.256571264215750716e+00
2.497034463286399841e+01 -1.808674523234367371e+01 7.838234614813757162e-01
3.779334267973899841e+01 -2.808540245890617371e+01 1.294886083551688216e+00
2.456153115630149841e+01 -1.693550011515617371e+01 7.420143794501257162e-01
7.858528226613998413e+00 -3.656569451093673706e+00 -8.085685062920617838e-01
7.926033109426498413e+00 -3.582594841718673706e+00 -8.102011967217492838e-01
7.990364164113998413e+00 -3.505812615156173706e+00 -8.118644047295617838e-01
8.055061429738998413e+00 -3.428786247968673706e+00 -8.135428715264367838e-01
8.119514554738998413e+00 -3.351881951093673706e+00 -8.152060795342492838e-01
8.184089750051498413e+00 -3.274855583906173706e+00 -8.168692875420617838e-01
8.248909085988998413e+00 -3.197463005781173706e+00 -8.185477543389367838e-01
8.310188382863998413e+00 -3.117995232343673706e+00 -8.202262211358117838e-01
8.593391507863998413e+00 -4.242018669843673706e+00 -8.103232670342492838e-01
8.672737210988998413e+00 -4.165358513593673706e+00 -8.127036381279992838e-01
8.756843656301498413e+00 -4.091872185468673706e+00 -8.150992680108117838e-01
8.837165921926498413e+00 -4.014479607343673706e+00 -8.175101566826867838e-01
8.917366117238998413e+00 -3.937087029218673706e+00 -8.199210453545617838e-01
8.984748929738998413e+00 -3.849928826093673706e+00 -8.214774418389367838e-01
9.045417875051498413e+00 -3.757521599531173706e+00 -8.228965092217492838e-01
9.109382718801498413e+00 -3.668044060468673706e+00 -8.242545414483117838e-01
9.457161039113998413e+00 -4.930006951093673706e+00 -8.110862064873742838e-01
9.523323148488998413e+00 -4.829176872968673706e+00 -8.123526859795617838e-01
9.589485257863998413e+00 -4.728346794843673706e+00 -8.136191654717492838e-01
9.655769437551498413e+00 -4.627394646406173706e+00 -8.149009037529992838e-01
9.721809476613998413e+00 -4.526930779218673706e+00 -8.161673832451867838e-01
9.787727445363998413e+00 -4.426588982343673706e+00 -8.174338627373742838e-01
9.853889554738998413e+00 -4.325880974531173706e+00 -8.187156010186242838e-01
9.919685453176498413e+00 -4.225783318281173706e+00 -8.199820805108117838e-01
1.052246865630149841e+01 -5.778639763593673706e+00 -8.127951908623742838e-01
1.060193642973899841e+01 -5.670851677656173706e+00 -8.142142582451867838e-01
1.067481240630149841e+01 -5.558180779218673706e+00 -8.156333256279992838e-01
1.074793252348899841e+01 -5.445265740156173706e+00 -8.170523930108117838e-01
1.082068642973899841e+01 -5.332838982343673706e+00 -8.184562016045617838e-01
1.089331826567649841e+01 -5.220534294843673706e+00 -8.198752689873742838e-01
1.096619424223899841e+01 -5.107985466718673706e+00 -8.212790775811242838e-01
1.103211221098899841e+01 -4.991530388593673706e+00 -8.226676273858117838e-01
1.186621865630149841e+01 -6.848952263593673706e+00 -8.149314213311242838e-01
1.194751748442649841e+01 -6.721022576093673706e+00 -8.165183353936242838e-01
1.202881631255149841e+01 -6.593337029218673706e+00 -8.181205082451867838e-01
1.211023721098899841e+01 -6.465407341718673706e+00 -8.197226810967492838e-01
1.219141396880149841e+01 -6.338088005781173706e+00 -8.213095951592492838e-01
1.227234658598899841e+01 -6.210890740156173706e+00 -8.228965092217492838e-01
1.235352334380149841e+01 -6.083571404218673706e+00 -8.244834232842492838e-01
1.243433389067649841e+01 -5.956740349531173706e+00 -8.260703373467492838e-01
1.359339150786399841e+01 -8.224806755781173706e+00 -8.176932621514367838e-01
1.369593057036399841e+01 -8.085524529218673706e+00 -8.195395756279992838e-01
1.378772744536399841e+01 -7.938063591718673706e+00 -8.213706303154992838e-01
1.387964639067649841e+01 -7.790358513593673706e+00 -8.232016850029992838e-01
1.339173135161399841e+01 -7.217970818281173706e+00 -8.011222172295617838e-01
1.402381142973899841e+01 -7.468703240156173706e+00 -8.252463627373742838e-01
1.408142861723899841e+01 -7.298415154218673706e+00 -8.256888676201867838e-01
1.412586221098899841e+01 -7.121046990156173706e+00 -8.260245609795617838e-01
1.601502236723899841e+01 -1.015388390421867371e+01 -8.247123051201867838e-01
1.606104287505149841e+01 -9.931349724531173706e+00 -8.246970463311242838e-01
1.610645303130149841e+01 -9.710890740156173706e+00 -8.246970463311242838e-01
1.320960244536399841e+01 -7.286940544843673706e+00 -7.198233891045617838e-01
1.334839639067649841e+01 -7.184889763593673706e+00 -7.234549809014367838e-01
1.632361611723899841e+01 -9.120436638593673706e+00 -8.276267338311242838e-01
1.571131142973899841e+01 -8.444045037031173706e+00 -8.044181156670617838e-01
1.643616494536399841e+01 -8.711379021406173706e+00 -8.284812260186242838e-01
1.941541299223899841e+01 -1.286262413859367371e+01 -8.332114506279992838e-01
1.959668740630149841e+01 -1.269074913859367371e+01 -8.374991703545617838e-01
1.967456826567649841e+01 -1.243891808390617371e+01 -8.380942631279992838e-01
1.315918740630149841e+01 -7.247878044843673706e+00 -6.422782230889367838e-01
1.352613076567649841e+01 -7.314040154218673706e+00 -6.524710941826867838e-01
1.982386025786399841e+01 -1.163423058390617371e+01 -8.392234135186242838e-01
1.561914834380149841e+01 -8.377882927656173706e+00 -7.136588383233117838e-01
1.989405068755149841e+01 -1.109175011515617371e+01 -8.397422123467492838e-01
2.453003701567649841e+01 -1.693672081828117371e+01 -8.426261234795617838e-01
2.490650185942649841e+01 -1.683491417765617371e+01 -8.513694096123742838e-01
2.594947060942649841e+01 -1.723664757609367371e+01 -8.762107182061242838e-01
1.314173135161399841e+01 -7.233473747968673706e+00 -5.665183353936242838e-01
1.344141396880149841e+01 -7.250685662031173706e+00 -5.735678959404992838e-01
1.351844033598899841e+01 -7.101759880781173706e+00 -5.752463627373742838e-01
1.359033975005149841e+01 -6.949171990156173706e+00 -5.767875004326867838e-01
1.366175088286399841e+01 -6.797804802656173706e+00 -5.783286381279992838e-01
