5.850843891501426697e+00 -1.038651663064956665e+01 6.792872592341154814e-01
6.053358539938926697e+00 -1.056791311502456665e+01 6.826747104059904814e-01
4.766127094626426697e+00 -9.367717802524566650e+00 7.048762484919279814e-01
4.922132954001426697e+00 -9.506755888462066650e+00 7.083399936091154814e-01
5.084364399313926697e+00 -9.651165068149566650e+00 7.119563266169279814e-01
5.253920063376426697e+00 -9.802410185337066650e+00 7.154811068903654814e-01
5.429823383688926697e+00 -9.959026396274566650e+00 7.193720981013029814e-01
5.613417133688926697e+00 -1.012223440408706665e+01 7.237055941950529814e-01
5.804579243063926697e+00 -1.029252249002456665e+01 7.279475375544279814e-01
6.004042133688926697e+00 -1.047013479471206665e+01 7.323878451716154814e-01
4.749769672751426697e+00 -9.327312529087066650e+00 7.489283725153654814e-01
4.914320454001426697e+00 -9.485271513462066650e+00 7.538874789606779814e-01
5.086439594626426697e+00 -9.650798857212066650e+00 7.593501254450529814e-01
5.266981586813926697e+00 -9.824504911899566650e+00 7.650721713434904814e-01
5.455336079001426697e+00 -1.000565725564956665e+01 7.710536166559904814e-01
5.653334125876426697e+00 -1.019608694314956665e+01 7.773402377497404814e-01
5.860243305563926697e+00 -1.039506155252456665e+01 7.839015170466154814e-01
6.077894672751426697e+00 -1.060490041971206665e+01 7.911189242731779814e-01
5.393934711813926697e+00 -9.392742216587066650e+00 -1.568180874455720186e-01
5.466200336813926697e+00 -9.347576200962066650e+00 -1.598851040471345186e-01
5.520033344626426697e+00 -9.268840849399566650e+00 -1.613041714299470186e-01
5.573622211813926697e+00 -9.190471708774566650e+00 -1.627232388127595186e-01
5.626600727438926697e+00 -9.113079130649566650e+00 -1.641270474065095186e-01
5.679335102438926697e+00 -9.035930693149566650e+00 -1.655155972111970186e-01
5.735975727438926697e+00 -8.967449247837066650e+00 -1.673466518986970186e-01
5.789320454001426697e+00 -8.894573271274566650e+00 -1.691166714299470186e-01
5.821180805563926697e+00 -1.020145803689956665e+01 -1.502720669377595186e-01
5.893690571188926697e+00 -1.014066702127456665e+01 -1.533238247502595186e-01
5.965956196188926697e+00 -1.007999807596206665e+01 -1.563603237736970186e-01
6.040663227438926697e+00 -1.002372366189956665e+01 -1.593663052190095186e-01
6.106092914938926697e+00 -9.952434599399566650e+00 -1.618077114690095186e-01
6.154432758688926697e+00 -9.851726591587066650e+00 -1.629368618596345186e-01
6.204847797751426697e+00 -9.757366240024566650e+00 -1.640507534611970186e-01
6.254774555563926697e+00 -9.663860380649566650e+00 -1.651493862736970186e-01
6.245497211813926697e+00 -1.100382620096206665e+01 -1.350285366643220186e-01
6.336439594626426697e+00 -1.096146780252456665e+01 -1.394841030705720186e-01
6.427259907126426697e+00 -1.091874319314956665e+01 -1.439244106877595186e-01
6.518446430563926697e+00 -1.087577444314956665e+01 -1.483952358830720186e-01
6.609510883688926697e+00 -1.083292776346206665e+01 -1.528508022893220186e-01
6.697523579001426697e+00 -1.078397756814956665e+01 -1.570317104924470186e-01
6.774549946188926697e+00 -1.071696096658706665e+01 -1.603276089299470186e-01
6.843641743063926697e+00 -1.063749319314956665e+01 -1.629826382268220186e-01
6.811293110251426697e+00 -1.207462698221206665e+01 -1.224552944768220186e-01
6.390150532126426697e+00 -1.105692678689956665e+01 -8.774154935963451862e-02
6.466566547751426697e+00 -1.098588186502456665e+01 -9.105270658619701862e-02
7.094862446188926697e+00 -1.190360647439956665e+01 -1.354710415471345186e-01
7.188246235251426697e+00 -1.184513479471206665e+01 -1.398350552190095186e-01
7.281996235251426697e+00 -1.178641897439956665e+01 -1.442143276799470186e-01
7.375257954001426697e+00 -1.172806936502456665e+01 -1.485783413518220186e-01
7.465589985251426697e+00 -1.166495901346206665e+01 -1.530491665471345186e-01
9.734755024313926697e+00 -1.762394338846206665e+01 -2.537724331486970186e-01
6.391981586813926697e+00 -1.105521780252456665e+01 -3.186386381275951862e-02
6.471937641501426697e+00 -1.099076467752456665e+01 -3.552597318775951862e-02
7.910536274313926697e+00 -1.335880666971206665e+01 -1.275822476018220186e-01
8.010267719626426697e+00 -1.328336721658706665e+01 -1.321751431096345186e-01
8.109999164938926697e+00 -1.320780569314956665e+01 -1.367680386174470186e-01
8.209242329001426697e+00 -1.313261038064956665e+01 -1.413304165471345186e-01
8.308119282126426697e+00 -1.305765920877456665e+01 -1.458927944768220186e-01
1.057484291493892670e+01 -1.921158987283706665e+01 -2.110936001408845186e-01
6.393690571188926697e+00 -1.105350881814956665e+01 2.428847993724048138e-02
6.477186664938926697e+00 -1.099564749002456665e+01 2.036697114817798138e-02
1.110450600087642670e+01 -1.906913381814956665e+01 -2.362400845158845186e-01
1.121217201650142670e+01 -1.889811331033706665e+01 -2.409703091252595186e-01
1.129334877431392670e+01 -1.868351370096206665e+01 -2.442356899846345186e-01
1.138172768056392670e+01 -1.848685842752456665e+01 -2.479283169377595186e-01
1.147205971181392670e+01 -1.829777151346206665e+01 -2.522465542424470186e-01
1.126991127431392670e+01 -2.052238088846206665e+01 -1.446720913518220186e-01
6.395399555563926697e+00 -1.105179983377456665e+01 8.013564790599048138e-02
6.482557758688926697e+00 -1.100053030252456665e+01 7.600051607005298138e-02
1.198548744618892670e+01 -2.063676077127456665e+01 -1.783482388127595186e-01
1.221412514150142670e+01 -2.064786916971206665e+01 -1.891362026799470186e-01
1.244593666493892670e+01 -2.065909963846206665e+01 -2.000614956486970186e-01
1.270484779775142670e+01 -2.071342092752456665e+01 -2.122380093205720186e-01
1.294715736806392670e+01 -2.073441702127456665e+01 -2.236515835393220186e-01
1.177772377431392670e+01 -2.147660452127456665e+01 -5.838363920338451862e-02
6.397108539938926697e+00 -1.105021291971206665e+01 1.359828158747404814e-01
6.487806782126426697e+00 -1.100541311502456665e+01 1.320002719294279814e-01
1.262977455556392670e+01 -2.177970510721206665e+01 -9.466903959400951862e-02
1.289210365712642670e+01 -2.182792288064956665e+01 -1.062199429143220186e-01
1.315382240712642670e+01 -2.186796194314956665e+01 -1.177708462346345186e-01
1.344410561025142670e+01 -2.195243459939956665e+01 -1.310459927190095186e-01
1.383155678212642670e+01 -2.219083791971206665e+01 -1.473576382268220186e-01
1.223609779775142670e+01 -2.233610159158706665e+01 3.973037446849048138e-02
6.398817524313926697e+00 -1.104850393533706665e+01 1.921046420466154814e-01
6.493177875876426697e+00 -1.101029592752456665e+01 1.877711459528654814e-01
1.320130775868892670e+01 -2.279166799783706665e+01 2.468411577865481377e-03
1.353907631337642670e+01 -2.295255666971206665e+01 -1.054733549244701862e-02
1.385511635243892670e+01 -2.306449514627456665e+01 -2.305954252369701862e-02
1.415785072743892670e+01 -2.314725881814956665e+01 -3.525131498463451862e-02
1.456764076650142670e+01 -2.340018850564956665e+01 -5.055588041432201862e-02
1.268348549306392670e+01 -2.317411428689956665e+01 1.463587924372404814e-01
6.400526508688926697e+00 -1.104679495096206665e+01 2.479365512263029814e-01
6.498426899313926697e+00 -1.101517874002456665e+01 2.435877963434904814e-01
1.374708412587642670e+01 -2.375675588846206665e+01 1.107295199763029814e-01
1.409669350087642670e+01 -2.391971975564956665e+01 9.865981782786548138e-02
1.444837807118892670e+01 -2.407450491189956665e+01 8.640701021067798138e-02
1.479310463368892670e+01 -2.420878225564956665e+01 7.416946138255298138e-02
1.514015053212642670e+01 -2.433805471658706665e+01 6.177932466380298138e-02
1.317701576650142670e+01 -2.409879690408706665e+01 2.620204135309904814e-01
6.402235493063926697e+00 -1.104508596658706665e+01 3.040431186091154814e-01
1.388014076650142670e+01 -2.445292288064956665e+01 2.411006137263029814e-01
1.424610756337642670e+01 -2.463724905252456665e+01 2.302058383356779814e-01
1.461500404775142670e+01 -2.481705862283706665e+01 2.191279574763029814e-01
1.498243568837642670e+01 -2.498173147439956665e+01 2.078517123591154814e-01
1.535389564931392670e+01 -2.514396291971206665e+01 1.963923617731779814e-01
1.572938393056392670e+01 -2.530253225564956665e+01 1.847193881403654814e-01
1.365199135243892670e+01 -2.498746877908706665e+01 3.865931674372404814e-01
6.404066547751426697e+00 -1.104337698221206665e+01 3.598445102106779814e-01
1.438038490712642670e+01 -2.535245901346206665e+01 3.679927035700529814e-01
1.474964760243892670e+01 -2.552531057596206665e+01 3.583033725153654814e-01
1.512647865712642670e+01 -2.570170217752456665e+01 3.484309359919279814e-01
1.540003822743892670e+01 -2.568803030252456665e+01 3.383448764216154814e-01
1.550697182118892670e+01 -2.539127737283706665e+01 3.284114047419279814e-01
1.610584877431392670e+01 -2.591447073221206665e+01 3.176997348200529814e-01
1.414369057118892670e+01 -2.590690237283706665e+01 5.212977572809904814e-01
6.405775532126426697e+00 -1.104166799783706665e+01 4.159510775934904814e-01
1.462098549306392670e+01 -2.577909475564956665e+01 5.014155551325529814e-01
1.489759682118892670e+01 -2.577787405252456665e+01 4.921076938044279814e-01
1.564674232900142670e+01 -2.660111624002456665e+01 4.871485873591154814e-01
1.554774330556392670e+01 -2.593058401346206665e+01 4.740260287653654814e-01
1.547755287587642670e+01 -2.533073049783706665e+01 4.623835727106779814e-01
1.560914467275142670e+01 -2.508243948221206665e+01 4.518702670466154814e-01
1.463746498525142670e+01 -2.682938772439956665e+01 6.648829623591154814e-01
6.407484516501426697e+00 -1.104008108377456665e+01 4.717372104059904814e-01
1.541895912587642670e+01 -2.721866995096206665e+01 6.515467807184904814e-01
1.545252846181392670e+01 -2.675638967752456665e+01 6.372950717341154814e-01
1.586244057118892670e+01 -2.696683889627456665e+01 6.304743930231779814e-01
1.656666420400142670e+01 -2.766776663064956665e+01 6.284297152888029814e-01
1.593470619618892670e+01 -2.608976370096206665e+01 6.031611606013029814e-01
1.654151771962642670e+01 -2.661259084939956665e+01 5.991023227106779814e-01
6.062880024313926697e+00 -1.059952932596206665e+01 5.235713168513029814e-01
6.279066547751426697e+00 -1.079716116189956665e+01 5.234339877497404814e-01
6.505384907126426697e+00 -1.100370413064956665e+01 5.235865756403654814e-01
6.737318500876426697e+00 -1.120951467752456665e+01 5.235560580622404814e-01
6.973646625876426697e+00 -1.141398245096206665e+01 5.233424350153654814e-01
7.222181782126426697e+00 -1.162907034158706665e+01 5.231288119684904814e-01
7.482191547751426697e+00 -1.185416799783706665e+01 5.228999301325529814e-01
7.754896625876426697e+00 -1.208976370096206665e+01 5.229762240778654814e-01
6.002211079001426697e+00 -1.047990041971206665e+01 5.741694613825529814e-01
6.214003071188926697e+00 -1.067167288064956665e+01 5.755122348200529814e-01
6.435926899313926697e+00 -1.087272268533706665e+01 5.769160434138029814e-01
6.668714985251426697e+00 -1.108256155252456665e+01 5.783503695856779814e-01
6.900648579001426697e+00 -1.128165823221206665e+01 5.794184848200529814e-01
7.144545063376426697e+00 -1.149100881814956665e+01 5.805476352106779814e-01
7.404310688376426697e+00 -1.171805959939956665e+01 5.818904086481779814e-01
7.679823383688926697e+00 -1.196073538064956665e+01 5.833857699763029814e-01
6.039198383688926697e+00 -1.054508596658706665e+01 6.289179965388029814e-01
6.258924946188926697e+00 -1.075028616189956665e+01 6.315577670466154814e-01
6.490248188376426697e+00 -1.096659475564956665e+01 6.346553012263029814e-01
6.729261860251426697e+00 -1.118546682596206665e+01 6.376765414606779814e-01
6.971205219626426697e+00 -1.140006643533706665e+01 6.404536410700529814e-01
7.226210102438926697e+00 -1.162626272439956665e+01 6.433680697809904814e-01
7.493544086813926697e+00 -1.186344534158706665e+01 6.464350863825529814e-01
7.775648579001426697e+00 -1.211381155252456665e+01 6.500056430231779814e-01
6.054457172751426697e+00 -1.056937795877456665e+01 6.827204867731779814e-01
6.266127094626426697e+00 -1.075883108377456665e+01 6.864588900934904814e-01
6.487806782126426697e+00 -1.095743948221206665e+01 6.903651400934904814e-01
6.716688618063926697e+00 -1.115836721658706665e+01 6.942408725153654814e-01
6.948133930563926697e+00 -1.135490041971206665e+01 6.978419467341154814e-01
7.191175922751426697e+00 -1.156119924783706665e+01 7.016261264216154814e-01
7.445082172751426697e+00 -1.177677541971206665e+01 7.055934115778654814e-01
7.711439594626426697e+00 -1.200297170877456665e+01 7.097438022028654814e-01
6.005140766501426697e+00 -1.047159963846206665e+01 7.324336215388029814e-01
6.219496235251426697e+00 -1.066764456033706665e+01 7.376826449763029814e-01
6.454603657126426697e+00 -1.089225393533706665e+01 7.438929721247404814e-01
6.700209125876426697e+00 -1.112406545877456665e+01 7.499354525934904814e-01
6.946547016501426697e+00 -1.134720999002456665e+01 7.558558627497404814e-01
7.207167133688926697e+00 -1.158378225564956665e+01 7.624476596247404814e-01
7.480360493063926697e+00 -1.183121877908706665e+01 7.690089389216154814e-01
7.768568500876426697e+00 -1.209232717752456665e+01 7.759364291559904814e-01
6.079115375876426697e+00 -1.060648733377456665e+01 7.911799594294279814e-01
6.307631000876426697e+00 -1.082621389627456665e+01 7.983973666559904814e-01
6.548964008688926697e+00 -1.105863577127456665e+01 8.063471957575529814e-01
1.884522865712642670e+01 -3.271989065408706665e+01 1.727108304155990481e+00
1.589198158681392670e+01 -2.694816213846206665e+01 1.476040188921615481e+00
1.609022377431392670e+01 -2.678116995096206665e+01 1.463741604937240481e+00
1.609071205556392670e+01 -2.628532034158706665e+01 1.437679593218490481e+00
1.597767494618892670e+01 -2.561613088846206665e+01 1.405224148882552981e+00
5.789564594626426697e+00 -8.894329130649566650e+00 -1.691166714299470186e-01
5.845716938376426697e+00 -8.827068388462066650e+00 -1.709172085393220186e-01
5.898817524313926697e+00 -8.755779325962066650e+00 -1.726719692815095186e-01
5.951796039938926697e+00 -8.684612333774566650e+00 -1.744267300236970186e-01
6.004164204001426697e+00 -8.614177763462066650e+00 -1.761662319768220186e-01
6.058485493063926697e+00 -8.546917021274566650e+00 -1.780888393986970186e-01
6.115858539938926697e+00 -8.485515654087066650e+00 -1.803471401799470186e-01
6.170423969626426697e+00 -8.420696318149566650e+00 -1.825749233830720186e-01
6.254652485251426697e+00 -9.663127958774566650e+00 -1.651188686955720186e-01
6.302137836813926697e+00 -9.567546904087066650e+00 -1.662480190861970186e-01
6.361097797751426697e+00 -9.491985380649566650e+00 -1.684147671330720186e-01
6.422255024313926697e+00 -9.420085966587066650e+00 -1.705357388127595186e-01
6.480482563376426697e+00 -9.345378935337066650e+00 -1.726872280705720186e-01
6.536390766501426697e+00 -9.267376005649566650e+00 -1.748997524846345186e-01
6.594007954001426697e+00 -9.193523466587066650e+00 -1.770207241643220186e-01
6.651258930563926697e+00 -9.120159208774566650e+00 -1.791416958440095186e-01
6.843885883688926697e+00 -1.063712698221206665e+01 -1.629826382268220186e-01
6.906141743063926697e+00 -1.054752737283706665e+01 -1.653019741643220186e-01
6.968031391501426697e+00 -1.045866018533706665e+01 -1.676060513127595186e-01
7.029676899313926697e+00 -1.037003713846206665e+01 -1.698948696721345186e-01
7.090712055563926697e+00 -1.028239065408706665e+01 -1.721531704533845186e-01
7.151503071188926697e+00 -1.019498831033706665e+01 -1.744267300236970186e-01
7.211683735251426697e+00 -1.010844045877456665e+01 -1.766545132268220186e-01
7.271498188376426697e+00 -1.002250295877456665e+01 -1.788822964299470186e-01
7.465834125876426697e+00 -1.166459280252456665e+01 -1.530644253361970186e-01
7.560194477438926697e+00 -1.160831838846206665e+01 -1.573674038518220186e-01
7.647596821188926697e+00 -1.154081350564956665e+01 -1.615025356877595186e-01
7.713270649313926697e+00 -1.143864065408706665e+01 -1.640660122502595186e-01
7.778089985251426697e+00 -1.133768850564956665e+01 -1.665837124455720186e-01
7.842787250876426697e+00 -1.123710256814956665e+01 -1.691166714299470186e-01
7.906752094626426697e+00 -1.113761526346206665e+01 -1.716038540471345186e-01
7.966078266501426697e+00 -1.103287893533706665e+01 -1.741062954533845186e-01
8.308485493063926697e+00 -1.305729299783706665e+01 -1.458927944768220186e-01
8.405287250876426697e+00 -1.297916799783706665e+01 -1.505009487736970186e-01
8.501844868063926697e+00 -1.290116506814956665e+01 -1.550938442815095186e-01
8.598646625876426697e+00 -1.282304006814956665e+01 -1.596867397893220186e-01
8.696302875876426697e+00 -1.274760061502456665e+01 -1.643559292424470186e-01
8.798597797751426697e+00 -1.267850881814956665e+01 -1.692997768986970186e-01
8.850233539938926697e+00 -1.253495413064956665e+01 -1.710697964299470186e-01
8.911512836813926697e+00 -1.240836721658706665e+01 -1.734654263127595186e-01
1.147218178212642670e+01 -1.829679495096206665e+01 -2.522465542424470186e-01
9.966688618063926697e+00 -1.551456838846206665e+01 -1.678959683049470186e-01
8.514051899313926697e+00 -1.291544729471206665e+01 -8.723800932057201862e-02
9.589369282126426697e+00 -1.437150198221206665e+01 -1.456028774846345186e-01
9.666761860251426697e+00 -1.423673635721206665e+01 -1.491276577580720186e-01
9.778089985251426697e+00 -1.415458303689956665e+01 -1.545140102971345186e-01
9.896498188376426697e+00 -1.408390432596206665e+01 -1.602818325627595186e-01
1.000892494618892670e+01 -1.400455862283706665e+01 -1.661412075627595186e-01
1.294801186025142670e+01 -2.073453909158706665e+01 -2.236821011174470186e-01
1.315894936025142670e+01 -2.070011526346206665e+01 -2.338291958440095186e-01
8.516127094626426697e+00 -1.291349416971206665e+01 -1.910751615650951862e-02
1.358607338368892670e+01 -2.063041311502456665e+01 -2.543980435002595186e-01
1.378150795400142670e+01 -2.056425100564956665e+01 -2.638279751408845186e-01
1.397669838368892670e+01 -2.049491506814956665e+01 -2.732579067815095186e-01
1.149525307118892670e+01 -1.645194631814956665e+01 -1.583744839299470186e-01
1.154334877431392670e+01 -1.623673635721206665e+01 -1.608921841252595186e-01
1.383338783681392670e+01 -2.219230276346206665e+01 -1.474339321721345186e-01
1.415724037587642670e+01 -2.231461721658706665e+01 -1.615635708440095186e-01
8.518202289938926697e+00 -1.291154104471206665e+01 4.937392915599048138e-02
1.476820228993892670e+01 -2.247404104471206665e+01 -1.879154995549470186e-01
1.510035561025142670e+01 -2.258500295877456665e+01 -2.024723843205720186e-01
1.539478920400142670e+01 -2.262943655252456665e+01 -2.156407192815095186e-01
1.568836830556392670e+01 -2.266788870096206665e+01 -2.294499233830720186e-01
1.595997475087642670e+01 -2.266886526346206665e+01 -2.417942837346345186e-01
1.456959389150142670e+01 -2.340201956033706665e+01 -5.063217435963451862e-02
1.493409584462642670e+01 -2.356779104471206665e+01 -6.483810697682201862e-02
8.520277485251426697e+00 -1.290946584939956665e+01 1.174891635309904814e-01
1.559058998525142670e+01 -2.375297170877456665e+01 -9.141891752369701862e-02
1.598377846181392670e+01 -2.393449026346206665e+01 -1.067234829533845186e-01
1.634168861806392670e+01 -2.405033499002456665e+01 -1.210972622502595186e-01
1.669154213368892670e+01 -2.414689260721206665e+01 -1.352726772893220186e-01
1.698499916493892670e+01 -2.415348440408706665e+01 -1.478306606877595186e-01
1.514210365712642670e+01 -2.433964163064956665e+01 6.173354829661548138e-02
1.554615639150142670e+01 -2.455204397439956665e+01 4.804641450755298138e-02
8.522352680563926697e+00 -1.290751272439956665e+01 1.855891391169279814e-01
1.603370521962642670e+01 -2.443705374002456665e+01 2.686721528880298138e-02
1.642872475087642670e+01 -2.460880666971206665e+01 1.304275239817798138e-02
1.664539955556392670e+01 -2.449906545877456665e+01 2.895657671615481377e-03
1.749635170400142670e+01 -2.533060842752456665e+01 -2.107589994557201862e-02
1.785194252431392670e+01 -2.540665823221206665e+01 -3.450363432057201862e-02
1.573109291493892670e+01 -2.530375295877456665e+01 1.846736117731779814e-01
1.611402748525142670e+01 -2.546403127908706665e+01 1.727717563044279814e-01
8.524305805563926697e+00 -1.290555959939956665e+01 2.540400668513029814e-01
1.621510170400142670e+01 -2.471073538064956665e+01 1.565211459528654814e-01
1.639759682118892670e+01 -2.455106741189956665e+01 1.469538852106779814e-01
1.774049232900142670e+01 -2.614188772439956665e+01 1.221736117731779814e-01
1.777393959462642670e+01 -2.573209768533706665e+01 1.141627475153654814e-01
1.795374916493892670e+01 -2.554496389627456665e+01 1.042445346247404814e-01
1.610706947743892670e+01 -2.591483694314956665e+01 3.176692172419279814e-01
1.621864174306392670e+01 -2.562308889627456665e+01 3.077815219294279814e-01
8.526381000876426697e+00 -1.290360647439956665e+01 3.221095248591154814e-01
1.616663978993892670e+01 -2.462504202127456665e+01 2.893336459528654814e-01
1.700660561025142670e+01 -2.547660452127456665e+01 2.768366977106779814e-01
1.658082436025142670e+01 -2.438212209939956665e+01 2.696955844294279814e-01
1.771571205556392670e+01 -2.563566213846206665e+01 2.549098178278654814e-01
1.790772865712642670e+01 -2.546793752908706665e+01 2.446711703669279814e-01
1.560938881337642670e+01 -2.508121877908706665e+01 4.518244906794279814e-01
1.622059486806392670e+01 -2.561552053689956665e+01 4.446070834528654814e-01
8.528456196188926697e+00 -1.290153127908706665e+01 3.901789828669279814e-01
1.612281654775142670e+01 -2.454655081033706665e+01 4.212458773981779814e-01
1.717249916493892670e+01 -2.572098928689956665e+01 4.150050326716154814e-01
1.655103920400142670e+01 -2.432743459939956665e+01 4.018061801325529814e-01
1.768275307118892670e+01 -2.557658010721206665e+01 3.954280063044279814e-01
1.831019447743892670e+01 -2.604337698221206665e+01 3.860285922419279814e-01
1.654810951650142670e+01 -2.662162405252456665e+01 5.991633578669279814e-01
1.632960365712642670e+01 -2.578178030252456665e+01 5.822566195856779814e-01
8.530531391501426697e+00 -1.289957815408706665e+01 4.585993930231779814e-01
1.631190346181392670e+01 -2.483182913064956665e+01 5.561335727106779814e-01
1.637721107900142670e+01 -2.449003225564956665e+01 5.445521518122404814e-01
1.652113197743892670e+01 -2.427250295877456665e+01 5.340541049372404814e-01
1.724867103993892670e+01 -2.492387014627456665e+01 5.301325961481779814e-01
1.832154701650142670e+01 -2.604972463846206665e+01 5.290187045466154814e-01
7.756483539938926697e+00 -1.209159475564956665e+01 5.229914828669279814e-01
8.044447407126426697e+00 -1.234098440408706665e+01 5.225489779841154814e-01
8.347547993063926697e+00 -1.260306936502456665e+01 5.224269076716154814e-01
8.668714985251426697e+00 -1.288090139627456665e+01 5.222895785700529814e-01
8.977919086813926697e+00 -1.312870413064956665e+01 5.215418979059904814e-01
9.304457172751426697e+00 -1.339054495096206665e+01 5.207484408747404814e-01
9.647230610251426697e+00 -1.366532522439956665e+01 5.199244662653654814e-01
1.000794838368892670e+01 -1.395402151346206665e+01 5.194361850153654814e-01
7.681410297751426697e+00 -1.196256643533706665e+01 5.834162875544279814e-01
7.972181782126426697e+00 -1.221891409158706665e+01 5.851710482966154814e-01
8.279310688376426697e+00 -1.248954397439956665e+01 5.870173617731779814e-01
8.605482563376426697e+00 -1.277701956033706665e+01 5.889857455622404814e-01
8.926527485251426697e+00 -1.304471975564956665e+01 5.903742953669279814e-01
9.257704243063926697e+00 -1.331486135721206665e+01 5.915949984919279814e-01
9.605970844626426697e+00 -1.359891897439956665e+01 5.928767367731779814e-01
9.973768696188926697e+00 -1.389896780252456665e+01 5.942347689997404814e-01
7.777235493063926697e+00 -1.211576467752456665e+01 6.500514193903654814e-01
8.070082172751426697e+00 -1.237235647439956665e+01 6.531336947809904814e-01
8.369886860251426697e+00 -1.262845999002456665e+01 6.563838168513029814e-01
8.663221821188926697e+00 -1.286185842752456665e+01 6.588862582575529814e-01
8.991468891501426697e+00 -1.313908010721206665e+01 6.623194857966154814e-01
9.314100727438926697e+00 -1.339445120096206665e+01 6.650202914606779814e-01
9.652357563376426697e+00 -1.366215139627456665e+01 6.678431674372404814e-01
1.000807045400142670e+01 -1.394340139627456665e+01 6.712001010309904814e-01
7.712904438376426697e+00 -1.200468069314956665e+01 7.097895785700529814e-01
7.992689594626426697e+00 -1.224198538064956665e+01 7.143824740778654814e-01
8.287123188376426697e+00 -1.249186331033706665e+01 7.192042514216154814e-01
8.598768696188926697e+00 -1.275614553689956665e+01 7.243006869684904814e-01
8.928114399313926697e+00 -1.303654104471206665e+01 7.297480746638029814e-01
9.267591938376426697e+00 -1.331901174783706665e+01 7.350733920466154814e-01
9.625135883688926697e+00 -1.361661916971206665e+01 7.406886264216154814e-01
1.000379799306392670e+01 -1.393168264627456665e+01 7.466242953669279814e-01
7.770277485251426697e+00 -1.209428030252456665e+01 7.759974643122404814e-01
8.075697407126426697e+00 -1.237125784158706665e+01 7.836116000544279814e-01
8.399183735251426697e+00 -1.266471487283706665e+01 7.916987582575529814e-01
1.690394447743892670e+01 -2.570475393533706665e+01 1.255626980913802981e+00
1.704237221181392670e+01 -2.545939260721206665e+01 1.241512601030990481e+00
1.808900307118892670e+01 -2.658243948221206665e+01 1.276592557085677981e+00
1.741859291493892670e+01 -2.512528616189956665e+01 1.219631497515365481e+00
1.751014564931392670e+01 -2.482072073221206665e+01 1.203548733843490481e+00
1.598023842275142670e+01 -2.561881643533706665e+01 1.405330960405990481e+00
2.126209877431392670e+01 -3.369608694314956665e+01 1.736431424273177981e+00
1.674976967275142670e+01 -2.592008596658706665e+01 1.408077542437240481e+00
1.711353920400142670e+01 -2.602103811502456665e+01 1.407604519976302981e+00
1.694239662587642670e+01 -2.529606252908706665e+01 1.373104397905990481e+00
1.699842689931392670e+01 -2.493192678689956665e+01 1.353573147905990481e+00
1.721070717275142670e+01 -2.480851370096206665e+01 1.343960110796615481e+00
1.765296791493892670e+01 -2.501823049783706665e+01 1.348568265093490481e+00
6.170423969626426697e+00 -8.420330107212066650e+00 -1.825749233830720186e-01
6.227797016501426697e+00 -8.360027372837066650e+00 -1.848027065861970186e-01
6.282240375876426697e+00 -8.296306669712066650e+00 -1.870304897893220186e-01
6.336683735251426697e+00 -8.232463896274566650e+00 -1.892430142033845186e-01
6.390760883688926697e+00 -8.169231474399566650e+00 -1.914402798283845186e-01
6.444838032126426697e+00 -8.105999052524566650e+00 -1.936528042424470186e-01
6.498426899313926697e+00 -8.043254911899566650e+00 -1.958348110783845186e-01
6.549208149313926697e+00 -7.977214872837066650e+00 -1.980015591252595186e-01
6.651381000876426697e+00 -9.119670927524566650e+00 -1.791416958440095186e-01
6.711073383688926697e+00 -9.050579130649566650e+00 -1.816746548283845186e-01
6.774794086813926697e+00 -8.987712919712066650e+00 -1.845738247502595186e-01
6.841322407126426697e+00 -8.928630888462066650e+00 -1.874577358830720186e-01
6.904676899313926697e+00 -8.866008818149566650e+00 -1.903416470158845186e-01
6.960585102438926697e+00 -8.793254911899566650e+00 -1.928440884221345186e-01
7.012953266501426697e+00 -8.716960966587066650e+00 -1.947972134221345186e-01
7.064955219626426697e+00 -8.641155302524566650e+00 -1.967503384221345186e-01
7.271620258688926697e+00 -1.002213674783706665e+01 -1.788822964299470186e-01
7.328749164938926697e+00 -9.933513700962066650e+00 -1.811100796330720186e-01
7.383558735251426697e+00 -9.842693388462066650e+00 -1.831547573674470186e-01
7.436537250876426697e+00 -9.749797880649566650e+00 -1.850773647893220186e-01
7.488905414938926697e+00 -9.658001005649566650e+00 -1.869694546330720186e-01
7.541517719626426697e+00 -9.567180693149566650e+00 -1.889073208440095186e-01
7.609266743063926697e+00 -9.497966825962066650e+00 -1.920201138127595186e-01
7.664320454001426697e+00 -9.412639677524566650e+00 -1.941563442815095186e-01
7.966200336813926697e+00 -1.103239065408706665e+01 -1.741062954533845186e-01
8.031019672751426697e+00 -1.093680959939956665e+01 -1.765477017033845186e-01
8.091200336813926697e+00 -1.083610159158706665e+01 -1.790043667424470186e-01
8.151136860251426697e+00 -1.073563772439956665e+01 -1.814610317815095186e-01
8.210463032126426697e+00 -1.063627249002456665e+01 -1.838871792424470186e-01
8.269667133688926697e+00 -1.053727346658706665e+01 -1.862980679143220186e-01
8.328138813376426697e+00 -1.043937307596206665e+01 -1.886784390080720186e-01
8.381971821188926697e+00 -1.033658987283706665e+01 -1.910740688908845186e-01
8.911756977438926697e+00 -1.240800100564956665e+01 -1.734806851018220186e-01
8.969984516501426697e+00 -1.227897268533706665e+01 -1.758763149846345186e-01
9.018690571188926697e+00 -1.213859182596206665e+01 -1.776768520940095186e-01
9.067030414938926697e+00 -1.199930959939956665e+01 -1.794773892033845186e-01
9.114637836813926697e+00 -1.186210256814956665e+01 -1.812474087346345186e-01
9.161879047751426697e+00 -1.172611624002456665e+01 -1.830021694768220186e-01
9.208387836813926697e+00 -1.159196096658706665e+01 -1.847416714299470186e-01
9.267225727438926697e+00 -1.147599416971206665e+01 -1.872441128361970186e-01
1.000929115712642670e+01 -1.400419241189956665e+01 -1.661564663518220186e-01
1.010987709462642670e+01 -1.390800100564956665e+01 -1.707188442815095186e-01
1.017799232900142670e+01 -1.376627737283706665e+01 -1.739079311955720186e-01
1.024561928212642670e+01 -1.362553030252456665e+01 -1.770817593205720186e-01
1.031251381337642670e+01 -1.348637014627456665e+01 -1.802250698674470186e-01
1.037904213368892670e+01 -1.334818655252456665e+01 -1.833531216252595186e-01
1.044471596181392670e+01 -1.321146780252456665e+01 -1.864353970158845186e-01
1.050306557118892670e+01 -1.306742483377456665e+01 -1.895176724065095186e-01
1.154298256337642670e+01 -1.623527151346206665e+01 -1.608769253361970186e-01
1.158949135243892670e+01 -1.602225881814956665e+01 -1.634709194768220186e-01
1.078358314931392670e+01 -1.461368948221206665e+01 -1.263768032658845186e-01
1.168055580556392670e+01 -1.560490041971206665e+01 -1.685520962346345186e-01
1.175623939931392670e+01 -1.544364553689956665e+01 -1.724888638127595186e-01
1.182520912587642670e+01 -1.527494436502456665e+01 -1.761204556096345186e-01
1.189332436025142670e+01 -1.510856252908706665e+01 -1.796910122502595186e-01
1.196082924306392670e+01 -1.494388967752456665e+01 -1.832310513127595186e-01
1.596131752431392670e+01 -2.266935354471206665e+01 -2.418553188908845186e-01
1.623512123525142670e+01 -2.266886526346206665e+01 -2.544590786565095186e-01
1.079298256337642670e+01 -1.462113577127456665e+01 -4.584091459400951862e-02
1.682215736806392670e+01 -2.270743948221206665e+01 -2.805973843205720186e-01
1.697523353993892670e+01 -2.252860647439956665e+01 -2.885777310002595186e-01
1.423206947743892670e+01 -1.848283010721206665e+01 -1.837040737736970186e-01
1.370033119618892670e+01 -1.747440725564956665e+01 -1.650883511174470186e-01
1.302528236806392670e+01 -1.631156545877456665e+01 -1.401249722111970186e-01
1.698646400868892670e+01 -2.415409475564956665e+01 -1.478916958440095186e-01
1.736512611806392670e+01 -2.427762991189956665e+01 -1.631810024846345186e-01
1.080238197743892670e+01 -1.462870413064956665e+01 3.435928071849048138e-02
1.815260170400142670e+01 -2.453739553689956665e+01 -1.949345425236970186e-01
1.850770424306392670e+01 -2.460136038064956665e+01 -2.097355679143220186e-01
1.885304115712642670e+01 -2.464359670877456665e+01 -2.243077114690095186e-01
1.915577553212642670e+01 -2.462491995096206665e+01 -2.375828579533845186e-01
1.302796791493892670e+01 -1.630887991189956665e+01 -4.690902982838451862e-02
1.785352943837642670e+01 -2.540751272439956665e+01 -3.456466947682201862e-02
1.818055580556392670e+01 -2.543497854471206665e+01 -4.748886381275951862e-02
1.081165932118892670e+01 -1.463627249002456665e+01 1.146662875544279814e-01
1.873304603993892670e+01 -2.532975393533706665e+01 -7.124679838307201862e-02
1.860230873525142670e+01 -2.472050100564956665e+01 -7.367294584400951862e-02
1.920680092275142670e+01 -2.510624319314956665e+01 -9.331100736744701862e-02
1.909010170400142670e+01 -2.452946096658706665e+01 -9.588974271900951862e-02
1.303053139150142670e+01 -1.630631643533706665e+01 4.578811372630298138e-02
1.795435951650142670e+01 -2.554423147439956665e+01 1.042140170466154814e-01
1.813355873525142670e+01 -2.535783010721206665e+01 9.435683931224048138e-02
1.082105873525142670e+01 -1.464384084939956665e+01 1.955073520075529814e-01
1.872242592275142670e+01 -2.530546194314956665e+01 7.120925630442798138e-02
1.871705482900142670e+01 -2.486661916971206665e+01 6.422073091380298138e-02
1.916456459462642670e+01 -2.504032522439956665e+01 5.012160982005298138e-02
1.913050697743892670e+01 -2.457328420877456665e+01 4.374343599192798138e-02
1.303321693837642670e+01 -1.630363088846206665e+01 1.389735385309904814e-01
1.790833900868892670e+01 -2.546720510721206665e+01 2.446406527888029814e-01
1.808704994618892670e+01 -2.528141409158706665e+01 2.346156283747404814e-01
2.015919350087642670e+01 -2.775675588846206665e+01 2.115443393122404814e-01
1.878956459462642670e+01 -2.538834768533706665e+01 2.120783969294279814e-01
1.889417885243892670e+01 -2.509745413064956665e+01 2.025569125544279814e-01
1.912782143056392670e+01 -2.498197561502456665e+01 1.920130893122404814e-01
1.936073158681392670e+01 -2.486576467752456665e+01 1.814845248591154814e-01
1.303578041493892670e+01 -1.630094534158706665e+01 2.316401645075529814e-01
1.831178139150142670e+01 -2.604410940408706665e+01 3.859980746638029814e-01
1.889967201650142670e+01 -2.643290334939956665e+01 3.761866732966154814e-01
1.902723549306392670e+01 -2.615641409158706665e+01 3.646815463434904814e-01
1.865211342275142670e+01 -2.518888479471206665e+01 3.538172885309904814e-01
1.884083412587642670e+01 -2.501554495096206665e+01 3.435786410700529814e-01
1.889967201650142670e+01 -2.466849905252456665e+01 3.334010287653654814e-01
1.926173256337642670e+01 -2.472672659158706665e+01 3.237879916559904814e-01
1.303846596181392670e+01 -1.629825979471206665e+01 3.247950717341154814e-01
1.832325600087642670e+01 -2.605045706033706665e+01 5.289881869684904814e-01
1.816969154775142670e+01 -2.537968069314956665e+01 5.150721713434904814e-01
2.171046303212642670e+01 -2.991276174783706665e+01 5.346339389216154814e-01
1.865760658681392670e+01 -2.518680959939956665e+01 4.952662631403654814e-01
1.879347084462642670e+01 -2.494181448221206665e+01 4.844782992731779814e-01
1.917994545400142670e+01 -2.503251272439956665e+01 4.754908725153654814e-01
1.928724525868892670e+01 -2.475077444314956665e+01 4.645350619684904814e-01
1.304102943837642670e+01 -1.629569631814956665e+01 4.174311801325529814e-01
1.001002357900142670e+01 -1.395634084939956665e+01 5.194514438044279814e-01
1.039246986806392670e+01 -1.426322561502456665e+01 5.182917758356779814e-01
1.079652260243892670e+01 -1.458695608377456665e+01 5.174830600153654814e-01
1.118739174306392670e+01 -1.487748342752456665e+01 5.160029574763029814e-01
1.159364174306392670e+01 -1.517667776346206665e+01 5.143702670466154814e-01
1.202369545400142670e+01 -1.549332815408706665e+01 5.126460238825529814e-01
1.247645424306392670e+01 -1.582682424783706665e+01 5.108302279841154814e-01
1.295472572743892670e+01 -1.617850881814956665e+01 5.093806430231779814e-01
9.975965961813926697e+00 -1.390128713846206665e+01 5.942652865778654814e-01
1.036573646962642670e+01 -1.421952444314956665e+01 5.959132357966154814e-01
1.077931068837642670e+01 -1.455717092752456665e+01 5.976679965388029814e-01
1.118006752431392670e+01 -1.486173635721206665e+01 5.985682650934904814e-01
1.159437416493892670e+01 -1.517191702127456665e+01 5.993464633356779814e-01
1.203358314931392670e+01 -1.550077444314956665e+01 6.001704379450529814e-01
1.249696205556392670e+01 -1.584769827127456665e+01 6.010401889216154814e-01
1.298805092275142670e+01 -1.621537405252456665e+01 6.019557162653654814e-01
1.001014564931392670e+01 -1.394559866189956665e+01 6.712458773981779814e-01
1.038648842275142670e+01 -1.424369436502456665e+01 6.742366000544279814e-01
1.078394936025142670e+01 -1.455802541971206665e+01 6.778071566950529814e-01
1.117091225087642670e+01 -1.484330374002456665e+01 6.804774447809904814e-01
1.157044838368892670e+01 -1.513370901346206665e+01 6.830714389216154814e-01
1.199293373525142670e+01 -1.544083791971206665e+01 6.858180209528654814e-01
1.243739174306392670e+01 -1.576383596658706665e+01 6.887171908747404814e-01
1.290626381337642670e+01 -1.610416799783706665e+01 6.922419711481779814e-01
1.000599525868892670e+01 -1.393412405252456665e+01 7.466853305231779814e-01
1.040846107900142670e+01 -1.426932913064956665e+01 7.532923861872404814e-01
1.083631752431392670e+01 -1.462577444314956665e+01 7.603266879450529814e-01
1.124207924306392670e+01 -1.493583303689956665e+01 7.658045932184904814e-01
1.166993568837642670e+01 -1.526261526346206665e+01 7.715876742731779814e-01
2.616956947743892670e+01 -3.429166799783706665e+01 1.304378811968490481e+00
2.674391029775142670e+01 -3.446256643533706665e+01 1.300777737749740481e+00
2.736451576650142670e+01 -3.468009573221206665e+01 1.298290555132552981e+00
1.750916908681392670e+01 -2.481779104471206665e+01 1.203411404741927981e+00
1.772254799306392670e+01 -2.469254690408706665e+01 1.194195096148177981e+00
1.784120033681392670e+01 -2.443400198221206665e+01 1.180370633257552981e+00
1.824488686025142670e+01 -2.457023245096206665e+01 1.179394070757552981e+00
2.385169838368892670e+01 -3.173759084939956665e+01 1.419018094195052981e+00
1.913954018056392670e+01 -2.493143850564956665e+01 1.182323758257552981e+00
2.750050209462642670e+01 -3.543827444314956665e+01 1.531643216265365481e+00
2.480641029775142670e+01 -3.138065725564956665e+01 1.388103787554427981e+00
1.749940346181392670e+01 -2.479386526346206665e+01 1.339443509234115481e+00
1.743250893056392670e+01 -2.426969534158706665e+01 1.313503567827865481e+00
1.789600990712642670e+01 -2.450138479471206665e+01 1.318813626421615481e+00
2.594056557118892670e+01 -3.515079885721206665e+01 1.740993802202865481e+00
2.386439369618892670e+01 -3.174247366189956665e+01 1.599163357866927981e+00
2.434034584462642670e+01 -3.183439260721206665e+01 1.597347561968490481e+00
2.641041420400142670e+01 -3.400101858377456665e+01 1.677410428179427981e+00
2.478236244618892670e+01 -3.133805471658706665e+01 1.567653958452865481e+00
6.549452289938926697e+00 -7.977092802524566650e+00 -1.980168179143220186e-01
6.603041157126426697e+00 -7.915325224399566650e+00 -2.001835659611970186e-01
6.653822407126426697e+00 -7.850261747837066650e+00 -2.023350552190095186e-01
6.704481586813926697e+00 -7.785198271274566650e+00 -2.044865444768220186e-01
6.754896625876426697e+00 -7.720745146274566650e+00 -2.066227749455720186e-01
6.805189594626426697e+00 -7.656169950962066650e+00 -2.087590054143220186e-01
6.855238422751426697e+00 -7.592083036899566650e+00 -2.108799770940095186e-01
6.905775532126426697e+00 -7.529216825962066650e+00 -2.133061245549470186e-01
7.065077289938926697e+00 -8.640911161899566650e+00 -1.967503384221345186e-01
7.115126118063926697e+00 -8.563274443149566650e+00 -1.987492397893220186e-01
7.170423969626426697e+00 -8.493084013462066650e+00 -2.011906460393220186e-01
7.228529438376426697e+00 -8.426189482212066650e+00 -2.036167935002595186e-01
7.283461079001426697e+00 -8.356365263462066650e+00 -2.060429409611970186e-01
7.335707172751426697e+00 -8.283489286899566650e+00 -2.085148647893220186e-01
7.390272602438926697e+00 -8.214275419712066650e+00 -2.109257534611970186e-01
7.444715961813926697e+00 -8.145427763462066650e+00 -2.133366421330720186e-01
7.664442524313926697e+00 -9.412395536899566650e+00 -1.941716030705720186e-01
7.720716938376426697e+00 -9.329631865024566650e+00 -1.966130093205720186e-01
7.778212055563926697e+00 -9.249187529087066650e+00 -1.991612270940095186e-01
7.835707172751426697e+00 -9.168743193149566650e+00 -2.016941860783845186e-01
7.892591938376426697e+00 -9.088909208774566650e+00 -2.042271450627595186e-01
7.949598774313926697e+00 -9.009319365024566650e+00 -2.067448452580720186e-01
8.005995258688926697e+00 -8.930217802524566650e+00 -2.092320278752595186e-01
8.062269672751426697e+00 -8.851482450962066650e+00 -2.117192104924470186e-01
8.382215961813926697e+00 -1.033622366189956665e+01 -1.910740688908845186e-01
8.450941547751426697e+00 -1.025358206033706665e+01 -1.940647915471345186e-01
8.521620258688926697e+00 -1.017399221658706665e+01 -1.974980190861970186e-01
8.592421039938926697e+00 -1.009440237283706665e+01 -2.009465054143220186e-01
8.662855610251426697e+00 -1.001530081033706665e+01 -2.043797329533845186e-01
8.728163227438926697e+00 -9.929973661899566650e+00 -2.074467495549470186e-01
8.791395649313926697e+00 -9.843425810337066650e+00 -2.103916958440095186e-01
8.850477680563926697e+00 -9.752849638462066650e+00 -2.133671597111970186e-01
9.267469868063926697e+00 -1.147575002908706665e+01 -1.872593716252595186e-01
9.325697407126426697e+00 -1.136051565408706665e+01 -1.898991421330720186e-01
9.386732563376426697e+00 -1.125016409158706665e+01 -1.927220181096345186e-01
9.464003071188926697e+00 -1.116019827127456665e+01 -1.965519741643220186e-01
9.540785297751426697e+00 -1.107096487283706665e+01 -2.003514126408845186e-01
9.617567524313926697e+00 -1.098148733377456665e+01 -2.041661099065095186e-01
9.692396625876426697e+00 -1.089103323221206665e+01 -2.078434780705720186e-01
9.760511860251426697e+00 -1.079325491189956665e+01 -2.111241177190095186e-01
1.050343178212642670e+01 -1.306705862283706665e+01 -1.895329311955720186e-01
1.057203529775142670e+01 -1.293790823221206665e+01 -1.925389126408845186e-01
1.063331459462642670e+01 -1.280131155252456665e+01 -1.955601528752595186e-01
1.069434975087642670e+01 -1.266532522439956665e+01 -1.985661343205720186e-01
1.075477455556392670e+01 -1.253104788064956665e+01 -2.015415981877595186e-01
1.081483314931392670e+01 -1.239725881814956665e+01 -2.045018032658845186e-01
1.087415932118892670e+01 -1.226505666971206665e+01 -2.074162319768220186e-01
1.092628334462642670e+01 -1.212614065408706665e+01 -2.103306606877595186e-01
1.196107338368892670e+01 -1.494340139627456665e+01 -1.832463101018220186e-01
1.202503822743892670e+01 -1.477665334939956665e+01 -1.867710903752595186e-01
1.208839271962642670e+01 -1.461149221658706665e+01 -1.902500942815095186e-01
1.215138100087642670e+01 -1.444730764627456665e+01 -1.937138393986970186e-01
1.221351478993892670e+01 -1.428507620096206665e+01 -1.971318081486970186e-01
1.227516029775142670e+01 -1.412394338846206665e+01 -2.005192593205720186e-01
1.233607338368892670e+01 -1.396476370096206665e+01 -2.038761929143220186e-01
1.239649818837642670e+01 -1.380717092752456665e+01 -2.071873501408845186e-01
1.302552650868892670e+01 -1.631095510721206665e+01 -1.401402310002595186e-01
1.390614174306392670e+01 -1.715678030252456665e+01 -1.763493374455720186e-01
1.401478432118892670e+01 -1.700773245096206665e+01 -1.817204311955720186e-01
1.411561439931392670e+01 -1.684952932596206665e+01 -1.873051479924470186e-01
1.421558998525142670e+01 -1.669279104471206665e+01 -1.928440884221345186e-01
1.429322670400142670e+01 -1.651017385721206665e+01 -1.974980190861970186e-01
1.429347084462642670e+01 -1.624039846658706665e+01 -1.995579556096345186e-01
1.434327553212642670e+01 -1.603287893533706665e+01 -2.030522183049470186e-01
1.302821205556392670e+01 -1.630826956033706665e+01 -4.692428861744701862e-02
1.975672768056392670e+01 -2.456681448221206665e+01 -2.642247036565095186e-01
1.999769447743892670e+01 -2.445780569314956665e+01 -2.757298306096345186e-01
2.024049232900142670e+01 -2.434794241189956665e+01 -2.873417690861970186e-01
1.741688393056392670e+01 -2.054325491189956665e+01 -1.992680386174470186e-01
1.684376381337642670e+01 -1.952518850564956665e+01 -1.836735561955720186e-01
1.702357338368892670e+01 -1.941459280252456665e+01 -1.925389126408845186e-01
1.720387123525142670e+01 -1.930375295877456665e+01 -2.014195278752595186e-01
1.303077553212642670e+01 -1.630570608377456665e+01 4.577285493724048138e-02
2.106410072743892670e+01 -2.621439749002456665e+01 -1.546665981877595186e-01
2.164417885243892670e+01 -2.650004202127456665e+01 -1.746250942815095186e-01
2.210987709462642670e+01 -2.662858206033706665e+01 -1.919438198674470186e-01
2.253736732900142670e+01 -2.670219045877456665e+01 -2.083927944768220186e-01
2.303468178212642670e+01 -2.684867483377456665e+01 -2.267643765080720186e-01
2.343311928212642670e+01 -2.687052541971206665e+01 -2.427098110783845186e-01
2.382838295400142670e+01 -2.688187795877456665e+01 -2.586399868596345186e-01
1.303346107900142670e+01 -1.630302053689956665e+01 1.389582797419279814e-01
2.226649330556392670e+01 -2.772794729471206665e+01 -2.321213041432201862e-02
2.276331947743892670e+01 -2.788395315408706665e+01 -3.941696439869701862e-02
2.323768471181392670e+01 -2.799955374002456665e+01 -5.543869291432201862e-02
2.375074623525142670e+01 -2.815311819314956665e+01 -7.231491361744701862e-02
2.433143471181392670e+01 -2.837369924783706665e+01 -9.064071928150951862e-02
2.485609291493892670e+01 -2.851700979471206665e+01 -1.081120327580720186e-01
2.538355873525142670e+01 -2.865226370096206665e+01 -1.258122280705720186e-01
1.303614662587642670e+01 -1.630033499002456665e+01 2.316249057184904814e-01
2.315955971181392670e+01 -2.884843069314956665e+01 1.281397982966154814e-01
2.365431068837642670e+01 -2.898295217752456665e+01 1.135676547419279814e-01
2.419801186025142670e+01 -2.916471487283706665e+01 9.823257173411548138e-02
2.473072670400142670e+01 -2.932218557596206665e+01 8.280593599192798138e-02
2.525855873525142670e+01 -2.946049124002456665e+01 6.716567720286548138e-02
2.579322670400142670e+01 -2.959696584939956665e+01 5.125076021067798138e-02
2.631556557118892670e+01 -2.970841604471206665e+01 3.525954927317798138e-02
1.303871010243892670e+01 -1.629764944314956665e+01 3.247645541559904814e-01
1.943360756337642670e+01 -2.412150198221206665e+01 3.039668246638029814e-01
2.450733803212642670e+01 -3.003373342752456665e+01 2.795985385309904814e-01
2.503529213368892670e+01 -3.017838674783706665e+01 2.661402865778654814e-01
2.553138588368892670e+01 -3.027457815408706665e+01 2.525599643122404814e-01
2.606727455556392670e+01 -3.040641409158706665e+01 2.385218783747404814e-01
2.663709877431392670e+01 -3.056791311502456665e+01 2.250941439997404814e-01
2.602088783681392670e+01 -2.936063772439956665e+01 2.164881869684904814e-01
1.304139564931392670e+01 -1.629496389627456665e+01 4.174159213434904814e-01
2.478028725087642670e+01 -3.087760549783706665e+01 4.702418490778654814e-01
2.528224037587642670e+01 -3.098649221658706665e+01 4.586299106013029814e-01
2.579884193837642670e+01 -3.110099416971206665e+01 4.467280551325529814e-01
2.637183998525142670e+01 -3.127421194314956665e+01 4.347956820856779814e-01
2.696156166493892670e+01 -3.145267874002456665e+01 4.225123568903654814e-01
2.717567299306392670e+01 -3.118302541971206665e+01 4.090388461481779814e-01
2.606190346181392670e+01 -2.939701467752456665e+01 3.931697055231779814e-01
1.295765541493892670e+01 -1.618131643533706665e+01 5.093959018122404814e-01
1.342884682118892670e+01 -1.650870901346206665e+01 5.066035434138029814e-01
1.390943764150142670e+01 -1.683329397439956665e+01 5.039637729059904814e-01
1.441859291493892670e+01 -1.717704397439956665e+01 5.011714145075529814e-01
1.495484779775142670e+01 -1.753922659158706665e+01 4.982417270075529814e-01
1.552125404775142670e+01 -1.791996389627456665e+01 4.950831576716154814e-01
1.605531166493892670e+01 -1.824760061502456665e+01 4.911463900934904814e-01
1.662415932118892670e+01 -1.859989553689956665e+01 4.876673861872404814e-01
1.299110268056392670e+01 -1.621830374002456665e+01 6.019862338434904814e-01
1.346778725087642670e+01 -1.655192190408706665e+01 6.023219272028654814e-01
1.395912025868892670e+01 -1.688883596658706665e+01 6.024287387263029814e-01
1.448023842275142670e+01 -1.724613577127456665e+01 6.025355502497404814e-01
1.503004311025142670e+01 -1.762321096658706665e+01 6.026576205622404814e-01
1.547779701650142670e+01 -1.786222463846206665e+01 6.004298373591154814e-01
1.612476967275142670e+01 -1.832169729471206665e+01 6.011164828669279814e-01
1.669276283681392670e+01 -1.867167288064956665e+01 5.998957797419279814e-01
1.290919350087642670e+01 -1.610697561502456665e+01 6.922877475153654814e-01
