1.366331037878990173e+01 -1.516600772738456726e+01 -6.873612252762484331e-01
1.402353987097740173e+01 -1.527172061800956726e+01 -6.967453805496859331e-01
1.441587385535240173e+01 -1.540929386019706726e+01 -7.071060983231234331e-01
1.476023420691490173e+01 -1.547655460238456726e+01 -7.158341256668734331e-01
1.510044416785240173e+01 -1.552928897738456726e+01 -7.249436227371859331e-01
1.545688948035240173e+01 -1.559459659457206726e+01 -7.339615670731234331e-01
6.621074050664901733e+00 -6.255363196134567261e+00 -4.095902291824984331e-01
6.714946120977401733e+00 -6.204337805509567261e+00 -4.114212838699984331e-01
1.415330061316490173e+01 -1.580760928988456726e+01 -5.989670602371859331e-01
1.450962385535240173e+01 -1.589525577425956726e+01 -6.067948190262484331e-01
1.485569319128990173e+01 -1.596178409457206726e+01 -6.143479196121859331e-01
1.523594221472740173e+01 -1.606200382113456726e+01 -6.227249948074984331e-01
1.564853987097740173e+01 -1.619054386019706726e+01 -6.318955270340609331e-01
1.607236799597740173e+01 -1.632262393832206726e+01 -6.412949410965609331e-01
6.621684402227401733e+00 -6.254996985197067261e+00 -3.609146920731234331e-01
6.716655105352401733e+00 -6.205436438322067261e+00 -3.626847116043734331e-01
1.460544905066490173e+01 -1.639940616488456726e+01 -5.025009957840609331e-01
1.497898420691490173e+01 -1.649694034457206726e+01 -5.093216744949984331e-01
1.501755842566490173e+01 -1.616332218050956726e+01 -5.102066842606234331e-01
1.537839826941490173e+01 -1.623570987582206726e+01 -5.167984811356234331e-01
1.573435530066490173e+01 -1.629186221957206726e+01 -5.233139840653109331e-01
1.599021467566490173e+01 -1.622264835238456726e+01 -5.280594674637484331e-01
6.622294753789901733e+00 -6.254630774259567261e+00 -3.119644967606234331e-01
6.718364089727401733e+00 -6.206413000822067261e+00 -3.136582223465609331e-01
1.502329573035240173e+01 -1.694591495394706726e+01 -3.982682076981234331e-01
1.542063459753990173e+01 -1.706285831332206726e+01 -4.039597360184359331e-01
1.499241194128990173e+01 -1.612902042269706726e+01 -4.011673776199984331e-01
1.624998030066490173e+01 -1.731005069613456726e+01 -4.158310739090609331e-01
1.567881330847740173e+01 -1.622216007113456726e+01 -4.114670602371859331e-01
1.597727522253990173e+01 -1.620482608675956726e+01 -4.161820260574984331e-01
6.622905105352401733e+00 -6.254264563322067261e+00 -2.632889596512484331e-01
1.505076155066490173e+01 -1.738341495394706726e+01 -2.841935006668734331e-01
1.546714338660240173e+01 -1.752623721957206726e+01 -2.883744088699984331e-01
1.589707502722740173e+01 -1.767320987582206726e+01 -2.927079049637484331e-01
1.496750959753990173e+01 -1.609508487582206726e+01 -2.931198922684359331e-01
1.516282209753990173e+01 -1.596422550082206726e+01 -2.966294137528109331e-01
1.617173323035240173e+01 -1.681639835238456726e+01 -3.028549996903109331e-01
1.668979963660240173e+01 -1.704747745394706726e+01 -3.076462594559359331e-01
6.623637527227401733e+00 -6.253898352384567261e+00 -2.143692819168734331e-01
1.551914533972740173e+01 -1.800890323519706726e+01 -1.684250680496859331e-01
1.595395979285240173e+01 -1.816307803988456726e+01 -1.715836373856234331e-01
1.636838850378990173e+01 -1.827709171175956726e+01 -1.743912545731234331e-01
1.523862776160240173e+01 -1.643431827425956726e+01 -1.841568795731234331e-01
1.509177717566490173e+01 -1.587389346957206726e+01 -1.890702096512484331e-01
1.591257795691490173e+01 -1.649999210238456726e+01 -1.894821969559359331e-01
1.662498030066490173e+01 -1.696800968050956726e+01 -1.911911813309359331e-01
6.624247878789901733e+00 -6.253532141447067261e+00 -1.656937448074984331e-01
1.600742658972740173e+01 -1.866063663363456726e+01 -4.585121551062343315e-02
1.594040998816490173e+01 -1.814244815707206726e+01 -5.314491668249843315e-02
1.505149397253990173e+01 -1.657958194613456726e+01 -7.029579558874843315e-02
1.522397932410240173e+01 -1.641320011019706726e+01 -7.400368133093593315e-02
1.536326155066490173e+01 -1.620677921175956726e+01 -7.807777801062343315e-02
1.557126936316490173e+01 -1.608446475863456726e+01 -8.137367644812343315e-02
1.669871076941490173e+01 -1.705297061800956726e+01 -7.481239715124843315e-02
6.471293777227401733e+00 -6.042716711759567261e+00 -1.200394479324984331e-01
6.706034988164901733e+00 -6.185050696134567261e+00 -1.186356393387484331e-01
6.935771316289901733e+00 -6.312247961759567261e+00 -1.172318307449984331e-01
7.177836745977401733e+00 -6.446891516447067261e+00 -1.157517282059359331e-01
7.430766433477401733e+00 -6.587516516447067261e+00 -1.141953317215609331e-01
7.696025222539901733e+00 -6.735099524259567261e+00 -1.125779000809359331e-01
7.975688308477401733e+00 -6.890739172697067261e+00 -1.108689157059359331e-01
8.268412917852401733e+00 -7.053214758634567261e+00 -1.087784616043734331e-01
6.406718581914901733e+00 -5.953239172697067261e+00 -7.446144500281093315e-02
6.637065261602401733e+00 -6.091300696134567261e+00 -7.169960418249843315e-02
6.868510574102401733e+00 -6.222770422697067261e+00 -6.910561004187343315e-02
7.106547683477401733e+00 -6.353996008634567261e+00 -6.651161590124843315e-02
7.354960769414901733e+00 -6.490836828947067261e+00 -6.381081023718593315e-02
7.626933425664901733e+00 -6.648551672697067261e+00 -6.068275847937343315e-02
7.919780105352401733e+00 -6.821769446134567261e+00 -5.723427215124843315e-02
8.228129714727401733e+00 -7.004264563322067261e+00 -5.360268035437343315e-02
6.410868972539901733e+00 -5.957755774259567261e+00 -2.711342254187343315e-02
6.656718581914901733e+00 -6.116447180509567261e+00 -2.290199676062343315e-02
6.901957839727401733e+00 -6.265372961759567261e+00 -1.870582976843593315e-02
7.156718581914901733e+00 -6.417350500822067261e+00 -1.440285125281093315e-02
7.424052566289901733e+00 -6.576652258634567261e+00 -9.901508479373433147e-03
7.705668777227401733e+00 -6.744621008634567261e+00 -5.156025080935933147e-03
8.004008620977401733e+00 -6.922477453947067261e+00 -1.206246903109331470e-04
8.313701003789901733e+00 -7.104484289884567261e+00 5.326763005001566853e-03
6.469706863164901733e+00 -6.037101477384567261e+00 2.247764191125156685e-02
6.700785964727401733e+00 -6.174308508634567261e+00 2.751304230187656685e-02
6.927836745977401733e+00 -6.298209875822067261e+00 3.213645538781406685e-02
7.166362136602401733e+00 -6.428336828947067261e+00 3.698875030968906685e-02
7.415141433477401733e+00 -6.564323157072067261e+00 4.206992706750156685e-02
7.676005691289901733e+00 -6.706779211759567261e+00 4.737998566125156685e-02
7.950663894414901733e+00 -6.856681555509567261e+00 5.297996124718906685e-02
8.238383620977401733e+00 -7.013786047697067261e+00 5.885459503625156685e-02
6.416728347539901733e+00 -5.963248938322067261e+00 6.735374054406406685e-02
6.644389480352401733e+00 -6.097526282072067261e+00 7.341147980187656685e-02
6.873149245977401733e+00 -6.225211828947067261e+00 7.901145538781406685e-02
7.108378738164901733e+00 -6.352653235197067261e+00 8.490134796593906685e-02
7.363871902227401733e+00 -6.498405188322067261e+00 9.153892120812656685e-02
7.650370925664901733e+00 -6.673698157072067261e+00 9.938193878625156685e-02
7.954936355352401733e+00 -6.860465735197067261e+00 1.080184133956265669e-01
8.275859206914901733e+00 -7.056998938322067261e+00 1.168227346846890669e-01
6.409037917852401733e+00 -5.951652258634567261e+00 1.141219290206265669e-01
6.663188308477401733e+00 -6.121574133634567261e+00 1.226363333175015669e-01
6.915995925664901733e+00 -6.280143469572067261e+00 1.309828909346890669e-01
7.179667800664901733e+00 -6.443107336759567261e+00 1.395888479659390669e-01
7.456889480352401733e+00 -6.614371985197067261e+00 1.486373098800015669e-01
7.749858230352401733e+00 -6.795402258634567261e+00 1.581893118331265669e-01
1.530320295691490173e+01 -1.574523136019706726e+01 5.618148001143765669e-01
1.681895002722740173e+01 -1.717967960238456726e+01 6.301741751143765669e-01
6.808329910039901733e+00 -5.335807532072067261e+00 -7.793412057449984331e-01
6.881205886602401733e+00 -5.267570227384567261e+00 -7.804093209793734331e-01
6.951030105352401733e+00 -5.195914953947067261e+00 -7.814926950028109331e-01
7.020976394414901733e+00 -5.124137610197067261e+00 -7.825760690262484331e-01
7.090678542852401733e+00 -5.052604407072067261e+00 -7.836441842606234331e-01
7.160258620977401733e+00 -4.981315344572067261e+00 -7.847275582840609331e-01
7.241923660039901733e+00 -4.922355383634567261e+00 -7.867264596512484331e-01
7.322123855352401733e+00 -4.862052649259567261e+00 -7.888779489090609331e-01
7.414531081914901733e+00 -6.054801672697067261e+00 -7.785172311356234331e-01
7.490580886602401733e+00 -5.975822180509567261e+00 -7.796921578934359331e-01
7.570048660039901733e+00 -5.901237219572067261e+00 -7.808823434403109331e-01
7.646220535039901733e+00 -5.822135657072067261e+00 -7.820572701981234331e-01
7.721904128789901733e+00 -5.743522375822067261e+00 -7.832321969559359331e-01
7.797587722539901733e+00 -5.665031164884567261e+00 -7.844071237137484331e-01
7.879130691289901733e+00 -5.592399328947067261e+00 -7.862686959793734331e-01
7.971171706914901733e+00 -5.531120032072067261e+00 -7.886032907059359331e-01
8.093242019414901733e+00 -6.859733313322067261e+00 -7.739395944168734331e-01
8.184672683477401733e+00 -6.782584875822067261e+00 -7.758011666824984331e-01
8.283549636602401733e+00 -6.713981360197067261e+00 -7.781815377762484331e-01
8.380595535039901733e+00 -6.642204016447067261e+00 -7.804093209793734331e-01
8.477397292852401733e+00 -6.570426672697067261e+00 -7.826218453934359331e-01
8.574443191289901733e+00 -6.498527258634567261e+00 -7.848343698074984331e-01
8.653666824102401733e+00 -6.406852453947067261e+00 -7.858872262528109331e-01
8.747416824102401733e+00 -6.331290930509567261e+00 -7.879013864090609331e-01
8.972514480352401733e+00 -7.902579993009567261e+00 -7.721085397293734331e-01
9.093119949102401733e+00 -7.838737219572067261e+00 -7.749771920731234331e-01
9.085429519414901733e+00 -7.627433508634567261e+00 -7.705216256668734331e-01
9.348491042852401733e+00 -7.723014563322067261e+00 -7.821488229324984331e-01
9.481547683477401733e+00 -7.669425696134567261e+00 -7.860092965653109331e-01
9.610942214727401733e+00 -7.610465735197067261e+00 -7.896256295731234331e-01
9.728740066289901733e+00 -7.537467688322067261e+00 -7.925400582840609331e-01
9.791728347539901733e+00 -7.407829016447067261e+00 -7.926316110184359331e-01
1.249106916785240173e+01 -1.207909366488456726e+01 -8.984513131668734331e-01
1.033713850378990173e+01 -9.285026282072067261e+00 -7.794785348465609331e-01
9.086284011602401733e+00 -7.627067297697067261e+00 -7.098069039871859331e-01
1.050327619910240173e+01 -9.012443274259567261e+00 -7.806382028153109331e-01
1.058933576941490173e+01 -8.881828039884567261e+00 -7.814164010574984331e-01
1.073264631628990173e+01 -8.813834875822067261e+00 -7.851548043778109331e-01
1.087717756628990173e+01 -8.745109289884567261e+00 -7.889389840653109331e-01
1.100303205847740173e+01 -8.656364172697067261e+00 -7.917618600418734331e-01
1.383506330847740173e+01 -1.367272159457206726e+01 -8.743271676590609331e-01
1.409922346472740173e+01 -1.366063663363456726e+01 -8.818039742996859331e-01
9.087016433477401733e+00 -7.626701086759567261e+00 -6.487717477371859331e-01
1.506431135535240173e+01 -1.410814639925956726e+01 -9.173874703934359331e-01
1.537375959753990173e+01 -1.412132999300956726e+01 -9.270920602371859331e-01
1.567429670691490173e+01 -1.411852237582206726e+01 -9.363388864090609331e-01
1.231931623816490173e+01 -1.026134464144706726e+01 -7.827133981278109331e-01
1.235923323035240173e+01 -1.005419132113456726e+01 -7.816758004715609331e-01
1.477134260535240173e+01 -1.478197452425956726e+01 -8.145432321121859331e-01
1.512717756628990173e+01 -1.485424014925956726e+01 -8.251175729324984331e-01
9.087870925664901733e+00 -7.626212805509567261e+00 -5.880722848465609331e-01
1.574582991003990173e+01 -1.486766788363456726e+01 -8.424362985184359331e-01
1.601475080847740173e+01 -1.482115909457206726e+01 -8.494553414871859331e-01
1.592136701941490173e+01 -1.438146182894706726e+01 -8.426346627762484331e-01
1.633689436316490173e+01 -1.448754093050956726e+01 -8.551926461746859331e-01
1.685483869910240173e+01 -1.469017764925956726e+01 -8.715195504715609331e-01
1.545920881628990173e+01 -1.559606143832206726e+01 -7.340226022293734331e-01
1.586899885535240173e+01 -1.571483585238456726e+01 -7.448868600418734331e-01
9.088603347539901733e+00 -7.625846594572067261e+00 -5.270371285965609331e-01
1.657371076941490173e+01 -1.579027530550956726e+01 -7.621445504715609331e-01
1.681296858191490173e+01 -1.569310733675956726e+01 -7.674546090653109331e-01
1.673252424597740173e+01 -1.525011417269706726e+01 -7.627396432449984331e-01
1.625608381628990173e+01 -1.440038272738456726e+01 -7.462906686356234331e-01
1.666038069128990173e+01 -1.448729678988456726e+01 -7.568192330887484331e-01
1.607480940222740173e+01 -1.632433292269706726e+01 -6.413559762528109331e-01
1.607114729285240173e+01 -1.594762393832206726e+01 -6.402268258621859331e-01
9.089457839727401733e+00 -7.625358313322067261e+00 -4.663376657059359331e-01
1.646287092566490173e+01 -1.566417667269706726e+01 -6.479019967606234331e-01
1.666599592566490173e+01 -1.552989932894706726e+01 -6.519150582840609331e-01
1.586802229285240173e+01 -1.431993839144706726e+01 -6.313156930496859331e-01
1.615403303503990173e+01 -1.429088565707206726e+01 -6.374192086746859331e-01
1.631895002722740173e+01 -1.413317081332206726e+01 -6.405472604324984331e-01
1.599131330847740173e+01 -1.622264835238456726e+01 -5.280747262528109331e-01
1.624717268347740173e+01 -1.614989444613456726e+01 -5.328659860184359331e-01
9.090190261602401733e+00 -7.624992102384567261e+00 -4.056534616043734331e-01
1.681272444128990173e+01 -1.605272647738456726e+01 -5.434098092606234331e-01
1.672336897253990173e+01 -1.559032413363456726e+01 -5.420365182449984331e-01
1.666794905066490173e+01 -1.517626163363456726e+01 -5.412735787918734331e-01
1.605344709753990173e+01 -1.418297550082206726e+01 -5.305161325028109331e-01
1.655649885535240173e+01 -1.437596866488456726e+01 -5.397019235184359331e-01
1.597837385535240173e+01 -1.620482608675956726e+01 -4.161972848465609331e-01
1.620554670691490173e+01 -1.609899112582206726e+01 -4.201187936356234331e-01
9.091044753789901733e+00 -7.624625891447067261e+00 -3.446335641434359331e-01
1.640146955847740173e+01 -1.559093448519706726e+01 -4.251999703934359331e-01
1.678135237097740173e+01 -1.565148136019706726e+01 -4.308152047684359331e-01
1.759568342566490173e+01 -1.616954776644706726e+01 -4.412827340653109331e-01
1.595920881628990173e+01 -1.408165714144706726e+01 -4.244828073074984331e-01
1.785679182410240173e+01 -1.571446964144706726e+01 -4.471573678543734331e-01
1.669114241003990173e+01 -1.704772159457206726e+01 -3.076615182449984331e-01
1.569358381628990173e+01 -1.550133487582206726e+01 -3.068528024246859331e-01
9.091777175664901733e+00 -7.624137610197067261e+00 -2.839493600418734331e-01
1.650767073035240173e+01 -1.570714542269706726e+01 -3.153672067215609331e-01
1.647446760535240173e+01 -1.531334659457206726e+01 -3.179001657059359331e-01
1.756907209753990173e+01 -1.613866397738456726e+01 -3.252701608231234331e-01
1.594639143347740173e+01 -1.406615421175956726e+01 -3.206620065262484331e-01
1.613352522253990173e+01 -1.393578311800956726e+01 -3.239426461746859331e-01
1.662546858191490173e+01 -1.696739932894706726e+01 -1.911911813309359331e-01
1.571396955847740173e+01 -1.552257511019706726e+01 -1.984543649246859331e-01
9.092631667852401733e+00 -7.623771399259567261e+00 -2.232651559403109331e-01
1.631687483191490173e+01 -1.549169132113456726e+01 -2.049546090653109331e-01
1.650742658972740173e+01 -1.534703800082206726e+01 -2.082962838699984331e-01
1.750217756628990173e+01 -1.606444522738456726e+01 -2.097306100418734331e-01
1.593357405066490173e+01 -1.405065128207206726e+01 -2.164749948074984331e-01
1.627207502722740173e+01 -1.407640811800956726e+01 -2.193283883621859331e-01
1.670005354285240173e+01 -1.705321475863456726e+01 -7.481239715124843315e-02
1.615244612097740173e+01 -1.602989932894706726e+01 -8.601234832312343315e-02
9.093364089727401733e+00 -7.623405188322067261e+00 -1.622605172684359331e-01
1.633701643347740173e+01 -1.551195499300956726e+01 -9.454201140906093315e-02
1.576633772253990173e+01 -1.453368350863456726e+01 -1.049637643387484331e-01
1.561289533972740173e+01 -1.403563663363456726e+01 -1.111283151199984331e-01
1.044919905066490173e+01 -8.282340735197067261e+00 -1.612381784012484331e-01
1.085911116003990173e+01 -8.495597571134567261e+00 -1.607346383621859331e-01
8.270121902227401733e+00 -7.054557532072067261e+00 -1.087479440262484331e-01
8.579326003789901733e+00 -7.226676672697067261e+00 -1.069779244949984331e-01
8.905375808477401733e+00 -7.407951086759567261e+00 -1.047959176590609331e-01
9.251445144414901733e+00 -7.600211828947067261e+00 -1.024765817215609331e-01
9.583964675664901733e+00 -7.767204016447067261e+00 -1.005539742996859331e-01
9.942241042852401733e+00 -7.951774328947067261e+00 -9.840248504187343315e-02
1.032224592566490173e+01 -8.147453039884567261e+00 -9.612892547156093315e-02
1.072227033972740173e+01 -8.353141516447067261e+00 -9.338234344031093315e-02
8.229960769414901733e+00 -7.005729407072067261e+00 -5.355690398718593315e-02
8.556865066289901733e+00 -7.199332922697067261e+00 -4.948280730749843315e-02
8.903910964727401733e+00 -7.404899328947067261e+00 -4.516457000281093315e-02
9.216777175664901733e+00 -7.560050696134567261e+00 -4.189918914343593315e-02
9.626201003789901733e+00 -7.812003821134567261e+00 -3.658913054968593315e-02
1.000767073035240173e+01 -8.020621985197067261e+00 -3.220985808874843315e-02
1.041404280066490173e+01 -8.242667883634567261e+00 -2.752540984656093315e-02
1.084482893347740173e+01 -8.478141516447067261e+00 -2.258156219031093315e-02
8.315532058477401733e+00 -7.105827063322067261e+00 5.372539372189066853e-03
8.623393386602401733e+00 -7.275382727384567261e+00 1.016379913781406685e-02
8.947856277227401733e+00 -7.453727453947067261e+00 1.551963409875156685e-02
9.217509597539901733e+00 -7.559684485197067261e+00 1.893760284875156685e-02
9.619365066289901733e+00 -7.803336828947067261e+00 2.612449249718906685e-02
9.975200027227401733e+00 -7.984489172697067261e+00 3.164817413781406685e-02
1.035227522253990173e+01 -8.176383703947067261e+00 3.749229034875156685e-02
1.074900373816490173e+01 -8.378043860197067261e+00 4.400779327843906685e-02
8.239970535039901733e+00 -7.015128821134567261e+00 5.890037140343906685e-02
8.542460769414901733e+00 -7.180045813322067261e+00 6.535483917687656685e-02
8.861430495977401733e+00 -7.353996008634567261e+00 7.217551788781406685e-02
9.233500808477401733e+00 -7.576163977384567261e+00 8.065940460656406685e-02
9.597758620977401733e+00 -7.778434485197067261e+00 8.853293976281406685e-02
9.988749831914901733e+00 -7.997672766447067261e+00 9.706260284875156685e-02
1.040623030066490173e+01 -8.231803625822067261e+00 1.061568411300015669e-01
1.084995588660240173e+01 -8.480582922697067261e+00 1.158156546065640669e-01
8.277812331914901733e+00 -7.058707922697067261e+00 1.168837698409390669e-01
8.619487136602401733e+00 -7.268180578947067261e+00 1.266036184737515669e-01
8.982524245977401733e+00 -7.490470618009567261e+00 1.365981253096890669e-01
1.624009260535240173e+01 -1.539208194613456726e+01 4.507765921065640669e-01
1.640391096472740173e+01 -1.522008487582206726e+01 4.469008596846890669e-01
1.656760725378990173e+01 -1.504845401644706726e+01 4.430403860518765669e-01
1.622678694128990173e+01 -1.434606143832206726e+01 4.184889944503140669e-01
1.619553694128990173e+01 -1.398522159457206726e+01 4.068923147628140669e-01
1.681931623816490173e+01 -1.717870303988456726e+01 6.301436575362515669e-01
1.696836408972740173e+01 -1.696276065707206726e+01 6.238722952315640669e-01
1.616062483191490173e+01 -1.565941593050956726e+01 5.686812551925015669e-01
1.646494612097740173e+01 -1.564061710238456726e+01 5.717787893721890669e-01
1.632017073035240173e+01 -1.512621280550956726e+01 5.521407278487515669e-01
1.669260725378990173e+01 -1.518028995394706726e+01 5.586104544112515669e-01
1.601804670691490173e+01 -1.412474796175956726e+01 5.136580618331265669e-01
1.690928205847740173e+01 -1.471825382113456726e+01 5.458083303878140669e-01
7.322245925664901733e+00 -4.861808508634567261e+00 -7.888779489090609331e-01
7.405131667852401733e+00 -4.803825110197067261e+00 -7.910294381668734331e-01
7.485087722539901733e+00 -4.742423743009567261e+00 -7.931809274246859331e-01
7.565409988164901733e+00 -4.680534094572067261e+00 -7.953476754715609331e-01
7.639506667852401733e+00 -4.612785071134567261e+00 -7.970414010574984331e-01
7.712504714727401733e+00 -4.543693274259567261e+00 -7.986588326981234331e-01
7.785746902227401733e+00 -4.474479407072067261e+00 -8.002762643387484331e-01
7.855815261602401733e+00 -4.402457922697067261e+00 -8.019089547684359331e-01
7.971415847539901733e+00 -5.530875891447067261e+00 -7.886032907059359331e-01
8.059550613164901733e+00 -5.465079993009567261e+00 -7.909531442215609331e-01
8.151835769414901733e+00 -5.402824133634567261e+00 -7.933182565262484331e-01
8.235331863164901733e+00 -5.330924719572067261e+00 -7.953171578934359331e-01
8.316020339727401733e+00 -5.256583899259567261e+00 -7.971024362137484331e-01
8.396708816289901733e+00 -5.181998938322067261e+00 -7.989029733231234331e-01
8.473246902227401733e+00 -5.103019446134567261e+00 -8.006729928543734331e-01
8.554057449102401733e+00 -5.028312414884567261e+00 -8.024735299637484331e-01
8.747783035039901733e+00 -6.331046789884567261e+00 -7.879013864090609331e-01
8.836650222539901733e+00 -6.250236243009567261e+00 -7.898697701981234331e-01
8.925639480352401733e+00 -6.169181555509567261e+00 -7.918534127762484331e-01
9.014994949102401733e+00 -6.087882727384567261e+00 -7.938370553543734331e-01
9.104228347539901733e+00 -6.006705969572067261e+00 -7.958206979324984331e-01
9.193461745977401733e+00 -5.925407141447067261e+00 -7.978043405106234331e-01
9.283305495977401733e+00 -5.843742102384567261e+00 -7.997879830887484331e-01
9.372783035039901733e+00 -5.762199133634567261e+00 -8.017868844559359331e-01
9.791850417852401733e+00 -7.407218664884567261e+00 -7.926316110184359331e-01
9.880107253789901733e+00 -7.304679602384567261e+00 -7.938065377762484331e-01
9.968974441289901733e+00 -7.202750891447067261e+00 -7.953629342606234331e-01
1.005808576941490173e+01 -7.100700110197067261e+00 -7.969193307449984331e-01
1.014683088660240173e+01 -6.999015539884567261e+00 -7.984757272293734331e-01
1.023545393347740173e+01 -6.897453039884567261e+00 -8.000168649246859331e-01
1.032432112097740173e+01 -6.795646399259567261e+00 -8.015732614090609331e-01
1.040793928503990173e+01 -6.689933508634567261e+00 -8.031754342606234331e-01
1.100339826941490173e+01 -8.656120032072067261e+00 -7.917618600418734331e-01
1.111643537878990173e+01 -8.553825110197067261e+00 -7.941880075028109331e-01
1.122959455847740173e+01 -8.451286047697067261e+00 -7.966141549637484331e-01
1.133787092566490173e+01 -8.343253821134567261e+00 -7.987809030106234331e-01
1.143540510535240173e+01 -8.225333899259567261e+00 -8.004288522293734331e-01
1.153269514441490173e+01 -8.107658118009567261e+00 -8.020615426590609331e-01
1.163022932410240173e+01 -7.989738196134567261e+00 -8.037094918778109331e-01
1.172727522253990173e+01 -7.872428625822067261e+00 -8.053421823074984331e-01
1.235972151160240173e+01 -1.005382511019706726e+01 -7.816910592606234331e-01
1.155356916785240173e+01 -8.994498938322067261e+00 -7.428574410965609331e-01
1.268247541785240173e+01 -9.890250891447067261e+00 -7.895951119949984331e-01
1.282761701941490173e+01 -9.789420813322067261e+00 -7.930130807449984331e-01
1.297288069128990173e+01 -9.688590735197067261e+00 -7.964310494949984331e-01
1.311863264441490173e+01 -9.587272375822067261e+00 -7.998642770340609331e-01
1.326560530066490173e+01 -9.485099524259567261e+00 -8.033127633621859331e-01
1.340195783972740173e+01 -9.373527258634567261e+00 -8.067612496903109331e-01
1.685496076941490173e+01 -1.468907901644706726e+01 -8.715195504715609331e-01
1.155442366003990173e+01 -8.993888586759567261e+00 -6.698593942215609331e-01
1.698386701941490173e+01 -1.415233585238456726e+01 -8.704666940262484331e-01
1.776926741003990173e+01 -1.458910343050956726e+01 -8.967575875809359331e-01
1.873643049597740173e+01 -1.517626163363456726e+01 -9.295639840653109331e-01
1.904294905066490173e+01 -1.511644718050956726e+01 -9.377884713699984331e-01
1.585972151160240173e+01 -1.185741397738456726e+01 -8.181137887528109331e-01
1.567698225378990173e+01 -1.141258975863456726e+01 -8.089737741043734331e-01
1.666172346472740173e+01 -1.448766300082206726e+01 -7.568497506668734331e-01
1.155527815222740173e+01 -8.993400305509567261e+00 -5.968613473465609331e-01
1.783079084753990173e+01 -1.498961612582206726e+01 -7.886185494949984331e-01
1.714438948035240173e+01 -1.398009464144706726e+01 -7.656082955887484331e-01
1.828855451941490173e+01 -1.474767276644706726e+01 -7.988114205887484331e-01
1.841050276160240173e+01 -1.452391788363456726e+01 -8.006272164871859331e-01
1.858677229285240173e+01 -1.435082218050956726e+01 -8.047165719559359331e-01
1.873032698035240173e+01 -1.414916202425956726e+01 -8.072037545731234331e-01
1.631809553503990173e+01 -1.413109561800956726e+01 -6.405167428543734331e-01
1.155613264441490173e+01 -8.992789953947067261e+00 -5.234818307449984331e-01
1.708433088660240173e+01 -1.424779483675956726e+01 -6.576065866043734331e-01
1.721042951941490173e+01 -1.404210636019706726e+01 -6.598801461746859331e-01
1.735129866003990173e+01 -1.385301944613456726e+01 -6.625046578934359331e-01
1.846653303503990173e+01 -1.457421085238456726e+01 -6.887345162918734331e-01
1.864695295691490173e+01 -1.440380069613456726e+01 -6.922745553543734331e-01
2.042356428503990173e+01 -1.566551944613456726e+01 -7.343430367996859331e-01
1.655906233191490173e+01 -1.437755557894706726e+01 -5.397476998856234331e-01
1.155698713660240173e+01 -8.992301672697067261e+00 -4.504990426590609331e-01
1.714988264441490173e+01 -1.431066104769706726e+01 -5.508103219559359331e-01
1.728037580847740173e+01 -1.410802432894706726e+01 -5.533890573074984331e-01
1.742185530066490173e+01 -1.391820499300956726e+01 -5.561661569168734331e-01
1.852292951941490173e+01 -1.462487003207206726e+01 -5.761704293778109331e-01
1.870713362097740173e+01 -1.445677921175956726e+01 -5.797257272293734331e-01
2.380393537878990173e+01 -1.869408389925956726e+01 -6.715683785965609331e-01
1.785740217566490173e+01 -1.571385928988456726e+01 -4.471573678543734331e-01
1.155784162878990173e+01 -8.991691321134567261e+00 -3.771347848465609331e-01
1.719407209753990173e+01 -1.435240909457206726e+01 -4.423661080887484331e-01
1.735142073035240173e+01 -1.417491886019706726e+01 -4.454636422684359331e-01
1.749326643347740173e+01 -1.398424503207206726e+01 -4.483933297684359331e-01
1.855552229285240173e+01 -1.465319034457206726e+01 -4.620194284012484331e-01
1.409128889441490173e+01 -1.023314639925956726e+01 -4.110398141434359331e-01
1.891135725378990173e+01 -1.430541202425956726e+01 -4.688401071121859331e-01
1.613364729285240173e+01 -1.393480655550956726e+01 -3.239426461746859331e-01
1.155869612097740173e+01 -8.991080969572067261e+00 -3.041672555496859331e-01
1.712888655066490173e+01 -1.428563663363456726e+01 -3.334030953934359331e-01
1.742881330847740173e+01 -1.424816104769706726e+01 -3.372635690262484331e-01
1.756492170691490173e+01 -1.405040714144706726e+01 -3.403000680496859331e-01
1.856602033972740173e+01 -1.466088077425956726e+01 -3.479904977371859331e-01
1.409214338660240173e+01 -1.023241397738456726e+01 -3.257584420731234331e-01
1.897227033972740173e+01 -1.435802432894706726e+01 -3.550095407059359331e-01
1.627231916785240173e+01 -1.407567569613456726e+01 -2.193436471512484331e-01
1.155955061316490173e+01 -8.990592688322067261e+00 -2.308029977371859331e-01
1.711277326941490173e+01 -1.426757022738456726e+01 -2.252335397293734331e-01
2.010825666785240173e+01 -1.684740421175956726e+01 -2.247605172684359331e-01
1.812937483191490173e+01 -1.458556339144706726e+01 -2.308029977371859331e-01
1.830344709753990173e+01 -1.441381046175956726e+01 -2.340836373856234331e-01
1.409299787878990173e+01 -1.023168155550956726e+01 -2.400193063309359331e-01
2.025083479285240173e+01 -1.550206729769706726e+01 -2.391800729324984331e-01
1.086155256628990173e+01 -8.497428625822067261e+00 -1.607193795731234331e-01
1.129661116003990173e+01 -8.723502844572067261e+00 -1.600174752762484331e-01
1.175449690222740173e+01 -8.959098547697067261e+00 -1.593003121903109331e-01
1.220615705847740173e+01 -9.174064368009567261e+00 -1.588272897293734331e-01
1.268577131628990173e+01 -9.403434485197067261e+00 -1.583237496903109331e-01
1.319553694128990173e+01 -9.647208899259567261e+00 -1.577744332840609331e-01
1.374045881628990173e+01 -9.907829016447067261e+00 -1.571945992996859331e-01
1.431003889441490173e+01 -1.017589542269706726e+01 -1.566452828934359331e-01
1.072471174597740173e+01 -8.354972571134567261e+00 -9.335182586218593315e-02
1.116648420691490173e+01 -8.590690344572067261e+00 -9.071205535437343315e-02
1.164731916785240173e+01 -8.851554602384567261e+00 -8.735512176062343315e-02
1.211741194128990173e+01 -9.086662024259567261e+00 -8.442543426062343315e-02
1.261191877722740173e+01 -9.331779211759567261e+00 -8.135841765906093315e-02
1.313914045691490173e+01 -9.593131750822067261e+00 -7.809303679968593315e-02
1.370457014441490173e+01 -9.873527258634567261e+00 -7.459877410437343315e-02
1.423667463660240173e+01 -1.010875675082206726e+01 -7.133339324499843315e-02
1.084751448035240173e+01 -8.480216711759567261e+00 -2.253578582312343315e-02
1.129294905066490173e+01 -8.717033118009567261e+00 -1.727150359656093315e-02
1.169504866003990173e+01 -8.897330969572067261e+00 -1.319740691687343315e-02
1.219004377722740173e+01 -9.155631750822067261e+00 -7.444843440310933147e-03
1.266184553503990173e+01 -9.377921789884567261e+00 -2.439960627810933147e-03
1.316294416785240173e+01 -9.614005774259567261e+00 2.870097965939066853e-03
1.369785627722740173e+01 -9.865958899259567261e+00 8.531108708126566853e-03
1.423752912878990173e+01 -1.010802432894706726e+01 1.400901398156406685e-02
1.075144514441490173e+01 -8.379752844572067261e+00 4.406882843468906685e-02
1.117283186316490173e+01 -8.594352453947067261e+00 5.055381378625156685e-02
1.164829573035240173e+01 -8.849723547697067261e+00 5.859519562218906685e-02
1.213120588660240173e+01 -9.097160071134567261e+00 6.649924835656406685e-02
1.264036116003990173e+01 -9.355949133634567261e+00 7.476951202843906685e-02
1.318455061316490173e+01 -9.632560461759567261e+00 8.361960968468906685e-02
1.376963362097740173e+01 -9.930045813322067261e+00 9.314109405968906685e-02
1.437522444128990173e+01 -1.022985050082206726e+01 1.032576712081265669e-01
1.085264143347740173e+01 -8.482658118009567261e+00 1.158919485518765669e-01
1.132810530066490173e+01 -8.749747961759567261e+00 1.266493948409390669e-01
1.857969221472740173e+01 -1.570934268832206726e+01 3.661971243331265669e-01
1.925181135535240173e+01 -1.600450870394706726e+01 3.792281301925015669e-01
2.855222639441490173e+01 -2.448839542269706726e+01 6.748976858565640669e-01
2.932358869910240173e+01 -2.467784854769706726e+01 6.859450491378140669e-01
3.012082991003990173e+01 -2.487059757113456726e+01 6.972670706221890669e-01
2.823057112097740173e+01 -2.263890811800956726e+01 6.238722952315640669e-01
1.619614729285240173e+01 -1.398461124300956726e+01 4.068923147628140669e-01
1.834299787878990173e+01 -1.583068057894706726e+01 4.852156790206265669e-01
1.910850080847740173e+01 -1.623046085238456726e+01 5.048995169112515669e-01
1.881003889441490173e+01 -1.557360050082206726e+01 4.822554739425015669e-01
2.937412580847740173e+01 -2.526671573519706726e+01 8.852400930831265669e-01
3.019761213660240173e+01 -2.548924991488456726e+01 9.009871633956265669e-01
3.105478987097740173e+01 -2.572057315707206726e+01 9.183821829268765669e-01
2.823240217566490173e+01 -2.263744327425956726e+01 7.961135061690640669e-01
1.691038069128990173e+01 -1.471813175082206726e+01 5.458235891768765669e-01
1.828110823035240173e+01 -1.576598331332206726e+01 5.992598684737515669e-01
2.858652815222740173e+01 -2.560753604769706726e+01 1.069352641911251567e+00
1.960850080847740173e+01 -1.634593936800956726e+01 6.374068411300015669e-01
3.022190412878990173e+01 -2.606945011019706726e+01 1.108125224919064067e+00
3.108567366003990173e+01 -2.631371280550956726e+01 1.128602519840939067e+00
3.189902815222740173e+01 -2.648851749300956726e+01 1.146089092106564067e+00
2.823411116003990173e+01 -2.263610050082206726e+01 9.683394583175015669e-01
7.856303542852401733e+00 -4.402457922697067261e+00 -8.019242135574984331e-01
7.923686355352401733e+00 -4.328117102384567261e+00 -8.031754342606234331e-01
7.985331863164901733e+00 -4.248771399259567261e+00 -8.042435494949984331e-01
8.047221511602401733e+00 -4.169181555509567261e+00 -8.053269235184359331e-01
8.108744949102401733e+00 -4.089835852384567261e+00 -8.063950387528109331e-01
8.170268386602401733e+00 -4.010612219572067261e+00 -8.074784127762484331e-01
8.243510574102401733e+00 -3.940299719572067261e+00 -8.093705026199984331e-01
8.317363113164901733e+00 -3.870719641447067261e+00 -8.115525094559359331e-01
8.554423660039901733e+00 -5.028190344572067261e+00 -8.024887887528109331e-01
8.624369949102401733e+00 -4.943595618009567261e+00 -8.038620797684359331e-01
8.695659011602401733e+00 -4.860221594572067261e+00 -8.050370065262484331e-01
8.762919753789901733e+00 -4.773063391447067261e+00 -8.062119332840609331e-01
8.829936355352401733e+00 -4.686149328947067261e+00 -8.073868600418734331e-01
8.896952956914901733e+00 -4.599357336759567261e+00 -8.085617867996859331e-01
8.959819167852401733e+00 -4.508903235197067261e+00 -8.097367135574984331e-01
9.026591628789901733e+00 -4.422233313322067261e+00 -8.108963815262484331e-01
9.373393386602401733e+00 -5.762077063322067261e+00 -8.018021432449984331e-01
9.457621902227401733e+00 -5.675529211759567261e+00 -8.037552682449984331e-01
9.541850417852401733e+00 -5.588859289884567261e+00 -8.056931344559359331e-01
9.620463699102401733e+00 -5.496574133634567261e+00 -8.072800485184359331e-01
9.693950027227401733e+00 -5.400504797697067261e+00 -8.085770455887484331e-01
9.767436355352401733e+00 -5.304557532072067261e+00 -8.098740426590609331e-01
9.841044753789901733e+00 -5.208366125822067261e+00 -8.111710397293734331e-01
9.914286941289901733e+00 -5.112540930509567261e+00 -8.124527780106234331e-01
1.040842756628990173e+01 -6.689811438322067261e+00 -8.031906930496859331e-01
1.049766096472740173e+01 -6.589225500822067261e+00 -8.047318307449984331e-01
1.058201155066490173e+01 -6.484245032072067261e+00 -8.063340035965609331e-01
1.067869123816490173e+01 -6.389396399259567261e+00 -8.085923043778109331e-01
1.076011213660240173e+01 -6.281974524259567261e+00 -8.100266305496859331e-01
1.084141096472740173e+01 -6.174674719572067261e+00 -8.114762155106234331e-01
1.092283186316490173e+01 -6.067008703947067261e+00 -8.129105416824984331e-01
1.099753889441490173e+01 -5.954948157072067261e+00 -8.143448678543734331e-01
1.172776350378990173e+01 -7.872184485197067261e+00 -8.053574410965609331e-01
1.181919416785240173e+01 -7.750114172697067261e+00 -8.069901315262484331e-01
1.191038069128990173e+01 -7.628043860197067261e+00 -8.086075631668734331e-01
1.200193342566490173e+01 -7.505729407072067261e+00 -8.102402535965609331e-01
1.209299787878990173e+01 -7.384025305509567261e+00 -8.118729440262484331e-01
1.218394026160240173e+01 -7.262321203947067261e+00 -8.134903756668734331e-01
1.227524885535240173e+01 -7.140495032072067261e+00 -8.151078073074984331e-01
1.236594709753990173e+01 -7.019035071134567261e+00 -8.167404977371859331e-01
1.340232405066490173e+01 -9.373038977384567261e+00 -8.067612496903109331e-01
1.351658186316490173e+01 -9.241203039884567261e+00 -8.086380807449984331e-01
1.362034162878990173e+01 -9.100211828947067261e+00 -8.105149117996859331e-01
1.372422346472740173e+01 -8.958854407072067261e+00 -8.123764840653109331e-01
1.382773908972740173e+01 -8.818229407072067261e+00 -8.142380563309359331e-01
1.393113264441490173e+01 -8.677848547697067261e+00 -8.160996285965609331e-01
1.403464826941490173e+01 -8.536979407072067261e+00 -8.179764596512484331e-01
1.412693342566490173e+01 -8.388541907072067261e+00 -8.198075143387484331e-01
1.567783674597740173e+01 -1.141246768832206726e+01 -8.089890328934359331e-01
1.580918440222740173e+01 -1.125511905550956726e+01 -8.115830270340609331e-01
1.590781721472740173e+01 -1.106969425082206726e+01 -8.130020944168734331e-01
1.603538069128990173e+01 -1.090880557894706726e+01 -8.154587594559359331e-01
1.616245588660240173e+01 -1.074852725863456726e+01 -8.179001657059359331e-01
1.628940901160240173e+01 -1.058837100863456726e+01 -8.203415719559359331e-01
1.641672834753990173e+01 -1.042772647738456726e+01 -8.227982369949984331e-01
1.649290022253990173e+01 -1.022838565707206726e+01 -8.234391061356234331e-01
2.040049299597740173e+01 -1.564574405550956726e+01 -8.578324166824984331e-01
2.063486799597740173e+01 -1.549498721957206726e+01 -8.631272164871859331e-01
2.214890608191490173e+01 -1.644432803988456726e+01 -9.062638131668734331e-01
2.252793440222740173e+01 -1.638805362582206726e+01 -9.157547799637484331e-01
2.276169905066490173e+01 -1.620629093050956726e+01 -9.208664742996859331e-01
1.962583479285240173e+01 -1.329149600863456726e+01 -8.253769723465609331e-01
1.979551252722740173e+01 -1.310961124300956726e+01 -8.294510690262484331e-01
1.929795393347740173e+01 -1.240941593050956726e+01 -8.130783883621859331e-01
2.042454084753990173e+01 -1.566515323519706726e+01 -7.343582955887484331e-01
2.324058088660240173e+01 -1.778282901644706726e+01 -8.014664498856234331e-01
2.390647444128990173e+01 -1.795604678988456726e+01 -8.166489450028109331e-01
2.462046369910240173e+01 -1.815209171175956726e+01 -8.329453317215609331e-01
2.497300276160240173e+01 -1.803319522738456726e+01 -8.405442086746859331e-01
2.489182600378990173e+01 -1.755773136019706726e+01 -8.377518502762484331e-01
2.367014631628990173e+01 -1.618468448519706726e+01 -8.076920358231234331e-01
1.929880842566490173e+01 -1.240831729769706726e+01 -7.025132028153109331e-01
2.380710920691490173e+01 -1.869554874300956726e+01 -6.716294137528109331e-01
2.071592268347740173e+01 -1.556188175082206726e+01 -6.163773385574984331e-01
2.393259748816490173e+01 -1.797606632113456726e+01 -6.746048776199984331e-01
2.586252912878990173e+01 -1.919786807894706726e+01 -7.097306100418734331e-01
2.372141584753990173e+01 -1.699571964144706726e+01 -6.714768258621859331e-01
2.545835432410240173e+01 -1.801451846957206726e+01 -7.031693307449984331e-01
2.436606916785240173e+01 -1.673509952425956726e+01 -6.837906686356234331e-01
1.929966291785240173e+01 -1.240734073519706726e+01 -5.925431100418734331e-01
1.891025862097740173e+01 -1.430333682894706726e+01 -4.688248483231234331e-01
2.075669416785240173e+01 -1.559569522738456726e+01 -4.919724313309359331e-01
2.396311506628990173e+01 -1.799987003207206726e+01 -5.315537301590609331e-01
2.492222151160240173e+01 -1.840196964144706726e+01 -5.446152535965609331e-01
2.412400373816490173e+01 -1.732628604769706726e+01 -5.365738717606234331e-01
2.605588850378990173e+01 -1.849645206332206726e+01 -5.614914742996859331e-01
2.435374006628990173e+01 -1.672301456332206726e+01 -5.423569528153109331e-01
1.930051741003990173e+01 -1.240624210238456726e+01 -4.819931832840609331e-01
1.897117170691490173e+01 -1.435594913363456726e+01 -3.550247994949984331e-01
2.079758772253990173e+01 -1.562938663363456726e+01 -3.677658883621859331e-01
2.708384260535240173e+01 -2.068456241488456726e+01 -4.070877877762484331e-01
2.408835920691490173e+01 -1.769591495394706726e+01 -3.922562448074984331e-01
2.404111799597740173e+01 -1.725548526644706726e+01 -3.946823922684359331e-01
2.353025373816490173e+01 -1.644762393832206726e+01 -3.941635934403109331e-01
2.434153303503990173e+01 -1.671117374300956726e+01 -4.018692819168734331e-01
1.930137190222740173e+01 -1.240526553988456726e+01 -3.720383492996859331e-01
2.025193342566490173e+01 -1.550182315707206726e+01 -2.391953317215609331e-01
2.409568342566490173e+01 -1.852428409457206726e+01 -2.411789742996859331e-01
2.793210920691490173e+01 -2.141210147738456726e+01 -2.452988473465609331e-01
2.872117170691490173e+01 -2.160204288363456726e+01 -2.498917428543734331e-01
2.397922834753990173e+01 -1.720201846957206726e+01 -2.538132516434359331e-01
2.382505354285240173e+01 -1.668419620394706726e+01 -2.575669137528109331e-01
2.411362776160240173e+01 -1.652794620394706726e+01 -2.606949655106234331e-01
1.930222639441490173e+01 -1.240416690707206726e+01 -2.615189401199984331e-01
1.431333479285240173e+01 -1.017809268832206726e+01 -1.566300241043734331e-01
1.487327131628990173e+01 -1.042174503207206726e+01 -1.561417428543734331e-01
1.546946272253990173e+01 -1.068102237582206726e+01 -1.556229440262484331e-01
1.610764631628990173e+01 -1.095873233675956726e+01 -1.550736276199984331e-01
1.678770002722740173e+01 -1.125463077425956726e+01 -1.544785348465609331e-01
1.744224104285240173e+01 -1.151171085238456726e+01 -1.542496530106234331e-01
1.814316877722740173e+01 -1.178746768832206726e+01 -1.540055123856234331e-01
1.888853010535240173e+01 -1.208080264925956726e+01 -1.537461129715609331e-01
1.423679670691490173e+01 -1.010802432894706726e+01 -7.134865203406093315e-02
1.487961897253990173e+01 -1.042577335238456726e+01 -6.756447234656093315e-02
1.549729475378990173e+01 -1.070348331332206726e+01 -6.391762176062343315e-02
1.616038069128990173e+01 -1.100170108675956726e+01 -6.001137176062343315e-02
1.680356916785240173e+01 -1.126610538363456726e+01 -5.660866179968593315e-02
1.753354963660240173e+01 -1.158397647738456726e+01 -5.245827117468593315e-02
1.823264631628990173e+01 -1.185680362582206726e+01 -4.897926726843593315e-02
1.897446760535240173e+01 -1.214586612582206726e+01 -4.472206511999843315e-02
1.423765119910240173e+01 -1.010729190707206726e+01 1.399375519250156685e-02
1.481431135535240173e+01 -1.036693546175956726e+01 2.020408234093906685e-02
1.539829573035240173e+01 -1.061681339144706726e+01 2.626182159875156685e-02
1.604416975378990173e+01 -1.090209171175956726e+01 3.311301788781406685e-02
1.676084455847740173e+01 -1.122924014925956726e+01 4.091025909875156685e-02
1.744785627722740173e+01 -1.151293155550956726e+01 4.783774933312656685e-02
1.818320783972740173e+01 -1.181591007113456726e+01 5.523826202843906685e-02
1.896836408972740173e+01 -1.213951846957206726e+01 6.314231476281406685e-02
1.437876448035240173e+01 -1.023216983675956726e+01 1.033187063643765669e-01
3.088865217566490173e+01 -2.447862979769706726e+01 5.068984182784390669e-01
2.434922346472740173e+01 -1.831774112582206726e+01 3.357405813643765669e-01
3.251316389441490173e+01 -2.478844425082206726e+01 5.232100637862515669e-01
2.466416487097740173e+01 -1.775878116488456726e+01 3.256087454268765669e-01
3.436374983191490173e+01 -2.520897647738456726e+01 5.432448538253140669e-01
2.428049787878990173e+01 -1.665160343050956726e+01 2.995619924971890669e-01
2.647959455847740173e+01 -1.797606632113456726e+01 3.418746145675015669e-01
2.823203596472740173e+01 -2.263854190707206726e+01 6.238722952315640669e-01
3.184153303503990173e+01 -2.531188175082206726e+01 7.233901174971890669e-01
2.435117658972740173e+01 -1.831676456332206726e+01 4.815230520675015669e-01
3.350217756628990173e+01 -2.561913272738456726e+01 7.466292532393765669e-01
2.466709455847740173e+01 -1.775878116488456726e+01 4.708876760909390669e-01
3.562021955847740173e+01 -2.622313663363456726e+01 7.814650686690640669e-01
2.426829084753990173e+01 -1.663964053988456726e+01 4.397750051925015669e-01
2.644407209753990173e+01 -1.794615909457206726e+01 4.923110159346890669e-01
2.823386701941490173e+01 -2.263719913363456726e+01 7.961135061690640669e-01
3.263633283972740173e+01 -2.600621768832206726e+01 9.456496389815640669e-01
2.435300764441490173e+01 -1.831591007113456726e+01 6.265273245284390669e-01
3.466379866003990173e+01 -2.659520694613456726e+01 9.870619924971890669e-01
2.466990217566490173e+01 -1.775878116488456726e+01 6.154036673018765669e-01
3.663206037878990173e+01 -2.703893253207206726e+01 1.024796977848751567e+00
2.425608381628990173e+01 -1.662779971957206726e+01 5.798354299971890669e-01
2.637070783972740173e+01 -1.788671085238456726e+01 6.418166311690640669e-01
2.823557600378990173e+01 -2.263573428988456726e+01 9.683547171065640669e-01
3.360056623816490173e+01 -2.684911319613456726e+01 1.183839336247189067e+00
2.435483869910240173e+01 -1.831505557894706726e+01 7.722945364425015669e-01
3.569126448035240173e+01 -2.745775577425956726e+01 1.236863628239376567e+00
2.467283186316490173e+01 -1.775890323519706726e+01 7.606978567550015669e-01
3.754038557410240173e+01 -2.777074405550956726e+01 1.276917949528439067e+00
2.424399885535240173e+01 -1.661595889925956726e+01 7.189650686690640669e-01
3.951401838660240173e+01 -2.809654971957206726e+01 1.320634380192501567e+00
8.317729324102401733e+00 -3.870597571134567261e+00 -8.115677682449984331e-01
8.394633620977401733e+00 -3.802848547697067261e+00 -8.137802926590609331e-01
8.468119949102401733e+00 -3.732169836759567261e+00 -8.159775582840609331e-01
8.542216628789901733e+00 -3.660880774259567261e+00 -8.182053414871859331e-01
8.608989089727401733e+00 -3.584342688322067261e+00 -8.199295846512484331e-01
8.668925613164901733e+00 -3.502799719572067261e+00 -8.211655465653109331e-01
8.729106277227401733e+00 -3.421012610197067261e+00 -8.224167672684359331e-01
8.781474441289901733e+00 -3.334342688322067261e+00 -8.233933297684359331e-01
9.026957839727401733e+00 -4.422111243009567261e+00 -8.109116403153109331e-01
9.089091628789901733e+00 -4.331779211759567261e+00 -8.120713082840609331e-01
9.155375808477401733e+00 -4.244865149259567261e+00 -8.132462350418734331e-01
9.217631667852401733e+00 -4.154288977384567261e+00 -8.144059030106234331e-01
9.279643386602401733e+00 -4.064079016447067261e+00 -8.155808297684359331e-01
9.341655105352401733e+00 -3.973991125822067261e+00 -8.167404977371859331e-01
9.399272292852401733e+00 -3.880485266447067261e+00 -8.178849069168734331e-01
9.461161941289901733e+00 -3.790519446134567261e+00 -8.190445748856234331e-01
9.914653152227401733e+00 -5.112296789884567261e+00 -8.124680367996859331e-01
9.982768386602401733e+00 -5.012565344572067261e+00 -8.137497750809359331e-01
1.005088362097740173e+01 -4.912955969572067261e+00 -8.150315133621859331e-01
1.011924299597740173e+01 -4.813102453947067261e+00 -8.163132516434359331e-01
1.018735823035240173e+01 -4.713615149259567261e+00 -8.175949899246859331e-01
1.025535139441490173e+01 -4.614127844572067261e+00 -8.188614694168734331e-01
1.032358869910240173e+01 -4.514396399259567261e+00 -8.201432076981234331e-01
1.039158186316490173e+01 -4.415031164884567261e+00 -8.214249459793734331e-01
1.099802717566490173e+01 -5.954704016447067261e+00 -8.143601266434359331e-01
1.108005842566490173e+01 -5.848380774259567261e+00 -8.157944528153109331e-01
1.115561994910240173e+01 -5.737174719572067261e+00 -8.172135201981234331e-01
1.123130354285240173e+01 -5.625724524259567261e+00 -8.186478463699984331e-01
1.130686506628990173e+01 -5.514518469572067261e+00 -8.200669137528109331e-01
1.138218244910240173e+01 -5.403556555509567261e+00 -8.214859811356234331e-01
1.145786604285240173e+01 -5.292228430509567261e+00 -8.229050485184359331e-01
1.152646955847740173e+01 -5.176871985197067261e+00 -8.243088571121859331e-01
1.236619123816490173e+01 -7.018668860197067261e+00 -8.167404977371859331e-01
1.245103010535240173e+01 -6.892814368009567261e+00 -8.183426705887484331e-01
1.253586897253990173e+01 -6.767081946134567261e+00 -8.199448434403109331e-01
1.262095198035240173e+01 -6.640983313322067261e+00 -8.215622750809359331e-01
1.270566877722740173e+01 -6.515495032072067261e+00 -8.231644479324984331e-01
1.275925764441490173e+01 -6.368278235197067261e+00 -8.233475534012484331e-01
1.283127912878990173e+01 -6.234000891447067261e+00 -8.243698922684359331e-01
1.290281233191490173e+01 -6.100578039884567261e+00 -8.253769723465609331e-01
1.412754377722740173e+01 -8.388175696134567261e+00 -8.198227731278109331e-01
1.423508772253990173e+01 -8.251701086759567261e+00 -8.216843453934359331e-01
1.432700666785240173e+01 -8.103507727384567261e+00 -8.233322946121859331e-01
