1.507392054796218872e+01 -2.311908188462257385e+01 1.486793013405986130e+00
1.490094691514968872e+01 -2.243805161118507385e+01 1.453940840554423630e+00
1.506098109483718872e+01 -2.228631821274757385e+01 1.447501631570048630e+00
1.529621058702468872e+01 -2.224994125962257385e+01 1.446845503640361130e+00
1.528217250108718872e+01 -2.184271469712257385e+01 1.428229780984111130e+00
7.160956680774688721e+00 -9.881533056497573853e+00 -1.610188762424513698e-01
7.234076797962188721e+00 -9.822084814310073853e+00 -1.624837199924513698e-01
7.304145157337188721e+00 -9.758364111185073853e+00 -1.639943401096388698e-01
7.374335587024688721e+00 -9.694643408060073853e+00 -1.655049602268263698e-01
7.444159805774688721e+00 -9.631166845560073853e+00 -1.670003215549513698e-01
7.514106094837188721e+00 -9.567690283060073853e+00 -1.685109416721388698e-01
7.592231094837188721e+00 -9.516054540872573853e+00 -1.706776897190138698e-01
7.672309219837188721e+00 -9.466738134622573853e+00 -1.732564250705763698e-01
7.865180313587188721e+00 -1.092376938462257385e+01 -1.606374065158888698e-01
7.949897110462188721e+00 -1.086285629868507385e+01 -1.628651897190138698e-01
8.034613907337188721e+00 -1.080182114243507385e+01 -1.650929729221388698e-01
8.123603165149688721e+00 -1.074615707993507385e+01 -1.672902385471388698e-01
8.208319962024688721e+00 -1.068512192368507385e+01 -1.695180217502638698e-01
8.289252579212188721e+00 -1.061834946274757385e+01 -1.717763225315138698e-01
8.373969376087188721e+00 -1.055743637681007385e+01 -1.740041057346388698e-01
8.458686172962188721e+00 -1.049640122056007385e+01 -1.762166301487013698e-01
8.664130508899688721e+00 -1.210614243149757385e+01 -1.548543254612013698e-01
8.758368790149688721e+00 -1.203827133774757385e+01 -1.573262492893263698e-01
8.852729141712188721e+00 -1.197027817368507385e+01 -1.598134319065138698e-01
8.947333633899688721e+00 -1.190216293931007385e+01 -1.622853557346388698e-01
9.041693985462188721e+00 -1.183416977524757385e+01 -1.647725383518263698e-01
9.136298477649688721e+00 -1.176593247056007385e+01 -1.672444621799513698e-01
9.230536758899688721e+00 -1.169806137681007385e+01 -1.697316447971388698e-01
9.324897110462188721e+00 -1.163006821274757385e+01 -1.722035686252638698e-01
9.585639297962188721e+00 -1.346966782212257385e+01 -1.433034221408888698e-01
9.735663712024688721e+00 -1.345868149399757385e+01 -1.482167522190138698e-01
9.880683243274688721e+00 -1.343853989243507385e+01 -1.532063762424513698e-01
1.000897914171218872e+01 -1.339178696274757385e+01 -1.572194377658888698e-01
1.013727504014968872e+01 -1.334503403306007385e+01 -1.612324992893263698e-01
1.026666957139968872e+01 -1.329779282212257385e+01 -1.652760783908888698e-01
1.039630824327468872e+01 -1.325067368149757385e+01 -1.693196574924513698e-01
1.052008754014968872e+01 -1.319488754868507385e+01 -1.734395305393263698e-01
1.343585902452468872e+01 -1.917303696274757385e+01 -2.595906535862013698e-01
1.373712855577468872e+01 -1.928155747056007385e+01 -2.708516399143263698e-01
1.287567836046218872e+01 -1.771942368149757385e+01 -2.257466594455763698e-01
1.292133265733718872e+01 -1.748163071274757385e+01 -2.248463908908888698e-01
1.135797816514968872e+01 -1.502789536118507385e+01 -1.469044963596388698e-01
1.146515589952468872e+01 -1.492132797837257385e+01 -1.494221965549513698e-01
1.086664515733718872e+01 -1.387518540024757385e+01 -1.184773723362013698e-01
1.173187953233718872e+01 -1.478070297837257385e+01 -1.569600383518263698e-01
1.466718226671218872e+01 -2.099359360337257385e+01 -2.064442912815138698e-01
1.495673304796218872e+01 -2.105267563462257385e+01 -2.152028362033888698e-01
1.524542933702468872e+01 -2.110431137681007385e+01 -2.244801799533888698e-01
1.552802211046218872e+01 -2.114007797837257385e+01 -2.334676067112013698e-01
1.580670863389968872e+01 -2.116644516587257385e+01 -2.422871867893263698e-01
1.606952601671218872e+01 -2.116461411118507385e+01 -2.504201213596388698e-01
1.086786586046218872e+01 -1.387420883774757385e+01 -4.140522878151386976e-02
1.658905726671218872e+01 -2.114300766587257385e+01 -2.670064250705763698e-01
1.552338343858718872e+01 -2.225763168931007385e+01 -1.202931682346388698e-01
1.583063441514968872e+01 -2.232000961899757385e+01 -1.291585246799513698e-01
1.614032679796218872e+01 -2.237945786118507385e+01 -1.381001750705763698e-01
1.650849086046218872e+01 -2.251312485337257385e+01 -1.489033977268263698e-01
1.689984828233718872e+01 -2.267083969712257385e+01 -1.604390422580763698e-01
1.716510707139968872e+01 -2.264630356431007385e+01 -1.678700725315138698e-01
1.086920863389968872e+01 -1.387323227524757385e+01 3.525492746848613024e-02
1.793048793077468872e+01 -2.289642563462257385e+01 -1.902547160862013698e-01
1.615814906358718872e+01 -2.319317856431007385e+01 -1.535847585182636976e-02
1.617340785264968872e+01 -2.281427231431007385e+01 -1.609089772682636976e-02
1.649372035264968872e+01 -2.287994614243507385e+01 -2.356770436745136976e-02
1.648114711046218872e+01 -2.247003403306007385e+01 -2.362873952370136976e-02
1.771845179796218872e+01 -2.379583969712257385e+01 -5.411580007057636976e-02
1.811957484483718872e+01 -2.393609848618507385e+01 -6.427815358620136976e-02
1.087042933702468872e+01 -1.387213364243507385e+01 1.119150837184861302e-01
1.894000941514968872e+01 -2.421429672837257385e+01 -8.577778737526386976e-02
1.597333461046218872e+01 -2.291461411118507385e+01 1.138071735622361302e-01
1.633747035264968872e+01 -2.304815903306007385e+01 1.060709675075486302e-01
1.651081019639968872e+01 -2.289972153306007385e+01 1.014017780544236302e-01
1.658649379014968872e+01 -2.261334457993507385e+01 9.835002024192363024e-02
1.660333949327468872e+01 -2.225250473618507385e+01 9.629008371848613024e-02
1.884894496202468872e+01 -2.491998520493507385e+01 5.710551340598613024e-02
1.087177211046218872e+01 -1.387115707993507385e+01 1.889872272731736302e-01
1.977765589952468872e+01 -2.530645981431007385e+01 3.758952219504863024e-02
1.593134242296218872e+01 -2.284771957993507385e+01 2.381205280544236302e-01
1.604950648546218872e+01 -2.262457504868507385e+01 2.338480671169236302e-01
1.707831507921218872e+01 -2.370599594712257385e+01 2.220377643825486302e-01
1.666083461046218872e+01 -2.271319809556007385e+01 2.222056110622361302e-01
1.909284144639968872e+01 -2.568207016587257385e+01 1.977152546169236302e-01
1.698334437608718872e+01 -2.238641586899757385e+01 2.129282673122361302e-01
1.087299281358718872e+01 -1.387018051743507385e+01 2.656321247341111302e-01
2.053705531358718872e+01 -2.629583969712257385e+01 1.735605915309861302e-01
1.588947230577468872e+01 -2.278094711899757385e+01 3.623575886012986302e-01
1.693927699327468872e+01 -2.391363754868507385e+01 3.575968464137986302e-01
1.706977015733718872e+01 -2.368890610337257385e+01 3.525919636012986302e-01
1.661249476671218872e+01 -2.264081040024757385e+01 3.479380329372361302e-01
1.695172816514968872e+01 -2.272418442368507385e+01 3.429941852809861302e-01
1.698944789171218872e+01 -2.239007797837257385e+01 3.382792194606736302e-01
1.087433558702468872e+01 -1.386920395493507385e+01 3.427042682887986302e-01
1.723956996202468872e+01 -2.197369614243507385e+01 3.288492878200486302e-01
1.603046351671218872e+01 -2.298492661118507385e+01 4.867624958278611302e-01
1.694257289171218872e+01 -2.391363754868507385e+01 4.878611286403611302e-01
1.695661097764968872e+01 -2.352240219712257385e+01 4.814676960231736302e-01
1.673725062608718872e+01 -2.281122055649757385e+01 4.734720905544236302e-01
1.673676234483718872e+01 -2.242315903306007385e+01 4.673380573512986302e-01
1.682904750108718872e+01 -2.216839829087257385e+01 4.619364460231736302e-01
1.087555629014968872e+01 -1.386810532212257385e+01 4.193491657497361302e-01
1.734381800889968872e+01 -2.210589829087257385e+01 4.532694538356736302e-01
1.579376918077468872e+01 -2.262994614243507385e+01 6.077952106716111302e-01
1.694586879014968872e+01 -2.391351547837257385e+01 6.188273151637986302e-01
2.016193324327468872e+01 -2.809442368149757385e+01 6.605143268825486302e-01
2.062152796983718872e+01 -2.825580063462257385e+01 6.580576618434861302e-01
1.003412562608718872e+01 -1.317889633774757385e+01 4.928507526637986302e-01
1.038556605577468872e+01 -1.343524399399757385e+01 4.935679157497361302e-01
1.075409632921218872e+01 -1.370367661118507385e+01 4.947123249294236302e-01
1.112494593858718872e+01 -1.396332016587257385e+01 4.952616413356736302e-01
8.699164688587188721e+00 -1.213104477524757385e+01 5.534281452419236302e-01
8.982001602649688721e+00 -1.233636704087257385e+01 5.555185993434861302e-01
9.277167618274688721e+00 -1.254986801743507385e+01 5.576700886012986302e-01
9.588080704212188721e+00 -1.277472153306007385e+01 5.599436481716111302e-01
9.913642227649688721e+00 -1.301019516587257385e+01 5.623240192653611302e-01
1.025727015733718872e+01 -1.325873032212257385e+01 5.648264606716111302e-01
1.063214808702468872e+01 -1.353851547837257385e+01 5.677714069606736302e-01
1.103461390733718872e+01 -1.384247055649757385e+01 5.710062702419236302e-01
8.723090469837188721e+00 -1.216388168931007385e+01 6.188883503200486302e-01
9.018500626087188721e+00 -1.238690415024757385e+01 6.225352009059861302e-01
9.331488907337188721e+00 -1.262481918931007385e+01 6.268229206325486302e-01
9.662421524524688721e+00 -1.287640610337257385e+01 6.313395221950486302e-01
1.001032191514968872e+01 -1.314093247056007385e+01 6.361002643825486302e-01
1.037641078233718872e+01 -1.341754379868507385e+01 6.410593708278611302e-01
1.074018031358718872e+01 -1.367987290024757385e+01 6.456370075466111302e-01
1.110748988389968872e+01 -1.393487778306007385e+01 6.504282673122361302e-01
8.724433243274688721e+00 -1.216351547837257385e+01 6.834482868434861302e-01
9.006659805774688721e+00 -1.236725082993507385e+01 6.885294636012986302e-01
9.299750626087188721e+00 -1.257708969712257385e+01 6.937632282497361302e-01
9.608222305774688721e+00 -1.279779282212257385e+01 6.992563923122361302e-01
9.930854141712188721e+00 -1.302874985337257385e+01 7.050242145778611302e-01
1.027106410264968872e+01 -1.327240219712257385e+01 7.110972126247361302e-01
1.064301234483718872e+01 -1.354767075181007385e+01 7.180094440700486302e-01
1.105695277452468872e+01 -1.386603012681007385e+01 7.260660846950486302e-01
8.703559219837188721e+00 -1.213006821274757385e+01 7.472452839137986302e-01
9.008612930774688721e+00 -1.236761704087257385e+01 7.546305378200486302e-01
9.329901993274688721e+00 -1.261749497056007385e+01 7.627634723903611302e-01
9.670111954212188721e+00 -1.288214340806007385e+01 7.713694294216111302e-01
1.002875453233718872e+01 -1.316107407212257385e+01 7.804484089137986302e-01
2.424726039171218872e+01 -3.218683090806007385e+01 1.415091963601298630e+00
2.480902796983718872e+01 -3.239007797837257385e+01 1.421256514382548630e+00
2.266632777452468872e+01 -2.904364243149757385e+01 1.309974165749736130e+00
1.562873011827468872e+01 -2.236261215806007385e+01 1.210959883523173630e+00
1.568390589952468872e+01 -2.205670395493507385e+01 1.199332686257548630e+00
2.318769007921218872e+01 -3.238141098618507385e+01 1.602866621804423630e+00
2.249677211046218872e+01 -3.085479965806007385e+01 1.543693037820048630e+00
2.173371058702468872e+01 -2.927728500962257385e+01 1.482505293679423630e+00
2.176923304796218872e+01 -2.882696762681007385e+01 1.465323897195048630e+00
2.247760707139968872e+01 -2.928277817368507385e+01 1.483588667702861130e+00
2.262238246202468872e+01 -2.898041000962257385e+01 1.472205611062236130e+00
1.560028773546218872e+01 -2.231598129868507385e+01 1.330543013405986130e+00
1.584113246202468872e+01 -2.228033676743507385e+01 1.329978438210673630e+00
2.322162562608718872e+01 -3.242315903306007385e+01 1.784232588601298630e+00
2.199555140733718872e+01 -3.014630356431007385e+01 1.683036299538798630e+00
2.173712855577468872e+01 -2.927606430649757385e+01 1.645545454812236130e+00
2.210358363389968872e+01 -2.927350082993507385e+01 1.647727461648173630e+00
2.418488246202468872e+01 -3.154706040024757385e+01 1.751212569070048630e+00
2.258454066514968872e+01 -2.892511215806007385e+01 1.634971113991923630e+00
1.528168421983718872e+01 -2.184063950181007385e+01 1.428122969460673630e+00
1.864411097764968872e+01 -2.634356918931007385e+01 1.655250044655986130e+00
2.317426234483718872e+01 -3.234881821274757385e+01 1.959296675515361130e+00
2.195856410264968872e+01 -3.008832016587257385e+01 1.848060103249736130e+00
2.175861293077468872e+01 -2.929962387681007385e+01 1.810706587624736130e+00
2.375189906358718872e+01 -3.149725571274757385e+01 1.924170943093486130e+00
2.254450160264968872e+01 -2.935992661118507385e+01 1.818625899148173630e+00
2.419538050889968872e+01 -3.102435532212257385e+01 1.906424971413798630e+00
7.672553360462188721e+00 -9.466616064310073853e+00 -1.732716838596388698e-01
7.757026016712188721e+00 -9.422670751810073853e+00 -1.758656780002638698e-01
7.837836563587188721e+00 -9.373842626810073853e+00 -1.784749309299513698e-01
7.919257462024688721e+00 -9.324648290872573853e+00 -1.810841838596388698e-01
8.000434219837188721e+00 -9.275453954935073853e+00 -1.836934367893263698e-01
8.082221329212188721e+00 -9.226015478372573853e+00 -1.863179485080763698e-01
8.163764297962188721e+00 -9.176699072122573853e+00 -1.889272014377638698e-01
8.241523087024688721e+00 -9.122499853372573853e+00 -1.915364543674513698e-01
8.459052383899688721e+00 -1.049627915024757385e+01 -1.762318889377638698e-01
8.540595352649688721e+00 -1.043109360337257385e+01 -1.784749309299513698e-01
8.622138321399688721e+00 -1.036590805649757385e+01 -1.807027141330763698e-01
8.708197891712188721e+00 -1.030572739243507385e+01 -1.829304973362013698e-01
8.789740860462188721e+00 -1.024054184556007385e+01 -1.851735393283888698e-01
8.867377579212188721e+00 -1.016986313462257385e+01 -1.874470988987013698e-01
8.948920547962188721e+00 -1.010467758774757385e+01 -1.896901408908888698e-01
9.030585587024688721e+00 -1.003949204087257385e+01 -1.919331828830763698e-01
9.325019180774688721e+00 -1.162970200181007385e+01 -1.722035686252638698e-01
9.415839493274688721e+00 -1.155719223618507385e+01 -1.746907512424513698e-01
9.506659805774688721e+00 -1.148468247056007385e+01 -1.771779338596388698e-01
9.597846329212188721e+00 -1.141192856431007385e+01 -1.796803752658888698e-01
9.688666641712188721e+00 -1.133929672837257385e+01 -1.821675578830763698e-01
9.779853165149688721e+00 -1.126654282212257385e+01 -1.846699992893263698e-01
9.870795547962188721e+00 -1.119403305649757385e+01 -1.871724406955763698e-01
9.961615860462188721e+00 -1.112152329087257385e+01 -1.896596233127638698e-01
1.052069789171218872e+01 -1.319476547837257385e+01 -1.734547893283888698e-01
1.063178187608718872e+01 -1.312188950181007385e+01 -1.763081828830763698e-01
1.071405726671218872e+01 -1.301190415024757385e+01 -1.779866496799513698e-01
1.079230433702468872e+01 -1.289728012681007385e+01 -1.794514934299513698e-01
1.086994105577468872e+01 -1.278363266587257385e+01 -1.809163371799513698e-01
1.094757777452468872e+01 -1.267010727524757385e+01 -1.823659221408888698e-01
1.102863246202468872e+01 -1.256244125962257385e+01 -1.840291301487013698e-01
1.112421351671218872e+01 -1.247259750962257385e+01 -1.868672649143263698e-01
1.173236781358718872e+01 -1.478033676743507385e+01 -1.569600383518263698e-01
1.185578089952468872e+01 -1.469623032212257385e+01 -1.604695598362013698e-01
1.197931605577468872e+01 -1.461200180649757385e+01 -1.639943401096388698e-01
1.210346156358718872e+01 -1.452728500962257385e+01 -1.675191203830763698e-01
1.224249964952468872e+01 -1.446136704087257385e+01 -1.717458049533888698e-01
1.240387660264968872e+01 -1.442035141587257385e+01 -1.769795696018263698e-01
1.255780726671218872e+01 -1.436981430649757385e+01 -1.818776408908888698e-01
1.265766078233718872e+01 -1.425470200181007385e+01 -1.842732707737013698e-01
1.659003382921218872e+01 -2.114312973618507385e+01 -2.670369426487013698e-01
1.683283168077468872e+01 -2.110443344712257385e+01 -2.739339153049513698e-01
1.708295375108718872e+01 -2.107171860337257385e+01 -2.817311565158888698e-01
1.415485316514968872e+01 -1.707806625962257385e+01 -1.649251262424513698e-01
1.427545863389968872e+01 -1.694659653306007385e+01 -1.680074016330763698e-01
1.323248988389968872e+01 -1.541473618149757385e+01 -1.257558147190138698e-01
1.451630336046218872e+01 -1.668426743149757385e+01 -1.741719524143263698e-01
1.470172816514968872e+01 -1.663019028306007385e+01 -1.803059856174513698e-01
1.793329554796218872e+01 -2.289874497056007385e+01 -1.903310100315138698e-01
1.840766078233718872e+01 -2.312835922837257385e+01 -2.046437541721388698e-01
1.874518519639968872e+01 -2.317206040024757385e+01 -2.145467082737013698e-01
1.907013636827468872e+01 -2.319232407212257385e+01 -2.240376750705763698e-01
1.939911586046218872e+01 -2.321283188462257385e+01 -2.336507121799513698e-01
1.323395472764968872e+01 -1.541351547837257385e+01 -3.682759206276386976e-02
2.020929652452468872e+01 -2.341559067368507385e+01 -2.576527873752638698e-01
2.057318812608718872e+01 -2.345697250962257385e+01 -2.683186809299513698e-01
1.894232875108718872e+01 -2.421588364243507385e+01 -8.582356374245136976e-02
1.936469203233718872e+01 -2.435614243149757385e+01 -9.670308034401386976e-02
1.978119593858718872e+01 -2.447894516587257385e+01 -1.066975871799513698e-01
2.021247035264968872e+01 -2.460919418931007385e+01 -1.178059856174513698e-01
2.075116664171218872e+01 -2.486249008774757385e+01 -1.315541545627638698e-01
1.323541957139968872e+01 -1.541241684556007385e+01 5.258891184348613024e-02
2.174396449327468872e+01 -2.522625961899757385e+01 -1.578450481174513698e-01
2.220441371202468872e+01 -2.534955063462257385e+01 -1.697316447971388698e-01
1.978009730577468872e+01 -2.530816879868507385e+01 3.754374582786113024e-02
2.024408656358718872e+01 -2.548333969712257385e+01 2.761027414817363024e-02
2.070819789171218872e+01 -2.564715805649757385e+01 1.760050852317363024e-02
2.117206507921218872e+01 -2.579815903306007385e+01 7.544966530986130238e-03
2.167182093858718872e+01 -2.598370590806007385e+01 -3.181962179951369762e-03
1.323688441514968872e+01 -1.541119614243507385e+01 1.415171344997361302e-01
2.271967250108718872e+01 -2.637506332993507385e+01 -2.565815846901386976e-02
2.319660121202468872e+01 -2.649847641587257385e+01 -3.614094655495136976e-02
2.053913050889968872e+01 -2.629706040024757385e+01 1.735300739528611302e-01
2.101300746202468872e+01 -2.646795883774757385e+01 1.653208454372361302e-01
2.148029261827468872e+01 -2.661908188462257385e+01 1.570658405544236302e-01
2.198920375108718872e+01 -2.680951157212257385e+01 1.483072956325486302e-01
2.249384242296218872e+01 -2.698395004868507385e+01 1.394877155544236302e-01
1.323834925889968872e+01 -1.541009750962257385e+01 2.304453571559861302e-01
2.349127894639968872e+01 -2.728216782212257385e+01 1.216807087184861302e-01
2.399469691514968872e+01 -2.742120590806007385e+01 1.126017292262986302e-01
1.723944789171218872e+01 -2.197223129868507385e+01 3.288340290309861302e-01
1.729291468858718872e+01 -2.167572250962257385e+01 3.243326862575486302e-01
2.222919398546218872e+01 -2.756122055649757385e+01 3.088144977809861302e-01
2.273126918077468872e+01 -2.772711411118507385e+01 3.020243366481736302e-01
2.320734339952468872e+01 -2.785113754868507385e+01 2.952036579372361302e-01
1.324054652452468872e+01 -1.540960922837257385e+01 3.198466022731736302e-01
2.422711879014968872e+01 -2.814679184556007385e+01 2.809214313747361302e-01
2.478046351671218872e+01 -2.832916489243507385e+01 2.734446247341111302e-01
1.734589320421218872e+01 -2.210724106431007385e+01 4.532694538356736302e-01
1.730231410264968872e+01 -2.168353500962257385e+01 4.473032673122361302e-01
2.292499476671218872e+01 -2.843585434556007385e+01 4.704813678981736302e-01
2.340314418077468872e+01 -2.855707016587257385e+01 4.654001911403611302e-01
2.392548304796218872e+01 -2.872357407212257385e+01 4.603647907497361302e-01
1.324616175889968872e+01 -1.541351547837257385e+01 4.087900837184861302e-01
2.505036097764968872e+01 -2.911419907212257385e+01 4.500498493434861302e-01
2.396991664171218872e+01 -2.738189926743507385e+01 4.388193805934861302e-01
1.112714320421218872e+01 -1.396527329087257385e+01 4.952769001247361302e-01
1.149762660264968872e+01 -1.421270981431007385e+01 4.956888874294236302e-01
1.188800746202468872e+01 -1.447394028306007385e+01 4.956888874294236302e-01
1.229975062608718872e+01 -1.474896469712257385e+01 4.961313923122361302e-01
1.273236781358718872e+01 -1.503790512681007385e+01 4.966044147731736302e-01
1.319074183702468872e+01 -1.534405747056007385e+01 4.971079548122361302e-01
1.363422328233718872e+01 -1.561981430649757385e+01 4.976725300075486302e-01
1.409296351671218872e+01 -1.590082016587257385e+01 4.977030475856736302e-01
1.103717738389968872e+01 -1.384491196274757385e+01 5.710367878200486302e-01
1.141352015733718872e+01 -1.410174790024757385e+01 5.735697468044236302e-01
1.181647425889968872e+01 -1.438067856431007385e+01 5.763621052028611302e-01
1.224359828233718872e+01 -1.467621079087257385e+01 5.793223102809861302e-01
1.269379359483718872e+01 -1.498785629868507385e+01 5.824351032497361302e-01
1.317255336046218872e+01 -1.531915512681007385e+01 5.857615192653611302e-01
1.363727504014968872e+01 -1.562054672837257385e+01 5.885081012966111302e-01
1.411603480577468872e+01 -1.592474594712257385e+01 5.912089069606736302e-01
1.110956507921218872e+01 -1.393683090806007385e+01 6.504740436794236302e-01
1.147528773546218872e+01 -1.417853012681007385e+01 6.542429645778611302e-01
1.185907679796218872e+01 -1.443170395493507385e+01 6.586374958278611302e-01
1.226410609483718872e+01 -1.469903793931007385e+01 6.632609089137986302e-01
1.268927699327468872e+01 -1.497955551743507385e+01 6.681284626247361302e-01
1.313935023546218872e+01 -1.527655258774757385e+01 6.732706745387986302e-01
1.358246546983718872e+01 -1.555279770493507385e+01 6.779093464137986302e-01
1.403253871202468872e+01 -1.582464829087257385e+01 6.828989704372361302e-01
1.105841761827468872e+01 -1.386725082993507385e+01 7.260966022731736302e-01
1.144538050889968872e+01 -1.413727036118507385e+01 7.329935749294236302e-01
1.186090785264968872e+01 -1.443121567368507385e+01 7.405314167262986302e-01
1.230231410264968872e+01 -1.474359360337257385e+01 7.485270221950486302e-01
1.276862269639968872e+01 -1.507354965806007385e+01 7.569803913356736302e-01
1.326569300889968872e+01 -1.542523422837257385e+01 7.659830768825486302e-01
2.821637660264968872e+01 -3.283038559556007385e+01 1.240775557351298630e+00
2.380768519639968872e+01 -2.717242661118507385e+01 1.085074873757548630e+00
2.266669398546218872e+01 -2.904242172837257385e+01 1.309928389382548630e+00
2.596613246202468872e+01 -3.279767075181007385e+01 1.434165449929423630e+00
2.360443812608718872e+01 -2.926642075181007385e+01 1.316428633523173630e+00
2.711420375108718872e+01 -3.313873520493507385e+01 1.445426436257548630e+00
2.442584925889968872e+01 -2.930658188462257385e+01 1.317679854226298630e+00
2.836066371202468872e+01 -3.354669418931007385e+01 1.458915205788798630e+00
2.901496058702468872e+01 -3.376703110337257385e+01 1.466193648171611130e+00
2.967902308702468872e+01 -3.398382797837257385e+01 1.474448653054423630e+00
2.262213832139968872e+01 -2.897833481431007385e+01 1.472144575905986130e+00
2.281000453233718872e+01 -2.873541489243507385e+01 1.463675947976298630e+00
2.357196742296218872e+01 -2.921954575181007385e+01 1.483710738015361130e+00
2.386676722764968872e+01 -2.909930649399757385e+01 1.480079146218486130e+00
2.448053675889968872e+01 -2.936761704087257385e+01 1.491721602273173630e+00
2.911505824327468872e+01 -3.444561997056007385e+01 1.692512007546611130e+00
2.952728968858718872e+01 -3.436517563462257385e+01 1.690680952859111130e+00
3.035272914171218872e+01 -3.475921860337257385e+01 1.707557173562236130e+00
2.258502894639968872e+01 -2.892413559556007385e+01 1.634940596413798630e+00
2.278900843858718872e+01 -2.870282211899757385e+01 1.627128096413798630e+00
2.785895472764968872e+01 -3.462823715806007385e+01 1.896415205788798630e+00
2.379962855577468872e+01 -2.901019516587257385e+01 1.644446821999736130e+00
2.455182582139968872e+01 -2.944903793931007385e+01 1.666511030984111130e+00
2.410114222764968872e+01 -2.842120590806007385e+01 1.623160811257548630e+00
2.952497035264968872e+01 -3.435577622056007385e+01 1.894828291726298630e+00
3.106940394639968872e+01 -3.558416977524757385e+01 1.953452559304423630e+00
2.419660121202468872e+01 -3.102423325181007385e+01 1.906440230202861130e+00
2.339325648546218872e+01 -2.947320786118507385e+01 1.830146284890361130e+00
2.395819789171218872e+01 -2.969574204087257385e+01 1.844809981179423630e+00
2.403070765733718872e+01 -2.929144516587257385e+01 1.827582808327861130e+00
2.410199671983718872e+01 -2.889435043931007385e+01 1.810676070046611130e+00
2.417121058702468872e+01 -2.849981918931007385e+01 1.793845625710673630e+00
2.952960902452468872e+01 -3.435455551743507385e+01 2.098212691140361130e+00
3.183600550889968872e+01 -3.646673813462257385e+01 2.212394209695048630e+00
8.241889297962188721e+00 -9.122377783060073853e+00 -1.915517131565138698e-01
8.324408829212188721e+00 -9.073427587747573853e+00 -1.941914836643263698e-01
8.403144180774688721e+00 -9.019594579935073853e+00 -1.968159953830763698e-01
8.482245743274688721e+00 -8.965517431497573853e+00 -1.994405071018263698e-01
8.559150040149688721e+00 -8.909120947122573853e+00 -2.019276897190138698e-01
8.630439102649688721e+00 -8.846010595560073853e+00 -2.039723674533888698e-01
8.701361954212188721e+00 -8.783022314310073853e+00 -2.060170451877638698e-01
8.768500626087188721e+00 -8.715883642435073853e+00 -2.080617229221388698e-01
9.030829727649688721e+00 -1.003924790024757385e+01 -1.919331828830763698e-01
9.109076797962188721e+00 -9.970034033060073853e+00 -1.941762248752638698e-01
9.187201797962188721e+00 -9.900820165872573853e+00 -1.964345256565138698e-01
9.270331680774688721e+00 -9.836489111185073853e+00 -1.986775676487013698e-01
9.348578751087188721e+00 -9.767153173685073853e+00 -2.009358684299513698e-01
9.422553360462188721e+00 -9.692690283060073853e+00 -2.032094280002638698e-01
9.500800430774688721e+00 -9.623354345560073853e+00 -2.054524699924513698e-01
9.579169571399688721e+00 -9.554018408060073853e+00 -2.077107707737013698e-01
9.962104141712188721e+00 -1.112140122056007385e+01 -1.896901408908888698e-01
1.004926234483718872e+01 -1.104449692368507385e+01 -1.921925822971388698e-01
1.013642054796218872e+01 -1.096759262681007385e+01 -1.946950237033888698e-01
1.022394496202468872e+01 -1.089032211899757385e+01 -1.971974651096388698e-01
1.031122523546218872e+01 -1.081341782212257385e+01 -1.996999065158888698e-01
1.039874964952468872e+01 -1.073614731431007385e+01 -2.022176067112013698e-01
1.048602992296218872e+01 -1.065912094712257385e+01 -2.047200481174513698e-01
1.057343226671218872e+01 -1.058209457993507385e+01 -2.072377483127638698e-01
1.112457972764968872e+01 -1.247235336899757385e+01 -1.868825237033888698e-01
1.123017054796218872e+01 -1.239398422837257385e+01 -1.896901408908888698e-01
1.132880336046218872e+01 -1.230755844712257385e+01 -1.925130168674513698e-01
1.142768031358718872e+01 -1.222064438462257385e+01 -1.953511516330763698e-01
1.152631312608718872e+01 -1.213409653306007385e+01 -1.981740276096388698e-01
1.162531214952468872e+01 -1.204706040024757385e+01 -2.010121623752638698e-01
1.172394496202468872e+01 -1.196039047837257385e+01 -2.038350383518263698e-01
1.181513148546218872e+01 -1.186603012681007385e+01 -2.066731731174513698e-01
1.265827113389968872e+01 -1.425470200181007385e+01 -1.842885295627638698e-01
1.275226527452468872e+01 -1.413348618149757385e+01 -1.866536418674513698e-01
1.284601527452468872e+01 -1.401263657212257385e+01 -1.890034953830763698e-01
1.293988734483718872e+01 -1.389178696274757385e+01 -1.913533488987013698e-01
1.303314906358718872e+01 -1.377179184556007385e+01 -1.936879436252638698e-01
1.312653285264968872e+01 -1.365155258774757385e+01 -1.960377971408888698e-01
1.321918421983718872e+01 -1.353216782212257385e+01 -1.983571330783888698e-01
1.331171351671218872e+01 -1.341314926743507385e+01 -2.006764690158888698e-01
1.470294886827468872e+01 -1.663067856431007385e+01 -1.803517619846388698e-01
1.493695765733718872e+01 -1.663019028306007385e+01 -1.875081340549513698e-01
1.509735804796218872e+01 -1.654291000962257385e+01 -1.923451701877638698e-01
1.518329554796218872e+01 -1.637127915024757385e+01 -1.942982951877638698e-01
1.526850062608718872e+01 -1.620135727524757385e+01 -1.962361613987013698e-01
1.535346156358718872e+01 -1.603204575181007385e+01 -1.981740276096388698e-01
1.543756800889968872e+01 -1.586444321274757385e+01 -2.000966350315138698e-01
1.550775843858718872e+01 -1.568390122056007385e+01 -2.020039836643263698e-01
2.057453089952468872e+01 -2.345709457993507385e+01 -2.683644572971388698e-01
2.085724574327468872e+01 -2.339886704087257385e+01 -2.766804973362013698e-01
2.114276820421218872e+01 -2.334015122056007385e+01 -2.850728313205763698e-01
2.146820765733718872e+01 -2.332037582993507385e+01 -2.947316447971388698e-01
1.887482386827468872e+01 -2.012164536118507385e+01 -2.122273723362013698e-01
1.825543910264968872e+01 -1.913385239243507385e+01 -1.921620647190138698e-01
1.846613246202468872e+01 -1.904815903306007385e+01 -1.982960979221388698e-01
1.806293421983718872e+01 -1.832525864243507385e+01 -1.850972453830763698e-01
2.220697718858718872e+01 -2.535113754868507385e+01 -1.697926799533888698e-01
2.266071254014968872e+01 -2.545697250962257385e+01 -1.817250530002638698e-01
2.307843714952468872e+01 -2.551263657212257385e+01 -1.919484416721388698e-01
2.361664515733718872e+01 -2.569207993149757385e+01 -2.059865276096388698e-01
2.412555629014968872e+01 -2.582892075181007385e+01 -2.193074504612013698e-01
2.458698207139968872e+01 -2.590277329087257385e+01 -2.314839641330763698e-01
2.494904261827468872e+01 -2.586480942368507385e+01 -2.420583049533888698e-01
1.806476527452468872e+01 -1.832379379868507385e+01 -7.146504323463886976e-02
2.319916468858718872e+01 -2.649994125962257385e+01 -3.620198171120136976e-02
2.367121058702468872e+01 -2.660748520493507385e+01 -4.677632253151386976e-02
2.414472132921218872e+01 -2.670672836899757385e+01 -5.742695729713886976e-02
2.469403773546218872e+01 -2.687848129868507385e+01 -6.948140065651386976e-02
2.498847132921218872e+01 -2.676251450181007385e+01 -7.701924245338886976e-02
2.510736781358718872e+01 -2.645453110337257385e+01 -8.139851491432636976e-02
2.542865687608718872e+01 -2.636444321274757385e+01 -8.943989675026386976e-02
1.806671839952468872e+01 -1.832232895493507385e+01 4.276225168723613024e-02
2.399738246202468872e+01 -2.742267075181007385e+01 1.125559528591111302e-01
2.393805629014968872e+01 -2.690741196274757385e+01 1.093821247341111302e-01
2.428668910264968872e+01 -2.686126938462257385e+01 1.018442829372361302e-01
2.501508265733718872e+01 -2.722833481431007385e+01 9.004923899192363024e-02
2.508551722764968872e+01 -2.686297836899757385e+01 8.550211985129863024e-02
2.521234828233718872e+01 -2.656170883774757385e+01 8.032939035911113024e-02
2.572907191514968872e+01 -2.667547836899757385e+01 7.071635324973613024e-02
1.806854945421218872e+01 -1.832086411118507385e+01 1.563944538356736302e-01
2.478339320421218872e+01 -2.833099594712257385e+01 2.734293659450486302e-01
2.389923793077468872e+01 -2.685797348618507385e+01 2.712015827419236302e-01
2.413495570421218872e+01 -2.668561020493507385e+01 2.650522907497361302e-01
2.553082972764968872e+01 -2.779327622056007385e+01 2.540201862575486302e-01
2.515497523546218872e+01 -2.693341293931007385e+01 2.502970417262986302e-01
2.486395961046218872e+01 -2.618426743149757385e+01 2.464213093044236302e-01
2.587934046983718872e+01 -2.682843247056007385e+01 2.364573200466111302e-01
1.807038050889968872e+01 -1.831952133774757385e+01 2.706064899684861302e-01
2.397052699327468872e+01 -2.738104477524757385e+01 4.387888630153611302e-01
2.415058070421218872e+01 -2.713995590806007385e+01 4.325327594997361302e-01
2.435932093858718872e+01 -2.693268051743507385e+01 4.263834675075486302e-01
2.466486293077468872e+01 -2.683111801743507385e+01 4.204630573512986302e-01
2.504120570421218872e+01 -2.680462875962257385e+01 4.146799762966111302e-01
2.489618617296218872e+01 -2.621393051743507385e+01 4.077067096950486302e-01
2.554474574327468872e+01 -2.647162094712257385e+01 4.023813923122361302e-01
1.807233363389968872e+01 -1.831805649399757385e+01 3.842234333278611302e-01
1.409577113389968872e+01 -1.590326157212257385e+01 4.977183063747361302e-01
1.457880336046218872e+01 -1.619903793931007385e+01 4.978556354762986302e-01
1.508954554796218872e+01 -1.651239243149757385e+01 4.974894245387986302e-01
1.562995082139968872e+01 -1.684332504868507385e+01 4.976267536403611302e-01
1.615082484483718872e+01 -1.713910141587257385e+01 4.973368366481736302e-01
1.669672328233718872e+01 -1.744671860337257385e+01 4.969858844997361302e-01
1.726886683702468872e+01 -1.776849594712257385e+01 4.971842487575486302e-01
1.787384730577468872e+01 -1.810943832993507385e+01 4.968027790309861302e-01
1.411896449327468872e+01 -1.592718735337257385e+01 5.912394245387986302e-01
1.462519007921218872e+01 -1.624896469712257385e+01 5.942606647731736302e-01
1.516095668077468872e+01 -1.658954086899757385e+01 5.974650104762986302e-01
1.570783168077468872e+01 -1.692621079087257385e+01 6.004862507106736302e-01
1.622699671983718872e+01 -1.721856918931007385e+01 6.027598102809861302e-01
1.677240687608718872e+01 -1.752435532212257385e+01 6.051096637966111302e-01
1.734516078233718872e+01 -1.784540024399757385e+01 6.075663288356736302e-01
1.794916468858718872e+01 -1.818402329087257385e+01 6.101755817653611302e-01
1.403522425889968872e+01 -1.582696762681007385e+01 6.829294880153611302e-01
1.453119593858718872e+01 -1.613861313462257385e+01 6.879038532497361302e-01
1.507306605577468872e+01 -1.648773422837257385e+01 6.940989216091111302e-01
1.565058070421218872e+01 -1.685980454087257385e+01 7.007059772731736302e-01
1.620197230577468872e+01 -1.718829575181007385e+01 7.063212116481736302e-01
1.678449183702468872e+01 -1.753399887681007385e+01 7.122263630153611302e-01
1.739911586046218872e+01 -1.789874497056007385e+01 7.184672077419236302e-01
2.549481898546218872e+01 -2.597772446274757385e+01 8.848643024684861302e-01
2.380805140733718872e+01 -2.717145004868507385e+01 1.085044356179423630e+00
2.397699671983718872e+01 -2.692108383774757385e+01 1.077491255593486130e+00
3.014398890733718872e+01 -3.340777817368507385e+01 1.253303023171611130e+00
2.432611781358718872e+01 -2.643658676743507385e+01 1.062842818093486130e+00
2.592426234483718872e+01 -2.774347153306007385e+01 1.097587080788798630e+00
2.493158656358718872e+01 -2.623199692368507385e+01 1.055777998757548630e+00
2.520294886827468872e+01 -2.609271469712257385e+01 1.051246138405986130e+00
2.540607386827468872e+01 -2.588116684556007385e+01 1.044745894265361130e+00
2.968219691514968872e+01 -3.398553696274757385e+01 1.474509688210673630e+00
2.911237269639968872e+01 -3.277862778306007385e+01 1.433783980202861130e+00
2.440106898546218872e+01 -2.695392075181007385e+01 1.240073653054423630e+00
2.571723109483718872e+01 -2.796747055649757385e+01 1.274375410866923630e+00
2.560504847764968872e+01 -2.739154282212257385e+01 1.255652876687236130e+00
2.486896449327468872e+01 -2.616021957993507385e+01 1.215018721413798630e+00
2.546002894639968872e+01 -2.635785141587257385e+01 1.222098799538798630e+00
2.527289515733718872e+01 -2.573871079087257385e+01 1.202750655007548630e+00
3.035651332139968872e+01 -3.476153793931007385e+01 1.707663985085673630e+00
2.915241175889968872e+01 -3.281805649399757385e+01 1.633109541726298630e+00
3.173883754014968872e+01 -3.518524399399757385e+01 1.728736372780986130e+00
2.645404750108718872e+01 -2.877545395493507385e+01 1.477210493874736130e+00
2.481806117296218872e+01 -2.653216782212257385e+01 1.390113325905986130e+00
2.512775355577468872e+01 -2.643145981431007385e+01 1.387855025124736130e+00
3.466998988389968872e+01 -3.602350082993507385e+01 1.771277876687236130e+00
2.523395472764968872e+01 -2.569366684556007385e+01 1.361976118874736130e+00
3.107318812608718872e+01 -3.558661118149757385e+01 1.953574629616923630e+00
2.919306117296218872e+01 -3.285809555649757385e+01 1.832984419655986130e+00
3.256427699327468872e+01 -3.610492172837257385e+01 1.984885664773173630e+00
2.645844203233718872e+01 -2.877484360337257385e+01 1.652152510476298630e+00
3.396137171983718872e+01 -3.645099106431007385e+01 2.007590742898173630e+00
2.508307582139968872e+01 -2.637896957993507385e+01 1.549231978249736130e+00
2.553742152452468872e+01 -2.642914047837257385e+01 1.554557295632548630e+00
2.709076625108718872e+01 -2.760614243149757385e+01 1.612082930398173630e+00
3.184027796983718872e+01 -3.646966782212257385e+01 2.212562056374736130e+00
2.915692836046218872e+01 -3.281061020493507385e+01 2.027778120827861130e+00
3.326227504014968872e+01 -3.688116684556007385e+01 2.243796797585673630e+00
2.646283656358718872e+01 -2.877423325181007385e+01 1.828025313210673630e+00
3.216669398546218872e+01 -3.449664536118507385e+01 2.131019087624736130e+00
2.579462367296218872e+01 -2.713324204087257385e+01 1.751304121804423630e+00
2.558930140733718872e+01 -2.647870102524757385e+01 1.721351118874736130e+00
2.711957484483718872e+01 -2.763080063462257385e+01 1.787284346413798630e+00
8.768866837024688721e+00 -8.715761572122573853e+00 -2.080769817112013698e-01
8.840400040149688721e+00 -8.653383642435073853e+00 -2.101216594455763698e-01
8.908149063587188721e+00 -8.586855322122573853e+00 -2.121815959690138698e-01
8.976020157337188721e+00 -8.520082861185073853e+00 -2.142415324924513698e-01
9.043769180774688721e+00 -8.453432470560073853e+00 -2.162862102268263698e-01
9.111762344837188721e+00 -8.386660009622573853e+00 -2.183461467502638698e-01
9.179511368274688721e+00 -8.320009618997573853e+00 -2.203908244846388698e-01
9.243232071399688721e+00 -8.249452978372573853e+00 -2.224355022190138698e-01
9.579413712024688721e+00 -9.553896337747573853e+00 -2.077107707737013698e-01
9.654120743274688721e+00 -9.480776220560073853e+00 -2.099690715549513698e-01
9.728827774524688721e+00 -9.407534033060073853e+00 -2.122273723362013698e-01
9.808661758899688721e+00 -9.338930517435073853e+00 -2.144856731174513698e-01
9.883368790149688721e+00 -9.265688329935073853e+00 -2.167439738987013698e-01
9.953559219837188721e+00 -9.187441259622573853e+00 -2.190175334690138698e-01
1.002838832139968872e+01 -9.114199072122573853e+00 -2.212758342502638698e-01
1.010321742296218872e+01 -9.040956884622573853e+00 -2.235341350315138698e-01
1.057379847764968872e+01 -1.058197250962257385e+01 -2.072530071018263698e-01
1.065717250108718872e+01 -1.050079575181007385e+01 -2.097707072971388698e-01
1.074066859483718872e+01 -1.041961899399757385e+01 -2.122731487033888698e-01
1.082440882921218872e+01 -1.033807602524757385e+01 -2.148061076877638698e-01
1.090790492296218872e+01 -1.025677719712257385e+01 -2.173238078830763698e-01
1.099164515733718872e+01 -1.017511215806007385e+01 -2.198415080783888698e-01
1.107514125108718872e+01 -1.009381332993507385e+01 -2.223592082737013698e-01
1.115875941514968872e+01 -1.001239243149757385e+01 -2.248769084690138698e-01
1.181549769639968872e+01 -1.186566391587257385e+01 -2.066731731174513698e-01
1.191742640733718872e+01 -1.178216782212257385e+01 -2.095113078830763698e-01
1.171796351671218872e+01 -1.139666977524757385e+01 -1.973805705783888698e-01
1.180121546983718872e+01 -1.129852524399757385e+01 -1.996846477268263698e-01
1.216217738389968872e+01 -1.147015610337257385e+01 -2.160573283908888698e-01
1.222833949327468872e+01 -1.135174790024757385e+01 -2.174611369846388698e-01
1.229401332139968872e+01 -1.123419418931007385e+01 -2.188649455783888698e-01
1.235077601671218872e+01 -1.110919418931007385e+01 -2.202077190158888698e-01
1.331195765733718872e+01 -1.341266098618507385e+01 -2.006917278049513698e-01
1.339826136827468872e+01 -1.328790512681007385e+01 -2.029652873752638698e-01
1.164520961046218872e+01 -1.132171860337257385e+01 -1.234517375705763698e-01
1.174518519639968872e+01 -1.124127426743507385e+01 -1.265492717502638698e-01
1.368976527452468872e+01 -1.294781723618507385e+01 -2.112202922580763698e-01
1.379743129014968872e+01 -1.284454575181007385e+01 -2.144398967502638698e-01
1.390485316514968872e+01 -1.274151840806007385e+01 -2.176595012424513698e-01
1.401227504014968872e+01 -1.263836899399757385e+01 -2.208638469455763698e-01
1.550812464952468872e+01 -1.568341293931007385e+01 -2.020192424533888698e-01
1.559931117296218872e+01 -1.552606430649757385e+01 -2.039113322971388698e-01
1.160919886827468872e+01 -1.128351059556007385e+01 -5.150654714088886976e-02
1.172956019639968872e+01 -1.122381821274757385e+01 -5.530598561745136976e-02
1.590180140733718872e+01 -1.508783188462257385e+01 -2.122731487033888698e-01
1.392963343858718872e+01 -1.296808090806007385e+01 -1.368489543674513698e-01
1.401215296983718872e+01 -1.283966293931007385e+01 -1.390919963596388698e-01
1.617060023546218872e+01 -1.462457504868507385e+01 -2.199025432346388698e-01
1.806317836046218872e+01 -1.832452622056007385e+01 -1.850972453830763698e-01
1.880463343858718872e+01 -1.878558579087257385e+01 -2.081380168674513698e-01
1.136090785264968872e+01 -1.103302231431007385e+01 2.625224192161113024e-02
1.185138636827468872e+01 -1.134173813462257385e+01 1.102397043723613024e-02
1.189581996202468872e+01 -1.120599594712257385e+01 9.803267312236130238e-03
1.193622523546218872e+01 -1.106744614243507385e+01 8.704634499736130238e-03
1.201117640733718872e+01 -1.096319809556007385e+01 6.537886452861130238e-03
1.205048304796218872e+01 -1.082672348618507385e+01 5.469771218486130238e-03
1.806500941514968872e+01 -1.832306137681007385e+01 -7.148030202370136976e-02
2.499140101671218872e+01 -2.507782211899757385e+01 -2.447438518283888698e-01
1.124787074327468872e+01 -1.091791000962257385e+01 9.777018625754863024e-02
1.126557093858718872e+01 -1.076312485337257385e+01 9.694621164817363024e-02
1.131354457139968872e+01 -1.064032211899757385e+01 9.537455637473613024e-02
1.136994105577468872e+01 -1.052630844712257385e+01 9.358927805442363024e-02
1.143634730577468872e+01 -1.042303696274757385e+01 9.119364817161113024e-02
1.150458461046218872e+01 -1.032196274399757385e+01 8.911845285911113024e-02
1.806696254014968872e+01 -1.832159653306007385e+01 4.276225168723613024e-02
2.491474086046218872e+01 -2.499530258774757385e+01 -8.448079030495136976e-02
1.122589808702468872e+01 -1.089386215806007385e+01 1.657480915309861302e-01
1.124530726671218872e+01 -1.074115219712257385e+01 1.644510944606736302e-01
1.130011683702468872e+01 -1.062542954087257385e+01 1.625132282497361302e-01
1.135358363389968872e+01 -1.050885239243507385e+01 1.606058796169236302e-01
1.142011195421218872e+01 -1.040594711899757385e+01 1.584696491481736302e-01
1.148761683702468872e+01 -1.030450668931007385e+01 1.563029011012986302e-01
1.806879359483718872e+01 -1.832013168931007385e+01 1.563791950466111302e-01
2.466339808702468872e+01 -2.473492661118507385e+01 7.596537668723613024e-02
1.120941859483718872e+01 -1.087542954087257385e+01 2.333597858669236302e-01
1.123981410264968872e+01 -1.073382797837257385e+01 2.315134723903611302e-01
1.128729945421218872e+01 -1.061114731431007385e+01 2.294687946559861302e-01
1.134332972764968872e+01 -1.049713364243507385e+01 2.273325641872361302e-01
1.140656214952468872e+01 -1.039142075181007385e+01 2.251200397731736302e-01
1.147272425889968872e+01 -1.028900375962257385e+01 2.228769977809861302e-01
1.807062464952468872e+01 -1.831866684556007385e+01 2.705912311794236302e-01
2.467902308702468872e+01 -2.474627915024757385e+01 2.325052936794236302e-01
1.120392543077468872e+01 -1.086798325181007385e+01 3.010325153591111302e-01
1.123712855577468872e+01 -1.072931137681007385e+01 2.988199909450486302e-01
1.128620082139968872e+01 -1.060809555649757385e+01 2.965311725856736302e-01
1.135102015733718872e+01 -1.050250473618507385e+01 2.941660602809861302e-01
1.142365199327468872e+01 -1.040545883774757385e+01 2.917704303981736302e-01
1.148114711046218872e+01 -1.029486313462257385e+01 2.894663532497361302e-01
1.807257777452468872e+01 -1.831720200181007385e+01 3.842081745387986302e-01
2.510394984483718872e+01 -2.517376938462257385e+01 3.889078815700486302e-01
1.120514613389968872e+01 -1.086725082993507385e+01 3.682779987575486302e-01
1.123920375108718872e+01 -1.072931137681007385e+01 3.657297809841111302e-01
1.128852015733718872e+01 -1.060846176743507385e+01 3.632120807887986302e-01
1.134479457139968872e+01 -1.049469223618507385e+01 3.607248981716111302e-01
1.142853480577468872e+01 -1.040814438462257385e+01 3.582529743434861302e-01
1.148676234483718872e+01 -1.029828110337257385e+01 3.557810505153611302e-01
1.787750941514968872e+01 -1.811224594712257385e+01 4.968027790309861302e-01
1.848444300889968872e+01 -1.843927231431007385e+01 4.962839802028611302e-01
1.122309046983718872e+01 -1.088324204087257385e+01 4.356455524684861302e-01
1.125714808702468872e+01 -1.074505844712257385e+01 4.327616413356736302e-01
1.130573207139968872e+01 -1.062323227524757385e+01 4.300150593044236302e-01
1.136054164171218872e+01 -1.050787582993507385e+01 4.273295124294236302e-01
1.142414027452468872e+01 -1.040228500962257385e+01 4.250712116481736302e-01
1.149677211046218872e+01 -1.030560532212257385e+01 4.225229938747361302e-01
1.795294886827468872e+01 -1.818683090806007385e+01 6.102060993434861302e-01
1.855170375108718872e+01 -1.850421372056007385e+01 6.125712116481736302e-01
1.127484828233718872e+01 -1.093292465806007385e+01 5.040507038356736302e-01
1.130524379014968872e+01 -1.079046860337257385e+01 5.007700641872361302e-01
1.135602504014968872e+01 -1.066998520493507385e+01 4.978098591091111302e-01
1.141242152452468872e+01 -1.055536118149757385e+01 4.949412067653611302e-01
1.147479945421218872e+01 -1.044781723618507385e+01 4.921641071559861302e-01
1.154096156358718872e+01 -1.034430161118507385e+01 4.894480427028611302e-01
2.549603968858718872e+01 -2.597748032212257385e+01 8.848337848903611302e-01
2.470966273546218872e+01 -2.475897446274757385e+01 8.571696003200486302e-01
1.131012660264968872e+01 -1.096624985337257385e+01 5.724253376247361302e-01
1.132086879014968872e+01 -1.080389633774757385e+01 5.683817585231736302e-01
1.137091761827468872e+01 -1.068243637681007385e+01 5.651774128200486302e-01
1.142755824327468872e+01 -1.056793442368507385e+01 5.621256550075486302e-01
1.148981410264968872e+01 -1.045990219712257385e+01 5.591959675075486302e-01
1.155585414171218872e+01 -1.035626450181007385e+01 5.567240436794236302e-01
2.540680629014968872e+01 -2.588043442368507385e+01 1.044715376687236130e+00
2.652130824327468872e+01 -2.659503403306007385e+01 1.063712569070048630e+00
1.134711390733718872e+01 -1.100128403306007385e+01 6.416544636012986302e-01
1.135443812608718872e+01 -1.083490219712257385e+01 6.370157917262986302e-01
1.139166957139968872e+01 -1.070062485337257385e+01 6.332316120387986302e-01
1.144721156358718872e+01 -1.058465805649757385e+01 6.299509723903611302e-01
1.150934535264968872e+01 -1.047625961899757385e+01 6.268839557887986302e-01
1.157538539171218872e+01 -1.037237778306007385e+01 6.239390094997361302e-01
2.527301722764968872e+01 -2.573749008774757385e+01 1.202704878640361130e+00
2.541803675889968872e+01 -2.546930161118507385e+01 1.193870039773173630e+00
1.138788539171218872e+01 -1.103998032212257385e+01 7.110972126247361302e-01
1.135712367296218872e+01 -1.083551254868507385e+01 7.046732624294236302e-01
1.140058070421218872e+01 -1.070721665024757385e+01 7.007975300075486302e-01
1.145563441514968872e+01 -1.059076157212257385e+01 6.973032673122361302e-01
1.151459437608718872e+01 -1.047943344712257385e+01 6.939921100856736302e-01
1.157941371202468872e+01 -1.037420883774757385e+01 6.912455280544236302e-01
2.523407679796218872e+01 -2.569244614243507385e+01 1.361930342507548630e+00
2.617951136827468872e+01 -2.623797836899757385e+01 1.386069746804423630e+00
2.626178675889968872e+01 -2.589654770493507385e+01 1.374839278054423630e+00
1.136188441514968872e+01 -1.083832016587257385e+01 7.728037555934861302e-01
1.140424281358718872e+01 -1.070892563462257385e+01 7.686075886012986302e-01
1.145978480577468872e+01 -1.059271469712257385e+01 7.649454792262986302e-01
1.152008754014968872e+01 -1.048260727524757385e+01 7.615122516872361302e-01
