6.952084034681320190e+00 -1.099237579107284546e+01 -1.430813993792980909e-01
7.044369190931320190e+00 -1.095538848638534546e+01 -1.456143583636730909e-01
7.136532276868820190e+00 -1.091840118169784546e+01 -1.481473173480480909e-01
7.221615284681320190e+00 -1.086932891607284546e+01 -1.503751005511730909e-01
8.763363331556320190e+00 -1.524457305669784546e+01 -2.529446806292980909e-01
6.155086964368820190e+00 -1.013507598638534546e+01 -4.028293746523559093e-02
7.638851612806320190e+00 -1.264191192388534546e+01 -1.519925321917980909e-01
7.713802784681320190e+00 -1.254437774419784546e+01 -1.520993437152355909e-01
7.786068409681320190e+00 -1.244452422857284546e+01 -1.523892607074230909e-01
7.551815479993820190e+00 -1.182135528326034546e+01 -1.298215116839855909e-01
7.668514698743820190e+00 -1.180927032232284546e+01 -1.337430204730480909e-01
7.786068409681320190e+00 -1.179706329107284546e+01 -1.377103056292980909e-01
9.521053761243820190e+00 -1.667023223638534546e+01 -2.303311552386730909e-01
6.155819386243820190e+00 -1.013446563482284546e+01 8.896139683201909065e-03
9.855038136243820190e+00 -1.665668243169784546e+01 -2.413632597308605909e-01
1.002471587061882019e+01 -1.664972442388534546e+01 -2.469632353167980909e-01
1.019537016749382019e+01 -1.664276641607284546e+01 -2.526089872699230909e-01
1.048443266749382019e+01 -1.683490508794784546e+01 -2.660672392230480909e-01
1.094707915186882019e+01 -1.730914825201034546e+01 -2.908169950824230909e-01
8.946835011243820190e+00 -1.370648711919784546e+01 -1.540372099261730909e-01
1.019085356593132019e+01 -1.792975372076034546e+01 -1.880185331683605909e-01
6.156673878431320190e+00 -1.013385528326034546e+01 5.807521683163940907e-02
1.064349028468132019e+01 -1.808209747076034546e+01 -2.041318144183605909e-01
1.084234282374382019e+01 -1.809943145513534546e+01 -2.106625761371105909e-01
1.104290434718132019e+01 -1.811676543951034546e+01 -2.172543730121105909e-01
1.124639555811882019e+01 -1.813446563482284546e+01 -2.239377226214855909e-01
1.141924712061882019e+01 -1.809796661138534546e+01 -2.288357939105480909e-01
1.158050200343132019e+01 -1.804095977544784546e+01 -2.335507597308605909e-01
1.073577544093132019e+01 -1.895331329107284546e+01 -1.258084501605480909e-01
6.157406300306320190e+00 -1.013324493169784546e+01 1.069796357769519091e-01
1.123345610499382019e+01 -1.914740508794784546e+01 -1.425473417621105909e-01
1.151922270655632019e+01 -1.929840606451034546e+01 -1.526028837542980909e-01
1.179681059718132019e+01 -1.942706817388534546e+01 -1.621701444964855909e-01
1.206072661280632019e+01 -1.952289336919784546e+01 -1.709744657855480909e-01
1.229986235499382019e+01 -1.957172149419784546e+01 -1.785275663714855909e-01
1.252801176905632019e+01 -1.959711211919784546e+01 -1.854855741839855909e-01
1.126739165186882019e+01 -1.995136016607284546e+01 -5.291721480898559093e-02
6.158138722181320190e+00 -1.013263458013534546e+01 1.561587129253894091e-01
1.177044340968132019e+01 -2.011627715826034546e+01 -6.713840621523559093e-02
1.204949614405632019e+01 -2.023639434576034546e+01 -7.554599898867309093e-02
1.237688872218132019e+01 -2.043378204107284546e+01 -8.579990523867309093e-02
1.267339751124382019e+01 -2.056622833013534546e+01 -9.475681441836059093e-02
1.297564360499382019e+01 -2.070136016607284546e+01 -1.038815702777355909e-01
1.328179594874382019e+01 -2.083405059576034546e+01 -1.136777128558605909e-01
1.166802641749382019e+01 -2.070197051763534546e+01 3.494289261288940907e-02
6.158993214368820190e+00 -1.013202422857284546e+01 2.050631318707019091e-01
1.228277251124382019e+01 -2.103973907232284546e+01 1.866176468320190907e-02
1.255608794093132019e+01 -2.113178008794784546e+01 1.161220413632690907e-02
1.283257719874382019e+01 -2.122345489263534546e+01 4.471090855076909065e-03
1.316253325343132019e+01 -2.139813750982284546e+01 -4.241677699610590935e-03
1.350408598780632019e+01 -2.158319610357284546e+01 -1.327488082461059093e-02
1.384978911280632019e+01 -2.176459258794784546e+01 -2.241489547304809093e-02
1.208147856593132019e+01 -2.147638458013534546e+01 1.297915254253894091e-01
6.159725636243820190e+00 -1.013141387701034546e+01 2.539675508160144091e-01
1.269317290186882019e+01 -2.177863067388534546e+01 1.168825898785144091e-01
1.301482817530632019e+01 -2.194220489263534546e+01 1.097872529644519091e-01
1.333221098780632019e+01 -2.208942168951034546e+01 1.027834687847644091e-01
1.365020415186882019e+01 -2.222687286138534546e+01 9.576442581601440907e-02
1.379217192530632019e+01 -2.206195586919784546e+01 9.182765823788940907e-02
1.393401762843132019e+01 -2.189874786138534546e+01 8.851650101132690907e-02
1.246990630030632019e+01 -2.220355743169784546e+01 2.335818086285144091e-01
6.160458058118820190e+00 -1.013068145513534546e+01 3.031313691753894091e-01
1.310552641749382019e+01 -2.252069610357284546e+01 2.222597871441394091e-01
1.342962309718132019e+01 -2.267389434576034546e+01 2.164614473003894091e-01
1.376812407374382019e+01 -2.284393829107284546e+01 2.104342256207019091e-01
1.397149321436882019e+01 -2.277130645513534546e+01 2.059939180035144091e-01
1.375957915186882019e+01 -2.200275176763534546e+01 2.065890107769519091e-01
1.371368071436882019e+01 -2.153204864263534546e+01 2.052614961285144091e-01
1.268548247218132019e+01 -2.260468047857284546e+01 3.445742402691394091e-01
6.161312550306320190e+00 -1.013007110357284546e+01 3.520510469097644091e-01
1.333147856593132019e+01 -2.292487090826034546e+01 3.358156953472644091e-01
1.371050688624382019e+01 -2.316779083013534546e+01 3.311465058941394091e-01
1.382439848780632019e+01 -2.293720000982284546e+01 3.270876680035144091e-01
1.361162993311882019e+01 -2.215216583013534546e+01 3.240206514019519091e-01
1.372161528468132019e+01 -2.193463653326034546e+01 3.201449189800769091e-01
1.368218657374382019e+01 -2.147601836919784546e+01 3.168185029644519091e-01
1.272393462061882019e+01 -2.267242950201034546e+01 4.588778291363269091e-01
6.162044972181320190e+00 -1.012946075201034546e+01 4.012148652691394091e-01
1.344817778468132019e+01 -2.313129180669784546e+01 4.534151826519519091e-01
1.324297758936882019e+01 -2.233331817388534546e+01 4.464266572613269091e-01
1.383807036280632019e+01 -2.295624297857284546e+01 4.450838838238269091e-01
1.361468169093132019e+01 -2.215277618169784546e+01 4.383089814800769091e-01
1.370061919093132019e+01 -2.189520782232284546e+01 4.336703096050769091e-01
1.394341704249382019e+01 -2.190131133794784546e+01 4.299624238628894091e-01
1.335711333155632019e+01 -2.385931915044784546e+01 5.840914521832019091e-01
6.162777394056320190e+00 -1.012885040044784546e+01 4.501192842144519091e-01
1.343829008936882019e+01 -2.310858672857284546e+01 5.704195771832019091e-01
1.473772856593132019e+01 -2.498053497076034546e+01 5.844271455425769091e-01
1.473199126124382019e+01 -2.450726836919784546e+01 5.765688691753894091e-01
1.359722563624382019e+01 -2.211847442388534546e+01 5.517123017925769091e-01
1.370367094874382019e+01 -2.189581817388534546e+01 5.465548310894519091e-01
1.473687407374382019e+01 -2.320123809576034546e+01 5.546267305035144091e-01
1.352215239405632019e+01 -2.416473907232284546e+01 7.091982637066394091e-01
6.163631886243820190e+00 -1.012824004888534546e+01 4.992831025738269091e-01
1.432452055811882019e+01 -2.470685333013534546e+01 7.108919892925769091e-01
1.404961821436882019e+01 -2.375494903326034546e+01 6.941988740582019091e-01
1.342718169093132019e+01 -2.223212188482284546e+01 6.695101533550769091e-01
1.347381255030632019e+01 -2.190350860357284546e+01 6.621706758160144091e-01
1.370660063624382019e+01 -2.189642852544784546e+01 6.600497041363269091e-01
1.393975493311882019e+01 -2.188641875982284546e+01 6.572573457378894091e-01
5.889339894056320190e+00 -9.798772275447845459e+00 5.424654756207019091e-01
6.068539112806320190e+00 -9.950993955135345459e+00 5.446474824566394091e-01
6.255794972181320190e+00 -1.010992950201034546e+01 5.469363008160144091e-01
6.441097706556320190e+00 -1.025714629888534546e+01 5.489504609722644091e-01
6.631771534681320190e+00 -1.040717071294784546e+01 5.509798799175769091e-01
6.831234425306320190e+00 -1.056390899419784546e+01 5.531008515972644091e-01
7.038509815931320190e+00 -1.072687286138534546e+01 5.552981172222644091e-01
7.254940479993820190e+00 -1.089691680669784546e+01 5.576021943707019091e-01
5.836971729993820190e+00 -9.698308408260345459e+00 5.871584687847644091e-01
6.013363331556320190e+00 -9.847234189510345459e+00 5.900423799175769091e-01
6.201595753431320190e+00 -1.001007598638534546e+01 5.934908662457019091e-01
6.399227589368820190e+00 -1.018085235357284546e+01 5.970919404644519091e-01
6.597469776868820190e+00 -1.034528106451034546e+01 6.005251680035144091e-01
6.805477589368820190e+00 -1.051788848638534546e+01 6.041262422222644091e-01
7.022518604993820190e+00 -1.069782012701034546e+01 6.078646455425769091e-01
7.250179737806320190e+00 -1.088702911138534546e+01 6.121065889019519091e-01
5.875423878431320190e+00 -9.768620908260345459e+00 6.357729707378894091e-01
6.064022511243820190e+00 -9.938664853572845459e+00 6.405337129253894091e-01
6.261898487806320190e+00 -1.011688750982284546e+01 6.455233369488269091e-01
6.456966847181320190e+00 -1.028119415044784546e+01 6.500704560894519091e-01
6.658627003431320190e+00 -1.044965118169784546e+01 6.547243867535144091e-01
6.870418995618820190e+00 -1.062653106451034546e+01 6.596071992535144091e-01
7.083431690931320190e+00 -1.079779571294784546e+01 6.643069062847644091e-01
7.299618214368820190e+00 -1.096613067388534546e+01 6.688998017925769091e-01
5.893856495618820190e+00 -9.801335752010345459e+00 6.840212617535144091e-01
6.071102589368820190e+00 -9.949651181697845459e+00 6.888735566753894091e-01
6.255794972181320190e+00 -1.010407012701034546e+01 6.941683564800769091e-01
6.439022511243820190e+00 -1.024750274419784546e+01 6.990664277691394091e-01
6.627254933118820190e+00 -1.039301055669784546e+01 7.040407930035144091e-01
6.823910206556320190e+00 -1.054511016607284546e+01 7.092287812847644091e-01
7.028011769056320190e+00 -1.070306915044784546e+01 7.146151338238269091e-01
7.240658253431320190e+00 -1.086725372076034546e+01 7.205202851910144091e-01
5.851253956556320190e+00 -9.719304502010345459e+00 7.276919160503894091e-01
6.025814503431320190e+00 -9.864079892635345459e+00 7.336275849957019091e-01
6.207821339368820190e+00 -1.001520293951034546e+01 7.398379121441394091e-01
6.406673878431320190e+00 -1.018793243169784546e+01 7.469332490582019091e-01
6.611141651868820190e+00 -1.036285918951034546e+01 7.541048799175769091e-01
6.826107472181320190e+00 -1.054681915044784546e+01 7.616579805035144091e-01
7.050838917493820190e+00 -1.073920196294784546e+01 7.695620332378894091e-01
7.286922901868820190e+00 -1.094110625982284546e+01 7.778475556988269091e-01
5.878841847181320190e+00 -9.769109189510345459e+00 7.768252168316394091e-01
6.073788136243820190e+00 -9.950627744197845459e+00 7.854464326519519091e-01
6.278744190931320190e+00 -1.014142364263534546e+01 7.944948945660144091e-01
6.478573292493820190e+00 -1.031329864263534546e+01 8.024294648785144091e-01
6.687435597181320190e+00 -1.049359649419784546e+01 8.110354219097644091e-01
1.429620024561882019e+01 -2.327850860357284546e+01 1.402786520542576909e+00
1.438616606593132019e+01 -2.300665801763534546e+01 1.390854147495701909e+00
1.451873442530632019e+01 -2.281073516607284546e+01 1.382416037144139409e+00
1.364080473780632019e+01 -2.435162872076034546e+01 1.572342184605076909e+00
1.367693755030632019e+01 -2.395331329107284546e+01 1.552459982456639409e+00
1.387298247218132019e+01 -2.385492461919784546e+01 1.548599508823826909e+00
1.446844145655632019e+01 -2.446222442388534546e+01 1.581070211948826909e+00
1.399273344874382019e+01 -2.318268340826034546e+01 1.516418722691014409e+00
1.428326079249382019e+01 -2.325189727544784546e+01 1.521194723667576909e+00
1.485479399561882019e+01 -2.378583282232284546e+01 1.549972799839451909e+00
1.462493559718132019e+01 -2.298041290044784546e+01 1.510254171909764409e+00
7.221981495618820190e+00 -1.086920684576034546e+01 -1.503751005511730909e-01
7.308895558118820190e+00 -1.082306426763534546e+01 -1.524197782855480909e-01
7.392757862806320190e+00 -1.077167266607284546e+01 -1.544949735980480909e-01
7.476742237806320190e+00 -1.072003692388534546e+01 -1.565549101214855909e-01
7.560604542493820190e+00 -1.066852325201034546e+01 -1.586301054339855909e-01
7.644833058118820190e+00 -1.061676543951034546e+01 -1.607053007464855909e-01
7.728695362806320190e+00 -1.056525176763534546e+01 -1.627652372699230909e-01
7.809139698743820190e+00 -1.050873321294784546e+01 -1.648556913714855909e-01
7.786556690931320190e+00 -1.179718536138534546e+01 -1.377255644183605909e-01
7.902401417493820190e+00 -1.178058379888534546e+01 -1.417691435199230909e-01
8.019100636243820190e+00 -1.176386016607284546e+01 -1.458432401996105909e-01
8.140682667493820190e+00 -1.175262969732284546e+01 -1.499020780902355909e-01
8.247005909681320190e+00 -1.171698516607284546e+01 -1.531522001605480909e-01
8.336117237806320190e+00 -1.165387481451034546e+01 -1.554715360980480909e-01
8.429012745618820190e+00 -1.159711211919784546e+01 -1.577603544574230909e-01
8.521908253431320190e+00 -1.154034942388534546e+01 -1.600491728167980909e-01
8.946835011243820190e+00 -1.370575469732284546e+01 -1.540219511371105909e-01
9.005550831556320190e+00 -1.356158965826034546e+01 -1.534878935199230909e-01
9.063534229993820190e+00 -1.341925567388534546e+01 -1.529690946917980909e-01
9.121151417493820190e+00 -1.327789825201034546e+01 -1.524502958636730909e-01
8.363705128431320190e+00 -1.189313262701034546e+01 -1.004025663714855909e-01
9.234066456556320190e+00 -1.300079864263534546e+01 -1.514279569964855909e-01
9.289486378431320190e+00 -1.286481231451034546e+01 -1.509396757464855909e-01
9.419002979993820190e+00 -1.283868926763534546e+01 -1.550595487933605909e-01
1.158123442530632019e+01 -1.804083770513534546e+01 -2.335660185199230909e-01
1.174786040186882019e+01 -1.799127715826034546e+01 -2.378689970355480909e-01
1.191192290186882019e+01 -1.793585723638534546e+01 -2.424924101214855909e-01
1.207720610499382019e+01 -1.788019317388534546e+01 -2.471615995746105909e-01
8.364681690931320190e+00 -1.189240020513534546e+01 -3.904697555117309093e-02
1.232098051905632019e+01 -1.763544219732284546e+01 -2.517087187152355909e-01
1.052752348780632019e+01 -1.468903106451034546e+01 -1.504056181292980909e-01
1.057806059718132019e+01 -1.451642364263534546e+01 -1.500241484027355909e-01
1.252886626124382019e+01 -1.959747833013534546e+01 -1.855160917621105909e-01
1.285271880030632019e+01 -1.977313750982284546e+01 -1.972348417621105909e-01
1.314007231593132019e+01 -1.988080352544784546e+01 -2.071225370746105909e-01
1.339825102686882019e+01 -1.993427032232284546e+01 -2.155759062152355909e-01
8.365658253431320190e+00 -1.189166778326034546e+01 2.200343948788940907e-02
1.389703032374382019e+01 -1.999921172857284546e+01 -2.314755644183605909e-01
1.417120024561882019e+01 -2.006171172857284546e+01 -2.404935087542980909e-01
1.447283598780632019e+01 -2.015790313482284546e+01 -2.507016386371105909e-01
1.328350493311882019e+01 -2.083551543951034546e+01 -1.137387480121105909e-01
1.358135649561882019e+01 -2.094635528326034546e+01 -1.222378935199230909e-01
1.388152739405632019e+01 -2.105267852544784546e+01 -1.313473905902355909e-01
1.418914458155632019e+01 -2.116180938482284546e+01 -1.406857694964855909e-01
8.366634815931320190e+00 -1.189093536138534546e+01 8.335903030820190907e-02
1.473699614405632019e+01 -2.125678008794784546e+01 -1.566617216449230909e-01
1.508001372218132019e+01 -2.139825958013534546e+01 -1.671902860980480909e-01
1.544720122218132019e+01 -2.156598418951034546e+01 -1.791989530902355909e-01
1.385174223780632019e+01 -2.176654571294784546e+01 -2.246067184023559093e-02
1.413702055811882019e+01 -2.183966583013534546e+01 -2.995273726992309093e-02
1.453045317530632019e+01 -2.207770293951034546e+01 -4.063388961367309093e-02
1.485088774561882019e+01 -2.218793243169784546e+01 -4.911777633242309093e-02
8.367611378431320190e+00 -1.189020293951034546e+01 1.443941865582019091e-01
1.548821684718132019e+01 -2.238043731451034546e+01 -6.590244430117309093e-02
1.581341215968132019e+01 -2.247565215826034546e+01 -7.446262496523559093e-02
1.620562407374382019e+01 -2.266058868169784546e+01 -8.497593062929809093e-02
1.393450590968132019e+01 -2.189838165044784546e+01 8.850124222226440907e-02
1.411053130030632019e+01 -2.179266875982284546e+01 8.433559280820190907e-02
1.430950590968132019e+01 -2.172308868169784546e+01 8.027675491757690907e-02
1.539947172999382019e+01 -2.303754180669784546e+01 5.670192581601440907e-02
8.368587940931320190e+00 -1.188947051763534546e+01 2.057650361675769091e-01
1.583697172999382019e+01 -2.289972442388534546e+01 4.647853714413940907e-02
1.586248442530632019e+01 -2.254376739263534546e+01 4.483058792538940907e-02
1.621661040186882019e+01 -2.267218536138534546e+01 3.681972366757690907e-02
1.371538969874382019e+01 -2.153351348638534546e+01 2.052309785503894091e-01
1.517498442530632019e+01 -2.350702422857284546e+01 1.851351533550769091e-01
1.515581938624382019e+01 -2.306024688482284546e+01 1.833040986675769091e-01
1.535943266749382019e+01 -2.297076934576034546e+01 1.786654267925769091e-01
8.369564503431320190e+00 -1.188873809576034546e+01 2.668001924175769091e-01
1.566802641749382019e+01 -2.264166778326034546e+01 1.707003389019519091e-01
1.581438872218132019e+01 -2.246845000982284546e+01 1.668246064800769091e-01
1.620550200343132019e+01 -2.265179961919784546e+01 1.597140107769519091e-01
1.368389555811882019e+01 -2.147748321294784546e+01 3.168032441753894091e-01
1.405779692530632019e+01 -2.169891875982284546e+01 3.120272431988269091e-01
1.424126860499382019e+01 -2.160651153326034546e+01 3.078921113628894091e-01
1.534112212061882019e+01 -2.293768829107284546e+01 2.998354707378894091e-01
8.370418995618820190e+00 -1.188800567388534546e+01 3.278353486675769091e-01
1.562749907374382019e+01 -2.257648223638534546e+01 2.914889131207019091e-01
1.667925688624382019e+01 -2.373883575201034546e+01 2.827914033550769091e-01
1.674419829249382019e+01 -2.342755645513534546e+01 2.788698945660144091e-01
1.394341704249382019e+01 -2.189996856451034546e+01 4.299319062847644091e-01
1.620342680811882019e+01 -2.515741485357284546e+01 4.362643037457019091e-01
1.421087309718132019e+01 -2.155402129888534546e+01 4.214022431988269091e-01
1.527984282374382019e+01 -2.283795684576034546e+01 4.211275849957019091e-01
8.371395558118820190e+00 -1.188715118169784546e+01 3.891909394878894091e-01
1.558697172999382019e+01 -2.251129668951034546e+01 4.122011933941394091e-01
1.668243071436882019e+01 -2.373907989263534546e+01 4.108126435894519091e-01
1.617583891749382019e+01 -2.260040801763534546e+01 4.041903291363269091e-01
1.473894926905632019e+01 -2.320331329107284546e+01 5.546267305035144091e-01
1.442852446436882019e+01 -2.228851836919784546e+01 5.435335908550769091e-01
1.418450590968132019e+01 -2.150800079107284546e+01 5.337832246441394091e-01
1.484966704249382019e+01 -2.216449493169784546e+01 5.359957490582019091e-01
8.372372120618820190e+00 -1.188641875982284546e+01 4.502260957378894091e-01
1.553753325343132019e+01 -2.243304961919784546e+01 5.314791474957019091e-01
1.586297270655632019e+01 -2.252728790044784546e+01 5.288088594097644091e-01
1.937041899561882019e+01 -2.721930450201034546e+01 5.607912812847644091e-01
1.393938872218132019e+01 -2.188458770513534546e+01 6.572268281597644091e-01
1.396368071436882019e+01 -2.153412383794784546e+01 6.498110566753894091e-01
7.800838917493820190e+00 -1.139374297857284546e+01 5.072329316753894091e-01
8.054989308118820190e+00 -1.159503692388534546e+01 5.086672578472644091e-01
8.320980519056320190e+00 -1.180560821294784546e+01 5.101626191753894091e-01
8.587215870618820190e+00 -1.200641387701034546e+01 5.114596162457019091e-01
8.854671925306320190e+00 -1.220050567388534546e+01 5.129397187847644091e-01
9.135067433118820190e+00 -1.240424102544784546e+01 5.141604219097644091e-01
7.256161183118820190e+00 -1.089825958013534546e+01 5.576327119488269091e-01
7.482235401868820190e+00 -1.107587188482284546e+01 5.601198945660144091e-01
7.718929737806320190e+00 -1.126190704107284546e+01 5.627444062847644091e-01
7.967953175306320190e+00 -1.145746368169784546e+01 5.654909883160144091e-01
8.228329151868820190e+00 -1.166193145513534546e+01 5.683596406597644091e-01
8.502743214368820190e+00 -1.187750762701034546e+01 5.713961396832019091e-01
8.762508839368820190e+00 -1.206256622076034546e+01 5.738070283550769091e-01
9.045223683118820190e+00 -1.227191680669784546e+01 5.766146455425769091e-01
7.251522511243820190e+00 -1.088849395513534546e+01 6.121371064800769091e-01
7.489925831556320190e+00 -1.108612579107284546e+01 6.160891328472644091e-01
7.740902394056320190e+00 -1.129449981451034546e+01 6.205599580425769091e-01
8.006039112806320190e+00 -1.151447051763534546e+01 6.252749238628894091e-01
8.284603565931320190e+00 -1.174567168951034546e+01 6.302340303082019091e-01
8.567196339368820190e+00 -1.197211211919784546e+01 6.350405488628894091e-01
8.847958058118820190e+00 -1.218610137701034546e+01 6.395113740582019091e-01
9.143368214368820190e+00 -1.241168731451034546e+01 6.445620332378894091e-01
7.300838917493820190e+00 -1.096747344732284546e+01 6.689455781597644091e-01
7.526546925306320190e+00 -1.114313262701034546e+01 6.738741670269519091e-01
7.762752979993820190e+00 -1.132684844732284546e+01 6.790468965191394091e-01
8.011043995618820190e+00 -1.151996368169784546e+01 6.844637666363269091e-01
8.270321339368820190e+00 -1.172186797857284546e+01 6.901400361675769091e-01
8.538876026868820190e+00 -1.192743438482284546e+01 6.959078584332019091e-01
8.798031300306320190e+00 -1.211041778326034546e+01 7.009737764019519091e-01
9.071712940931320190e+00 -1.230573028326034546e+01 7.063906465191394091e-01
7.241878956556320190e+00 -1.086859649419784546e+01 7.205660615582019091e-01
7.464413136243820190e+00 -1.104083770513534546e+01 7.263338838238269091e-01
7.696835011243820190e+00 -1.122040313482284546e+01 7.326357637066394091e-01
7.967464894056320190e+00 -1.145013946294784546e+01 7.407381806988269091e-01
8.252377003431320190e+00 -1.169220489263534546e+01 7.492525849957019091e-01
8.545589894056320190e+00 -1.193512481451034546e+01 7.577975068707019091e-01
8.832577198743820190e+00 -1.215887969732284546e+01 7.656710420269519091e-01
9.135433644056320190e+00 -1.239569610357284546e+01 7.743532930035144091e-01
7.288265675306320190e+00 -1.094269317388534546e+01 7.779238496441394091e-01
7.537044972181320190e+00 -1.115582793951034546e+01 7.868655000347644091e-01
7.799374073743820190e+00 -1.138043731451034546e+01 7.963106904644519091e-01
1.501897856593132019e+01 -2.240167754888534546e+01 1.248123434605076909e+00
1.510223051905632019e+01 -2.213873809576034546e+01 1.237854269566014409e+00
1.529241606593132019e+01 -2.203998321294784546e+01 1.234314230503514409e+00
1.540716215968132019e+01 -2.183099883794784546e+01 1.226242331089451909e+00
1.571368071436882019e+01 -2.190240997076034546e+01 1.229690817417576909e+00
1.451849028468132019e+01 -2.280902618169784546e+01 1.382339743198826909e+00
1.457879301905632019e+01 -2.249982208013534546e+01 1.369140890659764409e+00
1.462286040186882019e+01 -2.217194122076034546e+01 1.355057028355076909e+00
1.481292387843132019e+01 -2.207721465826034546e+01 1.351166037144139409e+00
1.504058501124382019e+01 -2.204047149419784546e+01 1.350586203159764409e+00
1.503802153468132019e+01 -2.165472930669784546e+01 1.334396627964451909e+00
1.544390532374382019e+01 -2.188080352544784546e+01 1.346069601597264409e+00
2.072503325343132019e+01 -2.914069122076034546e+01 1.686065939487889409e+00
1.462542387843132019e+01 -2.297992461919784546e+01 1.510238913120701909e+00
1.480328032374382019e+01 -2.285699981451034546e+01 1.505005148472264409e+00
1.462945219874382019e+01 -2.217804473638534546e+01 1.471603659214451909e+00
1.478533598780632019e+01 -2.203021758794784546e+01 1.465683249058201909e+00
1.499517485499382019e+01 -2.196698516607284546e+01 1.464157370151951909e+00
1.525408598780632019e+01 -2.197406524419784546e+01 1.466308859409764409e+00
1.548077055811882019e+01 -2.193097442388534546e+01 1.465851095737889409e+00
2.074871489405632019e+01 -2.916937774419784546e+01 1.846679953159764409e+00
7.809627979993820190e+00 -1.050873321294784546e+01 -1.648862089496105909e-01
7.894100636243820190e+00 -1.045782989263534546e+01 -1.669461454730480909e-01
7.975155323743820190e+00 -1.040192168951034546e+01 -1.690365995746105909e-01
8.056454151868820190e+00 -1.034576934576034546e+01 -1.711270536761730909e-01
8.137630909681320190e+00 -1.028986114263534546e+01 -1.732327665667980909e-01
8.219051808118820190e+00 -1.023358672857284546e+01 -1.753232206683605909e-01
8.300350636243820190e+00 -1.017755645513534546e+01 -1.774136747699230909e-01
8.377865284681320190e+00 -1.011676543951034546e+01 -1.795346464496105909e-01
8.522274464368820190e+00 -1.154022735357284546e+01 -1.600491728167980909e-01
8.611996144056320190e+00 -1.147870391607284546e+01 -1.623685087542980909e-01
8.701839894056320190e+00 -1.141718047857284546e+01 -1.646725859027355909e-01
8.796322315931320190e+00 -1.136151641607284546e+01 -1.669766630511730909e-01
8.886288136243820190e+00 -1.129987090826034546e+01 -1.692807401996105909e-01
8.972103565931320190e+00 -1.123212188482284546e+01 -1.716305937152355909e-01
9.062191456556320190e+00 -1.117059844732284546e+01 -1.739499296527355909e-01
9.152157276868820190e+00 -1.110895293951034546e+01 -1.762540068011730909e-01
9.419369190931320190e+00 -1.283856719732284546e+01 -1.550748075824230909e-01
9.525204151868820190e+00 -1.277716583013534546e+01 -1.579587187152355909e-01
9.631161183118820190e+00 -1.271564239263534546e+01 -1.608578886371105909e-01
9.737728565931320190e+00 -1.265387481451034546e+01 -1.637723173480480909e-01
9.844051808118820190e+00 -1.259210723638534546e+01 -1.666714872699230909e-01
9.950985401868820190e+00 -1.253009551763534546e+01 -1.696011747699230909e-01
1.005779692530632019e+01 -1.246820586919784546e+01 -1.725156034808605909e-01
1.016473051905632019e+01 -1.240619415044784546e+01 -1.754300321917980909e-01
1.057842680811882019e+01 -1.451605743169784546e+01 -1.500241484027355909e-01
1.063763090968132019e+01 -1.435895293951034546e+01 -1.495663847308605909e-01
1.070464751124382019e+01 -1.421527618169784546e+01 -1.499631132464855909e-01
1.084759184718132019e+01 -1.417755645513534546e+01 -1.543881620746105909e-01
1.060100981593132019e+01 -1.361249297857284546e+01 -1.383816923480480909e-01
1.113604399561882019e+01 -1.410138458013534546e+01 -1.633145536761730909e-01
1.128142973780632019e+01 -1.406305450201034546e+01 -1.678158964496105909e-01
1.139751860499382019e+01 -1.398566192388534546e+01 -1.712033476214855909e-01
1.447405669093132019e+01 -2.015851348638534546e+01 -2.507474150042980909e-01
1.470916411280632019e+01 -2.015302032232284546e+01 -2.581631864886730909e-01
1.488689848780632019e+01 -2.006317657232284546e+01 -2.629391874652355909e-01
1.506573149561882019e+01 -1.997296661138534546e+01 -2.677457060199230909e-01
1.060210844874382019e+01 -1.361163848638534546e+01 -6.501743453554809093e-02
1.260076567530632019e+01 -1.604340118169784546e+01 -1.517941679339855909e-01
1.271795317530632019e+01 -1.593500274419784546e+01 -1.544644560199230909e-01
1.283697172999382019e+01 -1.582965606451034546e+01 -1.572415556292980909e-01
1.544854399561882019e+01 -2.156671661138534546e+01 -1.792447294574230909e-01
1.578802153468132019e+01 -2.168475860357284546e+01 -1.891629423480480909e-01
1.612933012843132019e+01 -2.179706329107284546e+01 -1.997372831683605909e-01
1.644610258936882019e+01 -2.186615508794784546e+01 -2.093350614886730909e-01
1.060332915186882019e+01 -1.361078399419784546e+01 8.758810581639409065e-03
1.703130766749382019e+01 -2.192120879888534546e+01 -2.266232694964855909e-01
1.732806059718132019e+01 -2.194672149419784546e+01 -2.353818144183605909e-01
1.760711333155632019e+01 -2.194440215826034546e+01 -2.441251005511730909e-01
1.620782133936882019e+01 -2.266241973638534546e+01 -8.503696578554809093e-02
1.617754790186882019e+01 -2.223517364263534546e+01 -8.331272262148559093e-02
1.694683501124382019e+01 -2.293610137701034546e+01 -1.050717558246105909e-01
1.682037016749382019e+01 -2.237628692388534546e+01 -1.005246366839855909e-01
1.060442778468132019e+01 -1.360980743169784546e+01 8.212306839413940907e-02
1.806097075343132019e+01 -2.328363555669784546e+01 -1.351315702777355909e-01
1.840594145655632019e+01 -2.334869903326034546e+01 -1.443478788714855909e-01
1.872564360499382019e+01 -2.337445586919784546e+01 -1.528165068011730909e-01
1.621722075343132019e+01 -2.267169708013534546e+01 3.680446487851440907e-02
1.638579985499382019e+01 -2.252728790044784546e+01 3.262355667538940907e-02
1.629046294093132019e+01 -2.201434844732284546e+01 3.472926956601440907e-02
1.802666899561882019e+01 -2.402924102544784546e+01 -3.112527308985590935e-03
1.060564848780632019e+01 -1.360895293951034546e+01 1.558840547222644091e-01
1.682000395655632019e+01 -2.163275665044784546e+01 2.166774612851440907e-02
1.931365630030632019e+01 -2.452826446294784546e+01 -3.341648238711059093e-02
1.976360747218132019e+01 -2.470099395513534546e+01 -4.376194137148559093e-02
1.620611235499382019e+01 -2.265131133794784546e+01 1.596987519878894091e-01
1.637456938624382019e+01 -2.250702422857284546e+01 1.554415498394519091e-01
1.638860747218132019e+01 -2.214740508794784546e+01 1.532748017925769091e-01
1.873846098780632019e+01 -2.500250762701034546e+01 1.191714082378894091e-01
1.060674712061882019e+01 -1.360809844732284546e+01 2.292483125347644091e-01
1.965813872218132019e+01 -2.539386504888534546e+01 1.020357881207019091e-01
2.012701079249382019e+01 -2.558429473638534546e+01 9.326198440976440907e-02
2.058440825343132019e+01 -2.574847930669784546e+01 8.457973343320190907e-02
1.674480864405632019e+01 -2.342694610357284546e+01 2.788546357769519091e-01
1.633562895655632019e+01 -2.244745391607284546e+01 2.775423799175769091e-01
1.665545317530632019e+01 -2.251617950201034546e+01 2.723543916363269091e-01
1.945525786280632019e+01 -2.598224395513534546e+01 2.524721894878894091e-01
1.060796782374382019e+01 -1.360724395513534546e+01 3.026125703472644091e-01
1.692132231593132019e+01 -2.175934356451034546e+01 2.607882295269519091e-01
1.701214262843132019e+01 -2.151898711919784546e+01 2.570040498394519091e-01
2.130157133936882019e+01 -2.666290801763534546e+01 2.250674043316394091e-01
1.617608305811882019e+01 -2.259930938482284546e+01 4.041750703472644091e-01
1.629485747218132019e+01 -2.238532012701034546e+01 3.996432099957019091e-01
1.668999907374382019e+01 -2.256012481451034546e+01 3.957674775738269091e-01
1.647405669093132019e+01 -2.188434356451034546e+01 3.905642305035144091e-01
1.060918852686882019e+01 -1.360638946294784546e+01 3.763735566753894091e-01
1.695574614405632019e+01 -2.180084747076034546e+01 3.820803437847644091e-01
1.738348051905632019e+01 -2.199896758794784546e+01 3.779909883160144091e-01
2.200664946436882019e+01 -2.756122344732284546e+01 3.770144258160144091e-01
1.937237212061882019e+01 -2.722040313482284546e+01 5.607760224957019091e-01
1.629827544093132019e+01 -2.238593047857284546e+01 5.208742890972644091e-01
1.641619536280632019e+01 -2.217340606451034546e+01 5.159151826519519091e-01
1.657745024561882019e+01 -2.202216094732284546e+01 5.113985810894519091e-01
1.061028715968132019e+01 -1.360541290044784546e+01 4.497378144878894091e-01
1.695599028468132019e+01 -2.179718536138534546e+01 5.029146943707019091e-01
2.219939848780632019e+01 -2.827094024419784546e+01 5.420382295269519091e-01
2.267193266749382019e+01 -2.840851348638534546e+01 5.382998262066394091e-01
9.136776417493820190e+00 -1.240595000982284546e+01 5.141756806988269091e-01
9.430721729993820190e+00 -1.261957305669784546e+01 5.155184541363269091e-01
9.740047901868820190e+00 -1.284467071294784546e+01 5.165865693707019091e-01
1.006585356593132019e+01 -1.308136504888534546e+01 5.180819306988269091e-01
1.040765044093132019e+01 -1.332965606451034546e+01 5.196383271832019091e-01
1.076922270655632019e+01 -1.359235137701034546e+01 5.212862764019519091e-01
1.110650297999382019e+01 -1.381244415044784546e+01 5.227358613628894091e-01
1.146722075343132019e+01 -1.405243438482284546e+01 5.239413056988269091e-01
9.046932667493820190e+00 -1.227374786138534546e+01 5.766451631207019091e-01
9.351253956556320190e+00 -1.250421661138534546e+01 5.799105439800769091e-01
9.671810597181320190e+00 -1.274701446294784546e+01 5.833437715191394091e-01
1.001128813624382019e+01 -1.300409454107284546e+01 5.869906221050769091e-01
1.036883208155632019e+01 -1.327484649419784546e+01 5.908205781597644091e-01
1.074847075343132019e+01 -1.356244415044784546e+01 5.948946748394519091e-01
1.110479399561882019e+01 -1.380780547857284546e+01 5.981295381207019091e-01
1.148321196436882019e+01 -1.407050079107284546e+01 6.016238008160144091e-01
9.145077198743820190e+00 -1.241351836919784546e+01 6.446078096050769091e-01
9.445614308118820190e+00 -1.263605254888534546e+01 6.490023408550769091e-01
9.751278370618820190e+00 -1.285565704107284546e+01 6.536410127300769091e-01
1.007354399561882019e+01 -1.308710235357284546e+01 6.585238252300769091e-01
1.041131255030632019e+01 -1.332977813482284546e+01 6.636507783550769091e-01
1.074334380030632019e+01 -1.355316680669784546e+01 6.682741914410144091e-01
1.110271880030632019e+01 -1.380267852544784546e+01 6.734926973003894091e-01
1.145855376124382019e+01 -1.403632110357284546e+01 6.786959443707019091e-01
9.073299854993820190e+00 -1.230731719732284546e+01 7.064364228863269091e-01
9.359676808118820190e+00 -1.251154083013534546e+01 7.122805390972644091e-01
9.659969776868820190e+00 -1.272577422857284546e+01 7.184145723003894091e-01
1.000433012843132019e+01 -1.298981231451034546e+01 7.260134492535144091e-01
1.037225005030632019e+01 -1.327472442388534546e+01 7.342226777691394091e-01
1.076385161280632019e+01 -1.357794708013534546e+01 7.429659639019519091e-01
1.112835356593132019e+01 -1.383368438482284546e+01 7.502596650738269091e-01
1.151836821436882019e+01 -1.411053985357284546e+01 7.581789765972644091e-01
9.137264698743820190e+00 -1.239764922857284546e+01 7.744143281597644091e-01
9.455868214368820190e+00 -1.264606231451034546e+01 7.830050264019519091e-01
9.793270558118820190e+00 -1.290949004888534546e+01 7.924959931988269091e-01
2.170916411280632019e+01 -2.903925079107284546e+01 1.365249899448826909e+00
2.444781157374382019e+01 -3.224249786138534546e+01 1.479324606480076909e+00
2.232561919093132019e+01 -2.888959258794784546e+01 1.360595968784764409e+00
2.560064360499382019e+01 -3.267316192388534546e+01 1.495376852573826909e+00
2.615179106593132019e+01 -3.283624786138534546e+01 1.502548483433201909e+00
1.571429106593132019e+01 -2.190192168951034546e+01 1.229675558628514409e+00
2.307305571436882019e+01 -3.198151153326034546e+01 1.645035055698826909e+00
2.143914458155632019e+01 -2.915753692388534546e+01 1.530212668003514409e+00
2.171819731593132019e+01 -2.904608672857284546e+01 1.526932028355076909e+00
2.214373442530632019e+01 -2.913190215826034546e+01 1.531784323276951909e+00
2.563885161280632019e+01 -3.327191680669784546e+01 1.704117086948826909e+00
2.244475981593132019e+01 -2.855914825201034546e+01 1.510803488316014409e+00
2.323431059718132019e+01 -2.909699004888534546e+01 1.534408834995701909e+00
2.072576567530632019e+01 -2.914008086919784546e+01 1.686035421909764409e+00
2.309490630030632019e+01 -3.200653594732284546e+01 1.822265890659764409e+00
2.145989653468132019e+01 -2.918085235357284546e+01 1.692428854526951909e+00
2.172710844874382019e+01 -2.905292266607284546e+01 1.687866476597264409e+00
2.206817290186882019e+01 -2.902448028326034546e+01 1.688827780308201909e+00
2.618841215968132019e+01 -3.399335235357284546e+01 1.925949362339451909e+00
2.242217680811882019e+01 -2.852435821294784546e+01 1.670807150425389409e+00
2.741216704249382019e+01 -3.443658965826034546e+01 1.952469137730076909e+00
2.074944731593132019e+01 -2.916876739263534546e+01 1.846649435581639409e+00
1.592925688624382019e+01 -2.182843536138534546e+01 1.464660910191014409e+00
2.148052641749382019e+01 -2.920416778326034546e+01 1.854065207066014409e+00
2.173614165186882019e+01 -2.905975860357284546e+01 1.849762228550389409e+00
2.209930083155632019e+01 -2.906110137701034546e+01 1.853119162144139409e+00
2.380059477686882019e+01 -3.082611602544784546e+01 1.949676779331639409e+00
2.240166899561882019e+01 -2.849249786138534546e+01 1.829727438511326909e+00
2.255462309718132019e+01 -2.821686309576034546e+01 1.819305685581639409e+00
8.378109425306320190e+00 -1.011664336919784546e+01 -1.795346464496105909e-01
8.459896534681320190e+00 -1.006122344732284546e+01 -1.816251005511730909e-01
8.538021534681320190e+00 -1.000092071294784546e+01 -1.837460722308605909e-01
8.616512745618820190e+00 -9.940495908260345459e+00 -1.858670439105480909e-01
8.694759815931320190e+00 -9.880193173885345459e+00 -1.879727568011730909e-01
8.773251026868820190e+00 -9.819646298885345459e+00 -1.900937284808605909e-01
8.851620167493820190e+00 -9.759221494197845459e+00 -1.922147001605480909e-01
8.925960987806320190e+00 -9.694280087947845459e+00 -1.943356718402355909e-01
9.152523487806320190e+00 -1.110870879888534546e+01 -1.762692655902355909e-01
9.239193409681320190e+00 -1.104254668951034546e+01 -1.786038603167980909e-01
9.325741261243820190e+00 -1.097626250982284546e+01 -1.809384550433605909e-01
9.417416065931320190e+00 -1.091547149419784546e+01 -1.832577909808605909e-01
9.504208058118820190e+00 -1.084906524419784546e+01 -1.855923857074230909e-01
9.586605519056320190e+00 -1.077679961919784546e+01 -1.879574980121105909e-01
9.673397511243820190e+00 -1.071027129888534546e+01 -1.902920927386730909e-01
9.760311573743820190e+00 -1.064386504888534546e+01 -1.926266874652355909e-01
1.016509672999382019e+01 -1.240595000982284546e+01 -1.754452909808605909e-01
1.026690337061882019e+01 -1.233698028326034546e+01 -1.782986845355480909e-01
1.034844633936882019e+01 -1.224261993169784546e+01 -1.799771513324230909e-01
1.042449614405632019e+01 -1.214142364263534546e+01 -1.813351835589855909e-01
1.050005766749382019e+01 -1.204095977544784546e+01 -1.826626982074230909e-01
1.059759184718132019e+01 -1.196661895513534546e+01 -1.852872099261730909e-01
1.069524809718132019e+01 -1.189276641607284546e+01 -1.878964628558605909e-01
1.079278227686882019e+01 -1.181891387701034546e+01 -1.905209745746105909e-01
1.139788481593132019e+01 -1.398529571294784546e+01 -1.712033476214855909e-01
1.151958891749382019e+01 -1.391473907232284546e+01 -1.743008818011730909e-01
1.163653227686882019e+01 -1.383759063482284546e+01 -1.775357450824230909e-01
1.172369047999382019e+01 -1.372296661138534546e+01 -1.792599882464855909e-01
1.180669829249382019e+01 -1.360504668951034546e+01 -1.807858671527355909e-01
1.188970610499382019e+01 -1.348724883794784546e+01 -1.823270048480480909e-01
1.199261137843132019e+01 -1.339410918951034546e+01 -1.848752226214855909e-01
1.209600493311882019e+01 -1.330194610357284546e+01 -1.878506864886730909e-01
1.283782622218132019e+01 -1.582965606451034546e+01 -1.572568144183605909e-01
1.299956938624382019e+01 -1.577838653326034546e+01 -1.621396269183605909e-01
1.316253325343132019e+01 -1.572675079107284546e+01 -1.670529569964855909e-01
1.293621489405632019e+01 -1.519830840826034546e+01 -1.550137724261730909e-01
1.349224516749382019e+01 -1.562238067388534546e+01 -1.769864286761730909e-01
1.365899321436882019e+01 -1.556952422857284546e+01 -1.820218290667980909e-01
1.382635161280632019e+01 -1.551654571294784546e+01 -1.870572294574230909e-01
1.397015044093132019e+01 -1.543500274419784546e+01 -1.910855497699230909e-01
1.760857817530632019e+01 -2.194489043951034546e+01 -2.441708769183605909e-01
1.789996001124382019e+01 -2.195343536138534546e+01 -2.522885526996105909e-01
1.818999907374382019e+01 -2.195526641607284546e+01 -2.609860624652355909e-01
1.293767973780632019e+01 -1.519733184576034546e+01 -6.886264937929809093e-02
1.876739165186882019e+01 -2.193988555669784546e+01 -2.782132353167980909e-01
1.900164458155632019e+01 -2.186053985357284546e+01 -2.848202909808605909e-01
1.921734282374382019e+01 -2.175861114263534546e+01 -2.907559599261730909e-01
1.649407622218132019e+01 -1.830756133794784546e+01 -1.919858183246105909e-01
1.872723051905632019e+01 -2.337518829107284546e+01 -1.528470243792980909e-01
1.925188872218132019e+01 -2.365350860357284546e+01 -1.674802030902355909e-01
1.972246977686882019e+01 -2.385028594732284546e+01 -1.805264677386730909e-01
1.293902251124382019e+01 -1.519635528326034546e+01 1.683070999570190907e-02
2.059783598780632019e+01 -2.412860625982284546e+01 -2.046353544574230909e-01
2.098809477686882019e+01 -2.419635528326034546e+01 -2.152859892230480909e-01
2.137920805811882019e+01 -2.425885528326034546e+01 -2.259671415667980909e-01
2.175628325343132019e+01 -2.429755157232284546e+01 -2.362210478167980909e-01
1.976678130030632019e+01 -2.470355743169784546e+01 -4.383823531679809093e-02
2.026897856593132019e+01 -2.493109649419784546e+01 -5.551120894961059093e-02
2.070696684718132019e+01 -2.506574004888534546e+01 -6.503269332461059093e-02
1.294036528468132019e+01 -1.519525665044784546e+01 1.029665742535144091e-01
2.167278715968132019e+01 -2.541168731451034546e+01 -8.763095992617309093e-02
2.218731352686882019e+01 -2.560431426763534546e+01 -9.965488570742309093e-02
2.264471098780632019e+01 -2.571979278326034546e+01 -1.112668241839855909e-01
2.316473051905632019e+01 -2.589716094732284546e+01 -1.234585966449230909e-01
2.058684965968132019e+01 -2.575018829107284546e+01 8.453395706601440907e-02
2.104876372218132019e+01 -2.590900176763534546e+01 7.562282425351440907e-02
2.152459380030632019e+01 -2.607404083013534546e+01 6.645229202695190907e-02
1.294170805811882019e+01 -1.519428008794784546e+01 1.886599336285144091e-01
2.252019926905632019e+01 -2.642194122076034546e+01 4.728725296445190907e-02
2.301372954249382019e+01 -2.657257598638534546e+01 3.765895706601440907e-02
2.347857329249382019e+01 -2.668060821294784546e+01 2.841213089413940907e-02
2.400872465968132019e+01 -2.685358184576034546e+01 1.814296585507690907e-02
2.130376860499382019e+01 -2.666412872076034546e+01 2.250368867535144091e-01
2.179595610499382019e+01 -2.684552520513534546e+01 2.176821504253894091e-01
2.228265044093132019e+01 -2.700812286138534546e+01 2.102663789410144091e-01
1.294305083155632019e+01 -1.519330352544784546e+01 2.743380342144519091e-01
2.323711821436882019e+01 -2.727545684576034546e+01 1.952669892925769091e-01
2.374493071436882019e+01 -2.742865508794784546e+01 1.873781953472644091e-01
2.425616118311882019e+01 -2.757599395513534546e+01 1.793825898785144091e-01
2.373565337061882019e+01 -2.653790801763534546e+01 1.795351777691394091e-01
2.200909087061882019e+01 -2.756293243169784546e+01 3.769991670269519091e-01
2.249749419093132019e+01 -2.772418731451034546e+01 3.715517793316394091e-01
2.295318266749382019e+01 -2.783368438482284546e+01 3.659518037457019091e-01
1.294439360499382019e+01 -1.519220489263534546e+01 3.604891572613269091e-01
2.396807524561882019e+01 -2.814545196294784546e+01 3.543398652691394091e-01
2.451678130030632019e+01 -2.833209747076034546e+01 3.482821260113269091e-01
2.507513090968132019e+01 -2.851898711919784546e+01 3.420870576519519091e-01
2.369744536280632019e+01 -2.648981231451034546e+01 3.377077851910144091e-01
2.267449614405632019e+01 -2.841022247076034546e+01 5.382845674175769091e-01
2.315044829249382019e+01 -2.854144805669784546e+01 5.345156465191394091e-01
2.366558501124382019e+01 -2.871063750982284546e+01 5.308535371441394091e-01
1.294585844874382019e+01 -1.519122833013534546e+01 4.461672578472644091e-01
2.476665922999382019e+01 -2.909613555669784546e+01 5.234225068707019091e-01
2.533684965968132019e+01 -2.929205840826034546e+01 5.195162568707019091e-01
2.377581450343132019e+01 -2.701044219732284546e+01 5.021517549175769091e-01
2.398272368311882019e+01 -2.680963653326034546e+01 4.963686738628894091e-01
1.146929594874382019e+01 -1.405438750982284546e+01 5.239718232769519091e-01
1.184844633936882019e+01 -1.430658477544784546e+01 5.253298555035144091e-01
1.224847075343132019e+01 -1.457306426763534546e+01 5.263521943707019091e-01
1.267095610499382019e+01 -1.485407012701034546e+01 5.278780732769519091e-01
1.311565825343132019e+01 -1.514984649419784546e+01 5.294649873394519091e-01
1.353387114405632019e+01 -1.540057891607284546e+01 5.304415498394519091e-01
1.397906157374382019e+01 -1.567157500982284546e+01 5.320284639019519091e-01
1.445562407374382019e+01 -1.596588653326034546e+01 5.333102021832019091e-01
1.148553130030632019e+01 -1.407269805669784546e+01 6.016695771832019091e-01
1.188518950343132019e+01 -1.435028594732284546e+01 6.054842744488269091e-01
1.230755278468132019e+01 -1.464374297857284546e+01 6.095278535503894091e-01
1.275640532374382019e+01 -1.495551055669784546e+01 6.138308320660144091e-01
1.320574614405632019e+01 -1.525494903326034546e+01 6.178438935894519091e-01
1.363299223780632019e+01 -1.551434844732284546e+01 6.210634980816394091e-01
1.408050200343132019e+01 -1.578619903326034546e+01 6.244509492535144091e-01
1.455157133936882019e+01 -1.607233184576034546e+01 6.280062471050769091e-01
1.146062895655632019e+01 -1.403827422857284546e+01 6.787417207378894091e-01
1.183526274561882019e+01 -1.428497833013534546e+01 6.835634980816394091e-01
1.222893950343132019e+01 -1.454376739263534546e+01 6.890566621441394091e-01
1.264495512843132019e+01 -1.481732696294784546e+01 6.948702607769519091e-01
1.311565825343132019e+01 -1.514459747076034546e+01 7.019198213238269091e-01
1.356329008936882019e+01 -1.542975372076034546e+01 7.079165254253894091e-01
1.404290434718132019e+01 -1.573993438482284546e+01 7.144778047222644091e-01
1.455169340968132019e+01 -1.606952422857284546e+01 7.219546113628894091e-01
1.152080962061882019e+01 -1.411273711919784546e+01 7.582552705425769091e-01
1.193365141749382019e+01 -1.440619415044784546e+01 7.668612275738269091e-01
2.357024809718132019e+01 -2.857172149419784546e+01 1.187652853550389409e+00
2.400091215968132019e+01 -2.862653106451034546e+01 1.189041403355076909e+00
2.781414458155632019e+01 -3.271979278326034546e+01 1.310348776401951909e+00
2.845293852686882019e+01 -3.293512481451034546e+01 1.316437033237889409e+00
2.870562407374382019e+01 -3.269135040044784546e+01 1.308914450230076909e+00
2.404693266749382019e+01 -2.686371368169784546e+01 1.135711935581639409e+00
2.615472075343132019e+01 -3.283807891607284546e+01 1.502624777378514409e+00
2.327166411280632019e+01 -2.866803497076034546e+01 1.354248312534764409e+00
2.392669340968132019e+01 -2.900751250982284546e+01 1.367203024448826909e+00
2.380096098780632019e+01 -2.837811797857284546e+01 1.345672873081639409e+00
2.858929106593132019e+01 -3.364069122076034546e+01 1.534271505894139409e+00
2.925286528468132019e+01 -3.386969512701034546e+01 1.543518332066014409e+00
2.869170805811882019e+01 -3.266949981451034546e+01 1.501724508823826909e+00
2.964996001124382019e+01 -3.322882598638534546e+01 1.523849752964451909e+00
2.323443266749382019e+01 -2.909552520513534546e+01 1.534363058628514409e+00
2.398601958155632019e+01 -2.956134551763534546e+01 1.555664328159764409e+00
2.365032622218132019e+01 -2.866046661138534546e+01 1.520294455112889409e+00
2.451556059718132019e+01 -2.924176543951034546e+01 1.546509054722264409e+00
2.929485747218132019e+01 -3.447809356451034546e+01 1.766845968784764409e+00
2.935406157374382019e+01 -3.398261016607284546e+01 1.748672751011326909e+00
2.867779204249382019e+01 -3.264752715826034546e+01 1.695312765659764409e+00
2.964934965968132019e+01 -3.322235625982284546e+01 1.721832541050389409e+00
2.741546294093132019e+01 -3.443878692388534546e+01 1.952591208042576909e+00
2.347930571436882019e+01 -2.891876739263534546e+01 1.694885519566014409e+00
2.372332426905632019e+01 -2.874542754888534546e+01 1.689804342808201909e+00
2.451116606593132019e+01 -2.923126739263534546e+01 1.715179709019139409e+00
2.992937895655632019e+01 -3.523029083013534546e+01 2.004333761753514409e+00
2.935845610499382019e+01 -3.398163360357284546e+01 1.949753073276951909e+00
2.866375395655632019e+01 -3.262555450201034546e+01 1.888672140659764409e+00
2.964678618311882019e+01 -3.321344512701034546e+01 1.920715597691014409e+00
