9.264155119657516479e+00 -1.228716009855270386e+01 7.443890045760781504e-01
7.420160979032516479e+00 -1.088457220792770386e+01 7.539715241073281504e-01
7.676996916532516479e+00 -1.110356634855270386e+01 7.623028229354531504e-01
7.948725432157516479e+00 -1.133549994230270386e+01 7.714428375838906504e-01
8.208491057157516479e+00 -1.153813666105270386e+01 7.794689606307656504e-01
8.481928557157516479e+00 -1.175273627042770386e+01 7.879528473495156504e-01
8.770624846220016479e+00 -1.197917670011520386e+01 7.969250153182656504e-01
2.239757797122001648e+01 -3.136711615324020386e+01 1.544193692076078150e+00
2.088988754153251648e+01 -2.870219916105270386e+01 1.442982144224515650e+00
1.526427718997001648e+01 -2.344682806730270386e+01 1.359501309263578150e+00
1.434936019778251648e+01 -2.159392279386520386e+01 1.279331631529203150e+00
1.457055160403251648e+01 -2.155815619230270386e+01 1.278828091490140650e+00
1.478759261965751648e+01 -2.151189154386520386e+01 1.277866787779203150e+00
1.489928695559501648e+01 -2.130766791105270386e+01 1.269962735044828150e+00
1.495458480715751648e+01 -2.102275580167770386e+01 1.258488125669828150e+00
1.534057113528251648e+01 -2.122026556730270386e+01 1.268299527037015650e+00
2.090990707278251648e+01 -2.872539252042770386e+01 1.601124234068265650e+00
1.412084457278251648e+01 -2.161113470792770386e+01 1.392490811216703150e+00
1.731615707278251648e+01 -2.625456732511520386e+01 1.623310513365140650e+00
1.450341293215751648e+01 -2.145036810636520386e+01 1.387913174497953150e+00
1.451964828372001648e+01 -2.110161322355270386e+01 1.371754116880765650e+00
1.493493148684501648e+01 -2.135661810636520386e+01 1.386066861021390650e+00
1.504174301028251648e+01 -2.114616888761520386e+01 1.377949185240140650e+00
2.248913070559501648e+01 -3.148698920011520386e+01 1.894260830747953150e+00
2.124608871340751648e+01 -2.919463080167770386e+01 1.782627529966703150e+00
1.978112289309501648e+01 -3.066972845792770386e+01 2.001484341490140650e+00
1.423961898684501648e+01 -2.141350287199020386e+01 1.496815152037015650e+00
1.447741195559501648e+01 -2.140630072355270386e+01 1.498722500669828150e+00
1.450634261965751648e+01 -2.107756537199020386e+01 1.482960171568265650e+00
1.496898910403251648e+01 -2.140361517667770386e+01 1.503223843443265650e+00
1.508068343997001648e+01 -2.119951361417770386e+01 1.494327969419828150e+00
1.519701644778251648e+01 -2.100639837980270386e+01 1.486011929380765650e+00
2.121068832278251648e+01 -2.913945502042770386e+01 1.940342373716703150e+00
8.328974455595016479e+00 -1.099431341886520386e+01 -1.643939544082968496e-01
8.419062346220016479e+00 -1.094109076261520386e+01 -1.665759612442343496e-01
8.505366057157516479e+00 -1.088237494230270386e+01 -1.688037444473593496e-01
8.592035979032516479e+00 -1.082341498136520386e+01 -1.710162688614218496e-01
8.678461760282516479e+00 -1.076457709074020386e+01 -1.732287932754843496e-01
8.765253752470016479e+00 -1.070561712980270386e+01 -1.754565764786093496e-01
8.851801604032516479e+00 -1.064665716886520386e+01 -1.776843596817343496e-01
8.934199064970016479e+00 -1.058232611417770386e+01 -1.799121428848593496e-01
9.178217619657516479e+00 -1.219487494230270386e+01 -1.615710784317343496e-01
9.279413908720016479e+00 -1.213628119230270386e+01 -1.643329192520468496e-01
9.380854338407516479e+00 -1.207756537199020386e+01 -1.671100188614218496e-01
9.489618986845016479e+00 -1.202763861417770386e+01 -1.699786712051718496e-01
9.591547697782516479e+00 -1.196867865324020386e+01 -1.727557708145468496e-01
9.687006682157516479e+00 -1.190031927824020386e+01 -1.754565764786093496e-01
9.785761564970016479e+00 -1.183672064542770386e+01 -1.780353118301718496e-01
9.863764494657516479e+00 -1.174663275480270386e+01 -1.793170501114218496e-01
1.014025375247001648e+01 -1.355486029386520386e+01 -1.516070891739218496e-01
1.027416488528251648e+01 -1.351811712980270386e+01 -1.558032561661093496e-01
1.009362289309501648e+01 -1.304997748136520386e+01 -1.423144866348593496e-01
1.054516097903251648e+01 -1.344365423917770386e+01 -1.642718840957968496e-01
1.068175765872001648e+01 -1.340617865324020386e+01 -1.685443450332968496e-01
1.081200668215751648e+01 -1.335832709074020386e+01 -1.724353362442343496e-01
1.092577621340751648e+01 -1.328911322355270386e+01 -1.754260589004843496e-01
1.101720687747001648e+01 -1.319145697355270386e+01 -1.771808196426718496e-01
1.410375472903251648e+01 -1.916289252042770386e+01 -2.736163665176718496e-01
1.427880355715751648e+01 -1.908574408292770386e+01 -2.779040862442343496e-01
1.009472152590751648e+01 -1.304924505949020386e+01 -7.198672784579684958e-02
1.176598617434501648e+01 -1.508122748136520386e+01 -1.498828460098593496e-01
1.191002914309501648e+01 -1.502544134855270386e+01 -1.539569426895468496e-01
1.205297347903251648e+01 -1.496611517667770386e+01 -1.579394866348593496e-01
1.220287582278251648e+01 -1.491570013761520386e+01 -1.622577239395468496e-01
1.235033676028251648e+01 -1.486089056730270386e+01 -1.668963958145468496e-01
1.527404281497001648e+01 -2.081560248136520386e+01 -2.175555755020468496e-01
1.553942367434501648e+01 -2.083525580167770386e+01 -2.256427337051718496e-01
1.009582015872001648e+01 -1.304839056730270386e+01 -2.040438783296849579e-03
1.601708480715751648e+01 -2.078752630949020386e+01 -2.395587493301718496e-01
1.624132797122001648e+01 -2.073979681730270386e+01 -2.458911467911093496e-01
1.650939437747001648e+01 -2.074516791105270386e+01 -2.539477874161093496e-01
1.681481429934501648e+01 -2.079485052824020386e+01 -2.634692717911093496e-01
1.708837386965751648e+01 -2.079863470792770386e+01 -2.716785003067343496e-01
1.613317367434501648e+01 -2.202739447355270386e+01 -1.331897307754843496e-01
1.651244613528251648e+01 -2.218437689542770386e+01 -1.434894133926718496e-01
1.009691879153251648e+01 -1.304765814542770386e+01 6.828732000576565042e-02
1.721398422122001648e+01 -2.239091986417770386e+01 -1.633868743301718496e-01
1.755382797122001648e+01 -2.246819037199020386e+01 -1.729236174942343496e-01
1.788695785403251648e+01 -2.252837103605270386e+01 -1.822162200332968496e-01
1.819506332278251648e+01 -2.255119818449020386e+01 -1.906695891739218496e-01
1.850390121340751648e+01 -2.256950873136520386e+01 -1.998096038223593496e-01
1.574157211184501648e+01 -2.146953314542770386e+01 -3.230624330171849579e-03
1.722924301028251648e+01 -2.317668646574020386e+01 -4.029422296298434958e-02
1.009801742434501648e+01 -1.304680365324020386e+01 1.382336090682656504e-01
1.800060531497001648e+01 -2.344279974699020386e+01 -5.923038018954684958e-02
1.839745590090751648e+01 -2.357732123136520386e+01 -6.896548761142184958e-02
1.880395004153251648e+01 -2.371355170011520386e+01 -7.894473565829684958e-02
1.918517562747001648e+01 -2.380949896574020386e+01 -8.828311456454684958e-02
1.969054672122001648e+01 -2.405278509855270386e+01 -1.007190276504843496e-01
1.583654281497001648e+01 -2.159990423917770386e+01 1.115154694198281504e-01
1.620177718997001648e+01 -2.174467962980270386e+01 1.040844391463906504e-01
1.009911605715751648e+01 -1.304594916105270386e+01 2.085613678573281504e-01
1.630846664309501648e+01 -2.116753119230270386e+01 1.005444000838906504e-01
1.918139144778251648e+01 -2.460735052824020386e+01 4.954952703701565042e-02
1.962865707278251648e+01 -2.477885931730270386e+01 4.044002996670315042e-02
2.005932113528251648e+01 -2.491948431730270386e+01 3.082699285732815042e-02
2.051183578372001648e+01 -2.507768744230270386e+01 2.154964910732815042e-02
1.598082992434501648e+01 -2.180022162199020386e+01 2.279400299667031504e-01
1.595006820559501648e+01 -2.139091986417770386e+01 2.256969879745156504e-01
1.010021468997001648e+01 -1.304521673917770386e+01 2.785076569198281504e-01
1.657787582278251648e+01 -2.152531927824020386e+01 2.147869537948281504e-01
1.988793441653251648e+01 -2.553484076261520386e+01 1.799816559432656504e-01
2.034130355715751648e+01 -2.569817084074020386e+01 1.725658844588906504e-01
2.078893539309501648e+01 -2.584489935636520386e+01 1.651195953963906504e-01
2.127575179934501648e+01 -2.603032416105270386e+01 1.572308014510781504e-01
1.593554183840751648e+01 -2.173210638761520386e+01 3.462109039901406504e-01
1.604918929934501648e+01 -2.152483099699020386e+01 3.421978424667031504e-01
1.010131332278251648e+01 -1.304436224699020386e+01 3.484692047713906504e-01
1.649047347903251648e+01 -2.140422552824020386e+01 3.338055084823281504e-01
1.648998519778251648e+01 -2.104936712980270386e+01 3.300671051620156504e-01
2.102086898684501648e+01 -2.657451361417770386e+01 3.154339264510781504e-01
2.149291488528251648e+01 -2.673723334074020386e+01 3.095440338729531504e-01
2.197082015872001648e+01 -2.689641302824020386e+01 3.035320709823281504e-01
1.934862777590751648e+01 -2.655315130949020386e+01 4.878735016463906504e-01
1.624853011965751648e+01 -2.179790228605270386e+01 4.614910553573281504e-01
1.010241195559501648e+01 -1.304362982511520386e+01 4.187969635604531504e-01
1.640368148684501648e+01 -2.128386420011520386e+01 4.521069000838906504e-01
1.649340316653251648e+01 -2.105009955167770386e+01 4.475750397323281504e-01
2.169738265872001648e+01 -2.744646185636520386e+01 4.692730377792031504e-01
2.215368148684501648e+01 -2.757426947355270386e+01 4.650005768417031504e-01
2.260936996340751648e+01 -2.769133490324020386e+01 4.605907868026406504e-01
1.588561508059501648e+01 -2.165361517667770386e+01 5.817455719588906504e-01
2.042956039309501648e+01 -2.760051459074020386e+01 6.401562164901406504e-01
1.010338851809501648e+01 -1.304277533292770386e+01 4.887432526229531504e-01
1.031310531497001648e+01 -1.311137884855270386e+01 4.877514313338906504e-01
1.063903304934501648e+01 -1.332903021574020386e+01 4.881939362167031504e-01
1.098217269778251648e+01 -1.355803412199020386e+01 4.886669586776406504e-01
1.134142562747001648e+01 -1.379790228605270386e+01 4.891704987167031504e-01
1.171911117434501648e+01 -1.404997748136520386e+01 4.896892975448281504e-01
9.247187346220016479e+00 -1.226897162199020386e+01 5.490765045760781504e-01
9.548578947782516479e+00 -1.248674505949020386e+01 5.514263580917031504e-01
9.866083830595016479e+00 -1.271672552824020386e+01 5.535473297713906504e-01
1.020104476809501648e+01 -1.295879095792770386e+01 5.561413239120156504e-01
1.052123519778251648e+01 -1.317143744230270386e+01 5.582317780135781504e-01
1.086815902590751648e+01 -1.340788763761520386e+01 5.606121491073281504e-01
1.123900863528251648e+01 -1.366508978605270386e+01 5.636639069198281504e-01
1.162951156497001648e+01 -1.393547552824020386e+01 5.664562653182656504e-01
9.282343596220016479e+00 -1.231645697355270386e+01 6.148876618026406504e-01
9.603388518095016479e+00 -1.256059759855270386e+01 6.194347809432656504e-01
9.942377775907516479e+00 -1.281853216886520386e+01 6.242260407088906504e-01
1.023119613528251648e+01 -1.299699896574020386e+01 6.272777985213906504e-01
1.063195297122001648e+01 -1.331499212980270386e+01 6.332745026229531504e-01
1.097216293215751648e+01 -1.354045599699020386e+01 6.372570465682656504e-01
1.132653304934501648e+01 -1.377409857511520386e+01 6.413616608260781504e-01
1.169872543215751648e+01 -1.401958197355270386e+01 6.456798981307656504e-01
9.275385588407516479e+00 -1.230449408292770386e+01 6.799663971542031504e-01
9.574946135282516479e+00 -1.251909369230270386e+01 6.851238678573281504e-01
9.889277189970016479e+00 -1.274382513761520386e+01 6.909069489120156504e-01
1.022118636965751648e+01 -1.298125189542770386e+01 6.970104645370156504e-01
1.053661605715751648e+01 -1.318706244230270386e+01 7.022289703963906504e-01
1.087157699465751648e+01 -1.340776556730270386e+01 7.078442047713906504e-01
1.125207015872001648e+01 -1.367693060636520386e+01 7.147564362167031504e-01
1.165514633059501648e+01 -1.396269720792770386e+01 7.225079010604531504e-01
9.265986174345016479e+00 -1.228911322355270386e+01 7.444500397323281504e-01
9.595820158720016479e+00 -1.254582709074020386e+01 7.529797028182656504e-01
9.944941252470016479e+00 -1.281755560636520386e+01 7.619976471542031504e-01
1.030321761965751648e+01 -1.308891791105270386e+01 7.710155914901406504e-01
1.065392562747001648e+01 -1.333940619230270386e+01 7.793468903182656504e-01
2.506518051028251648e+01 -3.178264349699020386e+01 1.387440152037015650e+00
2.559923812747001648e+01 -3.193535345792770386e+01 1.392673916685453150e+00
2.268126937747001648e+01 -2.775700873136520386e+01 1.255070156919828150e+00
2.088964340090751648e+01 -2.870012396574020386e+01 1.442905850279203150e+00
2.107738754153251648e+01 -2.847453802824020386e+01 1.434498257505765650e+00
2.175499984622001648e+01 -2.891862982511520386e+01 1.452778286802640650e+00
2.459130355715751648e+01 -3.223259466886520386e+01 1.582127041685453150e+00
2.188305160403251648e+01 -2.812614935636520386e+01 1.424457974302640650e+00
2.206652328372001648e+01 -2.789507025480270386e+01 1.416660733091703150e+00
2.620397445559501648e+01 -3.269926947355270386e+01 1.604252285826078150e+00
2.681286117434501648e+01 -3.292082709074020386e+01 1.615253872740140650e+00
2.090978500247001648e+01 -2.872331732511520386e+01 1.601047940122953150e+00
2.108019515872001648e+01 -2.847319525480270386e+01 1.592060513365140650e+00
2.182555648684501648e+01 -2.900957220792770386e+01 1.617969937193265650e+00
2.172374984622001648e+01 -2.838481634855270386e+01 1.592396206724515650e+00
2.184887191653251648e+01 -2.807622259855270386e+01 1.580814785826078150e+00
2.626537582278251648e+01 -3.332451361417770386e+01 1.816990322935453150e+00
2.279955551028251648e+01 -2.836186712980270386e+01 1.597935147154203150e+00
2.306652328372001648e+01 -2.822905462980270386e+01 1.594227261412015650e+00
2.124633285403251648e+01 -2.919316595792770386e+01 1.782566494810453150e+00
2.108288070559501648e+01 -2.847173041105270386e+01 1.749653286802640650e+00
2.113366195559501648e+01 -2.806120795011520386e+01 1.732181973326078150e+00
2.342138168215751648e+01 -3.065373724699020386e+01 1.864445156919828150e+00
2.342479965090751648e+01 -3.014580267667770386e+01 1.842319912779203150e+00
2.202599593997001648e+01 -2.783269232511520386e+01 1.730030484068265650e+00
2.316686508059501648e+01 -2.882414740324020386e+01 1.783298916685453150e+00
2.284691879153251648e+01 -2.794951361417770386e+01 1.742313809263578150e+00
2.121093246340751648e+01 -2.913786810636520386e+01 1.940281338560453150e+00
2.108556625247001648e+01 -2.847038763761520386e+01 1.906406826841703150e+00
2.152172347903251648e+01 -2.858513373136520386e+01 1.916859097349515650e+00
2.154967758059501648e+01 -2.814165228605270386e+01 1.896198696958890650e+00
2.180492660403251648e+01 -2.800822943449020386e+01 1.892826504576078150e+00
2.200597640872001648e+01 -2.780180853605270386e+01 1.885380215513578150e+00
2.308471176028251648e+01 -2.871452826261520386e+01 1.940983242857328150e+00
2.330260726809501648e+01 -2.851421087980270386e+01 1.934894986021390650e+00
8.934076994657516479e+00 -1.058171576261520386e+01 -1.798968840957968496e-01
9.021357268095016479e+00 -1.052336615324020386e+01 -1.821246672989218496e-01
9.104487150907516479e+00 -1.045976752042770386e+01 -1.843677092911093496e-01
9.187983244657516479e+00 -1.039592474699020386e+01 -1.866107512832968496e-01
9.271235197782516479e+00 -1.033220404386520386e+01 -1.888537932754843496e-01
9.354853361845016479e+00 -1.026823920011520386e+01 -1.911120940567343496e-01
9.438227385282516479e+00 -1.020439642667770386e+01 -1.933551360489218496e-01
9.517206877470016479e+00 -1.013554877042770386e+01 -1.956134368301718496e-01
9.863764494657516479e+00 -1.174614447355270386e+01 -1.793170501114218496e-01
9.937250822782516479e+00 -1.165117377042770386e+01 -1.805987883926718496e-01
1.001037093997001648e+01 -1.155656927824020386e+01 -1.818805266739218496e-01
1.010351058840751648e+01 -1.148564642667770386e+01 -1.840167571426718496e-01
1.019652816653251648e+01 -1.141521185636520386e+01 -1.865039397598593496e-01
1.028454086184501648e+01 -1.133818548917770386e+01 -1.890216399551718496e-01
1.037768051028251648e+01 -1.126762884855270386e+01 -1.915240813614218496e-01
1.047094222903251648e+01 -1.119707220792770386e+01 -1.940265227676718496e-01
1.101708480715751648e+01 -1.319060248136520386e+01 -1.771655608536093496e-01
1.109789535403251648e+01 -1.308025091886520386e+01 -1.786151458145468496e-01
1.117833968997001648e+01 -1.297050970792770386e+01 -1.800647307754843496e-01
1.125866195559501648e+01 -1.286064642667770386e+01 -1.815143157364218496e-01
1.135021468997001648e+01 -1.276543158292770386e+01 -1.835742522598593496e-01
1.145604965090751648e+01 -1.268645209074020386e+01 -1.863971282364218496e-01
1.156176254153251648e+01 -1.260771673917770386e+01 -1.892047454239218496e-01
1.166747543215751648e+01 -1.252873724699020386e+01 -1.920276214004843496e-01
1.235058090090751648e+01 -1.486040228605270386e+01 -1.668963958145468496e-01
1.251110336184501648e+01 -1.482024115324020386e+01 -1.714892913223593496e-01
1.266405746340751648e+01 -1.476909369230270386e+01 -1.761737395645468496e-01
1.281859847903251648e+01 -1.471758002042770386e+01 -1.808887053848593496e-01
1.297362777590751648e+01 -1.466570013761520386e+01 -1.856189299942343496e-01
1.312499496340751648e+01 -1.460735052824020386e+01 -1.901660491348593496e-01
1.321361801028251648e+01 -1.447734564542770386e+01 -1.918292571426718496e-01
1.329223129153251648e+01 -1.433720892667770386e+01 -1.935077239395468496e-01
1.708947250247001648e+01 -2.079887884855270386e+01 -2.717242766739218496e-01
1.743029281497001648e+01 -2.088091009855270386e+01 -2.828784514786093496e-01
1.466173812747001648e+01 -1.718755072355270386e+01 -1.714435149551718496e-01
1.472973129153251648e+01 -1.699223822355270386e+01 -1.722064544082968496e-01
1.482946273684501648e+01 -1.683769720792770386e+01 -1.742358733536093496e-01
1.502587386965751648e+01 -1.679485052824020386e+01 -1.800494719864218496e-01
1.522326156497001648e+01 -1.675188177824020386e+01 -1.858783294082968496e-01
1.485631820559501648e+01 -1.607756537199020386e+01 -1.698413421036093496e-01
1.850536605715751648e+01 -2.257011908292770386e+01 -1.998553801895468496e-01
1.900451156497001648e+01 -2.281743353605270386e+01 -2.140307952286093496e-01
1.945910140872001648e+01 -2.299736517667770386e+01 -2.273974944473593496e-01
1.981981918215751648e+01 -2.305315130949020386e+01 -2.377124358536093496e-01
2.011974593997001648e+01 -2.303203314542770386e+01 -2.460589934707968496e-01
2.063378402590751648e+01 -2.325151556730270386e+01 -2.612414885879843496e-01
2.102575179934501648e+01 -2.332170599699020386e+01 -2.724872161270468496e-01
1.485778304934501648e+01 -1.607646673917770386e+01 -7.535892022860934958e-02
1.969298812747001648e+01 -2.405449408292770386e+01 -1.007800628067343496e-01
2.018078109622001648e+01 -2.426274603605270386e+01 -1.130023528457968496e-01
2.061657211184501648e+01 -2.439568060636520386e+01 -1.239276458145468496e-01
2.109984847903251648e+01 -2.457378119230270386e+01 -1.360431243301718496e-01
2.154259750247001648e+01 -2.469450873136520386e+01 -1.471515227676718496e-01
2.196874496340751648e+01 -2.478508490324020386e+01 -1.578479339004843496e-01
2.240502426028251648e+01 -2.487981146574020386e+01 -1.687884856582968496e-01
1.485924789309501648e+01 -1.607536810636520386e+01 1.962704168545315042e-02
2.051427718997001648e+01 -2.507939642667770386e+01 2.148861395107815042e-02
2.100194808840751648e+01 -2.527019232511520386e+01 1.138729559170315042e-02
2.150329086184501648e+01 -2.546538275480270386e+01 1.774258482328150421e-03
2.198339340090751648e+01 -2.562187689542770386e+01 -8.281283509859349579e-03
2.244433090090751648e+01 -2.574602240324020386e+01 -1.803164972079684958e-02
2.289892074465751648e+01 -2.585173529386520386e+01 -2.772098077548434958e-02
2.335717269778251648e+01 -2.595366400480270386e+01 -3.831058038485934958e-02
1.486071273684501648e+01 -1.607439154386520386e+01 1.140942047713906504e-01
2.127831527590751648e+01 -2.603203314542770386e+01 1.571850250838906504e-01
2.176098129153251648e+01 -2.620049017667770386e+01 1.491283844588906504e-01
2.223571273684501648e+01 -2.634782904386520386e+01 1.410870026229531504e-01
2.270934554934501648e+01 -2.648161810636520386e+01 1.329540680526406504e-01
2.319384261965751648e+01 -2.661919134855270386e+01 1.246532868026406504e-01
2.312865707278251648e+01 -2.611186712980270386e+01 1.222729157088906504e-01
2.346410629153251648e+01 -2.607024115324020386e+01 1.155437897323281504e-01
1.486217758059501648e+01 -1.607329291105270386e+01 2.090801666854531504e-01
2.197313949465751648e+01 -2.689775580167770386e+01 3.035015534042031504e-01
2.242797347903251648e+01 -2.701726263761520386e+01 2.973980377792031504e-01
2.288866683840751648e+01 -2.713396185636520386e+01 2.911724518417031504e-01
2.340038558840751648e+01 -2.729973334074020386e+01 2.846416901229531504e-01
2.393053695559501648e+01 -2.747697943449020386e+01 2.779430817245156504e-01
2.309179183840751648e+01 -2.606474798917770386e+01 2.765087555526406504e-01
2.361059066653251648e+01 -2.623149603605270386e+01 2.698711823104531504e-01
1.486376449465751648e+01 -1.607219427824020386e+01 3.035625885604531504e-01
2.261156722903251648e+01 -2.769255560636520386e+01 4.605755280135781504e-01
2.310790511965751648e+01 -2.784978216886520386e+01 4.562420319198281504e-01
2.363756820559501648e+01 -2.803569525480270386e+01 4.518627594588906504e-01
2.418383285403251648e+01 -2.822746771574020386e+01 4.473614166854531504e-01
2.317199203372001648e+01 -2.658440130949020386e+01 4.374737213729531504e-01
2.312999984622001648e+01 -2.610429877042770386e+01 4.312481354354531504e-01
2.326476547122001648e+01 -2.583562201261520386e+01 4.256481598495156504e-01
1.486522933840751648e+01 -1.607109564542770386e+01 3.985485504745156504e-01
1.172143051028251648e+01 -1.405205267667770386e+01 4.896892975448281504e-01
1.211937972903251648e+01 -1.431767767667770386e+01 4.902996491073281504e-01
1.253942367434501648e+01 -1.459807318449020386e+01 4.909405182479531504e-01
1.293871566653251648e+01 -1.484050482511520386e+01 4.911083649276406504e-01
1.336071273684501648e+01 -1.509868353605270386e+01 4.913372467635781504e-01
1.380626937747001648e+01 -1.537151068449020386e+01 4.915813873885781504e-01
1.427416488528251648e+01 -1.565788763761520386e+01 4.918407868026406504e-01
1.476793929934501648e+01 -1.596013373136520386e+01 4.921001862167031504e-01
1.163195297122001648e+01 -1.393767279386520386e+01 5.664715241073281504e-01
1.204503890872001648e+01 -1.422368353605270386e+01 5.695232819198281504e-01
1.248168441653251648e+01 -1.452568548917770386e+01 5.723003815292031504e-01
1.290343734622001648e+01 -1.479594916105270386e+01 5.749401520370156504e-01
1.334276840090751648e+01 -1.507524603605270386e+01 5.776409577010781504e-01
1.380822250247001648e+01 -1.537114447355270386e+01 5.804943512557656504e-01
1.429967758059501648e+01 -1.568413275480270386e+01 5.840191315292031504e-01
1.481908676028251648e+01 -1.601433295011520386e+01 5.872234772323281504e-01
1.170092269778251648e+01 -1.402165716886520386e+01 6.457256744979531504e-01
1.209264633059501648e+01 -1.427983587980270386e+01 6.503948639510781504e-01
1.250561019778251648e+01 -1.455217474699020386e+01 6.553387116073281504e-01
1.290294906497001648e+01 -1.479277533292770386e+01 6.595501373885781504e-01
1.331811019778251648e+01 -1.504375189542770386e+01 6.639446686385781504e-01
1.375597640872001648e+01 -1.530852240324020386e+01 6.685833405135781504e-01
1.421557113528251648e+01 -1.558623236417770386e+01 6.734508942245156504e-01
1.471410629153251648e+01 -1.589482611417770386e+01 6.789135407088906504e-01
1.165758773684501648e+01 -1.396501654386520386e+01 7.225689362167031504e-01
1.208324691653251648e+01 -1.426591986417770386e+01 7.300457428573281504e-01
1.253600570559501648e+01 -1.458647650480270386e+01 7.384685944198281504e-01
1.296459457278251648e+01 -1.486369818449020386e+01 7.456860016463906504e-01
1.341894027590751648e+01 -1.515910834074020386e+01 7.533916901229531504e-01
2.319091293215751648e+01 -2.615630072355270386e+01 1.049885220396390650e+00
2.335228988528251648e+01 -2.591679877042770386e+01 1.042911953794828150e+00
2.356615707278251648e+01 -2.573759955167770386e+01 1.038395352232328150e+00
2.268432113528251648e+01 -2.775920599699020386e+01 1.255146450865140650e+00
2.317797347903251648e+01 -2.791142767667770386e+01 1.260761685240140650e+00
2.734215804934501648e+01 -3.249174994230270386e+01 1.412647671568265650e+00
2.797045394778251648e+01 -3.270573920011520386e+01 1.420444912779203150e+00
2.861413070559501648e+01 -3.292497748136520386e+01 1.428425259458890650e+00
2.827001449465751648e+01 -3.199174994230270386e+01 1.398304409849515650e+00
2.924767562747001648e+01 -3.257829779386520386e+01 1.418476528990140650e+00
2.346496078372001648e+01 -2.562053412199020386e+01 1.188648648130765650e+00
2.681591293215751648e+01 -3.292278021574020386e+01 1.615345425474515650e+00
2.325451156497001648e+01 -2.800078314542770386e+01 1.424839444029203150e+00
2.426964828372001648e+01 -2.877055853605270386e+01 1.456577725279203150e+00
2.871105453372001648e+01 -3.358073920011520386e+01 1.646168179380765650e+00
2.894713851809501648e+01 -3.330852240324020386e+01 1.637669033872953150e+00
2.825622054934501648e+01 -3.197038763761520386e+01 1.587421841490140650e+00
2.929491683840751648e+01 -3.262614935636520386e+01 1.615253872740140650e+00
2.567895004153251648e+01 -2.807768744230270386e+01 1.439548916685453150e+00
2.306737777590751648e+01 -2.822856634855270386e+01 1.594212002622953150e+00
2.330773422122001648e+01 -2.806120795011520386e+01 1.589542813169828150e+00
2.425304672122001648e+01 -2.874541205167770386e+01 1.623173184263578150e+00
2.935290023684501648e+01 -3.433781927824020386e+01 1.878178067076078150e+00
2.909655258059501648e+01 -3.347746771574020386e+01 1.842945523130765650e+00
2.824242660403251648e+01 -3.194890326261520386e+01 1.777332730162015650e+00
2.930529281497001648e+01 -3.263213080167770386e+01 1.811802334654203150e+00
2.568310043215751648e+01 -2.807744330167770386e+01 1.608143277037015650e+00
2.285436508059501648e+01 -2.795720404386520386e+01 1.742725796568265650e+00
2.330517074465751648e+01 -2.805315130949020386e+01 1.751530117857328150e+00
2.337316390872001648e+01 -2.767693060636520386e+01 1.736362881529203150e+00
2.871776840090751648e+01 -3.357683295011520386e+01 2.040729946958890650e+00
3.066430160403251648e+01 -3.530388373136520386e+01 2.134098477232328150e+00
2.822863265872001648e+01 -3.192741888761520386e+01 1.966999478208890650e+00
2.931371566653251648e+01 -3.263591498136520386e+01 2.008350796568265650e+00
2.568737289309501648e+01 -2.807732123136520386e+01 1.777653164732328150e+00
2.330236312747001648e+01 -2.851237982511520386e+01 1.934788174497953150e+00
2.936144515872001648e+01 -3.549284857511520386e+01 2.334873623716703150e+00
2.310228988528251648e+01 -2.734465521574020386e+01 1.877842373716703150e+00
2.871911117434501648e+01 -3.357243841886520386e+01 2.238407559263578150e+00
3.142077133059501648e+01 -3.618156927824020386e+01 2.394169278013578150e+00
2.823803207278251648e+01 -3.193266791105270386e+01 2.156940884458890650e+00
2.932201644778251648e+01 -3.263969916105270386e+01 2.203907437193265650e+00
2.569152328372001648e+01 -2.807707709074020386e+01 1.947193570005765650e+00
9.517695158720016479e+00 -1.013554877042770386e+01 -1.956286956192343496e-01
9.601923674345016479e+00 -1.007231634855270386e+01 -1.978869964004843496e-01
9.681513518095016479e+00 -1.000395697355270386e+01 -2.001452971817343496e-01
9.761591643095016479e+00 -9.935353457927703857e+00 -2.024035979629843496e-01
9.841425627470016479e+00 -9.866872012615203857e+00 -2.046771575332968496e-01
9.921625822782516479e+00 -9.798024356365203857e+00 -2.069507171036093496e-01
1.000158187747001648e+01 -9.729542911052703857e+00 -2.092090178848593496e-01
1.007677718997001648e+01 -9.656056582927703857e+00 -2.114825774551718496e-01
1.047155258059501648e+01 -1.119719427824020386e+01 -1.940570403457968496e-01
1.056054183840751648e+01 -1.112163275480270386e+01 -1.965594817520468496e-01
1.064977523684501648e+01 -1.104619330167770386e+01 -1.990771819473593496e-01
1.074499008059501648e+01 -1.097649115324020386e+01 -2.015948821426718496e-01
1.083434554934501648e+01 -1.090068548917770386e+01 -2.041125823379843496e-01
1.091820785403251648e+01 -1.081865423917770386e+01 -2.066455413223593496e-01
1.100768539309501648e+01 -1.074272650480270386e+01 -2.091632415176718496e-01
1.109716293215751648e+01 -1.066692084074020386e+01 -2.116962005020468496e-01
1.166808578372001648e+01 -1.252885931730270386e+01 -1.920581389786093496e-01
1.176916000247001648e+01 -1.244450873136520386e+01 -1.948810149551718496e-01
1.185851547122001648e+01 -1.234734076261520386e+01 -1.970935393692343496e-01
1.194713851809501648e+01 -1.224907416105270386e+01 -1.992755462051718496e-01
1.203539535403251648e+01 -1.215117377042770386e+01 -2.014422942520468496e-01
1.212389633059501648e+01 -1.205315130949020386e+01 -2.036243010879843496e-01
1.221190902590751648e+01 -1.195561712980270386e+01 -2.057910491348593496e-01
1.229979965090751648e+01 -1.185808295011520386e+01 -2.079425383926718496e-01
1.329271957278251648e+01 -1.433708685636520386e+01 -1.935229827286093496e-01
1.338451644778251648e+01 -1.421269720792770386e+01 -1.951709319473593496e-01
1.346642562747001648e+01 -1.407829779386520386e+01 -1.968188811661093496e-01
1.354809066653251648e+01 -1.394389837980270386e+01 -1.984668303848593496e-01
1.362914535403251648e+01 -1.381071966886520386e+01 -2.000995208145468496e-01
1.371020004153251648e+01 -1.367754095792770386e+01 -2.017322112442343496e-01
1.379052230715751648e+01 -1.354546087980270386e+01 -2.033496428848593496e-01
1.386059066653251648e+01 -1.340410345792770386e+01 -2.049670745254843496e-01
1.485656234622001648e+01 -1.607695502042770386e+01 -1.698413421036093496e-01
1.547228500247001648e+01 -1.649797552824020386e+01 -1.921191741348593496e-01
1.558874008059501648e+01 -1.636308783292770386e+01 -1.950793792129843496e-01
1.569542953372001648e+01 -1.621721380949020386e+01 -1.976428557754843496e-01
1.578478500247001648e+01 -1.605522650480270386e+01 -1.995502044082968496e-01
1.587401840090751648e+01 -1.589336127042770386e+01 -2.014728118301718496e-01
1.596239730715751648e+01 -1.573283880949020386e+01 -2.033649016739218496e-01
1.605028793215751648e+01 -1.557329291105270386e+01 -2.052417327286093496e-01
1.485802718997001648e+01 -1.607585638761520386e+01 -7.535892022860934958e-02
2.180346176028251648e+01 -2.343095892667770386e+01 -2.949939299942343496e-01
2.216369125247001648e+01 -2.344414252042770386e+01 -3.054614592911093496e-01
2.248571273684501648e+01 -2.340935248136520386e+01 -3.147082854629843496e-01
1.873974105715751648e+01 -1.913188666105270386e+01 -1.951861907364218496e-01
1.888268539309501648e+01 -1.897417181730270386e+01 -1.989245940567343496e-01
1.907677718997001648e+01 -1.886955755949020386e+01 -2.042804290176718496e-01
1.925475570559501648e+01 -1.874760931730270386e+01 -2.097430755020468496e-01
1.485949203372001648e+01 -1.607475775480270386e+01 1.961178289639065042e-02
2.343041488528251648e+01 -2.520903509855270386e+01 -1.947589446426718496e-01
2.390441390872001648e+01 -2.531535834074020386e+01 -2.069201995254843496e-01
2.432055160403251648e+01 -2.534917181730270386e+01 -2.176318694473593496e-01
2.474291488528251648e+01 -2.538359564542770386e+01 -2.285113860489218496e-01
2.504040023684501648e+01 -2.528093451261520386e+01 -2.362628508926718496e-01
2.450963851809501648e+01 -2.434196966886520386e+01 -2.232623626114218496e-01
2.462938949465751648e+01 -2.407219427824020386e+01 -2.265582610489218496e-01
1.486095687747001648e+01 -1.607365912199020386e+01 1.140942047713906504e-01
2.421959945559501648e+01 -2.606889837980270386e+01 -5.718570245517184958e-02
2.430675765872001648e+01 -2.574431341886520386e+01 -5.965762628329684958e-02
2.544921371340751648e+01 -2.654045599699020386e+01 -8.225589288485934958e-02
2.482116195559501648e+01 -2.546074408292770386e+01 -7.245975030673434958e-02
2.402916976809501648e+01 -2.424052923917770386e+01 -5.952029718173434958e-02
2.437011215090751648e+01 -2.419719427824020386e+01 -6.821780694735934958e-02
2.491649886965751648e+01 -2.435258978605270386e+01 -7.996707452548434958e-02
1.486242172122001648e+01 -1.607256048917770386e+01 2.090801666854531504e-01
2.424157211184501648e+01 -2.608842962980270386e+01 1.006512116073281504e-01
2.392602035403251648e+01 -2.532988470792770386e+01 1.011852692245156504e-01
2.497558090090751648e+01 -2.603410834074020386e+01 8.595699774014065042e-02
2.491491195559501648e+01 -2.555388373136520386e+01 8.359188543545315042e-02
2.486315414309501648e+01 -2.509074896574020386e+01 8.116573797451565042e-02
2.421605941653251648e+01 -2.403777045011520386e+01 8.595699774014065042e-02
2.443249008059501648e+01 -2.386882513761520386e+01 8.049435125576565042e-02
1.486388656497001648e+01 -1.607158392667770386e+01 3.035473297713906504e-01
2.420727035403251648e+01 -2.604643744230270386e+01 2.581829498885781504e-01
2.395714828372001648e+01 -2.535905951261520386e+01 2.549023102401406504e-01
2.483861801028251648e+01 -2.588469427824020386e+01 2.461590241073281504e-01
2.489452621340751648e+01 -2.552824896574020386e+01 2.414287994979531504e-01
2.576635238528251648e+01 -2.601140326261520386e+01 2.323955963729531504e-01
2.414293929934501648e+01 -2.396001166105270386e+01 2.368511627792031504e-01
2.608104965090751648e+01 -2.549809759855270386e+01 2.217449616073281504e-01
1.486535140872001648e+01 -1.607048529386520386e+01 3.985332916854531504e-01
2.419591781497001648e+01 -2.602946966886520386e+01 4.161114166854531504e-01
2.398852035403251648e+01 -2.538835638761520386e+01 4.098247955917031504e-01
2.437133285403251648e+01 -2.538554877042770386e+01 4.047588776229531504e-01
2.471471664309501648e+01 -2.533672064542770386e+01 3.995556305526406504e-01
2.409105941653251648e+01 -2.429143255949020386e+01 3.930401276229531504e-01
2.412475082278251648e+01 -2.393767279386520386e+01 3.876232575057656504e-01
2.448266097903251648e+01 -2.391032904386520386e+01 3.825420807479531504e-01
1.477099105715751648e+01 -1.596257513761520386e+01 4.921154450057656504e-01
1.525719711184501648e+01 -1.624284857511520386e+01 4.921459625838906504e-01
1.575622054934501648e+01 -1.652385443449020386e+01 4.920544098495156504e-01
1.628393051028251648e+01 -1.682097357511520386e+01 4.919628571151406504e-01
1.683874008059501648e+01 -1.713335150480270386e+01 4.918560455917031504e-01
1.742699691653251648e+01 -1.746465033292770386e+01 4.917492340682656504e-01
1.798888656497001648e+01 -1.775493353605270386e+01 4.911999176620156504e-01
1.858727523684501648e+01 -1.806755560636520386e+01 4.906658600448281504e-01
1.482226058840751648e+01 -1.601701849699020386e+01 5.872539948104531504e-01
1.532641097903251648e+01 -1.631596869230270386e+01 5.900310944198281504e-01
1.584142562747001648e+01 -1.661272162199020386e+01 5.921520660995156504e-01
1.636913558840751648e+01 -1.690837591886520386e+01 5.946850250838906504e-01
1.692382308840751648e+01 -1.721904486417770386e+01 5.973400543807656504e-01
1.742040511965751648e+01 -1.745488470792770386e+01 5.988354157088906504e-01
1.806371566653251648e+01 -1.782732123136520386e+01 6.027721832870156504e-01
1.866100570559501648e+01 -1.813737982511520386e+01 6.051372955917031504e-01
1.471728011965751648e+01 -1.589763373136520386e+01 6.789593170760781504e-01
1.523913070559501648e+01 -1.621758002042770386e+01 6.847576569198281504e-01
1.576989242434501648e+01 -1.653300970792770386e+01 6.904186676620156504e-01
1.633361312747001648e+01 -1.686784857511520386e+01 6.964306305526406504e-01
1.692919418215751648e+01 -1.722173041105270386e+01 7.027782868026406504e-01
1.754430648684501648e+01 -1.757878607511520386e+01 7.091259430526406504e-01
1.814879867434501648e+01 -1.790996283292770386e+01 7.148937653182656504e-01
2.461327621340751648e+01 -2.402751654386520386e+01 8.385509918807656504e-01
2.356579086184501648e+01 -2.573564642667770386e+01 1.038349575865140650e+00
2.373229476809501648e+01 -2.550444525480270386e+01 1.031116909849515650e+00
2.407555648684501648e+01 -2.546465033292770386e+01 1.029865689146390650e+00
2.453893539309501648e+01 -2.554546087980270386e+01 1.031864590513578150e+00
2.456029769778251648e+01 -2.515874212980270386e+01 1.021274990904203150e+00
2.475548812747001648e+01 -2.495488470792770386e+01 1.015598721372953150e+00
2.492528793215751648e+01 -2.472697943449020386e+01 1.009296841490140650e+00
2.442602035403251648e+01 -2.383806341886520386e+01 9.859966705917031504e-01
2.346459457278251648e+01 -2.561870306730270386e+01 1.188587612974515650e+00
2.507567855715751648e+01 -2.696904486417770386e+01 1.234409756529203150e+00
2.505114242434501648e+01 -2.650945013761520386e+01 1.220234341490140650e+00
2.453539535403251648e+01 -2.553728216886520386e+01 1.188999600279203150e+00
2.490648910403251648e+01 -2.551445502042770386e+01 1.189304776060453150e+00
2.460119125247001648e+01 -2.479265326261520386e+01 1.166309780943265650e+00
2.421227523684501648e+01 -2.400529974699020386e+01 1.141087002622953150e+00
2.515856429934501648e+01 -2.455901068449020386e+01 1.160648770201078150e+00
2.567833968997001648e+01 -2.807536810636520386e+01 1.439472622740140650e+00
3.200976058840751648e+01 -3.454607123136520386e+01 1.695911831724515650e+00
2.395592758059501648e+01 -2.532719916105270386e+01 1.334949917662015650e+00
2.403429672122001648e+01 -2.500310248136520386e+01 1.324390835630765650e+00
2.497570297122001648e+01 -2.558220404386520386e+01 1.349613613951078150e+00
2.487401840090751648e+01 -2.506743353605270386e+01 1.331516690122953150e+00
2.483751937747001648e+01 -2.463029974699020386e+01 1.316425747740140650e+00
2.648375961184501648e+01 -2.586601752042770386e+01 1.369007534849515650e+00
2.568249008059501648e+01 -2.807524603605270386e+01 1.608051724302640650e+00
3.275170394778251648e+01 -3.535100287199020386e+01 1.943867153990140650e+00
2.539757797122001648e+01 -2.687285345792770386e+01 1.560551113951078150e+00
2.507726547122001648e+01 -2.610149115324020386e+01 1.528843350279203150e+00
2.498546859622001648e+01 -2.558794134855270386e+01 1.508823819029203150e+00
2.554223129153251648e+01 -2.574663275480270386e+01 1.519794888365140650e+00
2.489525863528251648e+01 -2.468413275480270386e+01 1.474232144224515650e+00
2.601452133059501648e+01 -2.539738959074020386e+01 1.511021084654203150e+00
2.568676254153251648e+01 -2.807500189542770386e+01 1.777561611997953150e+00
3.349718734622001648e+01 -3.615971869230270386e+01 2.202122158872953150e+00
3.161547347903251648e+01 -3.355193060636520386e+01 2.072971768247953150e+00
2.469005843997001648e+01 -2.568767279386520386e+01 1.667362637388578150e+00
2.583617660403251648e+01 -2.646806830167770386e+01 1.713108486997953150e+00
2.646068832278251648e+01 -2.668132513761520386e+01 1.730305142271390650e+00
2.528173324465751648e+01 -2.506853216886520386e+01 1.650257534849515650e+00
2.589123031497001648e+01 -2.527104681730270386e+01 1.665943570005765650e+00
2.569091293215751648e+01 -2.807475775480270386e+01 1.947086758482328150e+00
3.126037093997001648e+01 -3.370915716886520386e+01 2.279926724302640650e+00
3.496691390872001648e+01 -3.714812201261520386e+01 2.488346524107328150e+00
2.579577133059501648e+01 -2.685185736417770386e+01 1.893970913755765650e+00
2.500658676028251648e+01 -2.560100287199020386e+01 1.826755947935453150e+00
2.553698226809501648e+01 -2.573235052824020386e+01 1.840717739927640650e+00
2.643944808840751648e+01 -2.622844427824020386e+01 1.876438565122953150e+00
2.576916000247001648e+01 -2.514592474699020386e+01 1.819324917662015650e+00
1.007702133059501648e+01 -9.655812442302703857e+00 -2.114978362442343496e-01
1.015783187747001648e+01 -9.587819278240203857e+00 -2.137713958145468496e-01
1.023388168215751648e+01 -9.514821231365203857e+00 -2.160449553848593496e-01
1.031017562747001648e+01 -9.441579043865203857e+00 -2.183185149551718496e-01
1.038622543215751648e+01 -9.368580996990203857e+00 -2.205920745254843496e-01
1.046276351809501648e+01 -9.295216739177703857e+00 -2.228808928848593496e-01
1.053893539309501648e+01 -9.221974551677703857e+00 -2.251697112442343496e-01
1.061010238528251648e+01 -9.144093692302703857e+00 -2.274432708145468496e-01
1.109752914309501648e+01 -1.066667670011520386e+01 -2.116962005020468496e-01
1.116979476809501648e+01 -1.057365912199020386e+01 -2.134967376114218496e-01
1.123241683840751648e+01 -1.047160834074020386e+01 -2.147479583145468496e-01
1.130114242434501648e+01 -1.037541693449020386e+01 -2.160144378067343496e-01
1.136327621340751648e+01 -1.027385443449020386e+01 -2.172503997207968496e-01
1.144274398684501648e+01 -1.018828314542770386e+01 -2.198138762832968496e-01
1.152697250247001648e+01 -1.010747259855270386e+01 -2.223010589004843496e-01
1.161132308840751648e+01 -1.002666205167770386e+01 -2.247882415176718496e-01
1.230016586184501648e+01 -1.185771673917770386e+01 -2.079577971817343496e-01
1.238341781497001648e+01 -1.175578802824020386e+01 -2.101398040176718496e-01
1.238549301028251648e+01 -1.157634466886520386e+01 -2.082171965957968496e-01
1.247509261965751648e+01 -1.148149603605270386e+01 -2.107501555801718496e-01
1.263280746340751648e+01 -1.145049017667770386e+01 -2.166858245254843496e-01
1.271593734622001648e+01 -1.134868353605270386e+01 -2.188830901504843496e-01
1.280236312747001648e+01 -1.125053900480270386e+01 -2.212329436661093496e-01
1.289831039309501648e+01 -1.116093939542770386e+01 -2.240558196426718496e-01
1.386071273684501648e+01 -1.340349310636520386e+01 -2.049670745254843496e-01
1.397338363528251648e+01 -1.330486029386520386e+01 -2.078509856582968496e-01
1.229467269778251648e+01 -1.148735541105270386e+01 -1.319842864395468496e-01
1.242248031497001648e+01 -1.142998236417770386e+01 -1.361957122207968496e-01
1.430553695559501648e+01 -1.300078314542770386e+01 -2.175555755020468496e-01
1.441674301028251648e+01 -1.289885443449020386e+01 -2.208056975723593496e-01
1.452782699465751648e+01 -1.279716986417770386e+01 -2.240558196426718496e-01
1.462841293215751648e+01 -1.268608587980270386e+01 -2.272754241348593496e-01
1.605041000247001648e+01 -1.557243841886520386e+01 -2.052569915176718496e-01
1.617650863528251648e+01 -1.545122259855270386e+01 -2.088428069473593496e-01
1.225866195559501648e+01 -1.145085638761520386e+01 -5.936770929110934958e-02
1.260314437747001648e+01 -1.159843939542770386e+01 -7.151370538485934958e-02
1.652428695559501648e+01 -1.505705755949020386e+01 -2.184711028457968496e-01
1.461461898684501648e+01 -1.307719916105270386e+01 -1.454577971817343496e-01
1.470543929934501648e+01 -1.295451849699020386e+01 -1.478839446426718496e-01
1.681664535403251648e+01 -1.461504095792770386e+01 -2.260242034317343496e-01
1.925512191653251648e+01 -1.874699896574020386e+01 -2.097583342911093496e-01
1.940124008059501648e+01 -1.859294623136520386e+01 -2.132220794082968496e-01
1.201891586184501648e+01 -1.121904486417770386e+01 1.958126531826565042e-02
1.248791000247001648e+01 -1.148784369230270386e+01 5.131192076078150421e-03
1.253686019778251648e+01 -1.135576361417770386e+01 3.895230162015650421e-03
1.258239242434501648e+01 -1.122124212980270386e+01 2.766079771390650421e-03
1.265026351809501648e+01 -1.110857123136520386e+01 9.350250838906504214e-04
1.268810531497001648e+01 -1.097002142667770386e+01 -3.314544082968495786e-04
2.462780258059501648e+01 -2.406926459074020386e+01 -2.265277434707968496e-01
2.516088363528251648e+01 -2.420488470792770386e+01 -2.404437590957968496e-01
1.187707015872001648e+01 -1.108110541105270386e+01 9.260982977139065042e-02
1.189892074465751648e+01 -1.093059271574020386e+01 9.181637274014065042e-02
1.194628402590751648e+01 -1.080620306730270386e+01 9.039730535732815042e-02
1.200377914309501648e+01 -1.069170111417770386e+01 8.870357977139065042e-02
1.206884261965751648e+01 -1.058525580167770386e+01 8.684200750576565042e-02
1.213659164309501648e+01 -1.048174017667770386e+01 8.488888250576565042e-02
2.513353988528251648e+01 -2.456633490324020386e+01 -8.401065362704684958e-02
2.589428207278251648e+01 -2.491557806730270386e+01 -1.000171233536093496e-01
1.185155746340751648e+01 -1.105486029386520386e+01 1.620220612167031504e-01
1.187707015872001648e+01 -1.090813177824020386e+01 1.607555817245156504e-01
1.193163558840751648e+01 -1.079082220792770386e+01 1.589703034042031504e-01
1.198534652590751648e+01 -1.067302435636520386e+01 1.571850250838906504e-01
1.205053207278251648e+01 -1.056706732511520386e+01 1.548351715682656504e-01
1.211754867434501648e+01 -1.046318548917770386e+01 1.528210114120156504e-01
2.443261215090751648e+01 -2.386760443449020386e+01 8.047909246670315042e-02
1.211937972903251648e+01 -1.148698920011520386e+01 2.284588287948281504e-01
1.183886215090751648e+01 -1.104094427824020386e+01 2.305645416854531504e-01
1.187133285403251648e+01 -1.090092962980270386e+01 2.288555573104531504e-01
1.191784164309501648e+01 -1.077629584074020386e+01 2.269634674667031504e-01
1.197326156497001648e+01 -1.066032904386520386e+01 2.249798248885781504e-01
1.203551742434501648e+01 -1.055180853605270386e+01 2.229198883651406504e-01
1.210082504153251648e+01 -1.044670599699020386e+01 2.208141754745156504e-01
2.607934066653251648e+01 -2.549480170011520386e+01 2.217449616073281504e-01
1.213341781497001648e+01 -1.149870795011520386e+01 2.990002106307656504e-01
1.183397933840751648e+01 -1.103447455167770386e+01 2.988933991073281504e-01
1.186864730715751648e+01 -1.089665716886520386e+01 2.968334625838906504e-01
1.191662093997001648e+01 -1.077336615324020386e+01 2.947124909042031504e-01
1.198595687747001648e+01 -1.067009466886520386e+01 2.924541901229531504e-01
1.205407211184501648e+01 -1.056670111417770386e+01 2.902111481307656504e-01
1.210998031497001648e+01 -1.045305365324020386e+01 2.880749176620156504e-01
2.448314926028251648e+01 -2.390947455167770386e+01 3.825268219588906504e-01
2.502379867434501648e+01 -2.405473822355270386e+01 3.775066803573281504e-01
1.183593246340751648e+01 -1.103447455167770386e+01 3.675121735213906504e-01
1.187072250247001648e+01 -1.089690130949020386e+01 3.651318024276406504e-01
1.191881820559501648e+01 -1.077361029386520386e+01 3.627819489120156504e-01
1.198070785403251648e+01 -1.066362494230270386e+01 3.604320953963906504e-01
1.205907699465751648e+01 -1.056950873136520386e+01 3.580975006698281504e-01
1.211571761965751648e+01 -1.045647162199020386e+01 3.557781647323281504e-01
1.859105941653251648e+01 -1.807024115324020386e+01 4.906811188338906504e-01
1.924108383059501648e+01 -1.841814154386520386e+01 4.903301666854531504e-01
1.185656234622001648e+01 -1.105241888761520386e+01 4.358868073104531504e-01
1.189086410403251648e+01 -1.091399115324020386e+01 4.332012604354531504e-01
1.193786117434501648e+01 -1.078960150480270386e+01 4.306072662948281504e-01
1.199157211184501648e+01 -1.067168158292770386e+01 4.280743073104531504e-01
1.205370590090751648e+01 -1.056291693449020386e+01 4.256176422713906504e-01
1.212169906497001648e+01 -1.046001166105270386e+01 4.231914948104531504e-01
1.866466781497001648e+01 -1.814006537199020386e+01 6.051678131698281504e-01
1.929455062747001648e+01 -1.846696966886520386e+01 6.078075836776406504e-01
1.190661117434501648e+01 -1.109843939542770386e+01 5.049175690292031504e-01
1.193920394778251648e+01 -1.095781439542770386e+01 5.018658112167031504e-01
1.198852035403251648e+01 -1.083476752042770386e+01 4.990581940292031504e-01
1.204394027590751648e+01 -1.071770209074020386e+01 4.963421295760781504e-01
1.210582992434501648e+01 -1.060796087980270386e+01 4.940838287948281504e-01
1.217101547122001648e+01 -1.050175970792770386e+01 4.915203522323281504e-01
2.461303207278251648e+01 -2.402592962980270386e+01 8.385052155135781504e-01
2.662267562747001648e+01 -2.559929388761520386e+01 8.693279694198281504e-01
1.194457504153251648e+01 -1.113310736417770386e+01 5.746960114120156504e-01
1.195580551028251648e+01 -1.097160834074020386e+01 5.708813141463906504e-01
1.200390121340751648e+01 -1.084721869230270386e+01 5.678295563338906504e-01
1.205944320559501648e+01 -1.073015326261520386e+01 5.649303864120156504e-01
1.212108871340751648e+01 -1.061980170011520386e+01 5.621685455917031504e-01
1.218615218997001648e+01 -1.051335638761520386e+01 5.594829987167031504e-01
2.442638656497001648e+01 -2.383696478605270386e+01 9.859661530135781504e-01
2.669469711184501648e+01 -2.566508978605270386e+01 1.034489102232328150e+00
1.198400375247001648e+01 -1.116899603605270386e+01 6.446117828963906504e-01
