1.049466030299663544e+01 -1.786327716708183289e+01 -2.429413343779742718e-01
1.059744350612163544e+01 -1.771667072176933289e+01 -2.462982679717242718e-01
1.069680874049663544e+01 -1.756689044833183289e+01 -2.494720960967242718e-01
9.377594873309135437e+00 -1.499596759676933289e+01 -1.654724623076617718e-01
8.931183740496635437e+00 -1.398180744051933289e+01 -1.357178236357867718e-01
8.084992334246635437e+00 -1.234472247958183289e+01 -8.194585097953677177e-02
9.094635888934135437e+00 -1.376208087801933289e+01 -1.411652113310992718e-01
9.175324365496635437e+00 -1.365356037020683289e+01 -1.438660169951617718e-01
1.143228237330913544e+01 -1.955285236239433289e+01 -2.032379652373492718e-01
1.165994350612163544e+01 -1.959533283114433289e+01 -2.128052259795367718e-01
1.186892788112163544e+01 -1.960021564364433289e+01 -2.218994642607867718e-01
1.204690639674663544e+01 -1.954735919833183289e+01 -2.293610121123492718e-01
1.222500698268413544e+01 -1.949450275301933289e+01 -2.368073011748492718e-01
8.086579248309135437e+00 -1.234325763583183289e+01 -1.979680312797427177e-02
1.284780971705913544e+01 -1.981335040926933289e+01 -2.654938246123492718e-01
1.305813686549663544e+01 -1.979955646395683289e+01 -2.751068617217242718e-01
1.214651577174663544e+01 -2.083727619051933289e+01 -1.355347181670367718e-01
1.242178432643413544e+01 -2.093944904208183289e+01 -1.469788099639117718e-01
1.268838588893413544e+01 -2.101879474520683289e+01 -1.580261732451617718e-01
1.294363491237163544e+01 -2.107091876864433289e+01 -1.685699964873492718e-01
1.321841518580913544e+01 -2.115124103426933289e+01 -1.799530531279742718e-01
8.088166162371635437e+00 -1.234179279208183289e+01 4.200129257515072823e-02
1.374978725612163544e+01 -2.126147052645683289e+01 -2.019104505889117718e-01
1.399624721705913544e+01 -2.127831622958183289e+01 -2.120575453154742718e-01
1.264993374049663544e+01 -2.173974201083183289e+01 -4.775090469047427177e-02
1.305520717799663544e+01 -2.205480548739433289e+01 -6.259770644828677177e-02
1.335830776393413544e+01 -2.217626544833183289e+01 -7.341618789359927177e-02
1.363919155299663544e+01 -2.224987384676933289e+01 -8.408208144828677177e-02
1.392373745143413544e+01 -2.232458087801933289e+01 -9.490056289359927177e-02
8.089753076434135437e+00 -1.234032794833183289e+01 1.041198228485882282e-01
1.461904995143413544e+01 -2.265587970614433289e+01 -1.215576673857867718e-01
1.495413295924663544e+01 -2.278734943270683289e+01 -1.341766859404742718e-01
1.324942104518413544e+01 -2.281505939364433289e+01 4.776911484077572823e-02
1.357522670924663544e+01 -2.296825763583183289e+01 3.693537460640072823e-02
1.392092983424663544e+01 -2.314635822176933289e+01 2.555231796577572823e-02
1.425479213893413544e+01 -2.329198810458183289e+01 1.436762558296322823e-02
1.455899135768413544e+01 -2.337951251864433289e+01 3.900096286088228226e-03
8.091339990496635437e+00 -1.233874103426933289e+01 1.659026597626507282e-01
1.526565639674663544e+01 -2.369030353426933289e+01 -1.975102676078677177e-02
1.564602749049663544e+01 -2.387462970614433289e+01 -3.235478652641177177e-02
1.373025600612163544e+01 -2.367541095614433289e+01 1.557555650360882282e-01
1.407693569362163544e+01 -2.384887287020683289e+01 1.457915757782757282e-01
1.441824428737163544e+01 -2.400231525301933289e+01 1.358123277314007282e-01
1.477175991237163544e+01 -2.416503497958183289e+01 1.254973863251507282e-01
1.512503139674663544e+01 -2.431823322176933289e+01 1.151061509735882282e-01
8.092926904559135437e+00 -1.233727619051933289e+01 2.276854966767132282e-01
1.566970913112163544e+01 -2.433336994051933289e+01 9.671931015327572823e-02
1.555740444362163544e+01 -2.372631427645683289e+01 9.412531601265072823e-02
1.419876186549663544e+01 -2.451269122958183289e+01 2.734923814423382282e-01
1.455105678737163544e+01 -2.467980548739433289e+01 2.647643540985882282e-01
1.491177456080913544e+01 -2.485094806551933289e+01 2.558379624970257282e-01
1.514370815455913544e+01 -2.479027912020683289e+01 2.475982164032757282e-01
1.564859096705913544e+01 -2.518517658114433289e+01 2.373595689423382282e-01
8.094513818621635437e+00 -1.233581134676933289e+01 2.897735093720257282e-01
1.563211147487163544e+01 -2.426440021395683289e+01 2.244811509735882282e-01
1.552298061549663544e+01 -2.366381427645683289e+01 2.192016099579632282e-01
1.464163295924663544e+01 -2.530297443270683289e+01 3.992705796845257282e-01
1.497647182643413544e+01 -2.542394611239433289e+01 3.916869615204632282e-01
1.495388881862163544e+01 -2.491527912020683289e+01 3.829436753876507282e-01
1.513186733424663544e+01 -2.476122638583183289e+01 3.748717759735882282e-01
1.525686733424663544e+01 -2.452160236239433289e+01 3.667846177704632282e-01
8.096100732684135437e+00 -1.233422443270683289e+01 3.515410874970257282e-01
1.578176967799663544e+01 -2.449706622958183289e+01 3.509307359345257282e-01
1.584170620143413544e+01 -2.415966388583183289e+01 3.429351304657757282e-01
1.457827846705913544e+01 -2.517943927645683289e+01 5.272002671845257282e-01
1.497866909205913544e+01 -2.541869708895683289e+01 5.217681382782757282e-01
1.509060756862163544e+01 -2.514367267489433289e+01 5.118804429657757282e-01
1.544888393580913544e+01 -2.529235431551933289e+01 5.055480455048382282e-01
1.518875209987163544e+01 -2.439940997958183289e+01 4.925322984345257282e-01
8.097687646746635437e+00 -1.233275958895683289e+01 4.132934068329632282e-01
1.560391323268413544e+01 -2.420226642489433289e+01 4.775786851532757282e-01
1.569705288112163544e+01 -2.392296954989433289e+01 4.687896226532757282e-01
1.533169643580913544e+01 -2.652904865145683289e+01 6.719146226532757282e-01
1.498098842799663544e+01 -2.541357013583183289e+01 6.511168931610882282e-01
1.617630092799663544e+01 -2.701830646395683289e+01 6.640258287079632282e-01
1.572610561549663544e+01 -2.575524494051933289e+01 6.417785142548382282e-01
1.604177944362163544e+01 -2.581566974520683289e+01 6.355834458954632282e-01
8.099274560809135437e+00 -1.233129474520683289e+01 4.753661607392132282e-01
1.584732143580913544e+01 -2.458581134676933289e+01 6.079040025360882282e-01
1.587991420924663544e+01 -2.420360919833183289e+01 5.970092271454632282e-01
6.777008935809135437e+00 -1.109667560458183289e+01 5.295043443329632282e-01
6.995148584246635437e+00 -1.128454181551933289e+01 5.300536607392132282e-01
7.223175927996635437e+00 -1.148058673739433289e+01 5.309081529267132282e-01
7.463288232684135437e+00 -1.168688556551933289e+01 5.318236802704632282e-01
7.714386865496635437e+00 -1.190282794833183289e+01 5.327697251923382282e-01
7.979279443621635437e+00 -1.213048908114433289e+01 5.337615464814007282e-01
8.257111474871635437e+00 -1.236938068270683289e+01 5.348144029267132282e-01
8.522614404559135437e+00 -1.257787677645683289e+01 5.355620835907757282e-01
6.713776513934135437e+00 -1.097887775301933289e+01 5.805755113251507282e-01
6.927521631121635437e+00 -1.116125079989433289e+01 5.825744126923382282e-01
7.151398584246635437e+00 -1.135204669833183289e+01 5.846496080048382282e-01
7.392853662371635437e+00 -1.156322833895683289e+01 5.870757554657757282e-01
7.649567529559135437e+00 -1.179064533114433289e+01 5.897613023407757282e-01
7.921051904559135437e+00 -1.203112384676933289e+01 5.925841783173382282e-01
8.206696435809135437e+00 -1.228417560458183289e+01 5.955596421845257282e-01
8.485260888934135437e+00 -1.251476642489433289e+01 5.979247544892132282e-01
6.762726709246635437e+00 -1.106335040926933289e+01 6.364684556610882282e-01
6.987702295184135437e+00 -1.126366779208183289e+01 6.398864244110882282e-01
7.224396631121635437e+00 -1.147484943270683289e+01 6.437926744110882282e-01
7.474274560809135437e+00 -1.169774982333183289e+01 6.479125474579632282e-01
7.736481592059135437e+00 -1.193175861239433289e+01 6.522460435517132282e-01
8.013459131121635437e+00 -1.217834064364433289e+01 6.568084214814007282e-01
8.222077295184135437e+00 -1.230480548739433289e+01 6.579680894501507282e-01
8.549836084246635437e+00 -1.261254474520683289e+01 6.643004869110882282e-01
6.765168115496635437e+00 -1.106383869051933289e+01 6.901336167939007282e-01
6.978913232684135437e+00 -1.124425861239433289e+01 6.944976304657757282e-01
7.202546045184135437e+00 -1.143310138583183289e+01 6.990447496064007282e-01
7.437531396746635437e+00 -1.163146564364433289e+01 7.038360093720257282e-01
7.683136865496635437e+00 -1.183874103426933289e+01 7.088408921845257282e-01
7.941803857684135437e+00 -1.205700275301933289e+01 7.141051744110882282e-01
8.212677881121635437e+00 -1.228576251864433289e+01 7.196288560517132282e-01
8.477570459246635437e+00 -1.249450275301933289e+01 7.243895982392132282e-01
6.720368310809135437e+00 -1.097912189364433289e+01 7.407775376923382282e-01
6.949372217059135437e+00 -1.118810626864433289e+01 7.474761460907757282e-01
7.190339013934135437e+00 -1.140795490145683289e+01 7.545104478485882282e-01
7.444733545184135437e+00 -1.163952228426933289e+01 7.616210435517132282e-01
7.712799951434135437e+00 -1.188402912020683289e+01 7.694335435517132282e-01
7.997589990496635437e+00 -1.214440509676933289e+01 7.781005357392132282e-01
8.290192529559135437e+00 -1.240624591708183289e+01 7.864013169892132282e-01
8.578644677996635437e+00 -1.264977619051933289e+01 7.939238999970257282e-01
6.805329248309135437e+00 -1.112841388583183289e+01 8.008971665985882282e-01
7.039582177996635437e+00 -1.134350177645683289e+01 8.089080308564007282e-01
1.585916225612163544e+01 -2.641161701083183289e+01 1.470941111911088228e+00
1.588565151393413544e+01 -2.597191974520683289e+01 1.448617503512650728e+00
1.535659877955913544e+01 -2.461950275301933289e+01 1.386422679293900728e+00
1.594485561549663544e+01 -2.513915607333183289e+01 1.406243846286088228e+00
1.643814174830913544e+01 -2.548412677645683289e+01 1.418313548434525728e+00
1.671902553737163544e+01 -2.547729083895683289e+01 1.415719554293900728e+00
6.449128076434135437e+00 -9.344966620206832886e+00 -1.650757337920367718e-01
6.510285302996635437e+00 -9.285640448331832886e+00 -1.669220472685992718e-01
6.568268701434135437e+00 -9.221797674894332886e+00 -1.687378431670367718e-01
6.626252099871635437e+00 -9.158076971769332886e+00 -1.705536390654742718e-01
6.683747217059135437e+00 -9.094844549894332886e+00 -1.723541761748492718e-01
6.741242334246635437e+00 -9.031734198331832886e+00 -1.741394544951617718e-01
6.807160302996635437e+00 -8.981441229581832886e+00 -1.767334486357867718e-01
6.871247217059135437e+00 -8.928950995206832886e+00 -1.794037367217242718e-01
6.975495263934135437e+00 -1.017675372958183289e+01 -1.639465834014117718e-01
7.038727685809135437e+00 -1.010570880770683289e+01 -1.659912611357867718e-01
7.101838037371635437e+00 -1.003490802645683289e+01 -1.680359388701617718e-01
7.167756006121635437e+00 -9.968501776456832886e+00 -1.700500990264117718e-01
7.230256006121635437e+00 -9.898189276456832886e+00 -1.720795179717242718e-01
7.289704248309135437e+00 -9.823726385831832886e+00 -1.741241957060992718e-01
7.351715967059135437e+00 -9.754024237394332886e+00 -1.761230970732867718e-01
7.413361474871635437e+00 -9.684566229581832886e+00 -1.781219984404742718e-01
7.574982568621635437e+00 -1.112414142489433289e+01 -1.593994642607867718e-01
7.634797021746635437e+00 -1.103039142489433289e+01 -1.610168959014117718e-01
7.702790185809135437e+00 -1.095043537020683289e+01 -1.632751966826617718e-01
7.770539209246635437e+00 -1.087047931551933289e+01 -1.655334974639117718e-01
7.837799951434135437e+00 -1.079113361239433289e+01 -1.677612806670367718e-01
7.905060693621635437e+00 -1.071190997958183289e+01 -1.699890638701617718e-01
7.971711084246635437e+00 -1.063341876864433289e+01 -1.722015882842242718e-01
8.037995263934135437e+00 -1.055517169833183289e+01 -1.744141126982867718e-01
8.345368310809135437e+00 -1.234167072176933289e+01 -1.566223646514117718e-01
8.453644677996635437e+00 -1.230126544833183289e+01 -1.611694837920367718e-01
8.523957177996635437e+00 -1.220190021395683289e+01 -1.634277845732867718e-01
8.580475732684135437e+00 -1.208263751864433289e+01 -1.647705580107867718e-01
8.642243310809135437e+00 -1.197350665926933289e+01 -1.665100599639117718e-01
8.708527490496635437e+00 -1.187218829989433289e+01 -1.685547376982867718e-01
8.774201318621635437e+00 -1.177184650301933289e+01 -1.705841566435992718e-01
8.835358545184135437e+00 -1.166662189364433289e+01 -1.726440931670367718e-01
9.175690576434135437e+00 -1.365319415926933289e+01 -1.438660169951617718e-01
9.268830224871635437e+00 -1.356530353426933289e+01 -1.475128675810992718e-01
9.386383935809135437e+00 -1.351549884676933289e+01 -1.526093031279742718e-01
9.504670068621635437e+00 -1.346545001864433289e+01 -1.577515150420367718e-01
9.620148584246635437e+00 -1.341100665926933289e+01 -1.627258802764117718e-01
9.700104638934135437e+00 -1.330382892489433289e+01 -1.655792738310992718e-01
9.779328271746635437e+00 -1.319774982333183289e+01 -1.684021498076617718e-01
9.858063623309135437e+00 -1.309215900301933289e+01 -1.712097669951617718e-01
1.305911342799663544e+01 -1.979992267489433289e+01 -2.751526380889117718e-01
1.326968471705913544e+01 -1.978319904208183289e+01 -2.838654066435992718e-01
1.093008510768413544e+01 -1.586864826083183289e+01 -1.619934584014117718e-01
1.098233120143413544e+01 -1.567724201083183289e+01 -1.634430433623492718e-01
1.069656459987163544e+01 -1.499254962801933289e+01 -1.476044203154742718e-01
1.027310268580913544e+01 -1.412890216708183289e+01 -1.248383070342242718e-01
1.096878139674663544e+01 -1.488476154208183289e+01 -1.592011000029742718e-01
1.107656948268413544e+01 -1.479040119051933289e+01 -1.639771009795367718e-01
1.399734584987163544e+01 -2.127880451083183289e+01 -2.120880628935992718e-01
1.424404995143413544e+01 -2.129149982333183289e+01 -2.224335218779742718e-01
1.447720424830913544e+01 -2.127904865145683289e+01 -2.321838880889117718e-01
1.471365444362163544e+01 -2.126659747958183289e+01 -2.420563246123492718e-01
1.495156948268413544e+01 -2.125402423739433289e+01 -2.520050550810992718e-01
1.027493374049663544e+01 -1.412707111239433289e+01 -5.071110976859927177e-02
1.552981655299663544e+01 -2.136266681551933289e+01 -2.762970472685992718e-01
1.456594936549663544e+01 -1.965880939364433289e+01 -2.346100355498492718e-01
1.495584194362163544e+01 -2.278881427645683289e+01 -1.342377210967242718e-01
1.525454799830913544e+01 -2.285485431551933289e+01 -1.457733656279742718e-01
1.558450405299663544e+01 -2.296190997958183289e+01 -1.577667738310992718e-01
1.594180385768413544e+01 -2.310045978426933289e+01 -1.713623548857867718e-01
1.626968471705913544e+01 -2.318774005770683289e+01 -1.839813734404742718e-01
1.027688686549663544e+01 -1.412536212801933289e+01 2.381281601265072823e-02
1.683596889674663544e+01 -2.321154376864433289e+01 -2.068085218779742718e-01
1.716214077174663544e+01 -2.327709552645683289e+01 -2.194275404326617718e-01
1.564822475612163544e+01 -2.387658283114433289e+01 -3.241582168266177177e-02
1.603457729518413544e+01 -2.405907794833183289e+01 -4.535527480766177177e-02
1.640799038112163544e+01 -2.421068927645683289e+01 -5.802006972953677177e-02
1.675613491237163544e+01 -2.431286212801933289e+01 -7.010503066703677177e-02
1.710989467799663544e+01 -2.441662189364433289e+01 -8.237309707328677177e-02
1.027871792018413544e+01 -1.412365314364433289e+01 9.792475448921322823e-02
1.777920620143413544e+01 -2.454369708895683289e+01 -1.060699964873492718e-01
1.809976284205913544e+01 -2.457812091708183289e+01 -1.176056410185992718e-01
1.555935756862163544e+01 -2.372790119051933289e+01 9.407953964546322823e-02
1.662393276393413544e+01 -2.496618244051933289e+01 7.091669784858822823e-02
1.622512905299663544e+01 -2.392370197176933289e+01 7.343439804390072823e-02
1.736087124049663544e+01 -2.521081134676933289e+01 4.836420761421322823e-02
1.753262417018413544e+01 -2.503063556551933289e+01 4.058222519233822823e-02
1.028054897487163544e+01 -1.412182208895683289e+01 1.720214341767132282e-01
1.848721401393413544e+01 -2.554125568270683289e+01 1.342158066108822823e-02
1.821402065455913544e+01 -2.472985431551933289e+01 1.410822616890072823e-02
1.552493374049663544e+01 -2.366552326083183289e+01 2.191710923798382282e-01
1.721133510768413544e+01 -2.586974689364433289e+01 1.978545640595257282e-01
1.618740932643413544e+01 -2.385827228426933289e+01 2.010589097626507282e-01
1.805300991237163544e+01 -2.623864337801933289e+01 1.766143296845257282e-01
1.748794643580913544e+01 -2.495678302645683289e+01 1.758971665985882282e-01
1.028238002955913544e+01 -1.412011310458183289e+01 2.465148423798382282e-01
1.865896694362163544e+01 -2.577685138583183289e+01 1.508117173798382282e-01
1.824502651393413544e+01 -2.476513263583183289e+01 1.492400621064007282e-01
1.584170620143413544e+01 -2.415807697176933289e+01 3.429046128876507282e-01
1.661062709987163544e+01 -2.492882892489433289e+01 3.346953843720257282e-01
1.615310756862163544e+01 -2.379809162020683289e+01 3.272948716767132282e-01
1.779348842799663544e+01 -2.584154865145683289e+01 3.170714830048382282e-01
1.744387905299663544e+01 -2.488366290926933289e+01 3.097014878876507282e-01
1.028433315455913544e+01 -1.411828204989433289e+01 3.205962632782757282e-01
1.859695522487163544e+01 -2.568053790926933289e+01 2.908263658173382282e-01
1.820120327174663544e+01 -2.469616290926933289e+01 2.843108628876507282e-01
1.569705288112163544e+01 -2.392150470614433289e+01 4.687591050751507282e-01
1.761721889674663544e+01 -2.648217365145683289e+01 4.746184800751507282e-01
1.612429897487163544e+01 -2.374633380770683289e+01 4.529357408173382282e-01
1.722696010768413544e+01 -2.498534747958183289e+01 4.511352037079632282e-01
1.739993374049663544e+01 -2.481103107333183289e+01 4.427123521454632282e-01
1.028616420924663544e+01 -1.411657306551933289e+01 3.946776841767132282e-01
1.791787807643413544e+01 -2.470910236239433289e+01 4.274840806610882282e-01
1.818740932643413544e+01 -2.466906329989433289e+01 4.194884751923382282e-01
1.587967006862163544e+01 -2.420177814364433289e+01 5.969787095673382282e-01
1.591446010768413544e+01 -2.383239337801933289e+01 5.865874742157757282e-01
1.677017299830913544e+01 -2.472204181551933289e+01 5.892119859345257282e-01
1.683621303737163544e+01 -2.439269611239433289e+01 5.790954087860882282e-01
2.011709682643413544e+01 -2.879516193270683289e+01 6.148467515595257282e-01
1.028799526393413544e+01 -1.411474201083183289e+01 4.691253160126507282e-01
2.143997280299663544e+01 -2.969530841708183289e+01 6.066070054657757282e-01
1.819217006862163544e+01 -2.466784259676933289e+01 5.538726304657757282e-01
8.524079248309135437e+00 -1.257958576083183289e+01 5.355773423798382282e-01
8.806794092059135437e+00 -1.280492755770683289e+01 5.359130357392132282e-01
9.103302881121635437e+00 -1.304088947176933289e+01 5.366149400360882282e-01
9.416291162371635437e+00 -1.329003497958183289e+01 5.373473619110882282e-01
9.744904443621635437e+00 -1.355163165926933289e+01 5.381255601532757282e-01
1.009268276393413544e+01 -1.382860919833183289e+01 5.389342759735882282e-01
1.045901577174663544e+01 -1.412011310458183289e+01 5.398040269501507282e-01
1.080142299830913544e+01 -1.436571857333183289e+01 5.402160142548382282e-01
8.486847802996635437e+00 -1.251647540926933289e+01 5.979552720673382282e-01
8.777131006121635437e+00 -1.275487872958183289e+01 6.005034898407757282e-01
9.083039209246635437e+00 -1.300597736239433289e+01 6.032042955048382282e-01
9.406891748309135437e+00 -1.327184650301933289e+01 6.060576890595257282e-01
9.747834131121635437e+00 -1.355175372958183289e+01 6.090484117157757282e-01
1.010989467799663544e+01 -1.384899494051933289e+01 6.122374986298382282e-01
1.042398159205913544e+01 -1.406603595614433289e+01 6.136413072235882282e-01
1.084414760768413544e+01 -1.442077228426933289e+01 6.176696275360882282e-01
8.551300927996635437e+00 -1.261425372958183289e+01 6.643462632782757282e-01
8.831574365496635437e+00 -1.283507892489433289e+01 6.677184556610882282e-01
9.125397607684135437e+00 -1.306615802645683289e+01 6.715941880829632282e-01
9.435212060809135437e+00 -1.330993244051933289e+01 6.756835435517132282e-01
9.760285302996635437e+00 -1.356566974520683289e+01 6.799865220673382282e-01
1.010403530299663544e+01 -1.383605548739433289e+01 6.845183824189007282e-01
1.042581264674663544e+01 -1.406432697176933289e+01 6.878447984345257282e-01
1.080362026393413544e+01 -1.435985919833183289e+01 6.931853746064007282e-01
8.479035302996635437e+00 -1.249621173739433289e+01 7.244353746064007282e-01
8.760773584246635437e+00 -1.272118732333183289e+01 7.298675035126507282e-01
9.074006006121635437e+00 -1.298376056551933289e+01 7.364287828095257282e-01
9.406281396746635437e+00 -1.326232501864433289e+01 7.433867906220257282e-01
9.756867334246635437e+00 -1.355639240145683289e+01 7.507110093720257282e-01
1.013003627955913544e+01 -1.386925861239433289e+01 7.585235093720257282e-01
1.050991909205913544e+01 -1.417895099520683289e+01 7.661071275360882282e-01
1.088308803737163544e+01 -1.446606037020683289e+01 7.728515123017132282e-01
8.580353662371635437e+00 -1.265172931551933289e+01 7.940001939423382282e-01
1.659329311549663544e+01 -2.484362384676933289e+01 1.254098460543900728e+00
1.764785854518413544e+01 -2.601537677645683289e+01 1.295190379489213228e+00
1.697378627955913544e+01 -2.455797931551933289e+01 1.236367747653275728e+00
1.714785854518413544e+01 -2.439269611239433289e+01 1.227029368747025728e+00
1.727298061549663544e+01 -2.415673419833183289e+01 1.215737864840775728e+00
1.756875698268413544e+01 -2.416711017489433289e+01 1.212960765231400728e+00
2.502029506862163544e+01 -3.412658283114433289e+01 1.578851268161088228e+00
1.672024624049663544e+01 -2.547765704989433289e+01 1.415719554293900728e+00
1.672525112330913544e+01 -2.503954669833183289e+01 1.393609568942338228e+00
1.656887905299663544e+01 -2.436693927645683289e+01 1.362115428317338228e+00
1.677871792018413544e+01 -2.425878497958183289e+01 1.355065867770463228e+00
1.703335659205913544e+01 -2.421691486239433289e+01 1.350884959567338228e+00
1.697744838893413544e+01 -2.372314044833183289e+01 1.327279612887650728e+00
1.743875209987163544e+01 -2.397558185458183289e+01 1.335687205661088228e+00
2.527090542018413544e+01 -3.446410724520683289e+01 1.782144114840775728e+00
6.871491357684135437e+00 -8.928950995206832886e+00 -1.794189955107867718e-01
6.938385888934135437e+00 -8.880244940519332886e+00 -1.820587660185992718e-01
7.002716943621635437e+00 -8.828242987394332886e+00 -1.847290541045367718e-01
7.059479638934135437e+00 -8.765742987394332886e+00 -1.867126966826617718e-01
7.114167138934135437e+00 -8.701411932706832886e+00 -1.885284925810992718e-01
7.168854638934135437e+00 -8.637080878019332886e+00 -1.903442884795367718e-01
7.223053857684135437e+00 -8.573238104581832886e+00 -1.921448255889117718e-01
7.279206201434135437e+00 -8.512080878019332886e+00 -1.943573500029742718e-01
7.413483545184135437e+00 -9.684322088956832886e+00 -1.781219984404742718e-01
7.472687646746635437e+00 -9.612056463956832886e+00 -1.801361585967242718e-01
7.531647607684135437e+00 -9.540157049894332886e+00 -1.821350599639117718e-01
7.593537256121635437e+00 -9.472285956144332886e+00 -1.841034437529742718e-01
7.656891748309135437e+00 -9.407100409269332886e+00 -1.864838148467242718e-01
7.723664209246635437e+00 -9.346309393644332886e+00 -1.893982435576617718e-01
7.793366357684135437e+00 -9.289790838956832886e+00 -1.922821546904742718e-01
7.862824365496635437e+00 -9.233272284269332886e+00 -1.951813246123492718e-01
8.038239404559135437e+00 -1.055492755770683289e+01 -1.744141126982867718e-01
8.101838037371635437e+00 -1.047375079989433289e+01 -1.766266371123492718e-01
8.165192529559135437e+00 -1.039281818270683289e+01 -1.788239027373492718e-01
8.228424951434135437e+00 -1.031188556551933289e+01 -1.810211683623492718e-01
8.291169092059135437e+00 -1.023168537020683289e+01 -1.832031751982867718e-01
8.354401513934135437e+00 -1.015233966708183289e+01 -1.854309584014117718e-01
8.430451318621635437e+00 -1.009020587801933289e+01 -1.885895277373492718e-01
8.506501123309135437e+00 -1.002807208895683289e+01 -1.917480970732867718e-01
8.835480615496635437e+00 -1.166613361239433289e+01 -1.726593519560992718e-01
8.902008935809135437e+00 -1.156957599520683289e+01 -1.746277357451617718e-01
8.964020654559135437e+00 -1.146801349520683289e+01 -1.766571546904742718e-01
9.025788232684135437e+00 -1.136681720614433289e+01 -1.786713148467242718e-01
9.086945459246635437e+00 -1.126647540926933289e+01 -1.806702162139117718e-01
9.147980615496635437e+00 -1.116649982333183289e+01 -1.826538587920367718e-01
9.208405420184135437e+00 -1.106762287020683289e+01 -1.846222425810992718e-01
9.274445459246635437e+00 -1.097668048739433289e+01 -1.872925306670367718e-01
9.858429834246635437e+00 -1.309203693270683289e+01 -1.712402845732867718e-01
9.933869287371635437e+00 -1.298302814364433289e+01 -1.740479017607867718e-01
1.000894252955913544e+01 -1.287475177645683289e+01 -1.768402601592242718e-01
1.008389370143413544e+01 -1.276671954989433289e+01 -1.796326185576617718e-01
1.015811245143413544e+01 -1.265954181551933289e+01 -1.824097181670367718e-01
1.023220913112163544e+01 -1.255260822176933289e+01 -1.851715589873492718e-01
1.030569545924663544e+01 -1.244652912020683289e+01 -1.879028822295367718e-01
1.037869350612163544e+01 -1.234106037020683289e+01 -1.906342054717242718e-01
1.107693569362163544e+01 -1.479015704989433289e+01 -1.639923597685992718e-01
1.116653530299663544e+01 -1.467113849520683289e+01 -1.671814466826617718e-01
1.124820034205913544e+01 -1.454272052645683289e+01 -1.703857923857867718e-01
1.132962124049663544e+01 -1.441442462801933289e+01 -1.735748792998492718e-01
1.141030971705913544e+01 -1.428747150301933289e+01 -1.767487074248492718e-01
1.149063198268413544e+01 -1.416088458895683289e+01 -1.799072767607867718e-01
1.157034389674663544e+01 -1.403539630770683289e+01 -1.830353285185992718e-01
1.164175502955913544e+01 -1.390111896395683289e+01 -1.861633802764117718e-01
1.456582729518413544e+01 -1.965746662020683289e+01 -2.346100355498492718e-01
1.279238979518413544e+01 -1.689770099520683289e+01 -1.583771253935992718e-01
1.279361049830913544e+01 -1.662231037020683289e+01 -1.583618666045367718e-01
1.292019741237163544e+01 -1.651830646395683289e+01 -1.637329603545367718e-01
1.256118862330913544e+01 -1.578258869051933289e+01 -1.482605482451617718e-01
1.319656459987163544e+01 -1.634106037020683289e+01 -1.754669691435992718e-01
1.331277553737163544e+01 -1.622484943270683289e+01 -1.803955580107867718e-01
1.342202846705913544e+01 -1.610045978426933289e+01 -1.850189710967242718e-01
1.716446010768413544e+01 -2.327904865145683289e+01 -2.195190931670367718e-01
1.752444545924663544e+01 -2.338402912020683289e+01 -2.334961439482867718e-01
1.780789272487163544e+01 -2.337731525301933289e+01 -2.441162611357867718e-01
1.806900112330913544e+01 -2.333520099520683289e+01 -2.546600843779742718e-01
1.256338588893413544e+01 -1.578051349520683289e+01 -6.136174453422427177e-02
1.854129116237163544e+01 -2.317821857333183289e+01 -2.739929701201617718e-01
1.875869838893413544e+01 -2.307360431551933289e+01 -2.836975599639117718e-01
1.572744838893413544e+01 -1.894811603426933289e+01 -1.770386244170367718e-01
1.809890834987163544e+01 -2.457555744051933289e+01 -1.175903822295367718e-01
1.849966518580913544e+01 -2.471386310458183289e+01 -1.314453626982867718e-01
1.903579799830913544e+01 -2.502489826083183289e+01 -1.490997816435992718e-01
1.942800991237163544e+01 -2.512804767489433289e+01 -1.628937269560992718e-01
1.256546108424663544e+01 -1.577856037020683289e+01 2.506403671577572823e-02
2.017166225612163544e+01 -2.525756427645683289e+01 -1.895203138701617718e-01
2.051150600612163544e+01 -2.527172443270683289e+01 -2.020020033232867718e-01
2.084695522487163544e+01 -2.527465412020683289e+01 -2.143921400420367718e-01
1.821328823268413544e+01 -2.472729083895683289e+01 1.410822616890072823e-02
1.820816127955913544e+01 -2.430663654208183289e+01 9.774730075150728226e-03
1.868460170924663544e+01 -2.454394122958183289e+01 -3.988697659224271774e-03
1.864309780299663544e+01 -2.408092853426933289e+01 -7.528736721724271774e-03
1.256753627955913544e+01 -1.577648517489433289e+01 1.114745591767132282e-01
2.120388881862163544e+01 -2.657043048739433289e+01 -6.853337539359927177e-02
2.162258999049663544e+01 -2.666137287020683289e+01 -8.190007461234927177e-02
2.219851772487163544e+01 -2.693835040926933289e+01 -9.865422500297427177e-02
1.824563686549663544e+01 -2.476452228426933289e+01 1.492095445282757282e-01
1.831839077174663544e+01 -2.444982501864433289e+01 1.423888658173382282e-01
2.066079799830913544e+01 -2.719787189364433289e+01 1.082702134735882282e-01
1.889956752955913544e+01 -2.441283771395683289e+01 1.235747789032757282e-01
1.256973354518413544e+01 -1.577440997958183289e+01 1.983428453095257282e-01
2.214285366237163544e+01 -2.776305744051933289e+01 6.978754745796322823e-02
2.262429897487163544e+01 -2.791271564364433289e+01 5.680231796577572823e-02
2.312258999049663544e+01 -2.807238361239433289e+01 4.342035995796322823e-02
1.820181362330913544e+01 -2.469555255770683289e+01 2.842803453095257282e-01
1.857840053737163544e+01 -2.479833576083183289e+01 2.753386949189007282e-01
1.836538784205913544e+01 -2.409862872958183289e+01 2.688384507782757282e-01
1.872476284205913544e+01 -2.417394611239433289e+01 2.598815415985882282e-01
1.257180874049663544e+01 -1.577245685458183289e+01 2.847381089814007282e-01
1.895596401393413544e+01 -2.367992755770683289e+01 2.443480943329632282e-01
2.345230190455913544e+01 -2.894494220614433289e+01 2.104125474579632282e-01
2.396719448268413544e+01 -2.910753986239433289e+01 1.985869859345257282e-01
1.818765346705913544e+01 -2.466796466708183289e+01 4.194579576142132282e-01
1.863284389674663544e+01 -2.486510822176933289e+01 4.122100328095257282e-01
1.837796108424663544e+01 -2.410802814364433289e+01 4.016662095673382282e-01
1.882071010768413544e+01 -2.429333087801933289e+01 3.942199205048382282e-01
1.257388393580913544e+01 -1.577038165926933289e+01 3.711333726532757282e-01
1.896646206080913544e+01 -2.368615314364433289e+01 3.772826646454632282e-01
2.423806850612163544e+01 -2.992321369051933289e+01 3.769774888642132282e-01
2.472305385768413544e+01 -3.003234454989433289e+01 3.667998765595257282e-01
1.819241420924663544e+01 -2.466674396395683289e+01 5.538421128876507282e-01
1.832241909205913544e+01 -2.443224689364433289e+01 5.449004624970257282e-01
1.873916713893413544e+01 -2.458654376864433289e+01 5.391784165985882282e-01
1.881289760768413544e+01 -2.427538654208183289e+01 5.295958970673382282e-01
1.257608120143413544e+01 -1.576842853426933289e+01 4.579558824189007282e-01
1.923819057643413544e+01 -2.402599689364433289e+01 5.134520982392132282e-01
2.495938198268413544e+01 -3.082006427645683289e+01 5.535674546845257282e-01
2.548538295924663544e+01 -3.096471759676933289e+01 5.450835679657757282e-01
1.080349819362163544e+01 -1.436779376864433289e+01 5.402312730439007282e-01
1.117154018580913544e+01 -1.463720294833183289e+01 5.401549790985882282e-01
1.155862514674663544e+01 -1.492016193270683289e+01 5.404906724579632282e-01
1.196853725612163544e+01 -1.521972247958183289e+01 5.408568833954632282e-01
1.240029995143413544e+01 -1.553527423739433289e+01 5.412383531220257282e-01
1.283902065455913544e+01 -1.584496662020683289e+01 5.412993882782757282e-01
1.327273647487163544e+01 -1.613561603426933289e+01 5.409179185517132282e-01
1.372854702174663544e+01 -1.644054767489433289e+01 5.409942124970257282e-01
1.084622280299663544e+01 -1.442296954989433289e+01 6.177001451142132282e-01
1.122915737330913544e+01 -1.471154376864433289e+01 6.204162095673382282e-01
1.163369838893413544e+01 -1.501659747958183289e+01 6.233001207001507282e-01
1.206350795924663544e+01 -1.534057208895683289e+01 6.263518785126507282e-01
1.251065151393413544e+01 -1.567394611239433289e+01 6.294036363251507282e-01
1.293740932643413544e+01 -1.596581622958183289e+01 6.314635728485882282e-01
1.337210170924663544e+01 -1.625548908114433289e+01 6.333098863251507282e-01
1.382974331080913544e+01 -1.656054279208183289e+01 6.352630113251507282e-01
1.080569545924663544e+01 -1.436193439364433289e+01 6.932311509735882282e-01
1.116885463893413544e+01 -1.462450763583183289e+01 6.970000718720257282e-01
1.155056850612163544e+01 -1.490014240145683289e+01 7.013793443329632282e-01
1.195437709987163544e+01 -1.519164630770683289e+01 7.060180162079632282e-01
1.240896694362163544e+01 -1.553710529208183289e+01 7.118621324189007282e-01
1.287112514674663544e+01 -1.587633869051933289e+01 7.173705552704632282e-01
1.332876674830913544e+01 -1.619628497958183289e+01 7.222381089814007282e-01
1.381387417018413544e+01 -1.653600665926933289e+01 7.279143785126507282e-01
1.088540737330913544e+01 -1.446837970614433289e+01 7.729278062470257282e-01
1.128054897487163544e+01 -1.477282306551933289e+01 7.803740953095257282e-01
2.569070522487163544e+01 -3.389721271395683289e+01 1.372720286715775728e+00
2.399966518580913544e+01 -3.109545490145683289e+01 1.280923411715775728e+00
1.894741909205913544e+01 -2.402062579989433289e+01 1.058465525973588228e+00
2.749966518580913544e+01 -3.453893634676933289e+01 1.376763865817338228e+00
2.527615444362163544e+01 -3.117968341708183289e+01 1.269052073825150728e+00
2.515908901393413544e+01 -3.052440997958183289e+01 1.244256541598588228e+00
2.502224819362163544e+01 -3.412731525301933289e+01 1.578851268161088228e+00
2.337783901393413544e+01 -3.130370685458183289e+01 1.470681712497025728e+00
2.566946499049663544e+01 -3.385778400301933289e+01 1.561166331637650728e+00
2.413699428737163544e+01 -3.126696369051933289e+01 1.461206004489213228e+00
2.759207241237163544e+01 -3.523205158114433289e+01 1.602487132418900728e+00
2.448123256862163544e+01 -3.067760822176933289e+01 1.433267161715775728e+00
2.529409877955913544e+01 -3.119262287020683289e+01 1.448297068942338228e+00
2.939492885768413544e+01 -3.573791095614433289e+01 1.609124705661088228e+00
2.527224819362163544e+01 -3.446398517489433289e+01 1.782113597262650728e+00
2.340286342799663544e+01 -3.132812091708183289e+01 1.644738719332963228e+00
2.354495327174663544e+01 -3.099401447176933289e+01 1.628045604098588228e+00
2.582193081080913544e+01 -3.348107501864433289e+01 1.731118724215775728e+00
2.424478237330913544e+01 -3.087829181551933289e+01 1.618112132418900728e+00
2.522134487330913544e+01 -3.161205646395683289e+01 1.646585032809525728e+00
2.947708217799663544e+01 -3.642736408114433289e+01 1.847146556247025728e+00
2.554727260768413544e+01 -3.098424884676933289e+01 1.615777537692338228e+00
7.279328271746635437e+00 -8.511836737394332886e+00 -1.943573500029742718e-01
7.338776513934135437e+00 -8.454951971769332886e+00 -1.965851332060992718e-01
7.395050927996635437e+00 -8.394649237394332886e+00 -1.987976576201617718e-01
7.451447412371635437e+00 -8.334102362394332886e+00 -2.010101820342242718e-01
7.507477685809135437e+00 -8.274043768644332886e+00 -2.032074476592242718e-01
7.563752099871635437e+00 -8.213741034269332886e+00 -2.054199720732867718e-01
7.619660302996635437e+00 -8.153804510831832886e+00 -2.076019789092242718e-01
7.672272607684135437e+00 -8.090572088956832886e+00 -2.097839857451617718e-01
7.863068506121635437e+00 -9.233028143644332886e+00 -1.951813246123492718e-01
7.930207177996635437e+00 -9.173457831144332886e+00 -1.980804945342242718e-01
7.997345849871635437e+00 -9.114009588956832886e+00 -2.009796644560992718e-01
8.067902490496635437e+00 -9.058101385831832886e+00 -2.038635755889117718e-01
8.131989404559135437e+00 -8.995235174894332886e+00 -2.065338636748492718e-01
8.189362451434135437e+00 -8.924190253019332886e+00 -2.089294935576617718e-01
8.247467920184135437e+00 -8.854976385831832886e+00 -2.111267591826617718e-01
8.302033349871635437e+00 -8.782222479581832886e+00 -2.130646253935992718e-01
8.506623193621635437e+00 -1.002782794833183289e+01 -1.917633558623492718e-01
8.572663232684135437e+00 -9.953609198331832886e+00 -1.944031263701617718e-01
8.638581201434135437e+00 -9.879634588956832886e+00 -1.970428968779742718e-01
8.704499170184135437e+00 -9.805415838956832886e+00 -1.996826673857867718e-01
8.770050927996635437e+00 -9.731807440519332886e+00 -2.023071791045367718e-01
8.835724756121635437e+00 -9.657954901456832886e+00 -2.049316908232867718e-01
8.901032373309135437e+00 -9.584590643644332886e+00 -2.075409437529742718e-01
8.966095849871635437e+00 -9.511348456144332886e+00 -2.101501966826617718e-01
9.274689599871635437e+00 -1.097631427645683289e+01 -1.872925306670367718e-01
9.351715967059135437e+00 -1.089953204989433289e+01 -1.902222181670367718e-01
9.424347802996635437e+00 -1.081786701083183289e+01 -1.932129408232867718e-01
9.497223779559135437e+00 -1.073607990145683289e+01 -1.961884046904742718e-01
9.569611474871635437e+00 -1.065478107333183289e+01 -1.991486097685992718e-01
9.642121240496635437e+00 -1.057336017489433289e+01 -2.021240736357867718e-01
9.714142724871635437e+00 -1.049230548739433289e+01 -2.050690199248492718e-01
9.781647607684135437e+00 -1.040685626864433289e+01 -2.080597425810992718e-01
1.037857143580913544e+01 -1.234008380770683289e+01 -1.906189466826617718e-01
1.044815151393413544e+01 -1.223144122958183289e+01 -1.933197523467242718e-01
1.051760952174663544e+01 -1.212353107333183289e+01 -1.960358167998492718e-01
1.058682338893413544e+01 -1.201574298739433289e+01 -1.987366224639117718e-01
1.065554897487163544e+01 -1.190880939364433289e+01 -2.014221693389117718e-01
1.072415249049663544e+01 -1.180199787020683289e+01 -2.040924574248492718e-01
1.079226772487163544e+01 -1.169616290926933289e+01 -2.067474867217242718e-01
1.085989467799663544e+01 -1.159081622958183289e+01 -2.093872572295367718e-01
1.164187709987163544e+01 -1.390050861239433289e+01 -1.861633802764117718e-01
1.172500698268413544e+01 -1.378210040926933289e+01 -1.892303968779742718e-01
1.180008022487163544e+01 -1.365490314364433289e+01 -1.923126722685992718e-01
1.187515346705913544e+01 -1.352819415926933289e+01 -1.953949476592242718e-01
1.194949428737163544e+01 -1.340258380770683289e+01 -1.984467054717242718e-01
1.202371303737163544e+01 -1.327733966708183289e+01 -2.014832044951617718e-01
1.209719936549663544e+01 -1.315319415926933289e+01 -2.045044447295367718e-01
1.216238491237163544e+01 -1.302099201083183289e+01 -2.075104261748492718e-01
1.342227260768413544e+01 -1.609984943270683289e+01 -1.850342298857867718e-01
1.349807827174663544e+01 -1.593554279208183289e+01 -1.883759046904742718e-01
1.353946010768413544e+01 -1.573205158114433289e+01 -1.902374769560992718e-01
1.358035366237163544e+01 -1.553039142489433289e+01 -1.920837904326617718e-01
1.363638393580913544e+01 -1.535021564364433289e+01 -1.945709730498492718e-01
1.371658413112163544e+01 -1.519921466708183289e+01 -1.980957533232867718e-01
1.379592983424663544e+01 -1.504980060458183289e+01 -2.015900160185992718e-01
1.387478725612163544e+01 -1.490124103426933289e+01 -2.050537611357867718e-01
1.572757045924663544e+01 -1.894726154208183289e+01 -1.770538832060992718e-01
1.582852260768413544e+01 -1.876562091708183289e+01 -1.818146253935992718e-01
1.490225307643413544e+01 -1.735729572176933289e+01 -1.493134046904742718e-01
1.603592006862163544e+01 -1.841357013583183289e+01 -1.909698988310992718e-01
1.613504116237163544e+01 -1.823522540926933289e+01 -1.956543470732867718e-01
1.623379604518413544e+01 -1.805736896395683289e+01 -2.003235365264117718e-01
1.626162807643413544e+01 -1.780285236239433289e+01 -2.029785658232867718e-01
1.629031459987163544e+01 -1.755370685458183289e+01 -2.050842787139117718e-01
2.084854213893413544e+01 -2.527526447176933289e+01 -2.144531751982867718e-01
2.129885952174663544e+01 -2.541234943270683289e+01 -2.302612806670367718e-01
1.490457241237163544e+01 -1.735497638583183289e+01 -5.054326308891177177e-02
2.213272182643413544e+01 -2.557604572176933289e+01 -2.601990248076617718e-01
2.243154995143413544e+01 -2.550939533114433289e+01 -2.718414808623492718e-01
2.270657436549663544e+01 -2.541051837801933289e+01 -2.828430677764117718e-01
1.725821010768413544e+01 -1.891186115145683289e+01 -1.270203138701617718e-01
1.935305874049663544e+01 -2.091613361239433289e+01 -1.905579115264117718e-01
2.220230190455913544e+01 -2.694140216708183289e+01 -9.876103652641177177e-02
2.269729702174663544e+01 -2.710473224520683289e+01 -1.139893080107867718e-01
1.490689174830913544e+01 -1.735265704989433289e+01 4.821161972358822823e-02
2.369705288112163544e+01 -2.740710040926933289e+01 -1.450714613310992718e-01
2.417532436549663544e+01 -2.751720783114433289e+01 -1.602997328154742718e-01
2.460537807643413544e+01 -2.756103107333183289e+01 -1.745972181670367718e-01
1.726077358424663544e+01 -1.890929767489433289e+01 -1.581425918266177177e-02
2.566433803737163544e+01 -2.784728595614433289e+01 -2.078918959014117718e-01
2.312515346705913544e+01 -2.807397052645683289e+01 4.335932480171322823e-02
2.364553920924663544e+01 -2.824889728426933289e+01 2.956537948921322823e-02
1.490921108424663544e+01 -1.735033771395683289e+01 1.474853013642132282e-01
2.469155971705913544e+01 -2.856725665926933289e+01 1.321360934525728226e-03
2.518924038112163544e+01 -2.868041583895683289e+01 -1.265568984672427177e-02
2.567752163112163544e+01 -2.877099201083183289e+01 -2.666325820609927177e-02
1.726333706080913544e+01 -1.890661212801933289e+01 9.597162948921322823e-02
2.679690639674663544e+01 -2.908349201083183289e+01 -5.728764785453677177e-02
2.397024624049663544e+01 -2.910961505770683289e+01 1.985259507782757282e-01
2.448245327174663544e+01 -2.925707599520683289e+01 1.866240953095257282e-01
1.491165249049663544e+01 -1.734801837801933289e+01 2.462249253876507282e-01
2.550271694362163544e+01 -2.951147052645683289e+01 1.622252915985882282e-01
2.603775112330913544e+01 -2.965197345614433289e+01 1.495452378876507282e-01
2.567092983424663544e+01 -2.875500079989433289e+01 1.439910386689007282e-01
1.726590053737163544e+01 -1.890404865145683289e+01 2.071319078095257282e-01
2.660403530299663544e+01 -2.886327716708183289e+01 1.194549058564007282e-01
2.472561733424663544e+01 -3.003380939364433289e+01 3.667541001923382282e-01
2.521487514674663544e+01 -3.013781329989433289e+01 3.565612290985882282e-01
1.491397182643413544e+01 -1.734569904208183289e+01 3.449492906220257282e-01
2.633316127955913544e+01 -3.047777912020683289e+01 3.344970201142132282e-01
2.681521694362163544e+01 -3.054088947176933289e+01 3.236022447235882282e-01
2.563137905299663544e+01 -2.870165607333183289e+01 3.145232652314007282e-01
1.726846401393413544e+01 -1.890148517489433289e+01 3.188872789032757282e-01
2.735806362330913544e+01 -2.968273517489433289e+01 2.925353501923382282e-01
2.548843471705913544e+01 -3.096667072176933289e+01 5.450683091767132282e-01
2.605569545924663544e+01 -3.114965412020683289e+01 5.369048570282757282e-01
1.491629116237163544e+01 -1.734337970614433289e+01 4.441771958954632282e-01
2.659610073268413544e+01 -3.077733966708183289e+01 5.156035874970257282e-01
2.569082729518413544e+01 -2.923388263583183289e+01 4.976287339814007282e-01
2.591543667018413544e+01 -2.901549884676933289e+01 4.871917222626507282e-01
1.727102749049663544e+01 -1.889879962801933289e+01 4.300322984345257282e-01
2.642764370143413544e+01 -2.865258380770683289e+01 4.667602037079632282e-01
1.373135463893413544e+01 -1.644298908114433289e+01 5.410094712860882282e-01
1.421768276393413544e+01 -1.677123615145683289e+01 5.403686021454632282e-01
1.474295131862163544e+01 -1.713134357333183289e+01 5.403533433564007282e-01
1.526846401393413544e+01 -1.747509357333183289e+01 5.398803208954632282e-01
1.579592983424663544e+01 -1.780663654208183289e+01 5.390258287079632282e-01
1.635488979518413544e+01 -1.815807697176933289e+01 5.381103013642132282e-01
1.694400112330913544e+01 -1.852831622958183289e+01 5.371489976532757282e-01
1.754898159205913544e+01 -1.889977619051933289e+01 5.365233873017132282e-01
1.383255092799663544e+01 -1.656310626864433289e+01 6.352935289032757282e-01
1.431497280299663544e+01 -1.688451740145683289e+01 6.375823472626507282e-01
1.482486049830913544e+01 -1.722399494051933289e+01 6.400084947235882282e-01
1.532693569362163544e+01 -1.753857013583183289e+01 6.417785142548382282e-01
1.583999721705913544e+01 -1.785229083895683289e+01 6.433349107392132282e-01
1.638235561549663544e+01 -1.818395587801933289e+01 6.449676011689007282e-01
1.695266811549663544e+01 -1.853258869051933289e+01 6.467071031220257282e-01
1.753787319362163544e+01 -1.888207599520683289e+01 6.482024644501507282e-01
1.381680385768413544e+01 -1.653869220614433289e+01 7.279601548798382282e-01
1.432925502955913544e+01 -1.689672443270683289e+01 7.332244371064007282e-01
1.487466518580913544e+01 -1.727831622958183289e+01 7.393584703095257282e-01
1.540176479518413544e+01 -1.762121173739433289e+01 7.443633531220257282e-01
1.594827358424663544e+01 -1.797191974520683289e+01 7.493987535126507282e-01
2.574820034205913544e+01 -2.880004474520683289e+01 9.995055650360882282e-01
2.618960659205913544e+01 -2.882909747958183289e+01 9.946227525360882282e-01
2.751773159205913544e+01 -2.982299396395683289e+01 1.012795970309525728e+00
2.545486538112163544e+01 -3.088744708895683289e+01 1.255227610934525728e+00
2.614346401393413544e+01 -3.121825763583183289e+01 1.260873362887650728e+00
2.991958706080913544e+01 -3.521239826083183289e+01 1.376275584567338228e+00
3.058487026393413544e+01 -3.541686603426933289e+01 1.377282664645463228e+00
3.063223354518413544e+01 -3.489599201083183289e+01 1.356622264254838228e+00
2.599038784205913544e+01 -2.906615802645683289e+01 1.179162547457963228e+00
3.252444545924663544e+01 -3.588354083895683289e+01 1.375207469332963228e+00
2.613455288112163544e+01 -2.829760333895683289e+01 1.147912547457963228e+00
2.559353725612163544e+01 -3.104894611239433289e+01 1.439294383395463228e+00
2.573867885768413544e+01 -3.071801349520683289e+01 1.424249217379838228e+00
2.681375209987163544e+01 -3.149962970614433289e+01 1.449304149020463228e+00
3.126821987330913544e+01 -3.620714923739433289e+01 1.613946483004838228e+00
3.061892788112163544e+01 -3.487023517489433289e+01 1.562356517184525728e+00
3.159121792018413544e+01 -3.540526935458183289e+01 1.578866526950150728e+00
3.337918178737163544e+01 -3.682567951083183289e+01 1.625604197848588228e+00
2.832571499049663544e+01 -3.069128009676933289e+01 1.404016063082963228e+00
2.554824917018413544e+01 -3.098363849520683289e+01 1.615731761325150728e+00
2.582022182643413544e+01 -3.080761310458183289e+01 1.605538890231400728e+00
2.678238002955913544e+01 -3.145263263583183289e+01 1.630776927340775728e+00
3.127481167018413544e+01 -3.620397540926933289e+01 1.828073069918900728e+00
3.060550014674663544e+01 -3.484435626864433289e+01 1.768899485934525728e+00
3.160330288112163544e+01 -3.540844318270683289e+01 1.790277049411088228e+00
3.427188198268413544e+01 -3.780944415926933289e+01 1.888223216403275728e+00
2.833316127955913544e+01 -3.069030353426933289e+01 1.590127513278275728e+00
7.672394677996635437e+00 -8.090205878019332886e+00 -2.097687269560992718e-01
7.728424951434135437e+00 -8.031001776456832886e+00 -2.119659925810992718e-01
7.786652490496635437e+00 -7.974117010831832886e+00 -2.145599867217242718e-01
7.845490381121635437e+00 -7.917354315519332886e+00 -2.172150160185992718e-01
7.904084131121635437e+00 -7.860835760831832886e+00 -2.198395277373492718e-01
7.962799951434135437e+00 -7.804073065519332886e+00 -2.224945570342242718e-01
8.014191552996635437e+00 -7.740474432706832886e+00 -2.245392347685992718e-01
8.058991357684135437e+00 -7.670528143644332886e+00 -2.262787367217242718e-01
8.302155420184135437e+00 -8.781978338956832886e+00 -2.130646253935992718e-01
8.354035302996635437e+00 -8.706660956144332886e+00 -2.150177503935992718e-01
8.405671045184135437e+00 -8.631587713956832886e+00 -2.169403578154742718e-01
8.460724756121635437e+00 -8.560176581144332886e+00 -2.188782240264117718e-01
8.512116357684135437e+00 -8.485591620206832886e+00 -2.207855726592242718e-01
8.559967920184135437e+00 -8.407466620206832886e+00 -2.227081800810992718e-01
8.619172021746635437e+00 -8.341670721769332886e+00 -2.252411390654742718e-01
8.682892724871635437e+00 -8.280269354581832886e+00 -2.281097914092242718e-01
8.966339990496635437e+00 -9.510982245206832886e+00 -2.101501966826617718e-01
9.028229638934135437e+00 -9.434688299894332886e+00 -2.127441908232867718e-01
9.090119287371635437e+00 -9.358394354581832886e+00 -2.153076673857867718e-01
