9.195904150605201721e+00 -1.798241993784904480e+01 -1.968341437168419361e-01
9.360088720917701721e+00 -1.795324513316154480e+01 -2.038379278965294361e-01
9.525127783417701721e+00 -1.792407032847404480e+01 -2.108874884434044361e-01
5.758160009980201721e+00 -1.018163868784904480e+01 3.332943050190806389e-02
9.858257666230201721e+00 -1.786498829722404480e+01 -2.251086798496544361e-01
1.004087485373020172e+01 -1.786218068003654480e+01 -2.331958380527794361e-01
1.015598715841770172e+01 -1.773339650034904480e+01 -2.370410528965294361e-01
1.026182211935520172e+01 -1.758984181284904480e+01 -2.403216925449669361e-01
9.762310400605201721e+00 -1.915734669566154480e+01 -1.390338507480919361e-01
9.965679541230201721e+00 -1.918359181284904480e+01 -1.472888556309044361e-01
1.015073813498020172e+01 -1.916906544566154480e+01 -1.550403204746544361e-01
5.759502783417701721e+00 -1.018041798472404480e+01 8.314937679097056389e-02
1.051926840841770172e+01 -1.912768360972404480e+01 -1.704059210605919361e-01
1.072678793966770172e+01 -1.914660450816154480e+01 -1.793017950840294361e-01
1.097947348654270172e+01 -1.924621388316154480e+01 -1.905780402012169361e-01
1.119871176779270172e+01 -1.927844044566154480e+01 -2.005725470371544361e-01
1.019529379904270172e+01 -2.005273243784904480e+01 -6.289249332621693611e-02
1.043845786154270172e+01 -2.014159962534904480e+01 -7.282596500590443611e-02
1.066526450216770172e+01 -2.019067189097404480e+01 -8.204227359965443611e-02
5.760845556855201721e+00 -1.017919728159904480e+01 1.327099236659705639e-01
1.112058676779270172e+01 -2.027477833628654480e+01 -1.005054083652794361e-01
1.134214438498020172e+01 -2.029711720347404480e+01 -1.094470587559044361e-01
1.160483969748020172e+01 -2.039245411753654480e+01 -1.201892462559044361e-01
1.191233481466770172e+01 -2.056176564097404480e+01 -1.328540411777794361e-01
1.053904379904270172e+01 -2.076159474253654480e+01 2.484554378315806389e-02
1.079856528341770172e+01 -2.086889454722404480e+01 1.518673030659556389e-02
5.697002783417701721e+00 -1.024877735972404480e+01 1.851696404628455639e-01
5.762066259980201721e+00 -1.017785450816154480e+01 1.825146111659705639e-01
1.161594809591770172e+01 -2.121777150034904480e+01 -1.458316715434193611e-02
1.188401450216770172e+01 -2.130846974253654480e+01 -2.459293277934193611e-02
1.213950766623020172e+01 -2.137060353159904480e+01 -3.475528629496693611e-02
1.241514243185520172e+01 -2.146325489878654480e+01 -4.505496891215443611e-02
1.085764731466770172e+01 -2.141723439097404480e+01 1.209148797206580639e-01
1.113523520529270172e+01 -2.154772755503654480e+01 1.117596062831580639e-01
5.698345556855201721e+00 -1.024755665659904480e+01 2.348675164394080639e-01
5.763409033417701721e+00 -1.017663380503654480e+01 2.320598992519080639e-01
1.203684653341770172e+01 -2.201696583628654480e+01 8.231014339253306389e-02
1.236387290060520172e+01 -2.220275685191154480e+01 7.173580257222056389e-02
1.269077719748020172e+01 -2.237866017222404480e+01 6.108516780659556389e-02
1.301548422873020172e+01 -2.254003712534904480e+01 5.043453304097056389e-02
1.118894614279270172e+01 -2.209899708628654480e+01 2.229656609706580639e-01
1.147971762716770172e+01 -2.224194142222404480e+01 2.146191033534705639e-01
5.699566259980201721e+00 -1.024633595347404480e+01 2.845501336269080639e-01
5.764751806855201721e+00 -1.017541310191154480e+01 2.815899285487830639e-01
1.248594321310520172e+01 -2.286987110972404480e+01 1.870922478847205639e-01
1.282285727560520172e+01 -2.305688282847404480e+01 1.776470574550330639e-01
1.315549887716770172e+01 -2.322631642222404480e+01 1.681408318690955639e-01
1.349607504904270172e+01 -2.339990040659904480e+01 1.584209832362830639e-01
1.158213461935520172e+01 -2.290893360972404480e+01 3.324932488612830639e-01
1.192368735373020172e+01 -2.313830372691154480e+01 3.249859246425330639e-01
5.700909033417701721e+00 -1.024499318003654480e+01 3.344921502284705639e-01
5.766094580292701721e+00 -1.017407032847404480e+01 3.313793572597205639e-01
1.292478598654270172e+01 -2.370214650034904480e+01 3.013958367519080639e-01
1.326792563498020172e+01 -2.388415333628654480e+01 2.931408318690955639e-01
1.361826743185520172e+01 -2.407006642222404480e+01 2.847179803065955639e-01
1.396445883810520172e+01 -2.423705860972404480e+01 2.761577996425330639e-01
1.202378500998020172e+01 -2.381921193003654480e+01 4.501079949550330639e-01
1.235081137716770172e+01 -2.399987599253654480e+01 4.437755974940955639e-01
5.702251806855201721e+00 -1.024377247691154480e+01 3.841595086269080639e-01
5.767315283417701721e+00 -1.017284962534904480e+01 3.809093865565955639e-01
1.337730063498020172e+01 -2.456017872691154480e+01 4.237713250331580639e-01
1.372385825216770172e+01 -2.473132130503654480e+01 4.166759881190955639e-01
1.407725180685520172e+01 -2.490588185191154480e+01 4.094433221034705639e-01
1.440806235373020172e+01 -2.502880665659904480e+01 4.019207390956580639e-01
1.244443930685520172e+01 -2.468481251597404480e+01 5.772137078456580639e-01
1.278623618185520172e+01 -2.487731739878654480e+01 5.721783074550330639e-01
5.703594580292701721e+00 -1.024255177378654480e+01 4.338268670253455639e-01
5.768658056855201721e+00 -1.017162892222404480e+01 4.304088982753455639e-01
1.383103598654270172e+01 -2.541991993784904480e+01 5.550426873378455639e-01
1.416099204123020172e+01 -2.554247853159904480e+01 5.487255486659705639e-01
1.455430258810520172e+01 -2.577441212534904480e+01 5.438579949550330639e-01
1.434470786154270172e+01 -2.490527150034904480e+01 5.298504265956580639e-01
1.287339438498020172e+01 -2.556713673472404480e+01 7.127422722987830639e-01
1.322471274435520172e+01 -2.576049610972404480e+01 7.089886101894080639e-01
5.704815283417701721e+00 -1.024120900034904480e+01 4.837536248378455639e-01
5.770000830292701721e+00 -1.017040821909904480e+01 4.801830681972205639e-01
1.429941977560520172e+01 -2.630676075816154480e+01 6.962932976894080639e-01
1.450925864279270172e+01 -2.618639943003654480e+01 6.877178582362830639e-01
1.474399985373020172e+01 -2.611376759409904480e+01 6.797832879237830639e-01
1.509910239279270172e+01 -2.625671193003654480e+01 6.745800408534705639e-01
5.224834814667701721e+00 -9.654050797224044800e+00 5.267681512050330639e-01
5.393535986542701721e+00 -9.807371109724044800e+00 5.273174676112830639e-01
5.569195166230201721e+00 -9.966794937849044800e+00 5.281567010097205639e-01
5.753155127167701721e+00 -1.013378712534904480e+01 5.290111931972205639e-01
5.943951025605201721e+00 -1.030602833628654480e+01 5.298809441737830639e-01
6.135723486542701721e+00 -1.047106739878654480e+01 5.305065545253455639e-01
6.335186377167701721e+00 -1.064257618784904480e+01 5.311626824550330639e-01
6.543194189667701721e+00 -1.082116505503654480e+01 5.321087273769080639e-01
5.180401220917701721e+00 -9.557737320661544800e+00 5.706524285487830639e-01
5.346050634980201721e+00 -9.706907242536544800e+00 5.723614129237830639e-01
5.518658056855201721e+00 -9.862424820661544800e+00 5.741466912440955639e-01
5.699566259980201721e+00 -1.002526661753654480e+01 5.760082635097205639e-01
5.887798681855201721e+00 -1.019482228159904480e+01 5.779461297206580639e-01
6.079449072480201721e+00 -1.036157032847404480e+01 5.797161492519080639e-01
6.275493994355201721e+00 -1.052880665659904480e+01 5.814098748378455639e-01
6.480083838105201721e+00 -1.070348927378654480e+01 5.831798943690955639e-01
5.175274267792701721e+00 -9.543577164411544800e+00 6.162762078456580639e-01
5.346416845917701721e+00 -9.704099625349044800e+00 6.190380486659705639e-01
5.525616064667701721e+00 -9.872434586286544800e+00 6.221813592128455639e-01
5.713726416230201721e+00 -1.004919239878654480e+01 6.254925164394080639e-01
5.875957861542701721e+00 -1.016833302378654480e+01 6.270489129237830639e-01
6.108990088105201721e+00 -1.041308400034904480e+01 6.321606072597205639e-01
6.313946142792701721e+00 -1.059582325816154480e+01 6.353802117519080639e-01
6.528911963105201721e+00 -1.078771778941154480e+01 6.390575799159705639e-01
5.223736181855201721e+00 -9.640500992536544800e+00 6.653942498378455639e-01
5.398052588105201721e+00 -9.805417984724044800e+00 6.695598992519080639e-01
5.571880713105201721e+00 -9.960813492536544800e+00 6.732983025722205639e-01
5.753155127167701721e+00 -1.012243458628654480e+01 6.772045525722205639e-01
5.879742041230201721e+00 -1.017187306284904480e+01 6.771892937831580639e-01
6.130474463105201721e+00 -1.044958302378654480e+01 6.849102410487830639e-01
6.326763525605201721e+00 -1.061535450816154480e+01 6.887249383144080639e-01
6.531475439667701721e+00 -1.078845021128654480e+01 6.927227410487830639e-01
5.195782080292701721e+00 -9.578855484724044800e+00 7.094005974940955639e-01
5.359966650605201721e+00 -9.724119156599044800e+00 7.138256463222205639e-01
5.530865088105201721e+00 -9.875486344099044800e+00 7.184338006190955639e-01
5.709942236542701721e+00 -1.003429982066154480e+01 7.230114373378455639e-01
5.883648291230201721e+00 -1.017553517222404480e+01 7.271007928065955639e-01
6.084698095917701721e+00 -1.036010548472404480e+01 7.330974969081580639e-01
6.278301611542701721e+00 -1.052258107066154480e+01 7.378887566737830639e-01
6.486431494355201721e+00 -1.070361134409904480e+01 7.433514031581580639e-01
5.174419775605201721e+00 -9.530637711286544800e+00 7.533764275722205639e-01
5.350078955292701721e+00 -9.700437515974044800e+00 7.596172722987830639e-01
5.534527197480201721e+00 -9.879026383161544800e+00 7.664226922206580639e-01
5.728618994355201721e+00 -1.006701466441154480e+01 7.735943230800330639e-01
5.932842627167701721e+00 -1.026562306284904480e+01 7.811779412440955639e-01
6.135967627167701721e+00 -1.045226857066154480e+01 7.881664666347205639e-01
6.348247900605201721e+00 -1.064733693003654480e+01 7.954601678065955639e-01
6.571514502167701721e+00 -1.085278126597404480e+01 8.034557732753455639e-01
5.813091650605201721e+00 -9.551633805036544800e+00 -1.522479620762169361e-01
5.869243994355201721e+00 -9.477659195661544800e+00 -1.532397833652794361e-01
5.922710791230201721e+00 -9.399900406599044800e+00 -1.542468634434044361e-01
5.975811377167701721e+00 -9.322629898786544800e+00 -1.552386847324669361e-01
6.035137549042701721e+00 -9.257322281599044800e+00 -1.568713751621544361e-01
6.096905127167701721e+00 -9.196409195661544800e+00 -1.587482062168419361e-01
6.158184424042701721e+00 -9.135862320661544800e+00 -1.606250372715294361e-01
6.216167822480201721e+00 -9.070920914411544800e+00 -1.624408331699669361e-01
6.250957861542701721e+00 -1.034155079722404480e+01 -1.446033087559044361e-01
6.327984228730201721e+00 -1.028930470347404480e+01 -1.475635138340294361e-01
6.404888525605201721e+00 -1.023693653941154480e+01 -1.505237189121544361e-01
6.480083838105201721e+00 -1.018127247691154480e+01 -1.530414191074669361e-01
6.546734228730201721e+00 -1.011230275034904480e+01 -1.551166144199669361e-01
6.610454931855201721e+00 -1.003881642222404480e+01 -1.572070685215294361e-01
6.676617041230201721e+00 -9.970457047224044800e+00 -1.592517462559044361e-01
6.742290869355201721e+00 -9.902463883161544800e+00 -1.612964239902794361e-01
6.728618994355201721e+00 -1.120300099253654480e+01 -1.318622198887169361e-01
6.827373877167701721e+00 -1.117260548472404480e+01 -1.363330450840294361e-01
6.926494970917701721e+00 -1.114220997691154480e+01 -1.408038702793419361e-01
7.023296728730201721e+00 -1.110632130503654480e+01 -1.450763312168419361e-01
7.114483252167701721e+00 -1.106091114878654480e+01 -1.488910284824669361e-01
7.206035986542701721e+00 -1.101537892222404480e+01 -1.527362433262169361e-01
7.278911963105201721e+00 -1.093993946909904480e+01 -1.551166144199669361e-01
7.342022314667701721e+00 -1.085009571909904480e+01 -1.567645636387169361e-01
7.417950049042701721e+00 -1.244689747691154480e+01 -1.255755987949669361e-01
7.518902197480201721e+00 -1.239623829722404480e+01 -1.294360724277794361e-01
7.616558447480201721e+00 -1.233984181284904480e+01 -1.333880987949669361e-01
7.714580908417701721e+00 -1.228332325816154480e+01 -1.373553839512169361e-01
7.812359228730201721e+00 -1.222692677378654480e+01 -1.413226691074669361e-01
7.850811377167701721e+00 -1.207226368784904480e+01 -1.411395636387169361e-01
8.009624853730201721e+00 -1.211620900034904480e+01 -1.493487921543419361e-01
8.112163916230201721e+00 -1.206725880503654480e+01 -1.539722052402794361e-01
1.026206625998020172e+01 -1.758923146128654480e+01 -2.403216925449669361e-01
1.036484946310520172e+01 -1.744262501597404480e+01 -2.436786261387169361e-01
1.046421469748020172e+01 -1.729284474253654480e+01 -2.468524542637169361e-01
9.145000830292701721e+00 -1.472192189097404480e+01 -1.628528204746544361e-01
8.698589697480201721e+00 -1.370776173472404480e+01 -1.330981818027794361e-01
7.852398291230201721e+00 -1.207067677378654480e+01 -7.932620914652943611e-02
8.862041845917701721e+00 -1.348803517222404480e+01 -1.385455694980919361e-01
8.942730322480201721e+00 -1.337951466441154480e+01 -1.412463751621544361e-01
1.119968833029270172e+01 -1.927880665659904480e+01 -2.006183234043419361e-01
1.142734946310520172e+01 -1.932128712534904480e+01 -2.101855841465294361e-01
1.163633383810520172e+01 -1.932616993784904480e+01 -2.192798224277794361e-01
1.181431235373020172e+01 -1.927331349253654480e+01 -2.267413702793419361e-01
1.199241293966770172e+01 -1.922045704722404480e+01 -2.341876593418419361e-01
7.853985205292701721e+00 -1.206921193003654480e+01 -1.717716129496693611e-02
1.261521567404270172e+01 -1.953930470347404480e+01 -2.628741827793419361e-01
1.282554282248020172e+01 -1.952551075816154480e+01 -2.724872198887169361e-01
1.191392172873020172e+01 -2.056323048472404480e+01 -1.329150763340294361e-01
1.218919028341770172e+01 -2.066540333628654480e+01 -1.443591681309044361e-01
1.245579184591770172e+01 -2.074474903941154480e+01 -1.554065314121544361e-01
1.271104086935520172e+01 -2.079687306284904480e+01 -1.659503546543419361e-01
1.298582114279270172e+01 -2.087719532847404480e+01 -1.773334112949669361e-01
7.855572119355201721e+00 -1.206774708628654480e+01 4.462093440815806389e-02
1.351719321310520172e+01 -2.098742482066154480e+01 -1.992908087559044361e-01
1.376365317404270172e+01 -2.100427052378654480e+01 -2.094379034824669361e-01
1.241733969748020172e+01 -2.146569630503654480e+01 -4.513126285746693611e-02
1.282261313498020172e+01 -2.178075978159904480e+01 -5.997806461527943611e-02
1.312571372091770172e+01 -2.190221974253654480e+01 -7.079654606059193611e-02
1.340659750998020172e+01 -2.197582814097404480e+01 -8.146243961527943611e-02
1.369114340841770172e+01 -2.205053517222404480e+01 -9.228092106059193611e-02
7.857159033417701721e+00 -1.206628224253654480e+01 1.067394646815955639e-01
1.438645590841770172e+01 -2.238183400034904480e+01 -1.189380255527794361e-01
1.472153891623020172e+01 -2.251330372691154480e+01 -1.315570441074669361e-01
1.301682700216770172e+01 -2.254101368784904480e+01 5.038875667378306389e-02
1.334263266623020172e+01 -2.269421193003654480e+01 3.955501643940806389e-02
1.368833579123020172e+01 -2.287231251597404480e+01 2.817195979878306389e-02
1.402219809591770172e+01 -2.301794239878654480e+01 1.698726741597056389e-02
1.432639731466770172e+01 -2.310546681284904480e+01 6.519738119095563889e-03
7.858745947480201721e+00 -1.206469532847404480e+01 1.685223015956580639e-01
1.503306235373020172e+01 -2.341625782847404480e+01 -1.713138492777943611e-02
1.541343344748020172e+01 -2.360058400034904480e+01 -2.973514469340443611e-02
1.349766196310520172e+01 -2.340136525034904480e+01 1.583752068690955639e-01
1.384434165060520172e+01 -2.357482716441154480e+01 1.484112176112830639e-01
1.418565024435520172e+01 -2.372826954722404480e+01 1.384319695644080639e-01
1.453916586935520172e+01 -2.389098927378654480e+01 1.281170281581580639e-01
1.489243735373020172e+01 -2.404418751597404480e+01 1.177257928065955639e-01
7.860332861542701721e+00 -1.206323048472404480e+01 2.303051385097205639e-01
1.543711508810520172e+01 -2.405932423472404480e+01 9.933895198628306389e-02
1.532481040060520172e+01 -2.345226857066154480e+01 9.674495784565806389e-02
1.396616782248020172e+01 -2.423864552378654480e+01 2.761120232753455639e-01
1.431846274435520172e+01 -2.440575978159904480e+01 2.673839959315955639e-01
1.467918051779270172e+01 -2.457690235972404480e+01 2.584576043300330639e-01
1.491111411154270172e+01 -2.451623341441154480e+01 2.502178582362830639e-01
1.541599692404270172e+01 -2.491113087534904480e+01 2.399792107753455639e-01
7.861919775605201721e+00 -1.206176564097404480e+01 2.923931512050330639e-01
1.539951743185520172e+01 -2.399035450816154480e+01 2.271007928065955639e-01
1.529038657248020172e+01 -2.338976857066154480e+01 2.218212517909705639e-01
1.440903891623020172e+01 -2.502892872691154480e+01 4.018902215175330639e-01
1.474387778341770172e+01 -2.514990040659904480e+01 3.943066033534705639e-01
1.472129477560520172e+01 -2.464123341441154480e+01 3.855633172206580639e-01
1.489927329123020172e+01 -2.448718068003654480e+01 3.774914178065955639e-01
1.502427329123020172e+01 -2.424755665659904480e+01 3.694042596034705639e-01
7.863506689667701721e+00 -1.206017872691154480e+01 3.541607293300330639e-01
1.554917563498020172e+01 -2.422302052378654480e+01 3.535503777675330639e-01
1.560911215841770172e+01 -2.388561818003654480e+01 3.455547722987830639e-01
1.434568442404270172e+01 -2.490539357066154480e+01 5.298199090175330639e-01
1.474607504904270172e+01 -2.514465138316154480e+01 5.243877801112830639e-01
1.485801352560520172e+01 -2.486962696909904480e+01 5.145000847987830639e-01
1.521628989279270172e+01 -2.501830860972404480e+01 5.081676873378455639e-01
1.495615805685520172e+01 -2.412536427378654480e+01 4.951519402675330639e-01
7.865093603730201721e+00 -1.205871388316154480e+01 4.159130486659705639e-01
1.537131918966770172e+01 -2.392822071909904480e+01 4.801983269862830639e-01
1.546445883810520172e+01 -2.364892384409904480e+01 4.714092644862830639e-01
1.509910239279270172e+01 -2.625500294566154480e+01 6.745342644862830639e-01
1.474839438498020172e+01 -2.513952443003654480e+01 6.537365349940955639e-01
1.594370688498020172e+01 -2.674426075816154480e+01 6.666454705409705639e-01
1.549351157248020172e+01 -2.548119923472404480e+01 6.443981560878455639e-01
1.580918540060520172e+01 -2.554162403941154480e+01 6.382030877284705639e-01
7.866680517792701721e+00 -1.205724903941154480e+01 4.779858025722205639e-01
1.561472739279270172e+01 -2.431176564097404480e+01 6.105236443690955639e-01
1.564732016623020172e+01 -2.392956349253654480e+01 5.996288689784705639e-01
6.544414892792701721e+00 -1.082262989878654480e+01 5.321239861659705639e-01
6.762554541230201721e+00 -1.101049610972404480e+01 5.326733025722205639e-01
6.990581884980201721e+00 -1.120654103159904480e+01 5.335277947597205639e-01
7.230694189667701721e+00 -1.141283985972404480e+01 5.344433221034705639e-01
7.481792822480201721e+00 -1.162878224253654480e+01 5.353893670253455639e-01
7.746685400605201721e+00 -1.185644337534904480e+01 5.363811883144080639e-01
8.024517431855201721e+00 -1.209533497691154480e+01 5.374340447597205639e-01
8.290020361542701721e+00 -1.230383107066154480e+01 5.381817254237830639e-01
6.481182470917701721e+00 -1.070483204722404480e+01 5.831951531581580639e-01
6.694927588105201721e+00 -1.088720509409904480e+01 5.851940545253455639e-01
6.918804541230201721e+00 -1.107800099253654480e+01 5.872692498378455639e-01
7.160259619355201721e+00 -1.128918263316154480e+01 5.896953972987830639e-01
7.416973486542701721e+00 -1.151659962534904480e+01 5.923809441737830639e-01
7.688457861542701721e+00 -1.175707814097404480e+01 5.952038201503455639e-01
7.974102392792701721e+00 -1.201012989878654480e+01 5.981792840175330639e-01
8.252666845917701721e+00 -1.224072071909904480e+01 6.005443963222205639e-01
6.530132666230201721e+00 -1.078930470347404480e+01 6.390880974940955639e-01
6.755108252167701721e+00 -1.098962208628654480e+01 6.425060662440955639e-01
6.991802588105201721e+00 -1.120080372691154480e+01 6.464123162440955639e-01
7.241680517792701721e+00 -1.142370411753654480e+01 6.505321892909705639e-01
7.503887549042701721e+00 -1.165771290659904480e+01 6.548656853847205639e-01
7.780865088105201721e+00 -1.190429493784904480e+01 6.594280633144080639e-01
7.989483252167701721e+00 -1.203075978159904480e+01 6.605877312831580639e-01
8.317242041230201721e+00 -1.233849903941154480e+01 6.669201287440955639e-01
6.532574072480201721e+00 -1.078979298472404480e+01 6.927532586269080639e-01
6.746319189667701721e+00 -1.097021290659904480e+01 6.971172722987830639e-01
6.969952002167701721e+00 -1.115905568003654480e+01 7.016643914394080639e-01
7.204937353730201721e+00 -1.135741993784904480e+01 7.064556512050330639e-01
7.450542822480201721e+00 -1.156469532847404480e+01 7.114605340175330639e-01
7.709209814667701721e+00 -1.178295704722404480e+01 7.167248162440955639e-01
7.980083838105201721e+00 -1.201171681284904480e+01 7.222484978847205639e-01
8.244976416230201721e+00 -1.222045704722404480e+01 7.270092400722205639e-01
6.487774267792701721e+00 -1.070507618784904480e+01 7.433971795253455639e-01
6.716778174042701721e+00 -1.091406056284904480e+01 7.500957879237830639e-01
6.957744970917701721e+00 -1.113390919566154480e+01 7.571300896815955639e-01
7.212139502167701721e+00 -1.136547657847404480e+01 7.642406853847205639e-01
7.480205908417701721e+00 -1.160998341441154480e+01 7.720531853847205639e-01
7.764995947480201721e+00 -1.187035939097404480e+01 7.807201775722205639e-01
8.057598486542701721e+00 -1.213220021128654480e+01 7.890209588222205639e-01
8.346050634980201721e+00 -1.237573048472404480e+01 7.965435418300330639e-01
6.572735205292701721e+00 -1.085436818003654480e+01 8.035168084315955639e-01
6.806988134980201721e+00 -1.106945607066154480e+01 8.115276726894080639e-01
1.562656821310520172e+01 -2.613757130503654480e+01 1.473560753744095564e+00
1.565305747091770172e+01 -2.569787403941154480e+01 1.451237145345658064e+00
1.512400473654270172e+01 -2.434545704722404480e+01 1.389042321126908064e+00
1.571226157248020172e+01 -2.486511036753654480e+01 1.408863488119095564e+00
1.620554770529270172e+01 -2.521008107066154480e+01 1.420933190267533064e+00
1.648643149435520172e+01 -2.520324513316154480e+01 1.418339196126908064e+00
6.216534033417701721e+00 -9.070920914411544800e+00 -1.624560919590294361e-01
6.277691259980201721e+00 -9.011594742536544800e+00 -1.643024054355919361e-01
6.335674658417701721e+00 -8.947751969099044800e+00 -1.661182013340294361e-01
6.393658056855201721e+00 -8.884031265974044800e+00 -1.679339972324669361e-01
6.451153174042701721e+00 -8.820798844099044800e+00 -1.697345343418419361e-01
6.508648291230201721e+00 -8.757688492536544800e+00 -1.715198126621544361e-01
6.574566259980201721e+00 -8.707395523786544800e+00 -1.741138068027794361e-01
6.638653174042701721e+00 -8.654905289411544800e+00 -1.767840948887169361e-01
6.742901220917701721e+00 -9.902708023786544800e+00 -1.613269415684044361e-01
6.806133642792701721e+00 -9.831663101911544800e+00 -1.633716193027794361e-01
6.869243994355201721e+00 -9.760862320661544800e+00 -1.654162970371544361e-01
6.935161963105201721e+00 -9.694456070661544800e+00 -1.674304571934044361e-01
6.997661963105201721e+00 -9.624143570661544800e+00 -1.694598761387169361e-01
7.057110205292701721e+00 -9.549680680036544800e+00 -1.715045538730919361e-01
7.119121924042701721e+00 -9.479978531599044800e+00 -1.735034552402794361e-01
7.180767431855201721e+00 -9.410520523786544800e+00 -1.755023566074669361e-01
7.342388525605201721e+00 -1.085009571909904480e+01 -1.567798224277794361e-01
7.402202978730201721e+00 -1.075634571909904480e+01 -1.583972540684044361e-01
7.470196142792701721e+00 -1.067638966441154480e+01 -1.606555548496544361e-01
7.537945166230201721e+00 -1.059643360972404480e+01 -1.629138556309044361e-01
7.605205908417701721e+00 -1.051708790659904480e+01 -1.651416388340294361e-01
7.672466650605201721e+00 -1.043786427378654480e+01 -1.673694220371544361e-01
7.739117041230201721e+00 -1.035937306284904480e+01 -1.695819464512169361e-01
7.805401220917701721e+00 -1.028112599253654480e+01 -1.717944708652794361e-01
8.112774267792701721e+00 -1.206762501597404480e+01 -1.540027228184044361e-01
8.221050634980201721e+00 -1.202721974253654480e+01 -1.585498419590294361e-01
8.291363134980201721e+00 -1.192785450816154480e+01 -1.608081427402794361e-01
8.347881689667701721e+00 -1.180859181284904480e+01 -1.621509161777794361e-01
8.409649267792701721e+00 -1.169946095347404480e+01 -1.638904181309044361e-01
8.475933447480201721e+00 -1.159814259409904480e+01 -1.659350958652794361e-01
8.541607275605201721e+00 -1.149780079722404480e+01 -1.679645148105919361e-01
8.602764502167701721e+00 -1.139257618784904480e+01 -1.700244513340294361e-01
8.943096533417701721e+00 -1.337914845347404480e+01 -1.412463751621544361e-01
9.036236181855201721e+00 -1.329125782847404480e+01 -1.448932257480919361e-01
9.153789892792701721e+00 -1.324145314097404480e+01 -1.499896612949669361e-01
9.272076025605201721e+00 -1.319140431284904480e+01 -1.551318732090294361e-01
9.387554541230201721e+00 -1.313696095347404480e+01 -1.601062384434044361e-01
9.467510595917701721e+00 -1.302978321909904480e+01 -1.629596319980919361e-01
9.546734228730201721e+00 -1.292370411753654480e+01 -1.657825079746544361e-01
9.625469580292701721e+00 -1.281811329722404480e+01 -1.685901251621544361e-01
1.282651938498020172e+01 -1.952587696909904480e+01 -2.725329962559044361e-01
1.303709067404270172e+01 -1.950915333628654480e+01 -2.812457648105919361e-01
1.069749106466770172e+01 -1.559460255503654480e+01 -1.593738165684044361e-01
1.074973715841770172e+01 -1.540319630503654480e+01 -1.608234015293419361e-01
1.046397055685520172e+01 -1.471850392222404480e+01 -1.449847784824669361e-01
1.004050864279270172e+01 -1.385485646128654480e+01 -1.222186652012169361e-01
1.073618735373020172e+01 -1.461071583628654480e+01 -1.565814581699669361e-01
1.084397543966770172e+01 -1.451635548472404480e+01 -1.613574591465294361e-01
1.376475180685520172e+01 -2.100475880503654480e+01 -2.094684210605919361e-01
1.401145590841770172e+01 -2.101745411753654480e+01 -2.198138800449669361e-01
1.424461020529270172e+01 -2.100500294566154480e+01 -2.295642462559044361e-01
1.448106040060520172e+01 -2.099255177378654480e+01 -2.394366827793419361e-01
1.471897543966770172e+01 -2.097997853159904480e+01 -2.493854132480919361e-01
1.004233969748020172e+01 -1.385302540659904480e+01 -4.809146793559193611e-02
1.529722250998020172e+01 -2.108862110972404480e+01 -2.736774054355919361e-01
1.433335532248020172e+01 -1.938476368784904480e+01 -2.319903937168419361e-01
1.472324790060520172e+01 -2.251476857066154480e+01 -1.316180792637169361e-01
1.502195395529270172e+01 -2.258080860972404480e+01 -1.431537237949669361e-01
1.535191000998020172e+01 -2.268786427378654480e+01 -1.551471319980919361e-01
1.570920981466770172e+01 -2.282641407847404480e+01 -1.687427130527794361e-01
1.603709067404270172e+01 -2.291369435191154480e+01 -1.813617316074669361e-01
1.004429282248020172e+01 -1.385131642222404480e+01 2.643245784565806389e-02
1.660337485373020172e+01 -2.293749806284904480e+01 -2.041888800449669361e-01
1.692954672873020172e+01 -2.300304982066154480e+01 -2.168078985996544361e-01
1.541563071310520172e+01 -2.360253712534904480e+01 -2.979617984965443611e-02
1.580198325216770172e+01 -2.378503224253654480e+01 -4.273563297465443611e-02
1.617539633810520172e+01 -2.393664357066154480e+01 -5.540042789652943611e-02
1.652354086935520172e+01 -2.403881642222404480e+01 -6.748538883402943611e-02
1.687730063498020172e+01 -2.414257618784904480e+01 -7.975345524027943611e-02
1.004612387716770172e+01 -1.384960743784904480e+01 1.005443963222205639e-01
1.754661215841770172e+01 -2.426965138316154480e+01 -1.034503546543419361e-01
1.786716879904270172e+01 -2.430407521128654480e+01 -1.149859991855919361e-01
1.532676352560520172e+01 -2.345385548472404480e+01 9.669918147847056389e-02
1.639133872091770172e+01 -2.469213673472404480e+01 7.353633968159556389e-02
1.599253500998020172e+01 -2.364965626597404480e+01 7.605403987690806389e-02
1.712827719748020172e+01 -2.493676564097404480e+01 5.098384944722056389e-02
1.730003012716770172e+01 -2.475658985972404480e+01 4.320186702534556389e-02
1.004795493185520172e+01 -1.384777638316154480e+01 1.746410760097205639e-01
1.825461997091770172e+01 -2.526720997691154480e+01 1.604122249409556389e-02
1.798142661154270172e+01 -2.445580860972404480e+01 1.672786800190806389e-02
1.529233969748020172e+01 -2.339147755503654480e+01 2.217907342128455639e-01
1.697874106466770172e+01 -2.559570118784904480e+01 2.004742058925330639e-01
1.595481528341770172e+01 -2.358422657847404480e+01 2.036785515956580639e-01
1.782041586935520172e+01 -2.596459767222404480e+01 1.792339715175330639e-01
1.725535239279270172e+01 -2.468273732066154480e+01 1.785168084315955639e-01
1.004978598654270172e+01 -1.384606739878654480e+01 2.491344842128455639e-01
1.842637290060520172e+01 -2.550280568003654480e+01 1.534313592128455639e-01
1.801243247091770172e+01 -2.449108693003654480e+01 1.518597039394080639e-01
1.560911215841770172e+01 -2.388403126597404480e+01 3.455242547206580639e-01
1.637803305685520172e+01 -2.465478321909904480e+01 3.373150262050330639e-01
1.592051352560520172e+01 -2.352404591441154480e+01 3.299145135097205639e-01
1.756089438498020172e+01 -2.556750294566154480e+01 3.196911248378455639e-01
1.721128500998020172e+01 -2.460961720347404480e+01 3.123211297206580639e-01
1.005173911154270172e+01 -1.384423634409904480e+01 3.232159051112830639e-01
1.836436118185520172e+01 -2.540649220347404480e+01 2.934460076503455639e-01
1.796860922873020172e+01 -2.442211720347404480e+01 2.869305047206580639e-01
1.546445883810520172e+01 -2.364745900034904480e+01 4.713787469081580639e-01
1.738462485373020172e+01 -2.620812794566154480e+01 4.772381219081580639e-01
1.589170493185520172e+01 -2.347228810191154480e+01 4.555553826503455639e-01
1.699436606466770172e+01 -2.471130177378654480e+01 4.537548455409705639e-01
1.716733969748020172e+01 -2.453698536753654480e+01 4.453319939784705639e-01
1.005357016623020172e+01 -1.384252735972404480e+01 3.972973260097205639e-01
1.768528403341770172e+01 -2.443505665659904480e+01 4.301037224940955639e-01
1.795481528341770172e+01 -2.439501759409904480e+01 4.221081170253455639e-01
1.564707602560520172e+01 -2.392773243784904480e+01 5.995983514003455639e-01
1.568186606466770172e+01 -2.355834767222404480e+01 5.892071160487830639e-01
1.653757895529270172e+01 -2.444799610972404480e+01 5.918316277675330639e-01
1.660361899435520172e+01 -2.411865040659904480e+01 5.817150506190955639e-01
1.988450278341770172e+01 -2.852111622691154480e+01 6.174663933925330639e-01
1.005540122091770172e+01 -1.384069630503654480e+01 4.717449578456580639e-01
2.120737875998020172e+01 -2.942126271128654480e+01 6.092266472987830639e-01
1.795957602560520172e+01 -2.439379689097404480e+01 5.564922722987830639e-01
8.291485205292701721e+00 -1.230554005503654480e+01 5.381969842128455639e-01
8.574200049042701721e+00 -1.253088185191154480e+01 5.385326775722205639e-01
8.870708838105201721e+00 -1.276684376597404480e+01 5.392345818690955639e-01
9.183697119355201721e+00 -1.301598927378654480e+01 5.399670037440955639e-01
9.512310400605201721e+00 -1.327758595347404480e+01 5.407452019862830639e-01
9.860088720917701721e+00 -1.355456349253654480e+01 5.415539178065955639e-01
1.022642172873020172e+01 -1.384606739878654480e+01 5.424236687831580639e-01
1.056882895529270172e+01 -1.409167286753654480e+01 5.428356560878455639e-01
8.254253759980201721e+00 -1.224242970347404480e+01 6.005749139003455639e-01
8.544536963105201721e+00 -1.248083302378654480e+01 6.031231316737830639e-01
8.850445166230201721e+00 -1.273193165659904480e+01 6.058239373378455639e-01
9.174297705292701721e+00 -1.299780079722404480e+01 6.086773308925330639e-01
9.515240088105201721e+00 -1.327770802378654480e+01 6.116680535487830639e-01
9.877300634980201721e+00 -1.357494923472404480e+01 6.148571404628455639e-01
1.019138754904270172e+01 -1.379199025034904480e+01 6.162609490565955639e-01
1.061155356466770172e+01 -1.414672657847404480e+01 6.202892693690955639e-01
8.318706884980201721e+00 -1.234020802378654480e+01 6.669659051112830639e-01
8.598980322480201721e+00 -1.256103321909904480e+01 6.703380974940955639e-01
8.892803564667701721e+00 -1.279211232066154480e+01 6.742138299159705639e-01
9.202618017792701721e+00 -1.303588673472404480e+01 6.783031853847205639e-01
9.527691259980201721e+00 -1.329162403941154480e+01 6.826061639003455639e-01
9.871441259980201721e+00 -1.356200978159904480e+01 6.871380242519080639e-01
1.019321860373020172e+01 -1.379028126597404480e+01 6.904644402675330639e-01
1.057102622091770172e+01 -1.408581349253654480e+01 6.958050164394080639e-01
8.246441259980201721e+00 -1.222216603159904480e+01 7.270550164394080639e-01
8.528179541230201721e+00 -1.244714161753654480e+01 7.324871453456580639e-01
8.841411963105201721e+00 -1.270971485972404480e+01 7.390484246425330639e-01
9.173687353730201721e+00 -1.298827931284904480e+01 7.460064324550330639e-01
9.524273291230201721e+00 -1.328234669566154480e+01 7.533306512050330639e-01
9.897442236542701721e+00 -1.359521290659904480e+01 7.611431512050330639e-01
1.027732504904270172e+01 -1.390490528941154480e+01 7.687267693690955639e-01
1.065049399435520172e+01 -1.419201466441154480e+01 7.754711541347205639e-01
8.347759619355201721e+00 -1.237768360972404480e+01 7.966198357753455639e-01
1.636069907248020172e+01 -2.456957814097404480e+01 1.256718102376908064e+00
1.741526450216770172e+01 -2.574133107066154480e+01 1.297810021322220564e+00
1.674119223654270172e+01 -2.428393360972404480e+01 1.238987389486283064e+00
1.691526450216770172e+01 -2.411865040659904480e+01 1.229649010580033064e+00
1.704038657248020172e+01 -2.388268849253654480e+01 1.218357506673783064e+00
1.733616293966770172e+01 -2.389306446909904480e+01 1.215580407064408064e+00
2.478770102560520172e+01 -3.385253712534904480e+01 1.581470909994095564e+00
1.648765219748020172e+01 -2.520361134409904480e+01 1.418339196126908064e+00
1.649265708029270172e+01 -2.476550099253654480e+01 1.396229210775345564e+00
1.633628500998020172e+01 -2.409289357066154480e+01 1.364735070150345564e+00
1.654612387716770172e+01 -2.398473927378654480e+01 1.357685509603470564e+00
1.680076254904270172e+01 -2.394286915659904480e+01 1.353504601400345564e+00
1.674485434591770172e+01 -2.344909474253654480e+01 1.329899254720658064e+00
1.720615805685520172e+01 -2.370153614878654480e+01 1.338306847494095564e+00
2.503831137716770172e+01 -3.419006153941154480e+01 1.784763756673783064e+00
6.638897314667701721e+00 -8.654905289411544800e+00 -1.767993536777794361e-01
6.705791845917701721e+00 -8.606199234724044800e+00 -1.794391241855919361e-01
6.770122900605201721e+00 -8.554197281599044800e+00 -1.821094122715294361e-01
6.826885595917701721e+00 -8.491697281599044800e+00 -1.840930548496544361e-01
6.881573095917701721e+00 -8.427366226911544800e+00 -1.859088507480919361e-01
6.936260595917701721e+00 -8.363035172224044800e+00 -1.877246466465294361e-01
6.990459814667701721e+00 -8.299192398786544800e+00 -1.895251837559044361e-01
7.046612158417701721e+00 -8.238035172224044800e+00 -1.917377081699669361e-01
7.180889502167701721e+00 -9.410276383161544800e+00 -1.755023566074669361e-01
7.240093603730201721e+00 -9.338010758161544800e+00 -1.775165167637169361e-01
7.299053564667701721e+00 -9.266111344099044800e+00 -1.795154181309044361e-01
7.360943213105201721e+00 -9.198240250349044800e+00 -1.814838019199669361e-01
7.424297705292701721e+00 -9.133054703474044800e+00 -1.838641730137169361e-01
7.491070166230201721e+00 -9.072263687849044800e+00 -1.867786017246544361e-01
7.560772314667701721e+00 -9.015745133161544800e+00 -1.896625128574669361e-01
7.630230322480201721e+00 -8.959226578474044800e+00 -1.925616827793419361e-01
7.805645361542701721e+00 -1.028088185191154480e+01 -1.717944708652794361e-01
7.869243994355201721e+00 -1.019970509409904480e+01 -1.740069952793419361e-01
7.932598486542701721e+00 -1.011877247691154480e+01 -1.762042609043419361e-01
7.995830908417701721e+00 -1.003783985972404480e+01 -1.784015265293419361e-01
8.058575049042701721e+00 -9.957639664411544800e+00 -1.805835333652794361e-01
8.121807470917701721e+00 -9.878293961286544800e+00 -1.828113165684044361e-01
8.197857275605201721e+00 -9.816160172224044800e+00 -1.859698859043419361e-01
8.273907080292701721e+00 -9.754026383161544800e+00 -1.891284552402794361e-01
8.602886572480201721e+00 -1.139208790659904480e+01 -1.700397101230919361e-01
8.669414892792701721e+00 -1.129553028941154480e+01 -1.720080939121544361e-01
8.731426611542701721e+00 -1.119396778941154480e+01 -1.740375128574669361e-01
8.793194189667701721e+00 -1.109277150034904480e+01 -1.760516730137169361e-01
8.854351416230201721e+00 -1.099242970347404480e+01 -1.780505743809044361e-01
8.915386572480201721e+00 -1.089245411753654480e+01 -1.800342169590294361e-01
8.975811377167701721e+00 -1.079357716441154480e+01 -1.820026007480919361e-01
9.041851416230201721e+00 -1.070263478159904480e+01 -1.846728888340294361e-01
9.625835791230201721e+00 -1.281799122691154480e+01 -1.686206427402794361e-01
9.701275244355201721e+00 -1.270898243784904480e+01 -1.714282599277794361e-01
9.776348486542701721e+00 -1.260070607066154480e+01 -1.742206183262169361e-01
9.851299658417701721e+00 -1.249267384409904480e+01 -1.770129767246544361e-01
9.925518408417701721e+00 -1.238549610972404480e+01 -1.797900763340294361e-01
9.999615088105201721e+00 -1.227856251597404480e+01 -1.825519171543419361e-01
1.007310141623020172e+01 -1.217248341441154480e+01 -1.852832403965294361e-01
1.014609946310520172e+01 -1.206701466441154480e+01 -1.880145636387169361e-01
1.084434165060520172e+01 -1.451611134409904480e+01 -1.613727179355919361e-01
1.093394125998020172e+01 -1.439709278941154480e+01 -1.645618048496544361e-01
1.101560629904270172e+01 -1.426867482066154480e+01 -1.677661505527794361e-01
1.109702719748020172e+01 -1.414037892222404480e+01 -1.709552374668419361e-01
1.117771567404270172e+01 -1.401342579722404480e+01 -1.741290655918419361e-01
1.125803793966770172e+01 -1.388683888316154480e+01 -1.772876349277794361e-01
1.133774985373020172e+01 -1.376135060191154480e+01 -1.804156866855919361e-01
1.140916098654270172e+01 -1.362707325816154480e+01 -1.835437384434044361e-01
1.433323325216770172e+01 -1.938342091441154480e+01 -2.319903937168419361e-01
1.255979575216770172e+01 -1.662365528941154480e+01 -1.557574835605919361e-01
1.256101645529270172e+01 -1.634826466441154480e+01 -1.557422247715294361e-01
1.268760336935520172e+01 -1.624426075816154480e+01 -1.611133185215294361e-01
1.232859458029270172e+01 -1.550854298472404480e+01 -1.456409064121544361e-01
1.296397055685520172e+01 -1.606701466441154480e+01 -1.728473273105919361e-01
1.308018149435520172e+01 -1.595080372691154480e+01 -1.777759161777794361e-01
1.318943442404270172e+01 -1.582641407847404480e+01 -1.823993292637169361e-01
1.693186606466770172e+01 -2.300500294566154480e+01 -2.168994513340294361e-01
1.729185141623020172e+01 -2.310998341441154480e+01 -2.308765021152794361e-01
1.757529868185520172e+01 -2.310326954722404480e+01 -2.414966193027794361e-01
1.783640708029270172e+01 -2.306115528941154480e+01 -2.520404425449669361e-01
1.233079184591770172e+01 -1.550646778941154480e+01 -5.874210270121693611e-02
1.830869711935520172e+01 -2.290417286753654480e+01 -2.713733282871544361e-01
1.852610434591770172e+01 -2.279955860972404480e+01 -2.810779181309044361e-01
1.549485434591770172e+01 -1.867407032847404480e+01 -1.744189825840294361e-01
1.786631430685520172e+01 -2.430151173472404480e+01 -1.149707403965294361e-01
1.826707114279270172e+01 -2.443981739878654480e+01 -1.288257208652794361e-01
1.880320395529270172e+01 -2.475085255503654480e+01 -1.464801398105919361e-01
1.919541586935520172e+01 -2.485400196909904480e+01 -1.602740851230919361e-01
1.233286704123020172e+01 -1.550451466441154480e+01 2.768367854878306389e-02
1.993906821310520172e+01 -2.498351857066154480e+01 -1.869006720371544361e-01
2.027891196310520172e+01 -2.499767872691154480e+01 -1.993823614902794361e-01
2.061436118185520172e+01 -2.500060841441154480e+01 -2.117724982090294361e-01
1.798069418966770172e+01 -2.445324513316154480e+01 1.672786800190806389e-02
1.797556723654270172e+01 -2.403259083628654480e+01 1.239437190815806389e-02
1.845200766623020172e+01 -2.426989552378654480e+01 -1.369055826216936111e-03
1.841050375998020172e+01 -2.380688282847404480e+01 -4.909094888716936111e-03
1.233494223654270172e+01 -1.550243946909904480e+01 1.140942010097205639e-01
2.097129477560520172e+01 -2.629638478159904480e+01 -6.591373356059193611e-02
2.138999594748020172e+01 -2.638732716441154480e+01 -7.928043277934193611e-02
2.196592368185520172e+01 -2.666430470347404480e+01 -9.603458316996693611e-02
1.801304282248020172e+01 -2.449047657847404480e+01 1.518291863612830639e-01
1.808579672873020172e+01 -2.417577931284904480e+01 1.450085076503455639e-01
2.042820395529270172e+01 -2.692382618784904480e+01 1.108898553065955639e-01
1.866697348654270172e+01 -2.413879200816154480e+01 1.261944207362830639e-01
1.233713950216770172e+01 -1.550036427378654480e+01 2.009624871425330639e-01
2.191025961935520172e+01 -2.748901173472404480e+01 7.240718929097056389e-02
2.239170493185520172e+01 -2.763866993784904480e+01 5.942195979878306389e-02
2.288999594748020172e+01 -2.779833790659904480e+01 4.604000179097056389e-02
1.796921958029270172e+01 -2.442150685191154480e+01 2.868999871425330639e-01
1.834580649435520172e+01 -2.452429005503654480e+01 2.779583367519080639e-01
1.813279379904270172e+01 -2.382458302378654480e+01 2.714580926112830639e-01
1.849216879904270172e+01 -2.389990040659904480e+01 2.625011834315955639e-01
1.233921469748020172e+01 -1.549841114878654480e+01 2.873577508144080639e-01
1.872336997091770172e+01 -2.340588185191154480e+01 2.469677361659705639e-01
2.321970786154270172e+01 -2.867089650034904480e+01 2.130321892909705639e-01
2.373460043966770172e+01 -2.883349415659904480e+01 2.012066277675330639e-01
1.795505942404270172e+01 -2.439391896128654480e+01 4.220775994472205639e-01
1.840024985373020172e+01 -2.459106251597404480e+01 4.148296746425330639e-01
1.814536704123020172e+01 -2.383398243784904480e+01 4.042858514003455639e-01
1.858811606466770172e+01 -2.401928517222404480e+01 3.968395623378455639e-01
1.234128989279270172e+01 -1.549633595347404480e+01 3.737530144862830639e-01
1.873386801779270172e+01 -2.341210743784904480e+01 3.799023064784705639e-01
2.400547446310520172e+01 -2.964916798472404480e+01 3.795971306972205639e-01
2.449045981466770172e+01 -2.975829884409904480e+01 3.694195183925330639e-01
1.795982016623020172e+01 -2.439269825816154480e+01 5.564617547206580639e-01
1.808982504904270172e+01 -2.415820118784904480e+01 5.475201043300330639e-01
1.850657309591770172e+01 -2.431249806284904480e+01 5.417980584315955639e-01
1.858030356466770172e+01 -2.400134083628654480e+01 5.322155389003455639e-01
1.234348715841770172e+01 -1.549438282847404480e+01 4.605755242519080639e-01
1.900559653341770172e+01 -2.375195118784904480e+01 5.160717400722205639e-01
2.472678793966770172e+01 -3.054601857066154480e+01 5.561870965175330639e-01
2.525278891623020172e+01 -3.069067189097404480e+01 5.477032097987830639e-01
1.057090415060520172e+01 -1.409374806284904480e+01 5.428509148769080639e-01
1.093894614279270172e+01 -1.436315724253654480e+01 5.427746209315955639e-01
1.132603110373020172e+01 -1.464611622691154480e+01 5.431103142909705639e-01
1.173594321310520172e+01 -1.494567677378654480e+01 5.434765252284705639e-01
1.216770590841770172e+01 -1.526122853159904480e+01 5.438579949550330639e-01
1.260642661154270172e+01 -1.557092091441154480e+01 5.439190301112830639e-01
1.304014243185520172e+01 -1.586157032847404480e+01 5.435375603847205639e-01
1.349595297873020172e+01 -1.616650196909904480e+01 5.436138543300330639e-01
1.061362875998020172e+01 -1.414892384409904480e+01 6.203197869472205639e-01
1.099656333029270172e+01 -1.443749806284904480e+01 6.230358514003455639e-01
1.140110434591770172e+01 -1.474255177378654480e+01 6.259197625331580639e-01
1.183091391623020172e+01 -1.506652638316154480e+01 6.289715203456580639e-01
1.227805747091770172e+01 -1.539990040659904480e+01 6.320232781581580639e-01
1.270481528341770172e+01 -1.569177052378654480e+01 6.340832146815955639e-01
1.313950766623020172e+01 -1.598144337534904480e+01 6.359295281581580639e-01
1.359714926779270172e+01 -1.628649708628654480e+01 6.378826531581580639e-01
1.057310141623020172e+01 -1.408788868784904480e+01 6.958507928065955639e-01
1.093626059591770172e+01 -1.435046193003654480e+01 6.996197137050330639e-01
1.131797446310520172e+01 -1.462609669566154480e+01 7.039989861659705639e-01
1.172178305685520172e+01 -1.491760060191154480e+01 7.086376580409705639e-01
1.217637290060520172e+01 -1.526305958628654480e+01 7.144817742519080639e-01
1.263853110373020172e+01 -1.560229298472404480e+01 7.199901971034705639e-01
1.309617270529270172e+01 -1.592223927378654480e+01 7.248577508144080639e-01
1.358128012716770172e+01 -1.626196095347404480e+01 7.305340203456580639e-01
1.065281333029270172e+01 -1.419433400034904480e+01 7.755474480800330639e-01
1.104795493185520172e+01 -1.449877735972404480e+01 7.829937371425330639e-01
2.545811118185520172e+01 -3.362316700816154480e+01 1.375339928548783064e+00
2.376707114279270172e+01 -3.082140919566154480e+01 1.283543053548783064e+00
1.871482504904270172e+01 -2.374658009409904480e+01 1.061085167806595564e+00
2.726707114279270172e+01 -3.426489064097404480e+01 1.379383507650345564e+00
2.504356040060520172e+01 -3.090563771128654480e+01 1.271671715658158064e+00
2.492649497091770172e+01 -3.025036427378654480e+01 1.246876183431595564e+00
2.478965415060520172e+01 -3.385326954722404480e+01 1.581470909994095564e+00
2.314524497091770172e+01 -3.102966114878654480e+01 1.473301354330033064e+00
2.543687094748020172e+01 -3.358373829722404480e+01 1.563785973470658064e+00
2.390440024435520172e+01 -3.099291798472404480e+01 1.463825646322220564e+00
2.735947836935520172e+01 -3.495800587534904480e+01 1.605106774251908064e+00
2.424863852560520172e+01 -3.040356251597404480e+01 1.435886803548783064e+00
2.506150473654270172e+01 -3.091857716441154480e+01 1.450916710775345564e+00
2.916233481466770172e+01 -3.546386525034904480e+01 1.611744347494095564e+00
2.503965415060520172e+01 -3.418993946909904480e+01 1.784733239095658064e+00
2.317026938498020172e+01 -3.105407521128654480e+01 1.647358361165970564e+00
2.331235922873020172e+01 -3.071996876597404480e+01 1.630665245931595564e+00
2.558933676779270172e+01 -3.320702931284904480e+01 1.733738366048783064e+00
2.401218833029270172e+01 -3.060424610972404480e+01 1.620731774251908064e+00
2.498875083029270172e+01 -3.133801075816154480e+01 1.649204674642533064e+00
2.924448813498020172e+01 -3.615331837534904480e+01 1.849766198080033064e+00
2.531467856466770172e+01 -3.071020314097404480e+01 1.618397179525345564e+00
7.046734228730201721e+00 -8.237791031599044800e+00 -1.917377081699669361e-01
7.106182470917701721e+00 -8.180906265974044800e+00 -1.939654913730919361e-01
7.162456884980201721e+00 -8.120603531599044800e+00 -1.961780157871544361e-01
7.218853369355201721e+00 -8.060056656599044800e+00 -1.983905402012169361e-01
7.274883642792701721e+00 -7.999998062849044800e+00 -2.005878058262169361e-01
7.331158056855201721e+00 -7.939695328474044800e+00 -2.028003302402794361e-01
7.387066259980201721e+00 -7.879758805036544800e+00 -2.049823370762169361e-01
7.439678564667701721e+00 -7.816526383161544800e+00 -2.071643439121544361e-01
7.630474463105201721e+00 -8.958982437849044800e+00 -1.925616827793419361e-01
7.697613134980201721e+00 -8.899412125349044800e+00 -1.954608527012169361e-01
7.764751806855201721e+00 -8.839963883161544800e+00 -1.983600226230919361e-01
7.835308447480201721e+00 -8.784055680036544800e+00 -2.012439337559044361e-01
7.899395361542701721e+00 -8.721189469099044800e+00 -2.039142218418419361e-01
7.956768408417701721e+00 -8.650144547224044800e+00 -2.063098517246544361e-01
8.014873877167701721e+00 -8.580930680036544800e+00 -2.085071173496544361e-01
8.069439306855201721e+00 -8.508176773786544800e+00 -2.104449835605919361e-01
8.274029150605201721e+00 -9.753782242536544800e+00 -1.891437140293419361e-01
8.340069189667701721e+00 -9.679563492536544800e+00 -1.917834845371544361e-01
8.405987158417701721e+00 -9.605588883161544800e+00 -1.944232550449669361e-01
8.471905127167701721e+00 -9.531370133161544800e+00 -1.970630255527794361e-01
