1.170259568095207214e+01 -2.111161401867866516e+01 -1.525879197288304567e-02
1.195283982157707214e+01 -2.117643335461616516e+01 -2.339172654319554567e-02
1.229366013407707214e+01 -2.140031030774116516e+01 -3.460693650413304567e-02
1.262862107157707214e+01 -2.160258081555366516e+01 -4.617309861350804567e-02
1.292012497782707214e+01 -2.171683862805366516e+01 -5.569458298850804567e-02
5.556843727827072144e+00 -9.907512456178665161e+00 2.398376435739919543e-01
1.152498337626457214e+01 -2.160013940930366516e+01 9.674071974586695433e-02
1.183845993876457214e+01 -2.178824976086616516e+01 8.789062208961695433e-02
1.215865036845207214e+01 -2.197672632336616516e+01 7.884216017555445433e-02
1.248201462626457214e+01 -2.216105249524116516e+01 6.968688673805445433e-02
1.279939743876457214e+01 -2.232230737805366516e+01 6.062316603492945433e-02
1.313484665751457214e+01 -2.250748804211616516e+01 5.110168165992945433e-02
1.345760056376457214e+01 -2.265958765149116516e+01 4.185485548805445433e-02
5.559529274702072144e+00 -9.909953862428665161e+00 2.863006562693044543e-01
1.193794724345207214e+01 -2.241520288586616516e+01 1.977691621286794543e-01
1.226314255595207214e+01 -2.260966089367866516e+01 1.900634736521169543e-01
1.259224411845207214e+01 -2.279813745617866516e+01 1.822204560739919543e-01
1.291804978251457214e+01 -2.297086694836616516e+01 1.743469209177419543e-01
1.325313279032707214e+01 -2.314847925305366516e+01 1.662597627146169543e-01
1.359541794657707214e+01 -2.332987573742866516e+01 1.579894990427419543e-01
1.393623825907707214e+01 -2.349784448742866516e+01 1.496582002146169543e-01
5.562214821577072144e+00 -9.912395268678665161e+00 3.330535859568044543e-01
1.235188767313957214e+01 -2.323160913586616516e+01 3.077850312693044543e-01
1.267830368876457214e+01 -2.341166284680366516e+01 3.013763398630544543e-01
1.301399704813957214e+01 -2.359672144055366516e+01 2.947998017771169543e-01
1.335713669657707214e+01 -2.378580835461616516e+01 2.880706758005544543e-01
1.369868943095207214e+01 -2.395914819836616516e+01 2.812042207224294543e-01
1.404402634501457214e+01 -2.413016870617866516e+01 2.742156953318044543e-01
1.439766404032707214e+01 -2.430509546399116516e+01 2.670593232614919543e-01
5.564900368452072144e+00 -9.914836674928665161e+00 3.795776338083669543e-01
1.276717087626457214e+01 -2.405033472180366516e+01 4.255828828318044543e-01
1.310835739970207214e+01 -2.424235132336616516e+01 4.204559297068044543e-01
1.344759079813957214e+01 -2.441727808117866516e+01 4.151000947458669543e-01
1.379390427470207214e+01 -2.459586694836616516e+01 4.096374482614919543e-01
1.413936325907707214e+01 -2.476029565930366516e+01 4.039764375193044543e-01
1.413387009501457214e+01 -2.428446558117866516e+01 3.968200654489919543e-01
1.456526657938957214e+01 -2.459366968274116516e+01 3.913574189646169543e-01
5.567585915327072144e+00 -9.917278081178665161e+00 4.263763398630544543e-01
1.319319626688957214e+01 -2.488981226086616516e+01 5.526428193552419543e-01
1.353792282938957214e+01 -2.507145288586616516e+01 5.480804414255544543e-01
1.388533493876457214e+01 -2.524515894055366516e+01 5.439605683786794543e-01
1.384334275126457214e+01 -2.468094995617866516e+01 5.339355439646169543e-01
1.460884568095207214e+01 -2.561368921399116516e+01 5.355377168161794543e-01
1.431282517313957214e+01 -2.459916284680366516e+01 5.229186982614919543e-01
1.469734665751457214e+01 -2.481949976086616516e+01 5.189208955271169543e-01
5.570271462202072144e+00 -9.919719487428665161e+00 4.729614228708669543e-01
1.362324997782707214e+01 -2.573661401867866516e+01 6.877746552927419543e-01
1.398335739970207214e+01 -2.593107202649116516e+01 6.853637666208669543e-01
1.435762497782707214e+01 -2.613846948742866516e+01 6.829681367380544543e-01
1.378352829813957214e+01 -2.456180933117866516e+01 6.571350068552419543e-01
1.479622361063957214e+01 -2.594950464367866516e+01 6.700592011911794543e-01
1.487910935282707214e+01 -2.560990503430366516e+01 6.604766816599294543e-01
1.565010544657707214e+01 -2.649186304211616516e+01 6.662292451364919543e-01
5.572957009077072144e+00 -9.922160893678665161e+00 5.198211640818044543e-01
5.744587868452072144e+00 -1.007572534680366516e+01 5.208435029489919543e-01
5.917439430952072144e+00 -1.022379663586616516e+01 5.219268769724294543e-01
6.098225563764572144e+00 -1.037858179211616516e+01 5.230712861521169543e-01
6.285969704389572144e+00 -1.053934839367866516e+01 5.242614716989919543e-01
6.482624977827072144e+00 -1.070780542492866516e+01 5.255126924021169543e-01
6.687336891889572144e+00 -1.088309839367866516e+01 5.267944306833669543e-01
6.900959938764572144e+00 -1.106571558117866516e+01 5.284271211130544543e-01
5.526204079389572144e+00 -9.824504643678665161e+00 5.640563935739919543e-01
5.697102516889572144e+00 -9.978435307741165161e+00 5.663299531443044543e-01
5.867146462202072144e+00 -1.012296655774116516e+01 5.683288545114919543e-01
6.045002907514572144e+00 -1.027396753430366516e+01 5.704193086130544543e-01
6.229573220014572144e+00 -1.043082788586616516e+01 5.726013154489919543e-01
6.422688454389572144e+00 -1.059501245617866516e+01 5.748748750193044543e-01
6.623738259077072144e+00 -1.076578882336616516e+01 5.772247285349294543e-01
6.833821266889572144e+00 -1.094425562024116516e+01 5.796966523630544543e-01
5.506062477827072144e+00 -9.780681401491165161e+00 6.091003388864919543e-01
5.682820290327072144e+00 -9.947063237428665161e+00 6.125030488474294543e-01
5.861775368452072144e+00 -1.010953882336616516e+01 6.159667939646169543e-01
6.047200173139572144e+00 -1.027543237805366516e+01 6.194915742380544543e-01
6.240437477827072144e+00 -1.044828394055366516e+01 6.231536836130544543e-01
6.443318337202072144e+00 -1.062980249524116516e+01 6.269988984568044543e-01
6.655232399702072144e+00 -1.081937769055366516e+01 6.310119599802419543e-01
6.877766579389572144e+00 -1.101871851086616516e+01 6.355285615427419543e-01
5.556111305952072144e+00 -9.879192143678665161e+00 6.583557099802419543e-01
5.734822243452072144e+00 -1.004752710461616516e+01 6.631164521677419543e-01
5.914753884077072144e+00 -1.020963647961616516e+01 6.676177949411794543e-01
6.094807595014572144e+00 -1.036295679211616516e+01 6.717681855661794543e-01
6.279744118452072144e+00 -1.051871851086616516e+01 6.759490937693044543e-01
6.473347634077072144e+00 -1.068168237805366516e+01 6.803436250193044543e-01
6.674519509077072144e+00 -1.085099390149116516e+01 6.848907441599294543e-01
6.884724587202072144e+00 -1.102787378430366516e+01 6.896514863474294543e-01
5.538411110639572144e+00 -9.840495854616165161e+00 7.034606904489919543e-01
5.707234352827072144e+00 -9.989543706178665161e+00 7.085266084177419543e-01
5.875569313764572144e+00 -1.013041284680366516e+01 7.132415742380544543e-01
6.051716774702072144e+00 -1.027787378430366516e+01 7.179260224802419543e-01
6.234089821577072144e+00 -1.043046167492866516e+01 7.230224580271169543e-01
6.424641579389572144e+00 -1.058951929211616516e+01 7.286071748239919543e-01
6.623005837202072144e+00 -1.075541284680366516e+01 7.341613740427419543e-01
6.831379860639572144e+00 -1.093094995617866516e+01 7.400512666208669543e-01
5.501912087202072144e+00 -9.763591557741165161e+00 7.464599580271169543e-01
5.683674782514572144e+00 -9.939983159303665161e+00 7.534637422068044543e-01
5.867878884077072144e+00 -1.011246851086616516e+01 7.605285615427419543e-01
6.058918923139572144e+00 -1.028873804211616516e+01 7.677154511911794543e-01
6.258381813764572144e+00 -1.047282007336616516e+01 7.752380341989919543e-01
6.468342751264572144e+00 -1.066654565930366516e+01 7.831420869333669543e-01
6.688191384077072144e+00 -1.086930444836616516e+01 7.914123506052419543e-01
6.919758766889572144e+00 -1.108341577649116516e+01 8.004455537302419543e-01
6.094807595014572144e+00 -9.681560307741165161e+00 -1.524810820119455457e-01
6.164143532514572144e+00 -9.632488042116165161e+00 -1.542816191213205457e-01
6.231160134077072144e+00 -9.579509526491165161e+00 -1.561126738088205457e-01
6.298176735639572144e+00 -9.526531010866165161e+00 -1.579437284963205457e-01
6.364949196577072144e+00 -9.473796635866165161e+00 -1.597595243947580457e-01
6.431721657514572144e+00 -9.421062260866165161e+00 -1.615905790822580457e-01
6.498127907514572144e+00 -9.368572026491165161e+00 -1.634063749806955457e-01
6.561970680952072144e+00 -9.312419682741165161e+00 -1.652374296681955457e-01
6.543049782514572144e+00 -1.047184351086616516e+01 -1.457214384572580457e-01
6.625081032514572144e+00 -1.042960718274116516e+01 -1.485748320119455457e-01
6.703816384077072144e+00 -1.038163354992866516e+01 -1.511230497853830457e-01
6.779255837202072144e+00 -1.032755640149116516e+01 -1.530914335744455457e-01
6.851521462202072144e+00 -1.026908472180366516e+01 -1.550903349416330457e-01
6.921101540327072144e+00 -1.020597437024116516e+01 -1.571197538869455457e-01
6.993000954389572144e+00 -1.014786890149116516e+01 -1.591033964650705457e-01
7.064778298139572144e+00 -1.008976343274116516e+01 -1.610717802541330457e-01
7.092366188764572144e+00 -1.144059351086616516e+01 -1.387329130666330457e-01
7.190754860639572144e+00 -1.140812280774116516e+01 -1.424865751760080457e-01
7.289387673139572144e+00 -1.137553003430366516e+01 -1.462402372853830457e-01
7.388752907514572144e+00 -1.134269312024116516e+01 -1.500244169728830457e-01
7.488240212202072144e+00 -1.130997827649116516e+01 -1.538085966603830457e-01
7.581135720014572144e+00 -1.126530054211616516e+01 -1.570587187306955457e-01
7.653645485639572144e+00 -1.118851831555366516e+01 -1.587524443166330457e-01
7.725789040327072144e+00 -1.111222437024116516e+01 -1.604309111135080457e-01
7.716999977827072144e+00 -1.254166772961616516e+01 -1.271667509572580457e-01
7.805012673139572144e+00 -1.247025659680366516e+01 -1.293945341603830457e-01
7.917927712202072144e+00 -1.244181421399116516e+01 -1.337127714650705457e-01
7.643635720014572144e+00 -1.176505640149116516e+01 -1.110382109181955457e-01
8.145710915327072144e+00 -1.238419702649116516e+01 -1.424255400197580457e-01
8.260823220014572144e+00 -1.235514429211616516e+01 -1.468353300588205457e-01
8.375935524702072144e+00 -1.232609155774116516e+01 -1.512451200978830457e-01
8.487751930952072144e+00 -1.229069116711616516e+01 -1.557312040822580457e-01
1.048164841532707214e+01 -1.742435815930366516e+01 -2.361145048635080457e-01
1.059212204813957214e+01 -1.729899194836616516e+01 -2.389831572072580457e-01
1.070210739970207214e+01 -1.717435815930366516e+01 -2.418365507619455457e-01
7.644856423139572144e+00 -1.176395776867866516e+01 -5.245971970725804567e-02
9.312336891889572144e+00 -1.429178979992866516e+01 -1.504974394338205457e-01
9.385090798139572144e+00 -1.415946558117866516e+01 -1.517639189260080457e-01
9.456746071577072144e+00 -1.402885034680366516e+01 -1.530151396291330457e-01
9.527790993452072144e+00 -1.389945581555366516e+01 -1.542511015431955457e-01
1.161543747782707214e+01 -1.942289331555366516e+01 -2.081451445119455457e-01
1.185017868876457214e+01 -1.947452905774116516e+01 -2.168884306447580457e-01
1.205818650126457214e+01 -1.947538354992866516e+01 -2.247161894338205457e-01
7.646077126264572144e+00 -1.176285913586616516e+01 6.454464863054454327e-03
1.248140427470207214e+01 -1.947733667492866516e+01 -2.406463652150705457e-01
1.269649216532707214e+01 -1.947819116711616516e+01 -2.487487822072580457e-01
1.289253708720207214e+01 -1.944657495617866516e+01 -2.558593779103830457e-01
1.307832810282707214e+01 -1.939689233899116516e+01 -2.629547148244455457e-01
1.228560349345207214e+01 -2.060111597180366516e+01 -1.384735136525705457e-01
1.253242966532707214e+01 -2.065116479992866516e+01 -1.473999052541330457e-01
1.286616989970207214e+01 -2.084342554211616516e+01 -1.600189238088205457e-01
7.647297829389572144e+00 -1.176176050305366516e+01 6.503295607399195433e-02
1.345015427470207214e+01 -2.105790308117866516e+01 -1.815643339650705457e-01
1.370589157938957214e+01 -2.109476831555366516e+01 -1.907501249806955457e-01
1.395064255595207214e+01 -2.111051538586616516e+01 -1.994476347463205457e-01
1.422127243876457214e+01 -2.116202905774116516e+01 -2.092132597463205457e-01
1.292134568095207214e+01 -2.171769312024116516e+01 -5.572510056663304567e-02
1.319783493876457214e+01 -2.179801538586616516e+01 -6.486511521507054567e-02
1.351118943095207214e+01 -2.193375757336616516e+01 -7.463074021507054567e-02
7.648518532514572144e+00 -1.176066187024116516e+01 1.239166230661794543e-01
1.420296189188957214e+01 -2.228422144055366516e+01 -9.756470017600804567e-02
1.453914353251457214e+01 -2.242753198742866516e+01 -1.086883574025705457e-01
1.487080857157707214e+01 -2.255594995617866516e+01 -1.202850370900705457e-01
1.519490525126457214e+01 -2.266410425305366516e+01 -1.309967070119455457e-01
1.345906540751457214e+01 -2.266080835461616516e+01 4.182433790992945433e-02
1.378645798563957214e+01 -2.281095483899116516e+01 3.234862990211695433e-02
1.408650681376457214e+01 -2.290519312024116516e+01 2.351379103492945433e-02
7.649739235639572144e+00 -1.175956323742866516e+01 1.824798554880544543e-01
1.479744431376457214e+01 -2.325065210461616516e+01 3.021237323991954327e-03
1.517574021220207214e+01 -2.344376733899116516e+01 -7.873538066633045673e-03
1.553596970438957214e+01 -2.359855249524116516e+01 -1.832580857444554567e-02
1.569685837626457214e+01 -2.343497827649116516e+01 -2.377319626975804567e-02
1.393770310282707214e+01 -2.349894312024116516e+01 1.496276826364919543e-01
1.427681443095207214e+01 -2.365348413586616516e+01 1.412200898630544543e-01
1.462410447001457214e+01 -2.381168726086616516e+01 1.326141328318044543e-01
7.651082009077072144e+00 -1.175846460461616516e+01 2.410430879099294543e-01
1.533345505595207214e+01 -2.412101343274116516e+01 1.149291963083669543e-01
1.519490525126457214e+01 -2.346805933117866516e+01 1.140899629099294543e-01
1.610237595438957214e+01 -2.448490503430366516e+01 9.597778029274195433e-02
1.566792771220207214e+01 -2.338407495617866516e+01 1.001892060739919543e-01
1.439925095438957214e+01 -2.430631616711616516e+01 2.670288056833669543e-01
1.463594529032707214e+01 -2.426810815930366516e+01 2.605285615427419543e-01
1.482246872782707214e+01 -2.414188745617866516e+01 2.543182343943044543e-01
7.652302712202072144e+00 -1.175736597180366516e+01 2.999114961130544543e-01
1.511690232157707214e+01 -2.376017358899116516e+01 2.424774140818044543e-01
1.592061325907707214e+01 -2.462650659680366516e+01 2.315216035349294543e-01
1.601131150126457214e+01 -2.433475854992866516e+01 2.259216279489919543e-01
1.563911911845207214e+01 -2.333304956555366516e+01 2.242736787302419543e-01
1.456636521220207214e+01 -2.459403589367866516e+01 3.913269013864919543e-01
1.463509079813957214e+01 -2.425980737805366516e+01 3.846740693552419543e-01
1.475679489970207214e+01 -2.402347925305366516e+01 3.782653779489919543e-01
7.653523415327072144e+00 -1.175614526867866516e+01 3.584594697458669543e-01
1.510530564188957214e+01 -2.373466089367866516e+01 3.657684297068044543e-01
1.534773728251457214e+01 -2.370048120617866516e+01 3.596038789255544543e-01
1.527876755595207214e+01 -2.317435815930366516e+01 3.532562226755544543e-01
1.561043259501457214e+01 -2.328251245617866516e+01 3.471527070505544543e-01
1.469820114970207214e+01 -2.481949976086616516e+01 5.189056367380544543e-01
1.492708298563957214e+01 -2.475785425305366516e+01 5.129394502146169543e-01
1.469038864970207214e+01 -2.390409448742866516e+01 5.009613008005544543e-01
7.654744118452072144e+00 -1.175504663586616516e+01 4.170074433786794543e-01
1.510896775126457214e+01 -2.373417261242866516e+01 4.889526338083669543e-01
1.520088669657707214e+01 -2.345853784680366516e+01 4.817810029489919543e-01
1.575276657938957214e+01 -2.391447046399116516e+01 4.795837373239919543e-01
1.558186814188957214e+01 -2.323197534680366516e+01 4.701538056833669543e-01
1.565095993876457214e+01 -2.649174097180366516e+01 6.661987275583669543e-01
1.562215134501457214e+01 -2.595255640149116516e+01 6.543579072458669543e-01
1.611214157938957214e+01 -2.630936792492866516e+01 6.534576386911794543e-01
7.655964821577072144e+00 -1.175394800305366516e+01 4.758605927927419543e-01
1.598311325907707214e+01 -2.515580347180366516e+01 6.293487519724294543e-01
1.537508103251457214e+01 -2.373136499524116516e+01 6.078948945505544543e-01
1.544051072001457214e+01 -2.341630151867866516e+01 5.994415254099294543e-01
1.630977341532707214e+01 -2.435111597180366516e+01 6.047973603708669543e-01
6.902180641889572144e+00 -1.106718042492866516e+01 5.284576386911794543e-01
7.126545876264572144e+00 -1.125956323742866516e+01 5.297088593943044543e-01
7.361409157514572144e+00 -1.146049097180366516e+01 5.313110322458669543e-01
7.608723610639572144e+00 -1.167228296399116516e+01 5.330047578318044543e-01
7.858723610639572144e+00 -1.187907007336616516e+01 5.345306367380544543e-01
8.110798805952072144e+00 -1.207877710461616516e+01 5.358276338083669543e-01
8.373982399702072144e+00 -1.228739526867866516e+01 5.371704072458669543e-01
8.649373024702072144e+00 -1.250529077649116516e+01 5.389251679880544543e-01
6.834919899702072144e+00 -1.094572046399116516e+01 5.797271699411794543e-01
7.054646462202072144e+00 -1.113224390149116516e+01 5.824432343943044543e-01
7.284871071577072144e+00 -1.132767847180366516e+01 5.852966279489919543e-01
7.533772438764572144e+00 -1.154423120617866516e+01 5.885467500193044543e-01
7.801472634077072144e+00 -1.178226831555366516e+01 5.922088593943044543e-01
8.059163063764572144e+00 -1.199283960461616516e+01 5.951385468943044543e-01
8.331257790327072144e+00 -1.221696069836616516e+01 5.982971162302419543e-01
8.617390602827072144e+00 -1.245267847180366516e+01 6.016235322458669543e-01
6.878987282514572144e+00 -1.102030542492866516e+01 6.355590791208669543e-01
7.112385720014572144e+00 -1.122892358899116516e+01 6.398620576364919543e-01
7.358357399702072144e+00 -1.144926050305366516e+01 6.447143525583669543e-01
7.618489235639572144e+00 -1.168217065930366516e+01 6.498413056833669543e-01
7.880085915327072144e+00 -1.190751245617866516e+01 6.546936006052419543e-01
8.140828102827072144e+00 -1.212052515149116516e+01 6.591186494333669543e-01
8.402302712202072144e+00 -1.232548120617866516e+01 6.632537812693044543e-01
8.675740212202072144e+00 -1.253959253430366516e+01 6.679229707224294543e-01
6.885945290327072144e+00 -1.102933862805366516e+01 6.896972627146169543e-01
7.105549782514572144e+00 -1.121403101086616516e+01 6.948699922068044543e-01
7.335530251264572144e+00 -1.140739038586616516e+01 7.002716035349294543e-01
7.577595680952072144e+00 -1.161100366711616516e+01 7.059631318552419543e-01
7.825886696577072144e+00 -1.181595972180366516e+01 7.116546601755544543e-01
8.072590798139572144e+00 -1.200797632336616516e+01 7.168731660349294543e-01
8.329792946577072144e+00 -1.220841577649116516e+01 7.223052949411794543e-01
8.599202126264572144e+00 -1.241813257336616516e+01 7.279968232614919543e-01
6.832600563764572144e+00 -1.093253687024116516e+01 7.401123017771169543e-01
7.070515602827072144e+00 -1.115043237805366516e+01 7.478179902536794543e-01
7.321370095014572144e+00 -1.138029077649116516e+01 7.559661836130544543e-01
7.586750954389572144e+00 -1.162308862805366516e+01 7.642364472849294543e-01
7.857624977827072144e+00 -1.186454370617866516e+01 7.727355927927419543e-01
8.129109352827072144e+00 -1.209537866711616516e+01 7.810974091989919543e-01
8.413655251264572144e+00 -1.233683374524116516e+01 7.895050019724294543e-01
8.713582009077072144e+00 -1.259147241711616516e+01 7.983703584177419543e-01
6.920979470014572144e+00 -1.108500269055366516e+01 8.005065888864919543e-01
7.164509743452072144e+00 -1.130961206555366516e+01 8.096466035349294543e-01
1.603609177470207214e+01 -2.613578394055366516e+01 1.462249752948991954e+00
1.560542771220207214e+01 -2.494523218274116516e+01 1.408645626972429454e+00
1.581953904032707214e+01 -2.484720972180366516e+01 1.403167721698991954e+00
1.594185349345207214e+01 -2.459977319836616516e+01 1.391128537128679454e+00
1.601582810282707214e+01 -2.428251245617866516e+01 1.376037594745866954e+00
1.690462204813957214e+01 -2.523002222180366516e+01 1.417083737323991954e+00
6.562214821577072144e+00 -9.312175542116165161e+00 -1.652374296681955457e-01
6.628743141889572144e+00 -9.260417729616165161e+00 -1.670379667775705457e-01
6.692707985639572144e+00 -9.204997807741165161e+00 -1.688537626760080457e-01
6.756672829389572144e+00 -9.149455815553665161e+00 -1.706848173635080457e-01
6.820393532514572144e+00 -9.094280034303665161e+00 -1.725006132619455457e-01
6.884236305952072144e+00 -9.038982182741165161e+00 -1.743164091603830457e-01
6.947712868452072144e+00 -8.983928471803665161e+00 -1.761169462697580457e-01
7.008381813764572144e+00 -8.925456792116165161e+00 -1.779480009572580457e-01
7.064900368452072144e+00 -1.008951929211616516e+01 -1.610717802541330457e-01
7.134358376264572144e+00 -1.002811792492866516e+01 -1.630706816213205457e-01
7.203572243452072144e+00 -9.966960698366165161e+00 -1.650543241994455457e-01
7.275837868452072144e+00 -9.910075932741165161e+00 -1.670379667775705457e-01
7.344929665327072144e+00 -9.849040776491165161e+00 -1.690216093556955457e-01
7.410847634077072144e+00 -9.783611088991165161e+00 -1.710205107228830457e-01
7.479573220014572144e+00 -9.722820073366165161e+00 -1.729888945119455457e-01
7.548054665327072144e+00 -9.662151128053665161e+00 -1.749572783010080457e-01
7.725911110639572144e+00 -1.111173608899116516e+01 -1.604309111135080457e-01
7.794880837202072144e+00 -1.103141382336616516e+01 -1.620941191213205457e-01
7.863606423139572144e+00 -1.095145776867866516e+01 -1.637573271291330457e-01
7.932209938764572144e+00 -1.087162378430366516e+01 -1.654052763478830457e-01
8.000325173139572144e+00 -1.079240015149116516e+01 -1.670532255666330457e-01
8.068318337202072144e+00 -1.071317651867866516e+01 -1.686859159963205457e-01
8.135823220014572144e+00 -1.063468530774116516e+01 -1.703186064260080457e-01
8.203083962202072144e+00 -1.055643823742866516e+01 -1.719512968556955457e-01
8.488240212202072144e+00 -1.229081323742866516e+01 -1.557617216603830457e-01
8.584675759077072144e+00 -1.223099878430366516e+01 -1.587219267385080457e-01
8.651204079389572144e+00 -1.212638452649116516e+01 -1.600341825978830457e-01
8.717488259077072144e+00 -1.202201440930366516e+01 -1.613311796681955457e-01
8.790608376264572144e+00 -1.192972925305366516e+01 -1.631164579885080457e-01
8.874592751264572144e+00 -1.185331323742866516e+01 -1.656188993947580457e-01
8.958210915327072144e+00 -1.177726343274116516e+01 -1.681213408010080457e-01
9.035237282514572144e+00 -1.169266870617866516e+01 -1.705322294728830457e-01
9.527790993452072144e+00 -1.389847925305366516e+01 -1.542358427541330457e-01
9.596882790327072144e+00 -1.376823022961616516e+01 -1.555786161916330457e-01
9.665486305952072144e+00 -1.363920190930366516e+01 -1.569061308400705457e-01
9.711140602827072144e+00 -1.347782495617866516e+01 -1.569213896291330457e-01
9.813923805952072144e+00 -1.340250757336616516e+01 -1.602783232228830457e-01
9.906819313764572144e+00 -1.331266382336616516e+01 -1.630706816213205457e-01
9.999104470014572144e+00 -1.322343042492866516e+01 -1.658325224416330457e-01
1.009114548563957214e+01 -1.313431909680366516e+01 -1.685943632619455457e-01
1.307918259501457214e+01 -1.939689233899116516e+01 -2.629852324025705457e-01
1.066780564188957214e+01 -1.539396265149116516e+01 -1.380767851369455457e-01
1.072322556376457214e+01 -1.521635034680366516e+01 -1.388397245900705457e-01
9.793293923139572144e+00 -1.359489038586616516e+01 -9.025574021507054567e-02
1.096602341532707214e+01 -1.506034448742866516e+01 -1.469879179494455457e-01
1.111995407938957214e+01 -1.502787378430366516e+01 -1.526794462697580457e-01
1.127400681376457214e+01 -1.499454858899116516e+01 -1.583709745900705457e-01
1.139717575907707214e+01 -1.491752222180366516e+01 -1.629486113088205457e-01
1.422346970438957214e+01 -2.116410425305366516e+01 -2.092895536916330457e-01
1.458296677470207214e+01 -2.134501245617866516e+01 -2.229766874806955457e-01
1.490816208720207214e+01 -2.146415308117866516e+01 -2.351684599416330457e-01
9.794758766889572144e+00 -1.359354761242866516e+01 -1.928711228538304567e-02
1.545515915751457214e+01 -2.152738550305366516e+01 -2.551269560353830457e-01
1.573982712626457214e+01 -2.156644800305366516e+01 -2.655334501760080457e-01
1.596724411845207214e+01 -2.152128198742866516e+01 -2.735443144338205457e-01
1.614290329813957214e+01 -2.140311792492866516e+01 -2.793884306447580457e-01
1.519685837626457214e+01 -2.266569116711616516e+01 -1.310577421681955457e-01
1.552693650126457214e+01 -2.277469995617866516e+01 -1.421203642385080457e-01
1.585091111063957214e+01 -2.286649683117866516e+01 -1.523132353322580457e-01
9.796223610639572144e+00 -1.359232690930366516e+01 5.204772658180445433e-02
1.646761032938957214e+01 -2.298075464367866516e+01 -1.729431181447580457e-01
1.688411423563957214e+01 -2.318082788586616516e+01 -1.869049101369455457e-01
1.723470017313957214e+01 -2.327921655774116516e+01 -1.993103056447580457e-01
1.759969040751457214e+01 -2.338920190930366516e+01 -2.115325956838205457e-01
1.569746872782707214e+01 -2.343461206555366516e+01 -2.378845505882054567e-02
1.627937790751457214e+01 -2.391251733899116516e+01 -4.002380662132054567e-02
1.663191697001457214e+01 -2.402653101086616516e+01 -5.047607712913304567e-02
9.797688454389572144e+00 -1.359098413586616516e+01 1.230010957224294543e-01
1.734199997782707214e+01 -2.423453882336616516e+01 -7.160949998069554567e-02
1.770454880595207214e+01 -2.433610132336616516e+01 -8.241272263694554567e-02
1.765144822001457214e+01 -2.385282495617866516e+01 -8.248901658225804567e-02
1.853889939188957214e+01 -2.466691187024116516e+01 -1.069335966603830457e-01
1.566866013407707214e+01 -2.338370874524116516e+01 1.001739472849294543e-01
1.677400681376457214e+01 -2.465787866711616516e+01 7.833862013649195433e-02
1.678047654032707214e+01 -2.424198511242866516e+01 7.510375685524195433e-02
9.799153298139572144e+00 -1.358964136242866516e+01 1.939392060739919543e-01
1.731746384501457214e+01 -2.419291284680366516e+01 5.961608595680445433e-02
1.769319626688957214e+01 -2.431376245617866516e+01 4.989623732399195433e-02
1.787544724345207214e+01 -2.415812280774116516e+01 4.362487501930445433e-02
1.777547165751457214e+01 -2.361759546399116516e+01 4.248046583961695433e-02
1.563972947001457214e+01 -2.333268335461616516e+01 2.242584199411794543e-01
1.588338181376457214e+01 -2.329825952649116516e+01 2.176361054880544543e-01
1.694002243876457214e+01 -2.447367456555366516e+01 2.036743134958669543e-01
9.800618141889572144e+00 -1.358842065930366516e+01 2.652587861521169543e-01
1.726363083720207214e+01 -2.410905054211616516e+01 1.913452119333669543e-01
1.768062302470207214e+01 -2.428971460461616516e+01 1.826934785349294543e-01
1.784969040751457214e+01 -2.411613062024116516e+01 1.764373750193044543e-01
2.007344529032707214e+01 -2.675053003430366516e+01 1.488342256052419543e-01
1.561116501688957214e+01 -2.328226831555366516e+01 3.471374482614919543e-01
1.783809372782707214e+01 -2.626102808117866516e+01 3.403320283396169543e-01
1.689668747782707214e+01 -2.440262964367866516e+01 3.342742890818044543e-01
9.802082985639572144e+00 -1.358707788586616516e+01 3.361968965036794543e-01
1.814961716532707214e+01 -2.537833765149116516e+01 3.200225800974294543e-01
1.821297165751457214e+01 -2.503641870617866516e+01 3.134765595896169543e-01
1.781331345438957214e+01 -2.405936792492866516e+01 3.081054658396169543e-01
1.814961716532707214e+01 -2.411661890149116516e+01 3.012237519724294543e-01
1.558260056376457214e+01 -2.323173120617866516e+01 4.701232881052419543e-01
1.668098923563957214e+01 -2.449711206555366516e+01 4.714050263864919543e-01
1.704402634501457214e+01 -2.461588647961616516e+01 4.655303925974294543e-01
9.803547829389572144e+00 -1.358573511242866516e+01 4.071197480661794543e-01
1.736543747782707214e+01 -2.424320581555366516e+01 4.520263642771169543e-01
1.765376755595207214e+01 -2.423942163586616516e+01 4.460754365427419543e-01
1.778157517313957214e+01 -2.400919702649116516e+01 4.398803681833669543e-01
1.818733689188957214e+01 -2.416190698742866516e+01 4.344634980661794543e-01
1.636140915751457214e+01 -2.442948511242866516e+01 6.056365937693044543e-01
1.634212204813957214e+01 -2.397611597180366516e+01 5.957794160349294543e-01
1.698982712626457214e+01 -2.452848413586616516e+01 5.966949433786794543e-01
9.805012673139572144e+00 -1.358451440930366516e+01 4.784088105661794543e-01
1.827156540751457214e+01 -2.554056909680366516e+01 5.966644258005544543e-01
2.125105759501457214e+01 -2.931779077649116516e+01 6.286010713083669543e-01
2.171590134501457214e+01 -2.946757104992866516e+01 6.237030000193044543e-01
1.791243454813957214e+01 -2.378055933117866516e+01 5.634918183786794543e-01
8.650959938764572144e+00 -1.250699976086616516e+01 5.389404267771169543e-01
8.940999001264572144e+00 -1.273722437024116516e+01 5.402526826364919543e-01
9.245686501264572144e+00 -1.297855737805366516e+01 5.419616670114919543e-01
9.567707985639572144e+00 -1.323368433117866516e+01 5.437774629099294543e-01
9.906331032514572144e+00 -1.350187280774116516e+01 5.456695527536794543e-01
1.023311325907707214e+01 -1.374076440930366516e+01 5.469818086130544543e-01
1.057332322001457214e+01 -1.398820093274116516e+01 5.483245820505544543e-01
1.093037888407707214e+01 -1.424735620617866516e+01 5.501251191599294543e-01
8.619099587202072144e+00 -1.245463159680366516e+01 6.016693086130544543e-01
8.920979470014572144e+00 -1.270341089367866516e+01 6.053466767771169543e-01
9.239582985639572144e+00 -1.296610620617866516e+01 6.092376679880544543e-01
9.577717751264572144e+00 -1.324491479992866516e+01 6.133727998239919543e-01
9.934651345014572144e+00 -1.353910425305366516e+01 6.177368134958669543e-01
1.027388474345207214e+01 -1.379484155774116516e+01 6.211547822458669543e-01
1.063167282938957214e+01 -1.406559351086616516e+01 6.248016328318044543e-01
1.100911423563957214e+01 -1.435123804211616516e+01 6.286468476755544543e-01
8.677327126264572144e+00 -1.254130151867866516e+01 6.679687470896169543e-01
8.965046852827072144e+00 -1.276700952649116516e+01 6.723937959177419543e-01
9.266926735639572144e+00 -1.300358179211616516e+01 6.773834199411794543e-01
9.585896462202072144e+00 -1.325333765149116516e+01 6.826629609568044543e-01
9.920857399702072144e+00 -1.351578882336616516e+01 6.882019013864919543e-01
1.024300095438957214e+01 -1.374772241711616516e+01 6.928405732614919543e-01
1.057954880595207214e+01 -1.398978784680366516e+01 6.976776093943044543e-01
1.093245407938957214e+01 -1.424320581555366516e+01 7.031402558786794543e-01
8.600789040327072144e+00 -1.241984155774116516e+01 7.280425996286794543e-01
8.903401345014572144e+00 -1.267020776867866516e+01 7.352447480661794543e-01
9.230427712202072144e+00 -1.294584253430366516e+01 7.432098359568044543e-01
9.578206032514572144e+00 -1.323881128430366516e+01 7.516784638864919543e-01
9.946248024702072144e+00 -1.354899194836616516e+01 7.606353730661794543e-01
1.029366013407707214e+01 -1.381583765149116516e+01 7.681274384958669543e-01
1.066219040751457214e+01 -1.410099390149116516e+01 7.761383027536794543e-01
1.105183884501457214e+01 -1.440238550305366516e+01 7.846221894724294543e-01
8.715413063764572144e+00 -1.259354761242866516e+01 7.984466523630544543e-01
1.646053025126457214e+01 -2.412357690930366516e+01 1.239303585956804454e+00
1.656392380595207214e+01 -2.386198022961616516e+01 1.227981564472429454e+00
1.651997849345207214e+01 -2.338810327649116516e+01 1.207900998066179454e+00
1.686848923563957214e+01 -2.349149683117866516e+01 1.210525509784929454e+00
1.719514939188957214e+01 -2.355460718274116516e+01 1.212265011738054454e+00
2.372371384501457214e+01 -3.221476343274116516e+01 1.540023800800554454e+00
2.298091599345207214e+01 -3.065958765149116516e+01 1.479141232441179454e+00
1.690779587626457214e+01 -2.523331812024116516e+01 1.417236325214616954e+00
1.646162888407707214e+01 -2.411893823742866516e+01 1.367111203144304454e+00
1.659663864970207214e+01 -2.390458276867866516e+01 1.357131955097429454e+00
1.670955368876457214e+01 -2.365922144055366516e+01 1.345809933613054454e+00
1.697676560282707214e+01 -2.364091089367866516e+01 1.344421383808366954e+00
2.444478318095207214e+01 -3.377946069836616516e+01 1.786636349628679454e+00
2.321602341532707214e+01 -3.150260522961616516e+01 1.686370846698991954e+00
2.298604294657707214e+01 -3.065861108899116516e+01 1.649627682636491954e+00
7.008748024702072144e+00 -8.925334721803665161e+00 -1.779480009572580457e-01
7.072346657514572144e+00 -8.871013432741165161e+00 -1.797485380666330457e-01
7.136677712202072144e+00 -8.817790776491165161e+00 -1.818695097463205457e-01
7.207478493452072144e+00 -8.772502690553665161e+00 -1.845245390431955457e-01
7.278157204389572144e+00 -8.727336674928665161e+00 -1.871795683400705457e-01
7.349080055952072144e+00 -8.681926518678665161e+00 -1.898345976369455457e-01
7.419880837202072144e+00 -8.636516362428665161e+00 -1.925048857228830457e-01
7.488118141889572144e+00 -8.587688237428665161e+00 -1.951751738088205457e-01
7.548420876264572144e+00 -9.662151128053665161e+00 -1.749877958791330457e-01
7.614460915327072144e+00 -9.598430424928665161e+00 -1.769561796681955457e-01
7.680378884077072144e+00 -9.534709721803665161e+00 -1.789398222463205457e-01
7.749592751264572144e+00 -9.475139409303665161e+00 -1.809082060353830457e-01
7.820881813764572144e+00 -9.418742924928665161e+00 -1.833190947072580457e-01
7.890339821577072144e+00 -9.359782963991165161e+00 -1.858367949025705457e-01
7.962727516889572144e+00 -9.304851323366165161e+00 -1.883392363088205457e-01
8.035115212202072144e+00 -9.249919682741165161e+00 -1.908264189260080457e-01
8.203572243452072144e+00 -1.055643823742866516e+01 -1.719665556447580457e-01
8.268025368452072144e+00 -1.047513940930366516e+01 -1.735992460744455457e-01
8.339802712202072144e+00 -1.040433862805366516e+01 -1.757812529103830457e-01
8.411702126264572144e+00 -1.033341577649116516e+01 -1.779632597463205457e-01
8.483235329389572144e+00 -1.026273706555366516e+01 -1.801300077931955457e-01
8.563557595014572144e+00 -1.020292261242866516e+01 -1.829071074025705457e-01
8.649128884077072144e+00 -1.015018823742866516e+01 -1.860809355275705457e-01
8.734944313764572144e+00 -1.009733179211616516e+01 -1.892547636525705457e-01
9.035603493452072144e+00 -1.169254663586616516e+01 -1.705474882619455457e-01
9.121418923139572144e+00 -1.162040308117866516e+01 -1.730499296681955457e-01
9.200642555952072144e+00 -1.153971460461616516e+01 -1.754760771291330457e-01
9.282673805952072144e+00 -1.146244409680366516e+01 -1.780853300588205457e-01
9.371785134077072144e+00 -1.139506128430366516e+01 -1.811523466603830457e-01
9.461262673139572144e+00 -1.132755640149116516e+01 -1.842193632619455457e-01
9.550496071577072144e+00 -1.126017358899116516e+01 -1.872863798635080457e-01
9.633992165327072144e+00 -1.118607690930366516e+01 -1.903381376760080457e-01
1.009126755595207214e+01 -1.313383081555366516e+01 -1.685943632619455457e-01
1.018013474345207214e+01 -1.304105737805366516e+01 -1.713714628713205457e-01
1.026875779032707214e+01 -1.294840601086616516e+01 -1.741333036916330457e-01
1.035750290751457214e+01 -1.285563257336616516e+01 -1.769104033010080457e-01
1.044575974345207214e+01 -1.276346948742866516e+01 -1.796569853322580457e-01
1.053401657938957214e+01 -1.267130640149116516e+01 -1.824188261525705457e-01
1.062178513407707214e+01 -1.257950952649116516e+01 -1.851501493947580457e-01
1.070930954813957214e+01 -1.248807886242866516e+01 -1.878814726369455457e-01
1.139766404032707214e+01 -1.491727808117866516e+01 -1.629638700978830457e-01
1.153304001688957214e+01 -1.485624292492866516e+01 -1.674652128713205457e-01
1.166121384501457214e+01 -1.478483179211616516e+01 -1.720428495900705457e-01
1.178352829813957214e+01 -1.470426538586616516e+01 -1.763153105275705457e-01
1.188435837626457214e+01 -1.459684351086616516e+01 -1.795349150197580457e-01
1.198714157938957214e+01 -1.449161890149116516e+01 -1.828613310353830457e-01
1.205489060282707214e+01 -1.434440210461616516e+01 -1.844940214650705457e-01
1.211348435282707214e+01 -1.418815210461616516e+01 -1.861267118947580457e-01
1.614375779032707214e+01 -2.140311792492866516e+01 -2.794189482228830457e-01
1.343562790751457214e+01 -1.740934351086616516e+01 -1.659545927541330457e-01
1.317854782938957214e+01 -1.678519800305366516e+01 -1.543273954885080457e-01
1.336324021220207214e+01 -1.675138452649116516e+01 -1.610107450978830457e-01
1.354890915751457214e+01 -1.671732690930366516e+01 -1.677093534963205457e-01
1.373677536845207214e+01 -1.668290308117866516e+01 -1.744995146291330457e-01
1.388618943095207214e+01 -1.659952905774116516e+01 -1.797027616994455457e-01
1.402986618876457214e+01 -1.650870874524116516e+01 -1.846771269338205457e-01
1.760152146220207214e+01 -2.339030054211616516e+01 -2.115936308400705457e-01
1.788081833720207214e+01 -2.337675073742866516e+01 -2.210845976369455457e-01
1.821345993876457214e+01 -2.342924097180366516e+01 -2.316741972463205457e-01
1.853999802470207214e+01 -2.346573999524116516e+01 -2.427520781056955457e-01
1.885554978251457214e+01 -2.348344019055366516e+01 -2.534637480275705457e-01
1.914204880595207214e+01 -2.345780542492866516e+01 -2.631835966603830457e-01
1.941646286845207214e+01 -2.341447046399116516e+01 -2.732238798635080457e-01
1.976021286845207214e+01 -2.345170190930366516e+01 -2.848815947072580457e-01
1.854060837626457214e+01 -2.466776636242866516e+01 -1.069793730275705457e-01
1.834846970438957214e+01 -2.399906519055366516e+01 -1.035308866994455457e-01
1.935750290751457214e+01 -2.493363550305366516e+01 -1.314086943166330457e-01
1.973811814188957214e+01 -2.501456812024116516e+01 -1.429443388478830457e-01
2.007783982157707214e+01 -2.503678491711616516e+01 -1.534271269338205457e-01
2.055916306376457214e+01 -2.522892358899116516e+01 -1.676788359181955457e-01
2.109041306376457214e+01 -2.547220972180366516e+01 -1.832885771291330457e-01
2.151936814188957214e+01 -2.557816675305366516e+01 -1.962432890431955457e-01
1.777498337626457214e+01 -2.361552026867866516e+01 4.248046583961695433e-02
1.831087204813957214e+01 -2.394254663586616516e+01 2.972411818336695433e-02
1.205428025126457214e+01 -1.528910425305366516e+01 1.427612275583669543e-01
2.069490525126457214e+01 -2.624955347180366516e+01 -2.067566209007054567e-02
2.117928025126457214e+01 -2.643510034680366516e+01 -3.300476365257054567e-02
2.168721482157707214e+01 -2.663676050305366516e+01 -4.589844041038304567e-02
2.215132614970207214e+01 -2.677360132336616516e+01 -5.801391892600804567e-02
2.263045212626457214e+01 -2.691837671399116516e+01 -7.051086716819554567e-02
2.007576462626457214e+01 -2.675211694836616516e+01 1.488037080271169543e-01
1.818172165751457214e+01 -2.376322534680366516e+01 1.640472383005544543e-01
1.205598923563957214e+01 -1.528751733899116516e+01 2.265014619333669543e-01
1.822993943095207214e+01 -2.304630640149116516e+01 1.548919648630544543e-01
2.205232712626457214e+01 -2.754142358899116516e+01 1.071624726755544543e-01
2.253011032938957214e+01 -2.768656519055366516e+01 9.658813185524195433e-02
2.303767868876457214e+01 -2.785917261242866516e+01 8.557128615211695433e-02
2.356612107157707214e+01 -2.804520776867866516e+01 7.415771193336695433e-02
1.814949509501457214e+01 -2.411490991711616516e+01 3.012084931833669543e-01
1.817403122782707214e+01 -2.374686792492866516e+01 2.952423066599294543e-01
1.205757614970207214e+01 -1.528605249524116516e+01 3.097839326364919543e-01
2.230086228251457214e+01 -2.831864526867866516e+01 2.687683076364919543e-01
2.282417771220207214e+01 -2.851835229992866516e+01 2.598419160349294543e-01
2.332979294657707214e+01 -2.868168237805366516e+01 2.507781953318044543e-01
2.384419724345207214e+01 -2.884574487805366516e+01 2.415313691599294543e-01
2.435152146220207214e+01 -2.898978784680366516e+01 2.321472138864919543e-01
1.818721482157707214e+01 -2.416032007336616516e+01 4.344329804880544543e-01
1.802986618876457214e+01 -2.354752710461616516e+01 4.263458222849294543e-01
1.205928513407707214e+01 -1.528458765149116516e+01 3.930664033396169543e-01
1.861446091532707214e+01 -2.353336694836616516e+01 4.137878388864919543e-01
1.851985642313957214e+01 -2.302701929211616516e+01 4.064025849802419543e-01
2.407075974345207214e+01 -2.960270288586616516e+01 4.164733857614919543e-01
2.456111618876457214e+01 -2.972159937024116516e+01 4.098205537302419543e-01
2.508797165751457214e+01 -2.987430933117866516e+01 4.021759004099294543e-01
1.791255661845207214e+01 -2.377946069836616516e+01 5.634613008005544543e-01
1.818111130595207214e+01 -2.374454858899116516e+01 5.581207246286794543e-01
1.206099411845207214e+01 -1.528312280774116516e+01 4.767913789255544543e-01
1.845723435282707214e+01 -2.332377222180366516e+01 5.442047090036794543e-01
1.852998825907707214e+01 -2.303422144055366516e+01 5.366210908396169543e-01
2.479341599345207214e+01 -3.050040796399116516e+01 5.937194795114919543e-01
1.356978318095207214e+01 -1.618241479992866516e+01 4.708251924021169543e-01
1.404866501688957214e+01 -1.650407007336616516e+01 4.697265595896169543e-01
1.093245407938957214e+01 -1.424943140149116516e+01 5.501403779489919543e-01
1.130977341532707214e+01 -1.452408960461616516e+01 5.513915986521169543e-01
1.170699021220207214e+01 -1.481278589367866516e+01 5.531311006052419543e-01
1.212837693095207214e+01 -1.511893823742866516e+01 5.549621552927419543e-01
1.254597947001457214e+01 -1.540787866711616516e+01 5.564117402536794543e-01
1.298579880595207214e+01 -1.571073511242866516e+01 5.579071015818044543e-01
1.344881150126457214e+01 -1.602970483899116516e+01 5.594634980661794543e-01
1.393953415751457214e+01 -1.636808374524116516e+01 5.616455049021169543e-01
1.101143357157707214e+01 -1.435355737805366516e+01 6.286773652536794543e-01
1.141096970438957214e+01 -1.465616968274116516e+01 6.329650849802419543e-01
1.182088181376457214e+01 -1.495914819836616516e+01 6.371459931833669543e-01
1.220540329813957214e+01 -1.521500757336616516e+01 6.402435273630544543e-01
1.263911911845207214e+01 -1.552274683117866516e+01 6.442871064646169543e-01
1.306331345438957214e+01 -1.580399683117866516e+01 6.476745576364919543e-01
1.350825974345207214e+01 -1.609904077649116516e+01 6.512298554880544543e-01
1.397737595438957214e+01 -1.641007593274116516e+01 6.549682588083669543e-01
1.093465134501457214e+01 -1.424528101086616516e+01 7.031860322458669543e-01
1.130696579813957214e+01 -1.451322534680366516e+01 7.083892793161794543e-01
1.171797654032707214e+01 -1.481998804211616516e+01 7.149352998239919543e-01
1.217268845438957214e+01 -1.516910913586616516e+01 7.224884004099294543e-01
1.260286423563957214e+01 -1.547282007336616516e+01 7.287750215036794543e-01
1.305696579813957214e+01 -1.579227808117866516e+01 7.353668183786794543e-01
1.353596970438957214e+01 -1.612919214367866516e+01 7.423095674021169543e-01
1.404488083720207214e+01 -1.648783472180366516e+01 7.502136201364919543e-01
1.105415818095207214e+01 -1.440482690930366516e+01 7.846984834177419543e-01
2.534895798563957214e+01 -3.332523706555366516e+01 1.392135617206804454e+00
2.563289353251457214e+01 -3.314261987805366516e+01 1.383865353534929454e+00
2.670857712626457214e+01 -3.398209741711616516e+01 1.408279416034929454e+00
2.727742478251457214e+01 -3.414310815930366516e+01 1.410888668964616954e+00
2.463777634501457214e+01 -3.027579858899116516e+01 1.285110470722429454e+00
2.482149216532707214e+01 -3.000565698742866516e+01 1.274230954120866954e+00
2.585359665751457214e+01 -3.076407983899116516e+01 1.295944210956804454e+00
2.298335739970207214e+01 -3.066105249524116516e+01 1.479187008808366954e+00
2.313033005595207214e+01 -3.034464624524116516e+01 1.466079709003679454e+00
2.679671189188957214e+01 -3.466666772961616516e+01 1.628631588886491954e+00
2.386214157938957214e+01 -3.028995874524116516e+01 1.460861203144304454e+00
2.406099411845207214e+01 -3.004276636242866516e+01 1.450378415058366954e+00
2.543745896220207214e+01 -3.126847437024116516e+01 1.496414181659929454e+00
2.539192673563957214e+01 -3.069974878430366516e+01 1.473770138691179454e+00
2.532124802470207214e+01 -3.011307886242866516e+01 1.450469967792741954e+00
2.298836228251457214e+01 -3.066007593274116516e+01 1.649688717792741954e+00
2.315364548563957214e+01 -3.036820581555366516e+01 1.636016842792741954e+00
2.546236130595207214e+01 -3.290140894055366516e+01 1.746490475605241954e+00
2.796492478251457214e+01 -3.559073999524116516e+01 1.863769528339616954e+00
2.444185349345207214e+01 -3.051969507336616516e+01 1.642532345722429454e+00
2.532845017313957214e+01 -3.112443140149116516e+01 1.668884274433366954e+00
2.515144822001457214e+01 -3.039664819836616516e+01 1.637100216816179454e+00
2.600764939188957214e+01 -3.093546655774116516e+01 1.661529538105241954e+00
7.488118141889572144e+00 -8.587322026491165161e+00 -1.951751738088205457e-01
7.559651345014572144e+00 -8.542400151491165161e+00 -1.978454618947580457e-01
7.628376930952072144e+00 -8.493816167116165161e+00 -2.005310087697580457e-01
7.694294899702072144e+00 -8.441448003053665161e+00 -2.029571562306955457e-01
7.758503884077072144e+00 -8.387370854616165161e+00 -2.052459745900705457e-01
7.816853493452072144e+00 -8.326213628053665161e+00 -2.070465116994455457e-01
7.875081032514572144e+00 -8.265666753053665161e+00 -2.088623075978830457e-01
7.930256813764572144e+00 -8.201946049928665161e+00 -2.106781034963205457e-01
8.035115212202072144e+00 -9.249553471803665161e+00 -1.908264189260080457e-01
8.104695290327072144e+00 -9.191081792116165161e+00 -1.933136015431955457e-01
8.174275368452072144e+00 -9.132732182741165161e+00 -1.958007841603830457e-01
8.247883766889572144e+00 -9.078532963991165161e+00 -1.983032255666330457e-01
8.317585915327072144e+00 -9.020061284303665161e+00 -2.007904081838205457e-01
8.383625954389572144e+00 -8.956950932741165161e+00 -2.032623320119455457e-01
8.453328102827072144e+00 -8.898479253053665161e+00 -2.057495146291330457e-01
8.523030251264572144e+00 -8.840007573366165161e+00 -2.082519560353830457e-01
8.735066384077072144e+00 -1.009684351086616516e+01 -1.892395048635080457e-01
8.812581032514572144e+00 -1.003373315930366516e+01 -1.920318632619455457e-01
8.888020485639572144e+00 -9.968303471803665161e+00 -1.946868925588205457e-01
8.963826149702072144e+00 -9.902507573366165161e+00 -1.973419218556955457e-01
9.039387673139572144e+00 -9.836955815553665161e+00 -1.999969511525705457e-01
9.115193337202072144e+00 -9.771281987428665161e+00 -2.026519804494455457e-01
9.190632790327072144e+00 -9.705730229616165161e+00 -2.053070097463205457e-01
9.266194313764572144e+00 -9.640178471803665161e+00 -2.079620390431955457e-01
9.634480446577072144e+00 -1.118595483899116516e+01 -1.903533964650705457e-01
9.726033180952072144e+00 -1.112150171399116516e+01 -1.934356718556955457e-01
9.805500954389572144e+00 -1.104240015149116516e+01 -1.960907011525705457e-01
9.881550759077072144e+00 -1.095890405774116516e+01 -1.985321074025705457e-01
9.957112282514572144e+00 -1.087589624524116516e+01 -2.009429960744455457e-01
1.003279587626457214e+01 -1.079276636242866516e+01 -2.033691435353830457e-01
1.010799118876457214e+01 -1.071000269055366516e+01 -2.057800322072580457e-01
1.017781540751457214e+01 -1.062174585461616516e+01 -2.081909208791330457e-01
1.070967575907707214e+01 -1.248771265149116516e+01 -1.878967314260080457e-01
1.079378220438957214e+01 -1.239261987805366516e+01 -1.906280546681955457e-01
1.087788864970207214e+01 -1.229764917492866516e+01 -1.933593779103830457e-01
1.096199509501457214e+01 -1.220255640149116516e+01 -1.960907011525705457e-01
1.104561325907707214e+01 -1.210807397961616516e+01 -1.988067656056955457e-01
1.112947556376457214e+01 -1.201346948742866516e+01 -2.015228300588205457e-01
1.121272751688957214e+01 -1.191935327649116516e+01 -2.042388945119455457e-01
1.129585739970207214e+01 -1.182548120617866516e+01 -2.069397001760080457e-01
1.211360642313957214e+01 -1.418754175305366516e+01 -1.861267118947580457e-01
1.218526169657707214e+01 -1.404911401867866516e+01 -1.877288847463205457e-01
1.225838181376457214e+01 -1.391373804211616516e+01 -1.898345976369455457e-01
1.235274216532707214e+01 -1.380338647961616516e+01 -1.929626493947580457e-01
1.244649216532707214e+01 -1.369376733899116516e+01 -1.960601835744455457e-01
1.254036423563957214e+01 -1.358390405774116516e+01 -1.991729765431955457e-01
1.263362595438957214e+01 -1.347477319836616516e+01 -2.022705107228830457e-01
