7.722391635179519653e+00 -6.492657274007797241e+00 -5.942451431415918250e-01
1.311106351017951965e+01 -1.291306743025779724e+01 -8.683998062275293250e-01
1.355662015080451965e+01 -1.315012797713279724e+01 -8.860084488056543250e-01
1.382163479924201965e+01 -1.316196879744529724e+01 -8.942481948994043250e-01
1.409153226017951965e+01 -1.317393168807029724e+01 -9.026405288837793250e-01
1.433823636174201965e+01 -1.315305766463279724e+01 -9.097663833759668250e-01
1.457883694767951965e+01 -1.312229594588279724e+01 -9.165260269306543250e-01
7.637430697679519653e+00 -6.554791063070297241e+00 -5.439979507587793250e-01
7.723856478929519653e+00 -6.493389695882797241e+00 -5.452644302509668250e-01
1.389414456486701965e+01 -1.386863383650779724e+01 -8.152534439228418250e-01
1.417441800236701965e+01 -1.388853129744529724e+01 -8.232032730244043250e-01
1.440940335392951965e+01 -1.385020121932029724e+01 -8.290931656025293250e-01
1.465488675236701965e+01 -1.382017192244529724e+01 -8.353950454853418250e-01
1.496445706486701965e+01 -1.385740336775779724e+01 -8.443824722431543250e-01
1.478257229924201965e+01 -1.334580668807029724e+01 -8.328926040790918250e-01
7.638041049242019653e+00 -6.554546922445297241e+00 -4.950324966572168250e-01
7.725199252367019653e+00 -6.494244188070297241e+00 -4.965431167744043250e-01
1.449936917424201965e+01 -1.460667094588279724e+01 -7.446815445087793250e-01
1.467490628361701965e+01 -1.448618754744529724e+01 -7.477333023212793250e-01
1.509861233830451965e+01 -1.465745219588279724e+01 -7.598335220478418250e-01
1.512937405705451965e+01 -1.436436137557029724e+01 -7.575752212665918250e-01
1.525632718205451965e+01 -1.418467387557029724e+01 -7.588417007587793250e-01
1.469162991642951965e+01 -1.324375590682029724e+01 -7.354499771259668250e-01
7.638529330492019653e+00 -6.554302781820297241e+00 -4.463111831806543250e-01
7.726664096117019653e+00 -6.495098680257797241e+00 -4.477912857197168250e-01
1.463608792424201965e+01 -1.477183207869529724e+01 -6.509620620869043250e-01
1.473398831486701965e+01 -1.455503520369529724e+01 -6.516029312275293250e-01
1.500791409611701965e+01 -1.454905375838279724e+01 -6.574317886494043250e-01
1.531870511174201965e+01 -1.458030375838279724e+01 -6.642982437275293250e-01
1.441501858830451965e+01 -1.323472270369529724e+01 -6.364204361103418250e-01
1.459849026799201965e+01 -1.313926371932029724e+01 -6.397163345478418250e-01
7.639139682054519653e+00 -6.554180711507797241e+00 -3.973304702900293250e-01
7.728128939867019653e+00 -6.495831102132797241e+00 -3.987800552509668250e-01
1.488266995549201965e+01 -1.507127055525779724e+01 -5.582496597431543250e-01
1.479331448674201965e+01 -1.462424907088279724e+01 -5.551673843525293250e-01
1.544407132267951965e+01 -1.505906352400779724e+01 -5.685646011494043250e-01
1.525034573674201965e+01 -1.449985942244529724e+01 -5.632087661884668250e-01
1.527231839299201965e+01 -1.419932231307029724e+01 -5.626594497822168250e-01
1.455332425236701965e+01 -1.308762797713279724e+01 -5.458290054462793250e-01
7.639750033617019653e+00 -6.553936570882797241e+00 -3.486091568134668250e-01
7.729471713304519653e+00 -6.496685594320297241e+00 -3.500282241962793250e-01
1.428782132267951965e+01 -1.434263285994529724e+01 -4.492561294697168250e-01
1.485312893986701965e+01 -1.469395121932029724e+01 -4.579078628681543250e-01
1.495786526799201965e+01 -1.448667582869529724e+01 -4.596015884540918250e-01
1.530161526799201965e+01 -1.455698832869529724e+01 -4.649116470478418250e-01
1.525608304142951965e+01 -1.417918071150779724e+01 -4.643165542744043250e-01
1.442148831486701965e+01 -1.294041118025779724e+01 -4.517738296650293250e-01
7.640360385179519653e+00 -6.553692430257797241e+00 -2.996437027119043250e-01
7.730936557054519653e+00 -6.497540086507797241e+00 -3.009864761494043250e-01
1.480161526799201965e+01 -1.496848735213279724e+01 -3.571083023212793250e-01
1.491379788517951965e+01 -1.476475200057029724e+01 -3.593055679462793250e-01
1.503562405705451965e+01 -1.457603129744529724e+01 -3.615486099384668250e-01
1.503562405705451965e+01 -1.424937114119529724e+01 -3.627998306415918250e-01
1.523972561955451965e+01 -1.415903910994529724e+01 -3.657142593525293250e-01
1.441086819767951965e+01 -1.292710551619529724e+01 -3.600532486103418250e-01
7.640848666429519653e+00 -6.553448289632797241e+00 -2.509376480244043250e-01
7.732279330492019653e+00 -6.498272508382797241e+00 -2.522041275165918250e-01
1.432090237736701965e+01 -1.437937602400779724e+01 -2.574531509540918250e-01
1.458237698674201965e+01 -1.436619243025779724e+01 -2.600471450947168250e-01
1.509678128361701965e+01 -1.464597758650779724e+01 -2.629310562275293250e-01
1.524680569767951965e+01 -1.449033793807029724e+01 -2.655097915790918250e-01
1.608603909611701965e+01 -1.511082133650779724e+01 -2.689887954853418250e-01
1.464988186955451965e+01 -1.318943461775779724e+01 -2.693397476337793250e-01
7.641459017992019653e+00 -6.553204149007797241e+00 -2.019569351337793250e-01
7.733744174242019653e+00 -6.499127000570297241e+00 -2.031623794697168250e-01
1.433750393986701965e+01 -1.439768657088279724e+01 -1.614753677509668250e-01
1.490659573674201965e+01 -1.475230082869529724e+01 -1.613990738056543250e-01
1.487900784611701965e+01 -1.438865336775779724e+01 -1.651527359150293250e-01
1.508664944767951965e+01 -1.430442485213279724e+01 -1.674415542744043250e-01
1.446982815861701965e+01 -1.328818950057029724e+01 -1.738960220478418250e-01
1.441648343205451965e+01 -1.293015727400779724e+01 -1.774208023212793250e-01
7.642069369554519653e+00 -6.552960008382797241e+00 -1.532508804462793250e-01
7.735209017992019653e+00 -6.499981492757797241e+00 -1.543495132587793250e-01
1.475120022892951965e+01 -1.490110453963279724e+01 -5.924148103221682504e-02
8.227884799242019653e+00 -6.758160203695297241e+00 -1.524421646259668250e-01
8.489359408617019653e+00 -6.893536180257797241e+00 -1.514503433369043250e-01
8.763895541429519653e+00 -7.035503953695297241e+00 -1.504127456806543250e-01
9.053446322679519653e+00 -7.185406297445297241e+00 -1.493141128681543250e-01
9.357279330492019653e+00 -7.342510789632797241e+00 -1.481697036884668250e-01
7.433329135179519653e+00 -6.286480516195297241e+00 -1.089088394306543250e-01
7.669779330492019653e+00 -6.417461961507797241e+00 -1.069862320087793250e-01
7.906107455492019653e+00 -6.540386766195297241e+00 -1.049415542744043250e-01
8.151834994554519653e+00 -6.666363328695297241e+00 -1.028663589619043250e-01
8.408670932054519653e+00 -6.797955125570297241e+00 -1.006843521259668250e-01
8.678080111742019653e+00 -6.936016649007797241e+00 -9.841079255565432504e-02
8.962137728929519653e+00 -7.081524461507797241e+00 -9.599990388377932504e-02
9.259501010179519653e+00 -7.233624070882797241e+00 -9.319228669627932504e-02
7.388651400804519653e+00 -6.228741258382797241e+00 -6.308669587596682504e-02
7.638041049242019653e+00 -6.376934617757797241e+00 -5.934829255565432504e-02
7.891092807054519653e+00 -6.521099656820297241e+00 -5.568618318065432504e-02
8.150126010179519653e+00 -6.663311570882797241e+00 -5.205459138377932504e-02
8.421732455492019653e+00 -6.812359422445297241e+00 -4.823989411815432504e-02
8.707987338304519653e+00 -6.969463914632797241e+00 -4.422683259471682504e-02
9.011209994554519653e+00 -7.135845750570297241e+00 -3.998488923534182504e-02
9.330545932054519653e+00 -7.311016649007797241e+00 -3.549880525096682504e-02
7.454935580492019653e+00 -6.311993211507797241e+00 -1.358718415721682504e-02
7.708353549242019653e+00 -6.463604539632797241e+00 -8.734889235341825042e-03
7.959696322679519653e+00 -6.603863328695297241e+00 -3.928370680654325042e-03
8.209574252367019653e+00 -6.733502000570297241e+00 6.034896709081749577e-04
8.466288119554519653e+00 -6.863628953695297241e+00 5.181126389658174958e-03
8.735575228929519653e+00 -7.000103563070297241e+00 9.987644944345674958e-03
9.019266635179519653e+00 -7.143902391195297241e+00 1.505356291309567496e-02
9.316141635179519653e+00 -7.294170945882797241e+00 2.065353849903317496e-02
7.438578158617019653e+00 -6.290386766195297241e+00 3.296738127247067496e-02
7.671610385179519653e+00 -6.416973680257797241e+00 3.847580412403317496e-02
7.904886752367019653e+00 -6.536114305257797241e+00 4.377060392872067496e-02
8.147318392992019653e+00 -6.657940477132797241e+00 4.923325041309567496e-02
8.400248080492019653e+00 -6.785137742757797241e+00 5.490951994434567496e-02
8.665384799242019653e+00 -6.918438524007797241e+00 6.087570646778317496e-02
8.950907260179519653e+00 -7.065899461507797241e+00 6.742172697559567496e-02
9.276346713304519653e+00 -7.249249070882797241e+00 7.529526213184567496e-02
7.383280307054519653e+00 -6.219097703695297241e+00 7.749252775684567496e-02
7.637308627367019653e+00 -6.373150438070297241e+00 8.525925138965817496e-02
7.898172885179519653e+00 -6.526959031820297241e+00 9.282761076465817496e-02
8.165751010179519653e+00 -6.679058641195297241e+00 1.006706283427831750e-01
8.447123080492019653e+00 -6.839092820882797241e+00 1.089103744365331750e-01
8.744242221117019653e+00 -7.008160203695297241e+00 1.176231429912206750e-01
9.060404330492019653e+00 -7.188335984945297241e+00 1.272056625224706750e-01
1.525144436955451965e+01 -1.384177836775779724e+01 4.089134261943456750e-01
7.462503939867019653e+00 -6.318951219320297241e+00 1.291740463115331750e-01
7.725443392992019653e+00 -6.482037156820297241e+00 1.384208724834081750e-01
7.984354525804519653e+00 -6.631207078695297241e+00 1.473625228740331750e-01
1.460691311955451965e+01 -1.438084086775779724e+01 5.156028793193456750e-01
1.479258206486701965e+01 -1.427476176619529724e+01 5.144737289287206750e-01
1.601182034611701965e+01 -1.535459575057029724e+01 5.699699447490331750e-01
1.508481839299201965e+01 -1.396885356307029724e+01 5.077598617412206750e-01
1.590513089299201965e+01 -1.456138285994529724e+01 5.409019515849706750e-01
8.106180697679519653e+00 -5.971661180257797241e+00 -7.900154068134668250e-01
8.187601596117019653e+00 -5.905987352132797241e+00 -7.914497329853418250e-01
8.261576205492019653e+00 -5.832012742757797241e+00 -7.925788833759668250e-01
8.335917025804519653e+00 -5.757916063070297241e+00 -7.937080337665918250e-01
8.409891635179519653e+00 -5.684063524007797241e+00 -7.948371841572168250e-01
8.483744174242019653e+00 -5.610333055257797241e+00 -7.959663345478418250e-01
8.557962924242019653e+00 -5.536236375570297241e+00 -7.970954849384668250e-01
8.628275424242019653e+00 -5.458965867757797241e+00 -7.982246353290918250e-01
8.774027377367019653e+00 -6.709210008382797241e+00 -7.883674575947168250e-01
8.837137728929519653e+00 -6.608990281820297241e+00 -7.883674575947168250e-01
8.904032260179519653e+00 -6.513531297445297241e+00 -7.883674575947168250e-01
8.966654330492019653e+00 -6.413921922445297241e+00 -7.883674575947168250e-01
9.028788119554519653e+00 -6.315044969320297241e+00 -7.883674575947168250e-01
9.101297885179519653e+00 -6.227276414632797241e+00 -7.890846206806543250e-01
9.185038119554519653e+00 -6.150372117757797241e+00 -7.908241226337793250e-01
9.283670932054519653e+00 -6.088238328695297241e+00 -7.932655288837793250e-01
9.586893588304519653e+00 -7.606670945882797241e+00 -7.867042495869043250e-01
9.685770541429519653e+00 -7.527447313070297241e+00 -7.886726333759668250e-01
9.784769564867019653e+00 -7.448101609945297241e+00 -7.906410171650293250e-01
9.884256869554519653e+00 -7.368267625570297241e+00 -7.926094009540918250e-01
9.983744174242019653e+00 -7.288555711507797241e+00 -7.945930435322168250e-01
1.007493069767951965e+01 -7.200420945882797241e+00 -7.960578872822168250e-01
1.016477444767951965e+01 -7.110210984945297241e+00 -7.974311782978418250e-01
1.025425198674201965e+01 -7.020245164632797241e+00 -7.988044693134668250e-01
1.047837308049201965e+01 -8.590923875570297241e+00 -7.786323501728418250e-01
1.061667874455451965e+01 -8.535015672445297241e+00 -7.820350601337793250e-01
1.015061429142951965e+01 -7.835552781820297241e+00 -7.522651626728418250e-01
1.088633206486701965e+01 -8.410259813070297241e+00 -7.890083267353418250e-01
1.102231839299201965e+01 -8.347271531820297241e+00 -7.925331070087793250e-01
1.115818265080451965e+01 -8.282818406820297241e+00 -7.960121109150293250e-01
1.126072171330451965e+01 -8.183697313070297241e+00 -7.976600601337793250e-01
1.135422757267951965e+01 -8.076519578695297241e+00 -7.992011978290918250e-01
1.457981351017951965e+01 -1.312229594588279724e+01 -9.165565445087793250e-01
1.482224515080451965e+01 -1.308945903182029724e+01 -9.236976577900293250e-01
1.015122464299201965e+01 -7.835186570882797241e+00 -6.915199234150293250e-01
1.264512112736701965e+01 -1.023972758650779724e+01 -8.090431167744043250e-01
1.273960354924201965e+01 -1.009824809432029724e+01 -8.097602798603418250e-01
1.283359768986701965e+01 -9.957378953695297241e+00 -8.104774429462793250e-01
1.292746976017951965e+01 -9.816631883382797241e+00 -8.111793472431543250e-01
1.302073147892951965e+01 -9.676983445882797241e+00 -8.118812515400293250e-01
1.478476956486701965e+01 -1.334714946150779724e+01 -8.329536392353418250e-01
1.514670804142951965e+01 -1.343931254744529724e+01 -8.439247085712793250e-01
1.015183499455451965e+01 -7.834820359945297241e+00 -6.304695083759668250e-01
1.611875393986701965e+01 -1.385337504744529724e+01 -8.768379165790918250e-01
1.604245999455451965e+01 -1.346629008650779724e+01 -8.697273208759668250e-01
1.636265042424201965e+01 -1.348521098494529724e+01 -8.790656997822168250e-01
1.579026272892951965e+01 -1.262156352400779724e+01 -8.517829849384668250e-01
1.721470120549201965e+01 -1.370554789900779724e+01 -9.066383316181543250e-01
1.469455960392951965e+01 -1.324583110213279724e+01 -7.355415298603418250e-01
1.504844143986701965e+01 -1.333128032088279724e+01 -7.452766372822168250e-01
1.015256741642951965e+01 -7.834576219320297241e+00 -5.697395279072168250e-01
1.553818753361701965e+01 -1.324741801619529724e+01 -7.568427993915918250e-01
1.560691311955451965e+01 -1.302036723494529724e+01 -7.564308120869043250e-01
1.571763089299201965e+01 -1.283860453963279724e+01 -7.574989273212793250e-01
1.684678128361701965e+01 -1.365549907088279724e+01 -7.937080337665918250e-01
1.693906643986701965e+01 -1.343919047713279724e+01 -7.939979507587793250e-01
1.460141995549201965e+01 -1.314133891463279724e+01 -6.397926284931543250e-01
1.504612210392951965e+01 -1.332700785994529724e+01 -6.507331802509668250e-01
1.015317776799201965e+01 -7.834210008382797241e+00 -5.086891128681543250e-01
1.556113675236701965e+01 -1.326975688338279724e+01 -6.612159683369043250e-01
1.605576565861701965e+01 -1.347666606307029724e+01 -6.733772232197168250e-01
1.577427151799201965e+01 -1.289378032088279724e+01 -6.635963394306543250e-01
1.591221097111701965e+01 -1.273801860213279724e+01 -6.661750747822168250e-01
1.709910061955451965e+01 -1.359141215682029724e+01 -6.975929214619043250e-01
1.455393460392951965e+01 -1.308726176619529724e+01 -5.458442642353418250e-01
1.486850979924201965e+01 -1.313316020369529724e+01 -5.519020034931543250e-01
1.015378811955451965e+01 -7.833843797445297241e+00 -4.479743911884668250e-01
1.560373929142951965e+01 -1.331248149275779724e+01 -5.662452652119043250e-01
1.586985257267951965e+01 -1.328550395369529724e+01 -5.711738540790918250e-01
1.583542874455451965e+01 -1.295335063338279724e+01 -5.695716812275293250e-01
1.597422268986701965e+01 -1.279734477400779724e+01 -5.717384292744043250e-01
1.703306058049201965e+01 -1.352634868025779724e+01 -5.937568618915918250e-01
1.442368558049201965e+01 -1.294175395369529724e+01 -4.518043472431543250e-01
1.495762112736701965e+01 -1.322800883650779724e+01 -4.600288345478418250e-01
1.015452054142951965e+01 -7.833477586507797241e+00 -3.872444107197168250e-01
1.558298733830451965e+01 -1.328941020369529724e+01 -4.697639419697168250e-01
1.577048733830451965e+01 -1.318259868025779724e+01 -4.727394058369043250e-01
1.589719632267951965e+01 -1.301353129744529724e+01 -4.747993423603418250e-01
1.603647854924201965e+01 -1.285679301619529724e+01 -4.770423843525293250e-01
1.708103421330451965e+01 -1.357090434432029724e+01 -4.930641128681543250e-01
1.441306546330451965e+01 -1.292844828963279724e+01 -3.600685073994043250e-01
1.472947171330451965e+01 -1.297935160994529724e+01 -3.638069107197168250e-01
1.015513089299201965e+01 -7.833111375570297241e+00 -3.262092544697168250e-01
1.607517483830451965e+01 -1.379966410994529724e+01 -3.774482681415918250e-01
1.577866604924201965e+01 -1.318931254744529724e+01 -3.760444595478418250e-01
1.610764554142951965e+01 -1.322227153182029724e+01 -3.800117447040918250e-01
1.696140530705451965e+01 -1.376145610213279724e+01 -3.885871841572168250e-01
1.709873440861701965e+01 -1.358628520369529724e+01 -3.909522964619043250e-01
1.465049222111701965e+01 -1.318906840682029724e+01 -2.693397476337793250e-01
1.466111233830451965e+01 -1.290379008650779724e+01 -2.714454605244043250e-01
1.015574124455451965e+01 -7.832867234945297241e+00 -2.654945327900293250e-01
1.571177151799201965e+01 -1.342014750838279724e+01 -2.775031997822168250e-01
1.572812893986701965e+01 -1.313621196150779724e+01 -2.796546890400293250e-01
1.711973050236701965e+01 -1.423215922713279724e+01 -2.847816421650293250e-01
1.668589261174201965e+01 -1.348984965682029724e+01 -2.860023452900293250e-01
1.749631741642951965e+01 -1.396641215682029724e+01 -2.901222183369043250e-01
1.441794827580451965e+01 -1.293064555525779724e+01 -1.774360611103418250e-01
1.477317288517951965e+01 -1.302354106307029724e+01 -1.786109878681543250e-01
1.015647366642951965e+01 -7.832501024007797241e+00 -2.047798111103418250e-01
1.537253811955451965e+01 -1.306565532088279724e+01 -1.822730972431543250e-01
1.582358792424201965e+01 -1.323191508650779724e+01 -1.832801773212793250e-01
1.772019436955451965e+01 -1.483042582869529724e+01 -1.782295181415918250e-01
1.638511136174201965e+01 -1.319370707869529724e+01 -1.865302993915918250e-01
1.684250882267951965e+01 -1.333701762557029724e+01 -1.877967788837793250e-01
9.359110385179519653e+00 -7.343975633382797241e+00 -1.481544448994043250e-01
9.679422885179519653e+00 -7.509502977132797241e+00 -1.467964126728418250e-01
1.001792386174201965e+01 -7.684551805257797241e+00 -1.453620865009668250e-01
1.036814358830451965e+01 -7.860699266195297241e+00 -1.439582779072168250e-01
1.071897366642951965e+01 -8.027447313070297241e+00 -1.426765396259668250e-01
1.108945706486701965e+01 -8.203594774007797241e+00 -1.413185073994043250e-01
1.148240140080451965e+01 -8.390484422445297241e+00 -1.398841812275293250e-01
1.189731839299201965e+01 -8.587750047445297241e+00 -1.383583023212793250e-01
9.261332064867019653e+00 -7.234966844320297241e+00 -9.317702790721682504e-02
9.575541049242019653e+00 -7.396099656820297241e+00 -9.062881013377932504e-02
9.923807650804519653e+00 -7.583599656820297241e+00 -8.731765290721682504e-02
1.029978421330451965e+01 -7.788555711507797241e+00 -8.371657868846682504e-02
1.065952542424201965e+01 -7.965801805257797241e+00 -8.058852693065432504e-02
1.104416897892951965e+01 -8.157452195882797241e+00 -7.720107575877932504e-02
1.145383694767951965e+01 -8.361431688070297241e+00 -7.360000154002932504e-02
1.188852933049201965e+01 -8.578228563070297241e+00 -6.940383454784182504e-02
9.332499057054519653e+00 -7.312603563070297241e+00 -3.546828767284182504e-02
9.671244174242019653e+00 -7.498638719320297241e+00 -3.049392243846682504e-02
1.003098538517951965e+01 -7.696392625570297241e+00 -2.519912263377932504e-02
1.039768460392951965e+01 -7.889263719320297241e+00 -1.998061677440432504e-02
1.074546292424201965e+01 -8.052349656820297241e+00 -1.544875642284182504e-02
1.111228421330451965e+01 -8.224346727132797241e+00 -1.065749665721682504e-02
1.150120022892951965e+01 -8.406719774007797241e+00 -5.576319899404325042e-03
1.191135647892951965e+01 -8.599102586507797241e+00 -2.052261494043250423e-04
9.317850619554519653e+00 -7.295513719320297241e+00 2.069931486622067496e-02
9.631083041429519653e+00 -7.454327195882797241e+00 2.625351408497067496e-02
9.961283236742019653e+00 -7.621441453695297241e+00 3.241806486622067496e-02
1.031162503361701965e+01 -7.798809617757797241e+00 3.896408537403317496e-02
1.065012601017951965e+01 -7.954083055257797241e+00 4.489975431934567496e-02
1.101145413517951965e+01 -8.122662156820297241e+00 5.132370451465817496e-02
1.143100979924201965e+01 -8.337017625570297241e+00 5.919723967090817496e-02
1.187754300236701965e+01 -8.565533250570297241e+00 6.797104338184567496e-02
9.278421908617019653e+00 -7.250835984945297241e+00 7.535629728809567496e-02
9.624613314867019653e+00 -7.446270555257797241e+00 8.405380705372067496e-02
9.993265658617019653e+00 -7.654400438070297241e+00 9.331589201465817496e-02
1.037461331486701965e+01 -7.863262742757797241e+00 1.027305648662206750e-01
1.075412991642951965e+01 -8.059185594320297241e+00 1.117637679912206750e-01
1.115732815861701965e+01 -8.267315477132797241e+00 1.213768051005956750e-01
2.666587308049201965e+01 -2.325046977400779724e+01 6.778801009990331750e-01
2.388254788517951965e+01 -2.008555278182029724e+01 5.652549789287206750e-01
1.525144436955451965e+01 -1.384067973494529724e+01 4.088676498271581750e-01
1.461106351017951965e+01 -1.283848246932029724e+01 3.702476547099706750e-01
1.485117581486701965e+01 -1.280381450057029724e+01 3.718803451396581750e-01
1.693723538517951965e+01 -1.468223246932029724e+01 4.559104965068456750e-01
1.739817288517951965e+01 -1.482651957869529724e+01 4.663169906474706750e-01
1.734897854924201965e+01 -1.444932231307029724e+01 4.543235824443456750e-01
2.744394925236701965e+01 -2.400962504744529724e+01 8.759697006084081750e-01
2.388511136174201965e+01 -2.008567485213279724e+01 7.108543441630956750e-01
1.590696194767951965e+01 -1.456235942244529724e+01 5.409629867412206750e-01
1.469712308049201965e+01 -1.293003520369529724e+01 4.660728500224706750e-01
1.665500882267951965e+01 -1.471445903182029724e+01 5.577629134990331750e-01
2.602378323674201965e+01 -2.412241801619529724e+01 1.025490574631845675e+00
1.733371976017951965e+01 -1.475913676619529724e+01 5.703819320537206750e-01
1.815891507267951965e+01 -1.525645121932029724e+01 6.005180404521581750e-01
2.816599515080451965e+01 -2.471372660994529724e+01 1.080361180100595675e+00
2.388755276799201965e+01 -2.008579692244529724e+01 8.564689681865331750e-01
8.628641635179519653e+00 -5.458721727132797241e+00 -7.982246353290918250e-01
8.701639682054519653e+00 -5.384136766195297241e+00 -7.993537857197168250e-01
8.771219760179519653e+00 -5.306255906820297241e+00 -8.004829361103418250e-01
8.840921908617019653e+00 -5.227886766195297241e+00 -8.016120865009668250e-01
8.910379916429519653e+00 -5.149883836507797241e+00 -8.027259781025293250e-01
8.979837924242019653e+00 -5.071880906820297241e+00 -8.038551284931543250e-01
9.049540072679519653e+00 -4.993633836507797241e+00 -8.049842788837793250e-01
9.115213900804519653e+00 -4.912579149007797241e+00 -8.061134292744043250e-01
9.284159213304519653e+00 -6.088116258382797241e+00 -7.932807876728418250e-01
9.378397494554519653e+00 -6.021099656820297241e+00 -7.957527115009668250e-01
9.477518588304519653e+00 -5.957867234945297241e+00 -7.982246353290918250e-01
9.573099642992019653e+00 -5.889996141195297241e+00 -8.007118179462793250e-01
9.668680697679519653e+00 -5.822002977132797241e+00 -8.032142593525293250e-01
9.748270541429519653e+00 -5.739483445882797241e+00 -8.046638443134668250e-01
9.820169955492019653e+00 -5.649761766195297241e+00 -8.058998062275293250e-01
9.896341830492019653e+00 -5.564312547445297241e+00 -8.071357681415918250e-01
1.025449612736701965e+01 -7.019878953695297241e+00 -7.988044693134668250e-01
1.033884671330451965e+01 -6.925152391195297241e+00 -8.001777603290918250e-01
1.042319729924201965e+01 -6.830425828695297241e+00 -8.015357925556543250e-01
1.050779202580451965e+01 -6.735333055257797241e+00 -8.029090835712793250e-01
1.059214261174201965e+01 -6.640484422445297241e+00 -8.042671157978418250e-01
1.067649319767951965e+01 -6.545757859945297241e+00 -8.056404068134668250e-01
1.076108792424201965e+01 -6.450787156820297241e+00 -8.070136978290918250e-01
1.084543851017951965e+01 -6.356060594320297241e+00 -8.083717300556543250e-01
1.135459378361701965e+01 -8.076153367757797241e+00 -7.992011978290918250e-01
1.145566800236701965e+01 -7.976299852132797241e+00 -8.007423355244043250e-01
1.155015042424201965e+01 -7.870098680257797241e+00 -8.022682144306543250e-01
1.164487698674201965e+01 -7.763531297445297241e+00 -8.038093521259668250e-01
1.173935940861701965e+01 -7.657330125570297241e+00 -8.053352310322168250e-01
1.183384183049201965e+01 -7.551251024007797241e+00 -8.068611099384668250e-01
1.192856839299201965e+01 -7.444683641195297241e+00 -8.084022476337793250e-01
1.201597073674201965e+01 -7.332623094320297241e+00 -8.099281265400293250e-01
1.302097561955451965e+01 -9.676373094320297241e+00 -8.118812515400293250e-01
1.266453030705451965e+01 -9.113995164632797241e+00 -7.918617202900293250e-01
1.324631741642951965e+01 -9.435284227132797241e+00 -8.157264663837793250e-01
1.337424710392951965e+01 -9.327618211507797241e+00 -8.183357193134668250e-01
1.346225979924201965e+01 -9.184673875570297241e+00 -8.191139175556543250e-01
1.353293851017951965e+01 -9.027447313070297241e+00 -8.191139175556543250e-01
1.360337308049201965e+01 -8.870586961507797241e+00 -8.190986587665918250e-01
1.366355374455451965e+01 -8.707378953695297241e+00 -8.186714126728418250e-01
1.721579983830451965e+01 -1.370554789900779724e+01 -9.066841079853418250e-01
1.266514065861701965e+01 -9.113506883382797241e+00 -7.184364273212793250e-01
1.476682522892951965e+01 -1.083787211775779724e+01 -8.004829361103418250e-01
1.495810940861701965e+01 -1.075962504744529724e+01 -8.051979019306543250e-01
1.515061429142951965e+01 -1.068101176619529724e+01 -8.099281265400293250e-01
1.529587796330451965e+01 -1.055869731307029724e+01 -8.127662613056543250e-01
1.524155667424201965e+01 -1.026511821150779724e+01 -8.077308609150293250e-01
1.557859280705451965e+01 -1.030503520369529724e+01 -8.185798599384668250e-01
1.693967679142951965e+01 -1.343870219588279724e+01 -7.940132095478418250e-01
1.266587308049201965e+01 -9.113018602132797241e+00 -6.454231216572168250e-01
1.726865628361701965e+01 -1.314609965682029724e+01 -8.000251724384668250e-01
2.003440335392951965e+01 -1.535129985213279724e+01 -8.910438491962793250e-01
1.927500393986701965e+01 -1.433726176619529724e+01 -8.625099136494043250e-01
2.072886136174201965e+01 -1.527976664900779724e+01 -9.084846450947168250e-01
1.524228909611701965e+01 -1.026438578963279724e+01 -7.223884536884668250e-01
2.128501370549201965e+01 -1.506724223494529724e+01 -9.211036636494043250e-01
1.710019925236701965e+01 -1.359141215682029724e+01 -6.976234390400293250e-01
1.266648343205451965e+01 -9.112530320882797241e+00 -5.724098159931543250e-01
2.080869534611701965e+01 -1.641209086775779724e+01 -7.965156509540918250e-01
1.908982327580451965e+01 -1.449497660994529724e+01 -7.470313980244043250e-01
2.175327542424201965e+01 -1.653318461775779724e+01 -8.185188247822168250e-01
2.234433987736701965e+01 -1.668211039900779724e+01 -8.326789810322168250e-01
1.524289944767951965e+01 -1.026377543807029724e+01 -6.370460464619043250e-01
2.339731839299201965e+01 -1.682859477400779724e+01 -8.579780532978418250e-01
1.703415921330451965e+01 -1.352634868025779724e+01 -5.937873794697168250e-01
1.266709378361701965e+01 -9.112042039632797241e+00 -4.990150406025293250e-01
1.737461331486701965e+01 -1.324082621932029724e+01 -5.995857193134668250e-01
1.912204983830451965e+01 -1.452256450057029724e+01 -6.362831070087793250e-01
1.932810452580451965e+01 -1.438108500838279724e+01 -6.398689224384668250e-01
2.291013577580451965e+01 -1.717185649275779724e+01 -7.155067398212793250e-01
1.524363186955451965e+01 -1.026316508650779724e+01 -5.512611343525293250e-01
2.228367093205451965e+01 -1.589732035994529724e+01 -7.002937271259668250e-01
1.708164456486701965e+01 -1.357029399275779724e+01 -4.930641128681543250e-01
1.266782620549201965e+01 -9.111553758382797241e+00 -4.260017349384668250e-01
1.742795804142951965e+01 -1.328855571150779724e+01 -4.986640884540918250e-01
1.915769436955451965e+01 -1.455308207869529724e+01 -5.252143814228418250e-01
1.935471585392951965e+01 -1.440305766463279724e+01 -5.283882095478418250e-01
2.250583890080451965e+01 -1.681870707869529724e+01 -5.766822769306543250e-01
1.524424222111701965e+01 -1.026255473494529724e+01 -4.659339859150293250e-01
2.227793362736701965e+01 -1.589085063338279724e+01 -5.735847427509668250e-01
1.709910061955451965e+01 -1.358555278182029724e+01 -3.909675552509668250e-01
1.266843655705451965e+01 -9.111065477132797241e+00 -3.526222183369043250e-01
1.745054104924201965e+01 -1.330772075057029724e+01 -3.962776138447168250e-01
1.919150784611701965e+01 -1.458201274275779724e+01 -4.130927993915918250e-01
1.938157132267951965e+01 -1.442527446150779724e+01 -4.160072281025293250e-01
2.255271390080451965e+01 -1.685752543807029724e+01 -4.462196304462793250e-01
1.524497464299201965e+01 -1.026194438338279724e+01 -3.801490738056543250e-01
2.263083890080451965e+01 -1.618357524275779724e+01 -4.496223404072168250e-01
1.749704983830451965e+01 -1.396604594588279724e+01 -2.901374771259668250e-01
1.266916897892951965e+01 -9.110577195882797241e+00 -2.796241714619043250e-01
1.871482327580451965e+01 -1.447275981307029724e+01 -2.975685073994043250e-01
1.894004300236701965e+01 -1.435288676619529724e+01 -3.003761245869043250e-01
1.940830472111701965e+01 -1.444736918807029724e+01 -3.039009048603418250e-01
2.291501858830451965e+01 -1.717039164900779724e+01 -3.169013931415918250e-01
1.524558499455451965e+01 -1.026133403182029724e+01 -2.948371841572168250e-01
2.324241116642951965e+01 -1.669199809432029724e+01 -3.230049087665918250e-01
1.684299710392951965e+01 -1.333652934432029724e+01 -1.878120376728418250e-01
1.266977933049201965e+01 -9.110088914632797241e+00 -2.062446548603418250e-01
1.869565823674201965e+01 -1.445347270369529724e+01 -1.876136734150293250e-01
2.243259671330451965e+01 -1.750938090682029724e+01 -1.783210708759668250e-01
2.274021390080451965e+01 -1.739866313338279724e+01 -1.810829116962793250e-01
2.291672757267951965e+01 -1.717002543807029724e+01 -1.842719986103418250e-01
1.524619534611701965e+01 -1.026072368025779724e+01 -2.090675308369043250e-01
2.254258206486701965e+01 -1.610630473494529724e+01 -1.918861343525293250e-01
1.189988186955451965e+01 -8.589581102132797241e+00 -1.383430435322168250e-01
1.234018948674201965e+01 -8.798687547445297241e+00 -1.365577652119043250e-01
1.280881741642951965e+01 -9.021343797445297241e+00 -1.346656753681543250e-01
1.326279690861701965e+01 -9.216778367757797241e+00 -1.330940200947168250e-01
1.374497464299201965e+01 -9.425152391195297241e+00 -1.314002945087793250e-01
1.425718167424201965e+01 -9.646710008382797241e+00 -1.296150161884668250e-01
1.480430081486701965e+01 -9.883282274007797241e+00 -1.276924087665918250e-01
1.538608792424201965e+01 -1.013486918807029724e+01 -1.256629898212793250e-01
1.189121487736701965e+01 -8.580181688070297241e+00 -6.937331696971682504e-02
1.235373929142951965e+01 -8.810406297445297241e+00 -6.545180818065432504e-02
1.280076077580451965e+01 -9.012920945882797241e+00 -6.162185212596682504e-02
1.331870511174201965e+01 -9.266094774007797241e+00 -5.689162751659182504e-02
1.382480862736701965e+01 -9.494854539632797241e+00 -5.255813142284182504e-02
1.436435940861701965e+01 -9.738751024007797241e+00 -4.794997712596682504e-02
1.493833401799201965e+01 -9.996197313070297241e+00 -4.308242341502932504e-02
1.538559964299201965e+01 -1.013328227400779724e+01 -3.983230134471682504e-02
1.191391995549201965e+01 -8.600811570882797241e+00 -1.747085712793250423e-04
1.234849026799201965e+01 -8.804424852132797241e+00 5.776219163095674958e-03
1.280137112736701965e+01 -9.012432664632797241e+00 1.189499357715817496e-02
1.325828030705451965e+01 -9.210430711507797241e+00 1.784592131153317496e-02
1.373325589299201965e+01 -9.412579149007797241e+00 2.396469572559567496e-02
1.423740628361701965e+01 -9.627300828695297241e+00 3.044968107715817496e-02
1.480295804142951965e+01 -9.879742234945297241e+00 3.795700529590817496e-02
1.542624905705451965e+01 -1.016611918807029724e+01 4.636459806934567496e-02
1.188035061955451965e+01 -8.567486375570297241e+00 6.803207853809567496e-02
1.235642483830451965e+01 -8.810772508382797241e+00 7.692795256153317496e-02
1.286179593205451965e+01 -9.066998094320297241e+00 8.672409513965817496e-02
1.334910061955451965e+01 -9.291363328695297241e+00 9.566574553028317496e-02
1.387131741642951965e+01 -9.533794969320297241e+00 1.052940414287206750e-01
2.292331936955451965e+01 -1.716819438338279724e+01 3.476341293193456750e-01
3.113889554142951965e+01 -2.377952250838279724e+01 5.606010482646581750e-01
2.321921780705451965e+01 -1.666355571150779724e+01 3.396843002177831750e-01
2.388315823674201965e+01 -2.008457621932029724e+01 5.652244613505956750e-01
2.814487698674201965e+01 -2.366148051619529724e+01 7.045677230693456750e-01
2.890720608830451965e+01 -2.386106547713279724e+01 7.184532211162206750e-01
2.686997464299201965e+01 -2.150999125838279724e+01 6.357811019755956750e-01
3.050400784611701965e+01 -2.426658305525779724e+01 7.472312972880956750e-01
2.292490628361701965e+01 -1.716770610213279724e+01 4.809501693584081750e-01
3.207493069767951965e+01 -2.457334575057029724e+01 7.732475326396581750e-01
2.322165921330451965e+01 -1.666379985213279724e+01 4.717948959209081750e-01
2.388572171330451965e+01 -2.008469828963279724e+01 7.108390853740331750e-01
2.897287991642951965e+01 -2.443772563338279724e+01 9.100730941630956750e-01
2.977219632267951965e+01 -2.465610942244529724e+01 9.273307845927831750e-01
2.686728909611701965e+01 -2.150523051619529724e+01 7.949455306865331750e-01
3.125046780705451965e+01 -2.492515239119529724e+01 9.571769759990331750e-01
2.292661526799201965e+01 -1.716721782088279724e+01 6.135643051005956750e-01
3.317649319767951965e+01 -2.550791606307029724e+01 1.003624729905283175e+00
2.322410061955451965e+01 -1.666392192244529724e+01 6.046073959209081750e-01
2.388816311955451965e+01 -2.008482035994529724e+01 8.564384506084081750e-01
2.980124905705451965e+01 -2.521409282088279724e+01 1.125069432053720675e+00
3.054807522892951965e+01 -2.536863383650779724e+01 1.143715672288095675e+00
2.686460354924201965e+01 -2.150046977400779724e+01 9.549034164287206750e-01
3.216025784611701965e+01 -2.572825297713279724e+01 1.184761814866220675e+00
2.292820218205451965e+01 -1.716672953963279724e+01 7.468956039287206750e-01
3.414719632267951965e+01 -2.633103618025779724e+01 1.240334324631845675e+00
2.322654202580451965e+01 -1.666416606307029724e+01 7.374351547099706750e-01
9.115458041429519653e+00 -4.912212938070297241e+00 -8.061134292744043250e-01
9.184061557054519653e+00 -4.833477586507797241e+00 -8.072273208759668250e-01
9.248880892992019653e+00 -4.751568406820297241e+00 -8.083564712665918250e-01
9.313944369554519653e+00 -4.669415086507797241e+00 -8.094703628681543250e-01
9.378763705492019653e+00 -4.587505906820297241e+00 -8.105995132587793250e-01
9.443583041429519653e+00 -4.505474656820297241e+00 -8.117134048603418250e-01
9.508646517992019653e+00 -4.423321336507797241e+00 -8.128425552509668250e-01
9.569559603929519653e+00 -4.338360399007797241e+00 -8.139564468525293250e-01
9.896585971117019653e+00 -5.563946336507797241e+00 -8.071357681415918250e-01
9.967752963304519653e+00 -5.474224656820297241e+00 -8.083564712665918250e-01
1.004355862736701965e+01 -5.388165086507797241e+00 -8.095924331806543250e-01
1.011496976017951965e+01 -5.298077195882797241e+00 -8.108283950947168250e-01
1.018613675236701965e+01 -5.208233445882797241e+00 -8.120490982197168250e-01
1.025742581486701965e+01 -5.118389695882797241e+00 -8.132850601337793250e-01
1.032407620549201965e+01 -5.024639695882797241e+00 -8.145057632587793250e-01
1.039524319767951965e+01 -4.934795945882797241e+00 -8.157417251728418250e-01
1.084556058049201965e+01 -6.355572313070297241e+00 -8.083717300556543250e-01
1.092441800236701965e+01 -6.256329149007797241e+00 -8.097297622822168250e-01
1.100339749455451965e+01 -6.156963914632797241e+00 -8.111030532978418250e-01
1.108249905705451965e+01 -6.057354539632797241e+00 -8.124610855244043250e-01
1.116147854924201965e+01 -5.957989305257797241e+00 -8.138191177509668250e-01
1.124045804142951965e+01 -5.858624070882797241e+00 -8.151771499775293250e-01
1.131968167424201965e+01 -5.758892625570297241e+00 -8.165504409931543250e-01
1.139866116642951965e+01 -5.659527391195297241e+00 -8.179084732197168250e-01
1.201633694767951965e+01 -7.332256883382797241e+00 -8.099281265400293250e-01
1.211179593205451965e+01 -7.227032274007797241e+00 -8.114540054462793250e-01
1.220041897892951965e+01 -7.115826219320297241e+00 -8.129798843525293250e-01
1.228916409611701965e+01 -7.004253953695297241e+00 -8.145057632587793250e-01
1.237778714299201965e+01 -6.893047899007797241e+00 -8.160316421650293250e-01
1.246628811955451965e+01 -6.781841844320297241e+00 -8.175575210712793250e-01
1.255381253361701965e+01 -6.669048875570297241e+00 -8.190071060322168250e-01
1.260447171330451965e+01 -6.530377000570297241e+00 -8.190071060322168250e-01
1.366355374455451965e+01 -8.706524461507797241e+00 -8.186561538837793250e-01
1.370286038517951965e+01 -8.527691453695297241e+00 -8.175880386494043250e-01
1.374180081486701965e+01 -8.350567430257797241e+00 -8.165351822040918250e-01
1.381662991642951965e+01 -8.202984422445297241e+00 -8.170844986103418250e-01
1.391745999455451965e+01 -8.076763719320297241e+00 -8.188240005634668250e-01
1.398508694767951965e+01 -7.925518602132797241e+00 -8.190833999775293250e-01
1.404648831486701965e+01 -7.770001024007797241e+00 -8.190833999775293250e-01
1.410740140080451965e+01 -7.615826219320297241e+00 -8.190833999775293250e-01
1.557908108830451965e+01 -1.030454692244529724e+01 -8.185951187275293250e-01
1.567246487736701965e+01 -1.013792094588279724e+01 -8.191902115009668250e-01
1.573813870549201965e+01 -9.949688524007797241e+00 -8.191902115009668250e-01
1.583774808049201965e+01 -9.789043992757797241e+00 -8.205024673603418250e-01
1.595493558049201965e+01 -9.643169969320297241e+00 -8.225166275165918250e-01
1.607212308049201965e+01 -9.497173875570297241e+00 -8.245307876728418250e-01
1.618357327580451965e+01 -9.346050828695297241e+00 -8.263008072040918250e-01
1.624961331486701965e+01 -9.163189500570297241e+00 -8.268196060322168250e-01
2.128574612736701965e+01 -1.506663188338279724e+01 -9.211189224384668250e-01
2.147703030705451965e+01 -1.488450297713279724e+01 -9.248115493915918250e-01
1.856052640080451965e+01 -1.221055278182029724e+01 -8.260261490009668250e-01
1.874717190861701965e+01 -1.207224711775779724e+01 -8.299323990009668250e-01
1.893406155705451965e+01 -1.193345317244529724e+01 -8.338386490009668250e-01
1.912204983830451965e+01 -1.179404887557029724e+01 -8.377754165790918250e-01
1.927317288517951965e+01 -1.162485942244529724e+01 -8.405067398212793250e-01
1.939438870549201965e+01 -1.143455180525779724e+01 -8.422615005634668250e-01
2.339927151799201965e+01 -1.682896098494529724e+01 -8.580238296650293250e-01
2.343381741642951965e+01 -1.648325785994529724e+01 -8.570930435322168250e-01
2.271702054142951965e+01 -1.554014262557029724e+01 -8.351661636494043250e-01
2.309067776799201965e+01 -1.548093852400779724e+01 -8.434974624775293250e-01
2.415244534611701965e+01 -1.594566020369529724e+01 -8.703071548603418250e-01
2.354673245549201965e+01 -1.512608012557029724e+01 -8.522560073994043250e-01
2.416013577580451965e+01 -1.522922953963279724e+01 -8.676368667744043250e-01
2.052622464299201965e+01 -1.225108012557029724e+01 -7.688514663837793250e-01
2.228452542424201965e+01 -1.589683207869529724e+01 -7.003089859150293250e-01
2.343113186955451965e+01 -1.647922953963279724e+01 -7.238838150165918250e-01
2.226719143986701965e+01 -1.517796000838279724e+01 -6.984321548603418250e-01
2.285715726017951965e+01 -1.529587993025779724e+01 -7.101661636494043250e-01
2.440745022892951965e+01 -1.613999614119529724e+01 -7.421485855244043250e-01
2.345127347111701965e+01 -1.505259379744529724e+01 -7.211982681415918250e-01
2.421164944767951965e+01 -1.526560649275779724e+01 -7.364570572040918250e-01
2.052695706486701965e+01 -1.225034770369529724e+01 -6.582557632587793250e-01
2.227878811955451965e+01 -1.589036235213279724e+01 -5.736000015400293250e-01
2.250046780705451965e+01 -1.571641215682029724e+01 -5.772315933369043250e-01
2.335129788517951965e+01 -1.604490336775779724e+01 -5.904914810322168250e-01
2.277158597111701965e+01 -1.522715434432029724e+01 -5.818397476337793250e-01
2.421274808049201965e+01 -1.598850688338279724e+01 -6.041633560322168250e-01
2.424814847111701965e+01 -1.565122660994529724e+01 -6.049415542744043250e-01
2.425986722111701965e+01 -1.529954203963279724e+01 -6.053688003681543250e-01
2.052768948674201965e+01 -1.224949321150779724e+01 -5.482704116962793250e-01
2.262998440861701965e+01 -1.618150004744529724e+01 -4.496223404072168250e-01
2.249460843205451965e+01 -1.570994243025779724e+01 -4.496070816181543250e-01
2.278647854924201965e+01 -1.559067973494529724e+01 -4.535896255634668250e-01
2.305637601017951965e+01 -1.544895610213279724e+01 -4.573738052509668250e-01
2.550510647892951965e+01 -1.698057231307029724e+01 -4.818946792744043250e-01
2.291636136174201965e+01 -1.464646586775779724e+01 -4.584571792744043250e-01
2.410935452580451965e+01 -1.518687114119529724e+01 -4.711219741962793250e-01
2.052842190861701965e+01 -1.224863871932029724e+01 -4.376899673603418250e-01
2.323423245549201965e+01 -1.668394145369529724e+01 -3.229743911884668250e-01
2.456626370549201965e+01 -1.740183696150779724e+01 -3.298866226337793250e-01
2.901413968205451965e+01 -2.057774028182029724e+01 -3.480293228290918250e-01
2.271189358830451965e+01 -1.517686137557029724e+01 -3.279945327900293250e-01
2.280283597111701965e+01 -1.490122660994529724e+01 -3.305122329853418250e-01
2.568491604924201965e+01 -1.672983989119529724e+01 -3.437110855244043250e-01
3.016379788517951965e+01 -1.965061625838279724e+01 -3.637153579853418250e-01
2.052915433049201965e+01 -1.224790629744529724e+01 -3.277198745869043250e-01
2.254270413517951965e+01 -1.610520610213279724e+01 -1.919013931415918250e-01
2.233677151799201965e+01 -1.557749614119529724e+01 -1.957008316181543250e-01
2.268772366642951965e+01 -1.550816020369529724e+01 -1.987373306415918250e-01
2.303367093205451965e+01 -1.542783793807029724e+01 -2.011939956806543250e-01
2.532810452580451965e+01 -1.684080180525779724e+01 -1.996833755634668250e-01
2.959372952580451965e+01 -1.967149028182029724e+01 -1.950294448994043250e-01
2.976963284611701965e+01 -1.935789164900779724e+01 -1.978828384540918250e-01
2.052988675236701965e+01 -1.224705180525779724e+01 -2.171699478290918250e-01
1.538975003361701965e+01 -1.013718852400779724e+01 -1.256324722431543250e-01
1.594761136174201965e+01 -1.035337504744529724e+01 -1.237861587665918250e-01
1.656308987736701965e+01 -1.060129985213279724e+01 -1.216346695087793250e-01
1.722605374455451965e+01 -1.086924418807029724e+01 -1.193153335712793250e-01
1.793406155705451965e+01 -1.115549907088279724e+01 -1.168281509540918250e-01
1.861680081486701965e+01 -1.140452250838279724e+01 -1.147529556415918250e-01
1.934787991642951965e+01 -1.167087993025779724e+01 -1.125251724384668250e-01
2.012705472111701965e+01 -1.195481547713279724e+01 -1.101600601337793250e-01
1.538938382267951965e+01 -1.013560160994529724e+01 -3.978652497752932504e-02
1.607016995549201965e+01 -1.045237407088279724e+01 -3.400344392284182504e-02
1.666843655705451965e+01 -1.068442973494529724e+01 -2.919692536815432504e-02
1.730820706486701965e+01 -1.093247660994529724e+01 -2.406997224315432504e-02
1.798911526799201965e+01 -1.119651469588279724e+01 -1.860732575877932504e-02
1.864280179142951965e+01 -1.142271098494529724e+01 -1.375503083690432504e-02
1.934604886174201965e+01 -1.166819438338279724e+01 -8.521266188466825042e-03
2.009202054142951965e+01 -1.192820414900779724e+01 -2.387232985341825042e-03
1.543027737736701965e+01 -1.016856059432029724e+01 4.644089201465817496e-02
1.601853421330451965e+01 -1.040903910994529724e+01 5.416183928028317496e-02
1.665732815861701965e+01 -1.067429789900779724e+01 6.261520842090817496e-02
1.734433987736701965e+01 -1.095969828963279724e+01 7.172470549122067496e-02
1.806467679142951965e+01 -1.125339946150779724e+01 8.116989592090817496e-02
1.877073147892951965e+01 -1.151780375838279724e+01 9.000473478809567496e-02
3.085129788517951965e+01 -2.014927348494529724e+01 3.135154769755956750e-01
3.111435940861701965e+01 -1.988511332869529724e+01 3.104332015849706750e-01
2.322007229924201965e+01 -1.666306743025779724e+01 3.396690414287206750e-01
2.461802151799201965e+01 -1.743467387557029724e+01 3.680656478740331750e-01
2.359531643986701965e+01 -1.622813090682029724e+01 3.336875961162206750e-01
2.498240140080451965e+01 -1.694956645369529724e+01 3.616569564677831750e-01
3.506675198674201965e+01 -2.431712016463279724e+01 6.083000228740331750e-01
3.010422757267951965e+01 -2.004734477400779724e+01 4.737937972880956750e-01
3.199753811955451965e+01 -2.099216899275779724e+01 5.111625717021581750e-01
3.109787991642951965e+01 -1.987107524275779724e+01 4.806144759990331750e-01
2.322251370549201965e+01 -1.666318950057029724e+01 4.717796371318456750e-01
3.408506253361701965e+01 -2.516782817244529724e+01 8.125999496318456750e-01
2.353306058049201965e+01 -1.617649516463279724e+01 4.645927474834081750e-01
2.497410061955451965e+01 -1.694126567244529724e+01 5.013664291240331750e-01
3.463193753361701965e+01 -2.398045024275779724e+01 7.922599838115331750e-01
3.014292386174201965e+01 -2.007444438338279724e+01 6.423271224834081750e-01
3.037681058049201965e+01 -1.979526957869529724e+01 6.389396713115331750e-01
3.108152249455451965e+01 -1.985715922713279724e+01 6.496818588115331750e-01
2.322495511174201965e+01 -1.666343364119529724e+01 6.046073959209081750e-01
3.504685452580451965e+01 -2.595103129744529724e+01 1.045510105881845675e+00
2.293857815861701965e+01 -1.569883403182029724e+01 5.739830062724706750e-01
2.496714261174201965e+01 -1.693406352400779724e+01 6.402519271709081750e-01
3.473911526799201965e+01 -2.406028422713279724e+01 9.900596664287206750e-01
3.013596585392951965e+01 -2.006699809432029724e+01 8.087242172099706750e-01
3.547263577580451965e+01 -2.354893168807029724e+01 9.901359603740331750e-01
3.106504300236701965e+01 -1.984324321150779724e+01 8.194206283427831750e-01
2.322739651799201965e+01 -1.666367778182029724e+01 7.374351547099706750e-01
3.588645413517951965e+01 -2.663413676619529724e+01 1.283348850999033175e+00
2.285703518986701965e+01 -1.563181743025779724e+01 6.993949935771581750e-01
2.496006253361701965e+01 -1.692661723494529724e+01 7.797630355693456750e-01
3.877695706486701965e+01 -2.715964946150779724e+01 1.357643894944345675e+00
3.012839749455451965e+01 -2.005918559432029724e+01 9.758689926005956750e-01
3.543320706486701965e+01 -2.351755961775779724e+01 1.184166722092783175e+00
3.104856351017951965e+01 -1.982920512557029724e+01 9.889610336162206750e-01
9.569803744554519653e+00 -4.338238328695297241e+00 -8.139564468525293250e-01
9.633768588304519653e+00 -4.255474656820297241e+00 -8.150855972431543250e-01
9.693705111742019653e+00 -4.169903367757797241e+00 -8.161842300556543250e-01
9.754007846117019653e+00 -4.083965867757797241e+00 -8.173133804462793250e-01
9.813944369554519653e+00 -3.998272508382797241e+00 -8.184120132587793250e-01
9.874002963304519653e+00 -3.912579149007797241e+00 -8.195259048603418250e-01
9.934305697679519653e+00 -3.826519578695297241e+00 -8.206397964619043250e-01
9.990091830492019653e+00 -3.738018602132797241e+00 -8.217536880634668250e-01
1.039573147892951965e+01 -4.934551805257797241e+00 -8.157417251728418250e-01
1.046164944767951965e+01 -4.840923875570297241e+00 -8.169624282978418250e-01
1.053245022892951965e+01 -4.750469774007797241e+00 -8.181983902119043250e-01
1.059861233830451965e+01 -4.656353563070297241e+00 -8.194190933369043250e-01
1.066465237736701965e+01 -4.562481492757797241e+00 -8.206397964619043250e-01
1.073069241642951965e+01 -4.468487352132797241e+00 -8.218604995869043250e-01
1.079197171330451965e+01 -4.371075242757797241e+00 -8.230659439228418250e-01
1.085801175236701965e+01 -4.277081102132797241e+00 -8.242866470478418250e-01
1.139902737736701965e+01 -5.659283250570297241e+00 -8.179237320087793250e-01
1.146653226017951965e+01 -5.551617234945297241e+00 -8.189613296650293250e-01
