5.859479144215583801e+00 -9.410300076007843018e+00 -1.511416704161092639e-01
5.303204730153083801e+00 -9.619162380695343018e+00 -8.427765674423426390e-02
5.781964495778083801e+00 -1.038686257600784302e+01 -1.253543169004842639e-01
5.869122698903083801e+00 -1.035622292757034302e+01 -1.285128862364217639e-01
5.958600237965583801e+00 -1.032912331819534302e+01 -1.315951616270467639e-01
6.046246722340583801e+00 -1.029836159944534302e+01 -1.347842485411092639e-01
6.132306292653083801e+00 -1.026393777132034302e+01 -1.380648881895467639e-01
6.220318987965583801e+00 -1.023305398225784302e+01 -1.412539751036092639e-01
6.307721331715583801e+00 -1.020070534944534302e+01 -1.443820268614217639e-01
5.305890277028083801e+00 -9.621603786945343018e+00 -3.776886768173426390e-02
6.239117816090583801e+00 -1.129543191194534302e+01 -1.134982377989217639e-01
6.345441058278083801e+00 -1.128383523225784302e+01 -1.178164751036092639e-01
6.452740862965583801e+00 -1.127199441194534302e+01 -1.221804887754842639e-01
6.557233050465583801e+00 -1.125417214632034302e+01 -1.263003618223592639e-01
6.657086566090583801e+00 -1.122597390413284302e+01 -1.299929887754842639e-01
6.756940081715583801e+00 -1.119765359163284302e+01 -1.336856157286092639e-01
6.857037737965583801e+00 -1.116933327913284302e+01 -1.373935014707967639e-01
5.308575823903083801e+00 -9.624045193195343018e+00 8.526298333890736103e-03
8.640729144215583801e+00 -1.608034402132034302e+01 -2.383151323301717639e-01
8.066754534840583801e+00 -1.464247781038284302e+01 -1.901583940489217639e-01
7.236432269215583801e+00 -1.276845437288284302e+01 -1.240268022520467639e-01
7.301251605153083801e+00 -1.264638406038284302e+01 -1.245761186582967639e-01
7.365460589528083801e+00 -1.252529031038284302e+01 -1.251254350645467639e-01
7.428815081715583801e+00 -1.240590554475784302e+01 -1.256594926817342639e-01
7.481915667653083801e+00 -1.227101784944534302e+01 -1.258425981504842639e-01
5.311261370778083801e+00 -9.626486599445343018e+00 5.509612255264073610e-02
9.418683245778083801e+00 -1.762587624788284302e+01 -2.089419633848592639e-01
9.604596331715583801e+00 -1.764076882600784302e+01 -2.163424760801717639e-01
9.772931292653083801e+00 -1.761733132600784302e+01 -2.225528032286092639e-01
9.929059222340583801e+00 -1.756996804475784302e+01 -2.279696733457967639e-01
1.003403969109058380e+01 -1.742653542757034302e+01 -2.301516801817342639e-01
1.013792152702808380e+01 -1.728481179475784302e+01 -2.323184282286092639e-01
1.024619789421558380e+01 -1.715334206819534302e+01 -2.347750932676717639e-01
5.313824847340583801e+00 -9.628928005695343018e+00 1.014370649354532361e-01
9.972150042653083801e+00 -1.872316628694534302e+01 -1.509280473692342639e-01
1.020408363640308380e+01 -1.880544167757034302e+01 -1.601596147520467639e-01
1.045786781609058380e+01 -1.892189675569534302e+01 -1.704898149473592639e-01
1.069077797234058380e+01 -1.899245339632034302e+01 -1.796450883848592639e-01
1.091892738640308380e+01 -1.904738503694534302e+01 -1.884799272520467639e-01
1.114988441765308380e+01 -1.910292702913284302e+01 -1.974215776426717639e-01
1.137925453484058380e+01 -1.915065652132034302e+01 -2.067752153379842639e-01
5.316510394215583801e+00 -9.631369411945343018e+00 1.480679243104532361e-01
1.051218910515308380e+01 -1.979286843538284302e+01 -8.151581592392176390e-02
1.072947426140308380e+01 -1.982497292757034302e+01 -8.916046924423426390e-02
1.096848793327808380e+01 -1.989235574007034302e+01 -9.772064990829676390e-02
1.126890297234058380e+01 -2.007021218538284302e+01 -1.089511186582967639e-01
1.156504555046558380e+01 -2.022853738069534302e+01 -1.199374467832967639e-01
1.180564613640308380e+01 -2.027846413850784302e+01 -1.284518510801717639e-01
1.204954262077808380e+01 -2.032912331819534302e+01 -1.371035844786092639e-01
5.319195941090583801e+00 -9.633810818195343018e+00 1.944699018495157361e-01
1.094126625359058380e+01 -2.064113503694534302e+01 2.666923333890736103e-03
1.120322914421558380e+01 -2.074294167757034302e+01 -5.328682134859263897e-03
1.146763344109058380e+01 -2.084035378694534302e+01 -1.393463916610926390e-02
1.171787758171558380e+01 -2.090517312288284302e+01 -2.206757373642176390e-02
1.205869789421558380e+01 -2.112905007600784302e+01 -3.328278369735926390e-02
1.239365883171558380e+01 -2.133132058382034302e+01 -4.484894580673426390e-02
1.268516273796558380e+01 -2.144557839632034302e+01 -5.437043018173426390e-02
5.321881487965583801e+00 -9.636252224445343018e+00 2.411617963807657361e-01
1.129002113640308380e+01 -2.132887917757034302e+01 9.806487255264073610e-02
1.160349769890308380e+01 -2.151698952913284302e+01 8.921477489639073610e-02
1.192368812859058380e+01 -2.170546609163284302e+01 8.016631298232823610e-02
1.224705238640308380e+01 -2.188979226350784302e+01 7.101103954482823610e-02
1.256443519890308380e+01 -2.205104714632034302e+01 6.194731884170323610e-02
1.289988441765308380e+01 -2.223622781038284302e+01 5.242583446670323610e-02
1.322263832390308380e+01 -2.238832741975784302e+01 4.317900829482823610e-02
5.324567034840583801e+00 -9.638693630695343018e+00 2.876248090760782361e-01
1.170298500359058380e+01 -2.214394265413284302e+01 1.990933149354532361e-01
1.202818031609058380e+01 -2.233840066194534302e+01 1.913876264588907361e-01
1.235728187859058380e+01 -2.252687722444534302e+01 1.835446088807657361e-01
1.268308754265308380e+01 -2.269960671663284302e+01 1.756710737245157361e-01
1.301817055046558380e+01 -2.287721902132034302e+01 1.675839155213907361e-01
1.336045570671558380e+01 -2.305861550569534302e+01 1.593136518495157361e-01
1.370127601921558380e+01 -2.322658425569534302e+01 1.509823530213907361e-01
5.327252581715583801e+00 -9.641135036945343018e+00 3.343777387635782361e-01
1.211692543327808380e+01 -2.296034890413284302e+01 3.091091840760782361e-01
1.244334144890308380e+01 -2.314040261507034302e+01 3.027004926698282361e-01
1.277903480827808380e+01 -2.332546120882034302e+01 2.961239545838907361e-01
1.312217445671558380e+01 -2.351454812288284302e+01 2.893948286073282361e-01
1.346372719109058380e+01 -2.368788796663284302e+01 2.825283735292032361e-01
1.380906410515308380e+01 -2.385890847444534302e+01 2.755398481385782361e-01
1.416270180046558380e+01 -2.403383523225784302e+01 2.683834760682657361e-01
5.329938128590583801e+00 -9.643576443195343018e+00 3.809017866151407361e-01
1.253220863640308380e+01 -2.377907449007034302e+01 4.269070356385782361e-01
1.287339515984058380e+01 -2.397109109163284302e+01 4.217800825135782361e-01
1.321262855827808380e+01 -2.414601784944534302e+01 4.164242475526407361e-01
1.355894203484058380e+01 -2.432460671663284302e+01 4.109616010682657361e-01
1.390440101921558380e+01 -2.448903542757034302e+01 4.053005903260782361e-01
1.389890785515308380e+01 -2.401320534944534302e+01 3.981442182557657361e-01
1.433030433952808380e+01 -2.432240945100784302e+01 3.926815717713907361e-01
5.332623675465583801e+00 -9.646017849445343018e+00 4.277004926698282361e-01
1.295823402702808380e+01 -2.461855202913284302e+01 5.539669721620157361e-01
1.330296058952808380e+01 -2.480019265413284302e+01 5.494045942323282361e-01
1.365037269890308380e+01 -2.497389870882034302e+01 5.452847211854532361e-01
1.360838051140308380e+01 -2.440968972444534302e+01 5.352596967713907361e-01
1.437388344109058380e+01 -2.534242898225784302e+01 5.368618696229532361e-01
1.407786293327808380e+01 -2.432790261507034302e+01 5.242428510682657361e-01
1.446238441765308380e+01 -2.454823952913284302e+01 5.202450483338907361e-01
5.335309222340583801e+00 -9.648459255695343018e+00 4.742855756776407361e-01
1.338828773796558380e+01 -2.546535378694534302e+01 6.890988080995157361e-01
1.374839515984058380e+01 -2.565981179475784302e+01 6.866879194276407361e-01
1.412266273796558380e+01 -2.586720925569534302e+01 6.842922895448282361e-01
1.354856605827808380e+01 -2.429054909944534302e+01 6.584591596620157361e-01
1.456126137077808380e+01 -2.567824441194534302e+01 6.713833539979532361e-01
1.464414711296558380e+01 -2.533864480257034302e+01 6.618008344667032361e-01
1.541514320671558380e+01 -2.622060281038284302e+01 6.675533979432657361e-01
5.337994769215583801e+00 -9.650900661945343018e+00 5.211453168885782361e-01
5.509625628590583801e+00 -9.804465115070343018e+00 5.221676557557657361e-01
5.682477191090583801e+00 -9.952536404132843018e+00 5.232510297792032361e-01
5.863263323903083801e+00 -1.010732156038284302e+01 5.243954389588907361e-01
6.051007464528083801e+00 -1.026808816194534302e+01 5.255856245057657361e-01
6.247662737965583801e+00 -1.043654519319534302e+01 5.268368452088907361e-01
6.452374652028083801e+00 -1.061183816194534302e+01 5.281185834901407361e-01
6.665997698903083801e+00 -1.079445534944534302e+01 5.297512739198282361e-01
5.291241839528083801e+00 -9.553244411945343018e+00 5.653805463807657361e-01
5.462140277028083801e+00 -9.707175076007843018e+00 5.676541059510782361e-01
5.632184222340583801e+00 -9.851706326007843018e+00 5.696530073182657361e-01
5.810040667653083801e+00 -1.000270730257034302e+01 5.717434614198282361e-01
5.994610980153083801e+00 -1.015956765413284302e+01 5.739254682557657361e-01
6.187726214528083801e+00 -1.032375222444534302e+01 5.761990278260782361e-01
6.388776019215583801e+00 -1.049452859163284302e+01 5.785488813417032361e-01
6.598859027028083801e+00 -1.067299538850784302e+01 5.810208051698282361e-01
5.271100237965583801e+00 -9.509421169757843018e+00 6.104244916932657361e-01
5.447858050465583801e+00 -9.675803005695343018e+00 6.138272016542032361e-01
5.626813128590583801e+00 -9.838278591632843018e+00 6.172909467713907361e-01
5.812237933278083801e+00 -1.000417214632034302e+01 6.208157270448282361e-01
6.005475237965583801e+00 -1.017702370882034302e+01 6.244778364198282361e-01
6.208356097340583801e+00 -1.035854226350784302e+01 6.283230512635782361e-01
6.420270159840583801e+00 -1.054811745882034302e+01 6.323361127870157361e-01
6.642804339528083801e+00 -1.074745827913284302e+01 6.368527143495157361e-01
5.321149066090583801e+00 -9.607931911945343018e+00 6.596798627870157361e-01
5.499860003590583801e+00 -9.776266872882843018e+00 6.644406049745157361e-01
5.679791644215583801e+00 -9.938376247882843018e+00 6.689419477479532361e-01
5.859845355153083801e+00 -1.009169656038284302e+01 6.730923383729532361e-01
6.044781878590583801e+00 -1.024745827913284302e+01 6.772732465760782361e-01
6.238385394215583801e+00 -1.041042214632034302e+01 6.816677778260782361e-01
6.439557269215583801e+00 -1.057973366975784302e+01 6.862148969667032361e-01
6.649762347340583801e+00 -1.075661355257034302e+01 6.909756391542032361e-01
5.303448870778083801e+00 -9.569235622882843018e+00 7.047848432557657361e-01
5.472272112965583801e+00 -9.718283474445343018e+00 7.098507612245157361e-01
5.640607073903083801e+00 -9.859152615070343018e+00 7.145657270448282361e-01
5.816754534840583801e+00 -1.000661355257034302e+01 7.192501752870157361e-01
5.999127581715583801e+00 -1.015920144319534302e+01 7.243466108338907361e-01
6.189679339528083801e+00 -1.031825906038284302e+01 7.299313276307657361e-01
6.388043597340583801e+00 -1.048415261507034302e+01 7.354855268495157361e-01
6.596417620778083801e+00 -1.065968972444534302e+01 7.413754194276407361e-01
5.266949847340583801e+00 -9.492331326007843018e+00 7.477841108338907361e-01
5.448712542653083801e+00 -9.668722927570343018e+00 7.547878950135782361e-01
5.632916644215583801e+00 -9.841208279132843018e+00 7.618527143495157361e-01
5.823956683278083801e+00 -1.001747781038284302e+01 7.690396039979532361e-01
6.023419573903083801e+00 -1.020155984163284302e+01 7.765621870057657361e-01
6.233380511403083801e+00 -1.039528542757034302e+01 7.844662397401407361e-01
6.453229144215583801e+00 -1.059804421663284302e+01 7.927365034120157361e-01
6.684796527028083801e+00 -1.081215554475784302e+01 8.017697065370157361e-01
5.859845355153083801e+00 -9.410300076007843018e+00 -1.511569292051717639e-01
5.929181292653083801e+00 -9.361227810382843018e+00 -1.529574663145467639e-01
5.996197894215583801e+00 -9.308249294757843018e+00 -1.547885210020467639e-01
6.063214495778083801e+00 -9.255270779132843018e+00 -1.566195756895467639e-01
6.129986956715583801e+00 -9.202536404132843018e+00 -1.584353715879842639e-01
6.196759417653083801e+00 -9.149802029132843018e+00 -1.602664262754842639e-01
6.263165667653083801e+00 -9.097311794757843018e+00 -1.620822221739217639e-01
6.327008441090583801e+00 -9.041159451007843018e+00 -1.639132768614217639e-01
6.308087542653083801e+00 -1.020058327913284302e+01 -1.443972856504842639e-01
6.390118792653083801e+00 -1.015834695100784302e+01 -1.472506792051717639e-01
6.468854144215583801e+00 -1.011037331819534302e+01 -1.497988969786092639e-01
6.544293597340583801e+00 -1.005629616975784302e+01 -1.517672807676717639e-01
6.616559222340583801e+00 -9.997824490070343018e+00 -1.537661821348592639e-01
6.686139300465583801e+00 -9.934714138507843018e+00 -1.557956010801717639e-01
6.758038714528083801e+00 -9.876608669757843018e+00 -1.577792436582967639e-01
6.829816058278083801e+00 -9.818503201007843018e+00 -1.597476274473592639e-01
6.857403948903083801e+00 -1.116933327913284302e+01 -1.374087602598592639e-01
6.955792620778083801e+00 -1.113686257600784302e+01 -1.411624223692342639e-01
7.054425433278083801e+00 -1.110426980257034302e+01 -1.449160844786092639e-01
7.153790667653083801e+00 -1.107143288850784302e+01 -1.487002641661092639e-01
7.253277972340583801e+00 -1.103871804475784302e+01 -1.524844438536092639e-01
7.346173480153083801e+00 -1.099404031038284302e+01 -1.557345659239217639e-01
7.418683245778083801e+00 -1.091725808382034302e+01 -1.574282915098592639e-01
7.490826800465583801e+00 -1.084096413850784302e+01 -1.591067583067342639e-01
7.482037737965583801e+00 -1.227040749788284302e+01 -1.258425981504842639e-01
7.570050433278083801e+00 -1.219899636507034302e+01 -1.280703813536092639e-01
7.682965472340583801e+00 -1.217055398225784302e+01 -1.323886186582967639e-01
7.408673480153083801e+00 -1.149379616975784302e+01 -1.097140581114217639e-01
7.910748675465583801e+00 -1.211293679475784302e+01 -1.411013872129842639e-01
8.025860980153083801e+00 -1.208388406038284302e+01 -1.455111772520467639e-01
8.140973284840583801e+00 -1.205483132600784302e+01 -1.499209672911092639e-01
8.252789691090583801e+00 -1.201943093538284302e+01 -1.544070512754842639e-01
1.024668617546558380e+01 -1.715309792757034302e+01 -2.347903520567342639e-01
1.035715980827808380e+01 -1.702773171663284302e+01 -2.376590044004842639e-01
1.046714515984058380e+01 -1.690309792757034302e+01 -2.405123979551717639e-01
7.409894183278083801e+00 -1.149269753694534302e+01 -5.113556690048426390e-02
9.077374652028083801e+00 -1.402052956819534302e+01 -1.491732866270467639e-01
9.150128558278083801e+00 -1.388820534944534302e+01 -1.504397661192342639e-01
9.221783831715583801e+00 -1.375759011507034302e+01 -1.516909868223592639e-01
9.292828753590583801e+00 -1.362819558382034302e+01 -1.529269487364217639e-01
1.138047523796558380e+01 -1.915163308382034302e+01 -2.068209917051717639e-01
1.161521644890308380e+01 -1.920326882600784302e+01 -2.155642778379842639e-01
1.182322426140308380e+01 -1.920412331819534302e+01 -2.233920366270467639e-01
7.411114886403083801e+00 -1.149159890413284302e+01 7.778617669828236103e-03
1.224644203484058380e+01 -1.920607644319534302e+01 -2.393222124082967639e-01
1.246152992546558380e+01 -1.920693093538284302e+01 -2.474246294004842639e-01
1.265757484734058380e+01 -1.917531472444534302e+01 -2.545352251036092639e-01
1.284336586296558380e+01 -1.912563210725784302e+01 -2.616305620176717639e-01
1.205064125359058380e+01 -2.032985574007034302e+01 -1.371493608457967639e-01
1.229746742546558380e+01 -2.037990456819534302e+01 -1.460757524473592639e-01
1.263120765984058380e+01 -2.057216531038284302e+01 -1.586947710020467639e-01
7.412335589528083801e+00 -1.149050027132034302e+01 6.635710888076573610e-02
1.321519203484058380e+01 -2.078664284944534302e+01 -1.802401811582967639e-01
1.347092933952808380e+01 -2.082350808382034302e+01 -1.894259721739217639e-01
1.371568031609058380e+01 -2.083925515413284302e+01 -1.981234819395467639e-01
1.398631019890308380e+01 -2.089076882600784302e+01 -2.078891069395467639e-01
1.268638344109058380e+01 -2.144643288850784302e+01 -5.440094775985926390e-02
1.296287269890308380e+01 -2.152675515413284302e+01 -6.354096240829676390e-02
1.327622719109058380e+01 -2.166249734163284302e+01 -7.330658740829676390e-02
7.413556292653083801e+00 -1.148940163850784302e+01 1.252407758729532361e-01
1.396799965202808380e+01 -2.201296120882034302e+01 -9.624054736923426390e-02
1.430418129265308380e+01 -2.215627175569534302e+01 -1.073642045957967639e-01
1.463584633171558380e+01 -2.228468972444534302e+01 -1.189608842832967639e-01
1.495994301140308380e+01 -2.239284402132034302e+01 -1.296725542051717639e-01
1.322410316765308380e+01 -2.238954812288284302e+01 4.314849071670323610e-02
1.355149574577808380e+01 -2.253969460725784302e+01 3.367278270889073610e-02
1.385154457390308380e+01 -2.263393288850784302e+01 2.483794384170323610e-02
7.414776995778083801e+00 -1.148830300569534302e+01 1.838040082948282361e-01
1.456248207390308380e+01 -2.297939187288284302e+01 4.345390130765736103e-03
1.494077797234058380e+01 -2.317250710725784302e+01 -6.549385259859263897e-03
1.530100746452808380e+01 -2.332729226350784302e+01 -1.700165576767176390e-02
1.546189613640308380e+01 -2.316371804475784302e+01 -2.244904346298426390e-02
1.370274086296558380e+01 -2.322768288850784302e+01 1.509518354432657361e-01
1.404185219109058380e+01 -2.338222390413284302e+01 1.425442426698282361e-01
1.438914223015308380e+01 -2.354042702913284302e+01 1.339382856385782361e-01
7.416119769215583801e+00 -1.148720437288284302e+01 2.423672407167032361e-01
1.509849281609058380e+01 -2.384975320100784302e+01 1.162533491151407361e-01
1.495994301140308380e+01 -2.319679909944534302e+01 1.154141157167032361e-01
1.586741371452808380e+01 -2.421364480257034302e+01 9.730193309951573610e-02
1.543296547234058380e+01 -2.311281472444534302e+01 1.015133588807657361e-01
1.416428871452808380e+01 -2.403505593538284302e+01 2.683529584901407361e-01
1.440098305046558380e+01 -2.399684792757034302e+01 2.618527143495157361e-01
1.458750648796558380e+01 -2.387062722444534302e+01 2.556423872010782361e-01
7.417340472340583801e+00 -1.148610574007034302e+01 3.012356489198282361e-01
1.488194008171558380e+01 -2.348891335725784302e+01 2.438015668885782361e-01
1.568565101921558380e+01 -2.435524636507034302e+01 2.328457563417032361e-01
1.577634926140308380e+01 -2.406349831819534302e+01 2.272457807557657361e-01
1.540415687859058380e+01 -2.306178933382034302e+01 2.255978315370157361e-01
1.433140297234058380e+01 -2.432277566194534302e+01 3.926510541932657361e-01
1.440012855827808380e+01 -2.398854714632034302e+01 3.859982221620157361e-01
1.452183265984058380e+01 -2.375221902132034302e+01 3.795895307557657361e-01
7.418561175465583801e+00 -1.148488503694534302e+01 3.597836225526407361e-01
1.487034340202808380e+01 -2.346340066194534302e+01 3.670925825135782361e-01
1.511277504265308380e+01 -2.342922097444534302e+01 3.609280317323282361e-01
1.504380531609058380e+01 -2.290309792757034302e+01 3.545803754823282361e-01
1.537547035515308380e+01 -2.301125222444534302e+01 3.484768598573282361e-01
1.446323890984058380e+01 -2.454823952913284302e+01 5.202297895448282361e-01
1.469212074577808380e+01 -2.448659402132034302e+01 5.142636030213907361e-01
1.445542640984058380e+01 -2.363283425569534302e+01 5.022854536073282361e-01
7.419781878590583801e+00 -1.148378640413284302e+01 4.183315961854532361e-01
1.487400551140308380e+01 -2.346291238069534302e+01 4.902767866151407361e-01
1.496592445671558380e+01 -2.318727761507034302e+01 4.831051557557657361e-01
1.551780433952808380e+01 -2.364321023225784302e+01 4.809078901307657361e-01
1.534690590202808380e+01 -2.296071511507034302e+01 4.714779584901407361e-01
1.541599769890308380e+01 -2.622048074007034302e+01 6.675228803651407361e-01
1.538718910515308380e+01 -2.568129616975784302e+01 6.556820600526407361e-01
1.587717933952808380e+01 -2.603810769319534302e+01 6.547817914979532361e-01
7.421002581715583801e+00 -1.148268777132034302e+01 4.771847455995157361e-01
1.574815101921558380e+01 -2.488454324007034302e+01 6.306729047792032361e-01
1.514011879265308380e+01 -2.346010476350784302e+01 6.092190473573282361e-01
1.520554848015308380e+01 -2.314504128694534302e+01 6.007656782167032361e-01
1.607481117546558380e+01 -2.407985574007034302e+01 6.061215131776407361e-01
6.667218402028083801e+00 -1.079592019319534302e+01 5.297817914979532361e-01
6.891583636403083801e+00 -1.098830300569534302e+01 5.310330122010782361e-01
7.126446917653083801e+00 -1.118923074007034302e+01 5.326351850526407361e-01
7.373761370778083801e+00 -1.140102273225784302e+01 5.343289106385782361e-01
7.623761370778083801e+00 -1.160780984163284302e+01 5.358547895448282361e-01
7.875836566090583801e+00 -1.180751687288284302e+01 5.371517866151407361e-01
8.139020159840583801e+00 -1.201613503694534302e+01 5.384945600526407361e-01
8.414410784840583801e+00 -1.223403054475784302e+01 5.402493207948282361e-01
6.599957659840583801e+00 -1.067446023225784302e+01 5.810513227479532361e-01
6.819684222340583801e+00 -1.086098366975784302e+01 5.837673872010782361e-01
7.049908831715583801e+00 -1.105641824007034302e+01 5.866207807557657361e-01
7.298810198903083801e+00 -1.127297097444534302e+01 5.898709028260782361e-01
7.566510394215583801e+00 -1.151100808382034302e+01 5.935330122010782361e-01
7.824200823903083801e+00 -1.172157937288284302e+01 5.964626997010782361e-01
8.096295550465583801e+00 -1.194570046663284302e+01 5.996212690370157361e-01
8.382428362965583801e+00 -1.218141824007034302e+01 6.029476850526407361e-01
6.644025042653083801e+00 -1.074904519319534302e+01 6.368832319276407361e-01
6.877423480153083801e+00 -1.095766335725784302e+01 6.411862104432657361e-01
7.123395159840583801e+00 -1.117800027132034302e+01 6.460385053651407361e-01
7.383526995778083801e+00 -1.141091042757034302e+01 6.511654584901407361e-01
7.645123675465583801e+00 -1.163625222444534302e+01 6.560177534120157361e-01
7.905865862965583801e+00 -1.184926491975784302e+01 6.604428022401407361e-01
8.167340472340583801e+00 -1.205422097444534302e+01 6.645779340760782361e-01
8.440777972340583801e+00 -1.226833230257034302e+01 6.692471235292032361e-01
6.650983050465583801e+00 -1.075807839632034302e+01 6.910214155213907361e-01
6.870587542653083801e+00 -1.094277077913284302e+01 6.961941450135782361e-01
7.100568011403083801e+00 -1.113613015413284302e+01 7.015957563417032361e-01
7.342633441090583801e+00 -1.133974343538284302e+01 7.072872846620157361e-01
7.590924456715583801e+00 -1.154469949007034302e+01 7.129788129823282361e-01
7.837628558278083801e+00 -1.173671609163284302e+01 7.181973188417032361e-01
8.094830706715583801e+00 -1.193715554475784302e+01 7.236294477479532361e-01
8.364239886403083801e+00 -1.214687234163284302e+01 7.293209760682657361e-01
6.597638323903083801e+00 -1.066127663850784302e+01 7.414364545838907361e-01
6.835553362965583801e+00 -1.087917214632034302e+01 7.491421430604532361e-01
7.086407855153083801e+00 -1.110903054475784302e+01 7.572903364198282361e-01
7.351788714528083801e+00 -1.135182839632034302e+01 7.655606000917032361e-01
7.622662737965583801e+00 -1.159328347444534302e+01 7.740597455995157361e-01
7.894147112965583801e+00 -1.182411843538284302e+01 7.824215620057657361e-01
8.178693011403083801e+00 -1.206557351350784302e+01 7.908291547792032361e-01
8.478619769215583801e+00 -1.232021218538284302e+01 7.996945112245157361e-01
6.686017230153083801e+00 -1.081374245882034302e+01 8.018307416932657361e-01
6.929547503590583801e+00 -1.103835183382034302e+01 8.109707563417032361e-01
1.580112953484058380e+01 -2.586452370882034302e+01 1.463573905755765736e+00
1.537046547234058380e+01 -2.467397195100784302e+01 1.409969779779203236e+00
1.558457680046558380e+01 -2.457594949007034302e+01 1.404491874505765736e+00
1.570689125359058380e+01 -2.432851296663284302e+01 1.392452689935453236e+00
1.578086586296558380e+01 -2.401125222444534302e+01 1.377361747552640736e+00
1.666965980827808380e+01 -2.495876199007034302e+01 1.418407890130765736e+00
6.327252581715583801e+00 -9.040915310382843018e+00 -1.639132768614217639e-01
6.393780902028083801e+00 -8.989157497882843018e+00 -1.657138139707967639e-01
6.457745745778083801e+00 -8.933737576007843018e+00 -1.675296098692342639e-01
6.521710589528083801e+00 -8.878195583820343018e+00 -1.693606645567342639e-01
6.585431292653083801e+00 -8.823019802570343018e+00 -1.711764604551717639e-01
6.649274066090583801e+00 -8.767721951007843018e+00 -1.729922563536092639e-01
6.712750628590583801e+00 -8.712668240070343018e+00 -1.747927934629842639e-01
6.773419573903083801e+00 -8.654196560382843018e+00 -1.766238481504842639e-01
6.829938128590583801e+00 -9.818259060382843018e+00 -1.597476274473592639e-01
6.899396136403083801e+00 -9.756857693195343018e+00 -1.617465288145467639e-01
6.968610003590583801e+00 -9.695700466632843018e+00 -1.637301713926717639e-01
7.040875628590583801e+00 -9.638815701007843018e+00 -1.657138139707967639e-01
7.109967425465583801e+00 -9.577780544757843018e+00 -1.676974565489217639e-01
7.175885394215583801e+00 -9.512350857257843018e+00 -1.696963579161092639e-01
7.244610980153083801e+00 -9.451559841632843018e+00 -1.716647417051717639e-01
7.313092425465583801e+00 -9.390890896320343018e+00 -1.736331254942342639e-01
7.490948870778083801e+00 -1.084047585725784302e+01 -1.591067583067342639e-01
7.559918597340583801e+00 -1.076015359163284302e+01 -1.607699663145467639e-01
7.628644183278083801e+00 -1.068019753694534302e+01 -1.624331743223592639e-01
7.697247698903083801e+00 -1.060036355257034302e+01 -1.640811235411092639e-01
7.765362933278083801e+00 -1.052113991975784302e+01 -1.657290727598592639e-01
7.833356097340583801e+00 -1.044191628694534302e+01 -1.673617631895467639e-01
7.900860980153083801e+00 -1.036342507600784302e+01 -1.689944536192342639e-01
7.968121722340583801e+00 -1.028517800569534302e+01 -1.706271440489217639e-01
8.253277972340583801e+00 -1.201955300569534302e+01 -1.544375688536092639e-01
8.349713519215583801e+00 -1.195973855257034302e+01 -1.573977739317342639e-01
8.416241839528083801e+00 -1.185512429475784302e+01 -1.587100297911092639e-01
8.482526019215583801e+00 -1.175075417757034302e+01 -1.600070268614217639e-01
8.555646136403083801e+00 -1.165846902132034302e+01 -1.617923051817342639e-01
8.639630511403083801e+00 -1.158205300569534302e+01 -1.642947465879842639e-01
8.723248675465583801e+00 -1.150600320100784302e+01 -1.667971879942342639e-01
8.800275042653083801e+00 -1.142140847444534302e+01 -1.692080766661092639e-01
9.292828753590583801e+00 -1.362721902132034302e+01 -1.529116899473592639e-01
9.361920550465583801e+00 -1.349696999788284302e+01 -1.542544633848592639e-01
9.430524066090583801e+00 -1.336794167757034302e+01 -1.555819780332967639e-01
9.476178362965583801e+00 -1.320656472444534302e+01 -1.555972368223592639e-01
9.578961566090583801e+00 -1.313124734163284302e+01 -1.589541704161092639e-01
9.671857073903083801e+00 -1.304140359163284302e+01 -1.617465288145467639e-01
9.764142230153083801e+00 -1.295217019319534302e+01 -1.645083696348592639e-01
9.856183245778083801e+00 -1.286305886507034302e+01 -1.672702104551717639e-01
1.284422035515308380e+01 -1.912563210725784302e+01 -2.616610795957967639e-01
1.043284340202808380e+01 -1.512270241975784302e+01 -1.367526323301717639e-01
1.048826332390308380e+01 -1.494509011507034302e+01 -1.375155717832967639e-01
9.558331683278083801e+00 -1.332363015413284302e+01 -8.893158740829676390e-02
1.073106117546558380e+01 -1.478908425569534302e+01 -1.456637651426717639e-01
1.088499183952808380e+01 -1.475661355257034302e+01 -1.513552934629842639e-01
1.103904457390308380e+01 -1.472328835725784302e+01 -1.570468217832967639e-01
1.116221351921558380e+01 -1.464626199007034302e+01 -1.616244585020467639e-01
1.398850746452808380e+01 -2.089284402132034302e+01 -2.079654008848592639e-01
1.434800453484058380e+01 -2.107375222444534302e+01 -2.216525346739217639e-01
1.467319984734058380e+01 -2.119289284944534302e+01 -2.338443071348592639e-01
9.559796527028083801e+00 -1.332228738069534302e+01 -1.796295947860926390e-02
1.522019691765308380e+01 -2.125612527132034302e+01 -2.538028032286092639e-01
1.550486488640308380e+01 -2.129518777132034302e+01 -2.642092973692342639e-01
1.573228187859058380e+01 -2.125002175569534302e+01 -2.722201616270467639e-01
1.590794105827808380e+01 -2.113185769319534302e+01 -2.780642778379842639e-01
1.496189613640308380e+01 -2.239443093538284302e+01 -1.297335893614217639e-01
1.529197426140308380e+01 -2.250343972444534302e+01 -1.407962114317342639e-01
1.561594887077808380e+01 -2.259523659944534302e+01 -1.509890825254842639e-01
9.561261370778083801e+00 -1.332106667757034302e+01 5.337187938857823610e-02
1.623264808952808380e+01 -2.270949441194534302e+01 -1.716189653379842639e-01
1.664915199577808380e+01 -2.290956765413284302e+01 -1.855807573301717639e-01
1.699973793327808380e+01 -2.300795632600784302e+01 -1.979861528379842639e-01
1.736472816765308380e+01 -2.311794167757034302e+01 -2.102084428770467639e-01
1.546250648796558380e+01 -2.316335183382034302e+01 -2.246430225204676390e-02
1.604441566765308380e+01 -2.364125710725784302e+01 -3.869965381454676390e-02
1.639695473015308380e+01 -2.375527077913284302e+01 -4.915192432235926390e-02
9.562726214528083801e+00 -1.331972390413284302e+01 1.243252485292032361e-01
1.710703773796558380e+01 -2.396327859163284302e+01 -7.028534717392176390e-02
1.746958656609058380e+01 -2.406484109163284302e+01 -8.108856983017176390e-02
1.741648598015308380e+01 -2.358156472444534302e+01 -8.116486377548426390e-02
1.830393715202808380e+01 -2.439565163850784302e+01 -1.056094438536092639e-01
1.543369789421558380e+01 -2.311244851350784302e+01 1.014981000917032361e-01
1.653904457390308380e+01 -2.438661843538284302e+01 7.966277294326573610e-02
1.654551430046558380e+01 -2.397072488069534302e+01 7.642790966201573610e-02
9.564191058278083801e+00 -1.331838113069534302e+01 1.952633588807657361e-01
1.708250160515308380e+01 -2.392165261507034302e+01 6.094023876357823610e-02
1.745823402702808380e+01 -2.404250222444534302e+01 5.122039013076573610e-02
1.764048500359058380e+01 -2.388686257600784302e+01 4.494902782607823610e-02
1.754050941765308380e+01 -2.334633523225784302e+01 4.380461864639073610e-02
1.540476723015308380e+01 -2.306142312288284302e+01 2.255825727479532361e-01
1.564841957390308380e+01 -2.302699929475784302e+01 2.189602582948282361e-01
1.670506019890308380e+01 -2.420241433382034302e+01 2.049984663026407361e-01
9.565655902028083801e+00 -1.331716042757034302e+01 2.665829389588907361e-01
1.702866859734058380e+01 -2.383779031038284302e+01 1.926693647401407361e-01
1.744566078484058380e+01 -2.401845437288284302e+01 1.840176313417032361e-01
1.761472816765308380e+01 -2.384487038850784302e+01 1.777615278260782361e-01
1.983848305046558380e+01 -2.647926980257034302e+01 1.501583784120157361e-01
1.537620277702808380e+01 -2.301100808382034302e+01 3.484616010682657361e-01
1.760313148796558380e+01 -2.598976784944534302e+01 3.416561811463907361e-01
1.666172523796558380e+01 -2.413136941194534302e+01 3.355984418885782361e-01
9.567120745778083801e+00 -1.331581765413284302e+01 3.375210493104532361e-01
1.791465492546558380e+01 -2.510707741975784302e+01 3.213467329042032361e-01
1.797800941765308380e+01 -2.476515847444534302e+01 3.148007123963907361e-01
1.757835121452808380e+01 -2.378810769319534302e+01 3.094296186463907361e-01
1.791465492546558380e+01 -2.384535866975784302e+01 3.025479047792032361e-01
1.534763832390308380e+01 -2.296047097444534302e+01 4.714474409120157361e-01
1.644602699577808380e+01 -2.422585183382034302e+01 4.727291791932657361e-01
1.680906410515308380e+01 -2.434462624788284302e+01 4.668545454042032361e-01
9.568585589528083801e+00 -1.331447488069534302e+01 4.084439008729532361e-01
1.713047523796558380e+01 -2.397194558382034302e+01 4.533505170838907361e-01
1.741880531609058380e+01 -2.396816140413284302e+01 4.473995893495157361e-01
1.754661293327808380e+01 -2.373793679475784302e+01 4.412045209901407361e-01
1.795237465202808380e+01 -2.389064675569534302e+01 4.357876508729532361e-01
1.612644691765308380e+01 -2.415822488069534302e+01 6.069607465760782361e-01
1.610715980827808380e+01 -2.370485574007034302e+01 5.971035688417032361e-01
1.675486488640308380e+01 -2.425722390413284302e+01 5.980190961854532361e-01
9.570050433278083801e+00 -1.331325417757034302e+01 4.797329633729532361e-01
1.803660316765308380e+01 -2.526930886507034302e+01 5.979885786073282361e-01
2.101609535515308380e+01 -2.904653054475784302e+01 6.299252241151407361e-01
2.148093910515308380e+01 -2.919631081819534302e+01 6.250271528260782361e-01
1.767747230827808380e+01 -2.350929909944534302e+01 5.648159711854532361e-01
8.415997698903083801e+00 -1.223573952913284302e+01 5.402645795838907361e-01
8.706036761403083801e+00 -1.246596413850784302e+01 5.415768354432657361e-01
9.010724261403083801e+00 -1.270729714632034302e+01 5.432858198182657361e-01
9.332745745778083801e+00 -1.296242409944534302e+01 5.451016157167032361e-01
9.671368792653083801e+00 -1.323061257600784302e+01 5.469937055604532361e-01
9.998151019215583801e+00 -1.346950417757034302e+01 5.483059614198282361e-01
1.033836098015308380e+01 -1.371694070100784302e+01 5.496487348573282361e-01
1.069541664421558380e+01 -1.397609597444534302e+01 5.514492719667032361e-01
8.384137347340583801e+00 -1.218337136507034302e+01 6.029934614198282361e-01
8.686017230153083801e+00 -1.243215066194534302e+01 6.066708295838907361e-01
9.004620745778083801e+00 -1.269484597444534302e+01 6.105618207948282361e-01
9.342755511403083801e+00 -1.297365456819534302e+01 6.146969526307657361e-01
9.699689105153083801e+00 -1.326784402132034302e+01 6.190609663026407361e-01
1.003892250359058380e+01 -1.352358132600784302e+01 6.224789350526407361e-01
1.039671058952808380e+01 -1.379433327913284302e+01 6.261257856385782361e-01
1.077415199577808380e+01 -1.407997781038284302e+01 6.299710004823282361e-01
8.442364886403083801e+00 -1.227004128694534302e+01 6.692928998963907361e-01
8.730084612965583801e+00 -1.249574929475784302e+01 6.737179487245157361e-01
9.031964495778083801e+00 -1.273232156038284302e+01 6.787075727479532361e-01
9.350934222340583801e+00 -1.298207741975784302e+01 6.839871137635782361e-01
9.685895159840583801e+00 -1.324452859163284302e+01 6.895260541932657361e-01
1.000803871452808380e+01 -1.347646218538284302e+01 6.941647260682657361e-01
1.034458656609058380e+01 -1.371852761507034302e+01 6.990017622010782361e-01
1.069749183952808380e+01 -1.397194558382034302e+01 7.044644086854532361e-01
8.365826800465583801e+00 -1.214858132600784302e+01 7.293667524354532361e-01
8.668439105153083801e+00 -1.239894753694534302e+01 7.365689008729532361e-01
8.995465472340583801e+00 -1.267458230257034302e+01 7.445339887635782361e-01
9.343243792653083801e+00 -1.296755105257034302e+01 7.530026166932657361e-01
9.711285784840583801e+00 -1.327773171663284302e+01 7.619595258729532361e-01
1.005869789421558380e+01 -1.354457741975784302e+01 7.694515913026407361e-01
1.042722816765308380e+01 -1.382973366975784302e+01 7.774624555604532361e-01
1.081687660515308380e+01 -1.413112527132034302e+01 7.859463422792032361e-01
8.480450823903083801e+00 -1.232228738069534302e+01 7.997708051698282361e-01
1.622556801140308380e+01 -2.385231667757034302e+01 1.240627738763578236e+00
1.632896156609058380e+01 -2.359071999788284302e+01 1.229305717279203236e+00
1.628501625359058380e+01 -2.311684304475784302e+01 1.209225150872953236e+00
1.663352699577808380e+01 -2.322023659944534302e+01 1.211849662591703236e+00
1.696018715202808380e+01 -2.328334695100784302e+01 1.213589164544828236e+00
2.348875160515308380e+01 -3.194350320100784302e+01 1.541347953607328236e+00
2.274595375359058380e+01 -3.038832741975784302e+01 1.480465385247953236e+00
1.667283363640308380e+01 -2.496205788850784302e+01 1.418560478021390736e+00
1.622666664421558380e+01 -2.384767800569534302e+01 1.368435355951078236e+00
1.636167640984058380e+01 -2.363332253694534302e+01 1.358456107904203236e+00
1.647459144890308380e+01 -2.338796120882034302e+01 1.347134086419828236e+00
1.674180336296558380e+01 -2.336965066194534302e+01 1.345745536615140736e+00
2.420982094109058380e+01 -3.350820046663284302e+01 1.787960502435453236e+00
2.298106117546558380e+01 -3.123134499788284302e+01 1.687694999505765736e+00
2.275108070671558380e+01 -3.038735085725784302e+01 1.650951835443265736e+00
6.773785784840583801e+00 -8.654074490070343018e+00 -1.766238481504842639e-01
6.837384417653083801e+00 -8.599753201007843018e+00 -1.784243852598592639e-01
6.901715472340583801e+00 -8.546530544757843018e+00 -1.805453569395467639e-01
6.972516253590583801e+00 -8.501242458820343018e+00 -1.832003862364217639e-01
7.043194964528083801e+00 -8.456076443195343018e+00 -1.858554155332967639e-01
7.114117816090583801e+00 -8.410666286945343018e+00 -1.885104448301717639e-01
7.184918597340583801e+00 -8.365256130695343018e+00 -1.911807329161092639e-01
7.253155902028083801e+00 -8.316428005695343018e+00 -1.938510210020467639e-01
7.313458636403083801e+00 -9.390890896320343018e+00 -1.736636430723592639e-01
7.379498675465583801e+00 -9.327170193195343018e+00 -1.756320268614217639e-01
7.445416644215583801e+00 -9.263449490070343018e+00 -1.776156694395467639e-01
7.514630511403083801e+00 -9.203879177570343018e+00 -1.795840532286092639e-01
7.585919573903083801e+00 -9.147482693195343018e+00 -1.819949419004842639e-01
7.655377581715583801e+00 -9.088522732257843018e+00 -1.845126420957967639e-01
7.727765277028083801e+00 -9.033591091632843018e+00 -1.870150835020467639e-01
7.800152972340583801e+00 -8.978659451007843018e+00 -1.895022661192342639e-01
7.968610003590583801e+00 -1.028517800569534302e+01 -1.706424028379842639e-01
8.033063128590583801e+00 -1.020387917757034302e+01 -1.722750932676717639e-01
8.104840472340583801e+00 -1.013307839632034302e+01 -1.744571001036092639e-01
8.176739886403083801e+00 -1.006215554475784302e+01 -1.766391069395467639e-01
8.248273089528083801e+00 -9.991476833820343018e+00 -1.788058549864217639e-01
8.328595355153083801e+00 -9.931662380695343018e+00 -1.815829545957967639e-01
8.414166644215583801e+00 -9.878928005695343018e+00 -1.847567827207967639e-01
8.499982073903083801e+00 -9.826071560382843018e+00 -1.879306108457967639e-01
8.800641253590583801e+00 -1.142128640413284302e+01 -1.692233354551717639e-01
8.886456683278083801e+00 -1.134914284944534302e+01 -1.717257768614217639e-01
8.965680316090583801e+00 -1.126845437288284302e+01 -1.741519243223592639e-01
9.047711566090583801e+00 -1.119118386507034302e+01 -1.767611772520467639e-01
9.136822894215583801e+00 -1.112380105257034302e+01 -1.798281938536092639e-01
9.226300433278083801e+00 -1.105629616975784302e+01 -1.828952104551717639e-01
9.315533831715583801e+00 -1.098891335725784302e+01 -1.859622270567342639e-01
9.399029925465583801e+00 -1.091481667757034302e+01 -1.890139848692342639e-01
9.856305316090583801e+00 -1.286257058382034302e+01 -1.672702104551717639e-01
9.945172503590583801e+00 -1.276979714632034302e+01 -1.700473100645467639e-01
1.003379555046558380e+01 -1.267714577913284302e+01 -1.728091508848592639e-01
1.012254066765308380e+01 -1.258437234163284302e+01 -1.755862504942342639e-01
1.021079750359058380e+01 -1.249220925569534302e+01 -1.783328325254842639e-01
1.029905433952808380e+01 -1.240004616975784302e+01 -1.810946733457967639e-01
1.038682289421558380e+01 -1.230824929475784302e+01 -1.838259965879842639e-01
1.047434730827808380e+01 -1.221681863069534302e+01 -1.865573198301717639e-01
1.116270180046558380e+01 -1.464601784944534302e+01 -1.616397172911092639e-01
1.129807777702808380e+01 -1.458498269319534302e+01 -1.661410600645467639e-01
1.142625160515308380e+01 -1.451357156038284302e+01 -1.707186967832967639e-01
1.154856605827808380e+01 -1.443300515413284302e+01 -1.749911577207967639e-01
1.164939613640308380e+01 -1.432558327913284302e+01 -1.782107622129842639e-01
1.175217933952808380e+01 -1.422035866975784302e+01 -1.815371782286092639e-01
1.181992836296558380e+01 -1.407314187288284302e+01 -1.831698686582967639e-01
1.187852211296558380e+01 -1.391689187288284302e+01 -1.848025590879842639e-01
1.590879555046558380e+01 -2.113185769319534302e+01 -2.780947954161092639e-01
1.320066566765308380e+01 -1.713808327913284302e+01 -1.646304399473592639e-01
1.294358558952808380e+01 -1.651393777132034302e+01 -1.530032426817342639e-01
1.312827797234058380e+01 -1.648012429475784302e+01 -1.596865922911092639e-01
1.331394691765308380e+01 -1.644606667757034302e+01 -1.663852006895467639e-01
1.350181312859058380e+01 -1.641164284944534302e+01 -1.731753618223592639e-01
1.365122719109058380e+01 -1.632826882600784302e+01 -1.783786088926717639e-01
1.379490394890308380e+01 -1.623744851350784302e+01 -1.833529741270467639e-01
1.736655922234058380e+01 -2.311904031038284302e+01 -2.102694780332967639e-01
1.764585609734058380e+01 -2.310549050569534302e+01 -2.197604448301717639e-01
1.797849769890308380e+01 -2.315798074007034302e+01 -2.303500444395467639e-01
1.830503578484058380e+01 -2.319447976350784302e+01 -2.414279252989217639e-01
1.862058754265308380e+01 -2.321217995882034302e+01 -2.521395952207967639e-01
1.890708656609058380e+01 -2.318654519319534302e+01 -2.618594438536092639e-01
1.918150062859058380e+01 -2.314321023225784302e+01 -2.718997270567342639e-01
1.952525062859058380e+01 -2.318044167757034302e+01 -2.835574419004842639e-01
1.830564613640308380e+01 -2.439650613069534302e+01 -1.056552202207967639e-01
1.811350746452808380e+01 -2.372780495882034302e+01 -1.022067338926717639e-01
1.912254066765308380e+01 -2.466237527132034302e+01 -1.300845415098592639e-01
1.950315590202808380e+01 -2.474330788850784302e+01 -1.416201860411092639e-01
1.984287758171558380e+01 -2.476552468538284302e+01 -1.521029741270467639e-01
2.032420082390308380e+01 -2.495766335725784302e+01 -1.663546831114217639e-01
2.085545082390308380e+01 -2.520094949007034302e+01 -1.819644243223592639e-01
2.128440590202808380e+01 -2.530690652132034302e+01 -1.949191362364217639e-01
1.754002113640308380e+01 -2.334426003694534302e+01 4.380461864639073610e-02
1.807590980827808380e+01 -2.367128640413284302e+01 3.104827099014073610e-02
1.181931801140308380e+01 -1.501784402132034302e+01 1.440853803651407361e-01
2.045994301140308380e+01 -2.597829324007034302e+01 -1.935150928329676390e-02
2.094431801140308380e+01 -2.616384011507034302e+01 -3.168061084579676390e-02
2.145225258171558380e+01 -2.636550027132034302e+01 -4.457428760360926390e-02
2.191636390984058380e+01 -2.650234109163284302e+01 -5.668976611923426390e-02
2.239548988640308380e+01 -2.664711648225784302e+01 -6.918671436142176390e-02
1.984080238640308380e+01 -2.648085671663284302e+01 1.501278608338907361e-01
1.794675941765308380e+01 -2.349196511507034302e+01 1.653713911073282361e-01
1.182102699577808380e+01 -1.501625710725784302e+01 2.278256147401407361e-01
1.799497719109058380e+01 -2.277504616975784302e+01 1.562161176698282361e-01
2.181736488640308380e+01 -2.727016335725784302e+01 1.084866254823282361e-01
2.229514808952808380e+01 -2.741530495882034302e+01 9.791228466201573610e-02
2.280271644890308380e+01 -2.758791238069534302e+01 8.689543895889073610e-02
2.333115883171558380e+01 -2.777394753694534302e+01 7.548186474014073610e-02
1.791453285515308380e+01 -2.384364968538284302e+01 3.025326459901407361e-01
1.793906898796558380e+01 -2.347560769319534302e+01 2.965664594667032361e-01
1.182261390984058380e+01 -1.501479226350784302e+01 3.111080854432657361e-01
2.206590004265308380e+01 -2.804738503694534302e+01 2.700924604432657361e-01
2.258921547234058380e+01 -2.824709206819534302e+01 2.611660688417032361e-01
2.309483070671558380e+01 -2.841042214632034302e+01 2.521023481385782361e-01
2.360923500359058380e+01 -2.857448464632034302e+01 2.428555219667032361e-01
2.411655922234058380e+01 -2.871852761507034302e+01 2.334713666932657361e-01
1.795225258171558380e+01 -2.388905984163284302e+01 4.357571332948282361e-01
1.779490394890308380e+01 -2.327626687288284302e+01 4.276699750917032361e-01
1.182432289421558380e+01 -1.501332741975784302e+01 3.943905561463907361e-01
1.837949867546558380e+01 -2.326210671663284302e+01 4.151119916932657361e-01
1.828489418327808380e+01 -2.275575906038284302e+01 4.077267377870157361e-01
2.383579750359058380e+01 -2.933144265413284302e+01 4.177975385682657361e-01
2.432615394890308380e+01 -2.945033913850784302e+01 4.111447065370157361e-01
2.485300941765308380e+01 -2.960304909944534302e+01 4.035000532167032361e-01
1.767759437859058380e+01 -2.350820046663284302e+01 5.647854536073282361e-01
1.794614906609058380e+01 -2.347328835725784302e+01 5.594448774354532361e-01
1.182603187859058380e+01 -1.501186257600784302e+01 4.781155317323282361e-01
1.822227211296558380e+01 -2.305251199007034302e+01 5.455288618104532361e-01
1.829502601921558380e+01 -2.276296120882034302e+01 5.379452436463907361e-01
2.455845375359058380e+01 -3.022914773225784302e+01 5.950436323182657361e-01
1.333482094109058380e+01 -1.591115456819534302e+01 4.721493452088907361e-01
1.381370277702808380e+01 -1.623280984163284302e+01 4.710507123963907361e-01
1.069749183952808380e+01 -1.397817116975784302e+01 5.514645307557657361e-01
1.107481117546558380e+01 -1.425282937288284302e+01 5.527157514588907361e-01
1.147202797234058380e+01 -1.454152566194534302e+01 5.544552534120157361e-01
1.189341469109058380e+01 -1.484767800569534302e+01 5.562863080995157361e-01
1.231101723015308380e+01 -1.513661843538284302e+01 5.577358930604532361e-01
1.275083656609058380e+01 -1.543947488069534302e+01 5.592312543885782361e-01
1.321384926140308380e+01 -1.575844460725784302e+01 5.607876508729532361e-01
1.370457191765308380e+01 -1.609682351350784302e+01 5.629696577088907361e-01
1.077647133171558380e+01 -1.408229714632034302e+01 6.300015180604532361e-01
1.117600746452808380e+01 -1.438490945100784302e+01 6.342892377870157361e-01
1.158591957390308380e+01 -1.468788796663284302e+01 6.384701459901407361e-01
1.197044105827808380e+01 -1.494374734163284302e+01 6.415676801698282361e-01
1.240415687859058380e+01 -1.525148659944534302e+01 6.456112592713907361e-01
1.282835121452808380e+01 -1.553273659944534302e+01 6.489987104432657361e-01
1.327329750359058380e+01 -1.582778054475784302e+01 6.525540082948282361e-01
1.374241371452808380e+01 -1.613881570100784302e+01 6.562924116151407361e-01
1.069968910515308380e+01 -1.397402077913284302e+01 7.045101850526407361e-01
1.107200355827808380e+01 -1.424196511507034302e+01 7.097134321229532361e-01
1.148301430046558380e+01 -1.454872781038284302e+01 7.162594526307657361e-01
1.193772621452808380e+01 -1.489784890413284302e+01 7.238125532167032361e-01
1.236790199577808380e+01 -1.520155984163284302e+01 7.300991743104532361e-01
1.282200355827808380e+01 -1.552101784944534302e+01 7.366909711854532361e-01
1.330100746452808380e+01 -1.585793191194534302e+01 7.436337202088907361e-01
1.380991859734058380e+01 -1.621657449007034302e+01 7.515377729432657361e-01
1.081919594109058380e+01 -1.413356667757034302e+01 7.860226362245157361e-01
2.511399574577808380e+01 -3.305397683382034302e+01 1.393459770013578236e+00
2.539793129265308380e+01 -3.287135964632034302e+01 1.385189506341703236e+00
2.647361488640308380e+01 -3.371083718538284302e+01 1.409603568841703236e+00
2.704246254265308380e+01 -3.387184792757034302e+01 1.412212821771390736e+00
2.440281410515308380e+01 -3.000453835725784302e+01 1.286434623529203236e+00
2.458652992546558380e+01 -2.973439675569534302e+01 1.275555106927640736e+00
2.561863441765308380e+01 -3.049281960725784302e+01 1.297268363763578236e+00
2.274839515984058380e+01 -3.038979226350784302e+01 1.480511161615140736e+00
2.289536781609058380e+01 -3.007338601350784302e+01 1.467403861810453236e+00
2.656174965202808380e+01 -3.439540749788284302e+01 1.629955741693265736e+00
2.362717933952808380e+01 -3.001869851350784302e+01 1.462185355951078236e+00
2.382603187859058380e+01 -2.977150613069534302e+01 1.451702567865140736e+00
2.520249672234058380e+01 -3.099721413850784302e+01 1.497738334466703236e+00
2.515696449577808380e+01 -3.042848855257034302e+01 1.475094291497953236e+00
2.508628578484058380e+01 -2.984181863069534302e+01 1.451794120599515736e+00
2.275340004265308380e+01 -3.038881570100784302e+01 1.651012870599515736e+00
2.291868324577808380e+01 -3.009694558382034302e+01 1.637340995599515736e+00
2.522739906609058380e+01 -3.263014870882034302e+01 1.747814628412015736e+00
