7.977785319089889526e+00 -5.489260673522949219e+00 -7.924346049781831880e-01
8.051759928464889526e+00 -5.415408134460449219e+00 -7.935637553688081880e-01
8.125612467527389526e+00 -5.341677665710449219e+00 -7.946929057594331880e-01
8.199831217527389526e+00 -5.267580986022949219e+00 -7.958220561500581880e-01
8.270143717527389526e+00 -5.190310478210449219e+00 -7.969512065406831880e-01
8.415895670652389526e+00 -6.440554618835449219e+00 -7.870940288063081880e-01
8.479006022214889526e+00 -6.340334892272949219e+00 -7.870940288063081880e-01
8.545900553464889526e+00 -6.244875907897949219e+00 -7.870940288063081880e-01
8.608522623777389526e+00 -6.145266532897949219e+00 -7.870940288063081880e-01
8.670656412839889526e+00 -6.046389579772949219e+00 -7.870940288063081880e-01
8.743166178464889526e+00 -5.958621025085449219e+00 -7.878111918922456880e-01
8.826906412839889526e+00 -5.881716728210449219e+00 -7.895506938453706880e-01
8.925539225339889526e+00 -5.819582939147949219e+00 -7.919921000953706880e-01
9.228761881589889526e+00 -7.338015556335449219e+00 -7.854308207984956880e-01
9.327638834714889526e+00 -7.258791923522949219e+00 -7.873992045875581880e-01
9.426637858152389526e+00 -7.179446220397949219e+00 -7.893675883766206880e-01
9.526125162839889526e+00 -7.099612236022949219e+00 -7.913359721656831880e-01
9.625612467527389526e+00 -7.019900321960449219e+00 -7.933196147438081880e-01
9.716798990964889526e+00 -6.931765556335449219e+00 -7.947844584938081880e-01
9.806642740964889526e+00 -6.841555595397949219e+00 -7.961577495094331880e-01
9.896120280027389526e+00 -6.751589775085449219e+00 -7.975310405250581880e-01
1.012024137377738953e+01 -8.322268486022949219e+00 -7.773589213844331880e-01
1.025854703783988953e+01 -8.266360282897949219e+00 -7.807616313453706880e-01
9.792482584714889526e+00 -7.566897392272949219e+00 -7.509917338844331880e-01
1.052820035815238953e+01 -8.141604423522949219e+00 -7.877348979469331880e-01
1.066418668627738953e+01 -8.078616142272949219e+00 -7.912596782203706880e-01
1.080005094408988953e+01 -8.014163017272949219e+00 -7.947386821266206880e-01
1.090259000658988953e+01 -7.915041923522949219e+00 -7.963866313453706880e-01
1.099609586596488953e+01 -7.807864189147949219e+00 -7.979277690406831880e-01
1.422168180346488953e+01 -1.285364055633544922e+01 -9.152831157203706880e-01
1.446411344408988953e+01 -1.282080364227294922e+01 -9.224242290016206880e-01
9.793092936277389526e+00 -7.566531181335449219e+00 -6.902464946266206880e-01
1.228698942065238953e+01 -9.971072196960449219e+00 -8.077696879859956880e-01
1.238147184252738953e+01 -9.829592704772949219e+00 -8.084868510719331880e-01
1.247546598315238953e+01 -9.688723564147949219e+00 -8.092040141578706880e-01
1.256933805346488953e+01 -9.547976493835449219e+00 -8.099059184547456880e-01
1.266259977221488953e+01 -9.408328056335449219e+00 -8.106078227516206880e-01
1.442663785815238953e+01 -1.307849407196044922e+01 -8.316802104469331880e-01
1.478857633471488953e+01 -1.317065715789794922e+01 -8.426512797828706880e-01
9.793703287839889526e+00 -7.566164970397949219e+00 -6.291960795875581880e-01
1.576062223315238953e+01 -1.358471965789794922e+01 -8.755644877906831880e-01
1.568432828783988953e+01 -1.319763469696044922e+01 -8.684538920875581880e-01
1.600451871752738953e+01 -1.321655559539794922e+01 -8.777922709938081880e-01
1.543213102221488953e+01 -1.235290813446044922e+01 -8.505095561500581880e-01
1.685656949877738953e+01 -1.343689250946044922e+01 -9.053649028297456880e-01
1.433642789721488953e+01 -1.297717571258544922e+01 -7.342681010719331880e-01
1.469030973315238953e+01 -1.306262493133544922e+01 -7.440032084938081880e-01
9.794435709714889526e+00 -7.565920829772949219e+00 -5.684660991188081880e-01
1.518005582690238953e+01 -1.297876262664794922e+01 -7.555693706031831880e-01
1.524878141283988953e+01 -1.275171184539794922e+01 -7.551573832984956880e-01
1.535949918627738953e+01 -1.256994915008544922e+01 -7.562254985328706880e-01
1.648864957690238953e+01 -1.338684368133544922e+01 -7.924346049781831880e-01
1.658093473315238953e+01 -1.317053508758544922e+01 -7.927245219703706880e-01
1.424328824877738953e+01 -1.287268352508544922e+01 -6.385191997047456880e-01
1.468799039721488953e+01 -1.305835247039794922e+01 -6.494597514625581880e-01
9.795046061277389526e+00 -7.565554618835449219e+00 -5.074156840797456880e-01
1.520300504565238953e+01 -1.300110149383544922e+01 -6.599425395484956880e-01
1.569763395190238953e+01 -1.320801067352294922e+01 -6.721037944313081880e-01
1.541613981127738953e+01 -1.262512493133544922e+01 -6.623229106422456880e-01
1.555407926440238953e+01 -1.246936321258544922e+01 -6.649016459938081880e-01
1.674096891283988953e+01 -1.332275676727294922e+01 -6.963194926734956880e-01
1.419580289721488953e+01 -1.281860637664794922e+01 -5.445708354469331880e-01
1.451037809252738953e+01 -1.286450481414794922e+01 -5.506285747047456880e-01
9.795656412839889526e+00 -7.565188407897949219e+00 -4.467009624000581880e-01
1.524560758471488953e+01 -1.304382610321044922e+01 -5.649718364234956880e-01
1.551172086596488953e+01 -1.301684856414794922e+01 -5.699004252906831880e-01
1.547729703783988953e+01 -1.268469524383544922e+01 -5.682982524391206880e-01
1.561609098315238953e+01 -1.252868938446044922e+01 -5.704650004859956880e-01
1.667492887377738953e+01 -1.325769329071044922e+01 -5.924834331031831880e-01
1.406555387377738953e+01 -1.267309856414794922e+01 -4.505309184547456880e-01
1.459948942065238953e+01 -1.295935344696044922e+01 -4.587554057594331880e-01
9.796388834714889526e+00 -7.564822196960449219e+00 -3.859709819313081880e-01
1.522485563158988953e+01 -1.302075481414794922e+01 -4.684905131813081880e-01
1.541235563158988953e+01 -1.291394329071044922e+01 -4.714659770484956880e-01
1.553906461596488953e+01 -1.274487590789794922e+01 -4.735259135719331880e-01
1.567834684252738953e+01 -1.258813762664794922e+01 -4.757689555641206880e-01
1.672290250658988953e+01 -1.330224895477294922e+01 -4.917906840797456880e-01
1.405493375658988953e+01 -1.265979290008544922e+01 -3.587950786109956880e-01
1.437134000658988953e+01 -1.271069622039794922e+01 -3.625334819313081880e-01
9.796999186277389526e+00 -7.564455986022949219e+00 -3.249358256813081880e-01
1.571704313158988953e+01 -1.353100872039794922e+01 -3.761748393531831880e-01
1.542053434252738953e+01 -1.292065715789794922e+01 -3.747710307594331880e-01
1.574951383471488953e+01 -1.295361614227294922e+01 -3.787383159156831880e-01
1.660327360033988953e+01 -1.349280071258544922e+01 -3.873137553688081880e-01
1.674060270190238953e+01 -1.331762981414794922e+01 -3.896788676734956880e-01
1.429236051440238953e+01 -1.292041301727294922e+01 -2.680663188453706880e-01
1.430298063158988953e+01 -1.263513469696044922e+01 -2.701720317359956880e-01
9.797609537839889526e+00 -7.564211845397949219e+00 -2.642211040016206880e-01
1.535363981127738953e+01 -1.315149211883544922e+01 -2.762297709938081880e-01
1.536999723315238953e+01 -1.286755657196044922e+01 -2.783812602516206880e-01
1.676159879565238953e+01 -1.396350383758544922e+01 -2.835082133766206880e-01
1.632776090502738953e+01 -1.322119426727294922e+01 -2.847289165016206880e-01
1.713818570971488953e+01 -1.369775676727294922e+01 -2.888487895484956880e-01
1.405981656908988953e+01 -1.266199016571044922e+01 -1.761626323219331880e-01
1.441504117846488953e+01 -1.275488567352294922e+01 -1.773375590797456880e-01
9.798341959714889526e+00 -7.563845634460449219e+00 -2.035063823219331880e-01
1.501440641283988953e+01 -1.279699993133544922e+01 -1.809996684547456880e-01
1.546545621752738953e+01 -1.296325969696044922e+01 -1.820067485328706880e-01
1.736206266283988953e+01 -1.456177043914794922e+01 -1.769560893531831880e-01
1.602697965502738953e+01 -1.292505168914794922e+01 -1.852568706031831880e-01
1.648437711596488953e+01 -1.306836223602294922e+01 -1.865233500953706880e-01
9.000978678464889526e+00 -7.075320243835449219e+00 -1.468810161109956880e-01
9.321291178464889526e+00 -7.240847587585449219e+00 -1.455229838844331880e-01
9.659792155027389526e+00 -7.415896415710449219e+00 -1.440886577125581880e-01
1.001001188158988953e+01 -7.592043876647949219e+00 -1.426848491188081880e-01
1.036084195971488953e+01 -7.758791923522949219e+00 -1.414031108375581880e-01
1.073132535815238953e+01 -7.934939384460449219e+00 -1.400450786109956880e-01
1.112426969408988953e+01 -8.121829032897949219e+00 -1.386107524391206880e-01
1.153918668627738953e+01 -8.319094657897949219e+00 -1.370848735328706880e-01
8.903200358152389526e+00 -6.966311454772949219e+00 -9.190359911880818800e-02
9.217409342527389526e+00 -7.127444267272949219e+00 -8.935538134537068800e-02
9.565675944089889526e+00 -7.314944267272949219e+00 -8.604422411880818800e-02
9.941652506589889526e+00 -7.519900321960449219e+00 -8.244314990005818800e-02
1.030139371752738953e+01 -7.697146415710449219e+00 -7.931509814224568800e-02
1.068603727221488953e+01 -7.888796806335449219e+00 -7.592764697037068800e-02
1.109570524096488953e+01 -8.092776298522949219e+00 -7.232657275162068800e-02
1.153039762377738953e+01 -8.309573173522949219e+00 -6.813040575943318800e-02
8.974367350339889526e+00 -7.043948173522949219e+00 -3.419485888443318800e-02
9.313112467527389526e+00 -7.229983329772949219e+00 -2.922049365005818800e-02
9.672853678464889526e+00 -7.427737236022949219e+00 -2.392569384537068800e-02
1.003955289721488953e+01 -7.620608329772949219e+00 -1.870718798599568800e-02
1.038733121752738953e+01 -7.783694267272949219e+00 -1.417532763443318800e-02
1.075415250658988953e+01 -7.955691337585449219e+00 -9.384067868808187995e-03
1.114306852221488953e+01 -8.138064384460449219e+00 -4.302891110995687995e-03
1.155322477221488953e+01 -8.330447196960449219e+00 1.068202639004312005e-03
8.959718912839889526e+00 -7.026858329772949219e+00 2.197274365462931200e-02
9.272951334714889526e+00 -7.185671806335449219e+00 2.752694287337931200e-02
9.603151530027389526e+00 -7.352786064147949219e+00 3.369149365462931200e-02
9.953493326902389526e+00 -7.530154228210449219e+00 4.023751416244181200e-02
1.029199430346488953e+01 -7.685427665710449219e+00 4.617318310775431200e-02
1.065332242846488953e+01 -7.854006767272949219e+00 5.259713330306681200e-02
1.107287809252738953e+01 -8.068362236022949219e+00 6.047066845931681200e-02
1.151941129565238953e+01 -8.296877861022949219e+00 6.924447217025431200e-02
8.920290201902389526e+00 -6.982180595397949219e+00 7.662972607650431200e-02
9.266481608152389526e+00 -7.177615165710449219e+00 8.532723584212931200e-02
9.635133951902389526e+00 -7.385745048522949219e+00 9.458932080306681200e-02
1.001648160815238953e+01 -7.594607353210449219e+00 1.040039936546293120e-01
1.039599820971488953e+01 -7.790530204772949219e+00 1.130371967796293120e-01
1.079919645190238953e+01 -7.998660087585449219e+00 1.226502338890043120e-01
2.630774137377738953e+01 -2.298181438446044922e+01 6.791535297874418120e-01
2.352441617846488953e+01 -1.981689739227294922e+01 5.665284077171293120e-01
1.489331266283988953e+01 -1.357202434539794922e+01 4.101410786155668120e-01
1.425293180346488953e+01 -1.256982707977294922e+01 3.715210834983793120e-01
1.449304410815238953e+01 -1.253515911102294922e+01 3.731537739280668120e-01
1.657910367846488953e+01 -1.441357707977294922e+01 4.571839252952543120e-01
1.704004117846488953e+01 -1.455786418914794922e+01 4.675904194358793120e-01
1.699084684252738953e+01 -1.418066692352294922e+01 4.555970112327543120e-01
2.708581754565238953e+01 -2.374096965789794922e+01 8.772431293968168120e-01
2.352697965502738953e+01 -1.981701946258544922e+01 7.121277729515043120e-01
1.554883024096488953e+01 -1.429370403289794922e+01 5.422364155296293120e-01
1.433899137377738953e+01 -1.266137981414794922e+01 4.673462788108793120e-01
1.629687711596488953e+01 -1.444580364227294922e+01 5.590363422874418120e-01
2.566565153002738953e+01 -2.385376262664794922e+01 1.026764003420254312e+00
1.697558805346488953e+01 -1.449048137664794922e+01 5.716553608421293120e-01
1.780078336596488953e+01 -1.498779582977294922e+01 6.017914692405668120e-01
2.780786344408988953e+01 -2.444507122039794922e+01 1.081634608889004312e+00
2.352942106127738953e+01 -1.981714153289794922e+01 8.577423969749418120e-01
8.270509928464889526e+00 -5.190066337585449219e+00 -7.969512065406831880e-01
8.343507975339889526e+00 -5.115481376647949219e+00 -7.980803569313081880e-01
8.413088053464889526e+00 -5.037600517272949219e+00 -7.992095073219331880e-01
8.482790201902389526e+00 -4.959231376647949219e+00 -8.003386577125581880e-01
8.552248209714889526e+00 -4.881228446960449219e+00 -8.014525493141206880e-01
8.621706217527389526e+00 -4.803225517272949219e+00 -8.025816997047456880e-01
8.691408365964889526e+00 -4.724978446960449219e+00 -8.037108500953706880e-01
8.757082194089889526e+00 -4.643923759460449219e+00 -8.048400004859956880e-01
8.926027506589889526e+00 -5.819460868835449219e+00 -7.920073588844331880e-01
9.020265787839889526e+00 -5.752444267272949219e+00 -7.944792827125581880e-01
9.119386881589889526e+00 -5.689211845397949219e+00 -7.969512065406831880e-01
9.214967936277389526e+00 -5.621340751647949219e+00 -7.994383891578706880e-01
9.310548990964889526e+00 -5.553347587585449219e+00 -8.019408305641206880e-01
9.390138834714889526e+00 -5.470828056335449219e+00 -8.033904155250581880e-01
9.462038248777389526e+00 -5.381106376647949219e+00 -8.046263774391206880e-01
9.538210123777389526e+00 -5.295657157897949219e+00 -8.058623393531831880e-01
9.896364420652389526e+00 -6.751223564147949219e+00 -7.975310405250581880e-01
9.980715006589889526e+00 -6.656497001647949219e+00 -7.989043315406831880e-01
1.006506559252738953e+01 -6.561770439147949219e+00 -8.002623637672456880e-01
1.014966031908988953e+01 -6.466677665710449219e+00 -8.016356547828706880e-01
1.023401090502738953e+01 -6.371829032897949219e+00 -8.029936870094331880e-01
1.031836149096488953e+01 -6.277102470397949219e+00 -8.043669780250581880e-01
1.040295621752738953e+01 -6.182131767272949219e+00 -8.057402690406831880e-01
1.048730680346488953e+01 -6.087405204772949219e+00 -8.070983012672456880e-01
1.099646207690238953e+01 -7.807497978210449219e+00 -7.979277690406831880e-01
1.109753629565238953e+01 -7.707644462585449219e+00 -7.994689067359956880e-01
1.119201871752738953e+01 -7.601443290710449219e+00 -8.009947856422456880e-01
1.128674528002738953e+01 -7.494875907897949219e+00 -8.025359233375581880e-01
1.138122770190238953e+01 -7.388674736022949219e+00 -8.040618022438081880e-01
1.147571012377738953e+01 -7.282595634460449219e+00 -8.055876811500581880e-01
1.157043668627738953e+01 -7.176028251647949219e+00 -8.071288188453706880e-01
1.165783903002738953e+01 -7.063967704772949219e+00 -8.086546977516206880e-01
1.266284391283988953e+01 -9.407717704772949219e+00 -8.106078227516206880e-01
1.230639860033988953e+01 -8.845339775085449219e+00 -7.905882915016206880e-01
1.288818570971488953e+01 -9.166628837585449219e+00 -8.144530375953706880e-01
1.301611539721488953e+01 -9.058962821960449219e+00 -8.170622905250581880e-01
1.310412809252738953e+01 -8.916018486022949219e+00 -8.178404887672456880e-01
1.317480680346488953e+01 -8.758791923522949219e+00 -8.178404887672456880e-01
1.324524137377738953e+01 -8.601931571960449219e+00 -8.178252299781831880e-01
1.330542203783988953e+01 -8.438723564147949219e+00 -8.173979838844331880e-01
1.685766813158988953e+01 -1.343689250946044922e+01 -9.054106791969331880e-01
1.230700895190238953e+01 -8.844851493835449219e+00 -7.171629985328706880e-01
1.440869352221488953e+01 -1.056921672821044922e+01 -7.992095073219331880e-01
1.459997770190238953e+01 -1.049096965789794922e+01 -8.039244731422456880e-01
1.479248258471488953e+01 -1.041235637664794922e+01 -8.086546977516206880e-01
1.493774625658988953e+01 -1.029004192352294922e+01 -8.114928325172456880e-01
1.488342496752738953e+01 -9.996462821960449219e+00 -8.064574321266206880e-01
1.522046110033988953e+01 -1.003637981414794922e+01 -8.173064311500581880e-01
1.658154508471488953e+01 -1.317004680633544922e+01 -7.927397807594331880e-01
1.230774137377738953e+01 -8.844363212585449219e+00 -6.441496928688081880e-01
1.691052457690238953e+01 -1.287744426727294922e+01 -7.987517436500581880e-01
1.967627164721488953e+01 -1.508264446258544922e+01 -8.897704204078706880e-01
1.891687223315238953e+01 -1.406860637664794922e+01 -8.612364848609956880e-01
2.037072965502738953e+01 -1.501111125946044922e+01 -9.072112163063081880e-01
1.488415738940238953e+01 -9.995730400085449219e+00 -7.211150249000581880e-01
2.092688199877738953e+01 -1.479858684539794922e+01 -9.198302348609956880e-01
1.674206754565238953e+01 -1.332275676727294922e+01 -6.963500102516206880e-01
1.230835172533988953e+01 -8.843874931335449219e+00 -5.711363872047456880e-01
2.045056363940238953e+01 -1.614343547821044922e+01 -7.952422221656831880e-01
1.873169156908988953e+01 -1.422632122039794922e+01 -7.457579692359956880e-01
2.139514371752738953e+01 -1.626452922821044922e+01 -8.172453959938081880e-01
2.198620817065238953e+01 -1.641345500946044922e+01 -8.314055522438081880e-01
1.488476774096488953e+01 -9.995120048522949219e+00 -6.357726176734956880e-01
2.303918668627738953e+01 -1.655993938446044922e+01 -8.567046245094331880e-01
1.667602750658988953e+01 -1.325769329071044922e+01 -5.925139506813081880e-01
1.230896207690238953e+01 -8.843386650085449219e+00 -4.977416118141206880e-01
1.701648160815238953e+01 -1.297217082977294922e+01 -5.983122905250581880e-01
1.876391813158988953e+01 -1.425390911102294922e+01 -6.350096782203706880e-01
1.896997281908988953e+01 -1.411242961883544922e+01 -6.385954936500581880e-01
2.255200406908988953e+01 -1.690320110321044922e+01 -7.142333110328706880e-01
1.488550016283988953e+01 -9.994509696960449219e+00 -5.499877055641206880e-01
2.192553922533988953e+01 -1.562866497039794922e+01 -6.990202983375581880e-01
1.672351285815238953e+01 -1.330163860321044922e+01 -4.917906840797456880e-01
1.230969449877738953e+01 -8.842898368835449219e+00 -4.247283061500581880e-01
1.706982633471488953e+01 -1.301990032196044922e+01 -4.973906596656831880e-01
1.879956266283988953e+01 -1.428442668914794922e+01 -5.239409526344331880e-01
1.899658414721488953e+01 -1.413440227508544922e+01 -5.271147807594331880e-01
2.214770719408988953e+01 -1.655005168914794922e+01 -5.754088481422456880e-01
1.488611051440238953e+01 -9.993899345397949219e+00 -4.646605571266206880e-01
2.191980192065238953e+01 -1.562219524383544922e+01 -5.723113139625581880e-01
1.674096891283988953e+01 -1.331689739227294922e+01 -3.896941264625581880e-01
1.231030485033988953e+01 -8.842410087585449219e+00 -3.513487895484956880e-01
1.709240934252738953e+01 -1.303906536102294922e+01 -3.950041850563081880e-01
1.883337613940238953e+01 -1.431335735321044922e+01 -4.118193706031831880e-01
1.902343961596488953e+01 -1.415661907196044922e+01 -4.147337993141206880e-01
2.219458219408988953e+01 -1.658887004852294922e+01 -4.449462016578706880e-01
1.488684293627738953e+01 -9.993288993835449219e+00 -3.788756450172456880e-01
2.227270719408988953e+01 -1.591491985321044922e+01 -4.483489116188081880e-01
1.713891813158988953e+01 -1.369739055633544922e+01 -2.888640483375581880e-01
1.231103727221488953e+01 -8.841921806335449219e+00 -2.783507426734956880e-01
1.835669156908988953e+01 -1.420410442352294922e+01 -2.962950786109956880e-01
1.858191129565238953e+01 -1.408423137664794922e+01 -2.991026957984956880e-01
1.905017301440238953e+01 -1.417871379852294922e+01 -3.026274760719331880e-01
2.255688688158988953e+01 -1.690173625946044922e+01 -3.156279643531831880e-01
1.488745328783988953e+01 -9.992678642272949219e+00 -2.935637553688081880e-01
2.288427945971488953e+01 -1.642334270477294922e+01 -3.217314799781831880e-01
1.648486539721488953e+01 -1.306787395477294922e+01 -1.865386088844331880e-01
1.231164762377738953e+01 -8.841433525085449219e+00 -2.049712260719331880e-01
1.833752653002738953e+01 -1.418481731414794922e+01 -1.863402446266206880e-01
2.207446500658988953e+01 -1.724072551727294922e+01 -1.770476420875581880e-01
2.238208219408988953e+01 -1.713000774383544922e+01 -1.798094829078706880e-01
2.255859586596488953e+01 -1.690137004852294922e+01 -1.829985698219331880e-01
1.488806363940238953e+01 -9.992068290710449219e+00 -2.077941020484956880e-01
2.218445035815238953e+01 -1.583764934539794922e+01 -1.906127055641206880e-01
1.154175016283988953e+01 -8.320925712585449219e+00 -1.370696147438081880e-01
1.198205778002738953e+01 -8.530032157897949219e+00 -1.352843364234956880e-01
1.245068570971488953e+01 -8.752688407897949219e+00 -1.333922465797456880e-01
1.290466520190238953e+01 -8.948122978210449219e+00 -1.318205913063081880e-01
1.338684293627738953e+01 -9.156497001647949219e+00 -1.301268657203706880e-01
1.389904996752738953e+01 -9.378054618835449219e+00 -1.283415874000581880e-01
1.444616910815238953e+01 -9.614626884460449219e+00 -1.264189799781831880e-01
1.502795621752738953e+01 -9.866213798522949219e+00 -1.243895610328706880e-01
1.153308317065238953e+01 -8.311526298522949219e+00 -6.809988818130818800e-02
1.199560758471488953e+01 -8.541750907897949219e+00 -6.417837939224568800e-02
1.244262906908988953e+01 -8.744265556335449219e+00 -6.034842333755818800e-02
1.296057340502738953e+01 -8.997439384460449219e+00 -5.561819872818318800e-02
1.346667692065238953e+01 -9.226199150085449219e+00 -5.128470263443318800e-02
1.400622770190238953e+01 -9.470095634460449219e+00 -4.667654833755818800e-02
1.458020231127738953e+01 -9.727541923522949219e+00 -4.180899462662068800e-02
1.502746793627738953e+01 -9.864626884460449219e+00 -3.855887255630818800e-02
1.155578824877738953e+01 -8.332156181335449219e+00 1.098720217129312005e-03
1.199035856127738953e+01 -8.535769462585449219e+00 7.049647951504312005e-03
1.244323942065238953e+01 -8.743777275085449219e+00 1.316842236556681200e-02
1.290014860033988953e+01 -8.941775321960449219e+00 1.911935009994181200e-02
1.337512418627738953e+01 -9.143923759460449219e+00 2.523812451400431200e-02
1.387927457690238953e+01 -9.358645439147949219e+00 3.172310986556681200e-02
1.444482633471488953e+01 -9.611086845397949219e+00 3.923043408431681200e-02
1.506811735033988953e+01 -9.897463798522949219e+00 4.763802685775431200e-02
1.152221891283988953e+01 -8.298830986022949219e+00 6.930550732650431200e-02
1.199829313158988953e+01 -8.542117118835449219e+00 7.820138134994181200e-02
1.250366422533988953e+01 -8.798342704772949219e+00 8.799752392806681200e-02
1.299096891283988953e+01 -9.022707939147949219e+00 9.693917431869181200e-02
1.351318570971488953e+01 -9.265139579772949219e+00 1.065674702171293120e-01
2.256518766283988953e+01 -1.689953899383544922e+01 3.489075581077543120e-01
3.078076383471488953e+01 -2.351086711883544922e+01 5.618744770530668120e-01
2.286108610033988953e+01 -1.639490032196044922e+01 3.409577290061918120e-01
2.352502653002738953e+01 -1.981592082977294922e+01 5.664978901390043120e-01
2.778674528002738953e+01 -2.339282512664794922e+01 7.058411518577543120e-01
2.854907438158988953e+01 -2.359241008758544922e+01 7.197266499046293120e-01
2.651184293627738953e+01 -2.124133586883544922e+01 6.370545307640043120e-01
3.014587613940238953e+01 -2.399792766571044922e+01 7.485047260765043120e-01
2.256677457690238953e+01 -1.689905071258544922e+01 4.822235981468168120e-01
3.171679899096488953e+01 -2.430469036102294922e+01 7.745209614280668120e-01
2.286352750658988953e+01 -1.639514446258544922e+01 4.730683247093168120e-01
2.352759000658988953e+01 -1.981604290008544922e+01 7.121125141624418120e-01
2.861474820971488953e+01 -2.416907024383544922e+01 9.113465229515043120e-01
2.941406461596488953e+01 -2.438745403289794922e+01 9.286042133811918120e-01
2.650915738940238953e+01 -2.123657512664794922e+01 7.962189594749418120e-01
3.089233610033988953e+01 -2.465649700164794922e+01 9.584504047874418120e-01
2.256848356127738953e+01 -1.689856243133544922e+01 6.148377338890043120e-01
3.281836149096488953e+01 -2.523926067352294922e+01 1.004898158693691812e+00
2.286596891283988953e+01 -1.639526653289794922e+01 6.058808247093168120e-01
2.353003141283988953e+01 -1.981616497039794922e+01 8.577118793968168120e-01
2.944311735033988953e+01 -2.494543743133544922e+01 1.126342860842129312e+00
3.018994352221488953e+01 -2.509997844696044922e+01 1.144989101076504312e+00
2.650647184252738953e+01 -2.123181438446044922e+01 9.561768452171293120e-01
3.180212613940238953e+01 -2.545959758758544922e+01 1.186035243654629312e+00
2.257007047533988953e+01 -1.689807415008544922e+01 7.481690327171293120e-01
3.378906461596488953e+01 -2.606238079071044922e+01 1.241607753420254312e+00
2.286841031908988953e+01 -1.639551067352294922e+01 7.387085834983793120e-01
8.757326334714889526e+00 -4.643557548522949219e+00 -8.048400004859956880e-01
8.825929850339889526e+00 -4.564822196960449219e+00 -8.059538920875581880e-01
8.890749186277389526e+00 -4.482913017272949219e+00 -8.070830424781831880e-01
8.955812662839889526e+00 -4.400759696960449219e+00 -8.081969340797456880e-01
9.020631998777389526e+00 -4.318850517272949219e+00 -8.093260844703706880e-01
9.085451334714889526e+00 -4.236819267272949219e+00 -8.104399760719331880e-01
9.150514811277389526e+00 -4.154665946960449219e+00 -8.115691264625581880e-01
9.211427897214889526e+00 -4.069705009460449219e+00 -8.126830180641206880e-01
9.538454264402389526e+00 -5.295290946960449219e+00 -8.058623393531831880e-01
9.609621256589889526e+00 -5.205569267272949219e+00 -8.070830424781831880e-01
9.685426920652389526e+00 -5.119509696960449219e+00 -8.083190043922456880e-01
9.756838053464889526e+00 -5.029421806335449219e+00 -8.095549663063081880e-01
9.828005045652389526e+00 -4.939578056335449219e+00 -8.107756694313081880e-01
9.899294108152389526e+00 -4.849734306335449219e+00 -8.120116313453706880e-01
9.965944498777389526e+00 -4.755984306335449219e+00 -8.132323344703706880e-01
1.003711149096488953e+01 -4.666140556335449219e+00 -8.144682963844331880e-01
1.048742887377738953e+01 -6.086916923522949219e+00 -8.070983012672456880e-01
1.056628629565238953e+01 -5.987673759460449219e+00 -8.084563334938081880e-01
1.064526578783988953e+01 -5.888308525085449219e+00 -8.098296245094331880e-01
1.072436735033988953e+01 -5.788699150085449219e+00 -8.111876567359956880e-01
1.080334684252738953e+01 -5.689333915710449219e+00 -8.125456889625581880e-01
1.088232633471488953e+01 -5.589968681335449219e+00 -8.139037211891206880e-01
1.096154996752738953e+01 -5.490237236022949219e+00 -8.152770122047456880e-01
1.104052945971488953e+01 -5.390872001647949219e+00 -8.166350444313081880e-01
1.165820524096488953e+01 -7.063601493835449219e+00 -8.086546977516206880e-01
1.175366422533988953e+01 -6.958376884460449219e+00 -8.101805766578706880e-01
1.184228727221488953e+01 -6.847170829772949219e+00 -8.117064555641206880e-01
1.193103238940238953e+01 -6.735598564147949219e+00 -8.132323344703706880e-01
1.201965543627738953e+01 -6.624392509460449219e+00 -8.147582133766206880e-01
1.210815641283988953e+01 -6.513186454772949219e+00 -8.162840922828706880e-01
1.219568082690238953e+01 -6.400393486022949219e+00 -8.177336772438081880e-01
1.224634000658988953e+01 -6.261721611022949219e+00 -8.177336772438081880e-01
1.330542203783988953e+01 -8.437869071960449219e+00 -8.173827250953706880e-01
1.334472867846488953e+01 -8.259036064147949219e+00 -8.163146098609956880e-01
1.338366910815238953e+01 -8.081912040710449219e+00 -8.152617534156831880e-01
1.345849820971488953e+01 -7.934329032897949219e+00 -8.158110698219331880e-01
1.355932828783988953e+01 -7.808108329772949219e+00 -8.175505717750581880e-01
1.362695524096488953e+01 -7.656863212585449219e+00 -8.178099711891206880e-01
1.368835660815238953e+01 -7.501345634460449219e+00 -8.178099711891206880e-01
1.374926969408988953e+01 -7.347170829772949219e+00 -8.178099711891206880e-01
1.522094938158988953e+01 -1.003589153289794922e+01 -8.173216899391206880e-01
1.531433317065238953e+01 -9.869265556335449219e+00 -8.179167827125581880e-01
1.538000699877738953e+01 -9.681033134460449219e+00 -8.179167827125581880e-01
1.547961637377738953e+01 -9.520388603210449219e+00 -8.192290385719331880e-01
1.559680387377738953e+01 -9.374514579772949219e+00 -8.212431987281831880e-01
1.571399137377738953e+01 -9.228518486022949219e+00 -8.232573588844331880e-01
1.582544156908988953e+01 -9.077395439147949219e+00 -8.250273784156831880e-01
1.589148160815238953e+01 -8.894534111022949219e+00 -8.255461772438081880e-01
2.092761442065238953e+01 -1.479797649383544922e+01 -9.198454936500581880e-01
2.111889860033988953e+01 -1.461584758758544922e+01 -9.235381206031831880e-01
1.820239469408988953e+01 -1.194189739227294922e+01 -8.247527202125581880e-01
1.838904020190238953e+01 -1.180359172821044922e+01 -8.286589702125581880e-01
1.857592985033988953e+01 -1.166479778289794922e+01 -8.325652202125581880e-01
1.876391813158988953e+01 -1.152539348602294922e+01 -8.365019877906831880e-01
1.891504117846488953e+01 -1.135620403289794922e+01 -8.392333110328706880e-01
1.903625699877738953e+01 -1.116589641571044922e+01 -8.409880717750581880e-01
2.304113981127738953e+01 -1.656030559539794922e+01 -8.567504008766206880e-01
2.307568570971488953e+01 -1.621460247039794922e+01 -8.558196147438081880e-01
2.235888883471488953e+01 -1.527148723602294922e+01 -8.338927348609956880e-01
2.273254606127738953e+01 -1.521228313446044922e+01 -8.422240336891206880e-01
2.379431363940238953e+01 -1.567700481414794922e+01 -8.690337260719331880e-01
2.318860074877738953e+01 -1.485742473602294922e+01 -8.509825786109956880e-01
2.380200406908988953e+01 -1.496057415008544922e+01 -8.663634379859956880e-01
2.016809293627738953e+01 -1.198242473602294922e+01 -7.675780375953706880e-01
2.192639371752738953e+01 -1.562817668914794922e+01 -6.990355571266206880e-01
2.307300016283988953e+01 -1.621057415008544922e+01 -7.226103862281831880e-01
2.190905973315238953e+01 -1.490930461883544922e+01 -6.971587260719331880e-01
2.249902555346488953e+01 -1.502722454071044922e+01 -7.088927348609956880e-01
2.404931852221488953e+01 -1.587134075164794922e+01 -7.408751567359956880e-01
2.309314176440238953e+01 -1.478393840789794922e+01 -7.199248393531831880e-01
2.385351774096488953e+01 -1.499695110321044922e+01 -7.351836284156831880e-01
2.016882535815238953e+01 -1.198169231414794922e+01 -6.569823344703706880e-01
2.192065641283988953e+01 -1.562170696258544922e+01 -5.723265727516206880e-01
2.214233610033988953e+01 -1.544775676727294922e+01 -5.759581645484956880e-01
2.299316617846488953e+01 -1.577624797821044922e+01 -5.892180522438081880e-01
2.241345426440238953e+01 -1.495849895477294922e+01 -5.805663188453706880e-01
2.385461637377738953e+01 -1.571985149383544922e+01 -6.028899272438081880e-01
2.389001676440238953e+01 -1.538257122039794922e+01 -6.036681254859956880e-01
2.390173551440238953e+01 -1.503088665008544922e+01 -6.040953715797456880e-01
2.016955778002738953e+01 -1.198083782196044922e+01 -5.469969829078706880e-01
2.227185270190238953e+01 -1.591284465789794922e+01 -4.483489116188081880e-01
2.213647672533988953e+01 -1.544128704071044922e+01 -4.483336528297456880e-01
2.242834684252738953e+01 -1.532202434539794922e+01 -4.523161967750581880e-01
2.269824430346488953e+01 -1.518030071258544922e+01 -4.561003764625581880e-01
2.514697477221488953e+01 -1.671191692352294922e+01 -4.806212504859956880e-01
2.255822965502738953e+01 -1.437781047821044922e+01 -4.571837504859956880e-01
2.375122281908988953e+01 -1.491821575164794922e+01 -4.698485454078706880e-01
2.017029020190238953e+01 -1.197998332977294922e+01 -4.364165385719331880e-01
2.287610074877738953e+01 -1.641528606414794922e+01 -3.217009624000581880e-01
2.420813199877738953e+01 -1.713318157196044922e+01 -3.286131938453706880e-01
2.865600797533988953e+01 -2.030908489227294922e+01 -3.467558940406831880e-01
2.235376188158988953e+01 -1.490820598602294922e+01 -3.267211040016206880e-01
2.244470426440238953e+01 -1.463257122039794922e+01 -3.292388041969331880e-01
2.532678434252738953e+01 -1.646118450164794922e+01 -3.424376567359956880e-01
2.980566617846488953e+01 -1.938196086883544922e+01 -3.624419291969331880e-01
2.017102262377738953e+01 -1.197925090789794922e+01 -3.264464457984956880e-01
2.218457242846488953e+01 -1.583655071258544922e+01 -1.906279643531831880e-01
2.197863981127738953e+01 -1.530884075164794922e+01 -1.944274028297456880e-01
2.232959195971488953e+01 -1.523950481414794922e+01 -1.974639018531831880e-01
2.267553922533988953e+01 -1.515918254852294922e+01 -1.999205668922456880e-01
2.496997281908988953e+01 -1.657214641571044922e+01 -1.984099467750581880e-01
2.923559781908988953e+01 -1.940283489227294922e+01 -1.937560161109956880e-01
2.941150113940238953e+01 -1.908923625946044922e+01 -1.966094096656831880e-01
2.017175504565238953e+01 -1.197839641571044922e+01 -2.158965190406831880e-01
1.503161832690238953e+01 -9.868533134460449219e+00 -1.243590434547456880e-01
1.558947965502738953e+01 -1.008471965789794922e+01 -1.225127299781831880e-01
1.620495817065238953e+01 -1.033264446258544922e+01 -1.203612407203706880e-01
1.686792203783988953e+01 -1.060058879852294922e+01 -1.180419047828706880e-01
1.757592985033988953e+01 -1.088684368133544922e+01 -1.155547221656831880e-01
1.825866910815238953e+01 -1.113586711883544922e+01 -1.134795268531831880e-01
1.898974820971488953e+01 -1.140222454071044922e+01 -1.112517436500581880e-01
1.976892301440238953e+01 -1.168616008758544922e+01 -1.088866313453706880e-01
1.503125211596488953e+01 -9.866946220397949219e+00 -3.851309618912068800e-02
1.571203824877738953e+01 -1.018371868133544922e+01 -3.273001513443318800e-02
1.631030485033988953e+01 -1.041577434539794922e+01 -2.792349657974568800e-02
1.695007535815238953e+01 -1.066382122039794922e+01 -2.279654345474568800e-02
1.763098356127738953e+01 -1.092785930633544922e+01 -1.733389697037068800e-02
1.828467008471488953e+01 -1.115405559539794922e+01 -1.248160204849568800e-02
1.898791715502738953e+01 -1.139953899383544922e+01 -7.247837400058187995e-03
1.973388883471488953e+01 -1.165954875946044922e+01 -1.113804196933187995e-03
1.507214567065238953e+01 -9.899905204772949219e+00 4.771432080306681200e-02
1.566040250658988953e+01 -1.014038372039794922e+01 5.543526806869181200e-02
1.629919645190238953e+01 -1.040564250946044922e+01 6.388863720931681200e-02
1.698620817065238953e+01 -1.069104290008544922e+01 7.299813427962931200e-02
1.770654508471488953e+01 -1.098474407196044922e+01 8.244332470931681200e-02
1.841259977221488953e+01 -1.124914836883544922e+01 9.127816357650431200e-02
3.049316617846488953e+01 -1.988061809539794922e+01 3.147889057640043120e-01
3.075622770190238953e+01 -1.961645793914794922e+01 3.117066303733793120e-01
2.286194059252738953e+01 -1.639441204071044922e+01 3.409424702171293120e-01
2.425988981127738953e+01 -1.716601848602294922e+01 3.693390766624418120e-01
2.323718473315238953e+01 -1.595947551727294922e+01 3.349610249046293120e-01
2.462426969408988953e+01 -1.668091106414794922e+01 3.629303852561918120e-01
3.470862028002738953e+01 -2.404846477508544922e+01 6.095734516624418120e-01
2.974609586596488953e+01 -1.977868938446044922e+01 4.750672260765043120e-01
3.163940641283988953e+01 -2.072351360321044922e+01 5.124360004905668120e-01
3.073974820971488953e+01 -1.960241985321044922e+01 4.818879047874418120e-01
2.286438199877738953e+01 -1.639453411102294922e+01 4.730530659202543120e-01
3.372693082690238953e+01 -2.489917278289794922e+01 8.138733784202543120e-01
2.317492887377738953e+01 -1.590783977508544922e+01 4.658661762718168120e-01
2.461596891283988953e+01 -1.667261028289794922e+01 5.026398579124418120e-01
3.427380582690238953e+01 -2.371179485321044922e+01 7.935334125999418120e-01
2.978479215502738953e+01 -1.980578899383544922e+01 6.436005512718168120e-01
3.001867887377738953e+01 -1.952661418914794922e+01 6.402131000999418120e-01
3.072339078783988953e+01 -1.958850383758544922e+01 6.509552875999418120e-01
2.286682340502738953e+01 -1.639477825164794922e+01 6.058808247093168120e-01
3.468872281908988953e+01 -2.568237590789794922e+01 1.046783534670254312e+00
2.258044645190238953e+01 -1.543017864227294922e+01 5.752564350608793120e-01
2.460901090502738953e+01 -1.666540813446044922e+01 6.415253559593168120e-01
3.438098356127738953e+01 -2.379162883758544922e+01 9.913330952171293120e-01
2.977783414721488953e+01 -1.979834270477294922e+01 8.099976459983793120e-01
3.511450406908988953e+01 -2.328027629852294922e+01 9.914093891624418120e-01
3.070691129565238953e+01 -1.957458782196044922e+01 8.206940571311918120e-01
2.286926481127738953e+01 -1.639502239227294922e+01 7.387085834983793120e-01
3.552832242846488953e+01 -2.636548137664794922e+01 1.284622279787441812e+00
2.249890348315238953e+01 -1.536316204071044922e+01 7.006684223655668120e-01
2.460193082690238953e+01 -1.665796184539794922e+01 7.810364643577543120e-01
3.841882535815238953e+01 -2.689099407196044922e+01 1.358917323732754312e+00
2.977026578783988953e+01 -1.979053020477294922e+01 9.771424213890043120e-01
3.507507535815238953e+01 -2.324890422821044922e+01 1.185440150881191812e+00
3.069043180346488953e+01 -1.956054973602294922e+01 9.902344624046293120e-01
9.211672037839889526e+00 -4.069582939147949219e+00 -8.126830180641206880e-01
9.275636881589889526e+00 -3.986819267272949219e+00 -8.138121684547456880e-01
9.335573405027389526e+00 -3.901247978210449219e+00 -8.149108012672456880e-01
9.395876139402389526e+00 -3.815310478210449219e+00 -8.160399516578706880e-01
9.455812662839889526e+00 -3.729617118835449219e+00 -8.171385844703706880e-01
9.515871256589889526e+00 -3.643923759460449219e+00 -8.182524760719331880e-01
9.576173990964889526e+00 -3.557864189147949219e+00 -8.193663676734956880e-01
9.631960123777389526e+00 -3.469363212585449219e+00 -8.204802592750581880e-01
1.003759977221488953e+01 -4.665896415710449219e+00 -8.144682963844331880e-01
1.010351774096488953e+01 -4.572268486022949219e+00 -8.156889995094331880e-01
1.017431852221488953e+01 -4.481814384460449219e+00 -8.169249614234956880e-01
1.024048063158988953e+01 -4.387698173522949219e+00 -8.181456645484956880e-01
1.030652067065238953e+01 -4.293826103210449219e+00 -8.193663676734956880e-01
1.037256070971488953e+01 -4.199831962585449219e+00 -8.205870707984956880e-01
1.043384000658988953e+01 -4.102419853210449219e+00 -8.217925151344331880e-01
1.049988004565238953e+01 -4.008425712585449219e+00 -8.230132182594331880e-01
1.104089567065238953e+01 -5.390627861022949219e+00 -8.166503032203706880e-01
1.110840055346488953e+01 -5.282961845397949219e+00 -8.176879008766206880e-01
1.115686246752738953e+01 -5.162112236022949219e+00 -8.176879008766206880e-01
1.120532438158988953e+01 -5.041506767272949219e+00 -8.176879008766206880e-01
1.126416227221488953e+01 -4.928835868835449219e+00 -8.182677348609956880e-01
1.132763883471488953e+01 -4.819582939147949219e+00 -8.190917094703706880e-01
1.139111539721488953e+01 -4.710085868835449219e+00 -8.199309428688081880e-01
1.145446988940238953e+01 -4.601077079772949219e+00 -8.207549174781831880e-01
1.224646207690238953e+01 -6.261233329772949219e+00 -8.177336772438081880e-01
1.230493375658988953e+01 -6.129031181335449219e+00 -8.177336772438081880e-01
1.235815641283988953e+01 -5.993777275085449219e+00 -8.178252299781831880e-01
1.242859098315238953e+01 -5.870364189147949219e+00 -8.187712749000581880e-01
1.249878141283988953e+01 -5.747683525085449219e+00 -8.197020610328706880e-01
1.256884977221488953e+01 -5.625124931335449219e+00 -8.206481059547456880e-01
1.263904020190238953e+01 -5.502322196960449219e+00 -8.215788920875581880e-01
1.270227262377738953e+01 -5.375979423522949219e+00 -8.225401957984956880e-01
1.374951383471488953e+01 -7.346682548522949219e+00 -8.178099711891206880e-01
1.380578824877738953e+01 -7.190310478210449219e+00 -8.179015239234956880e-01
1.387109586596488953e+01 -7.041140556335449219e+00 -8.184050639625581880e-01
1.395788785815238953e+01 -6.906741142272949219e+00 -8.198241313453706880e-01
1.405090543627738953e+01 -6.777102470397949219e+00 -8.215331157203706880e-01
1.414404508471488953e+01 -6.647341728210449219e+00 -8.232268413063081880e-01
1.423742887377738953e+01 -6.516970634460449219e+00 -8.249358256813081880e-01
1.433056852221488953e+01 -6.387087821960449219e+00 -8.266448100563081880e-01
1.589160367846488953e+01 -8.893801689147949219e+00 -8.255461772438081880e-01
1.596069547533988953e+01 -8.714236259460449219e+00 -8.255461772438081880e-01
1.601721403002738953e+01 -8.527102470397949219e+00 -8.255461772438081880e-01
1.420117399096488953e+01 -7.070803642272949219e+00 -7.551573832984956880e-01
1.456006070971488953e+01 -7.114138603210449219e+00 -7.667540629859956880e-01
1.627905485033988953e+01 -8.032839775085449219e+00 -8.290404399391206880e-01
1.635559293627738953e+01 -7.861697196960449219e+00 -8.298186381813081880e-01
1.640979215502738953e+01 -7.678225517272949219e+00 -8.302306254859956880e-01
1.903576871752738953e+01 -1.116467571258544922e+01 -8.409575541969331880e-01
1.909460660815238953e+01 -1.093054485321044922e+01 -8.409575541969331880e-01
1.915295621752738953e+01 -1.069812297821044922e+01 -8.409575541969331880e-01
1.414709684252738953e+01 -7.033328056335449219e+00 -6.786650737281831880e-01
1.456262418627738953e+01 -7.114871025085449219e+00 -6.905974467750581880e-01
1.917651578783988953e+01 -9.913210868835449219e+00 -8.361968120094331880e-01
1.666736051440238953e+01 -8.058718681335449219e+00 -7.547301372047456880e-01
1.932446500658988953e+01 -9.488162040710449219e+00 -8.373259624000581880e-01
2.016821500658988953e+01 -1.198157024383544922e+01 -7.675780375953706880e-01
2.756811735033988953e+01 -1.692395305633544922e+01 -9.633940776344331880e-01
2.345385953783988953e+01 -1.367578411102294922e+01 -8.516692241188081880e-01
1.412072965502738953e+01 -7.014529228210449219e+00 -6.031188090797456880e-01
1.441357633471488953e+01 -7.015139579772949219e+00 -6.100157817359956880e-01
1.447790738940238953e+01 -6.861575126647949219e+00 -6.108702739234956880e-01
1.454223844408988953e+01 -6.708132743835449219e+00 -6.121214946266206880e-01
1.460608121752738953e+01 -6.555911064147949219e+00 -6.129759868141206880e-01
2.016894742846488953e+01 -1.198071575164794922e+01 -6.569823344703706880e-01
2.955407926440238953e+01 -1.832702922821044922e+01 -8.534545024391206880e-01
3.055334684252738953e+01 -1.859106731414794922e+01 -8.736418803688081880e-01
1.411218473315238953e+01 -7.007937431335449219e+00 -5.286406596656831880e-01
1.442053434252738953e+01 -7.018923759460449219e+00 -5.347594340797456880e-01
1.480053922533988953e+01 -7.070193290710449219e+00 -5.423430522438081880e-01
1.469507047533988953e+01 -6.804446220397949219e+00 -5.397948344703706880e-01
1.475097867846488953e+01 -6.645022392272949219e+00 -5.406188090797456880e-01
2.016967985033988953e+01 -1.197986125946044922e+01 -5.469969829078706880e-01
3.157568570971488953e+01 -1.975500774383544922e+01 -7.225798686500581880e-01
3.038684293627738953e+01 -1.847387981414794922e+01 -7.046507915016206880e-01
1.350915738940238953e+01 -6.598269462585449219e+00 -4.451293071266206880e-01
1.355908414721488953e+01 -6.446536064147949219e+00 -4.460448344703706880e-01
1.361328336596488953e+01 -6.298708915710449219e+00 -4.470213969703706880e-01
1.367309781908988953e+01 -6.154543876647949219e+00 -4.480895122047456880e-01
1.373291227221488953e+01 -6.011843681335449219e+00 -4.491576274391206880e-01
2.017041227221488953e+01 -1.197900676727294922e+01 -4.364317973609956880e-01
2.966125699877738953e+01 -1.839892864227294922e+01 -5.297545512672456880e-01
3.208203336596488953e+01 -1.964575481414794922e+01 -5.548552592750581880e-01
1.347937223315238953e+01 -6.577273368835449219e+00 -3.735808452125581880e-01
1.352990934252738953e+01 -6.426394462585449219e+00 -3.746947368141206880e-01
1.358386442065238953e+01 -6.278811454772949219e+00 -3.758391459938081880e-01
1.367419645190238953e+01 -6.154543876647949219e+00 -3.773497661109956880e-01
1.373413297533988953e+01 -6.011843681335449219e+00 -3.785552104469331880e-01
2.017114469408988953e+01 -1.197827434539794922e+01 -3.264617045875581880e-01
2.971496793627738953e+01 -1.843493938446044922e+01 -3.674620707984956880e-01
2.979541227221488953e+01 -1.806054973602294922e+01 -3.703459819313081880e-01
1.346435758471488953e+01 -6.566287040710449219e+00 -3.028105815406831880e-01
1.351440641283988953e+01 -6.415408134460449219e+00 -3.041228374000581880e-01
1.356738492846488953e+01 -6.267336845397949219e+00 -3.054350932594331880e-01
1.362353727221488953e+01 -6.121584892272949219e+00 -3.067626079078706880e-01
1.368261930346488953e+01 -5.979128837585449219e+00 -3.080901225563081880e-01
2.017187711596488953e+01 -1.197741985321044922e+01 -2.159117778297456880e-01
2.976916715502738953e+01 -1.847131633758544922e+01 -2.037352641578706880e-01
2.149072477221488953e+01 -1.230932903289794922e+01 -2.196044047828706880e-01
1.358850309252738953e+01 -6.649538993835449219e+00 -2.320403178688081880e-01
1.363904020190238953e+01 -6.497195243835449219e+00 -2.335661967750581880e-01
1.369336149096488953e+01 -6.348269462585449219e+00 -2.350615581031831880e-01
1.375122281908988953e+01 -6.201907157897949219e+00 -2.361907084938081880e-01
1.381079313158988953e+01 -6.057986259460449219e+00 -2.376708110328706880e-01
1.977404996752738953e+01 -1.168884563446044922e+01 -1.088713725563081880e-01
2.057739469408988953e+01 -1.197033977508544922e+01 -1.062926372047456880e-01
2.138989469408988953e+01 -1.223816204071044922e+01 -1.038817485328706880e-01
1.359448453783988953e+01 -6.652834892272949219e+00 -1.603392680641206880e-01
1.364258024096488953e+01 -6.498782157897949219e+00 -1.620635112281831880e-01
1.369653531908988953e+01 -6.349490165710449219e+00 -1.637419780250581880e-01
1.375342008471488953e+01 -6.202517509460449219e+00 -1.654051860328706880e-01
1.381189176440238953e+01 -6.057864189147949219e+00 -1.670378764625581880e-01
1.973877164721488953e+01 -1.166211223602294922e+01 -1.068027829745687995e-03
2.051379606127738953e+01 -1.192395305633544922e+01 4.348842287441812005e-03
2.131530973315238953e+01 -1.218518352508544922e+01 1.042184033431681200e-02
1.363916227221488953e+01 -6.682253837585449219e+00 -8.848563036880818800e-02
1.364782926440238953e+01 -6.501345634460449219e+00 -9.091177782974568800e-02
1.370166227221488953e+01 -6.352053642272949219e+00 -9.275809130630818800e-02
1.375854703783988953e+01 -6.204958915710449219e+00 -9.458914599380818800e-02
1.381714078783988953e+01 -6.060305595397949219e+00 -9.597769579849568800e-02
3.075659391283988953e+01 -1.961511516571044922e+01 3.116761127952543120e-01
3.179321500658988953e+01 -1.989636516571044922e+01 3.234558979515043120e-01
3.479748746752738953e+01 -2.151477336883544922e+01 3.705445209983793120e-01
1.364465543627738953e+01 -6.685183525085449219e+00 -1.644888720474568800e-02
1.365490934252738953e+01 -6.505373954772949219e+00 -1.928702197037068800e-02
1.370874235033988953e+01 -6.355959892272949219e+00 -2.131644091568318800e-02
1.376562711596488953e+01 -6.208743095397949219e+00 -2.330008349380818800e-02
1.382409879565238953e+01 -6.063845634460449219e+00 -2.523794970474568800e-02
3.074011442065238953e+01 -1.960107707977294922e+01 4.818573872093168120e-01
3.181274625658988953e+01 -1.990808391571044922e+01 4.982605854515043120e-01
3.518921110033988953e+01 -2.178357219696044922e+01 5.697327534202543120e-01
1.361682340502738953e+01 -6.665408134460449219e+00 5.445870556869181200e-02
1.366613981127738953e+01 -6.511965751647949219e+00 5.212411084212931200e-02
1.371948453783988953e+01 -6.362063407897949219e+00 4.989632763900431200e-02
1.377575895190238953e+01 -6.214358329772949219e+00 4.774483838119181200e-02
1.383374235033988953e+01 -6.069094657897949219e+00 4.602059521712931200e-02
3.072363492846488953e+01 -1.958716106414794922e+01 6.509095112327543120e-01
3.426513883471488953e+01 -2.163916301727294922e+01 7.462922016624418120e-01
3.441882535815238953e+01 -2.124817180633544922e+01 7.402192036155668120e-01
3.479321500658988953e+01 -2.100708293914794922e+01 7.405548969749418120e-01
3.415246793627738953e+01 -2.009057903289794922e+01 7.117157856468168120e-01
1.444983121752738953e+01 -6.834963798522949219e+00 1.420288959983793120e-01
1.449988004565238953e+01 -6.672976493835449219e+00 1.393128315452543120e-01
1.454870817065238953e+01 -6.512087821960449219e+00 1.366120258811918120e-01
3.070715543627738953e+01 -1.957312297821044922e+01 8.206635395530668120e-01
3.476294156908988953e+01 -2.198877239227294922e+01 9.529877583030668120e-01
3.463476774096488953e+01 -2.139538860321044922e+01 9.354706684593168120e-01
4.439489957690238953e+01 -2.750744915008544922e+01 1.260757533693691812e+00
