1.078507113456726074e+01 -1.925814425945281982e+01 -1.416041664779186249e-01
1.101883578300476074e+01 -1.932650363445281982e+01 -1.498896889388561249e-01
1.130667757987976074e+01 -1.948897922039031982e+01 -1.608302406966686249e-01
1.156021761894226074e+01 -1.957931125164031982e+01 -1.699855141341686249e-01
1.181778597831726074e+01 -1.967110812664031982e+01 -1.792781166732311249e-01
7.142737150192260742e+00 -1.124679172039031982e+01 5.265547707676887512e-02
1.082022738456726074e+01 -2.009103000164031982e+01 -5.147049948573112488e-02
1.106925082206726074e+01 -2.018282687664031982e+01 -5.957291647791862488e-02
1.131961703300476074e+01 -2.027010715007781982e+01 -6.767533347010612488e-02
1.155679965019226074e+01 -2.032467257976531982e+01 -7.521317526698112488e-02
1.179678988456726074e+01 -2.037997043132781982e+01 -8.284256979823112488e-02
1.216373324394226074e+01 -2.065633761882781982e+01 -9.553788229823112488e-02
1.249368929862976074e+01 -2.085457980632781982e+01 -1.066767983138561249e-01
7.143835783004760742e+00 -1.124593722820281982e+01 1.083500571548938751e-01
1.120950961112976074e+01 -2.085702121257781982e+01 3.556563332676887512e-02
1.149429965019226074e+01 -2.100265109539031982e+01 2.729536965489387512e-02
1.179215121269226074e+01 -2.116378390789031982e+01 1.920821145176887512e-02
1.209622836112976074e+01 -2.132503879070281982e+01 1.037337258458137512e-02
1.238944125175476074e+01 -2.145797336101531982e+01 1.889485865831375122e-03
1.266202425956726074e+01 -2.154391086101531982e+01 -5.938272923231124878e-03
1.302103304862976074e+01 -2.177633273601531982e+01 -1.701615378260612488e-02
7.144812345504760742e+00 -1.124496066570281982e+01 1.637242026627063751e-01
1.159683871269226074e+01 -2.161861789226531982e+01 1.311009116470813751e-01
1.191373324394226074e+01 -2.181100070476531982e+01 1.233341880142688751e-01
1.223721957206726074e+01 -2.200460422039031982e+01 1.153996177017688751e-01
1.255081820487976074e+01 -2.216695773601531982e+01 1.076328940689563751e-01
1.286466097831726074e+01 -2.232101047039031982e+01 9.985091164708137512e-02
1.318704867362976074e+01 -2.247921359539031982e+01 9.184004738926887512e-02
1.349075961112976074e+01 -2.259627902507781982e+01 8.421065285801887512e-02
7.145910978317260742e+00 -1.124410617351531982e+01 2.194035239517688751e-01
1.199661898612976074e+01 -2.240426242351531982e+01 2.337773032486438751e-01
1.231156039237976074e+01 -2.257699191570281982e+01 2.273838706314563751e-01
1.263455843925476074e+01 -2.275411593914031982e+01 2.208378501236438751e-01
1.296695590019226074e+01 -2.293648898601531982e+01 2.141087241470813751e-01
1.330142855644226074e+01 -2.311312472820281982e+01 2.072727866470813751e-01
1.363577914237976074e+01 -2.327743136882781982e+01 2.003758139908313751e-01
1.397269320487976074e+01 -2.343722140789031982e+01 1.933720298111438751e-01
7.146887540817260742e+00 -1.124325168132781982e+01 2.747929282486438751e-01
1.239139437675476074e+01 -2.317989718914031982e+01 3.451359458267688751e-01
1.272293734550476074e+01 -2.336898410320281982e+01 3.399632163345813751e-01
1.305289340019226074e+01 -2.354342257976531982e+01 3.346531577408313751e-01
1.338834261894226074e+01 -2.371554172039031982e+01 3.292210288345813751e-01
1.373074984550476074e+01 -2.389120090007781982e+01 3.236515708267688751e-01
1.406705355644226074e+01 -2.404366672039031982e+01 3.179905600845813751e-01
1.431375765800476074e+01 -2.403036105632781982e+01 3.124668784439563751e-01
7.147986173629760742e+00 -1.124227511882781982e+01 3.304569907486438751e-01
1.279825472831726074e+01 -2.397884738445281982e+01 4.639866538345813751e-01
1.313284945487976074e+01 -2.415743625164031982e+01 4.600956626236438751e-01
1.340799593925476074e+01 -2.421175754070281982e+01 4.555027671158313751e-01
1.363651156425476074e+01 -2.417159640789031982e+01 4.504368491470813751e-01
1.367716097831726074e+01 -2.378731906414031982e+01 4.439366050064563751e-01
1.420255160331726074e+01 -2.428023898601531982e+01 4.409611411392688751e-01
1.431937289237976074e+01 -2.403414523601531982e+01 4.350254721939563751e-01
7.148962736129760742e+00 -1.124142062664031982e+01 3.858311362564563751e-01
1.321866488456726074e+01 -2.480428683757781982e+01 5.919926352798938751e-01
1.341739535331726074e+01 -2.470260226726531982e+01 5.866215415298938751e-01
1.335001254081726074e+01 -2.409542453289031982e+01 5.756809897720813751e-01
1.419998812675476074e+01 -2.521444308757781982e+01 5.819828696548938751e-01
1.380509066581726074e+01 -2.401473605632781982e+01 5.662510581314563751e-01
1.420340609550476074e+01 -2.427572238445281982e+01 5.642368979752063751e-01
1.442618441581726074e+01 -2.421566379070281982e+01 5.598881430923938751e-01
7.150061368942260742e+00 -1.124056613445281982e+01 4.414951987564563751e-01
1.363992953300476074e+01 -2.563082492351531982e+01 7.278416343033313751e-01
1.377200961112976074e+01 -2.538338840007781982e+01 7.201664634048938751e-01
1.402200961112976074e+01 -2.536519992351531982e+01 7.159550376236438751e-01
1.434500765800476074e+01 -2.547774875164031982e+01 7.136204428970813751e-01
1.450345492362976074e+01 -2.528304660320281982e+01 7.067539878189563751e-01
1.514041781425476074e+01 -2.594601047039031982e+01 7.122624106705188751e-01
1.515994906425476074e+01 -2.549740207195281982e+01 7.016880698502063751e-01
7.151037931442260742e+00 -1.123971164226531982e+01 4.968540854752063751e-01
5.668371915817260742e+00 -9.860805392265319824e+00 5.346501059830188751e-01
5.838049650192260742e+00 -1.000558078289031982e+01 5.360996909439563751e-01
6.014441251754760742e+00 -1.015597140789031982e+01 5.378544516861438751e-01
6.199011564254760742e+00 -1.031319797039031982e+01 5.396855063736438751e-01
6.391028165817260742e+00 -1.047677218914031982e+01 5.415928550064563751e-01
6.592322111129760742e+00 -1.064828097820281982e+01 5.435917563736438751e-01
6.801916837692260742e+00 -1.082686984539031982e+01 5.456669516861438751e-01
7.021033048629760742e+00 -1.101314914226531982e+01 5.481236167252063751e-01
5.621618986129760742e+00 -9.765834689140319824e+00 5.788090415298938751e-01
5.788244962692260742e+00 -9.906581759452819824e+00 5.813725180923938751e-01
5.961706876754760742e+00 -1.005331027507781982e+01 5.840428061783313751e-01
6.143103361129760742e+00 -1.020663058757781982e+01 5.868199057877063751e-01
6.331701993942260742e+00 -1.036605441570281982e+01 5.897190757095813751e-01
6.533850431442260742e+00 -1.054110324382781982e+01 5.929691977798938751e-01
6.751013517379760742e+00 -1.073495090007781982e+01 5.966313071548938751e-01
6.979162931442260742e+00 -1.093856418132781982e+01 6.004612632095813751e-01
5.634192228317260742e+00 -9.788173556327819824e+00 6.258366294205188751e-01
5.809607267379760742e+00 -9.945522189140319824e+00 6.295902915298938751e-01
5.993201017379760742e+00 -1.011056125164031982e+01 6.337864585220813751e-01
6.185950040817260742e+00 -1.028377902507781982e+01 6.381809897720813751e-01
6.387243986129760742e+00 -1.046468722820281982e+01 6.427738852798938751e-01
6.598913908004760742e+00 -1.065487277507781982e+01 6.476109214127063751e-01
6.820349454879760742e+00 -1.085396945476531982e+01 6.526768393814563751e-01
7.053503751754760742e+00 -1.106380832195281982e+01 6.583073325455188751e-01
5.673498868942260742e+00 -9.863368868827819824e+00 6.747563071548938751e-01
5.840979337692260742e+00 -1.000374972820281982e+01 6.791508384048938751e-01
6.015173673629760742e+00 -1.014974582195281982e+01 6.837437339127063751e-01
6.197302579879760742e+00 -1.030233371257781982e+01 6.885349936783313751e-01
6.386511564254760742e+00 -1.046090304851531982e+01 6.935093589127063751e-01
6.584631681442260742e+00 -1.062691867351531982e+01 6.987126059830188751e-01
6.790930509567260742e+00 -1.079977023601531982e+01 7.041447348892688751e-01
7.006506681442260742e+00 -1.098043429851531982e+01 7.098210044205188751e-01
5.635046720504760742e+00 -9.784999728202819824e+00 7.183964438736438751e-01
5.800329923629760742e+00 -9.922450900077819824e+00 7.236302085220813751e-01
5.972204923629760742e+00 -1.006551730632781982e+01 7.290623374283313751e-01
6.152014493942260742e+00 -1.021554172039031982e+01 7.345097251236438751e-01
6.338537931442260742e+00 -1.037081515789031982e+01 7.403996177017688751e-01
6.549475431442260742e+00 -1.056148898601531982e+01 7.479984946548938751e-01
6.774573087692260742e+00 -1.076852023601531982e+01 7.559788413345813751e-01
7.011633634567260742e+00 -1.098665988445281982e+01 7.643711753189563751e-01
5.633948087692260742e+00 -9.780116915702819824e+00 7.646305747330188751e-01
5.814368009567260742e+00 -9.947231173515319824e+00 7.718937583267688751e-01
6.003699064254760742e+00 -1.012289035320281982e+01 7.797825522720813751e-01
6.202917814254760742e+00 -1.030770480632781982e+01 7.880833335220813751e-01
6.411413908004760742e+00 -1.050118625164031982e+01 7.967808432877063751e-01
6.631384611129760742e+00 -1.070516574382781982e+01 8.059513755142688751e-01
1.469071078300476074e+01 -2.463680636882781982e+01 1.446286458522081375e+00
1.912222933769226074e+01 -3.180172336101531982e+01 1.775891561061143875e+00
6.342566251754760742e+00 -9.877284884452819824e+00 -1.497676186263561249e-01
6.416540861129760742e+00 -9.831264376640319824e+00 -1.515986733138561249e-01
6.488074064254760742e+00 -9.781093478202819824e+00 -1.534602455794811249e-01
6.559729337692260742e+00 -9.730678439140319824e+00 -1.553218178451061249e-01
6.631018400192260742e+00 -9.680629611015319824e+00 -1.571681313216686249e-01
6.702551603317260742e+00 -9.630458712577819824e+00 -1.590297035872936249e-01
6.773718595504760742e+00 -9.580409884452819824e+00 -1.608760170638561249e-01
6.842200040817260742e+00 -9.526454806327819824e+00 -1.627375893294811249e-01
6.870154142379760742e+00 -1.078597629070281982e+01 -1.465174965560436249e-01
6.965979337692260742e+00 -1.075973117351531982e+01 -1.500422768294811249e-01
7.062292814254760742e+00 -1.073348605632781982e+01 -1.535823158919811249e-01
7.142737150192260742e+00 -1.067989718914031982e+01 -1.554896645247936249e-01
7.216101408004760742e+00 -1.061544406414031982e+01 -1.570918373763561249e-01
7.285803556442260742e+00 -1.054525363445281982e+01 -1.586940102279186249e-01
7.358679533004760742e+00 -1.048128879070281982e+01 -1.602961830794811249e-01
7.431311368942260742e+00 -1.041744601726531982e+01 -1.618830971419811249e-01
7.139807462692260742e+00 -1.124911105632781982e+01 -1.138331703841686249e-01
7.531653165817260742e+00 -1.171541965007781982e+01 -1.394984535872936249e-01
7.640906095504760742e+00 -1.169283664226531982e+01 -1.435115151107311249e-01
7.751257658004760742e+00 -1.167013156414031982e+01 -1.475703530013561249e-01
7.861975431442260742e+00 -1.164730441570281982e+01 -1.516444496810436249e-01
7.972937345504760742e+00 -1.162301242351531982e+01 -1.557032875716686249e-01
8.044714689254760742e+00 -1.153780734539031982e+01 -1.568934731185436249e-01
8.116125822067260742e+00 -1.145309054851531982e+01 -1.580836586654186249e-01
7.140906095504760742e+00 -1.124813449382781982e+01 -5.842850729823112488e-02
8.223425626754760742e+00 -1.288412082195281982e+01 -1.271235756576061249e-01
8.321936368942260742e+00 -1.282162082195281982e+01 -1.298854164779186249e-01
8.446081876754760742e+00 -1.280038058757781982e+01 -1.343257240951061249e-01
8.570715665817260742e+00 -1.277914035320281982e+01 -1.387812905013561249e-01
8.696570158004760742e+00 -1.275765597820281982e+01 -1.432826332747936249e-01
8.822790861129760742e+00 -1.273604953289031982e+01 -1.477992348372936249e-01
8.945593595504760742e+00 -1.270760715007781982e+01 -1.524226479232311249e-01
7.141882658004760742e+00 -1.124728000164031982e+01 -2.733927220106124878e-03
1.161478304862976074e+01 -1.862240207195281982e+01 -2.584559731185436249e-01
1.181729769706726074e+01 -1.862557590007781982e+01 -2.658259682357311249e-01
1.202261996269226074e+01 -1.862874972820281982e+01 -2.732875160872936249e-01
1.222940707206726074e+01 -1.863192355632781982e+01 -2.808100990951061249e-01
1.000821566581726074e+01 -1.481576144695281982e+01 -1.518733315169811249e-01
1.006693148612976074e+01 -1.465255343914031982e+01 -1.519191078841686249e-01
1.012491488456726074e+01 -1.449154269695281982e+01 -1.519648842513561249e-01
7.142981290817260742e+00 -1.124642550945281982e+01 5.265547707676887512e-02
1.230289340019226074e+01 -1.978255832195281982e+01 -1.964137367904186249e-01
1.247733187675476074e+01 -1.971737277507781982e+01 -2.017237953841686249e-01
1.272916293144226074e+01 -1.977596652507781982e+01 -2.107417397201061249e-01
1.301492953300476074e+01 -1.988436496257781982e+01 -2.213465981185436249e-01
1.328543734550476074e+01 -1.996017062664031982e+01 -2.311427406966686249e-01
1.351883578300476074e+01 -1.997347629070281982e+01 -2.391383461654186249e-01
1.375003695487976074e+01 -1.997945773601531982e+01 -2.475611977279186249e-01
7.143957853317260742e+00 -1.124557101726531982e+01 1.083347983658313751e-01
1.305692172050476074e+01 -2.105367648601531982e+01 -1.251246742904186249e-01
1.337723422050476074e+01 -2.120687472820281982e+01 -1.359126381576061249e-01
1.369010043144226074e+01 -2.133712375164031982e+01 -1.463649086654186249e-01
1.397305941581726074e+01 -2.141244113445281982e+01 -1.555964760482311249e-01
1.426224398612976074e+01 -2.148934543132781982e+01 -1.650416664779186249e-01
1.452957797050476074e+01 -2.152730929851531982e+01 -1.736018471419811249e-01
1.484891390800476074e+01 -2.163888156414031982e+01 -1.841609291732311249e-01
7.145056486129760742e+00 -1.124459445476531982e+01 1.637242026627063751e-01
1.366104769706726074e+01 -2.207040011882781982e+01 -3.569291159510612488e-02
1.395877718925476074e+01 -2.216707980632781982e+01 -4.379532858729362488e-02
1.430899691581726074e+01 -2.234041965007781982e+01 -5.409501120448112488e-02
1.467142367362976074e+01 -2.252413547039031982e+01 -6.474564597010612488e-02
1.504520297050476074e+01 -2.271358859539031982e+01 -7.573197409510612488e-02
1.536466097831726074e+01 -2.280978000164031982e+01 -8.571122214198112488e-02
1.573758578300476074e+01 -2.297945773601531982e+01 -9.666703268885612488e-02
7.146033048629760742e+00 -1.124373996257781982e+01 2.194035239517688751e-01
1.419791293144226074e+01 -2.297298800945281982e+01 6.666304543614387512e-02
1.453409457206726074e+01 -2.311654269695281982e+01 5.817915871739387512e-02
1.465994906425476074e+01 -2.290670382976531982e+01 5.422713235020637512e-02
1.497183871269226074e+01 -2.299911105632781982e+01 4.623152688145637512e-02
1.561575961112976074e+01 -2.360396945476531982e+01 3.092696145176887512e-02
1.600101351737976074e+01 -2.378536593914031982e+01 2.125288918614387512e-02
1.638492465019226074e+01 -2.395394504070281982e+01 1.157881692051887512e-02
7.147131681442260742e+00 -1.124288547039031982e+01 2.747776694595813751e-01
1.466666293144226074e+01 -2.375985324382781982e+01 1.788914389908313751e-01
1.499893832206726074e+01 -2.388228976726531982e+01 1.717198081314563751e-01
1.478702425956726074e+01 -2.310811984539031982e+01 1.715672202408313751e-01
1.546304965019226074e+01 -2.377901828289031982e+01 1.598484702408313751e-01
1.616312289237976074e+01 -2.445724093914031982e+01 1.476109214127063751e-01
1.620352816581726074e+01 -2.409188449382781982e+01 1.441471762955188751e-01
1.628519320487976074e+01 -2.379745090007781982e+01 1.401798911392688751e-01
7.148108243942260742e+00 -1.124190890789031982e+01 3.304569907486438751e-01
1.481900668144226074e+01 -2.401156222820281982e+01 3.012974448502063751e-01
1.461124300956726074e+01 -2.323336398601531982e+01 2.974522300064563751e-01
1.474271273612976074e+01 -2.303036105632781982e+01 2.924320884048938751e-01
1.474429965019226074e+01 -2.262459933757781982e+01 2.880528159439563751e-01
1.510343050956726074e+01 -2.278902804851531982e+01 2.820408530533313751e-01
1.531925082206726074e+01 -2.272396457195281982e+01 2.766697593033313751e-01
1.639053988456726074e+01 -2.395138156414031982e+01 2.666447348892688751e-01
7.149206876754760742e+00 -1.124105441570281982e+01 3.858158774673938751e-01
1.481668734550476074e+01 -2.400179660320281982e+01 4.249088950455188751e-01
1.461466097831726074e+01 -2.323336398601531982e+01 4.175541587173938751e-01
1.479630160331726074e+01 -2.311214816570281982e+01 4.122898764908313751e-01
1.471036410331726074e+01 -2.256515109539031982e+01 4.059422202408313751e-01
1.562772250175476074e+01 -2.360616672039031982e+01 4.035160727798938751e-01
1.528287386894226074e+01 -2.266268527507781982e+01 3.963597007095813751e-01
1.667508578300476074e+01 -2.437643039226531982e+01 3.946354575455188751e-01
7.150183439254760742e+00 -1.124019992351531982e+01 4.414799399673938751e-01
1.574820590019226074e+01 -2.556978976726531982e+01 5.626194663345813751e-01
1.461051058769226074e+01 -2.322091281414031982e+01 5.375645346939563751e-01
1.470816683769226074e+01 -2.296334445476531982e+01 5.311558432877063751e-01
1.494144320487976074e+01 -2.292892062664031982e+01 5.265934653580188751e-01
1.583133578300476074e+01 -2.391976535320281982e+01 5.299656577408313751e-01
1.578421664237976074e+01 -2.342940890789031982e+01 5.223515219986438751e-01
1.668241000175476074e+01 -2.438180148601531982e+01 5.249149985611438751e-01
7.151282072067260742e+00 -1.123922336101531982e+01 4.968388266861438751e-01
1.488138461112976074e+01 -2.409933078289031982e+01 6.741154380142688751e-01
1.449576449394226074e+01 -2.302523410320281982e+01 6.555607505142688751e-01
1.471158480644226074e+01 -2.296322238445281982e+01 6.510746665298938751e-01
1.494290804862976074e+01 -2.292574679851531982e+01 6.469090171158313751e-01
1.604605746269226074e+01 -2.425082004070281982e+01 6.607639975845813751e-01
1.606766390800476074e+01 -2.386031711101531982e+01 6.516850180923938751e-01
1.595596957206726074e+01 -2.327779757976531982e+01 6.402256675064563751e-01
7.022253751754760742e+00 -1.101461398601531982e+01 5.481541343033313751e-01
7.252600431442260742e+00 -1.121114718914031982e+01 5.502751059830188751e-01
7.478186368942260742e+00 -1.139046847820281982e+01 5.523045249283313751e-01
7.713171720504760742e+00 -1.157564914226531982e+01 5.543644614517688751e-01
7.958044767379760742e+00 -1.176876437664031982e+01 5.565159507095813751e-01
8.215491056442260742e+00 -1.197164523601531982e+01 5.587742514908313751e-01
8.484534025192260742e+00 -1.218380343914031982e+01 5.611393637955188751e-01
8.766394376754760742e+00 -1.240560519695281982e+01 5.639469809830188751e-01
6.980505704879760742e+00 -1.094027316570281982e+01 6.005070395767688751e-01
7.220862150192260742e+00 -1.115487277507781982e+01 6.047032065689563751e-01
7.459875822067260742e+00 -1.135738742351531982e+01 6.085484214127063751e-01
7.705603361129760742e+00 -1.156075656414031982e+01 6.123478598892688751e-01
7.962805509567260742e+00 -1.177364718914031982e+01 6.163304038345813751e-01
8.234167814254760742e+00 -1.199825656414031982e+01 6.205418296158313751e-01
8.518957853317260742e+00 -1.223397433757781982e+01 6.249516196548938751e-01
8.819006681442260742e+00 -1.248226535320281982e+01 6.296055503189563751e-01
7.054846525192260742e+00 -1.106539523601531982e+01 6.583531089127063751e-01
7.263708829879760742e+00 -1.122457492351531982e+01 6.619999594986438751e-01
7.517126798629760742e+00 -1.144955050945281982e+01 6.678745932877063751e-01
7.751257658004760742e+00 -1.163228976726531982e+01 6.724522300064563751e-01
7.995276212692260742e+00 -1.182271945476531982e+01 6.772129721939563751e-01
8.251501798629760742e+00 -1.202267062664031982e+01 6.822178550064563751e-01
8.519201993942260742e+00 -1.223153293132781982e+01 6.874363608658313751e-01
8.799475431442260742e+00 -1.245003879070281982e+01 6.932347007095813751e-01
7.007727384567260742e+00 -1.098189914226531982e+01 7.098667807877063751e-01
7.233313322067260742e+00 -1.117074191570281982e+01 7.159855552017688751e-01
7.457190275192260742e+00 -1.134774386882781982e+01 7.216770835220813751e-01
7.687781095504760742e+00 -1.152633273601531982e+01 7.273991294205188751e-01
7.927893400192260742e+00 -1.171248996257781982e+01 7.333500571548938751e-01
8.204138517379760742e+00 -1.194564425945281982e+01 7.409336753189563751e-01
8.495398283004760742e+00 -1.219222629070281982e+01 7.489445395767688751e-01
8.803137540817260742e+00 -1.245260226726531982e+01 7.574131675064563751e-01
7.013098478317260742e+00 -1.098836886882781982e+01 7.644474692642688751e-01
7.263586759567260742e+00 -1.121920382976531982e+01 7.735722251236438751e-01
7.507605314254760742e+00 -1.142855441570281982e+01 7.817967124283313751e-01
7.763220548629760742e+00 -1.164632785320281982e+01 7.900517173111438751e-01
8.031775236129760742e+00 -1.187569797039031982e+01 7.990544028580188751e-01
1.582694125175476074e+01 -2.387923800945281982e+01 1.285550374537706375e+00
1.595267367362976074e+01 -2.365572726726531982e+01 1.275891561061143875e+00
1.605411410331726074e+01 -2.339925754070281982e+01 1.264889974147081375e+00
1.912454867362976074e+01 -3.180355441570281982e+01 1.775983113795518875e+00
1.505484652519226074e+01 -2.435653293132781982e+01 1.432904500514268875e+00
1.530985140800476074e+01 -2.433919894695281982e+01 1.432141561061143875e+00
1.547806429862976074e+01 -2.417538058757781982e+01 1.424649495631456375e+00
1.565762972831726074e+01 -2.403292453289031982e+01 1.418149251490831375e+00
1.633048129081726074e+01 -2.466195285320281982e+01 1.447110433131456375e+00
1.567545199394226074e+01 -2.322408664226531982e+01 1.381055135279893875e+00
1.588407015800476074e+01 -2.313705050945281982e+01 1.377743978053331375e+00
6.842566251754760742e+00 -9.526332736015319824e+00 -1.627681069076061249e-01
6.914099454879760742e+00 -9.477016329765319824e+00 -1.645991615951061249e-01
6.982825040817260742e+00 -9.423671603202819824e+00 -1.664607338607311249e-01
7.051794767379760742e+00 -9.370326876640319824e+00 -1.683375649154186249e-01
7.120398283004760742e+00 -9.316982150077819824e+00 -1.701991371810436249e-01
7.189245939254760742e+00 -9.263637423515319824e+00 -1.720607094466686249e-01
7.257849454879760742e+00 -9.210536837577819824e+00 -1.739222817122936249e-01
7.323401212692260742e+00 -9.153530001640319824e+00 -1.757838539779186249e-01
7.431555509567260742e+00 -1.041720187664031982e+01 -1.618983559310436249e-01
7.501135587692260742e+00 -1.034920871257781982e+01 -1.634852699935436249e-01
7.570593595504760742e+00 -1.028145968914031982e+01 -1.650569252669811249e-01
7.643835783004760742e+00 -1.021908175945281982e+01 -1.666438393294811249e-01
7.712927579879760742e+00 -1.015157687664031982e+01 -1.682154946029186249e-01
7.778235197067260742e+00 -1.007870090007781982e+01 -1.697566322982311249e-01
7.846838712692260742e+00 -1.001156222820281982e+01 -1.713130287826061249e-01
7.915320158004760742e+00 -9.944667696952819824e+00 -1.728694252669811249e-01
8.116369962692260742e+00 -1.145296847820281982e+01 -1.580989174544811249e-01
8.184607267379760742e+00 -1.136446750164031982e+01 -1.592891030013561249e-01
8.252478361129760742e+00 -1.127633273601531982e+01 -1.604792885482311249e-01
8.330847501754760742e+00 -1.120370090007781982e+01 -1.624171547591686249e-01
8.415808439254760742e+00 -1.114144504070281982e+01 -1.648280434310436249e-01
8.501135587692260742e+00 -1.107906711101531982e+01 -1.672694496810436249e-01
8.586096525192260742e+00 -1.101681125164031982e+01 -1.696803383529186249e-01
8.671057462692260742e+00 -1.095467746257781982e+01 -1.721064858138561249e-01
8.946203947067260742e+00 -1.270785129070281982e+01 -1.524531655013561249e-01
9.067175626754760742e+00 -1.267538058757781982e+01 -1.564357094466686249e-01
9.160071134567260742e+00 -1.260091769695281982e+01 -1.589839272201061249e-01
9.253332853317260742e+00 -1.252621066570281982e+01 -1.615474037826061249e-01
9.346106290817260742e+00 -1.245174777507781982e+01 -1.641108803451061249e-01
9.439123868942260742e+00 -1.237716281414031982e+01 -1.666590981185436249e-01
9.531775236129760742e+00 -1.230294406414031982e+01 -1.692073158919811249e-01
9.618933439254760742e+00 -1.222176730632781982e+01 -1.717707924544811249e-01
1.012503695487976074e+01 -1.449081027507781982e+01 -1.519648842513561249e-01
9.318030118942260742e+00 -1.304586398601531982e+01 -1.045558266341686249e-01
1.023660922050476074e+01 -1.417159640789031982e+01 -1.523310951888561249e-01
1.030899691581726074e+01 -1.403927218914031982e+01 -1.534755043685436249e-01
1.044510531425476074e+01 -1.399935519695281982e+01 -1.580836586654186249e-01
1.057291293144226074e+01 -1.394613254070281982e+01 -1.622340492904186249e-01
1.068509554862976074e+01 -1.387142550945281982e+01 -1.655452065169811249e-01
1.079324984550476074e+01 -1.379110324382781982e+01 -1.686274819076061249e-01
1.375125765800476074e+01 -1.998006808757781982e+01 -2.476069740951061249e-01
9.319250822067260742e+00 -1.304488742351531982e+01 -3.650162741541862488e-02
1.423953890800476074e+01 -2.001790988445281982e+01 -2.643306069076061249e-01
1.460147738456726074e+01 -2.019808566570281982e+01 -2.783839516341686249e-01
1.361356234550476074e+01 -1.846517550945281982e+01 -2.299220375716686249e-01
1.194998812675476074e+01 -1.585140597820281982e+01 -1.508052162826061249e-01
1.198892855644226074e+01 -1.564400851726531982e+01 -1.504695229232311249e-01
1.213699984550476074e+01 -1.558675754070281982e+01 -1.555964760482311249e-01
1.485111117362976074e+01 -2.164095675945281982e+01 -1.842372231185436249e-01
9.320471525192260742e+00 -1.304378879070281982e+01 3.118636086583137512e-02
1.554727816581726074e+01 -2.192391574382781982e+01 -2.078425697982311249e-01
1.583341097831726074e+01 -2.196151340007781982e+01 -2.171962074935436249e-01
1.611649203300476074e+01 -2.199044406414031982e+01 -2.264125160872936249e-01
1.644119906425476074e+01 -2.207052218914031982e+01 -2.372004799544811249e-01
1.670670199394226074e+01 -2.206417453289031982e+01 -2.456996254622936249e-01
1.697525668144226074e+01 -2.205770480632781982e+01 -2.542903237044811249e-01
1.573929476737976074e+01 -2.298055636882781982e+01 -9.672806784510612488e-02
9.321814298629760742e+00 -1.304281222820281982e+01 9.885909035801887512e-02
1.641458773612976074e+01 -2.318587863445281982e+01 -1.161067299544811249e-01
1.673160433769226074e+01 -2.324532687664031982e+01 -1.254756264388561249e-01
1.708084750175476074e+01 -2.334505832195281982e+01 -1.358363442122936249e-01
1.703629183769226074e+01 -2.288985812664031982e+01 -1.342341713607311249e-01
1.789151644706726074e+01 -2.367196261882781982e+01 -1.606166176497936249e-01
1.825748324394226074e+01 -2.376827609539031982e+01 -1.714656166732311249e-01
1.638516879081726074e+01 -2.395296847820281982e+01 1.156355813145637512e-02
9.323035001754760742e+00 -1.304171359539031982e+01 1.668980307877063751e-01
1.680130648612976074e+01 -2.374532687664031982e+01 -2.467446029186248779e-04
1.714945101737976074e+01 -2.383956515789031982e+01 -9.295206516981124878e-03
1.723917269706726074e+01 -2.356295382976531982e+01 -1.256058737635612488e-02
1.723953890800476074e+01 -2.316634738445281982e+01 -1.381180807948112488e-02
1.873123812675476074e+01 -2.480965793132781982e+01 -4.869339987635612488e-02
1.914810824394226074e+01 -2.495431125164031982e+01 -5.943558737635612488e-02
1.628372836112976074e+01 -2.379378879070281982e+01 1.401798911392688751e-01
9.324255704879760742e+00 -1.304073703289031982e+01 2.345707602798938751e-01
1.675784945487976074e+01 -2.367647922039031982e+01 1.279118247330188751e-01
1.687235140800476074e+01 -2.343685519695281982e+01 1.234867759048938751e-01
1.731583285331726074e+01 -2.366585910320281982e+01 1.143467612564563751e-01
1.734317660331726074e+01 -2.330477511882781982e+01 1.112034507095813751e-01
1.945755648612976074e+01 -2.579256808757781982e+01 7.716109231114387512e-02
1.992581820487976074e+01 -2.598897922039031982e+01 6.718184426426887512e-02
1.639102816581726074e+01 -2.395064914226531982e+01 2.666142173111438751e-01
9.325476408004760742e+00 -1.303963840007781982e+01 3.026097007095813751e-01
1.671451449394226074e+01 -2.360775363445281982e+01 2.559941001236438751e-01
1.880069613456726074e+01 -2.619662082195281982e+01 2.386295981705188751e-01
1.777078890800476074e+01 -2.430135715007781982e+01 2.406437583267688751e-01
1.746390414237976074e+01 -2.346664035320281982e+01 2.383549399673938751e-01
1.742532992362976074e+01 -2.302230441570281982e+01 2.344639487564563751e-01
1.783072543144226074e+01 -2.318221652507781982e+01 2.274296469986438751e-01
1.667655062675476074e+01 -2.437704074382781982e+01 3.946201987564563751e-01
9.326819181442260742e+00 -1.303866183757781982e+01 3.702671714127063751e-01
1.687039828300476074e+01 -2.383004367351531982e+01 3.830845542252063751e-01
1.763187289237976074e+01 -2.451510226726531982e+01 3.785526938736438751e-01
1.724820590019226074e+01 -2.356002414226531982e+01 3.720524497330188751e-01
1.741446566581726074e+01 -2.339315402507781982e+01 3.665135093033313751e-01
1.742569613456726074e+01 -2.301766574382781982e+01 3.608982749283313751e-01
1.786539340019226074e+01 -2.322347629070281982e+01 3.555424399673938751e-01
1.668387484550476074e+01 -2.438241183757781982e+01 5.248997397720813751e-01
9.328039884567260742e+00 -1.303756320476531982e+01 4.382908530533313751e-01
1.680289340019226074e+01 -2.372616183757781982e+01 5.103581137955188751e-01
2.018399691581726074e+01 -2.816720187664031982e+01 5.359776206314563751e-01
1.725211215019226074e+01 -2.356026828289031982e+01 5.000431723892688751e-01
1.737674593925476074e+01 -2.333565890789031982e+01 4.939396567642688751e-01
2.157852816581726074e+01 -2.865926730632781982e+01 5.230839438736438751e-01
1.799735140800476074e+01 -2.339474093914031982e+01 4.856236167252063751e-01
1.595584750175476074e+01 -2.327621066570281982e+01 6.401951499283313751e-01
9.172034025192260742e+00 -1.280306613445281982e+01 5.029576011002063751e-01
9.491980314254760742e+00 -1.305721652507781982e+01 5.041783042252063751e-01
9.793127775192260742e+00 -1.327218234539031982e+01 5.047886557877063751e-01
1.011441683769226074e+01 -1.350655734539031982e+01 5.055515952408313751e-01
1.045340609550476074e+01 -1.375362765789031982e+01 5.063603110611438751e-01
1.080875277519226074e+01 -1.401266086101531982e+01 5.071995444595813751e-01
1.118302035331726074e+01 -1.428561007976531982e+01 5.080845542252063751e-01
8.768103361129760742e+00 -1.240731418132781982e+01 5.639774985611438751e-01
9.065466642379760742e+00 -1.264205539226531982e+01 5.663883872330188751e-01
9.378088712692260742e+00 -1.288839328289031982e+01 5.692875571548938751e-01
9.686438322067260742e+00 -1.311666476726531982e+01 5.717594809830188751e-01
1.001322054862976074e+01 -1.336117160320281982e+01 5.744602866470813751e-01
1.036234164237976074e+01 -1.362472140789031982e+01 5.773899741470813751e-01
1.072940707206726074e+01 -1.390194308757781982e+01 5.804875083267688751e-01
1.111820101737976074e+01 -1.419588840007781982e+01 5.841801352798938751e-01
8.820837736129760742e+00 -1.248434054851531982e+01 6.296360678970813751e-01
9.138220548629760742e+00 -1.274715793132781982e+01 6.347477622330188751e-01
9.456091642379760742e+00 -1.299911105632781982e+01 6.395085044205188751e-01
9.791296720504760742e+00 -1.326388156414031982e+01 6.445133872330188751e-01
1.011502718925476074e+01 -1.350143039226531982e+01 6.488163657486438751e-01
1.044974398612976074e+01 -1.374264132976531982e+01 6.531346030533313751e-01
1.080032992362976074e+01 -1.399532687664031982e+01 6.576664634048938751e-01
1.116934847831726074e+01 -1.426119601726531982e+01 6.624272055923938751e-01
8.801184415817260742e+00 -1.245174777507781982e+01 6.932804770767688751e-01
9.096350431442260742e+00 -1.268233859539031982e+01 6.989262290298938751e-01
9.406653165817260742e+00 -1.292428195476531982e+01 7.051823325455188751e-01
9.709753751754760742e+00 -1.314425265789031982e+01 7.107670493423938751e-01
1.002200961112976074e+01 -1.336764132976531982e+01 7.164128012955188751e-01
1.036612582206726074e+01 -1.362423312664031982e+01 7.229740805923938751e-01
1.074381136894226074e+01 -1.391561496257781982e+01 7.304966636002063751e-01
1.114481234550476074e+01 -1.422542941570281982e+01 7.389042563736438751e-01
8.804968595504760742e+00 -1.245467746257781982e+01 7.574742026627063751e-01
9.131262540817260742e+00 -1.273116672039031982e+01 7.667057700455188751e-01
9.477453947067260742e+00 -1.302462375164031982e+01 7.765019126236438751e-01
9.803259611129760742e+00 -1.327523410320281982e+01 7.847721762955188751e-01
1.015042757987976074e+01 -1.354537570476531982e+01 7.937138266861438751e-01
2.240750765800476074e+01 -3.026253879070281982e+01 1.374356526881456375e+00
2.269534945487976074e+01 -3.014449679851531982e+01 1.369122762233018875e+00
2.550125765800476074e+01 -3.338570773601531982e+01 1.480405110865831375e+00
1.605423617362976074e+01 -2.339791476726531982e+01 1.264828938990831375e+00
1.606925082206726074e+01 -2.301803195476531982e+01 1.249356526881456375e+00
1.635465121269226074e+01 -2.304085910320281982e+01 1.250180501490831375e+00
1.663114047050476074e+01 -2.304427707195281982e+01 1.249554891139268875e+00
1.681644320487976074e+01 -2.291610324382781982e+01 1.244260091334581375e+00
2.242923617362976074e+01 -3.028585422039031982e+01 1.542935628443956375e+00
2.270560336112976074e+01 -3.015169894695281982e+01 1.537366170436143875e+00
2.313895297050476074e+01 -3.022579562664031982e+01 1.540219563990831375e+00
1.588504672050476074e+01 -2.313717257976531982e+01 1.377743978053331375e+00
1.612760043144226074e+01 -2.309933078289031982e+01 1.375958699733018875e+00
1.639395785331726074e+01 -2.309298312664031982e+01 1.376279134303331375e+00
2.168839144706726074e+01 -3.027523410320281982e+01 1.707654256373643875e+00
2.406534457206726074e+01 -3.310213840007781982e+01 1.838742513209581375e+00
2.245096468925476074e+01 -3.030904757976531982e+01 1.710889119654893875e+00
2.271585726737976074e+01 -3.015890109539031982e+01 1.704816121608018875e+00
2.311344027519226074e+01 -3.018502414226531982e+01 1.707776326686143875e+00
7.323279142379760742e+00 -9.152919650077819824e+00 -1.757685951888561249e-01
7.392126798629760742e+00 -9.100307345390319824e+00 -1.776149086654186249e-01
7.463782072067260742e+00 -9.051357150077819824e+00 -1.799495033919811249e-01
7.540442228317260742e+00 -9.008266329765319824e+00 -1.826960854232311249e-01
7.617224454879760742e+00 -8.965175509452819824e+00 -1.854426674544811249e-01
7.693396329879760742e+00 -8.920741915702819824e+00 -1.881282143294811249e-01
7.766150236129760742e+00 -8.872280001640319824e+00 -1.905391030013561249e-01
7.835608243942260742e+00 -8.819545626640319824e+00 -1.929194740951061249e-01
7.915442228317260742e+00 -9.944179415702819824e+00 -1.728694252669811249e-01
7.986243009567260742e+00 -9.880702853202819824e+00 -1.748225502669811249e-01
8.058142423629760742e+00 -9.818813204765319824e+00 -1.768672280013561249e-01
8.136267423629760742e+00 -9.764369845390319824e+00 -1.790797524154186249e-01
8.220862150192260742e+00 -9.718349337577819824e+00 -1.820704750716686249e-01
8.300451993942260742e+00 -9.665370821952819824e+00 -1.849391274154186249e-01
8.377966642379760742e+00 -9.610072970390319824e+00 -1.873957924544811249e-01
8.455481290817260742e+00 -9.554653048515319824e+00 -1.898371987044811249e-01
8.671179533004760742e+00 -1.095431125164031982e+01 -1.721064858138561249e-01
8.757605314254760742e+00 -1.089413058757781982e+01 -1.748378090560436249e-01
8.846716642379760742e+00 -1.083712375164031982e+01 -1.777369789779186249e-01
8.936194181442260742e+00 -1.077987277507781982e+01 -1.806666664779186249e-01
9.025549650192260742e+00 -1.072262179851531982e+01 -1.835810951888561249e-01
9.115393400192260742e+00 -1.066524875164031982e+01 -1.865107826888561249e-01
9.205115079879760742e+00 -1.060787570476531982e+01 -1.894404701888561249e-01
9.293371915817260742e+00 -1.054842746257781982e+01 -1.922633461654186249e-01
9.618933439254760742e+00 -1.222103488445281982e+01 -1.717707924544811249e-01
9.713537931442260742e+00 -1.214986789226531982e+01 -1.743037514388561249e-01
9.802771329879760742e+00 -1.207162082195281982e+01 -1.768519692122936249e-01
9.892248868942260742e+00 -1.199325168132781982e+01 -1.794154457747936249e-01
9.981360197067260742e+00 -1.191524875164031982e+01 -1.819636635482311249e-01
1.007071566581726074e+01 -1.183700168132781982e+01 -1.845271401107311249e-01
1.015958285331726074e+01 -1.175912082195281982e+01 -1.870753578841686249e-01
1.024283480644226074e+01 -1.167440402507781982e+01 -1.896235756576061249e-01
1.079312777519226074e+01 -1.379024875164031982e+01 -1.686122231185436249e-01
1.089615511894226074e+01 -1.370345675945281982e+01 -1.716334633529186249e-01
1.099930453300476074e+01 -1.361666476726531982e+01 -1.746547035872936249e-01
1.110269808769226074e+01 -1.352975070476531982e+01 -1.776912026107311249e-01
1.120572543144226074e+01 -1.344308078289031982e+01 -1.807124428451061249e-01
1.130130648612976074e+01 -1.334664523601531982e+01 -1.833369545638561249e-01
1.137479281425476074e+01 -1.322469699382781982e+01 -1.848170571029186249e-01
1.144791293144226074e+01 -1.310360324382781982e+01 -1.863124184310436249e-01
1.213748812675476074e+01 -1.558663547039031982e+01 -1.556269936263561249e-01
1.163101840019226074e+01 -1.466720187664031982e+01 -1.302516274154186249e-01
1.241861605644226074e+01 -1.544894015789031982e+01 -1.641871742904186249e-01
1.254263949394226074e+01 -1.535714328289031982e+01 -1.679408363997936249e-01
1.266641879081726074e+01 -1.526546847820281982e+01 -1.716792397201061249e-01
1.279068636894226074e+01 -1.517354953289031982e+01 -1.754329018294811249e-01
1.291458773612976074e+01 -1.508187472820281982e+01 -1.791865639388561249e-01
1.303238558769226074e+01 -1.498263156414031982e+01 -1.831080727279186249e-01
1.697635531425476074e+01 -2.205794894695281982e+01 -2.543361000716686249e-01
1.163248324394226074e+01 -1.466598117351531982e+01 -5.034134909510612488e-02
1.748392367362976074e+01 -2.199398410320281982e+01 -2.707698158919811249e-01
1.772330355644226074e+01 -2.193722140789031982e+01 -2.784297280013561249e-01
1.480911898612976074e+01 -1.793905246257781982e+01 -1.672999672591686249e-01
1.492948031425476074e+01 -1.779708468914031982e+01 -1.707179360091686249e-01
1.392911410331726074e+01 -1.630379855632781982e+01 -1.321131996810436249e-01
1.516812777519226074e+01 -1.751559054851531982e+01 -1.774775795638561249e-01
1.825882601737976074e+01 -2.376888644695281982e+01 -1.715113930404186249e-01
1.163394808769226074e+01 -1.466476047039031982e+01 2.955367043614387512e-02
1.904141879081726074e+01 -2.400240695476531982e+01 -1.943385414779186249e-01
1.939957308769226074e+01 -2.406222140789031982e+01 -2.050959877669811249e-01
1.972940707206726074e+01 -2.408077609539031982e+01 -2.149989418685436249e-01
2.006534457206726074e+01 -2.409981906414031982e+01 -2.250850014388561249e-01
1.393070101737976074e+01 -1.630233371257781982e+01 -3.978226706385612488e-02
2.093570590019226074e+01 -2.435885226726531982e+01 -2.520015053451061249e-01
1.915006136894226074e+01 -2.495565402507781982e+01 -5.948136374354362488e-02
1.163541293144226074e+01 -1.466353976726531982e+01 1.098759360611438751e-01
2.000028109550476074e+01 -2.523617160320281982e+01 -8.162186667323112488e-02
2.043021273612976074e+01 -2.536617648601531982e+01 -9.285233542323112488e-02
2.086051058769226074e+01 -2.548800265789031982e+01 -1.041285805404186249e-01
2.142215609550476074e+01 -2.576034152507781982e+01 -1.184565834701061249e-01
1.393241000175476074e+01 -1.630099093914031982e+01 5.303694680333137512e-02
2.242374300956726074e+01 -2.611983859539031982e+01 -1.444423012435436249e-01
1.992813754081726074e+01 -2.599056613445281982e+01 6.713606789708137512e-02
1.163687777519226074e+01 -1.466244113445281982e+01 1.897709555923938751e-01
2.088004183769226074e+01 -2.636739718914031982e+01 4.662825539708137512e-02
2.136173129081726074e+01 -2.654366672039031982e+01 3.616072610020637512e-02
2.183182406425476074e+01 -2.669527804851531982e+01 2.578474953770637512e-02
2.233499789237976074e+01 -2.687520968914031982e+01 1.481368020176887512e-02
1.393399691581726074e+01 -1.629964816570281982e+01 1.453526206314563751e-01
2.339139437675476074e+01 -2.726253879070281982e+01 -8.150797337293624878e-03
1.783231234550476074e+01 -2.318307101726531982e+01 2.273991294205188751e-01
1.163834261894226074e+01 -1.466122043132781982e+01 2.700779624283313751e-01
1.799845004081726074e+01 -2.263973605632781982e+01 2.181065268814563751e-01
2.214639925956726074e+01 -2.753426730632781982e+01 1.809361167252063751e-01
2.265665316581726074e+01 -2.771920382976531982e+01 1.719639487564563751e-01
2.317203402519226074e+01 -2.789681613445281982e+01 1.627934165298938751e-01
1.393570590019226074e+01 -1.629830539226531982e+01 2.381565757095813751e-01
2.417850375175476074e+01 -2.819063937664031982e+01 1.443302817642688751e-01
1.786636996269226074e+01 -2.322347629070281982e+01 3.555271811783313751e-01
1.163980746269226074e+01 -1.465999972820281982e+01 3.499577231705188751e-01
1.800821566581726074e+01 -2.264742648601531982e+01 3.447392173111438751e-01
2.289835238456726074e+01 -2.848275363445281982e+01 3.365147300064563751e-01
2.340958285331726074e+01 -2.865279757976531982e+01 3.294193930923938751e-01
2.389285922050476074e+01 -2.877523410320281982e+01 3.221714682877063751e-01
1.393729281425476074e+01 -1.629696261882781982e+01 3.304569907486438751e-01
2.492581820487976074e+01 -2.907113254070281982e+01 3.071720786392688751e-01
1.800089144706726074e+01 -2.339828097820281982e+01 4.856236167252063751e-01
1.164127230644226074e+01 -1.465877902507781982e+01 4.302647300064563751e-01
1.825968050956726074e+01 -2.296737277507781982e+01 4.732182212173938751e-01
2.361026644706726074e+01 -2.938021457195281982e+01 5.028813071548938751e-01
2.409854769706726074e+01 -2.950631320476531982e+01 4.974491782486438751e-01
2.462711215019226074e+01 -2.966964328289031982e+01 4.920323081314563751e-01
1.393900179862976074e+01 -1.629549777507781982e+01 4.232456870377063751e-01
2.576920199394226074e+01 -3.006515109539031982e+01 4.820378012955188751e-01
1.118521761894226074e+01 -1.428780734539031982e+01 5.081150718033313751e-01
1.158023715019226074e+01 -1.457552707195281982e+01 5.091831870377063751e-01
1.196817660331726074e+01 -1.484151828289031982e+01 5.098698325455188751e-01
1.236588168144226074e+01 -1.510702121257781982e+01 5.104191489517688751e-01
1.278299593925476074e+01 -1.538546359539031982e+01 5.110142417252063751e-01
1.322415804862976074e+01 -1.568001925945281982e+01 5.116245932877063751e-01
1.368814730644226074e+01 -1.598971164226531982e+01 5.122807212173938751e-01
1.416336703300476074e+01 -1.629915988445281982e+01 5.127690024673938751e-01
1.112052035331726074e+01 -1.419820773601531982e+01 5.842106528580188751e-01
1.153116488456726074e+01 -1.450814425945281982e+01 5.874149985611438751e-01
1.194058871269226074e+01 -1.480282199382781982e+01 5.906803794205188751e-01
1.235440707206726074e+01 -1.508944308757781982e+01 5.936863608658313751e-01
1.278995394706726074e+01 -1.539095675945281982e+01 5.968449302017688751e-01
1.325199007987976074e+01 -1.571090304851531982e+01 6.002018637955188751e-01
1.373966097831726074e+01 -1.604854953289031982e+01 6.037419028580188751e-01
1.423209261894226074e+01 -1.637728488445281982e+01 6.075260825455188751e-01
1.117154574394226074e+01 -1.426339328289031982e+01 6.624577231705188751e-01
1.156046175956726074e+01 -1.454342257976531982e+01 6.676762290298938751e-01
1.194547152519226074e+01 -1.480599582195281982e+01 6.724369712173938751e-01
1.233731722831726074e+01 -1.506441867351531982e+01 6.770146079361438751e-01
1.274783968925476074e+01 -1.533517062664031982e+01 6.818211264908313751e-01
1.318155550956726074e+01 -1.562130343914031982e+01 6.868870444595813751e-01
1.363724398612976074e+01 -1.592184054851531982e+01 6.922276206314563751e-01
1.414566683769226074e+01 -1.627144992351531982e+01 6.985752768814563751e-01
1.114725375175476074e+01 -1.422787082195281982e+01 7.389805503189563751e-01
1.157169222831726074e+01 -1.455514132976531982e+01 7.472660727798938751e-01
1.198868441581726074e+01 -1.485873019695281982e+01 7.552311606705188751e-01
1.241605257987976074e+01 -1.516122043132781982e+01 7.631199546158313751e-01
1.286673617362976074e+01 -1.548031222820281982e+01 7.714512534439563751e-01
2.459171175956726074e+01 -2.960103976726531982e+01 1.175046224147081375e+00
2.549149203300476074e+01 -3.020223605632781982e+01 1.190518636256456375e+00
2.897428011894226074e+01 -3.383736789226531982e+01 1.293484944850206375e+00
2.287869906425476074e+01 -2.988338840007781982e+01 1.358914632350206375e+00
2.332681918144226074e+01 -2.997396457195281982e+01 1.361523885279893875e+00
2.668826937675476074e+01 -3.381222140789031982e+01 1.493970174342393875e+00
2.428946566581726074e+01 -3.020956027507781982e+01 1.368588704615831375e+00
2.513834261894226074e+01 -3.077071750164031982e+01 1.387433309108018875e+00
2.846146273612976074e+01 -3.433614718914031982e+01 1.510175008326768875e+00
2.484207797050476074e+01 -2.941353976726531982e+01 1.339337605983018875e+00
2.978519320487976074e+01 -3.479085910320281982e+01 1.524548787623643875e+00
2.313919711112976074e+01 -3.022433078289031982e+01 1.540158528834581375e+00
2.330472445487976074e+01 -2.993832004070281982e+01 1.529141683131456375e+00
2.345633578300476074e+01 -2.963778293132781982e+01 1.517529744654893875e+00
2.789566683769226074e+01 -3.477352511882781982e+01 1.725018758326768875e+00
2.429801058769226074e+01 -2.971700656414031982e+01 1.520962972193956375e+00
2.511124300956726074e+01 -3.022494113445281982e+01 1.543042439967393875e+00
2.986063265800476074e+01 -3.545174777507781982e+01 1.755612630397081375e+00
3.049759554862976074e+01 -3.562716281414031982e+01 1.763440389186143875e+00
2.311380648612976074e+01 -3.018380343914031982e+01 1.707715291529893875e+00
2.471634554862976074e+01 -3.178304660320281982e+01 1.782376546412706375e+00
2.343485140800476074e+01 -2.960372531414031982e+01 1.683285970240831375e+00
2.858890414237976074e+01 -3.564437472820281982e+01 1.964841146022081375e+00
2.493631625175476074e+01 -3.050582492351531982e+01 1.728482503443956375e+00
2.476846957206726074e+01 -2.979867160320281982e+01 1.697400350123643875e+00
2.501187777519226074e+01 -2.960555636882781982e+01 1.690152425318956375e+00
3.116458773612976074e+01 -3.640938937664031982e+01 2.009915608912706375e+00
7.836096525192260742e+00 -8.819667696952819824e+00 -1.929499916732311249e-01
7.909582853317260742e+00 -8.771571993827819824e+00 -1.953608803451061249e-01
7.979773283004760742e+00 -8.719325900077819824e+00 -1.977717690169811249e-01
8.050207853317260742e+00 -8.666835665702819824e+00 -2.001826576888561249e-01
8.120520353317260742e+00 -8.614467501640319824e+00 -2.025935463607311249e-01
8.191199064254760742e+00 -8.561855196952819824e+00 -2.050196938216686249e-01
8.261755704879760742e+00 -8.509242892265319824e+00 -2.074305824935436249e-01
8.324011564254760742e+00 -8.447719454765319824e+00 -2.094600014388561249e-01
8.455847501754760742e+00 -9.554530978202819824e+00 -1.898524574935436249e-01
8.530920743942260742e+00 -9.496059298515319824e+00 -1.923396401107311249e-01
8.606116056442260742e+00 -9.437587618827819824e+00 -1.948268227279186249e-01
8.685095548629760742e+00 -9.382655978202819824e+00 -1.972834877669811249e-01
8.760535001754760742e+00 -9.324062228202819824e+00 -1.997706703841686249e-01
8.832678556442260742e+00 -9.261318087577819824e+00 -2.023188881576061249e-01
8.908240079879760742e+00 -9.202602267265319824e+00 -2.048060707747936249e-01
8.983923673629760742e+00 -9.143764376640319824e+00 -2.073085121810436249e-01
9.293738126754760742e+00 -1.054842746257781982e+01 -1.922938637435436249e-01
9.370642423629760742e+00 -1.047542941570281982e+01 -1.945826821029186249e-01
9.447424650192260742e+00 -1.040243136882781982e+01 -1.968562416732311249e-01
9.524451017379760742e+00 -1.032931125164031982e+01 -1.991450600326061249e-01
9.601233243942260742e+00 -1.025643527507781982e+01 -2.014338783919811249e-01
9.678137540817260742e+00 -1.018331515789031982e+01 -2.037226967513561249e-01
9.754797697067260742e+00 -1.011056125164031982e+01 -2.060115151107311249e-01
9.831457853317260742e+00 -1.003780734539031982e+01 -2.082850746810436249e-01
1.024344515800476074e+01 -1.167452609539031982e+01 -1.896540932357311249e-01
1.033450961112976074e+01 -1.159945285320281982e+01 -1.921870522201061249e-01
1.041995882987976074e+01 -1.151766574382781982e+01 -1.947352699935436249e-01
1.050565218925476074e+01 -1.143575656414031982e+01 -1.972987465560436249e-01
1.059097933769226074e+01 -1.135409152507781982e+01 -1.998469643294811249e-01
1.067667269706726074e+01 -1.127230441570281982e+01 -2.023951821029186249e-01
